ply
format ascii 1.0
comment Created by Open3D
element vertex 2227
property double x
property double y
property double z
property uchar red
property uchar green
property uchar blue
end_header
460 493 267 123 24 43
414 483 370 186 19 63
329 568 330 169 6 52
294 267 301 83 64 41
280 400 176 173 15 18
282 404 172 135 11 31
299 468 189 142 13 34
294 623 219 68 33 38
278 844 254 186 128 103
274 401 180 150 15 25
274 402 185 132 14 30
423 566 263 111 84 45
469 774 230 112 86 60
279 401 180 159 14 21
280 400 179 164 14 20
408 729 160 68 54 40
433 448 260 99 24 35
279 402 185 143 14 25
266 684 222 116 18 31
274 403 190 114 15 34
264 438 331 75 31 34
289 404 190 155 14 16
276 555 379 163 108 95
224 813 335 199 143 118
258 423 162 48 39 42
260 423 163 52 36 37
264 423 164 130 21 42
258 427 162 50 39 43
269 333 365 138 102 79
260 428 163 50 40 42
220 793 266 64 53 52
334 423 280 107 87 65
269 423 166 123 14 37
228 778 338 162 120 86
324 937 305 90 82 82
268 428 167 154 5 37
267 432 167 157 5 33
353 607 279 185 19 60
334 422 221 84 6 32
259 438 166 143 13 38
265 439 168 148 5 33
388 492 354 104 29 40
260 443 168 154 2 32
184 663 310 133 96 65
266 537 398 169 118 98
369 494 360 53 27 25
258 733 332 161 20 53
259 448 169 151 9 35
361 825 205 97 78 71
264 443 169 154 0 34
374 518 225 55 34 36
257 288 261 116 94 70
264 448 171 163 3 37
313 537 366 148 16 47
266 435 168 154 12 42
271 440 173 164 2 39
268 443 171 163 1 36
226 808 266 76 62 60
272 418 167 153 21 42
347 716 303 128 19 41
310 303 361 131 96 66
274 418 169 148 10 37
321 850 355 36 33 34
312 292 317 106 77 53
274 423 170 149 1 33
278 423 172 153 0 34
227 692 258 63 36 40
236 831 295 53 48 50
284 773 214 74 60 54
340 420 223 85 11 30
281 418 173 150 0 33
317 384 282 105 88 69
277 432 172 162 0 39
284 428 175 156 2 37
183 573 285 68 29 39
285 434 178 162 1 34
289 433 180 154 6 38
433 500 304 49 25 24
272 437 172 161 1 37
355 682 230 118 67 79
274 443 175 169 5 38
276 445 178 169 4 38
274 388 265 91 75 57
449 833 230 85 68 58
280 439 178 168 3 36
192 758 298 166 114 84
279 448 180 157 6 35
282 436 177 162 0 34
289 438 181 159 2 36
448 484 278 111 21 35
401 809 305 45 37 29
289 448 182 81 27 35
304 609 335 103 28 42
213 533 209 143 22 42
299 399 181 113 25 29
296 400 183 134 19 23
332 784 193 108 78 54
398 497 344 132 36 46
413 500 261 87 33 27
278 531 337 34 25 26
302 400 182 102 33 31
292 403 177 134 11 27
295 406 190 147 19 17
277 864 269 166 124 95
301 424 183 50 38 41
293 413 177 136 8 34
303 403 182 58 33 38
289 518 420 134 95 80
299 493 360 103 10 36
305 402 183 72 34 33
383 522 236 184 5 40
309 398 190 118 26 25
309 403 185 98 30 32
306 413 183 60 34 36
389 548 259 63 23 29
309 413 185 61 39 41
266 931 358 65 61 62
382 511 353 173 18 55
315 403 189 115 26 24
289 338 301 93 79 63
313 408 187 81 32 35
316 408 188 94 33 33
361 593 250 169 2 55
318 403 191 111 28 27
313 413 187 77 35 38
236 756 327 138 94 68
316 413 188 84 34 36
295 418 178 82 31 39
292 422 177 147 17 44
294 428 180 86 35 39
306 304 318 98 79 55
341 510 407 184 33 61
299 423 181 53 38 42
204 778 335 175 123 95
303 418 182 103 31 39
302 422 182 53 41 40
305 418 183 104 36 41
279 557 202 172 0 37
304 423 184 73 36 42
367 718 279 49 29 34
332 405 301 114 93 68
296 433 183 146 16 38
357 490 369 55 29 23
373 587 333 97 29 42
299 408 346 162 116 97
299 433 184 135 18 36
268 512 401 107 87 67
304 428 185 95 33 40
294 878 230 63 58 59
293 437 182 151 7 35
309 328 314 97 82 68
249 868 310 180 132 109
295 438 183 140 8 33
291 443 183 132 7 34
299 438 184 128 14 31
299 443 184 117 21 32
422 796 292 61 50 38
404 499 335 97 37 37
283 287 367 106 88 70
279 842 251 188 131 105
266 299 345 116 94 70
304 443 185 93 28 39
304 448 186 115 23 38
309 423 186 66 34 39
309 428 187 97 35 38
374 763 245 149 108 76
311 428 188 64 38 39
250 893 300 68 56 50
362 853 222 76 60 57
313 418 187 85 37 37
196 619 344 142 105 75
175 518 230 127 5 36
312 422 187 39 36 47
262 358 335 126 92 73
379 483 256 56 32 29
370 573 280 86 30 41
289 373 283 104 87 69
273 313 319 103 82 57
379 823 244 44 37 31
314 423 189 49 38 41
398 768 217 126 93 64
303 338 369 140 99 73
297 501 368 99 14 36
319 418 190 80 37 39
319 423 191 65 37 40
314 433 189 58 38 39
319 428 191 119 28 38
176 548 265 75 31 37
319 433 191 88 35 37
354 673 225 97 74 74
258 813 315 51 41 37
314 598 214 93 33 40
308 447 187 153 15 34
208 623 310 69 30 36
310 444 188 119 22 39
309 448 189 118 24 36
479 579 295 70 46 48
203 560 228 180 11 47
312 434 187 46 37 41
307 854 218 68 62 61
312 437 187 75 34 35
396 490 386 195 19 62
408 773 185 90 67 53
359 643 221 122 82 67
314 438 188 57 38 40
278 263 340 117 95 73
365 610 215 96 80 62
319 438 191 49 37 40
189 518 210 187 7 41
314 443 189 103 31 39
314 448 190 59 34 38
472 502 268 110 23 40
318 448 192 47 37 40
264 407 195 97 16 38
339 868 225 74 63 64
214 793 339 179 129 101
248 913 295 66 60 60
259 409 200 94 19 38
502 586 282 217 19 55
311 895 377 52 50 51
259 409 205 91 29 37
264 408 205 92 34 36
228 648 260 163 8 43
203 803 315 198 135 105
268 406 196 95 18 38
269 406 200 93 24 38
340 437 260 86 69 49
264 408 220 95 58 28
451 755 257 97 73 46
409 448 264 113 15 35
383 597 241 115 61 59
264 407 225 94 60 27
259 409 215 92 54 34
229 563 219 176 8 43
264 408 210 95 47 33
398 603 221 118 93 62
359 806 155 90 70 58
259 409 220 90 57 34
408 448 256 134 18 34
269 406 225 98 60 23
316 455 193 62 35 42
274 405 198 106 24 35
399 463 257 85 27 34
389 433 245 96 22 34
462 780 254 91 71 55
274 406 200 103 28 34
187 560 248 144 26 53
279 405 195 123 20 31
279 405 198 120 26 31
414 498 331 65 34 29
279 406 200 116 31 30
365 808 246 64 50 40
274 407 205 101 40 31
284 405 194 142 18 24
345 448 265 92 71 48
305 267 357 114 92 67
284 407 200 127 28 26
288 405 193 150 17 18
282 621 328 140 23 51
348 483 226 154 5 38
289 406 195 145 20 19
271 615 333 34 27 31
349 448 215 106 20 34
271 402 333 130 92 76
284 407 205 112 39 26
395 843 345 64 53 47
274 407 210 99 49 26
297 758 203 71 57 50
274 407 215 100 55 20
223 708 260 91 32 42
279 407 210 102 48 24
274 406 220 100 58 19
496 586 289 179 32 63
274 406 224 100 60 22
274 358 295 86 72 58
279 406 220 102 56 22
291 668 322 156 7 50
263 462 177 169 4 38
279 406 224 103 59 24
419 531 313 75 30 35
376 813 237 45 36 31
454 523 260 57 35 32
289 408 210 108 46 24
284 407 220 104 55 24
284 406 225 106 58 26
289 407 225 106 59 26
259 399 246 76 62 48
459 509 325 57 21 25
264 398 246 69 55 43
279 343 300 90 74 56
377 471 264 72 8 24
259 392 255 79 66 53
304 893 230 107 99 95
259 298 295 85 69 52
264 396 248 67 55 45
269 398 245 90 73 53
389 596 224 103 87 71
264 406 230 90 63 32
244 743 325 136 97 77
259 404 240 79 62 41
264 384 275 72 59 46
257 406 238 87 66 39
191 588 313 147 4 45
260 405 236 78 59 36
228 703 250 85 24 38
304 332 308 99 85 70
265 357 307 75 62 49
251 540 355 51 30 30
213 549 218 145 37 56
264 403 240 79 63 43
378 673 205 145 99 67
269 405 230 95 67 32
273 944 346 63 59 60
267 406 228 94 62 25
270 405 227 98 61 24
266 338 359 138 102 80
269 402 240 91 73 48
259 402 244 80 62 45
314 623 220 80 33 38
240 738 235 53 35 39
333 403 320 123 95 62
263 401 243 69 57 39
268 401 243 88 70 45
336 760 287 74 57 48
411 473 263 63 31 30
366 663 188 128 93 57
389 453 264 89 0 27
274 399 240 99 85 63
364 458 261 77 19 27
335 618 286 71 29 37
279 398 240 104 87 66
196 536 217 64 32 35
226 826 292 182 124 102
284 398 240 107 84 57
415 598 244 180 122 94
350 856 206 87 74 67
278 391 254 102 84 63
275 395 246 100 82 62
274 397 245 98 82 64
262 940 308 81 77 78
308 733 314 52 43 39
284 392 250 106 89 71
350 458 225 133 10 36
466 561 308 124 34 47
339 520 360 92 30 43
349 566 327 50 25 29
284 389 255 106 89 71
281 395 242 106 90 71
282 395 242 109 91 72
188 653 308 132 97 67
285 396 243 109 92 72
299 638 316 145 23 49
186 718 325 168 115 89
289 399 241 109 72 35
334 748 291 74 56 48
274 405 226 100 61 23
267 308 356 121 96 70
290 525 346 38 24 25
275 893 250 78 70 69
302 931 363 55 53 54
294 837 340 106 83 61
274 404 230 100 65 27
279 404 230 104 63 27
268 328 365 132 99 74
321 358 340 127 100 69
273 401 238 99 80 53
279 402 235 103 72 37
444 838 231 92 75 64
379 443 256 81 3 25
276 400 237 102 84 57
188 544 229 135 23 43
283 405 226 106 59 26
258 868 295 171 131 103
284 405 230 107 60 26
185 733 310 165 114 87
299 505 418 99 74 56
288 405 231 108 60 25
449 778 275 92 71 56
286 406 228 107 59 26
289 406 230 108 60 25
284 403 235 107 64 27
385 643 215 187 126 97
282 400 237 106 76 42
285 401 238 108 67 29
294 408 200 128 27 23
350 581 332 149 18 47
364 640 222 138 92 71
380 483 258 60 35 31
294 409 205 117 37 24
279 913 264 93 82 80
327 698 313 33 28 29
304 404 193 126 24 22
381 510 356 183 16 57
370 728 184 100 78 53
300 405 193 135 22 20
299 408 200 123 26 25
264 873 366 144 114 92
384 834 325 52 42 35
304 409 200 116 26 25
423 561 269 105 71 39
409 518 325 121 33 49
257 491 187 162 0 34
299 409 205 115 33 25
265 718 221 103 30 40
304 410 204 109 30 26
294 409 210 109 48 22
299 413 344 161 118 98
319 683 314 58 25 31
294 408 220 101 57 23
294 408 225 102 59 25
298 503 336 81 20 32
328 818 269 84 69 55
299 410 210 107 43 24
299 410 215 100 51 25
302 410 210 102 39 26
188 638 336 147 108 81
359 668 224 106 67 56
338 485 380 66 27 27
304 411 210 94 36 28
354 509 395 166 17 56
299 410 220 95 55 26
399 489 385 128 25 48
254 578 347 71 25 33
299 409 225 93 54 27
301 411 216 93 49 28
301 411 220 90 50 29
399 517 330 47 26 33
304 412 220 85 43 29
304 411 225 81 40 27
321 405 203 86 27 31
317 400 192 100 32 32
321 940 308 90 83 81
319 399 195 90 37 32
309 403 194 112 26 26
308 406 196 113 26 25
311 400 193 110 24 30
309 411 201 104 26 27
307 410 203 108 27 26
239 678 319 82 27 37
294 356 368 161 111 89
309 412 205 95 26 28
263 352 275 80 70 58
264 448 332 47 26 29
305 411 206 102 30 27
314 403 196 102 29 27
320 402 194 87 36 33
319 403 200 90 32 30
349 478 280 65 46 34
320 399 199 88 36 31
429 500 346 82 26 39
318 407 201 89 27 30
299 308 315 87 71 53
272 398 336 131 93 76
314 412 205 88 20 29
249 542 350 35 29 27
315 410 203 92 24 30
450 483 275 120 16 41
390 844 271 76 63 54
320 409 204 85 21 31
319 412 206 83 15 30
309 413 225 74 29 25
362 685 270 86 18 34
306 411 233 72 32 23
314 414 215 77 17 28
319 415 209 80 12 30
356 758 167 77 57 46
278 419 331 131 95 79
295 392 254 110 93 74
356 610 271 188 14 59
294 399 246 107 74 39
294 407 230 103 57 23
191 768 315 190 130 103
294 403 240 106 61 23
293 405 236 106 59 22
295 673 321 137 14 44
332 856 206 132 98 70
295 406 234 103 56 21
298 404 241 98 54 22
354 814 165 93 71 58
304 409 235 78 38 22
260 833 310 153 113 89
401 458 258 122 25 38
379 738 150 69 54 42
349 833 185 95 74 60
304 407 240 81 40 22
292 400 242 108 67 27
367 703 255 105 19 39
295 401 244 106 64 27
299 403 245 102 59 27
302 405 242 90 48 23
305 406 244 81 42 24
300 401 249 102 63 34
418 803 259 87 69 56
302 400 252 102 68 41
311 831 302 80 67 54
289 513 331 95 9 33
393 781 141 94 75 61
370 579 239 37 28 32
267 891 377 71 55 50
304 403 250 95 58 35
309 413 230 72 29 24
216 523 343 31 27 29
307 410 236 71 31 23
308 409 240 71 32 22
379 603 240 119 63 60
310 411 240 67 27 23
196 606 298 79 32 38
261 515 391 112 89 67
258 288 265 119 95 69
313 415 230 71 25 25
403 757 175 63 49 38
455 750 265 89 71 55
314 414 235 69 24 24
314 414 240 68 23 24
414 593 265 181 125 109
309 408 245 70 34 24
305 401 254 97 65 42
250 663 323 59 28 34
371 698 188 117 90 57
296 676 322 140 15 46
309 403 255 89 62 44
332 892 358 51 48 49
310 407 249 74 43 30
249 748 326 154 108 86
311 406 253 78 51 38
322 807 194 55 50 50
311 411 243 65 27 23
274 593 216 80 35 41
269 653 226 56 34 38
401 580 250 108 77 57
313 409 250 66 35 28
324 758 296 69 53 44
314 407 255 72 50 39
447 505 272 52 29 34
314 413 245 65 24 23
434 500 346 75 25 38
312 410 246 65 30 24
384 823 374 71 56 43
267 348 295 93 72 58
304 567 202 50 37 41
424 575 290 91 54 52
317 415 242 70 21 24
329 638 295 34 28 31
284 293 374 105 88 70
408 500 255 91 28 34
319 417 215 78 13 29
201 778 290 175 118 87
394 543 312 115 20 41
315 416 220 74 19 27
319 418 225 74 19 27
324 859 205 108 85 73
319 418 230 73 21 26
353 866 368 57 52 50
319 418 235 72 22 25
204 743 337 170 118 91
185 558 314 170 0 51
305 843 225 61 56 56
316 416 238 70 23 24
290 749 326 67 53 48
444 518 255 80 33 32
319 417 240 72 21 25
202 578 326 55 30 33
320 417 250 65 21 24
275 464 183 143 1 29
259 453 170 71 31 39
457 510 317 51 23 24
263 452 172 85 24 39
327 394 295 114 92 69
389 553 313 122 20 43
394 845 257 66 51 46
249 718 230 137 4 35
286 738 207 81 29 37
258 457 172 50 38 41
294 935 288 91 85 87
260 459 174 83 23 36
256 460 173 70 20 27
264 458 176 154 9 37
356 686 292 131 7 40
404 433 254 130 20 41
266 450 173 164 9 39
466 506 267 121 13 33
358 501 403 149 20 54
268 453 176 169 7 38
309 903 374 53 48 47
381 595 238 103 66 55
270 454 179 171 8 36
294 384 266 110 92 74
267 457 177 170 8 37
234 663 250 44 35 39
216 576 232 192 9 46
266 460 178 171 4 37
254 678 230 122 11 30
381 631 198 121 94 59
322 845 302 56 49 43
337 693 199 107 74 58
265 463 179 173 4 35
332 425 235 74 15 25
269 463 181 166 4 35
259 468 176 75 27 38
322 364 343 128 96 68
479 528 275 142 11 45
290 679 212 50 36 36
262 466 177 166 9 40
379 422 246 72 9 26
258 478 181 60 32 38
268 467 182 166 1 34
270 469 183 156 1 32
266 470 183 171 2 37
439 513 330 95 32 41
297 640 318 158 19 49
274 453 180 162 4 35
269 503 327 53 26 30
227 666 268 30 35 39
282 766 318 73 55 48
344 742 289 76 58 49
314 477 360 53 24 27
274 458 181 154 2 33
305 521 412 71 27 34
415 506 249 103 32 27
304 513 195 65 32 36
274 463 182 147 4 29
311 490 383 46 20 23
278 458 182 141 4 29
364 477 400 76 24 35
382 580 313 95 31 39
279 463 183 145 4 33
284 453 182 91 23 34
254 593 222 171 13 44
189 653 340 157 109 83
272 373 299 77 63 48
281 455 183 139 11 33
337 526 376 64 22 26
221 643 305 96 23 37
284 455 183 138 12 38
288 452 182 64 36 38
280 382 354 154 109 94
289 453 183 103 33 42
386 810 194 94 72 61
324 803 190 57 50 50
284 463 184 113 20 35
274 468 183 144 1 32
358 558 227 134 11 32
274 466 182 142 2 27
298 352 368 156 106 83
274 478 185 133 1 28
284 468 184 71 29 36
204 673 344 169 117 91
284 473 185 146 7 34
411 552 273 57 26 31
414 580 304 39 27 33
289 473 187 156 4 34
332 478 207 137 12 31
284 478 185 152 2 34
254 798 240 77 61 55
190 598 295 67 30 36
444 514 265 85 28 26
259 483 185 158 11 37
365 515 370 102 26 41
257 882 367 147 114 92
440 511 333 79 32 38
352 717 183 138 100 67
259 487 187 163 1 34
264 483 186 147 3 32
284 498 189 116 24 39
324 608 218 66 36 38
442 522 252 68 36 40
387 620 207 119 92 59
265 487 187 136 4 30
225 743 251 111 18 38
260 489 188 151 0 30
264 488 188 139 1 29
276 550 374 105 52 54
259 493 189 147 1 31
214 593 245 189 10 48
264 493 188 133 4 28
334 638 290 55 29 33
270 283 330 112 88 62
238 748 239 91 30 39
269 483 186 137 2 29
264 533 395 154 113 92
329 908 355 40 36 35
269 488 186 115 11 29
408 807 280 81 64 46
346 456 266 85 62 42
300 534 395 117 57 54
269 493 187 53 32 37
352 423 212 76 34 33
259 498 191 139 0 29
264 498 189 138 2 31
259 503 192 140 0 32
185 578 300 126 17 44
308 833 315 81 68 54
259 508 192 138 1 30
264 513 191 137 8 33
269 498 187 77 29 37
173 543 280 184 0 49
434 489 279 75 23 32
267 498 188 140 8 35
230 569 365 133 102 76
270 501 187 70 38 41
248 628 238 66 31 36
269 508 189 92 30 39
269 513 190 72 27 36
274 483 186 136 1 30
274 488 185 132 6 31
177 549 306 47 29 33
423 482 267 50 42 44
322 771 293 71 52 46
335 419 219 82 12 31
274 493 186 75 28 34
279 493 187 137 13 35
422 821 365 87 73 63
283 409 341 139 100 84
284 483 187 153 1 32
403 483 388 165 29 62
301 842 242 127 88 73
248 863 336 135 95 81
186 728 324 173 117 94
187 728 326 175 119 96
285 488 188 150 7 35
319 273 345 128 98 63
287 481 187 159 0 35
422 584 247 129 99 62
434 559 266 111 86 52
356 759 271 81 64 57
267 390 332 121 88 69
342 663 193 142 105 74
260 628 231 116 24 39
354 593 295 190 12 60
289 488 189 104 19 34
283 493 187 150 8 35
289 493 190 67 32 36
274 498 187 44 36 39
190 533 329 155 3 47
272 501 187 51 38 41
274 503 188 59 34 38
381 732 222 153 107 75
278 497 187 73 31 34
235 530 198 116 28 38
222 687 299 46 27 31
279 499 188 95 32 39
279 503 188 93 28 36
274 508 189 49 35 39
426 551 302 59 17 30
299 818 224 85 67 60
279 513 191 42 35 40
282 496 187 122 19 37
339 408 215 85 11 31
289 498 191 94 31 38
284 508 191 77 34 40
302 611 334 74 20 26
283 512 192 46 35 39
432 801 264 85 65 57
294 463 187 60 36 40
289 500 396 59 39 33
299 453 186 87 32 39
358 553 227 140 9 33
191 522 333 51 22 28
463 511 338 176 27 62
221 688 283 59 31 37
384 428 250 70 9 24
206 604 330 96 51 41
284 563 204 112 29 42
323 622 222 63 32 36
297 461 187 116 30 48
299 463 189 102 29 37
394 732 163 53 42 31
318 298 330 122 88 60
304 458 190 93 32 40
234 598 369 180 126 104
267 638 228 101 28 38
304 463 191 93 31 37
293 468 187 133 15 38
295 468 188 152 8 36
410 500 351 201 9 66
374 493 365 76 24 30
365 579 296 167 19 53
292 472 187 160 1 37
294 473 189 156 1 34
288 872 371 81 68 56
394 480 385 130 35 52
291 475 188 158 1 31
299 473 190 145 7 33
367 680 187 120 91 55
429 578 315 97 28 41
304 468 191 68 32 35
294 483 326 85 15 33
356 475 269 65 35 27
304 473 192 108 18 37
321 278 341 127 95 64
299 478 191 146 1 32
296 514 338 64 23 33
303 478 192 143 3 33
341 545 218 128 5 34
309 458 191 84 32 35
450 838 186 126 103 99
474 538 320 125 28 47
260 372 274 85 70 53
312 457 192 58 34 35
294 483 190 149 2 33
299 488 192 104 19 33
326 406 273 93 80 66
218 589 239 188 9 45
258 513 193 142 1 30
386 855 296 57 49 45
257 263 279 94 76 56
345 555 327 163 18 51
260 931 295 78 72 73
284 513 193 92 35 41
289 508 193 47 35 37
276 951 312 84 81 83
326 421 226 78 14 29
387 786 135 98 75 58
328 487 400 79 28 25
289 513 194 56 37 38
310 464 193 75 37 38
319 927 286 83 76 75
449 794 250 91 70 60
311 460 193 45 32 37
264 558 204 173 2 38
314 463 194 48 37 40
327 379 330 122 96 64
319 458 195 104 31 38
369 728 250 89 28 39
380 571 302 164 21 50
186 733 305 161 112 83
378 862 275 63 53 54
319 463 195 56 38 41
306 469 193 93 27 35
387 836 265 60 48 37
309 348 305 103 88 72
309 473 193 148 6 34
334 713 199 90 29 28
306 478 193 144 2 33
314 468 194 60 33 36
314 473 195 95 22 37
313 478 196 145 4 34
319 474 198 152 6 34
224 518 195 78 34 38
319 478 199 142 5 33
203 569 234 129 23 45
316 353 352 132 100 69
254 829 297 44 32 29
321 698 317 140 32 54
342 841 186 110 88 72
302 487 192 98 21 33
226 773 257 72 59 53
304 488 193 120 16 31
300 490 193 35 32 37
299 493 193 59 33 37
304 493 194 116 26 38
293 497 192 109 24 36
294 513 195 40 37 40
304 498 195 86 29 37
304 503 195 78 29 34
343 713 190 148 110 79
449 543 315 125 21 45
322 373 343 134 100 70
349 523 340 122 29 47
356 789 147 87 65 49
299 513 195 40 36 40
394 485 361 155 27 58
309 488 194 127 9 29
229 517 192 55 36 38
447 505 317 48 21 27
313 483 197 131 7 29
316 483 198 132 8 31
314 488 196 122 11 29
314 398 265 97 81 64
319 483 200 129 11 29
224 583 365 140 105 78
319 488 199 121 14 28
317 492 197 127 9 28
214 678 310 108 68 54
319 493 199 123 10 27
309 498 196 139 11 34
309 508 195 65 31 38
349 521 375 75 28 36
372 571 280 78 31 41
314 498 197 139 6 29
257 268 265 110 88 64
314 503 196 80 25 34
303 912 373 67 64 65
354 638 225 106 67 58
344 748 286 75 57 49
319 498 199 132 8 30
274 448 326 62 25 31
301 539 358 114 9 40
317 503 197 111 20 30
271 899 256 77 71 70
385 469 253 126 18 33
314 513 196 82 29 36
341 890 270 75 65 64
317 508 197 98 26 34
320 508 198 121 18 33
320 513 198 85 24 32
254 538 375 94 77 60
365 830 357 53 43 36
323 408 192 83 36 38
323 413 192 83 37 38
375 775 142 93 66 52
324 399 200 85 37 31
388 757 189 47 36 30
307 477 345 112 7 35
328 400 201 83 36 33
419 802 301 74 58 46
329 400 204 82 33 33
304 839 340 110 89 67
413 802 270 57 48 38
289 728 205 75 33 38
235 703 241 135 12 41
341 905 341 56 50 47
297 708 333 150 1 47
325 407 194 71 38 37
323 402 201 87 33 31
262 323 303 56 46 35
329 403 199 81 38 36
321 893 230 95 85 79
281 327 378 152 104 89
328 404 197 100 34 29
328 408 196 95 34 33
309 763 197 69 57 49
324 403 204 85 28 32
274 433 324 91 68 50
324 522 405 133 26 49
324 408 206 83 18 32
328 403 206 83 25 33
296 505 380 58 22 28
342 728 194 116 86 61
327 406 207 84 18 32
325 413 193 71 39 39
189 693 305 135 100 66
418 843 254 84 67 57
494 549 265 88 69 55
339 548 217 150 4 34
284 909 259 89 79 78
322 411 207 82 13 31
285 407 344 142 101 86
331 408 198 76 36 37
332 400 202 77 37 36
361 460 238 146 12 35
244 708 234 133 0 35
335 403 205 85 33 34
252 892 294 103 73 59
331 412 198 95 36 40
334 413 199 75 38 40
402 548 267 38 29 32
324 413 210 81 11 30
229 763 251 67 54 50
324 568 331 171 9 54
325 409 208 82 13 31
333 400 208 81 27 34
387 485 313 59 42 29
334 470 324 55 39 26
359 475 290 63 44 31
334 403 209 82 20 32
319 489 390 66 21 25
333 407 211 82 17 29
269 793 315 69 55 47
380 553 254 56 26 31
335 409 213 81 18 29
208 564 228 57 29 35
322 286 333 132 96 66
336 406 203 76 42 31
342 405 207 103 27 30
338 413 201 69 36 39
359 505 232 41 31 40
340 413 203 84 34 36
343 413 206 84 34 36
339 403 210 87 23 32
338 406 212 88 7 33
246 912 359 54 51 51
340 404 213 86 14 33
344 404 210 92 25 31
434 583 280 204 139 118
345 408 209 107 25 28
344 407 216 85 15 30
399 493 346 137 33 48
338 412 217 80 15 29
344 409 218 83 14 28
424 486 355 184 21 61
344 413 220 80 14 28
458 519 295 68 27 27
361 824 210 110 81 70
429 499 305 49 27 25
347 405 212 93 27 29
349 408 211 104 29 26
295 733 202 106 23 31
228 599 238 121 25 41
268 303 330 101 80 57
346 413 208 82 37 38
351 412 213 112 22 31
398 481 379 145 41 59
349 412 221 82 12 29
246 918 297 70 64 63
317 840 318 61 52 45
321 424 193 91 44 44
329 418 196 133 19 35
374 788 135 114 83 58
321 428 193 70 33 38
264 343 305 94 74 57
317 303 350 132 98 66
321 432 193 69 37 35
324 433 194 58 39 40
329 428 196 102 30 36
334 728 306 151 24 53
329 433 196 78 34 37
186 635 322 105 82 56
189 533 220 73 28 38
331 423 198 109 32 31
209 723 290 86 51 44
334 423 199 109 28 35
334 428 199 71 36 37
358 475 294 63 46 32
332 429 197 70 38 34
480 537 280 115 12 35
338 428 305 124 97 67
262 329 271 81 68 54
332 432 197 69 36 36
328 552 343 75 27 35
234 523 194 97 33 42
324 418 215 80 11 29
329 418 215 81 12 30
324 419 220 79 13 29
324 420 225 77 16 28
330 422 220 82 11 31
379 618 239 134 86 73
341 760 282 74 56 48
329 423 225 79 12 29
324 775 193 65 53 50
403 838 270 69 57 50
250 612 232 148 9 37
334 424 225 80 8 30
322 438 192 57 38 38
444 579 275 207 135 106
379 738 230 158 112 81
419 438 256 114 29 39
329 438 196 83 33 38
257 260 278 96 78 56
222 578 350 82 53 38
321 443 193 93 33 40
408 488 266 52 30 31
323 602 309 33 28 31
200 682 343 171 118 91
322 441 192 92 35 39
324 443 194 101 32 38
359 873 315 69 63 61
320 448 193 64 37 39
209 519 204 178 3 37
274 638 325 173 17 53
328 448 196 77 36 39
331 438 198 116 28 39
376 678 198 130 96 57
419 440 258 82 24 34
305 513 415 114 68 66
257 366 316 80 59 46
289 319 319 88 73 57
379 737 180 95 71 57
379 833 355 73 59 48
334 438 199 110 30 40
331 443 198 85 40 42
331 448 198 64 36 40
334 443 200 72 36 38
334 448 201 66 33 38
340 418 204 73 36 37
469 533 324 190 13 61
285 437 328 137 100 83
504 573 275 167 123 104
338 423 202 90 32 34
334 843 370 36 34 34
476 526 277 144 11 46
249 738 230 84 31 38
344 423 205 57 39 40
192 729 332 173 118 93
338 433 201 44 37 41
341 428 203 43 38 42
362 771 153 66 50 43
341 433 203 51 36 40
326 268 325 124 95 61
429 534 270 84 33 38
296 865 237 56 53 56
257 268 270 104 83 60
344 433 205 96 33 39
399 725 155 67 54 38
347 424 207 92 41 42
279 308 379 119 94 69
228 819 274 85 68 62
348 428 207 70 38 39
347 433 207 50 38 40
339 418 220 84 9 30
243 573 345 136 22 47
399 480 385 140 41 57
338 422 222 87 8 30
327 602 217 110 37 40
314 479 365 82 22 31
231 731 327 143 92 72
339 423 224 82 13 28
326 377 331 123 96 64
339 543 217 126 13 34
343 417 222 84 14 30
344 418 224 81 18 27
346 418 208 54 39 39
279 509 386 72 53 47
196 592 262 57 26 35
346 421 208 79 39 38
349 423 209 84 36 36
350 428 209 72 38 40
319 842 315 60 51 44
187 743 320 180 121 98
350 433 209 59 38 39
338 438 202 73 34 38
455 580 302 74 25 33
344 438 206 99 33 39
409 524 255 173 3 42
337 442 202 80 39 41
340 443 204 96 24 36
327 533 212 39 35 39
251 766 232 74 59 53
336 449 203 122 29 41
337 446 202 93 35 40
339 448 205 139 11 36
316 789 287 148 104 84
250 758 232 74 57 53
393 495 339 76 39 30
343 443 206 141 15 36
342 447 207 149 4 34
464 519 332 182 20 61
324 527 395 194 10 61
347 436 207 58 38 42
340 443 300 125 95 67
175 533 314 45 28 32
351 439 213 150 8 39
474 568 305 108 28 43
404 738 174 66 53 39
345 443 209 140 12 36
325 412 265 87 77 66
256 699 333 108 13 36
347 442 211 125 17 39
347 446 212 131 13 32
351 449 219 94 19 33
440 567 307 108 15 37
464 553 315 128 29 50
323 420 235 73 20 25
272 308 370 118 93 66
322 420 240 73 19 25
285 299 378 112 90 65
270 566 207 183 5 44
379 678 210 149 102 67
329 424 235 74 16 26
208 684 306 115 78 56
335 426 226 79 10 28
271 795 312 68 55 44
335 427 230 75 13 26
331 426 240 73 17 25
399 527 319 174 18 57
429 488 271 74 28 35
347 638 260 115 26 44
334 428 240 73 16 25
322 420 245 72 18 25
323 419 250 67 26 22
265 303 345 117 94 70
321 416 253 59 26 21
289 503 390 60 40 35
324 418 255 66 46 31
219 523 201 144 14 41
327 420 256 75 60 45
483 781 227 109 84 64
315 533 198 110 23 38
330 426 250 74 43 33
182 569 290 49 31 32
331 426 254 73 52 38
363 489 242 51 28 35
337 644 222 72 25 31
289 501 394 57 36 33
241 798 332 151 115 84
334 429 250 76 42 34
333 428 255 78 60 44
336 432 256 79 63 46
339 427 227 78 13 27
339 429 230 74 16 25
410 548 307 71 26 32
341 486 377 64 31 27
366 564 239 39 28 30
343 426 227 78 16 27
344 428 230 76 16 26
316 471 340 52 27 23
339 429 235 71 17 24
279 597 335 39 26 28
402 826 240 76 61 52
309 893 214 109 90 78
338 430 240 71 17 24
326 860 208 101 83 71
344 432 235 72 17 24
340 431 240 70 18 23
391 774 209 116 83 57
344 433 240 71 18 23
347 422 227 81 16 27
350 419 228 83 14 28
346 424 228 79 20 26
348 427 231 79 12 29
339 493 215 56 36 39
349 432 236 75 18 25
457 505 332 76 29 37
334 595 329 160 22 47
389 483 395 164 22 56
340 431 245 73 19 25
337 430 249 75 27 29
327 388 334 128 98 66
336 431 252 77 46 36
395 820 246 61 52 43
186 583 295 188 2 53
258 673 228 123 13 29
339 434 255 76 53 37
216 786 267 42 39 45
344 434 250 74 21 24
343 435 254 72 29 23
340 507 224 84 20 28
299 848 354 100 79 61
344 437 255 69 39 28
350 436 242 73 18 24
347 435 248 75 19 24
359 728 182 126 94 61
356 473 238 137 2 31
261 328 280 79 66 53
349 437 250 75 19 25
269 318 365 118 91 63
345 436 252 72 22 23
254 569 382 181 124 105
416 848 242 101 80 64
224 653 300 51 29 33
354 407 221 73 23 29
354 413 214 88 34 35
352 414 212 111 31 36
224 618 254 174 6 44
415 851 245 81 65 58
355 410 223 87 18 29
452 525 327 183 17 61
357 413 217 71 36 40
345 893 300 55 47 43
359 409 224 82 22 31
363 410 224 84 25 35
302 289 368 123 94 67
363 413 221 70 37 38
201 581 247 193 14 51
303 328 369 142 99 73
465 562 262 149 101 72
358 413 228 83 16 29
367 412 226 51 38 41
370 414 229 53 35 38
338 433 310 130 98 69
373 415 231 68 34 35
371 414 233 69 23 31
381 415 238 85 27 33
289 488 325 71 20 31
309 272 302 105 78 50
382 415 240 75 29 33
414 578 270 122 79 75
358 423 216 105 28 32
474 568 262 144 97 69
228 768 255 71 57 52
353 428 211 58 38 38
200 556 227 174 21 51
353 432 211 77 32 38
359 428 216 68 35 40
267 876 283 153 120 96
358 433 216 79 29 35
340 913 305 50 44 40
361 423 218 106 27 37
369 477 300 61 45 31
364 423 220 65 35 40
290 709 207 124 17 32
365 417 225 54 33 38
366 423 223 45 40 42
321 275 313 126 92 65
361 429 218 95 33 37
446 536 318 152 20 54
360 433 219 88 33 42
187 658 308 138 100 68
347 520 217 37 35 39
363 433 221 53 38 39
366 428 223 49 38 38
323 438 329 137 98 78
352 436 212 141 10 39
429 487 360 180 23 60
354 438 215 162 5 38
278 522 192 153 1 32
359 438 220 143 12 40
353 442 216 160 2 37
343 663 285 136 12 43
355 443 219 152 6 35
258 748 331 141 23 49
353 448 221 129 23 41
358 442 221 166 8 39
202 605 312 178 16 56
360 444 224 166 10 39
402 495 262 77 33 34
361 440 223 165 24 52
384 578 329 71 23 32
340 463 290 82 65 45
364 438 224 87 27 37
354 419 229 82 12 28
409 473 274 106 95 96
359 416 227 82 19 27
261 348 325 93 72 52
359 418 229 82 14 27
359 421 232 82 12 26
394 482 370 150 37 59
262 343 345 131 98 75
359 423 235 80 10 27
304 673 210 57 37 39
352 426 232 82 14 30
327 531 372 179 18 52
354 428 235 75 17 26
353 431 236 77 16 27
385 831 280 58 49 41
364 418 230 73 17 29
186 582 280 130 26 45
289 367 363 162 114 94
167 519 296 152 3 41
344 519 350 95 27 42
369 418 230 52 32 36
212 589 243 191 11 49
364 421 232 77 17 26
184 723 310 166 114 88
261 312 280 86 69 49
364 424 239 71 12 24
367 421 236 56 20 18
363 428 241 72 11 25
244 518 195 143 8 35
275 947 344 61 57 57
368 433 226 61 35 37
360 688 255 129 13 41
361 425 238 81 0 29
294 336 303 97 81 65
308 531 355 144 18 45
364 433 244 69 18 25
369 428 245 67 17 25
368 433 246 63 19 21
364 548 231 107 15 34
444 537 270 130 17 38
359 448 230 157 10 44
368 438 226 60 35 36
341 698 192 149 109 81
334 742 193 89 57 39
366 444 233 121 29 46
324 873 215 104 86 75
360 434 243 80 14 28
370 758 146 72 55 42
353 440 254 74 20 26
382 445 258 88 0 26
269 532 340 58 19 28
354 483 350 53 24 27
358 440 249 79 16 26
333 424 265 94 78 61
335 524 370 122 29 48
306 275 303 99 74 48
267 939 345 68 64 65
359 444 255 72 19 26
424 478 266 64 32 37
363 437 246 74 15 26
450 548 271 85 59 39
367 436 247 73 17 27
318 399 266 95 77 62
364 439 249 75 14 26
507 580 282 55 33 30
369 438 250 72 13 25
364 591 326 124 20 40
262 328 340 124 95 70
364 442 251 75 15 26
389 497 380 57 29 32
264 663 325 32 29 31
368 442 252 73 14 26
369 444 254 73 15 25
469 528 326 196 10 62
377 744 233 157 111 82
215 588 345 87 68 48
371 423 229 41 39 41
199 633 314 99 76 51
268 373 345 140 105 84
373 418 231 80 33 32
299 927 275 86 78 78
233 830 295 50 38 45
265 713 221 54 31 38
270 362 354 149 110 89
373 423 231 63 35 36
182 564 264 60 34 36
274 573 349 157 17 51
370 420 238 57 7 25
374 418 235 87 20 27
378 708 195 126 92 61
376 423 234 87 28 30
371 428 228 58 35 39
344 603 290 138 25 50
299 382 269 110 94 77
371 433 228 71 31 36
383 485 315 60 41 29
376 433 233 68 36 37
378 418 236 107 17 35
244 888 345 165 126 103
378 423 236 97 30 37
380 423 239 113 26 38
391 634 215 183 121 92
384 418 241 63 29 30
379 433 236 45 35 39
384 433 240 55 33 35
404 823 261 79 64 51
373 421 242 60 15 22
359 753 170 55 49 43
272 369 352 148 108 89
374 423 245 60 15 21
211 777 271 163 110 77
290 783 211 78 62 54
182 568 270 108 30 42
382 831 368 79 62 52
372 427 247 60 14 22
411 748 144 90 68 53
374 428 249 60 15 22
374 433 250 70 14 25
194 713 336 169 117 92
400 488 263 42 31 32
379 420 244 72 14 25
408 468 261 56 32 37
389 443 245 154 17 37
382 420 243 68 24 20
279 875 373 105 86 67
424 508 250 109 25 24
274 343 305 90 73 54
379 424 248 70 4 22
264 393 326 81 56 44
419 577 249 125 98 63
384 428 241 93 29 32
373 438 231 115 29 42
374 837 256 54 46 39
376 438 233 128 23 38
373 446 236 49 29 35
376 445 239 179 17 45
438 797 289 88 67 53
379 438 236 86 26 35
439 569 309 125 17 41
503 564 291 71 33 32
273 393 341 130 93 78
384 438 240 105 24 36
383 442 241 162 18 43
279 863 266 156 117 90
374 437 251 74 7 26
379 437 252 62 20 21
299 823 310 100 81 61
384 438 252 67 10 24
385 643 210 184 121 91
383 440 253 71 1 26
309 258 296 108 82 53
283 888 239 90 79 76
375 449 244 176 15 39
322 283 335 129 95 65
379 448 245 179 16 43
223 648 275 175 5 48
264 483 330 40 26 27
380 445 243 179 18 44
323 283 325 124 90 60
264 573 212 183 4 42
384 447 245 180 17 41
324 453 195 94 31 39
173 528 311 111 19 41
329 453 199 78 34 37
424 495 272 68 32 31
323 458 196 118 22 34
209 663 311 119 72 55
394 564 270 57 24 29
335 473 209 135 19 40
323 463 197 49 36 39
299 778 301 63 50 44
394 832 250 71 58 46
326 458 198 74 31 35
329 463 201 59 32 38
264 313 350 128 101 74
335 453 203 112 24 37
334 458 205 152 9 36
469 523 281 128 13 40
333 463 206 150 6 34
336 463 208 104 18 32
324 468 199 124 16 38
374 798 245 110 87 69
374 604 220 104 85 64
269 403 330 128 90 74
321 470 198 152 4 34
398 480 389 129 33 49
324 473 200 157 3 36
328 467 201 117 17 39
327 472 202 155 4 38
211 812 296 203 138 107
316 348 352 131 101 68
326 478 203 139 4 31
416 748 150 81 63 47
434 778 255 91 68 51
333 468 206 135 10 30
333 473 207 153 4 37
324 828 270 67 57 48
338 453 206 134 14 37
386 590 232 100 81 60
337 457 207 151 9 38
343 452 211 146 6 33
378 813 175 100 78 64
345 453 215 155 11 42
336 768 187 130 92 60
338 602 222 37 33 38
339 458 210 154 3 37
336 460 208 158 2 42
341 459 214 150 2 36
374 629 231 132 84 68
342 456 212 168 3 41
374 824 369 65 52 41
341 463 214 130 5 31
474 533 295 74 38 36
345 463 220 131 6 32
372 744 245 128 98 66
346 449 213 106 26 41
347 452 216 62 29 33
349 893 330 58 52 50
349 453 220 94 24 39
351 454 223 165 8 41
347 463 222 123 10 32
451 546 313 175 20 57
349 463 225 122 11 33
338 473 211 94 28 37
319 480 369 56 23 26
335 924 320 72 66 64
341 468 213 136 3 32
397 842 285 60 52 47
343 468 216 135 6 35
343 473 216 79 28 36
338 478 211 67 33 37
341 478 214 53 34 38
343 478 216 44 36 38
327 659 217 41 34 35
363 588 250 165 3 53
364 479 403 111 29 45
345 468 220 116 16 34
347 468 222 67 25 33
384 826 245 60 50 42
167 524 290 53 28 33
411 748 172 74 58 43
339 808 170 63 53 49
349 468 225 101 20 36
345 473 219 63 36 37
244 858 330 178 127 112
347 473 222 52 37 39
349 473 225 43 35 38
256 575 376 181 117 99
347 477 222 44 32 40
228 713 250 148 7 44
264 633 229 100 29 37
382 646 218 180 121 95
264 853 354 156 118 103
424 492 295 65 45 42
217 692 307 78 52 37
348 478 225 88 27 41
365 768 257 50 42 39
289 353 369 162 110 93
351 463 228 131 5 26
464 753 259 94 74 54
351 468 228 132 11 39
404 448 257 151 18 36
351 473 229 49 30 36
304 814 219 85 67 58
350 478 230 111 16 37
389 509 351 173 19 55
278 894 387 51 47 47
419 443 259 90 22 35
329 853 382 52 46 42
326 483 203 127 12 30
327 393 334 129 99 67
231 624 345 168 110 90
479 558 261 137 100 71
360 853 372 52 47 43
429 582 305 57 30 36
329 483 205 134 8 30
209 723 339 178 126 100
270 328 369 133 100 76
378 718 225 152 106 75
326 488 203 123 15 28
329 488 205 130 12 30
382 856 308 57 49 47
269 743 335 113 26 44
324 493 201 126 12 29
464 498 270 134 17 42
244 514 193 163 2 35
326 493 203 128 17 30
360 554 322 60 23 31
329 493 204 110 18 30
327 494 202 120 18 28
332 484 207 108 18 32
309 768 299 70 54 45
242 913 309 60 56 57
369 473 280 67 34 28
268 438 329 46 34 28
333 493 207 115 20 31
335 483 209 45 33 37
203 668 307 126 84 62
335 493 209 109 26 36
326 496 203 112 26 35
327 499 202 101 24 32
327 503 202 132 13 34
438 493 272 42 35 33
204 608 330 100 65 43
198 768 331 174 121 92
340 600 297 123 26 48
329 503 205 110 24 36
352 830 259 26 24 26
324 508 201 129 12 33
318 358 310 121 97 70
327 506 202 139 12 30
328 508 205 120 17 37
461 825 152 92 82 74
277 319 377 145 105 85
253 814 248 83 65 58
333 498 207 42 33 38
469 558 261 146 102 76
329 873 376 53 49 48
330 508 210 109 20 41
394 443 250 145 17 36
279 935 288 89 81 83
328 512 211 161 2 38
335 498 210 65 35 40
336 499 215 51 34 39
378 498 358 70 26 30
261 323 269 85 71 55
331 505 208 50 31 34
364 453 260 77 17 27
349 643 255 94 28 40
332 506 212 52 24 31
374 618 201 102 86 69
331 416 280 105 87 67
333 508 216 139 13 37
356 605 248 181 7 58
291 275 363 103 87 71
474 777 226 112 84 62
332 513 217 99 18 29
369 792 145 90 70 56
341 483 214 52 35 38
342 483 216 49 34 37
282 873 268 89 69 60
274 519 376 56 43 36
429 491 286 75 28 33
329 582 331 155 19 48
342 487 216 58 33 35
239 563 375 150 111 87
194 538 330 166 0 51
220 578 344 74 29 34
305 564 347 34 28 30
343 488 220 58 33 36
337 493 211 58 33 37
359 628 225 103 62 52
262 523 392 164 121 103
328 383 330 124 97 64
345 488 225 118 13 37
229 598 369 171 119 95
342 491 222 83 37 48
294 313 381 140 97 76
397 786 175 73 58 53
226 816 272 83 67 63
341 494 224 79 26 33
294 358 289 104 88 70
346 484 224 141 15 44
337 496 212 55 30 35
284 648 323 162 3 50
337 497 215 47 33 36
378 688 200 128 92 60
276 910 258 72 63 58
394 504 235 104 17 26
338 498 220 61 35 37
340 498 225 102 23 33
394 608 215 117 92 62
337 502 221 107 25 34
247 867 337 71 50 51
465 556 313 91 26 38
340 503 225 93 21 27
338 508 222 88 18 28
339 513 220 67 27 31
384 480 382 117 30 45
334 548 216 145 1 33
259 933 305 75 70 71
344 511 224 88 22 28
444 574 268 167 111 77
424 591 268 200 132 111
264 828 250 194 134 109
328 892 364 46 41 40
299 318 315 91 76 61
345 493 229 127 6 32
299 612 330 94 28 40
350 483 230 142 0 35
351 484 234 134 2 32
348 793 263 56 47 42
350 488 235 109 12 31
184 718 315 170 117 90
346 489 229 142 1 36
347 493 232 101 15 27
369 543 325 185 3 58
248 924 299 82 75 74
273 258 315 111 86 59
349 493 235 65 28 31
226 634 340 166 107 88
342 498 227 115 8 30
344 498 230 97 14 27
348 499 232 80 26 31
322 382 343 135 100 73
325 818 181 71 58 53
344 508 226 85 22 27
235 720 322 48 32 30
444 558 269 128 96 62
446 491 276 79 20 30
349 503 231 81 23 28
350 498 233 46 30 31
429 803 260 93 73 61
347 897 335 50 44 42
263 323 300 55 45 35
244 523 196 73 27 37
351 501 233 47 30 31
346 506 228 84 19 25
345 869 371 55 51 50
349 507 229 84 19 27
349 509 226 84 24 28
352 451 222 162 15 45
444 507 339 99 27 42
232 611 363 179 120 97
355 454 229 130 11 36
358 453 231 165 9 42
294 578 206 90 31 40
346 800 262 45 38 35
391 776 202 87 61 45
359 488 241 78 24 26
479 539 290 66 33 32
360 454 233 167 9 38
352 457 227 126 16 35
254 934 315 75 71 72
274 952 325 78 73 74
273 934 289 86 78 78
353 463 231 143 3 34
484 568 263 157 110 83
364 848 371 51 44 40
356 463 233 139 12 35
194 523 334 66 24 34
412 758 173 95 73 54
356 460 233 140 7 38
213 633 285 74 30 41
358 463 236 111 19 36
366 453 238 157 9 35
197 748 332 174 121 96
395 496 249 86 28 28
370 449 239 152 18 42
369 453 241 166 12 37
360 464 238 98 22 33
366 464 243 154 5 39
228 628 330 124 79 69
317 297 326 120 86 62
353 468 230 142 7 36
352 473 231 83 20 32
464 513 271 93 9 28
304 258 295 101 76 48
354 473 235 138 4 36
358 467 236 132 10 38
359 468 239 136 11 37
359 473 241 123 11 32
356 478 239 115 14 32
252 581 373 178 115 96
418 509 246 143 13 33
363 468 242 139 5 34
413 588 266 165 112 101
359 515 356 53 28 31
255 713 227 143 4 37
183 698 320 173 119 94
274 581 212 38 33 40
362 472 242 126 12 28
364 473 244 68 26 33
368 473 247 74 25 32
259 922 281 87 78 75
361 474 243 81 27 32
273 273 335 117 94 69
360 478 243 73 27 34
424 496 354 202 13 64
371 459 243 155 8 33
374 463 246 119 16 36
380 453 249 150 14 35
409 512 241 188 4 42
385 449 249 179 18 43
219 543 211 91 34 40
384 453 251 153 16 35
238 728 322 39 29 27
439 498 335 111 27 44
209 673 310 120 79 58
284 383 355 157 112 94
378 458 246 69 22 32
378 462 247 41 33 35
274 378 280 85 70 52
384 463 251 74 27 34
275 263 311 116 89 64
373 467 247 132 16 36
371 470 248 128 20 43
302 390 262 111 94 75
370 474 248 78 24 34
301 535 354 67 18 33
312 790 203 81 63 55
375 469 248 104 22 34
374 473 250 96 23 33
344 443 260 80 61 40
376 479 253 50 30 27
379 472 251 85 23 30
390 489 392 194 17 61
382 471 252 89 16 29
279 738 337 102 34 45
384 473 254 76 26 32
377 476 252 48 27 24
379 478 255 53 27 28
217 647 317 140 99 83
304 832 231 130 91 75
384 478 256 56 29 28
352 488 237 98 21 36
267 531 366 69 22 34
216 700 297 82 30 33
362 685 275 130 15 41
329 448 320 123 89 68
399 529 254 174 0 42
354 492 238 61 33 31
359 493 240 48 31 31
313 318 321 90 76 60
426 496 302 52 32 30
358 483 242 103 19 27
401 525 253 179 0 44
274 383 349 144 104 87
360 483 243 102 22 29
319 842 320 53 47 41
378 857 266 76 64 65
368 484 247 72 28 27
369 488 246 73 23 28
336 880 243 75 65 64
369 493 241 43 32 33
370 491 243 62 28 30
443 495 346 158 25 56
354 503 232 57 32 31
461 775 235 114 87 60
354 498 235 50 31 34
354 502 233 46 32 32
359 509 226 53 36 35
359 507 229 46 37 39
364 499 236 80 26 29
306 469 333 74 23 29
257 258 270 106 85 60
364 502 234 60 30 31
369 500 237 61 33 33
385 565 271 55 25 30
369 498 239 47 33 35
328 419 261 85 73 60
356 515 356 41 29 33
369 504 231 47 33 38
364 507 229 40 37 41
364 509 226 46 36 36
364 513 224 65 35 36
353 778 164 52 46 43
380 496 351 59 31 29
354 673 260 117 22 42
307 838 230 60 51 51
373 489 247 87 19 27
371 486 248 81 25 25
374 483 250 72 28 28
371 702 227 147 97 74
264 559 387 187 124 105
349 668 226 44 34 39
341 477 296 65 52 36
262 328 275 80 67 52
376 482 253 56 30 28
362 581 298 170 19 51
326 391 300 115 94 70
375 487 249 83 22 29
329 498 412 52 28 31
372 494 242 65 31 28
380 487 254 65 29 30
384 488 255 61 28 34
380 491 248 94 17 25
267 523 401 156 111 93
248 893 305 59 53 52
353 673 240 79 30 40
384 492 250 90 24 29
374 498 240 52 34 33
374 502 235 46 34 41
271 454 327 34 25 27
374 500 237 43 37 40
374 507 229 64 34 34
180 553 255 75 30 39
278 638 223 40 35 42
267 853 279 171 123 92
374 510 227 58 37 38
319 853 380 40 38 37
379 498 240 62 31 38
238 811 328 157 111 86
379 503 235 59 33 38
289 287 371 103 85 67
378 500 237 62 33 32
384 503 235 63 32 37
384 501 238 78 28 32
379 510 227 83 30 41
229 553 345 35 26 28
468 778 234 113 86 61
382 512 227 117 26 37
384 505 232 78 32 35
389 419 245 85 22 30
389 423 245 133 17 33
389 424 249 92 7 28
452 829 168 95 79 63
386 428 243 113 23 36
273 353 361 145 105 86
389 428 245 118 15 35
440 555 272 105 75 35
404 478 274 112 98 98
386 433 243 75 35 39
223 693 330 135 92 71
328 438 324 132 95 73
222 644 274 182 4 51
389 428 250 90 10 29
389 433 251 86 10 27
299 539 198 68 35 38
255 708 226 117 18 34
390 433 254 79 1 29
344 842 370 35 32 30
204 538 215 79 33 37
368 576 304 161 19 52
393 419 246 115 24 35
289 463 326 52 25 30
394 423 247 133 18 34
434 534 270 144 10 39
419 473 265 111 20 31
369 820 201 78 58 50
394 424 249 109 11 34
213 758 264 48 43 45
303 539 198 44 36 36
399 424 250 122 16 36
393 427 247 146 17 36
419 513 247 181 5 41
346 643 187 137 102 66
360 749 271 77 62 55
398 429 247 149 21 40
357 587 232 71 22 26
304 653 314 148 20 50
394 428 249 132 15 35
276 346 368 152 108 91
347 475 338 52 33 24
263 323 285 76 63 49
394 428 254 94 3 32
293 299 378 112 88 61
399 432 251 142 22 37
389 438 245 129 16 34
273 683 219 120 16 29
284 379 357 157 111 95
390 438 254 73 4 28
351 806 157 87 68 57
266 853 281 162 111 83
388 446 246 175 19 39
350 768 270 77 59 53
273 308 319 97 78 55
389 443 255 77 0 27
348 767 274 75 57 50
432 525 258 173 1 42
257 285 288 85 70 54
369 515 345 44 26 29
391 444 248 151 17 35
482 557 308 80 30 37
329 703 310 35 27 29
304 537 380 124 24 45
394 438 250 139 18 37
398 438 251 124 16 36
399 438 255 119 18 36
393 447 252 164 20 38
383 743 225 154 110 75
395 449 253 166 20 38
350 778 166 54 47 45
201 787 296 188 128 99
414 489 345 162 24 53
473 580 268 190 121 104
399 448 255 155 18 36
391 725 154 65 52 40
403 424 250 128 20 38
259 883 285 159 105 79
407 425 250 126 25 40
305 758 197 69 55 50
409 428 252 129 21 40
414 429 253 131 20 36
254 603 340 84 28 38
220 564 348 108 21 36
414 433 254 153 22 41
321 353 330 123 98 69
373 663 195 135 95 62
269 578 348 75 29 36
197 535 332 165 1 51
404 438 255 110 25 38
403 436 252 132 23 44
385 748 195 68 52 40
412 435 252 175 25 44
412 436 252 166 23 35
414 443 256 120 26 41
260 308 285 87 70 51
419 434 254 144 23 39
423 438 256 124 24 40
386 457 253 122 15 36
347 578 222 77 27 32
389 458 253 100 23 33
387 460 252 82 19 27
166 517 261 44 33 35
214 698 300 83 47 37
262 830 253 192 130 105
390 463 253 87 28 34
307 348 363 145 103 78
392 451 252 173 21 41
394 453 255 150 20 38
394 458 255 79 29 34
339 843 300 40 36 35
231 620 357 175 118 95
243 598 360 173 113 93
394 463 255 63 30 34
264 463 331 29 25 26
389 468 254 124 21 36
209 628 359 163 115 90
398 778 161 80 62 53
295 288 312 89 67 41
389 473 255 50 29 31
255 539 359 90 14 32
297 866 375 32 30 32
388 495 246 100 19 26
398 495 256 83 31 31
429 493 273 71 27 36
480 564 307 52 30 36
209 558 336 60 24 33
389 503 235 87 27 30
389 499 240 93 22 27
364 558 231 89 28 35
390 501 239 88 22 28
337 798 174 67 54 48
329 878 200 114 97 89
389 513 231 84 27 38
388 505 232 100 23 32
257 872 298 158 120 92
391 506 233 113 27 25
301 718 327 167 2 55
394 501 239 99 19 30
394 513 235 122 22 40
358 823 237 33 28 26
399 508 236 173 7 41
307 623 313 33 27 30
309 343 306 102 87 72
220 643 280 155 5 44
398 512 237 176 10 44
314 568 336 100 22 41
389 497 245 99 17 25
167 524 285 54 34 38
391 496 248 90 34 37
317 256 297 118 91 61
194 778 315 191 131 104
370 845 341 64 56 50
394 500 241 103 14 23
186 688 333 167 115 90
268 333 315 127 100 75
398 500 241 99 23 28
272 281 340 114 93 70
367 721 278 35 29 34
399 498 250 96 26 26
458 570 303 130 13 41
404 503 240 56 37 41
402 508 237 162 11 40
404 513 240 190 4 45
409 576 296 85 17 34
385 858 290 61 53 49
397 495 334 61 41 28
405 501 244 54 41 38
234 544 203 88 33 40
408 504 242 43 41 43
184 528 219 170 11 45
208 548 336 141 10 45
409 503 245 64 37 34
404 499 250 83 34 31
314 853 350 45 40 39
404 498 255 81 29 35
217 753 258 41 39 43
214 523 204 177 2 38
406 501 248 75 42 34
407 500 251 89 43 37
434 507 269 70 33 33
444 842 191 150 133 119
322 427 333 139 99 78
414 503 250 100 29 29
188 548 321 165 0 51
330 590 338 126 12 39
411 506 243 72 30 34
409 514 244 190 4 43
273 273 320 112 86 60
321 935 342 49 45 42
414 508 244 135 19 37
414 513 245 185 5 41
349 708 184 143 104 70
294 523 345 43 24 26
419 504 255 99 32 28
376 726 227 155 107 79
424 510 247 142 13 34
424 513 247 166 7 38
418 505 251 98 32 26
447 842 192 141 126 115
420 507 249 110 27 25
424 507 255 98 37 26
313 465 333 54 32 26
413 486 379 188 16 64
383 496 389 48 28 33
429 513 249 139 15 31
414 543 305 117 21 42
433 513 251 119 21 26
256 258 258 120 97 72
276 380 277 91 75 57
257 258 265 111 89 65
295 905 377 50 47 48
257 268 261 121 97 70
257 273 265 113 91 65
257 273 270 108 87 64
377 816 175 103 80 66
299 293 371 124 97 66
256 257 277 98 79 58
363 857 369 52 46 42
257 263 275 100 81 59
256 263 281 93 75 55
257 268 275 102 83 61
257 268 280 96 77 57
257 273 275 105 85 62
257 273 280 94 75 54
293 872 386 42 38 37
365 717 232 112 73 58
256 268 282 93 76 55
310 827 301 82 69 56
294 418 341 153 110 91
357 722 293 173 12 56
258 278 270 113 90 65
347 881 281 67 58 58
324 728 309 65 42 41
444 579 290 166 106 96
257 283 262 119 96 71
314 263 299 113 87 57
258 283 265 120 95 68
258 288 270 118 93 66
257 278 275 106 85 61
257 274 283 89 70 48
441 847 222 97 77 66
257 278 284 86 68 47
384 770 144 87 66 52
257 283 280 97 77 55
364 484 380 85 22 35
258 288 280 96 77 55
256 283 286 85 69 51
257 288 285 88 72 54
279 258 305 117 91 65
474 528 269 93 12 28
283 259 303 95 74 51
285 258 302 85 67 45
284 263 305 89 70 47
358 542 333 187 12 59
289 263 301 81 63 41
314 602 338 170 25 59
365 794 144 87 68 55
286 261 302 81 64 43
287 264 303 80 62 41
333 521 398 129 39 54
329 863 214 111 88 74
389 502 365 72 30 36
274 258 310 107 84 60
266 342 359 142 106 82
317 303 345 129 94 65
276 257 307 116 90 64
304 368 284 108 93 77
277 260 308 125 97 70
217 723 338 170 117 91
280 262 307 112 87 63
188 758 315 187 127 102
217 712 290 96 13 33
333 628 290 62 27 33
364 839 285 36 33 30
273 263 315 111 86 60
272 263 320 116 91 64
433 495 336 111 26 40
275 268 312 127 98 70
369 803 165 83 63 53
279 283 360 108 89 69
279 268 309 121 93 68
409 482 370 187 19 63
279 273 311 124 94 69
317 293 350 127 98 63
273 268 315 114 86 60
273 273 315 117 87 62
469 582 275 215 149 133
276 272 312 136 103 76
283 269 308 98 75 52
284 273 310 93 72 48
334 773 189 136 94 63
210 742 338 173 122 95
289 272 306 82 64 39
274 278 320 110 84 58
278 275 313 129 98 73
279 278 314 124 92 69
471 536 288 63 32 23
275 283 316 110 81 58
274 283 320 109 81 57
274 288 320 106 79 56
279 282 316 119 89 66
279 288 319 117 86 63
288 274 309 84 64 39
281 276 312 114 84 64
283 279 313 105 76 52
283 288 319 107 76 55
286 281 312 91 68 44
288 284 314 90 67 43
289 288 315 91 67 43
269 723 219 66 33 37
258 293 265 115 93 68
166 522 270 66 32 35
257 294 257 105 89 73
304 273 360 112 88 61
359 614 210 92 77 61
324 524 355 156 20 49
258 293 270 115 92 65
329 846 330 32 31 31
376 834 280 53 44 37
257 298 257 101 86 71
210 803 334 185 128 100
259 298 265 114 93 70
257 303 257 100 86 72
262 353 340 134 99 78
