ply
format ascii 1.0
comment Created by Open3D
element vertex 2210
property double x
property double y
property double z
property uchar red
property uchar green
property uchar blue
end_header
384 679 233 130 92 70
335 404 307 66 55 45
323 868 256 67 57 54
334 404 317 76 64 50
242 512 319 102 39 52
336 407 313 68 57 46
335 408 317 69 58 47
339 398 292 56 48 39
339 404 297 57 48 40
340 403 302 58 49 40
412 569 255 60 23 30
344 404 301 57 49 41
462 723 300 93 66 48
348 401 291 62 52 42
349 402 292 61 52 43
410 789 257 105 76 64
346 402 294 60 51 42
351 402 288 65 56 45
262 605 334 146 16 47
339 405 307 60 51 43
245 553 293 105 17 38
339 407 313 64 55 45
246 723 284 52 38 39
344 405 307 61 52 43
344 414 352 60 47 38
372 822 194 225 162 145
344 406 311 62 52 43
384 863 297 67 55 51
339 408 317 65 55 45
268 862 328 104 80 57
349 405 307 60 52 43
399 732 289 37 29 26
349 406 312 62 54 46
285 554 223 145 0 35
349 407 314 62 54 45
349 407 317 63 54 46
245 827 318 179 118 92
361 388 269 93 78 64
324 804 337 53 43 36
362 391 270 86 74 63
365 394 262 80 69 59
277 830 300 42 37 40
368 399 262 72 63 55
362 394 270 79 69 58
241 514 320 52 32 35
366 397 267 75 65 57
355 388 273 92 77 60
415 749 216 142 101 75
357 391 275 84 72 60
354 394 278 78 67 55
394 407 292 91 51 49
358 395 276 77 66 55
395 424 349 115 20 39
360 399 278 71 62 53
354 400 286 67 58 48
361 397 273 74 64 54
402 564 239 151 14 37
363 400 277 70 61 53
354 403 288 67 57 47
359 402 282 69 60 50
365 402 277 70 61 52
370 403 272 72 63 54
362 401 280 69 61 53
364 403 282 69 61 52
382 654 197 154 105 73
369 404 287 69 61 52
404 434 267 135 16 44
248 904 277 157 119 92
231 674 307 149 104 74
370 402 262 71 62 54
350 444 392 136 14 44
374 404 262 71 63 55
344 416 361 64 41 35
379 406 262 73 63 55
384 406 272 77 60 53
338 412 344 63 49 41
383 674 197 153 104 70
378 407 273 73 63 55
413 514 307 163 16 45
319 604 348 59 29 34
309 584 206 80 27 36
384 406 277 76 61 54
376 407 285 71 62 54
262 721 255 69 26 26
379 406 287 71 62 53
384 406 282 75 62 54
387 590 202 142 106 77
384 406 287 73 61 53
388 604 211 153 111 86
354 403 297 62 54 45
256 925 258 66 61 63
354 404 302 61 52 44
249 534 262 50 29 33
241 774 304 146 107 69
364 404 292 68 59 50
369 405 297 68 59 50
228 654 292 157 112 82
354 405 307 61 53 44
239 774 306 148 108 70
354 406 312 61 53 44
377 837 228 204 139 110
359 406 311 63 54 46
380 844 322 68 53 47
359 407 313 63 55 46
359 407 317 62 54 45
364 406 307 64 55 46
364 407 312 65 56 47
286 680 249 38 36 38
368 406 306 64 55 47
387 532 340 168 16 53
369 407 307 64 55 46
365 407 309 65 56 47
364 408 317 65 56 47
373 406 301 66 57 48
378 406 290 70 61 53
303 714 227 127 3 38
379 407 297 69 60 52
253 545 276 137 2 42
384 406 292 70 60 52
359 420 382 55 32 31
384 407 293 70 60 52
353 909 307 50 44 42
384 407 297 69 59 51
379 407 302 67 58 50
384 407 302 68 59 50
374 407 307 63 54 44
374 408 317 64 55 45
379 407 307 65 55 46
391 429 353 153 14 46
338 813 387 86 68 53
289 529 372 78 22 36
384 407 307 66 57 48
403 728 233 90 44 43
379 408 312 63 53 44
409 464 341 147 11 46
384 408 312 65 55 46
379 408 317 62 53 43
384 408 317 63 52 43
234 540 207 222 145 126
384 789 316 43 35 31
333 389 322 109 86 61
336 481 385 97 0 26
330 389 332 116 90 65
332 390 330 114 88 63
349 439 402 87 29 38
390 709 200 128 94 59
334 394 322 104 82 58
333 394 327 108 85 60
330 394 333 111 87 62
330 399 333 102 81 59
424 800 316 95 80 68
332 394 330 110 85 62
325 389 338 119 93 67
323 399 341 113 88 63
329 654 227 119 10 30
333 404 327 76 63 49
255 634 276 135 90 69
334 754 341 100 20 39
336 407 322 68 58 47
335 408 327 66 56 44
228 619 282 147 106 73
331 402 333 89 73 55
476 777 302 108 83 63
257 780 290 68 55 50
333 406 336 70 58 47
329 409 342 69 58 46
329 412 348 76 53 43
334 410 341 64 53 44
332 411 345 68 55 45
334 413 347 72 48 41
334 415 352 78 38 33
276 589 239 151 8 41
237 693 329 137 101 72
270 584 243 121 15 37
339 409 337 63 53 43
339 409 327 63 54 44
423 769 302 54 43 33
344 409 327 63 54 44
297 540 185 54 30 32
349 409 327 64 54 45
234 579 242 191 126 96
319 899 237 70 61 60
349 409 332 62 53 44
367 863 258 67 58 55
349 410 337 61 52 43
265 870 335 121 90 71
340 411 346 58 46 37
340 849 373 57 48 44
339 412 347 63 46 38
339 414 352 64 44 36
254 599 262 130 81 67
349 824 316 40 36 35
343 411 346 59 48 39
410 469 272 78 25 36
344 412 347 59 49 40
369 689 194 138 99 62
227 523 234 134 106 84
349 413 352 61 51 43
454 783 294 101 79 62
428 719 262 70 54 43
350 411 345 62 52 43
344 415 357 61 46 38
369 420 382 54 43 31
338 826 236 77 63 59
299 564 202 65 27 37
349 415 357 61 51 42
349 416 362 63 45 39
328 418 354 104 10 33
325 425 355 87 19 32
275 624 262 139 13 42
327 422 354 99 16 32
335 809 228 72 61 56
322 427 354 60 24 28
391 663 216 137 101 69
329 429 357 51 24 27
252 540 334 35 32 33
334 419 357 107 15 34
386 679 282 50 27 30
335 416 355 87 29 32
336 424 360 77 19 29
244 749 353 160 119 89
434 740 302 57 41 31
332 428 359 61 22 28
334 429 361 85 16 30
324 439 358 45 27 28
393 614 252 120 30 45
328 438 359 58 23 28
252 564 323 91 18 38
403 559 238 153 13 36
326 617 219 127 16 31
329 439 361 76 24 32
324 449 362 69 25 30
458 775 284 103 83 65
367 444 396 139 5 41
395 816 358 61 49 37
325 441 360 45 26 29
329 444 362 55 26 29
340 880 348 51 45 42
325 851 348 35 33 34
329 449 363 58 24 29
415 528 234 161 15 38
368 534 168 148 108 76
332 432 359 70 20 27
256 574 330 157 6 48
331 434 360 77 19 28
334 439 363 63 23 29
244 558 259 92 51 43
335 444 366 51 25 28
403 818 277 75 58 53
334 449 366 54 26 29
338 418 358 90 32 33
365 886 298 39 34 32
344 419 367 96 23 32
338 429 363 111 9 35
341 426 365 118 11 34
342 429 368 125 9 39
229 574 257 147 110 76
262 625 329 171 15 53
348 417 364 66 36 34
351 416 365 66 39 36
345 420 372 117 14 37
344 429 372 132 8 41
349 418 372 67 30 29
409 809 312 81 63 57
346 420 377 132 12 44
349 420 382 93 22 35
346 423 380 140 12 43
347 424 382 143 13 44
346 430 376 141 9 44
347 426 377 140 11 44
337 434 364 112 11 34
339 439 367 79 18 30
338 444 368 75 21 31
342 433 369 119 8 35
344 434 372 123 6 38
358 833 318 32 30 30
282 659 260 46 33 38
228 724 327 157 108 79
397 549 224 131 8 33
343 439 372 121 8 38
340 449 371 82 21 32
312 664 235 130 6 32
343 444 373 112 12 37
346 811 400 86 69 57
342 449 374 102 17 36
411 524 249 70 19 33
345 449 377 121 9 39
347 434 379 134 9 41
341 881 344 36 31 28
347 434 382 141 10 45
359 454 408 145 16 47
347 439 379 135 8 41
348 439 382 136 11 42
297 644 245 74 32 35
345 444 377 126 9 39
346 446 380 132 9 40
347 449 382 135 9 41
386 835 241 102 79 67
354 409 332 64 55 46
399 494 342 71 25 36
243 519 317 102 27 40
244 594 286 106 80 58
354 410 337 63 54 45
289 849 262 143 117 93
359 410 337 65 56 47
377 608 310 112 26 42
364 408 322 63 54 45
384 813 318 50 43 40
274 614 341 56 30 34
247 928 270 63 59 62
364 409 327 63 54 45
308 565 200 85 38 43
381 509 362 135 22 45
369 409 327 63 54 44
359 411 342 64 55 46
363 759 196 136 104 65
354 411 345 63 54 45
354 412 347 62 53 44
354 413 352 62 53 44
334 844 317 30 28 27
357 411 345 64 54 45
359 413 352 63 53 44
282 664 260 136 9 39
369 411 341 64 55 45
364 412 344 65 56 46
364 413 352 64 54 44
269 539 357 68 25 34
374 409 322 64 54 45
423 700 272 77 55 40
374 409 327 62 53 44
324 474 372 72 24 33
384 411 337 58 34 33
374 412 343 62 52 43
374 412 347 63 52 43
337 922 325 49 44 41
324 854 313 44 37 34
379 412 343 58 44 37
384 412 347 55 37 31
397 475 345 152 11 47
354 414 357 62 52 43
359 414 357 62 52 43
359 415 362 62 51 42
364 414 357 62 52 43
364 415 362 62 51 43
351 904 314 51 46 45
369 415 362 62 50 41
374 414 357 63 52 43
238 941 334 65 60 58
374 415 362 62 50 42
384 415 357 59 46 38
428 768 272 92 70 53
384 416 362 58 46 37
355 416 366 63 43 37
354 417 368 64 38 35
358 417 369 65 42 37
374 416 367 60 49 40
379 416 366 58 47 39
384 418 367 55 42 36
327 581 191 175 13 49
385 417 363 57 44 34
257 565 286 72 26 40
374 417 369 58 47 39
374 420 381 75 31 30
349 754 211 112 54 38
224 519 232 128 103 83
294 709 237 74 28 38
375 424 383 127 8 39
375 429 383 139 10 44
379 420 377 76 31 31
384 420 372 69 34 32
378 424 381 140 14 44
381 424 378 150 17 47
356 875 251 72 62 60
384 429 372 76 23 33
280 900 248 82 68 57
381 429 378 140 10 45
399 754 198 140 101 67
378 434 381 142 4 44
380 439 378 145 9 45
384 444 372 118 19 40
376 443 384 138 10 44
229 589 267 145 106 73
379 449 382 73 20 32
355 819 377 55 43 35
381 449 379 111 15 38
426 796 320 92 78 66
324 453 364 59 27 30
284 948 341 72 65 63
328 452 364 60 20 28
329 454 366 77 19 30
324 459 366 48 25 28
419 733 241 78 55 45
217 535 218 181 125 98
334 454 368 93 18 34
425 770 272 89 65 53
345 879 237 65 55 54
249 854 307 146 51 75
328 463 369 104 12 33
331 461 370 108 4 33
333 458 369 108 8 33
409 749 212 152 109 81
334 459 371 110 3 33
323 468 369 69 20 30
324 824 247 176 128 107
375 614 308 63 28 33
414 569 252 65 28 34
324 470 370 34 27 28
323 908 357 49 44 42
408 554 257 78 26 36
329 469 372 33 26 28
324 479 373 73 24 31
314 959 317 57 52 51
234 769 308 149 109 72
329 474 373 48 25 29
330 475 375 47 26 27
341 776 329 73 56 47
344 454 377 125 6 38
338 463 374 111 5 34
341 456 375 120 5 38
345 464 382 128 8 39
390 629 207 150 110 74
347 454 383 133 9 40
345 459 381 130 8 40
232 668 309 138 98 69
342 467 379 121 3 36
387 584 316 186 6 59
254 634 313 113 64 53
341 470 380 107 10 35
249 529 187 95 36 41
338 474 378 74 19 30
387 618 238 73 27 36
340 474 381 88 13 30
365 619 183 147 103 64
249 579 247 151 91 76
278 605 245 167 10 45
337 477 379 108 10 38
264 814 353 168 119 95
343 474 383 114 8 36
409 774 217 155 104 76
355 828 214 206 149 121
325 485 381 50 23 27
324 489 383 97 9 29
359 508 381 202 10 65
230 604 282 142 105 74
329 484 382 36 27 28
347 817 360 55 50 47
327 488 384 67 18 29
331 481 380 42 24 24
333 483 383 74 18 28
324 504 381 120 20 44
324 510 379 131 31 50
334 505 379 180 18 59
334 509 378 110 25 43
343 501 384 195 12 62
385 629 277 169 14 52
344 504 381 147 19 50
344 506 379 65 25 35
380 719 302 140 11 45
388 734 194 130 94 55
344 509 378 94 23 40
349 504 382 187 15 59
347 506 379 171 23 58
349 509 378 187 13 59
290 553 365 181 17 58
383 454 372 74 26 35
381 454 379 49 28 29
343 783 325 59 45 37
284 679 338 54 26 30
382 459 377 97 27 39
263 639 287 116 53 45
383 464 372 117 24 42
379 464 382 75 28 34
319 939 332 64 60 60
381 464 378 109 27 45
366 454 399 73 17 30
383 469 367 150 18 47
384 474 362 131 22 46
383 474 367 143 20 48
400 816 272 71 56 53
286 891 254 88 79 71
383 479 362 148 19 46
382 474 372 61 27 33
236 929 317 162 118 98
382 479 372 49 27 31
319 825 403 90 71 55
383 504 352 118 23 44
254 904 342 81 62 56
354 505 383 193 13 62
354 508 381 196 11 62
409 779 313 52 42 35
274 879 338 89 69 57
294 549 367 149 22 52
246 716 345 148 114 84
359 505 383 196 14 63
358 511 379 202 8 64
254 744 352 158 118 88
363 511 379 203 9 64
370 505 383 168 17 55
254 584 257 107 58 53
413 514 322 90 30 42
385 479 357 92 25 38
382 484 367 130 24 45
382 489 362 44 26 32
383 494 357 154 17 47
411 520 266 59 24 30
234 904 312 122 103 88
382 494 366 52 26 33
375 494 383 39 27 31
344 889 227 89 75 67
241 904 284 156 122 96
382 488 371 70 33 37
379 489 377 75 28 37
349 519 373 147 16 49
376 479 384 112 22 40
378 484 381 64 29 33
215 533 217 180 123 99
228 724 312 162 108 78
376 484 384 58 30 33
377 489 381 74 32 39
378 494 377 39 29 32
224 514 231 101 84 68
366 664 194 159 117 84
249 954 287 78 73 73
254 943 268 69 63 65
346 886 233 75 64 60
355 784 198 140 109 74
381 491 369 122 47 63
294 539 187 88 31 39
376 489 384 53 28 32
377 494 381 37 29 33
323 873 375 54 49 46
384 499 352 153 17 49
387 497 350 168 11 52
381 504 357 123 23 45
382 499 362 165 17 51
381 499 367 88 23 39
382 498 365 154 25 54
246 716 284 92 31 40
381 501 362 166 18 50
381 504 367 125 21 45
381 509 357 58 25 32
454 769 285 108 87 69
375 504 378 152 17 49
373 504 381 148 16 47
374 509 377 162 14 51
370 511 379 183 6 58
380 534 347 164 17 52
248 608 302 130 14 41
274 934 350 79 74 73
379 504 372 41 27 31
360 866 237 87 74 63
377 504 376 48 26 31
377 498 380 45 27 28
411 488 283 147 15 42
378 509 372 121 23 44
347 424 387 142 13 44
232 610 260 177 118 84
373 873 307 65 55 50
347 423 392 122 19 41
349 420 387 63 24 26
239 809 348 174 123 99
238 874 307 125 94 74
295 903 234 83 73 72
350 421 392 49 29 26
346 425 392 149 12 47
346 426 389 139 10 33
346 427 389 143 15 45
281 700 340 137 18 45
346 425 397 152 14 49
352 878 249 69 60 58
345 424 402 132 15 42
239 669 286 166 115 87
369 829 363 79 61 49
349 422 402 43 37 35
345 429 402 112 22 42
414 419 282 137 14 37
379 754 311 45 33 28
346 429 406 91 24 37
348 429 408 53 27 32
350 429 411 53 30 31
347 434 392 148 13 46
313 841 373 94 77 67
329 579 353 44 29 32
348 439 387 133 13 43
349 439 392 121 22 44
249 674 289 134 93 67
347 434 397 124 19 43
352 469 394 143 14 44
349 439 397 87 25 39
349 444 387 146 11 45
350 449 392 154 13 48
351 449 397 134 17 44
304 704 348 120 22 43
346 432 402 88 26 36
359 845 241 63 56 55
346 432 405 70 27 42
427 424 311 114 25 43
322 832 395 62 49 38
352 659 320 120 16 41
283 728 349 139 14 44
350 439 406 61 28 32
351 444 405 40 28 28
224 535 196 202 133 106
351 448 402 58 27 31
354 420 387 54 30 31
354 420 392 53 31 31
359 420 387 57 26 28
359 420 392 62 28 31
306 828 395 69 54 44
386 562 215 128 20 37
354 421 397 54 33 30
352 422 399 56 27 27
406 448 267 71 21 35
387 670 271 123 20 41
243 526 203 68 31 33
359 421 397 71 34 36
387 625 220 152 110 85
364 420 387 72 29 29
364 421 392 94 25 35
367 421 390 103 20 29
365 423 397 133 19 43
263 836 327 122 76 56
243 919 347 46 43 44
366 422 393 125 15 37
366 430 394 143 11 44
354 422 402 53 37 34
359 422 403 64 34 33
331 906 339 51 44 43
322 952 278 82 76 77
359 422 407 55 40 32
381 620 230 36 26 32
354 424 411 67 31 33
359 424 411 78 30 36
413 489 272 152 17 45
305 825 392 56 44 36
354 429 412 68 29 34
374 854 332 62 52 47
359 429 412 70 30 36
413 499 282 141 17 43
320 623 224 189 6 45
365 429 402 126 20 43
366 434 397 147 13 45
369 439 392 139 4 41
366 439 398 142 12 42
320 878 228 84 72 68
352 440 408 37 30 28
355 439 411 71 27 33
244 544 287 155 2 43
354 449 407 51 28 31
396 470 344 150 11 46
356 443 410 54 28 29
382 832 217 217 142 112
358 444 410 109 23 38
308 937 254 91 83 87
360 444 409 113 21 40
359 449 409 113 21 40
358 447 410 109 23 41
363 434 407 73 27 37
279 912 365 63 59 58
363 439 407 118 17 40
346 771 328 70 53 46
396 713 205 117 89 57
365 434 402 68 24 33
389 799 318 39 34 32
358 534 157 106 39 42
423 414 317 127 23 43
320 615 344 125 33 49
362 432 410 66 25 33
363 444 406 124 15 41
364 444 402 143 10 43
331 905 255 68 59 59
365 449 402 136 9 41
373 424 385 120 6 33
408 789 242 167 112 84
370 429 388 138 10 44
373 429 386 138 11 43
370 434 389 142 4 45
371 438 389 137 1 41
373 434 386 146 3 45
267 640 290 90 20 31
369 444 392 137 2 41
458 775 292 108 84 67
324 869 317 34 32 32
249 944 337 65 60 59
373 444 387 135 3 42
268 564 348 162 13 51
376 448 384 142 11 41
230 544 246 151 112 88
350 454 392 153 13 48
351 453 396 145 14 47
375 755 310 51 28 29
351 469 392 140 13 42
412 523 316 169 17 50
348 473 388 130 10 39
242 929 281 59 54 54
378 807 351 45 38 33
401 551 235 152 12 41
361 535 165 131 82 62
347 477 389 123 8 35
239 604 292 123 94 67
350 474 391 136 13 42
349 479 392 129 11 40
346 480 390 115 4 34
329 489 386 108 19 38
419 754 312 51 41 35
326 490 385 134 13 42
384 795 320 45 38 35
330 486 385 41 26 28
334 484 386 86 9 28
251 701 282 102 15 33
334 494 387 189 14 60
239 539 247 99 72 56
302 611 225 168 22 45
327 496 384 197 13 64
330 497 385 198 12 63
421 756 255 88 65 57
335 497 385 199 11 64
339 484 388 102 2 31
238 825 322 203 135 109
340 489 390 139 14 43
325 904 352 48 44 43
339 494 388 185 15 58
340 492 390 168 17 52
344 494 391 169 16 54
348 484 393 120 8 36
351 484 395 132 13 41
350 489 395 115 15 37
349 494 392 154 21 51
351 492 395 127 27 48
349 499 387 193 15 62
414 529 248 141 12 43
347 496 389 197 16 65
350 502 385 193 15 63
202 524 202 164 114 91
300 858 318 80 65 53
352 451 398 112 26 40
352 454 398 116 20 41
357 614 196 137 95 70
352 460 394 149 14 48
381 861 285 68 57 56
354 454 407 90 23 36
355 464 402 154 17 49
359 459 407 158 16 49
356 464 405 157 17 51
255 514 191 128 12 33
363 454 406 145 14 45
365 459 402 136 11 42
365 464 403 133 15 43
344 547 159 99 26 32
367 464 400 124 16 41
256 895 361 48 44 44
352 474 394 131 14 42
359 489 397 86 29 39
352 477 394 133 15 44
310 872 318 47 41 37
411 520 323 178 14 55
255 957 302 72 68 70
354 479 397 103 20 39
349 549 362 100 27 43
368 469 397 62 25 32
366 474 399 104 29 40
235 613 259 180 121 88
368 474 397 71 29 35
365 480 399 88 28 38
264 734 342 120 80 66
368 479 396 52 31 32
355 474 401 77 24 35
359 479 401 54 26 32
362 468 405 100 20 37
364 469 402 79 26 34
363 479 400 86 28 39
372 450 390 135 12 36
322 872 317 34 31 31
374 454 387 106 16 37
305 840 374 70 53 41
374 464 387 101 26 40
372 464 390 105 29 42
377 459 385 73 19 27
299 864 382 55 46 42
377 464 385 64 25 33
226 534 235 167 123 98
370 469 392 49 29 32
372 475 390 49 28 33
409 815 337 77 57 44
422 439 321 149 1 46
300 579 208 158 9 44
374 479 387 79 25 36
372 479 391 69 28 34
370 479 393 57 30 33
377 469 385 120 28 47
364 554 171 166 106 78
354 484 398 143 18 47
359 492 395 89 30 40
364 484 398 119 26 44
364 489 396 82 29 36
289 967 315 64 61 61
229 599 277 143 105 74
394 539 333 76 28 36
370 484 393 44 29 32
369 489 392 86 28 37
367 487 395 55 27 30
249 659 321 141 102 76
364 494 392 87 32 41
366 490 394 94 28 39
359 483 400 153 18 49
362 482 400 166 21 55
361 830 369 60 49 43
354 498 390 80 25 37
354 500 388 169 24 58
354 502 385 191 17 62
359 498 391 53 28 33
359 503 386 183 20 60
389 813 318 56 50 48
364 503 386 166 21 56
365 500 388 94 31 43
241 514 317 87 31 40
367 498 390 89 36 47
374 489 387 59 26 30
349 829 317 37 33 32
310 861 334 32 30 30
381 669 241 134 23 44
371 490 389 90 30 38
370 494 388 57 29 33
389 405 267 88 52 48
379 699 194 133 95 56
231 552 224 197 126 97
459 782 294 100 79 59
377 665 295 135 16 46
394 405 262 100 41 41
319 855 255 96 81 66
399 405 262 108 28 36
389 406 277 89 54 49
394 406 282 105 43 46
399 406 287 122 29 44
386 484 354 159 17 51
402 406 258 111 26 33
402 406 262 115 21 36
404 409 262 128 17 40
402 406 267 117 18 36
405 408 267 125 16 40
403 406 272 125 16 40
379 773 314 49 38 32
357 620 201 136 90 71
405 407 271 126 14 40
407 410 268 125 18 41
256 553 267 44 26 30
369 699 194 136 98 58
408 409 272 127 13 40
331 692 339 72 31 38
408 414 272 123 11 37
421 419 323 150 18 47
337 892 244 73 64 64
404 406 277 128 14 40
404 406 287 130 16 41
399 709 253 62 49 38
407 406 282 131 12 40
430 768 263 88 64 53
409 407 287 131 15 41
414 408 287 131 19 42
316 733 209 129 18 43
410 414 276 125 12 36
415 414 281 131 13 38
389 407 297 72 58 51
394 407 297 84 54 49
399 407 293 114 37 45
394 407 302 76 56 49
230 754 312 160 112 78
328 590 206 58 32 38
399 408 302 90 49 46
389 408 307 68 57 49
399 408 307 84 50 46
399 408 312 86 45 46
254 604 327 165 8 52
362 566 175 147 74 52
404 406 290 128 20 42
404 407 292 125 24 42
387 434 362 141 16 44
404 407 297 112 34 41
229 574 252 152 110 75
407 406 290 131 15 41
421 469 323 90 26 37
303 948 335 55 51 50
245 944 277 71 66 65
414 408 297 100 42 42
404 408 307 90 45 41
406 742 229 110 78 59
409 408 312 90 43 40
313 565 196 59 32 35
409 409 317 95 40 43
403 419 262 149 15 46
403 424 262 145 16 45
305 920 245 85 77 78
406 420 271 128 13 43
405 424 272 96 20 37
240 700 335 135 101 73
403 429 262 147 17 48
287 649 255 112 30 44
410 419 277 120 16 36
406 424 276 67 21 30
228 614 282 144 104 73
412 418 279 140 14 36
410 424 281 60 26 30
228 774 337 168 118 88
411 421 280 74 20 28
381 559 186 143 108 77
414 424 283 135 15 37
291 946 260 80 74 78
303 862 341 31 29 30
404 434 262 148 14 45
404 434 272 96 24 39
309 969 302 61 57 58
410 534 292 168 17 50
405 444 262 116 19 41
406 447 258 37 27 33
364 808 372 77 63 50
406 447 262 74 20 32
405 444 272 44 26 30
406 449 272 42 26 31
405 439 277 65 26 32
439 796 325 102 80 61
403 813 356 83 69 56
406 435 281 105 22 39
408 434 283 65 27 33
393 704 227 113 86 61
406 439 281 110 23 38
410 435 286 43 32 32
410 439 286 37 31 33
230 659 302 135 98 67
413 444 289 42 28 31
416 440 290 98 25 37
300 819 263 152 118 92
340 819 227 64 56 53
422 414 332 91 28 40
327 739 345 127 23 46
412 448 289 91 20 32
414 449 292 74 29 36
423 411 287 123 23 41
387 798 371 68 52 41
422 414 284 132 15 39
363 624 187 150 105 71
424 410 292 117 35 45
424 410 297 111 46 46
419 409 302 85 46 41
228 544 237 151 107 78
321 834 387 73 56 47
336 826 369 63 48 36
285 717 244 106 29 42
424 409 302 95 44 41
404 799 222 152 99 70
427 414 289 131 20 43
417 484 331 38 28 31
228 704 312 155 107 75
389 799 362 65 51 40
426 412 290 121 22 44
429 414 292 136 22 45
419 409 307 73 45 37
419 409 312 73 44 35
424 410 312 73 38 35
403 579 262 105 26 41
286 543 218 50 34 38
419 410 317 87 41 34
403 809 257 95 72 55
422 411 315 78 33 33
226 774 327 163 114 81
427 411 310 101 30 42
324 784 342 68 53 44
428 414 311 58 31 34
364 774 314 48 37 30
432 415 301 139 24 47
418 423 284 123 16 38
254 659 321 141 102 77
425 424 292 133 15 39
422 712 282 50 41 34
422 428 289 66 37 31
424 429 292 117 20 37
427 418 289 133 17 40
426 420 290 137 16 34
428 422 293 146 15 42
431 419 302 65 26 34
430 424 302 100 21 39
428 429 297 155 15 42
429 429 302 162 16 44
423 424 317 124 19 42
425 424 313 94 27 39
428 429 307 164 16 49
423 434 293 106 19 35
422 438 294 102 21 34
344 814 398 94 76 61
424 439 296 97 25 36
381 679 195 156 106 68
418 444 293 57 30 34
255 753 354 157 116 86
391 595 288 181 11 55
424 444 298 66 28 35
427 444 303 123 23 43
427 447 304 53 29 29
304 609 350 35 28 32
423 449 317 151 10 46
425 434 312 153 12 45
336 846 346 32 30 30
385 674 282 80 27 37
428 434 307 160 15 46
252 592 288 103 16 36
425 439 312 130 16 42
384 739 193 132 94 56
427 444 307 65 28 34
284 934 351 67 61 59
389 689 252 69 37 34
425 444 312 130 20 43
427 447 307 66 30 37
235 929 297 106 86 76
426 449 307 62 29 35
432 417 298 140 22 49
250 704 282 92 25 37
432 417 301 108 30 46
415 769 237 115 82 60
389 409 327 63 34 34
413 769 252 94 66 52
389 410 332 62 27 31
339 864 367 65 54 46
396 544 222 114 14 35
394 409 327 66 26 33
399 409 322 77 30 39
243 868 297 129 102 82
346 837 354 35 31 31
399 409 327 71 23 33
251 845 297 176 131 111
394 410 332 64 20 31
254 580 276 45 27 30
399 410 332 68 17 30
389 411 341 57 27 29
389 413 347 55 30 27
346 780 209 130 95 61
389 415 352 55 32 28
394 411 341 59 22 25
355 904 302 56 49 46
276 876 354 43 39 38
386 688 200 125 93 56
399 414 347 54 24 25
409 409 322 92 37 42
409 410 327 82 35 37
404 410 337 64 19 26
329 559 363 121 30 48
319 543 370 40 29 31
409 410 332 69 32 32
414 409 322 94 41 41
415 804 316 79 63 54
414 410 332 72 40 37
309 859 342 31 29 31
414 411 337 60 37 34
289 694 342 35 28 29
404 411 341 61 17 24
409 411 342 59 24 25
404 414 347 51 25 25
409 414 347 78 23 31
414 411 342 54 32 29
339 583 184 177 11 44
414 414 346 82 29 35
393 419 351 84 27 36
277 575 235 156 0 38
393 424 351 138 21 47
228 734 327 163 110 81
399 419 348 87 28 37
399 424 348 74 28 34
390 444 353 147 7 44
260 855 273 113 96 80
392 439 350 144 11 42
399 439 345 58 27 32
239 644 273 183 125 95
394 444 348 132 13 42
392 444 350 146 10 43
392 449 350 149 7 46
398 444 345 129 21 45
245 864 302 122 68 73
397 449 345 146 13 45
400 449 344 138 14 43
231 628 269 173 116 83
409 419 347 66 28 33
409 424 347 50 29 31
349 829 222 95 74 68
324 619 341 53 29 33
414 419 347 72 28 35
411 431 344 83 19 33
416 425 344 110 23 40
403 438 345 58 26 32
289 945 343 75 69 68
406 436 344 77 26 29
410 435 344 110 18 37
242 613 299 121 82 60
414 444 341 146 6 45
391 419 354 58 27 29
334 694 338 79 29 36
388 424 362 72 28 35
387 429 362 133 17 42
389 434 357 152 10 47
386 434 367 96 24 36
310 916 354 48 43 41
387 434 365 112 20 37
387 439 362 120 16 42
386 436 364 102 23 33
247 534 322 43 32 36
412 529 250 154 14 46
387 444 361 141 12 45
386 444 367 150 18 47
245 729 292 130 54 51
407 798 242 176 118 88
387 449 360 154 11 46
418 411 327 102 42 45
420 414 327 131 28 47
298 584 216 147 5 37
421 412 332 91 32 41
286 529 197 62 31 34
421 412 337 60 40 37
422 415 337 38 31 32
256 871 326 129 95 73
386 679 200 136 98 63
284 529 212 85 20 33
420 413 342 46 35 33
409 569 256 53 25 31
418 415 345 76 31 37
422 419 321 135 18 45
454 794 331 116 90 67
421 424 323 153 11 46
422 419 332 102 22 38
422 419 337 95 24 39
394 469 346 153 10 47
421 424 332 155 12 46
422 422 332 157 18 47
420 424 337 155 13 47
422 429 321 151 9 46
419 429 337 154 7 47
413 723 294 51 39 30
420 429 332 156 5 48
419 424 342 136 18 44
418 419 345 93 29 40
264 809 297 66 54 49
418 429 341 153 12 47
420 439 327 154 0 48
399 704 242 79 40 38
422 444 321 149 2 45
421 449 324 150 1 46
422 449 321 150 3 45
254 619 268 141 92 72
421 449 327 153 1 46
353 563 169 194 15 42
419 449 332 159 3 49
331 896 245 71 61 58
418 449 337 155 4 48
417 439 340 148 3 45
416 444 339 150 4 48
304 898 370 64 58 54
334 867 226 94 77 64
407 450 262 54 22 31
304 614 227 106 27 41
407 450 267 128 20 42
348 919 312 51 45 42
407 451 270 59 18 26
332 938 316 52 46 43
409 459 262 81 29 37
409 459 267 46 27 30
284 929 353 65 58 55
382 679 243 70 32 34
410 464 267 41 27 30
407 713 264 33 27 23
240 734 298 159 106 76
266 681 273 93 16 31
406 454 277 68 28 35
407 456 275 111 31 43
243 559 307 42 28 33
406 454 281 39 30 33
228 523 188 60 27 33
329 814 233 72 61 57
383 569 192 138 105 73
409 454 287 69 29 34
407 459 277 57 27 32
408 464 277 63 28 34
408 459 287 59 28 33
385 845 276 68 57 56
342 828 325 34 31 30
408 464 287 89 27 36
386 584 197 138 105 72
411 468 262 43 28 32
411 472 269 117 32 40
411 474 273 122 21 40
407 549 262 150 19 50
412 475 271 65 25 31
413 479 267 60 26 31
240 670 320 136 98 71
412 479 272 41 28 33
404 729 292 42 34 27
408 469 282 69 27 32
243 544 218 183 111 98
321 661 229 127 9 30
408 469 287 71 30 36
341 654 329 76 27 34
409 469 277 63 26 32
410 474 277 100 26 38
411 479 278 46 27 33
410 479 282 77 27 35
411 455 290 70 33 38
349 584 181 66 30 39
414 454 293 87 26 36
410 459 291 44 29 31
410 464 291 69 25 34
294 973 292 59 56 56
416 455 295 91 21 38
415 464 296 48 30 31
414 469 297 60 29 35
409 474 292 51 30 32
286 875 259 138 115 93
409 479 292 121 23 41
243 582 244 184 120 95
415 479 302 100 24 38
417 463 298 53 31 32
384 599 222 86 28 38
411 488 260 160 10 50
348 884 332 52 45 43
386 729 294 105 17 36
413 484 267 132 18 44
428 749 261 77 58 47
413 484 272 55 23 31
411 494 261 162 7 53
412 490 259 161 8 50
413 494 272 153 16 44
349 794 318 43 35 31
411 487 279 149 15 41
412 484 277 113 20 39
412 489 277 152 16 45
372 877 288 69 57 51
410 489 287 141 15 42
411 493 284 144 17 44
239 579 272 117 92 66
412 490 281 144 15 43
424 807 345 84 70 59
411 498 261 161 10 49
412 504 262 118 17 42
320 909 242 73 64 63
413 499 267 147 16 44
339 544 366 171 16 56
414 499 272 141 21 45
253 594 258 137 84 71
394 824 307 62 50 47
414 504 272 74 28 35
411 506 260 158 18 53
412 509 263 104 29 44
413 509 267 47 30 33
413 509 272 52 29 31
414 499 277 93 26 37
249 714 344 149 114 85
412 496 285 149 13 43
287 872 336 61 53 46
412 499 287 153 14 44
413 504 282 144 19 46
414 509 277 42 29 31
264 949 267 71 66 68
363 818 371 65 52 44
413 509 287 102 23 39
410 484 297 144 15 39
228 545 222 202 132 102
372 878 292 68 57 52
409 489 292 151 16 44
412 484 299 143 14 39
408 714 242 69 51 43
413 489 302 123 18 37
410 494 297 118 20 39
372 877 301 44 38 34
324 560 364 41 28 33
411 490 300 92 23 33
411 494 301 59 27 34
366 837 219 212 143 116
416 484 305 93 19 36
414 784 262 77 60 53
330 843 380 68 56 47
415 494 307 137 19 42
411 504 292 152 16 45
391 831 262 81 60 50
410 504 297 129 19 43
249 534 213 96 26 40
299 609 350 79 31 40
411 499 301 75 24 36
289 960 271 93 90 94
369 744 312 101 20 37
412 499 303 92 28 39
412 504 304 146 20 44
334 649 333 32 29 32
412 509 291 103 23 39
415 509 317 95 26 39
417 452 294 83 16 24
234 779 348 170 119 91
419 454 297 122 18 38
250 849 297 154 113 90
418 459 298 105 23 38
282 692 245 72 33 35
285 634 253 67 34 39
237 910 290 169 130 106
420 460 300 112 18 36
420 464 301 55 28 31
421 456 300 77 18 29
422 463 303 105 27 40
270 674 330 33 26 28
423 464 307 83 29 37
464 784 302 107 83 66
343 714 336 134 16 44
423 464 317 86 29 37
425 454 307 86 32 41
424 464 312 64 31 36
417 467 299 34 32 32
268 961 319 60 56 56
259 554 228 179 18 45
416 470 300 51 32 39
418 474 303 101 26 38
423 469 317 117 30 45
247 867 280 136 112 87
336 895 251 73 65 65
254 563 238 132 36 42
333 892 237 70 60 58
421 474 307 82 28 37
419 479 307 48 30 35
421 475 311 103 35 47
374 639 297 92 23 37
422 474 312 107 29 41
266 608 259 122 34 43
422 474 317 109 26 43
422 477 314 59 24 33
330 783 224 88 70 61
422 477 317 117 31 47
416 481 305 55 24 32
399 785 361 70 55 43
420 484 312 112 26 42
314 919 242 74 66 67
250 709 272 71 32 38
417 493 309 158 15 45
396 709 257 73 56 45
418 494 317 101 24 41
417 498 313 160 18 45
374 819 194 206 147 122
417 499 317 158 20 47
249 553 252 95 11 29
417 502 317 168 20 50
433 782 293 107 87 69
245 914 347 45 42 43
390 454 352 151 5 46
390 464 352 155 13 47
394 454 347 146 5 45
204 523 182 121 62 63
239 553 223 206 136 107
415 704 272 52 41 31
392 454 350 148 4 45
256 747 264 168 4 43
400 454 344 145 8 45
352 811 205 164 127 94
399 464 344 148 9 46
394 459 347 148 3 46
418 559 247 88 29 39
397 464 345 151 6 48
391 465 349 155 13 48
405 539 236 155 13 35
391 469 349 147 15 46
361 599 184 146 102 68
388 479 352 116 21 42
399 469 344 130 15 41
399 479 343 149 15 47
394 474 346 153 9 47
248 593 253 168 107 86
394 529 217 69 28 35
404 459 342 145 5 44
415 454 338 150 8 47
228 789 317 170 120 87
264 604 336 104 24 42
234 543 212 217 142 115
413 459 340 146 10 45
409 474 341 56 30 32
409 479 340 65 28 32
411 479 339 65 29 32
381 564 187 144 109 77
414 474 338 65 29 32
384 579 322 183 9 57
412 474 340 55 29 31
388 454 357 152 9 46
387 459 357 149 13 47
351 881 226 95 84 75
387 464 356 155 14 45
240 570 236 193 125 98
385 464 362 153 17 48
304 529 177 76 27 32
386 469 358 126 21 44
418 738 239 71 52 43
388 484 352 162 16 52
389 494 347 165 13 51
394 484 346 142 15 46
393 489 345 79 23 35
256 846 284 126 105 84
396 484 344 119 17 40
326 951 290 84 77 77
396 489 344 40 29 31
393 493 345 124 20 45
385 504 348 174 16 53
390 509 343 112 18 39
388 509 346 104 23 41
268 795 285 68 57 55
394 504 342 129 18 44
380 751 310 42 29 26
399 499 341 140 20 48
366 861 255 67 55 54
398 509 340 110 25 42
414 484 337 51 29 31
416 485 333 48 30 33
240 513 242 52 28 32
376 678 299 90 20 33
404 489 341 115 21 41
349 809 207 161 126 92
428 704 273 86 62 49
409 489 338 139 20 46
405 494 339 150 19 49
358 739 201 148 104 71
409 494 338 101 24 39
410 485 339 103 24 39
408 509 335 81 20 32
416 504 322 61 27 34
409 499 337 63 24 30
281 972 288 68 64 66
411 501 334 83 32 38
413 499 332 120 32 48
412 498 335 97 22 37
243 934 277 60 56 58
412 504 331 116 28 42
405 499 339 95 24 37
404 504 338 62 26 31
402 503 340 94 25 37
401 506 339 82 22 30
386 481 354 93 15 30
289 870 342 40 36 34
386 489 353 165 15 50
234 654 302 132 92 64
421 454 324 152 6 47
284 926 354 60 54 53
374 639 184 160 108 73
422 454 321 152 8 47
353 774 321 63 48 39
421 454 327 154 7 47
277 640 266 73 34 41
422 459 321 155 13 47
421 464 323 146 19 46
419 459 332 133 17 44
417 459 336 143 18 46
254 565 242 126 38 42
363 593 336 102 33 44
422 469 320 107 26 41
331 851 338 31 29 31
419 479 327 65 27 35
418 474 332 76 30 37
417 474 335 78 27 34
416 480 334 59 28 33
398 559 321 141 26 51
420 484 322 142 27 49
379 569 207 80 43 42
417 498 322 69 29 33
253 884 271 157 119 91
416 500 323 63 29 33
205 519 172 72 36 41
202 519 177 98 29 40
384 784 316 48 40 35
206 522 174 130 35 48
201 515 179 81 62 50
202 512 180 89 80 71
284 969 282 80 76 77
201 518 182 171 118 104
259 574 337 168 8 53
200 519 187 181 124 110
201 519 192 160 113 94
309 869 381 56 50 48
209 525 182 187 109 102
383 644 192 158 113 78
202 521 185 204 138 122
202 525 192 194 130 112
402 543 234 150 11 37
254 953 322 55 52 52
209 530 191 205 137 122
339 739 208 128 12 33
210 515 169 118 26 38
210 517 169 94 44 43
309 629 343 55 29 32
241 517 302 186 0 51
214 514 170 116 14 32
411 726 295 50 39 32
213 517 169 75 32 38
214 520 171 122 23 40
213 522 173 157 70 71
214 524 177 218 148 150
377 529 186 142 103 88
219 519 172 199 11 45
336 896 339 54 47 43
224 514 171 125 12 29
214 526 182 215 141 135
246 952 307 66 60 62
212 526 185 203 122 110
241 909 284 158 123 95
370 659 302 140 3 44
214 528 187 180 100 91
357 892 310 54 48 46
383 799 320 44 37 35
350 816 358 57 51 47
230 699 317 150 104 74
293 797 355 84 62 51
224 520 182 119 13 33
219 524 182 194 111 106
220 526 186 199 123 112
224 521 185 70 21 34
222 522 184 159 81 82
384 559 212 120 15 34
224 524 187 136 73 72
359 811 362 65 54 45
290 784 263 78 62 56
214 530 191 152 80 72
391 682 224 145 105 76
224 530 191 209 137 121
373 699 311 142 14 45
229 514 173 125 15 31
232 514 174 83 29 30
229 521 187 56 34 39
229 524 192 63 34 35
375 845 262 77 59 53
226 526 190 157 98 88
331 910 255 73 64 62
229 529 192 169 109 98
230 520 192 43 26 32
238 522 178 62 39 43
239 524 182 89 37 43
239 528 192 46 36 39
312 812 345 41 35 33
244 514 181 96 24 32
245 519 181 49 34 42
241 521 180 43 34 33
296 896 229 88 78 77
244 524 182 67 33 38
253 514 188 123 13 31
261 659 290 126 81 64
254 519 187 63 33 36
256 519 191 58 33 36
248 529 217 84 23 37
250 524 185 81 35 37
253 524 187 48 34 39
250 532 193 99 34 42
201 514 197 164 117 96
374 811 360 53 42 33
201 519 197 160 110 92
382 579 206 145 107 84
201 518 202 162 116 92
202 520 202 163 117 93
202 519 207 140 102 78
201 522 196 149 103 84
203 524 207 173 120 97
204 529 202 170 113 91
206 512 220 144 101 81
228 784 317 167 118 84
209 519 222 166 117 98
206 523 216 168 117 96
208 525 217 169 116 94
336 820 373 68 53 41
207 526 214 173 118 98
209 533 193 214 145 130
206 532 194 216 143 127
432 735 278 66 52 40
309 599 212 192 9 44
209 534 197 215 136 124
207 531 208 187 130 106
206 533 202 205 135 116
210 528 216 167 113 92
212 536 200 217 138 123
404 807 342 80 67 58
326 606 344 181 27 60
386 688 241 72 38 37
212 536 208 196 130 110
396 825 251 91 67 55
219 537 198 205 139 117
235 689 326 139 102 72
319 849 377 68 59 53
219 538 202 213 143 119
219 540 207 217 142 114
369 836 216 215 140 111
224 541 207 212 138 109
227 764 322 155 108 75
212 531 214 184 131 104
213 535 212 184 125 99
348 593 340 193 10 61
216 532 221 169 114 90
399 789 357 78 62 48
219 534 222 174 119 93
454 728 297 102 71 52
219 539 212 208 139 109
216 537 215 185 123 96
316 921 245 69 63 63
219 539 217 196 132 102
359 829 212 214 152 123
225 542 212 217 143 111
225 543 222 197 131 100
211 518 225 170 118 102
212 520 224 163 114 94
215 524 226 162 116 92
219 514 228 116 93 72
334 578 183 180 4 40
217 519 229 149 112 91
328 919 258 67 60 61
223 512 229 89 74 60
218 524 228 167 121 98
220 524 231 167 124 102
219 529 227 159 113 89
281 671 259 93 22 28
220 534 226 165 113 89
222 535 228 162 111 87
276 680 259 83 33 38
233 790 311 156 112 76
221 537 225 176 119 91
268 805 291 68 57 53
224 539 227 174 118 91
407 552 267 127 19 44
270 704 248 65 29 35
235 529 197 118 74 66
239 528 197 57 36 37
239 529 202 80 43 45
228 532 194 206 141 123
229 534 197 214 145 125
228 537 199 212 136 113
229 538 202 214 134 111
391 840 292 67 56 51
339 934 287 67 61 60
304 844 372 66 53 43
229 541 207 211 131 106
233 533 198 192 129 118
234 538 203 220 147 129
239 539 207 205 140 126
226 542 209 211 135 106
300 967 279 78 74 78
229 545 217 214 140 106
234 542 209 220 144 120
237 542 209 223 144 124
244 529 197 69 35 41
241 526 202 53 27 37
245 528 202 69 30 37
369 854 342 71 57 49
241 529 205 73 19 31
244 529 206 72 23 33
339 774 332 78 60 52
251 532 207 89 35 41
253 534 202 98 31 41
409 554 240 160 16 37
230 674 302 163 112 84
255 538 207 75 35 37
422 763 307 56 44 34
248 530 212 71 23 34
394 514 341 162 12 50
246 529 217 80 22 37
244 539 212 156 99 91
401 810 232 141 88 59
242 542 214 201 135 121
352 815 210 191 142 113
326 677 339 37 26 30
248 536 215 95 25 31
374 809 357 60 48 40
249 532 224 69 20 28
254 539 212 91 31 39
419 534 247 101 11 34
256 542 213 69 28 33
302 774 250 72 59 54
254 544 217 109 31 43
253 545 221 146 31 43
250 769 298 85 64 52
229 514 232 76 37 38
229 524 236 130 101 81
364 803 318 40 35 33
226 529 235 160 121 98
305 800 349 53 43 36
252 898 352 44 41 40
229 529 237 143 110 87
348 889 262 62 55 56
234 514 234 61 26 31
235 513 236 42 24 29
321 849 314 51 39 31
386 634 273 168 17 50
249 674 326 139 102 74
379 749 193 131 95 57
239 515 237 42 28 30
238 516 234 38 28 28
239 518 234 42 26 28
240 519 235 54 25 29
234 528 238 120 93 72
239 528 239 102 68 56
228 534 237 152 116 90
226 543 227 186 124 96
227 544 232 162 112 83
253 848 308 128 81 68
228 539 237 145 106 78
227 540 234 145 102 75
231 535 241 133 104 76
228 544 242 156 113 85
305 749 232 77 61 55
250 870 274 134 110 86
235 530 241 117 92 71
334 839 365 59 48 41
234 534 243 118 92 69
228 599 267 147 104 71
355 850 363 73 57 48
235 535 245 106 80 58
386 649 262 158 9 49
239 530 241 100 62 51
414 798 318 92 78 64
239 533 243 98 63 51
368 824 366 65 54 45
385 644 252 97 21 37
232 537 244 121 95 68
421 778 304 74 61 48
242 519 238 71 22 32
244 549 252 89 39 40
242 516 239 45 25 33
407 808 264 78 61 52
260 519 195 65 33 37
243 514 247 47 28 31
394 740 302 38 31 26
244 519 242 73 20 32
247 518 257 145 0 40
324 860 328 32 29 30
242 524 242 67 21 31
243 524 247 110 7 35
244 524 252 119 3 35
263 950 270 72 68 69
244 529 257 50 30 32
332 862 255 54 49 50
234 804 312 155 113 79
365 870 327 56 49 46
250 532 226 97 16 38
248 530 243 63 27 32
248 531 247 74 23 32
249 534 242 85 13 33
248 531 257 55 29 35
244 543 248 82 41 41
249 544 246 82 6 30
333 828 371 57 46 39
269 832 340 116 76 55
250 534 257 56 28 33
282 580 230 155 0 37
252 536 251 42 26 27
276 623 259 136 17 38
254 543 244 100 5 31
432 766 285 87 70 51
255 545 246 103 3 33
254 869 271 133 109 85
391 699 277 56 28 33
254 804 302 121 93 66
419 744 250 81 58 49
251 538 254 41 26 24
363 804 191 148 110 70
251 538 257 49 27 26
254 539 252 39 26 27
430 786 300 105 85 65
231 547 219 210 135 105
369 840 227 118 76 64
291 522 184 143 10 44
230 548 222 204 133 101
234 546 216 211 136 106
239 550 221 206 135 109
242 552 224 195 124 103
227 546 227 188 126 96
228 549 227 185 121 90
365 801 386 58 48 40
333 699 340 53 25 30
228 549 237 154 108 78
230 554 227 181 116 86
425 776 281 81 63 47
230 559 232 176 116 85
231 558 229 183 118 88
228 554 237 154 108 77
234 559 227 197 128 98
245 574 241 173 111 91
228 549 242 157 111 82
229 549 247 155 113 86
449 709 288 111 87 68
229 554 247 153 112 81
229 559 247 151 109 77
230 559 256 143 107 78
344 858 247 53 48 49
231 556 255 141 105 77
417 748 315 65 45 36
394 698 254 71 35 31
232 547 249 142 109 82
234 549 252 131 101 77
234 555 256 131 100 74
231 563 233 187 123 94
233 914 307 177 135 113
379 604 182 146 105 68
231 572 239 181 120 91
234 564 232 195 128 99
235 562 229 200 129 100
238 562 229 204 132 104
230 694 317 147 102 72
235 568 234 196 130 99
234 574 238 190 127 97
228 759 337 168 117 88
392 791 315 40 34 30
229 564 242 159 112 81
229 569 242 167 114 84
229 564 252 148 109 75
229 569 252 148 107 74
391 621 269 46 30 31
248 548 227 137 79 73
246 550 226 169 108 92
454 768 282 106 86 69
314 764 351 96 36 43
365 614 183 148 104 66
243 558 229 181 113 93
249 554 232 141 69 62
246 555 230 173 109 89
405 554 282 127 28 45
250 546 231 73 30 39
382 649 193 156 111 77
249 639 313 125 96 69
254 549 227 146 22 40
254 554 232 135 28 40
422 772 267 81 63 54
254 558 233 138 32 41
433 709 278 101 75 53
244 546 250 83 40 37
401 519 230 122 16 35
248 550 250 93 14 30
254 549 247 106 2 34
255 550 252 105 2 29
255 555 256 103 1 31
241 561 230 192 122 103
243 569 238 176 112 92
249 561 235 144 70 63
268 545 354 70 27 33
242 573 239 181 116 95
245 569 241 165 102 85
240 828 323 199 131 105
354 844 242 56 49 50
249 565 241 138 68 59
269 840 287 102 84 65
249 569 243 145 77 66
253 567 244 130 41 45
254 569 246 123 38 45
253 573 248 117 47 49
254 574 251 94 41 42
230 579 247 176 118 88
364 528 370 199 7 63
230 584 248 183 120 92
229 579 257 149 110 75
374 629 302 59 25 33
229 584 252 170 117 86
332 862 375 56 50 46
229 584 257 152 108 75
289 629 343 115 27 46
231 587 249 185 120 92
242 725 295 149 99 72
229 589 257 163 116 79
235 583 244 194 128 95
239 579 241 193 126 97
277 736 250 174 9 42
239 583 243 190 123 94
240 585 245 190 124 96
239 589 247 188 121 92
232 590 250 184 119 89
231 593 253 178 120 84
238 593 249 187 119 91
300 951 334 57 52 53
293 893 242 60 57 59
239 594 250 186 120 91
252 892 329 70 60 54
239 599 252 187 121 91
392 724 199 123 91 56
234 604 257 182 121 88
239 602 254 186 123 92
385 669 277 86 23 37
246 581 245 166 108 85
409 814 322 64 50 44
290 724 351 139 17 45
247 583 248 162 102 83
249 584 252 148 91 75
247 588 249 170 108 86
253 589 257 130 80 67
244 594 252 181 118 92
245 600 255 177 116 90
315 849 382 55 46 40
249 599 257 161 104 82
235 719 298 163 109 77
246 519 262 149 0 42
234 619 263 180 120 87
273 619 262 164 15 46
247 520 267 153 0 44
245 519 272 159 0 44
260 559 341 102 19 38
247 520 271 153 0 41
366 659 193 172 121 93
244 529 262 61 28 35
354 884 267 58 51 52
246 525 266 137 2 40
354 874 333 54 47 44
247 522 264 147 0 43
248 524 272 145 2 42
247 528 273 135 3 41
229 744 312 167 113 82
241 513 277 169 0 48
242 515 277 167 0 47
280 674 258 57 33 37
242 516 281 163 8 45
247 529 287 143 1 40
350 865 353 47 40 37
244 519 287 177 3 50
246 522 274 149 0 41
244 744 352 158 119 88
246 522 276 149 0 39
247 528 277 137 7 40
247 524 282 151 0 44
247 524 287 152 0 41
289 869 377 45 37 33
247 529 282 138 5 39
379 584 182 138 101 66
245 532 263 46 29 32
248 536 266 77 26 36
246 537 268 54 30 32
251 542 273 137 6 46
229 704 317 153 106 75
231 749 309 169 116 85
365 880 308 59 53 50
349 709 332 151 13 48
253 539 267 141 10 44
255 544 267 135 2 43
252 540 270 153 8 43
244 534 277 119 7 39
246 531 280 132 6 38
246 534 282 135 1 40
346 827 224 56 51 54
246 534 287 142 0 40
324 844 253 120 97 74
290 634 249 84 38 44
245 539 277 136 6 40
248 540 276 91 13 31
244 539 287 145 0 40
246 544 283 141 0 41
444 714 288 96 73 52
354 530 369 189 11 59
247 545 281 133 1 37
388 849 292 66 55 49
344 884 337 49 43 41
244 519 292 160 3 45
246 522 288 161 0 43
344 654 224 107 15 29
244 524 297 56 25 32
245 529 292 138 1 38
246 529 289 141 0 40
245 524 302 48 28 31
245 529 302 84 23 35
240 514 312 81 26 36
243 520 307 158 11 48
235 924 317 182 134 113
241 517 316 111 33 47
298 849 382 60 49 43
393 813 208 190 129 100
245 524 312 73 30 35
264 669 287 83 32 32
246 529 312 55 31 34
246 529 317 118 26 44
384 808 342 51 42 37
462 709 293 89 64 49
243 534 297 136 3 38
376 850 338 62 50 43
244 534 302 139 7 41
241 540 295 129 3 37
231 809 340 179 124 98
241 543 293 134 3 40
333 608 340 68 30 37
241 544 296 96 18 35
246 533 316 39 30 33
246 537 311 149 16 46
278 689 252 41 36 41
247 539 312 77 24 36
245 544 307 108 14 37
247 544 312 152 10 47
346 797 209 160 123 87
334 709 341 130 19 44
247 539 317 64 25 37
367 677 195 144 103 70
238 557 259 115 88 65
344 839 243 100 79 71
235 560 260 126 98 72
231 574 266 138 106 75
232 562 259 139 107 79
249 748 354 159 119 90
234 564 262 130 100 73
237 567 264 120 91 64
244 645 275 168 115 86
290 660 340 145 27 50
240 566 265 111 85 59
245 705 340 143 107 79
234 574 268 129 101 72
363 739 196 145 102 65
249 559 258 90 20 34
256 560 261 47 25 28
249 833 332 159 100 78
293 862 372 34 30 29
249 548 282 133 1 40
246 547 284 137 0 39
255 549 277 87 16 35
309 834 332 39 35 35
252 610 318 129 13 40
253 550 282 116 11 39
403 744 203 130 97 66
256 554 282 57 22 34
255 559 287 114 7 39
400 529 334 166 14 51
247 561 260 73 29 25
244 569 267 82 62 47
249 569 267 38 25 27
244 571 270 90 69 51
244 574 271 89 68 51
311 733 214 160 3 45
250 573 269 52 22 29
248 575 270 52 32 29
411 562 254 31 26 28
250 567 264 30 28 28
252 563 259 38 27 27
300 659 243 134 10 37
254 568 268 31 28 29
384 815 321 51 44 40
278 584 354 170 17 53
256 566 267 31 27 28
256 568 270 30 26 28
242 549 296 88 23 33
244 554 297 108 23 40
405 789 314 54 44 38
247 556 296 50 27 32
294 942 345 61 56 56
246 557 299 132 6 36
251 557 293 37 31 33
253 556 290 119 12 44
253 559 292 49 24 31
295 579 218 142 1 36
254 644 316 125 92 68
244 549 307 105 18 38
248 549 312 131 11 42
246 550 310 134 10 41
367 752 195 136 101 60
241 554 305 41 28 30
245 559 312 38 29 31
249 564 302 131 7 37
274 873 362 37 34 35
256 564 287 94 19 38
254 564 292 53 26 34
384 817 324 48 42 39
251 569 299 67 19 31
289 569 361 176 18 56
235 924 297 158 121 103
250 574 302 55 28 34
253 549 332 108 27 44
244 564 312 81 27 37
247 566 305 136 8 39
454 791 327 117 90 69
247 575 310 137 1 35
244 519 327 74 27 37
252 749 281 73 32 39
312 784 241 76 61 57
247 514 334 51 31 33
247 519 334 38 28 30
249 519 337 59 28 33
274 844 318 87 67 53
245 524 322 68 29 34
247 525 328 99 27 41
246 522 330 49 25 32
249 529 332 84 30 39
259 709 258 120 11 34
249 524 337 86 30 39
251 519 340 104 26 42
330 925 266 75 67 68
255 514 347 161 4 50
255 519 347 159 4 49
251 524 340 126 27 49
255 524 346 155 6 49
246 532 320 30 31 35
248 534 327 82 31 38
249 539 327 108 23 43
244 894 323 129 101 80
310 724 213 158 2 44
250 539 332 33 30 33
251 543 331 130 28 50
304 558 365 129 22 47
254 544 337 52 28 33
392 792 370 58 45 36
410 784 247 135 92 70
252 530 339 46 30 34
344 539 366 172 18 56
254 534 342 62 32 36
251 549 322 78 26 38
251 548 326 37 31 33
352 902 283 75 65 61
252 550 327 91 25 40
248 689 290 131 94 62
252 546 329 50 26 30
251 553 321 149 11 45
344 854 252 51 47 49
251 559 320 148 11 47
252 559 322 153 6 49
355 816 354 52 46 41
255 559 332 153 12 50
249 569 322 38 28 29
248 574 323 50 26 30
254 564 327 149 10 49
256 564 331 153 4 46
250 575 325 84 21 34
326 901 353 47 42 41
296 747 354 51 29 29
231 580 270 136 104 74
402 558 307 187 14 55
232 577 269 133 105 73
347 888 258 72 63 63
404 559 282 86 32 39
234 579 271 128 100 72
313 649 235 136 3 34
237 582 274 123 97 67
234 585 277 127 99 70
239 584 277 116 91 65
240 580 276 111 87 63
235 589 281 126 98 69
289 544 368 59 26 33
239 589 281 116 91 65
297 654 245 57 27 33
228 594 262 155 109 73
228 599 272 144 105 72
344 779 326 63 48 39
230 603 259 172 115 83
339 845 347 36 33 33
260 734 259 162 0 42
229 604 262 166 113 79
230 609 262 170 115 80
228 604 272 145 105 71
228 609 267 162 113 79
231 595 280 135 103 74
228 609 277 144 104 72
233 599 283 132 101 70
239 593 284 119 93 67
401 786 205 173 120 89
239 595 286 117 91 66
239 779 352 172 123 95
239 599 288 122 94 67
299 846 324 44 37 33
234 604 287 132 100 71
299 514 377 160 19 52
233 609 288 137 103 72
254 578 273 55 24 30
255 585 261 75 41 39
244 578 274 92 71 54
250 704 277 121 19 41
371 704 314 120 15 41
399 769 198 152 107 72
249 584 278 60 37 34
248 587 279 85 65 49
249 591 285 64 45 37
254 583 278 36 26 30
236 782 350 171 120 93
300 524 178 146 3 34
255 584 282 57 24 29
250 586 280 46 28 29
244 609 259 170 113 84
255 594 262 110 68 58
251 606 260 151 98 79
254 604 262 136 84 68
254 609 262 136 85 69
235 609 291 135 102 71
449 783 302 101 79 58
341 846 356 33 30 30
237 602 289 126 97 69
240 600 290 118 91 65
238 609 293 128 98 69
255 579 292 48 30 34
255 584 292 64 28 35
255 709 263 121 11 35
328 644 335 79 33 39
283 620 344 60 28 31
254 589 292 80 23 35
407 822 370 95 79 65
253 589 297 49 28 33
252 589 302 77 22 34
247 579 311 58 25 34
329 539 171 154 2 33
247 584 312 91 28 39
234 929 302 113 91 80
246 582 314 120 27 44
246 582 316 136 19 44
247 584 317 141 16 45
259 864 322 112 85 68
248 589 317 154 8 44
249 579 307 66 28 37
251 589 308 115 18 43
315 944 261 86 79 80
244 600 291 110 83 60
244 603 293 111 83 60
245 605 296 111 80 59
397 701 217 128 97 65
248 608 298 106 37 43
336 915 266 70 62 62
251 596 290 80 15 30
233 904 307 97 87 81
273 553 228 88 38 44
251 600 296 70 29 36
252 598 293 80 25 33
252 599 302 104 15 37
252 603 302 130 2 40
338 778 331 71 55 46
339 669 223 40 37 40
250 594 312 125 11 38
289 914 362 60 54 51
257 711 340 148 110 83
251 599 307 41 28 32
