ply
format ascii 1.0
comment Created by Open3D
element vertex 2227
property double x
property double y
property double z
property uchar red
property uchar green
property uchar blue
end_header
354 102 265 139 24 42
152 480 217 116 77 59
218 617 232 175 125 100
292 344 216 97 83 69
449 777 274 87 62 48
274 808 206 184 136 111
350 92 164 139 26 47
357 68 160 107 31 38
248 377 198 97 83 70
226 372 239 98 80 61
187 439 182 106 32 39
303 944 259 66 62 63
245 377 204 98 84 70
244 342 287 88 67 43
457 752 249 80 60 46
247 375 202 98 83 70
313 132 283 105 67 48
226 377 253 124 94 67
254 342 286 82 57 36
249 392 343 161 115 95
140 429 194 50 26 24
359 400 296 68 43 41
316 192 216 127 102 73
243 377 209 97 84 71
205 486 242 138 7 43
155 477 216 65 40 36
249 662 224 161 118 102
364 872 275 145 102 81
242 388 298 116 81 60
221 408 116 68 49 39
365 412 198 87 32 29
428 732 298 174 121 89
325 387 173 85 37 40
144 456 241 109 2 32
382 560 312 29 23 30
225 393 209 92 74 61
266 414 347 140 103 85
249 382 194 97 83 68
273 433 83 180 16 45
138 475 227 81 48 28
304 462 379 102 18 40
152 464 209 39 27 39
265 312 340 121 91 63
245 382 199 98 84 69
241 294 262 109 85 58
239 402 134 90 72 61
336 446 172 117 9 30
391 868 283 37 34 33
345 857 279 149 114 89
330 77 155 145 16 39
261 550 161 41 30 38
279 196 331 111 91 70
249 466 121 157 12 40
238 402 284 64 42 34
401 548 264 181 12 50
309 827 277 161 124 101
162 420 224 62 18 28
297 437 99 49 33 33
367 787 165 58 51 49
324 29 281 103 62 51
361 402 198 109 22 25
247 381 198 98 84 69
339 62 154 90 42 23
259 437 324 60 29 36
322 422 328 68 58 50
262 729 166 114 89 59
221 399 210 77 59 51
289 312 220 86 75 63
386 528 326 164 13 56
339 752 148 43 38 38
314 27 184 112 96 79
246 378 201 98 84 70
240 442 115 160 6 39
454 767 274 85 64 50
174 457 180 62 34 37
341 462 177 129 1 34
297 108 287 103 42 39
159 462 245 50 24 26
180 427 181 110 21 35
259 417 344 123 38 47
254 376 193 96 83 70
379 397 289 71 22 31
241 373 211 91 80 69
381 578 224 125 31 43
234 622 198 127 96 61
299 13 248 95 45 41
403 522 309 74 24 36
241 378 211 95 82 69
234 272 314 101 87 73
230 357 234 101 83 64
340 103 189 118 45 49
385 682 178 65 43 37
396 471 316 145 12 44
242 377 212 93 81 69
273 327 329 106 83 56
231 358 231 102 84 65
269 672 194 62 35 36
225 507 247 137 7 41
298 131 211 103 82 60
314 823 194 106 81 66
228 357 239 102 83 62
231 362 231 100 83 65
375 559 316 166 20 56
220 403 229 67 57 48
231 367 230 97 80 63
283 322 215 85 75 65
204 412 254 124 22 43
194 502 180 151 12 39
148 452 189 79 32 40
281 753 156 125 93 55
300 181 181 137 105 68
154 421 199 53 23 25
314 102 310 94 68 52
227 367 238 99 81 62
226 367 240 102 83 62
259 587 264 178 5 54
339 387 180 99 36 37
201 520 181 148 34 48
289 739 251 103 41 49
279 433 365 138 26 44
145 442 185 82 28 34
282 378 196 96 83 70
228 548 240 49 26 31
407 501 226 38 38 40
423 792 293 197 132 108
414 800 287 186 122 97
230 362 234 100 82 63
453 757 274 83 59 42
324 832 279 147 117 85
414 394 304 67 10 25
314 381 264 76 66 55
253 381 274 98 63 51
240 496 150 85 26 39
332 560 352 166 112 83
304 482 119 146 10 37
366 864 187 61 57 59
211 437 252 135 5 40
324 57 164 100 38 29
243 282 297 93 76 57
318 866 204 57 51 51
271 391 346 135 102 68
307 146 182 120 97 71
395 487 213 109 27 38
353 397 190 115 19 25
388 627 239 103 20 34
233 357 229 101 84 65
233 362 228 99 82 65
294 482 404 118 10 39
241 405 310 142 98 78
227 357 244 109 88 63
241 457 267 146 0 42
228 357 249 117 92 64
369 398 224 85 31 28
251 440 101 175 10 45
319 384 239 83 72 60
287 498 295 42 24 30
429 682 228 86 65 50
304 247 209 136 102 71
274 292 260 112 82 58
318 177 213 125 100 71
299 247 199 134 100 70
307 408 130 104 15 30
227 361 244 110 89 63
139 492 240 77 37 39
268 464 107 60 24 32
237 369 297 105 75 54
174 527 244 179 126 105
226 363 241 106 86 63
155 506 210 216 147 134
318 800 147 73 62 58
278 167 204 110 93 77
367 405 311 63 36 35
314 872 297 128 93 78
174 502 214 83 25 31
392 570 297 184 9 59
227 362 249 119 93 64
334 52 209 109 41 48
298 62 289 99 38 39
353 842 144 85 77 71
436 935 214 100 85 71
207 519 241 146 16 48
226 364 247 116 91 63
143 448 194 47 33 38
227 366 250 120 93 65
409 392 289 69 12 25
199 506 243 154 12 49
249 422 90 165 5 39
309 25 238 147 18 55
294 456 389 114 17 38
388 677 189 59 43 36
308 237 224 136 104 75
184 427 245 96 12 35
377 890 206 59 54 55
310 542 153 97 24 36
229 362 254 125 94 68
357 111 274 145 26 53
219 402 154 111 52 48
289 172 189 114 95 74
228 377 229 90 75 59
254 282 294 91 71 47
238 387 265 124 89 69
273 438 88 186 13 39
225 377 239 96 78 59
227 376 237 93 77 59
237 488 261 66 31 37
341 78 301 107 43 47
304 692 158 83 31 28
161 487 241 47 19 23
292 914 207 76 69 68
224 402 264 93 70 52
289 627 183 119 13 28
245 621 202 93 63 36
227 382 229 89 74 59
214 462 250 64 23 31
363 76 260 112 55 57
226 383 230 89 74 57
370 656 198 102 33 26
395 567 254 112 24 38
269 237 194 117 92 63
269 262 199 113 85 56
249 312 349 139 105 71
281 735 252 188 15 59
419 697 234 76 57 41
227 380 233 91 76 59
334 577 188 96 28 36
146 445 186 70 36 38
226 372 249 116 89 63
261 209 224 105 89 71
284 622 184 132 12 35
340 683 297 137 12 43
280 897 279 171 128 107
248 458 118 167 8 41
325 745 262 80 63 55
139 432 214 140 12 44
309 422 335 70 60 50
332 515 347 59 30 33
374 522 335 183 8 57
225 377 244 104 83 59
353 876 149 96 86 78
310 222 224 132 103 74
413 872 254 55 46 49
226 372 252 122 93 66
234 405 124 81 63 55
373 547 210 144 9 36
214 636 228 187 134 110
242 317 266 118 83 64
382 570 216 69 13 19
405 687 224 73 34 32
289 352 248 110 86 65
242 302 265 120 85 64
204 406 224 64 46 43
257 231 214 107 89 70
227 377 255 127 96 69
280 472 104 69 30 36
214 407 129 79 44 39
255 294 272 103 78 57
229 297 305 98 83 68
268 814 177 218 140 110
290 177 185 118 96 71
285 366 259 101 80 63
369 665 149 78 62 48
216 416 126 98 32 38
223 322 308 107 87 64
259 217 224 106 89 71
224 406 119 78 54 47
311 508 142 150 6 39
227 326 303 101 82 61
239 626 197 127 96 63
346 56 185 86 55 40
219 406 124 77 51 47
422 402 322 72 20 31
292 260 319 125 91 62
393 391 216 41 40 42
458 742 259 81 61 47
218 405 128 85 51 51
239 629 196 131 99 65
244 367 347 151 108 86
228 282 318 104 88 71
249 342 348 136 103 71
202 458 177 113 28 42
433 462 274 143 12 40
312 67 178 114 90 71
219 404 130 90 52 50
349 393 274 67 52 45
310 77 179 96 65 46
200 446 247 60 21 31
213 548 194 105 24 38
268 216 236 102 83 61
225 405 128 84 59 55
400 661 300 134 96 62
194 457 180 120 14 36
219 412 119 78 43 36
219 562 238 118 6 34
348 608 336 192 136 109
258 743 216 156 106 86
296 361 314 108 87 64
359 747 284 78 64 59
229 572 236 55 22 28
228 399 193 102 85 70
402 883 231 65 57 56
315 477 394 95 19 37
224 412 114 79 40 38
344 867 174 70 66 70
321 94 306 94 69 53
225 417 115 108 33 39
158 420 194 57 24 28
432 812 272 58 46 38
281 163 305 107 90 73
334 137 289 147 34 61
374 668 174 87 59 42
191 416 171 109 11 30
221 416 120 62 38 33
222 413 117 74 42 35
408 678 270 109 16 37
405 762 169 67 54 47
400 662 284 98 80 60
342 102 184 113 46 49
224 362 334 163 114 95
269 331 207 90 80 70
219 417 124 92 29 35
311 534 152 155 0 35
329 522 324 60 20 33
216 294 338 107 88 68
414 522 269 140 20 44
189 477 181 147 2 35
359 677 161 73 43 39
224 422 119 125 27 41
318 92 273 109 46 45
249 342 274 105 69 54
223 433 129 172 8 42
337 49 176 113 96 79
292 244 242 122 95 66
214 457 251 38 28 31
225 432 125 178 8 45
269 242 194 119 92 61
311 471 365 140 8 45
281 279 318 103 72 46
396 722 177 62 49 43
224 507 176 68 29 35
244 408 94 92 74 56
142 438 187 97 22 34
217 652 207 153 107 73
244 312 350 139 104 71
199 403 169 173 24 29
249 408 94 101 80 61
382 915 246 92 86 84
299 177 182 133 103 67
339 42 304 113 27 44
353 58 174 77 31 26
294 547 293 53 29 31
425 432 232 58 28 33
248 412 88 136 46 51
259 462 109 179 10 41
294 820 193 58 34 44
231 575 204 75 30 38
269 361 197 97 85 72
281 193 191 114 94 72
285 292 255 116 92 65
436 428 291 78 20 31
134 447 238 56 26 29
206 317 330 132 100 69
334 837 188 56 52 52
240 409 96 91 67 51
259 467 279 104 19 40
308 47 220 117 88 70
413 813 259 29 25 24
255 409 86 95 78 67
299 587 295 73 34 38
353 865 176 66 64 68
236 727 185 155 105 74
149 423 209 56 17 25
243 418 93 112 19 37
282 892 281 176 135 113
228 487 169 52 31 32
286 480 106 43 34 41
355 792 163 58 50 50
254 537 264 155 6 47
336 30 305 105 47 50
284 782 219 46 39 36
246 409 91 98 71 55
165 516 247 191 138 119
416 514 276 176 20 47
380 828 231 58 36 29
228 390 213 99 81 67
257 808 182 225 157 128
292 455 91 59 33 45
294 10 214 116 71 64
261 456 288 160 8 51
342 867 163 53 47 50
318 388 294 86 73 61
249 409 89 99 80 56
228 517 177 116 20 38
245 416 90 161 3 44
279 287 258 113 86 58
224 637 200 170 114 83
348 391 199 96 28 29
281 17 219 140 91 92
299 147 185 119 97 73
408 447 221 135 6 27
442 790 231 84 66 55
185 414 243 55 23 24
390 652 279 53 39 34
242 414 291 165 3 52
269 342 274 94 69 51
241 460 126 159 4 36
264 772 160 168 115 78
311 161 216 115 91 63
202 418 158 74 32 36
269 366 277 78 57 42
254 412 84 142 39 45
294 227 238 119 94 64
216 460 166 86 16 39
373 931 244 75 69 68
298 122 193 103 87 71
303 9 242 87 46 36
254 408 89 100 81 66
276 336 304 89 73 55
249 667 189 112 85 53
379 482 200 141 0 31
287 187 187 117 95 69
140 432 219 134 6 41
272 196 298 99 85 70
233 282 309 96 82 69
324 837 283 145 117 87
196 409 243 60 35 36
296 780 151 143 100 65
202 405 201 73 39 38
278 447 384 91 29 42
164 417 189 58 27 27
254 417 85 159 3 41
226 408 111 73 51 40
398 551 249 138 22 45
272 292 333 126 87 63
339 673 292 121 11 37
249 404 114 115 71 57
258 497 271 123 7 41
262 643 226 136 15 45
228 412 109 54 43 42
209 512 245 133 8 40
199 406 214 66 42 40
321 497 394 141 93 79
279 416 80 124 63 45
296 93 302 98 25 38
244 406 104 102 62 49
227 424 117 52 29 43
246 440 106 175 9 42
230 417 109 72 35 37
231 409 106 83 44 32
374 647 204 42 37 38
233 577 204 54 31 32
199 492 240 119 6 36
416 447 316 151 12 44
144 432 183 93 33 38
135 502 234 172 114 100
294 502 373 51 27 32
231 415 106 123 18 36
184 457 245 102 15 36
234 407 104 110 48 38
284 457 338 141 12 47
425 487 254 171 12 46
438 738 269 115 85 56
380 418 355 132 20 47
289 192 230 113 91 65
289 391 139 96 72 53
258 227 299 100 86 72
376 859 192 62 56 59
144 512 234 221 144 124
394 392 274 71 23 31
228 392 259 126 95 71
296 14 191 113 53 40
323 152 203 123 98 70
387 764 291 178 129 102
449 857 271 87 76 67
285 147 209 103 86 70
304 12 304 127 40 59
385 767 288 176 131 100
303 188 227 116 92 65
248 405 113 114 70 55
145 477 220 95 65 44
291 360 282 66 53 39
223 472 164 65 27 34
239 407 99 97 64 49
258 582 264 184 4 57
274 197 230 104 84 63
321 157 206 123 99 72
231 284 311 99 85 71
189 497 180 165 3 39
333 836 114 86 74 67
388 442 337 94 19 36
428 482 264 172 12 48
314 907 179 78 68 64
294 342 229 102 84 63
204 457 247 125 6 39
299 507 420 138 108 85
284 207 235 115 92 66
272 724 251 138 12 44
246 461 121 129 13 41
179 410 199 72 17 28
354 447 354 63 19 30
296 775 143 92 70 52
379 867 196 59 55 57
420 498 284 195 11 61
235 287 347 118 93 66
345 786 248 181 127 106
140 442 224 115 6 33
233 548 245 137 33 52
374 870 110 112 99 92
235 408 100 105 50 38
415 507 289 121 15 40
407 426 332 152 18 48
303 458 359 127 18 44
281 16 229 150 108 93
375 452 197 53 39 39
319 821 259 98 74 49
164 417 204 60 21 26
345 107 174 128 23 46
370 878 133 84 76 71
336 835 179 45 42 43
326 420 321 68 59 51
234 442 124 156 5 40
239 406 104 112 54 43
234 406 109 88 60 39
329 387 244 82 70 59
349 941 274 65 59 56
425 927 231 112 93 79
297 10 212 112 69 62
345 72 284 111 96 81
239 406 109 94 59 43
244 712 219 172 119 98
220 403 234 68 57 47
234 417 104 156 9 41
296 925 297 55 52 52
259 407 343 151 109 88
329 797 148 70 58 51
287 929 279 62 57 56
269 202 330 104 87 70
294 511 379 60 41 32
300 498 117 150 12 39
231 421 110 92 34 43
321 875 161 85 75 70
415 401 330 76 26 27
287 257 306 100 77 47
281 925 249 76 70 70
257 292 347 129 98 64
164 507 249 164 122 107
334 926 205 91 85 88
228 281 340 102 83 64
344 403 304 67 50 44
386 839 242 32 29 28
179 432 243 103 12 34
236 416 100 99 26 36
227 352 302 107 84 57
329 926 205 92 86 87
237 412 97 89 38 40
304 161 181 126 99 66
282 170 221 101 83 63
285 652 258 117 12 40
232 438 123 164 6 41
299 112 199 103 86 69
299 777 225 78 63 56
294 821 189 57 38 45
385 464 326 115 23 41
318 62 306 106 38 47
339 403 304 67 52 45
278 897 254 164 128 103
227 414 112 67 38 43
244 262 304 101 85 68
269 817 189 210 138 109
414 502 234 38 33 40
334 67 306 117 34 48
321 688 287 125 14 40
210 452 170 116 21 38
194 527 240 47 25 27
134 477 243 52 27 31
323 403 313 78 68 58
227 418 113 103 32 40
339 617 193 98 21 27
329 127 184 138 105 73
318 493 334 145 12 47
311 899 171 99 85 82
234 405 114 80 58 42
277 692 182 88 24 28
309 92 208 100 50 47
432 802 220 81 65 59
227 448 137 150 7 38
318 492 349 77 16 32
234 406 119 80 57 46
249 407 99 101 75 60
275 352 203 94 82 71
345 837 140 94 79 67
172 448 181 82 32 36
295 137 190 110 91 70
219 482 175 164 4 37
249 405 109 113 70 55
251 431 294 166 0 51
254 312 348 136 102 71
240 322 264 122 88 64
337 60 157 88 40 23
298 20 247 168 132 140
329 492 380 77 16 30
249 388 179 97 83 68
319 384 234 83 72 61
365 872 120 82 71 63
299 217 234 123 96 67
254 407 99 104 80 63
266 405 347 150 109 86
149 507 244 153 113 94
300 930 220 71 67 70
252 280 261 98 78 57
352 63 156 97 34 24
254 406 104 106 79 62
338 426 319 72 62 53
368 748 286 76 63 56
254 405 108 109 80 64
345 539 331 81 23 35
341 449 177 128 1 32
244 405 114 100 66 52
309 161 181 134 102 65
243 405 118 95 66 55
308 237 219 134 103 73
321 822 220 168 125 98
249 403 119 115 70 57
322 137 202 124 97 70
159 502 251 167 120 107
439 422 249 63 30 36
242 372 292 98 72 50
244 403 124 100 67 55
260 297 346 130 97 65
244 287 297 89 72 54
249 402 124 111 71 58
394 395 294 67 14 26
311 518 147 33 33 32
298 27 188 101 52 37
185 417 179 87 28 34
344 422 180 94 25 29
390 751 158 55 48 44
254 404 114 109 81 64
279 237 339 120 95 64
344 652 285 142 9 44
336 109 176 138 92 76
363 527 196 85 26 34
254 457 109 173 9 42
278 482 299 170 0 50
254 403 119 112 77 62
334 412 174 120 9 26
149 482 247 123 88 72
253 462 275 80 25 38
254 402 124 114 72 59
274 602 178 81 29 38
163 428 181 83 35 39
151 500 247 151 106 90
329 42 179 121 104 88
340 819 78 106 93 81
239 392 268 113 79 62
315 716 141 81 60 45
374 396 284 70 27 32
402 521 226 83 25 31
191 505 181 54 35 39
190 501 181 118 18 38
340 390 259 65 50 44
309 378 269 66 57 47
302 206 301 117 90 58
248 438 103 176 10 44
292 773 153 141 98 62
254 400 129 109 71 58
256 672 193 100 78 50
334 662 169 80 50 44
148 482 217 116 88 61
278 902 254 144 112 94
269 453 98 112 26 37
146 450 191 68 34 38
313 63 216 118 12 40
219 477 250 105 25 40
254 472 123 103 24 35
404 522 229 74 25 34
407 688 200 77 41 37
394 812 254 45 36 33
289 487 399 86 11 31
367 694 147 62 47 35
244 422 94 94 19 35
272 196 202 106 88 70
386 745 157 57 46 46
291 417 84 81 23 31
349 751 278 78 62 57
248 423 93 160 6 39
147 452 214 121 3 33
263 614 187 71 37 42
354 602 199 109 23 35
219 337 343 148 102 82
284 357 274 85 67 52
375 852 188 66 60 61
234 347 259 123 90 66
344 62 153 96 37 25
219 442 255 134 3 41
146 468 226 54 28 29
356 808 167 58 53 56
299 492 410 80 26 31
249 427 94 171 9 41
246 357 272 113 76 61
271 476 293 173 0 53
294 393 124 88 52 40
300 47 284 106 14 36
290 514 375 82 62 42
251 425 91 172 9 43
424 852 279 48 42 38
250 431 96 175 10 41
290 917 294 47 44 45
177 416 187 91 22 30
255 402 342 161 116 94
260 621 244 135 24 50
339 389 249 74 61 53
369 927 259 58 52 47
201 457 247 128 3 39
252 428 93 173 9 44
369 666 144 82 57 42
409 682 264 132 12 41
259 277 208 103 81 56
387 627 234 114 18 35
435 402 299 89 23 35
255 431 90 175 10 45
309 617 183 132 4 31
435 412 299 105 17 38
244 767 174 174 118 85
404 787 189 69 53 46
231 440 126 166 6 36
254 437 95 174 8 41
240 422 100 118 18 38
162 494 247 88 58 43
143 447 204 45 31 34
404 857 214 70 58 55
349 477 185 75 30 37
441 924 212 92 73 60
367 477 191 106 13 31
232 418 107 129 26 44
264 607 184 79 36 39
294 502 304 61 25 32
354 857 264 143 108 84
326 483 152 86 20 34
230 346 347 143 101 81
334 112 179 134 98 73
414 392 225 123 14 29
221 399 219 69 57 49
295 228 303 111 86 55
442 777 220 70 56 48
233 422 108 79 32 36
296 35 190 140 20 55
254 287 268 107 81 57
248 579 182 145 7 32
374 477 334 88 4 27
239 427 104 148 14 41
329 612 188 42 35 36
328 408 313 75 66 57
210 317 343 134 97 76
393 652 224 82 33 32
155 442 181 55 35 37
298 77 284 103 60 50
409 722 189 53 44 39
219 401 194 111 83 68
222 439 137 165 6 37
275 707 257 170 13 54
343 47 289 122 100 81
400 666 199 66 48 36
189 457 246 78 20 30
234 427 109 61 33 36
359 92 269 138 24 41
298 732 157 111 81 48
237 453 128 134 16 39
160 419 195 51 25 25
274 327 209 87 76 67
179 411 209 69 20 25
299 707 160 95 30 31
296 212 298 106 83 54
339 392 204 92 38 34
199 582 233 174 122 97
249 321 292 85 69 51
236 426 106 84 29 40
236 435 116 163 6 44
239 432 109 166 13 42
339 428 349 89 47 45
319 652 280 167 12 54
393 482 211 137 3 33
280 662 248 171 0 54
226 421 116 64 37 39
288 167 293 95 81 66
335 36 283 114 97 80
362 658 299 181 125 108
286 500 292 131 22 48
184 512 239 35 25 26
299 446 369 64 32 25
302 41 277 98 59 42
324 852 294 148 115 88
301 202 321 124 97 67
226 426 120 93 27 34
354 387 194 111 25 27
344 597 340 191 133 108
241 770 181 177 119 88
415 817 259 36 31 29
192 419 172 135 20 29
140 497 220 120 94 66
230 426 115 87 32 38
406 533 285 90 17 37
244 297 265 110 83 58
355 807 164 57 53 56
233 437 265 64 28 32
305 532 303 92 26 38
309 87 306 104 24 42
247 428 97 169 9 40
440 940 217 96 79 63
236 292 301 89 75 62
354 442 184 118 16 31
297 363 216 102 86 69
376 507 202 97 34 38
230 431 120 133 16 40
357 614 201 68 31 23
326 113 201 129 100 76
229 507 249 143 7 44
311 497 370 65 22 32
174 418 186 98 27 33
264 327 273 105 75 55
167 503 247 118 90 76
311 776 237 73 60 55
235 352 347 148 105 84
314 12 199 96 78 64
324 77 307 110 22 42
298 367 319 113 90 63
322 132 203 124 96 70
290 21 234 138 96 72
328 813 164 49 45 46
228 432 123 169 7 44
162 420 230 61 19 31
164 513 214 226 156 139
329 42 219 107 37 47
282 17 214 120 61 66
224 367 329 165 113 97
434 902 272 115 97 87
268 507 275 145 0 43
358 555 322 139 24 51
206 516 242 163 11 51
264 342 344 128 100 68
274 392 159 95 80 63
299 167 182 124 98 67
263 302 272 113 78 60
384 707 154 48 42 37
233 428 113 65 32 37
234 432 114 83 22 34
335 771 253 61 53 51
330 25 299 86 51 44
382 864 77 120 93 72
225 436 130 172 7 45
294 648 181 74 28 30
306 800 150 68 57 49
164 418 214 59 20 25
393 664 208 53 40 36
422 496 250 60 30 38
249 322 349 140 103 73
284 220 186 130 99 62
397 830 185 50 44 46
249 597 244 157 13 50
286 518 375 144 113 93
228 438 129 165 7 43
323 147 184 147 107 76
414 892 269 61 48 47
274 433 354 177 11 54
231 435 121 159 6 39
356 780 262 41 37 41
272 186 308 106 90 74
234 437 119 159 5 39
254 622 234 71 30 37
249 297 349 130 101 66
214 405 244 63 54 44
238 434 112 171 14 48
239 437 114 166 7 42
313 713 266 180 13 60
235 697 218 177 121 98
237 438 118 156 6 41
328 947 233 91 87 90
314 930 302 62 56 52
236 440 120 161 6 39
145 498 242 68 46 36
390 557 224 44 33 36
235 372 300 118 85 63
269 202 204 102 85 68
400 853 273 35 31 29
328 91 267 97 50 46
293 378 206 98 85 71
284 707 259 175 13 57
131 453 227 99 28 40
276 351 265 120 92 74
238 442 119 160 5 39
232 326 297 92 74 53
339 778 250 186 130 111
418 422 324 51 29 28
130 491 238 168 116 106
233 447 129 82 27 35
157 425 236 58 23 23
256 656 197 81 64 44
236 446 125 127 16 37
359 384 205 110 27 25
299 15 293 128 58 63
250 577 254 161 6 48
419 417 324 88 24 37
223 396 214 72 58 50
237 443 122 159 5 40
189 412 174 101 18 34
214 502 178 41 35 39
130 478 230 82 51 32
238 447 123 154 4 39
212 312 346 115 89 64
241 420 96 60 30 30
325 587 183 43 35 38
166 419 233 55 22 33
426 489 280 54 30 30
344 112 265 150 12 42
294 392 164 88 69 59
209 404 149 126 34 41
236 332 258 119 90 60
464 697 263 80 58 42
149 423 199 54 22 28
268 192 309 105 88 72
364 712 299 160 15 51
306 375 272 64 54 43
242 428 102 163 8 42
294 157 219 106 85 62
254 395 158 96 82 66
245 432 100 170 9 43
439 898 279 72 59 49
220 293 342 105 84 62
297 237 323 131 99 68
159 502 207 139 96 76
374 408 324 54 17 22
171 530 226 177 117 92
374 837 178 69 61 62
329 907 308 54 52 52
312 221 204 134 101 71
429 862 284 66 58 53
389 852 258 32 30 30
243 433 104 171 9 41
223 457 255 91 28 40
234 482 149 92 27 38
377 461 196 115 0 29
141 446 224 109 15 34
319 162 209 121 96 68
239 682 223 176 127 106
300 257 234 127 99 70
247 473 128 105 26 37
269 327 269 111 80 58
312 525 393 186 120 102
246 425 96 167 8 48
302 73 277 96 25 31
259 281 265 110 87 62
245 436 105 175 10 44
246 435 101 173 9 40
298 37 189 138 28 43
323 393 294 76 66 56
318 563 349 194 133 110
284 802 165 182 122 87
289 352 304 95 79 62
340 736 288 46 39 40
250 437 99 176 10 42
145 452 204 64 21 36
232 458 261 143 0 43
327 437 156 81 29 30
410 883 274 52 44 45
244 317 350 142 106 74
200 409 248 65 50 42
218 488 177 143 7 36
380 677 173 61 51 43
242 434 107 175 7 42
219 477 174 159 6 39
228 367 335 164 115 95
316 20 292 101 49 50
442 673 231 81 64 50
158 482 242 78 14 30
321 168 199 131 103 70
389 627 249 57 28 31
211 547 209 100 21 35
245 442 109 165 6 40
305 242 204 139 104 73
324 402 309 78 68 58
267 317 337 115 87 59
309 824 250 99 76 51
214 467 173 157 4 36
157 469 197 152 35 62
447 775 249 64 50 42
394 803 269 62 43 42
354 512 344 44 27 29
164 482 241 123 9 40
314 497 404 116 41 48
249 442 104 175 10 44
246 446 110 164 5 39
321 828 216 164 120 92
209 407 254 75 45 39
285 272 329 134 95 71
220 416 262 154 4 47
400 677 193 69 48 38
225 667 218 187 132 109
269 227 288 91 77 61
230 477 258 82 31 39
254 442 99 178 10 43
335 513 346 69 24 32
256 441 96 170 6 42
349 877 183 62 57 57
297 851 232 141 105 77
382 474 327 66 13 20
254 447 104 65 25 37
307 202 227 120 94 67
350 592 197 139 13 32
243 382 293 104 74 53
181 409 186 77 26 29
358 466 342 78 15 29
279 352 205 95 83 71
424 717 299 166 113 83
284 227 288 93 75 54
250 446 105 152 8 43
293 261 201 116 88 61
242 438 112 164 6 41
303 192 227 117 92 65
306 475 401 86 5 24
276 501 282 149 0 45
185 500 238 84 15 33
303 517 130 162 3 36
265 327 340 119 90 60
200 442 247 30 26 28
243 442 113 161 5 39
196 442 176 54 32 38
208 472 246 77 18 34
406 524 300 44 26 38
229 398 189 102 85 70
309 567 300 120 11 39
241 445 116 162 5 40
219 401 174 161 61 53
222 468 163 138 6 38
408 870 241 67 57 54
258 677 190 99 78 53
267 685 241 53 32 31
239 452 124 160 6 40
329 28 284 103 73 60
214 427 255 123 8 40
179 442 243 114 9 38
281 394 125 93 68 54
240 457 125 163 4 39
320 172 204 129 101 70
238 457 128 128 17 38
318 566 170 160 1 37
296 120 291 104 84 63
251 455 111 172 9 35
256 461 111 175 10 37
201 615 219 180 125 97
352 492 367 173 10 53
269 307 334 109 80 54
307 241 223 135 103 75
194 411 244 62 32 33
247 798 194 196 139 112
241 451 120 160 4 39
208 467 178 161 5 39
168 488 214 45 34 35
241 516 166 171 7 44
245 451 115 163 5 40
434 917 298 74 68 65
242 352 287 88 66 40
228 477 256 108 22 40
359 409 318 61 41 36
343 612 309 162 108 94
211 308 342 114 87 64
285 272 324 127 89 62
247 449 112 165 6 40
278 593 173 119 27 41
344 707 149 80 60 51
285 776 222 50 40 36
155 486 245 76 47 36
280 184 227 102 83 62
428 472 249 163 12 42
274 818 184 200 128 100
242 453 122 163 5 41
354 392 224 102 32 26
324 727 145 66 47 41
329 732 148 72 55 50
483 854 277 95 86 78
164 442 240 63 25 30
200 413 252 140 16 47
342 72 302 117 27 45
344 657 179 39 33 33
317 177 190 146 109 75
258 628 203 119 11 31
243 457 123 163 6 40
249 462 119 155 11 43
294 117 294 107 88 67
346 427 182 113 13 29
244 462 124 106 17 35
215 598 201 133 100 63
308 47 300 99 21 37
251 461 116 179 10 43
286 25 223 132 104 81
207 559 236 129 15 36
179 492 185 106 29 42
254 302 348 132 99 67
345 787 158 70 57 55
308 33 305 128 24 50
280 857 254 166 119 99
164 507 208 179 119 107
373 809 171 61 56 55
252 458 112 174 10 44
349 72 152 129 28 33
149 423 214 55 18 24
448 717 239 89 77 66
349 592 341 175 120 90
211 426 140 159 4 42
279 557 283 148 0 45
425 897 261 65 54 47
286 252 336 127 100 68
228 401 265 104 78 59
308 382 314 114 92 68
254 462 114 179 10 45
252 464 117 176 8 44
384 472 324 97 13 33
303 72 301 94 50 45
253 737 216 170 118 96
173 452 181 71 36 37
154 422 219 56 18 25
252 469 122 149 4 41
265 802 170 177 120 86
439 707 229 106 77 45
395 806 192 61 55 55
475 854 271 101 89 79
254 477 125 127 19 40
319 62 219 126 92 76
254 422 334 122 23 44
242 407 304 107 57 50
264 517 273 143 3 43
336 837 150 61 53 50
307 487 407 125 63 67
375 692 149 53 45 38
285 460 398 91 27 38
228 422 265 51 27 32
226 309 306 101 83 65
254 479 127 115 9 39
322 484 377 125 9 39
191 409 233 59 22 28
224 607 231 164 118 97
382 623 225 114 12 38
394 652 259 64 24 30
255 797 208 189 141 118
304 242 229 132 103 74
286 867 274 167 120 104
345 387 193 91 30 31
374 666 179 93 60 40
307 694 276 33 32 32
249 482 130 111 21 38
254 482 129 150 14 40
418 862 254 59 50 52
240 327 291 89 70 46
340 602 192 79 31 35
274 617 264 143 25 52
139 432 189 68 31 35
260 212 329 106 89 71
306 82 199 95 78 58
300 440 350 58 47 35
199 405 204 72 37 36
177 415 235 51 24 24
336 600 324 184 128 107
298 82 299 102 85 68
141 432 186 130 27 44
292 217 291 100 80 55
218 312 318 105 84 59
322 500 381 66 35 40
331 118 177 168 122 91
253 499 137 97 19 37
145 428 185 115 31 40
244 687 184 118 89 53
308 413 332 91 75 58
341 513 182 87 29 31
234 332 349 146 106 76
388 488 338 111 0 32
384 394 245 73 30 37
141 429 190 63 29 33
363 852 254 132 102 85
358 437 186 50 36 41
139 437 189 52 30 35
479 712 264 94 76 62
143 442 188 105 31 42
419 927 234 106 87 71
279 423 73 198 16 40
145 447 189 78 34 39
225 312 309 112 91 68
362 424 367 104 14 33
164 432 181 87 30 36
314 383 234 82 71 60
185 408 180 89 28 30
437 733 275 138 100 70
394 582 269 67 30 34
210 446 166 140 20 40
143 488 241 50 24 29
149 426 184 98 32 35
164 462 245 64 22 29
390 746 163 64 46 43
281 480 312 185 0 55
189 432 246 116 5 36
312 477 359 134 6 40
348 607 196 83 26 34
146 432 181 81 18 43
149 432 181 83 31 38
420 833 273 43 38 36
314 82 307 103 60 52
147 432 182 83 30 37
411 700 212 55 33 38
154 424 184 109 26 35
276 420 87 103 72 50
233 463 138 107 25 39
193 405 190 95 23 29
288 389 194 95 80 65
279 187 294 95 81 67
359 742 289 78 65 59
316 509 346 60 18 35
144 426 194 47 26 23
337 67 204 108 71 63
296 940 242 84 79 79
369 502 349 178 5 53
264 242 342 118 94 68
307 777 231 75 61 54
339 582 345 189 133 103
237 484 147 118 15 39
368 866 109 99 78 59
158 423 181 108 27 32
283 372 337 123 96 63
209 587 204 133 99 63
274 394 149 95 79 62
154 423 189 82 24 27
309 9 214 99 60 52
279 677 249 139 5 43
166 432 182 105 28 39
408 856 224 59 50 51
339 934 290 74 68 67
289 222 238 118 93 65
328 763 251 77 63 57
184 407 184 84 23 29
218 418 260 129 10 42
322 843 217 137 101 78
159 422 189 92 22 32
299 157 183 116 96 73
312 490 362 70 16 33
154 427 180 69 35 39
362 671 291 83 8 28
220 472 252 51 30 33
299 18 285 126 68 59
253 433 299 165 4 52
423 466 302 139 12 49
309 177 183 145 106 68
383 632 309 143 97 65
235 392 319 162 110 92
342 403 181 65 38 36
169 418 234 52 23 29
332 589 334 192 132 109
399 662 234 104 30 41
290 13 204 113 62 56
292 358 285 60 49 37
462 736 259 89 66 51
341 424 332 71 61 52
292 538 291 30 30 29
152 425 182 100 29 34
419 792 294 197 132 106
184 417 245 116 12 40
409 792 295 204 148 119
339 107 264 148 11 40
306 103 207 103 83 61
317 680 281 39 28 28
327 129 277 137 13 33
223 312 312 116 93 68
154 432 180 82 33 39
301 770 152 140 95 60
173 446 241 72 25 31
341 573 192 121 19 38
423 786 200 67 53 46
159 432 180 53 34 39
361 746 157 63 52 47
149 437 182 105 28 35
367 414 342 49 20 21
343 425 349 91 46 44
276 480 298 178 0 52
246 415 322 167 9 50
233 367 340 161 113 93
306 82 186 113 26 39
149 442 183 64 32 36
342 613 324 194 138 113
324 497 384 58 31 33
264 394 154 96 80 63
152 438 182 106 36 48
431 750 202 60 49 43
225 466 149 165 2 41
387 565 225 68 30 32
159 437 180 97 32 36
383 637 219 83 29 31
280 502 404 111 10 37
334 77 209 122 31 47
136 432 207 135 15 39
155 447 181 123 26 39
343 446 364 42 26 29
362 765 161 46 41 43
314 677 279 54 27 31
262 226 236 106 87 67
284 522 384 191 134 118
159 442 180 50 36 41
399 664 190 84 57 35
169 415 189 65 27 28
391 646 264 90 22 37
152 463 223 70 20 27
394 647 254 39 29 30
439 797 264 68 51 41
242 394 302 126 85 68
340 71 278 97 83 69
292 779 157 151 105 67
273 202 293 97 82 68
180 412 184 95 20 28
322 407 160 51 37 38
154 472 243 134 9 42
234 417 274 145 13 48
338 122 297 131 24 52
302 511 125 128 12 35
442 791 248 59 48 42
229 282 343 110 89 66
443 777 229 51 42 35
182 412 182 96 20 32
285 297 213 105 86 65
179 411 189 78 22 29
362 86 267 133 29 45
305 107 208 105 84 62
318 547 165 141 10 39
454 767 279 88 65 51
212 338 334 155 105 87
189 406 179 108 27 33
325 512 328 43 23 29
194 413 248 77 34 38
313 192 190 133 103 66
297 146 187 119 96 69
191 404 180 121 29 36
370 472 193 137 0 29
189 405 189 87 23 29
315 387 163 86 38 39
264 702 179 95 75 52
309 147 214 115 88 63
219 317 314 108 86 62
295 37 199 138 15 47
333 28 308 104 38 44
308 14 191 100 83 68
187 412 177 101 20 33
279 352 282 65 51 37
389 882 219 77 64 62
164 422 184 85 33 37
326 402 167 91 29 32
291 22 195 122 23 38
155 493 211 116 92 67
278 432 358 135 19 43
350 786 253 183 128 107
163 421 189 64 25 28
159 507 249 181 129 112
169 427 183 101 27 38
304 182 319 123 97 66
348 622 309 176 119 102
174 427 183 85 28 33
314 36 178 89 54 38
354 443 355 161 14 52
232 429 266 55 30 29
289 464 97 66 37 34
219 507 245 121 6 36
135 502 229 157 103 83
334 483 368 110 3 33
203 488 241 134 7 40
344 408 313 73 62 54
391 392 227 52 32 36
398 663 280 78 65 52
304 432 119 70 27 32
392 684 181 59 47 35
204 442 170 70 32 37
336 429 339 73 57 48
254 377 274 98 62 50
268 206 331 106 89 72
227 387 256 128 95 72
431 747 296 177 122 91
323 122 277 124 25 39
334 392 204 80 51 46
309 637 181 85 22 29
342 47 286 109 92 73
174 432 184 122 19 34
264 747 161 124 93 57
224 302 347 118 92 64
389 622 259 85 22 36
168 436 181 95 35 40
399 478 319 102 1 28
249 397 339 166 118 96
332 38 214 114 29 46
433 432 240 106 22 36
166 436 182 89 35 40
169 437 182 85 34 37
329 57 308 110 30 46
164 447 180 72 31 36
168 442 181 90 33 39
296 15 302 116 28 42
139 437 229 70 28 34
384 667 316 181 122 96
286 19 201 111 63 48
186 436 181 85 29 38
288 500 416 82 24 33
214 404 144 94 46 42
170 442 182 108 30 36
404 390 264 77 15 26
193 479 241 140 8 44
171 445 182 84 35 35
390 467 320 88 18 33
387 867 59 114 90 70
333 432 169 122 8 30
389 417 214 102 20 26
146 505 216 195 130 110
215 342 319 134 96 70
291 585 292 50 34 35
270 347 340 124 97 66
174 442 183 102 29 34
320 390 208 95 79 64
239 632 196 116 87 54
179 422 183 77 30 36
236 505 166 175 4 50
181 424 181 95 24 37
430 737 295 178 126 92
283 473 325 66 24 33
314 197 219 126 101 74
221 308 315 111 90 68
404 667 194 62 45 32
184 427 180 124 18 34
183 428 182 131 20 37
417 863 250 59 48 50
370 866 99 105 82 63
151 461 204 36 31 37
354 562 319 51 25 30
291 909 206 71 66 65
188 422 178 77 33 38
235 405 199 99 83 67
339 572 347 171 117 86
184 467 181 84 23 34
291 390 336 118 92 63
179 437 184 134 14 32
416 848 228 75 64 61
184 437 182 112 23 35
289 17 199 111 48 37
239 617 225 100 69 60
273 553 157 122 20 40
222 463 154 167 2 41
409 762 304 192 140 108
179 442 184 119 19 34
239 262 339 109 89 67
283 22 209 136 44 55
149 487 215 125 95 70
179 447 184 102 25 33
184 432 245 38 24 27
144 426 209 57 19 24
184 442 183 111 21 34
329 955 254 52 48 48
308 67 210 110 33 45
489 921 279 105 84 63
166 500 246 104 79 63
364 862 254 61 48 41
377 489 348 111 12 38
270 267 292 83 65 42
335 63 156 101 41 26
296 282 234 115 92 65
474 732 266 83 63 48
184 447 183 120 22 35
310 501 322 66 29 35
204 462 178 77 28 36
214 332 319 119 91 60
144 452 240 85 14 32
189 437 180 89 31 37
350 807 158 53 48 50
385 579 296 165 9 51
189 442 180 100 28 37
366 485 351 102 4 31
255 606 248 40 30 31
254 321 293 87 70 51
345 482 183 85 30 37
212 478 246 81 33 45
320 537 309 62 26 35
146 498 216 126 96 68
343 492 373 146 12 47
210 404 224 65 50 45
323 638 181 90 28 25
187 442 182 102 25 35
258 242 204 111 91 70
345 37 160 90 37 30
189 447 180 82 32 35
345 118 290 149 4 55
326 87 211 114 70 58
187 446 182 106 30 37
389 692 312 191 132 105
154 437 239 117 7 36
306 51 181 140 18 46
302 47 277 100 23 34
390 602 254 126 19 39
386 584 291 177 9 55
135 432 199 66 27 32
315 142 309 123 94 64
254 707 175 110 86 56
377 925 249 68 61 60
285 350 294 79 65 49
146 492 216 129 100 74
302 57 296 104 86 66
359 562 199 84 26 36
135 432 204 96 25 38
314 461 390 66 27 27
144 426 199 49 27 21
286 610 277 184 18 62
138 431 194 41 31 31
314 28 280 107 39 37
189 542 215 136 98 70
304 391 179 89 69 57
136 433 195 36 33 37
299 557 295 137 3 42
284 212 334 123 97 67
154 421 214 56 17 25
288 372 206 99 86 72
221 360 332 165 113 97
139 428 204 50 23 23
259 377 348 144 106 76
137 431 204 57 25 35
140 428 209 50 21 25
224 442 258 142 1 43
369 712 158 66 49 41
366 636 202 43 35 38
364 937 239 92 85 84
372 491 196 120 3 26
186 409 213 66 23 26
384 392 223 48 34 38
141 429 214 63 15 27
224 502 176 117 23 36
194 517 235 56 19 26
348 829 257 130 102 73
141 429 219 124 11 46
294 12 249 100 49 43
374 382 219 88 34 33
332 729 281 180 13 60
246 285 296 90 72 50
141 429 222 138 18 44
275 187 299 100 86 72
268 608 182 50 36 37
354 72 179 126 24 47
270 441 338 169 8 50
232 703 209 179 122 96
239 392 184 99 85 69
384 807 254 46 37 34
387 610 267 86 0 27
303 468 345 163 4 49
294 22 284 126 65 58
136 436 194 38 36 38
141 432 224 117 9 36
144 427 224 88 20 33
242 473 132 67 32 35
384 396 239 74 30 37
233 400 152 100 73 58
354 592 198 77 29 37
144 497 241 67 46 39
299 262 234 125 99 70
384 864 49 114 91 71
314 102 276 100 32 35
234 332 293 92 73 52
334 486 370 106 4 32
240 452 267 147 0 44
142 430 224 132 24 46
278 742 162 104 82 55
136 436 203 78 32 38
330 32 209 55 36 30
310 552 158 93 17 36
351 860 121 109 92 91
441 412 274 138 15 41
295 13 303 130 33 53
137 438 193 44 36 34
291 376 207 98 85 71
137 438 200 60 35 33
314 82 213 109 24 42
164 472 243 105 19 39
308 552 155 94 22 37
359 696 151 60 41 35
384 467 324 113 16 39
324 945 229 77 75 78
138 437 209 91 27 38
290 212 331 122 96 66
310 36 227 118 60 59
149 452 240 68 19 30
204 502 242 96 5 30
369 666 154 75 62 50
139 442 194 57 33 33
139 442 199 61 32 37
239 707 218 176 122 98
282 268 252 114 89 60
141 445 195 57 36 33
240 268 342 111 89 65
277 374 342 119 92 58
186 510 209 134 11 36
142 448 199 44 31 37
156 450 181 154 14 31
416 829 262 45 40 37
307 398 327 116 93 67
229 401 199 100 83 68
338 673 145 76 52 41
140 442 204 73 29 36
237 261 317 107 91 74
219 492 177 117 17 34
347 49 156 115 40 19
141 445 203 84 32 39
387 607 269 104 31 40
305 87 204 103 69 56
345 557 334 125 87 63
300 72 298 100 13 37
179 507 239 35 28 28
421 452 232 77 18 27
142 444 206 57 34 35
142 443 210 51 32 34
254 342 276 91 65 49
140 437 214 112 18 36
362 667 290 64 26 28
201 454 247 122 0 38
141 437 225 76 18 32
135 463 242 110 4 34
419 767 303 184 125 96
142 439 216 99 19 29
283 368 200 100 86 72
210 312 343 118 91 65
302 246 201 142 105 75
154 423 224 58 18 26
252 297 271 104 76 56
315 97 276 98 43 36
334 388 259 65 50 45
286 249 302 96 74 48
196 426 171 141 25 43
141 436 218 103 15 31
293 16 293 151 96 102
142 438 219 86 16 26
307 87 206 97 45 42
314 97 174 126 47 48
307 191 296 114 88 56
417 821 206 62 50 47
299 462 389 117 17 38
185 507 189 178 6 46
339 692 299 147 13 46
351 695 301 137 18 42
358 479 347 120 7 37
358 737 155 56 46 43
394 392 217 44 41 41
427 446 236 96 28 25
324 92 305 109 87 66
164 517 219 212 144 122
354 712 300 63 29 34
142 437 223 75 20 27
141 440 213 96 23 37
348 97 297 103 43 43
269 267 344 127 97 61
223 357 335 158 108 91
326 28 220 110 87 71
236 263 333 109 90 69
432 811 235 73 60 52
322 502 156 136 4 36
166 424 242 128 5 40
284 748 239 82 66 59
339 833 113 85 70 59
208 307 334 115 92 67
230 332 295 95 76 56
319 778 240 103 77 64
339 72 152 143 22 38
142 442 214 88 19 32
324 617 289 68 27 34
204 482 180 122 9 31
257 468 276 48 28 32
144 447 214 102 12 35
154 482 215 86 55 42
142 442 219 97 7 29
320 816 143 76 63 52
274 337 288 95 74 57
347 84 275 99 81 60
141 444 221 106 1 35
231 702 199 169 113 86
364 563 316 37 28 30
397 400 311 60 18 23
424 390 294 73 5 28
143 447 219 108 7 32
329 438 369 71 34 31
251 426 314 71 26 35
141 446 221 108 7 33
175 418 243 101 10 33
357 97 266 139 22 39
406 690 198 73 47 45
320 412 154 105 18 27
242 443 271 46 28 30
286 158 196 109 90 71
146 424 204 53 19 24
282 272 337 134 96 71
239 467 134 88 30 38
283 253 247 117 92 63
165 419 229 61 20 31
379 672 174 65 52 41
360 928 280 62 56 54
216 332 316 110 87 61
248 437 280 35 26 31
146 424 208 56 18 24
308 934 295 60 56 55
150 451 185 61 34 37
255 507 267 149 3 45
194 408 219 64 35 35
154 422 194 57 24 25
344 582 344 172 118 87
282 488 305 55 30 34
341 562 346 157 113 80
369 637 327 192 131 104
159 418 199 57 22 24
157 420 199 52 23 24
249 352 284 83 59 33
454 712 229 87 68 49
397 815 191 47 43 45
240 501 155 128 19 40
400 476 315 106 1 28
298 808 211 62 50 48
139 452 239 97 12 32
154 421 204 53 19 25
259 362 280 87 60 43
529 961 267 92 78 64
244 267 344 114 91 64
323 23 312 100 45 43
219 401 189 114 82 68
154 421 209 55 18 25
366 440 192 47 41 46
269 287 263 111 80 57
160 419 204 56 21 24
436 442 279 158 13 43
336 467 168 113 17 36
156 510 247 177 126 109
405 387 222 68 33 33
193 410 240 60 26 31
309 10 199 96 79 64
160 419 209 55 20 25
314 106 311 98 75 56
158 420 204 55 18 24
150 423 219 51 20 24
289 572 158 151 13 37
273 468 107 134 10 42
279 242 191 117 89 57
299 727 258 58 27 33
222 396 219 76 63 54
150 424 223 51 21 24
396 533 222 68 23 32
301 376 321 117 93 66
327 550 317 133 3 46
389 572 298 176 11 55
238 400 148 99 77 62
258 607 250 91 27 41
394 676 193 68 49 36
311 824 277 167 133 111
417 441 317 105 29 43
147 425 219 49 21 23
304 459 387 84 25 29
148 425 224 51 21 23
226 366 333 165 115 96
217 553 188 147 16 46
216 441 145 162 5 42
352 115 287 146 1 55
347 860 171 69 65 68
389 394 284 70 20 30
429 843 277 57 50 45
160 419 214 58 18 25
222 395 244 95 77 56
344 399 293 69 55 48
158 420 214 57 17 25
310 506 318 84 28 37
240 397 329 169 117 100
159 421 224 61 17 27
140 433 229 70 25 29
260 526 150 53 34 37
314 137 284 109 80 52
219 527 249 78 29 38
145 428 229 65 24 27
140 433 234 62 26 30
144 431 234 56 20 27
279 237 289 89 71 50
317 112 312 119 30 48
411 891 275 59 47 48
270 726 248 102 30 44
136 438 231 59 35 32
209 467 248 59 25 31
320 562 334 156 102 86
394 657 274 41 27 30
290 317 250 124 93 74
325 26 193 115 99 82
226 570 236 72 25 33
329 392 189 91 37 36
135 438 234 60 23 28
257 712 226 155 43 54
417 749 191 57 47 43
141 434 237 34 25 26
178 513 243 97 71 61
327 634 286 40 24 26
221 398 224 72 62 52
286 158 301 101 86 70
237 402 202 98 82 67
304 534 374 190 131 103
324 527 165 114 19 37
245 432 279 146 7 47
135 438 237 63 29 33
205 527 209 108 18 38
134 442 230 50 29 28
159 453 242 37 26 26
388 552 313 127 20 48
394 393 279 70 21 30
164 422 239 64 17 26
336 30 298 95 65 55
134 447 228 72 29 34
272 358 342 126 99 67
244 362 269 120 81 63
179 467 244 76 23 34
279 246 246 117 93 65
436 428 242 40 27 37
308 767 235 64 53 48
132 448 226 97 25 34
321 113 206 127 94 73
344 432 364 83 11 32
130 443 234 64 25 35
299 149 217 107 86 61
130 443 237 82 26 34
328 435 359 76 43 39
303 102 194 108 90 71
216 457 252 40 26 28
389 394 246 78 27 33
134 442 238 102 22 39
299 192 324 123 97 65
394 382 218 48 44 48
137 435 234 67 27 34
319 141 285 118 82 55
139 437 238 55 26 32
446 722 234 80 69 59
429 389 293 75 3 27
171 436 242 93 17 38
346 620 319 190 133 111
309 167 182 139 105 66
163 450 241 46 22 24
274 177 314 105 88 71
219 537 181 107 29 39
349 391 244 75 58 50
262 578 172 146 18 41
144 432 238 51 26 30
278 897 274 173 131 107
144 437 239 112 17 40
394 394 284 69 18 30
248 381 271 111 72 59
402 512 318 42 27 29
326 142 189 132 102 71
260 426 338 57 29 33
294 387 203 98 84 69
139 447 228 115 23 32
205 431 164 127 24 41
377 394 211 129 18 33
148 453 193 99 24 47
323 557 309 130 0 39
153 462 194 69 34 39
294 587 293 54 30 34
139 442 238 49 29 29
320 668 165 50 43 41
454 871 280 84 73 66
434 752 204 53 42 38
269 482 119 178 9 42
144 442 238 60 22 30
284 816 199 176 129 105
199 467 181 139 8 35
401 660 294 127 97 61
164 474 241 114 17 43
356 61 164 93 30 32
375 832 116 82 77 75
328 861 189 35 31 34
298 547 295 90 23 36
289 522 129 189 11 42
264 517 144 133 13 36
299 162 220 111 89 64
147 459 227 106 6 30
254 282 264 101 79 56
149 426 229 51 23 25
235 512 253 67 24 33
344 797 155 70 56 56
393 416 348 121 18 44
253 597 249 118 17 43
319 577 309 150 0 45
291 227 331 123 97 66
137 504 227 175 112 90
385 797 183 65 53 51
209 403 179 151 49 44
265 577 272 147 1 43
269 737 234 120 22 46
352 879 282 126 99 77
151 424 227 51 20 26
307 87 184 108 84 63
299 157 219 109 87 62
267 200 226 105 88 70
145 429 233 54 21 30
390 462 208 142 1 33
329 852 154 54 49 50
213 647 214 193 134 106
222 364 324 161 112 91
264 398 134 98 78 61
290 267 245 117 92 64
239 517 254 51 28 31
149 428 234 53 19 26
147 430 236 68 3 26
413 422 225 128 6 29
289 217 186 135 102 64
335 822 169 47 44 45
384 882 214 80 68 65
149 432 239 115 11 39
383 420 352 87 14 36
159 467 189 70 33 39
226 399 194 104 86 70
256 332 346 138 102 71
325 147 199 123 98 70
435 442 289 112 10 35
213 442 159 92 25 37
150 429 238 81 14 27
376 482 197 142 0 29
339 457 359 73 25 34
320 761 248 74 60 55
154 423 229 58 20 27
287 367 206 101 87 74
159 421 229 61 19 27
237 394 313 150 103 85
134 457 240 109 4 32
406 469 311 29 26 28
256 572 267 152 5 45
154 426 234 51 21 27
142 487 222 104 79 60
355 681 296 139 12 45
329 42 309 109 58 55
154 427 238 93 9 32
304 837 278 138 58 78
317 24 286 103 45 42
325 97 270 113 32 41
319 427 330 67 58 48
154 432 240 138 4 43
297 126 193 102 86 70
299 512 421 142 102 86
159 427 240 112 6 36
249 492 268 52 26 31
442 749 272 86 64 43
159 432 240 130 6 41
149 437 239 113 10 36
259 403 114 117 76 59
235 472 140 77 33 39
393 777 184 63 53 53
173 415 224 60 24 26
149 442 239 108 8 34
328 487 155 155 0 38
239 337 349 141 105 71
205 412 139 141 14 37
292 112 299 109 90 71
149 447 240 53 21 28
234 317 350 130 99 66
283 882 279 107 88 71
152 463 214 44 29 34
258 242 293 94 79 63
293 152 188 118 96 71
428 452 239 112 23 38
259 507 140 181 11 43
154 447 240 92 17 34
302 34 295 131 99 74
399 663 194 81 56 38
168 415 194 61 23 24
199 412 159 130 16 39
297 469 336 164 0 49
206 408 136 85 29 27
249 262 344 116 92 65
274 587 279 155 6 48
149 502 244 112 79 62
359 837 159 52 48 53
315 517 394 181 121 102
168 415 204 63 21 26
307 530 394 189 124 103
234 396 179 100 84 70
174 412 194 68 19 27
239 687 223 177 126 104
404 542 274 182 9 53
341 50 183 100 86 71
264 242 245 106 84 59
289 361 278 69 56 42
202 523 182 114 29 41
170 414 204 65 20 26
367 704 153 52 41 35
237 271 341 107 87 65
314 62 218 114 67 60
169 415 209 62 21 25
267 196 308 105 89 72
434 802 269 80 60 48
257 322 347 128 96 65
171 414 209 64 20 26
232 385 217 96 81 66
234 398 189 100 85 70
403 542 284 179 12 49
407 678 302 144 102 65
149 457 209 118 13 39
424 387 229 133 13 29
255 587 258 163 4 49
174 412 204 69 20 25
438 432 264 93 23 33
324 467 379 158 9 49
174 413 209 67 20 25
371 835 178 74 67 70
289 272 204 115 87 61
330 836 115 85 77 73
136 497 226 157 108 84
249 396 154 98 81 64
174 414 214 64 21 25
352 87 169 137 13 51
324 917 308 66 62 61
156 470 204 49 34 38
250 742 166 137 100 63
382 896 226 61 55 59
355 847 259 146 112 87
269 397 134 96 77 60
418 707 249 125 16 42
309 62 184 119 20 38
258 423 339 51 29 33
251 510 146 48 30 31
149 477 245 92 47 44
344 522 339 164 11 51
282 156 203 108 91 73
363 856 176 63 60 62
172 415 216 62 21 25
407 762 171 69 59 51
204 487 179 59 32 35
289 207 184 131 100 64
256 390 347 152 110 88
234 397 203 98 82 67
210 542 236 104 1 29
407 687 254 132 11 42
273 409 90 99 79 55
169 416 219 62 20 26
389 717 173 43 34 35
334 132 294 140 9 51
169 416 224 62 22 27
383 752 290 122 86 64
360 655 192 95 34 27
397 662 225 45 35 33
291 660 262 172 5 56
398 782 192 69 56 50
132 487 227 120 78 67
371 425 202 41 41 44
172 415 219 62 21 25
279 442 349 126 20 46
348 847 149 76 66 58
175 414 224 59 23 26
309 390 202 101 86 70
184 407 194 76 20 29
331 434 363 75 36 35
289 391 174 95 80 64
436 422 295 56 29 34
160 472 194 67 34 39
291 470 332 167 0 51
296 119 200 104 87 69
259 382 184 96 82 67
180 409 194 74 18 29
178 458 181 57 36 39
344 387 184 79 37 38
158 472 199 65 33 37
289 358 280 67 54 40
181 409 198 73 16 29
289 390 179 95 80 64
184 408 199 74 18 29
372 895 206 67 62 62
429 390 295 75 5 23
242 312 266 119 83 64
294 212 294 102 80 53
179 411 204 71 18 26
247 399 336 167 117 97
233 517 251 115 19 41
270 312 265 108 77 54
182 410 204 71 18 26
170 531 234 192 127 105
459 918 281 71 58 45
164 452 180 126 22 37
179 512 216 153 91 83
424 712 209 56 43 39
194 417 169 136 12 37
227 299 307 103 87 72
183 410 209 69 20 25
396 650 294 126 95 60
189 406 199 76 22 29
187 498 182 148 8 40
190 404 194 81 23 28
281 909 235 54 51 52
185 409 209 69 21 26
299 391 184 94 79 64
179 412 214 65 22 25
359 617 334 188 133 104
300 462 104 88 28 35
305 925 211 73 67 70
184 410 214 65 22 25
334 657 174 96 48 33
279 357 279 65 51 37
439 686 225 64 50 37
179 412 219 61 23 24
314 390 212 97 82 66
140 506 224 223 147 126
315 127 281 108 48 44
184 477 241 140 9 43
364 663 149 75 57 42
240 767 184 174 119 88
184 411 224 57 22 25
208 433 163 126 25 42
189 409 214 66 26 28
308 187 314 129 100 68
190 409 219 63 27 29
459 712 244 86 59 46
340 127 289 149 5 56
225 332 304 98 79 58
331 825 157 55 48 47
174 497 214 64 22 32
400 667 229 109 27 39
187 410 216 64 23 26
324 442 374 70 30 31
288 267 314 111 81 52
415 837 269 39 35 34
427 485 260 175 13 44
329 847 159 50 44 43
176 414 229 56 24 25
217 429 256 22 27 30
349 832 134 108 92 78
375 472 330 62 17 28
184 411 229 55 22 25
176 414 232 54 24 24
218 539 236 143 10 46
223 367 324 158 108 90
331 42 214 109 49 52
238 541 256 35 26 27
149 473 220 60 32 29
279 532 285 113 13 39
414 887 264 56 45 44
189 512 189 127 21 45
299 391 203 98 83 69
179 414 234 52 24 24
311 30 232 134 92 81
444 721 213 80 60 46
317 772 241 61 50 46
404 843 264 39 34 31
174 417 239 52 19 26
370 562 207 133 10 32
150 457 194 139 19 46
227 341 303 98 79 58
389 418 350 133 21 47
442 384 269 68 22 17
180 414 238 49 21 28
304 677 270 75 24 32
174 437 242 57 23 28
316 500 377 73 30 43
349 622 294 149 41 55
224 392 224 93 78 64
301 121 286 102 80 57
188 410 229 58 20 27
286 486 111 185 12 44
191 409 229 59 20 27
429 912 234 82 72 65
299 722 259 105 25 42
237 383 336 163 113 95
290 14 294 136 80 79
360 533 331 178 9 57
318 455 386 65 33 24
240 302 263 125 87 66
324 402 164 67 38 39
175 497 235 45 22 26
399 405 325 59 18 24
189 410 234 58 21 27
223 392 249 109 86 60
245 477 267 53 30 34
292 407 104 56 30 33
223 400 169 122 68 57
173 497 238 44 23 25
394 842 249 32 29 28
225 352 305 110 85 58
284 177 194 113 94 73
334 391 214 74 57 48
348 397 186 90 27 32
247 696 182 117 90 55
189 411 239 58 24 28
139 462 243 109 2 33
362 823 171 59 54 55
225 367 314 138 97 74
179 417 244 105 8 34
273 272 295 78 62 41
388 717 159 58 48 42
189 412 244 56 26 29
293 27 194 116 68 57
281 455 337 92 16 34
359 667 158 69 53 46
172 499 242 64 27 32
360 667 288 80 12 30
187 416 246 80 19 37
224 627 230 181 128 105
353 863 268 130 95 75
338 587 191 59 31 34
190 414 247 57 32 35
369 762 279 65 53 49
334 439 372 57 27 28
188 502 183 46 30 35
431 468 274 154 13 42
308 462 369 82 22 36
268 302 268 113 78 58
304 927 214 76 71 72
359 411 324 59 39 34
163 420 193 53 26 26
329 588 306 124 8 41
164 417 209 58 21 25
216 411 262 151 12 51
167 420 236 40 27 24
168 421 240 61 18 24
304 172 222 115 92 65
388 804 261 52 41 39
288 488 315 71 25 35
394 447 209 52 37 41
169 423 242 129 4 39
312 428 131 111 12 27
222 501 177 85 34 40
324 67 272 80 45 32
164 432 241 126 5 40
169 427 242 132 4 42
227 478 163 101 27 36
309 612 288 121 20 42
354 661 179 88 36 32
326 139 187 134 103 70
427 831 241 71 55 48
176 495 191 61 31 33
214 567 238 167 18 55
360 942 254 73 66 64
