ply
format ascii 1.0
comment Created by Open3D
element vertex 2202
property double x
property double y
property double z
property uchar red
property uchar green
property uchar blue
end_header
249 658 229 181 129 110
383 623 277 185 133 115
307 905 212 92 73 60
375 808 151 54 48 50
251 658 228 182 132 112
325 548 276 65 28 34
248 663 229 172 125 105
465 703 214 78 63 47
250 663 228 171 129 107
250 668 228 173 129 106
258 568 223 106 20 42
415 828 181 69 56 53
248 666 229 170 127 107
235 678 206 128 89 55
237 679 203 131 93 59
238 676 204 132 94 61
239 683 200 137 99 66
350 887 141 90 79 76
240 688 196 131 94 61
235 688 206 141 98 68
264 688 224 127 90 79
237 683 203 133 97 62
320 615 149 168 4 36
236 688 202 136 96 65
455 728 238 69 54 41
232 678 211 160 108 78
231 678 216 188 129 103
249 748 217 190 136 112
315 623 152 162 0 34
231 678 220 194 133 110
452 720 218 69 51 42
233 679 223 191 130 107
462 880 299 60 50 41
370 823 117 79 60 53
339 824 170 52 44 44
233 684 210 164 111 81
232 681 219 192 132 107
369 863 136 97 79 64
234 683 221 189 129 105
236 688 221 188 129 104
238 689 223 185 130 105
240 693 196 131 93 62
238 692 199 136 95 65
494 881 297 92 73 66
237 694 198 137 97 67
234 693 206 146 101 71
237 699 198 139 97 67
385 533 146 79 33 37
282 522 264 172 14 54
236 698 201 141 97 69
235 703 206 153 104 76
416 744 164 65 50 44
235 693 216 180 121 97
294 630 154 189 5 38
236 693 220 184 126 102
370 573 155 169 1 36
235 698 211 165 112 86
236 698 216 178 121 97
366 793 141 51 46 45
355 888 141 83 72 68
235 703 211 169 115 88
273 776 218 127 86 55
236 703 216 178 122 98
237 702 219 182 125 99
420 853 196 61 52 51
244 678 196 127 92 58
385 733 137 56 45 40
247 679 193 126 93 56
248 676 194 122 90 54
313 917 194 57 53 55
243 704 223 183 128 105
240 678 227 186 135 112
386 593 291 177 128 107
245 683 227 179 132 108
245 688 227 181 131 108
255 678 227 176 130 103
250 683 227 176 130 105
319 903 196 71 54 50
250 688 228 178 131 106
303 928 205 68 63 66
440 888 256 34 31 30
255 683 227 175 128 104
255 688 228 177 129 105
241 693 225 183 129 106
415 814 261 146 99 75
245 693 227 182 130 108
242 701 224 183 128 104
250 693 228 181 131 108
273 573 237 68 24 32
250 698 228 183 133 110
250 703 227 185 133 109
255 698 228 182 132 109
385 838 162 54 50 52
455 783 181 70 56 49
255 703 228 180 130 109
239 713 190 143 101 71
240 718 186 138 100 69
464 743 201 81 61 50
238 718 190 143 101 69
307 873 223 146 110 81
237 723 191 131 93 62
237 728 191 135 95 64
241 728 181 132 97 65
423 755 279 169 118 84
237 729 188 133 94 63
236 733 191 139 97 67
246 709 183 117 90 58
244 708 185 117 90 57
243 716 184 128 96 64
250 713 180 113 88 57
255 708 181 105 83 56
412 874 204 62 55 55
255 712 179 108 85 56
251 715 178 113 88 58
248 716 179 117 91 58
255 714 178 107 84 55
245 733 176 124 95 61
384 628 192 41 33 34
415 873 206 61 53 53
245 728 177 123 94 59
247 735 173 123 95 61
330 663 155 58 34 35
250 728 175 118 90 58
402 667 231 54 30 34
250 723 176 115 89 57
279 583 246 155 14 49
255 723 175 111 87 57
255 728 173 113 88 57
254 726 174 113 88 58
380 608 271 148 72 68
248 732 174 121 93 60
440 788 196 77 61 56
251 729 173 116 89 58
250 733 173 117 90 59
255 733 172 114 89 59
243 727 179 126 96 62
242 734 178 127 96 63
295 873 261 128 82 75
279 687 232 85 18 33
237 738 183 139 102 70
239 738 181 134 99 67
238 743 180 138 99 69
389 648 192 80 30 34
237 743 182 142 100 71
438 858 220 99 87 87
236 743 191 154 105 77
389 823 115 94 77 63
236 738 186 141 101 68
236 743 186 146 101 72
240 748 176 137 98 69
239 753 176 147 103 74
325 819 164 78 59 50
236 748 186 155 105 75
236 753 186 162 109 79
239 758 176 154 106 76
237 758 181 163 111 80
236 758 186 164 111 84
354 738 272 101 24 43
240 768 176 167 115 83
238 768 180 171 115 85
236 763 186 166 113 86
237 763 191 169 116 88
237 768 186 168 115 86
237 768 191 170 119 88
385 698 271 114 42 44
365 867 135 99 77 64
243 742 174 124 93 61
245 743 172 125 95 61
242 748 173 131 96 64
242 753 173 138 99 68
245 753 170 133 98 64
255 738 171 117 91 60
438 516 173 103 28 37
320 845 186 171 113 88
465 768 240 56 44 32
389 608 292 180 131 107
255 743 169 121 93 60
250 753 167 128 97 60
462 894 245 78 61 47
255 753 166 123 94 60
376 763 145 58 49 46
249 748 169 126 96 60
410 728 156 68 54 48
248 751 169 129 97 60
270 808 162 183 126 92
251 749 168 125 95 60
255 748 168 123 95 62
254 746 169 123 95 63
485 854 246 82 68 58
256 745 168 122 94 61
247 754 168 132 98 63
247 758 168 137 100 66
244 758 170 141 101 68
242 758 173 145 103 71
437 809 246 125 81 61
375 588 275 55 27 30
246 763 168 146 104 70
379 668 177 50 41 42
242 768 172 160 111 78
244 768 170 155 107 74
345 683 271 44 27 30
250 763 166 140 103 66
250 768 165 148 104 69
255 763 164 128 97 61
266 533 138 94 17 36
256 768 163 135 99 62
253 768 164 141 102 65
386 744 272 68 41 42
336 897 153 86 71 67
236 708 196 143 100 68
300 528 282 75 28 38
400 753 272 167 120 96
276 689 230 44 27 30
369 664 259 142 17 46
235 708 201 144 100 69
236 713 196 139 96 66
392 623 209 90 33 38
235 713 201 147 101 71
237 709 193 147 101 70
237 713 192 144 100 70
235 708 206 157 106 79
236 718 196 135 94 64
491 854 241 83 63 58
235 708 211 172 117 92
236 713 211 174 118 93
237 708 215 178 122 98
400 568 303 182 123 95
237 713 215 178 122 98
510 849 259 62 51 40
239 713 217 180 124 99
258 524 238 123 28 49
241 713 220 180 125 100
236 718 211 175 119 93
239 718 216 178 122 97
235 723 201 155 104 76
236 728 201 159 106 80
236 723 206 169 115 87
236 733 196 152 103 75
402 527 290 123 77 60
236 733 201 164 110 82
237 733 206 173 116 91
237 723 211 174 118 93
392 547 309 190 135 111
265 835 191 215 140 111
535 863 300 95 80 66
238 724 212 176 118 94
240 723 216 177 121 96
238 728 212 175 118 94
241 728 215 177 120 95
237 732 209 176 119 94
239 733 211 176 119 94
238 735 208 176 118 92
346 851 252 128 101 73
379 895 269 105 76 63
244 708 223 184 129 106
395 822 240 52 42 39
242 718 219 179 125 99
277 525 104 45 34 39
525 809 223 91 78 67
245 718 222 184 128 105
242 722 219 179 125 99
245 723 221 183 127 104
473 833 236 59 50 41
244 728 217 179 121 98
345 908 287 135 105 79
242 733 215 178 120 95
244 733 217 181 125 100
247 732 219 184 129 104
248 720 223 186 132 109
320 848 221 170 126 101
248 724 223 185 131 108
250 728 222 184 130 107
300 957 261 78 71 70
285 800 218 51 43 40
250 733 221 185 131 107
246 713 224 185 129 109
250 708 227 185 132 110
250 713 226 186 131 109
315 653 254 35 28 32
255 713 226 178 125 104
345 603 276 192 12 60
251 723 224 185 131 107
251 727 224 183 129 106
255 727 224 177 123 102
356 743 122 65 51 44
236 743 196 163 109 82
408 592 222 79 37 43
505 849 244 91 69 60
236 738 201 172 115 88
237 738 205 176 119 93
363 845 244 147 117 89
481 844 231 81 64 57
238 738 208 177 118 95
237 743 205 177 120 94
236 748 196 169 115 87
236 748 201 175 120 93
236 753 196 172 119 90
237 753 201 175 121 94
335 903 292 151 119 92
237 748 204 177 122 95
239 748 207 178 122 96
482 856 239 119 92 69
237 751 204 176 121 94
388 598 293 175 126 104
241 743 210 178 121 96
369 603 167 50 35 38
394 741 154 54 42 42
237 758 196 172 117 90
237 758 200 173 119 92
240 758 206 174 121 94
376 823 112 95 75 63
237 768 196 172 121 90
237 767 199 172 121 91
419 568 231 154 12 46
240 763 206 172 120 92
245 738 216 183 127 101
243 740 213 180 124 98
246 743 215 183 127 103
306 948 285 52 49 50
241 748 210 178 124 97
244 748 212 179 125 99
246 748 215 184 130 105
332 880 171 39 36 36
250 738 220 187 133 109
248 739 218 186 131 107
483 901 269 104 79 64
249 743 218 187 133 109
251 743 220 189 135 112
255 743 220 186 131 108
389 613 196 84 32 39
255 748 220 187 132 109
245 758 211 178 127 100
484 823 241 66 55 44
247 758 214 183 132 106
245 768 211 179 131 102
253 754 218 191 136 113
255 758 218 189 135 110
455 907 281 85 65 51
256 757 219 188 133 108
452 747 243 118 87 58
248 764 213 184 138 110
325 638 156 85 29 35
248 768 213 182 134 107
255 763 218 187 135 108
255 768 217 183 134 106
360 568 151 130 10 35
301 878 227 157 117 88
168 514 261 204 132 117
172 516 265 216 142 130
295 821 163 90 70 62
175 518 266 217 144 129
176 516 269 207 141 129
180 519 266 216 146 128
404 597 245 172 16 53
185 518 270 191 137 120
408 694 201 56 32 32
184 520 268 205 145 126
180 522 261 213 147 126
185 524 261 209 144 124
465 730 227 96 72 49
413 573 246 117 22 42
190 527 261 206 142 122
190 523 266 199 139 120
188 520 268 197 140 121
195 529 261 201 139 118
195 520 268 187 132 112
276 663 172 106 28 40
274 733 166 65 33 36
192 526 264 203 141 121
302 683 153 78 28 31
200 523 267 194 140 118
200 527 265 193 136 115
410 713 279 185 128 99
302 622 254 114 27 44
207 516 263 137 97 82
205 518 267 166 120 103
390 779 159 67 54 50
205 523 266 193 140 121
425 553 216 156 10 45
405 518 296 153 105 79
205 527 264 198 143 122
196 532 260 199 136 116
483 800 233 85 70 56
200 529 263 197 139 117
200 533 261 199 138 116
365 784 117 75 60 49
202 536 259 194 131 111
205 538 259 180 122 101
472 779 225 88 65 51
300 798 153 74 60 57
267 536 108 65 22 35
204 539 258 185 126 104
210 518 261 135 91 80
410 688 226 87 41 41
311 898 212 125 83 71
208 518 264 151 111 95
213 528 259 151 102 90
242 792 178 178 120 88
240 788 181 177 120 89
210 533 261 189 136 112
214 533 260 157 104 87
285 753 151 130 98 61
210 544 258 178 126 106
334 863 201 123 91 71
214 538 259 173 119 101
310 628 155 159 0 34
213 542 259 184 132 112
424 733 172 57 45 41
210 548 257 181 127 107
240 773 176 171 117 86
475 897 246 99 75 57
238 773 180 172 117 86
401 663 231 72 27 36
237 773 186 168 115 86
240 778 176 174 118 87
238 778 181 173 117 86
237 776 186 167 114 85
237 776 190 169 117 87
238 778 191 170 117 88
380 944 286 60 53 50
238 783 191 172 119 90
239 788 186 173 119 88
246 773 168 156 107 74
242 778 173 170 114 84
404 871 233 38 35 35
350 959 210 91 86 89
245 783 172 171 115 83
247 776 168 160 110 76
253 773 164 151 106 69
250 778 167 160 110 75
342 619 159 53 33 34
347 832 142 70 60 56
380 953 251 67 63 64
253 778 164 158 109 73
455 902 261 77 60 47
256 783 163 161 111 74
356 728 279 184 17 58
390 942 290 62 55 53
328 965 224 100 96 97
253 783 164 163 111 76
248 778 169 163 111 77
248 783 169 168 114 82
393 713 273 155 96 81
243 788 175 175 117 87
244 793 176 175 117 85
245 798 176 174 116 85
251 788 167 169 113 81
251 793 167 172 115 83
275 653 221 143 14 45
404 698 151 53 44 38
325 783 148 69 54 48
256 788 163 167 113 79
255 798 166 173 118 83
252 796 168 173 117 83
355 674 264 133 9 40
253 800 169 171 115 81
305 579 129 178 4 37
241 793 181 178 120 89
241 798 182 179 121 90
243 799 180 178 119 90
361 832 127 101 79 63
240 798 186 176 119 90
240 798 191 177 122 93
246 803 177 174 116 85
472 835 236 61 50 42
256 802 167 174 118 84
375 686 165 85 49 44
415 904 246 63 55 49
251 803 172 170 114 80
249 803 175 172 115 82
476 798 224 65 51 44
305 844 270 135 111 90
250 808 175 175 118 85
365 828 238 150 118 93
255 808 171 173 116 83
250 813 177 179 122 90
432 516 193 112 16 35
253 809 174 175 117 85
254 813 174 180 122 90
256 813 173 179 122 88
242 803 182 179 121 89
245 808 181 180 123 92
247 808 178 176 119 88
429 863 230 62 55 52
243 809 185 183 126 93
246 813 181 184 125 95
244 813 186 191 132 102
450 884 296 40 36 35
242 811 188 187 130 99
243 814 191 198 139 109
370 568 152 166 0 34
248 814 179 181 123 92
247 817 182 191 132 103
399 517 320 195 128 102
383 528 303 131 69 60
246 818 186 205 144 115
245 818 191 210 145 116
250 818 181 190 130 101
353 922 178 86 78 79
251 817 177 182 124 93
251 822 182 209 146 119
390 553 155 168 9 36
253 820 179 189 129 98
254 824 180 209 146 116
248 820 184 210 147 118
249 823 186 222 156 127
251 827 191 233 162 131
256 831 187 246 174 152
364 803 141 54 44 44
237 773 195 171 119 89
335 968 256 67 64 65
238 770 198 173 123 93
240 773 206 172 123 94
238 778 196 173 120 91
410 723 279 187 133 103
241 783 205 176 126 98
239 788 201 179 126 99
240 793 201 181 128 100
336 840 179 95 65 54
278 638 227 92 18 35
245 773 211 177 129 101
243 778 208 173 126 96
245 778 210 175 129 100
246 783 211 176 130 101
251 773 215 180 134 106
255 773 217 179 133 104
251 778 215 180 134 106
251 783 215 181 133 106
315 784 149 81 63 53
255 778 217 177 134 104
255 783 217 180 135 105
315 678 153 44 36 38
243 788 208 177 128 99
348 574 278 90 17 32
240 798 196 182 127 98
241 798 201 183 131 103
319 599 268 61 28 32
242 798 205 183 132 103
244 798 207 180 130 101
246 788 210 179 131 102
249 793 212 185 138 110
255 813 212 191 141 117
251 793 215 186 141 112
255 788 217 182 136 107
463 756 213 90 67 51
252 798 214 189 143 115
241 803 196 182 130 100
242 808 196 187 133 105
242 803 204 185 134 105
244 803 207 183 132 103
413 587 226 76 32 39
243 809 202 188 134 107
364 753 121 73 61 50
242 806 204 186 135 107
245 808 206 187 134 106
244 813 201 193 137 111
325 683 151 90 27 32
246 813 206 191 136 109
248 814 208 191 137 111
465 723 197 89 68 51
415 753 167 65 50 45
247 808 209 186 135 107
247 811 209 187 134 108
339 734 263 191 21 63
250 803 212 190 141 113
325 713 256 89 31 40
298 857 246 157 122 94
413 918 289 56 47 40
255 803 215 188 140 113
253 808 213 190 141 115
245 818 201 203 144 118
246 822 196 219 154 123
402 748 274 187 135 110
345 523 295 127 30 49
247 821 200 210 151 124
390 548 152 167 7 34
247 817 205 198 140 113
249 819 207 199 142 116
251 822 205 207 146 119
416 709 174 67 51 43
414 897 297 42 39 39
254 820 208 201 145 122
251 827 196 229 165 136
254 830 196 224 158 128
255 828 201 218 154 127
256 827 205 216 154 127
255 817 210 195 143 119
262 517 102 157 7 40
265 518 101 61 31 38
261 518 111 55 24 32
291 648 240 171 13 53
266 522 102 72 33 39
350 518 136 145 1 30
262 522 107 148 17 45
262 523 111 58 26 32
265 528 106 72 32 37
264 528 111 57 31 33
262 526 110 74 30 32
397 647 236 68 29 34
270 518 100 72 34 38
407 575 190 99 29 40
267 526 103 106 27 36
270 523 102 68 34 36
263 523 113 33 26 28
270 518 117 139 3 43
424 547 186 156 23 48
266 528 115 45 27 30
380 953 246 71 65 66
271 523 121 134 4 42
269 528 118 64 21 32
270 523 126 122 2 34
361 699 141 76 64 54
266 532 107 70 33 37
265 533 111 69 28 36
268 751 169 73 56 38
409 578 276 131 100 66
270 533 106 74 33 36
267 542 112 183 11 45
295 698 246 148 16 46
310 628 257 101 29 43
269 539 109 174 13 42
384 878 183 59 54 56
270 543 111 180 10 39
266 533 116 131 10 43
268 531 118 141 14 52
270 533 121 146 2 44
272 532 125 138 3 39
469 893 271 65 47 36
266 538 116 158 6 45
267 538 119 146 10 45
267 542 116 168 5 46
267 542 119 145 18 45
269 543 121 104 20 39
271 543 126 39 28 28
280 518 101 60 35 38
275 523 102 62 36 37
285 518 102 67 34 38
274 526 103 84 31 38
280 523 103 54 34 37
465 902 256 93 74 58
275 528 104 71 31 37
293 872 240 158 123 94
280 525 104 86 31 39
280 528 105 142 13 38
285 522 103 55 33 38
286 524 104 89 26 35
272 514 119 142 0 48
273 517 122 122 3 40
436 523 181 149 21 47
346 563 279 143 16 44
273 517 126 96 13 32
275 543 110 176 4 35
280 537 108 172 0 34
285 533 107 168 0 33
449 777 234 91 66 51
452 880 240 55 47 40
285 537 108 169 0 33
286 539 109 159 2 31
274 533 126 96 13 37
273 535 123 131 17 54
273 537 123 96 13 41
484 887 252 84 64 60
271 548 112 179 9 39
268 545 116 175 7 46
408 654 248 93 73 50
471 783 225 84 63 50
269 548 116 180 8 43
270 553 116 186 12 42
270 548 126 41 29 30
270 553 126 55 26 31
271 558 121 85 28 38
272 562 122 58 33 34
355 953 281 69 62 60
272 562 126 57 34 36
425 817 256 128 80 60
275 548 112 176 4 36
280 548 112 102 20 37
436 853 221 75 66 64
280 552 113 116 18 37
275 558 117 155 16 42
280 554 114 124 24 42
285 553 114 93 29 37
414 613 286 158 109 75
287 550 114 110 27 35
285 558 117 59 34 36
329 692 263 54 27 30
273 560 119 93 23 34
274 563 120 60 31 37
354 718 151 84 31 30
385 633 191 97 26 33
280 562 118 78 32 40
277 768 153 138 102 64
275 568 122 71 34 38
274 568 126 44 34 35
265 743 222 136 57 55
280 568 121 126 22 39
380 809 247 64 53 49
276 572 123 66 32 35
280 572 123 133 27 43
280 574 124 72 29 36
285 562 118 57 36 39
285 564 119 62 35 37
305 568 126 165 8 37
285 574 124 90 32 43
294 516 103 163 3 31
291 519 104 125 17 33
395 548 309 189 133 109
295 518 104 167 2 34
363 780 253 67 58 55
290 523 105 42 32 38
290 528 106 141 11 36
426 682 256 125 94 59
295 523 106 127 15 37
310 633 155 151 0 33
386 950 256 67 59 61
295 527 108 150 5 37
297 515 104 171 0 34
485 862 266 43 37 34
305 518 105 143 11 37
300 526 108 173 1 37
425 692 236 83 51 43
305 523 107 126 15 39
305 528 110 175 3 36
291 534 109 170 2 33
295 533 110 169 2 36
329 887 181 39 36 37
385 878 240 35 33 33
420 808 186 65 51 46
296 529 109 171 1 34
290 538 110 158 7 37
290 543 111 141 14 37
293 668 238 170 12 54
295 538 111 161 3 35
310 803 154 88 68 59
377 555 282 68 26 32
410 897 276 33 31 33
294 542 113 165 2 37
300 533 111 131 12 37
310 959 246 87 82 83
336 956 208 93 88 90
299 537 113 120 17 36
298 541 113 170 0 36
300 543 115 174 2 36
305 536 113 46 34 34
428 833 198 63 51 48
305 539 114 96 22 38
305 543 116 172 4 38
477 773 236 72 57 44
310 518 106 172 3 37
370 868 136 93 75 61
310 522 108 125 19 40
310 525 109 148 16 38
320 517 108 176 1 36
272 713 239 102 16 36
322 553 274 95 26 39
412 894 238 58 51 48
320 519 109 174 0 36
314 522 108 138 6 36
260 733 172 108 84 56
315 524 110 166 6 36
320 528 112 174 5 35
312 535 114 35 35 40
470 768 239 63 49 36
266 593 225 45 26 30
309 536 113 45 34 34
310 543 117 137 14 37
270 793 157 163 112 78
321 947 294 56 52 51
474 872 232 69 58 57
315 534 114 113 17 37
319 531 113 175 2 37
315 543 117 124 21 39
320 538 117 134 24 42
347 783 128 65 51 41
319 542 118 149 33 50
320 543 119 105 24 38
291 549 114 58 29 34
305 763 236 74 61 55
290 553 115 150 18 42
536 810 240 91 77 65
420 791 173 61 47 40
293 546 113 121 7 29
295 548 115 87 29 40
295 553 117 68 30 37
290 558 117 124 20 38
296 559 119 97 28 38
422 818 190 71 57 53
300 853 266 169 124 104
299 552 118 60 35 40
440 818 206 81 64 57
301 554 119 64 31 37
339 873 176 39 35 36
302 550 119 42 35 38
295 803 221 63 53 47
305 553 120 159 9 38
405 748 156 58 46 41
305 558 122 163 10 39
288 561 118 53 34 31
359 894 274 124 95 74
290 563 120 72 33 37
295 563 121 85 35 40
338 561 138 52 34 35
315 603 266 158 28 56
295 568 122 74 32 38
290 574 124 70 33 36
445 808 206 72 58 53
294 571 123 118 23 42
271 608 231 36 28 30
295 573 125 118 26 41
300 563 122 55 33 38
298 567 123 94 38 42
300 568 124 124 25 40
297 570 124 52 37 35
310 546 118 179 4 36
310 553 121 177 3 35
363 813 142 53 42 40
315 548 120 176 4 36
315 553 122 176 5 34
340 627 264 80 35 41
320 553 123 121 19 37
315 559 124 176 4 35
318 556 123 122 5 25
435 828 206 75 62 55
320 558 125 99 25 40
308 561 123 113 6 26
433 811 256 134 83 64
310 563 125 150 15 40
309 572 128 159 6 38
315 563 126 175 8 37
360 828 240 156 124 94
320 563 127 65 27 35
280 578 125 58 33 38
326 757 244 71 58 52
285 578 126 91 31 40
290 578 126 126 23 39
295 578 127 125 27 41
295 582 128 78 30 37
300 578 128 154 14 39
326 514 109 176 4 37
325 523 112 130 12 34
374 674 259 39 24 26
324 527 113 129 16 36
369 778 136 54 45 43
325 528 115 66 28 36
268 584 228 143 17 49
332 514 114 160 0 33
368 843 239 148 115 89
360 873 256 138 107 79
336 514 120 153 0 35
334 518 117 154 0 35
336 518 120 153 2 38
382 707 273 40 27 30
328 522 113 121 15 35
330 528 116 101 25 39
273 707 238 63 27 33
334 523 117 159 1 36
336 523 120 145 3 33
333 527 118 130 8 37
322 530 114 165 9 37
326 539 119 147 18 41
322 540 119 95 15 32
280 763 152 136 101 64
432 528 196 160 16 46
331 534 120 117 19 37
354 839 139 78 64 58
332 530 119 60 31 37
370 883 266 125 94 71
334 533 122 112 22 40
476 864 226 82 70 63
331 544 124 75 36 41
334 537 122 123 15 34
277 713 168 128 13 35
367 960 225 85 78 82
333 541 123 55 33 31
339 518 123 156 2 36
381 847 223 51 35 30
343 518 127 151 0 39
338 522 123 137 2 33
438 802 193 67 54 48
339 528 127 84 31 38
475 698 206 98 74 52
335 633 263 87 29 38
338 532 127 46 33 35
468 735 214 72 56 41
325 548 122 138 21 40
323 551 123 127 16 32
285 604 139 159 17 42
326 549 124 127 28 44
321 554 124 73 26 30
405 588 266 108 76 51
325 558 126 118 22 39
328 547 123 161 27 47
330 553 127 124 20 39
329 558 128 149 20 39
378 690 269 80 21 33
396 673 190 89 46 45
260 523 140 152 0 36
257 527 143 154 0 33
260 528 141 155 0 36
263 520 139 145 7 36
343 847 170 47 42 43
265 523 139 149 3 36
465 878 222 101 81 69
265 528 139 155 1 35
288 635 159 35 36 40
269 523 131 62 24 33
268 523 136 59 29 33
269 528 136 108 16 38
267 529 138 158 0 39
400 940 282 70 64 61
268 525 139 142 9 48
454 716 233 62 45 36
262 537 143 156 0 38
270 533 136 113 14 37
267 537 138 35 35 34
400 523 316 174 112 85
269 543 140 123 16 39
258 534 144 156 0 37
286 733 153 43 35 40
443 710 234 64 36 37
263 540 144 154 0 36
263 543 144 153 0 34
273 516 130 93 10 31
274 533 131 124 2 33
275 538 131 89 18 35
273 539 134 51 30 31
274 543 131 51 28 32
273 543 135 44 30 32
333 749 248 77 61 55
266 547 143 154 1 36
420 900 257 33 31 32
272 548 129 57 24 33
267 552 143 110 14 33
269 548 140 140 7 37
271 558 142 84 24 38
260 548 147 154 0 35
365 964 251 65 59 56
257 546 148 157 0 36
259 553 150 155 0 35
261 553 148 154 0 35
264 549 145 155 1 35
443 739 178 64 51 42
408 791 173 74 59 55
412 864 195 63 54 52
265 553 145 118 13 36
296 903 271 121 94 75
410 843 224 42 37 34
260 558 150 155 0 37
262 557 148 152 0 33
265 558 146 145 6 37
260 563 151 155 0 36
396 628 246 86 36 35
271 817 168 196 136 105
262 561 148 154 0 36
265 563 147 130 12 39
260 568 152 156 0 38
257 562 153 157 0 38
404 872 192 66 56 55
419 673 275 156 105 74
258 565 154 158 0 40
258 569 154 159 4 39
261 573 152 158 1 38
300 743 245 77 36 41
404 903 217 67 60 61
259 573 155 159 4 37
272 544 129 33 29 30
274 553 132 69 24 34
272 551 138 93 5 24
285 585 129 78 39 41
273 557 132 54 28 33
273 558 136 70 29 35
273 554 139 105 28 41
273 558 139 53 29 36
413 866 198 61 52 51
272 563 131 37 29 32
427 746 174 71 56 43
272 563 134 48 29 31
273 563 136 72 28 35
454 758 196 74 59 52
273 565 129 33 28 33
273 568 131 40 30 33
272 566 131 38 28 30
274 568 136 80 30 36
310 839 197 150 113 87
274 573 131 77 32 41
417 570 210 189 16 49
330 773 241 73 59 54
274 573 136 85 25 37
273 569 144 57 32 38
277 638 225 98 21 39
307 574 129 173 13 47
310 574 130 176 5 37
320 568 129 135 13 38
313 571 128 179 4 40
298 664 243 170 15 53
394 815 248 57 46 43
315 573 130 180 4 37
295 743 148 132 15 33
260 523 241 62 25 32
259 519 242 114 20 43
261 517 245 126 15 43
405 523 226 43 26 31
400 898 276 32 31 33
263 514 248 44 26 28
263 524 242 48 26 29
265 523 245 59 28 32
264 528 241 70 25 33
269 518 252 76 24 35
266 527 245 76 30 37
461 712 217 76 58 45
268 524 248 86 25 37
269 528 247 80 25 35
260 533 236 69 26 34
286 548 261 158 15 49
258 534 233 63 25 34
279 678 169 65 33 34
259 538 232 55 25 31
260 543 231 61 28 33
262 542 234 42 25 27
330 873 206 103 81 63
265 543 236 49 28 31
388 698 142 65 47 40
355 913 176 76 69 69
266 538 240 93 26 39
267 542 239 56 25 30
399 613 236 67 29 35
268 534 243 38 27 29
271 538 245 67 26 33
271 553 240 95 27 40
275 523 256 49 27 31
338 740 258 80 63 57
277 708 168 103 24 33
276 527 255 89 24 39
272 531 249 67 27 32
458 746 193 86 66 52
275 533 251 80 26 36
392 585 174 46 36 39
376 672 258 35 26 26
273 534 248 41 25 29
277 531 254 110 30 40
279 528 257 81 27 37
400 848 225 41 37 36
275 543 246 146 14 47
276 538 250 116 22 44
442 785 234 107 73 52
279 538 252 126 19 45
277 542 249 162 12 50
284 543 257 162 14 51
258 565 223 45 24 29
290 592 132 187 8 39
387 924 209 77 67 65
259 573 223 146 14 45
419 538 251 94 26 38
259 553 227 84 23 35
261 553 230 34 27 28
482 780 218 80 62 48
264 553 232 31 28 28
263 545 233 36 26 30
544 807 227 99 85 72
398 785 268 181 136 107
266 548 235 42 28 30
266 553 235 37 27 28
268 549 238 46 28 30
267 557 234 39 28 29
290 758 149 133 98 62
257 562 224 31 27 28
373 722 279 47 28 31
260 563 226 91 22 37
261 568 225 130 15 44
264 568 227 65 26 32
379 572 158 174 10 37
400 603 206 103 32 43
261 573 225 129 13 42
264 573 227 69 19 32
338 714 273 44 30 35
266 563 231 78 26 35
385 828 231 147 118 93
266 568 230 88 27 36
269 568 232 114 18 42
270 563 236 80 26 35
269 573 232 143 11 45
422 685 190 74 55 38
535 828 246 79 64 51
273 549 243 75 18 32
276 553 244 131 14 43
281 548 251 162 13 50
274 558 242 40 27 31
386 658 185 69 33 31
279 558 247 55 23 33
282 558 250 147 18 49
272 744 167 99 80 57
274 563 241 99 29 41
273 565 238 112 16 40
334 744 252 77 62 55
275 568 241 70 27 34
277 562 244 35 29 30
353 745 268 77 62 58
354 576 153 57 35 38
277 572 244 68 26 33
279 573 246 130 18 44
290 608 252 112 25 44
283 563 252 134 18 44
320 668 256 111 17 37
282 568 249 85 23 37
283 568 252 103 20 37
299 713 248 159 8 48
365 803 136 54 44 42
395 788 266 113 88 73
285 563 256 157 16 49
285 568 256 155 16 48
435 823 222 52 44 39
282 573 250 155 15 48
265 578 151 154 1 36
257 578 157 159 4 39
288 785 223 62 52 49
260 583 156 156 6 39
263 584 154 155 12 41
258 584 159 143 20 47
370 558 149 158 5 36
259 588 160 94 25 36
414 528 237 71 25 34
456 736 199 82 62 46
266 588 152 46 33 39
262 592 158 70 29 35
265 593 155 126 22 42
385 868 236 37 34 34
499 863 264 93 73 58
271 578 147 147 0 33
429 738 177 65 52 43
385 693 270 106 47 46
268 578 149 152 1 35
415 533 241 127 17 39
271 583 147 152 3 37
361 899 175 66 61 62
270 593 151 75 29 38
265 598 156 119 21 39
263 599 159 78 36 43
454 762 240 99 70 48
264 603 160 91 29 37
271 598 152 130 22 41
351 930 304 54 51 51
269 599 154 118 19 36
266 602 158 45 32 35
267 606 158 42 31 29
292 542 274 87 18 35
270 603 155 55 35 38
275 578 131 130 21 44
276 583 131 142 20 43
317 904 198 84 60 51
276 583 136 64 28 37
273 673 218 33 25 27
279 584 130 105 25 40
265 713 178 80 61 45
415 919 240 72 63 62
516 835 249 61 51 42
274 578 141 142 8 38
277 586 133 102 17 32
278 589 135 175 11 46
330 708 148 128 9 29
280 593 136 176 13 44
276 588 141 144 6 38
456 786 181 69 54 49
278 590 140 129 9 36
278 593 141 109 18 38
277 592 142 46 27 34
311 793 229 61 50 46
285 588 130 117 26 42
281 592 132 187 13 40
274 588 146 147 6 39
310 688 151 47 34 35
273 594 149 41 31 37
285 595 134 192 12 36
487 860 264 40 35 33
285 598 136 191 12 40
410 623 261 121 94 63
422 845 194 64 52 49
282 601 138 48 28 38
281 607 143 134 28 45
464 753 211 85 65 50
448 792 219 59 45 35
274 598 150 67 32 36
277 598 147 45 29 34
425 738 277 167 116 81
278 595 144 40 31 33
345 956 208 96 91 93
278 598 145 91 27 38
275 603 151 67 33 37
277 603 148 42 29 35
420 778 280 185 136 104
278 603 146 73 34 40
274 608 154 82 35 41
460 780 173 79 65 53
390 898 256 29 29 31
257 596 163 106 24 34
261 603 162 148 9 42
260 608 164 159 3 37
368 830 127 93 75 65
261 607 163 144 10 39
415 894 295 38 36 35
280 778 152 159 109 75
286 611 143 104 27 43
274 613 156 115 27 42
357 885 157 69 61 64
280 618 151 86 29 40
276 618 156 110 28 42
470 903 259 95 77 61
276 622 158 74 34 37
371 686 164 89 45 42
284 610 144 91 29 37
285 617 148 152 33 50
325 783 237 57 49 46
284 619 150 118 30 42
409 768 278 182 136 107
285 623 152 44 35 41
372 960 252 63 57 56
284 624 154 39 35 39
392 600 189 159 20 39
275 628 162 41 34 39
278 625 159 30 34 42
284 634 160 45 31 39
377 904 289 39 35 36
287 626 153 37 29 43
286 632 158 72 31 40
260 613 166 139 8 37
263 614 164 84 23 36
395 693 156 72 50 39
261 618 167 126 20 40
262 622 168 81 30 36
265 623 166 87 35 40
400 783 271 183 138 109
260 623 171 69 36 41
257 621 173 43 33 39
411 749 164 60 47 43
258 624 175 76 33 40
348 627 163 75 24 35
267 617 163 50 35 40
271 623 162 47 34 39
268 620 164 49 38 40
269 623 164 51 32 37
261 628 172 101 35 44
419 663 261 126 92 57
400 703 151 67 51 40
262 631 173 121 27 48
368 864 244 136 105 84
265 633 171 100 30 43
266 627 167 54 34 38
270 633 167 68 33 38
420 733 170 61 48 42
330 668 260 111 14 37
266 638 176 151 16 46
268 634 169 69 33 39
259 629 180 146 13 44
261 633 181 178 2 46
384 553 296 145 99 87
259 633 186 155 9 43
411 574 201 169 18 48
257 631 191 51 31 36
313 779 233 62 52 46
264 638 181 171 2 44
262 636 183 173 2 45
259 633 191 52 30 33
262 637 186 167 3 44
263 640 191 146 5 39
276 632 163 88 22 34
275 638 166 99 25 38
468 760 218 122 91 67
435 828 220 53 45 40
278 635 164 127 18 45
362 746 274 53 31 34
279 639 164 130 21 41
490 891 246 96 76 68
354 859 255 137 106 76
273 640 169 109 20 35
295 584 129 57 34 37
350 541 289 38 29 31
290 585 129 62 33 39
295 592 133 172 9 37
298 581 128 114 30 38
300 583 130 114 19 37
301 579 129 176 8 40
368 691 132 78 66 58
305 583 131 177 6 38
300 591 133 76 25 37
305 593 135 154 9 37
290 595 134 189 8 35
295 598 136 185 7 36
290 602 138 193 9 38
367 858 243 143 110 88
290 604 139 194 10 40
268 748 223 146 34 49
404 703 147 62 51 45
429 723 181 54 43 38
290 608 142 187 13 41
380 913 296 38 35 36
295 603 140 187 7 38
300 598 137 183 6 39
305 597 138 181 5 37
305 599 139 180 5 37
455 758 221 112 86 65
300 603 140 183 6 37
305 603 141 181 5 37
305 607 143 181 5 38
306 589 134 168 9 38
308 586 133 179 5 38
315 578 132 179 4 39
315 583 135 179 4 37
317 580 134 179 4 38
474 862 252 71 63 56
320 577 133 178 4 36
320 579 134 177 3 36
320 583 136 179 4 37
315 588 137 179 4 37
315 592 138 179 4 37
321 588 139 179 5 37
318 592 138 179 5 40
299 848 261 169 129 107
423 685 243 92 75 58
297 953 257 86 82 84
412 869 200 60 52 50
531 854 306 100 83 68
309 597 138 178 4 35
310 599 140 179 4 38
309 606 143 178 5 35
353 767 119 66 50 40
427 899 237 58 49 46
315 594 139 178 4 37
294 682 238 142 11 45
315 598 140 178 4 36
320 598 141 178 4 37
315 603 142 177 4 37
320 602 143 177 4 37
310 609 145 177 5 37
380 684 126 81 58 45
315 608 145 161 8 39
320 604 144 171 7 38
380 683 146 80 51 37
342 549 139 105 34 44
289 611 143 108 26 39
486 823 236 83 69 57
290 620 149 62 28 35
290 623 151 72 34 39
380 593 276 132 71 66
295 620 149 120 19 37
295 623 150 156 18 43
462 772 239 55 44 36
300 613 146 86 28 38
311 850 242 117 94 70
260 760 218 186 133 107
305 613 146 167 11 38
424 533 166 80 28 38
300 617 148 175 13 40
480 903 266 87 69 60
300 620 149 183 7 39
300 623 150 173 6 38
305 619 149 177 4 36
305 623 151 175 2 37
300 893 282 193 143 129
290 627 153 51 32 39
289 639 159 130 12 36
340 713 149 123 9 28
460 780 176 77 62 51
291 638 158 128 15 36
295 638 156 159 6 36
513 836 248 62 52 41
335 958 291 65 59 56
296 631 153 179 2 34
300 633 154 153 5 37
260 748 167 116 90 59
306 630 154 163 1 36
262 602 219 59 18 24
405 723 278 188 135 104
305 638 155 146 3 33
310 613 147 176 4 37
310 619 150 172 2 35
320 618 150 163 1 34
310 638 155 138 5 33
425 684 181 77 53 41
315 626 153 157 0 34
315 628 154 154 0 33
315 633 155 146 0 32
320 626 153 150 4 36
259 578 222 89 21 36
260 583 222 43 27 30
257 587 219 28 24 26
258 593 218 44 26 28
263 589 223 53 30 33
264 594 222 36 27 29
259 598 218 29 24 27
430 698 266 141 98 64
352 867 267 136 104 75
261 597 220 32 26 27
264 598 222 61 24 33
260 608 216 71 21 29
265 603 221 139 19 47
394 870 234 40 37 35
263 604 218 113 27 41
261 577 224 139 16 46
262 581 224 95 31 42
365 833 136 75 61 48
267 741 224 136 41 50
265 583 226 104 21 39
265 588 226 44 23 29
397 774 159 63 50 48
267 581 229 144 11 44
269 578 231 146 10 46
362 833 145 60 53 50
309 903 211 111 78 63
270 583 231 145 10 45
272 583 235 147 10 45
268 588 228 104 13 37
395 817 246 53 44 40
270 588 231 142 11 45
408 563 296 155 110 74
270 593 231 142 11 45
381 633 271 183 131 115
364 643 173 67 35 35
319 960 220 84 80 83
267 598 225 96 20 39
355 965 262 83 77 76
268 598 227 138 18 46
267 602 224 143 16 49
459 729 227 109 78 56
271 603 231 107 16 39
430 523 166 56 31 39
269 608 226 32 28 30
273 578 237 109 21 41
275 578 241 42 27 31
273 583 237 149 12 47
272 588 235 146 10 45
330 841 178 136 91 72
273 588 237 150 11 47
276 588 241 157 13 49
273 593 237 150 10 47
299 883 230 165 122 96
276 593 241 157 11 48
279 578 246 151 15 47
278 581 243 122 13 41
277 584 244 140 15 47
314 783 233 63 53 47
277 588 244 157 13 50
279 593 246 158 14 49
465 873 256 64 56 50
378 728 122 72 53 44
282 578 251 155 15 47
283 577 252 155 15 47
352 910 170 78 71 68
285 578 256 162 16 50
282 583 251 156 15 48
283 583 253 157 15 48
283 588 253 130 20 46
285 588 256 155 17 50
281 593 250 97 23 39
272 598 234 147 10 45
276 598 241 160 12 50
272 602 234 146 17 48
273 608 233 36 29 30
277 608 240 77 26 37
277 598 244 162 13 51
306 913 206 87 68 58
278 604 243 110 22 41
277 601 244 148 13 43
279 608 242 63 31 36
351 748 131 50 41 36
344 903 162 83 74 73
340 703 151 102 18 27
281 598 250 89 27 39
287 597 254 72 20 35
296 953 266 66 63 66
282 602 249 119 24 46
283 605 248 144 24 52
380 863 235 35 32 31
260 613 216 38 24 26
295 773 149 147 104 70
265 613 217 50 27 29
472 743 226 88 68 49
257 622 217 60 42 36
260 623 215 44 31 30
265 623 216 40 25 26
265 618 217 65 29 33
267 613 220 48 28 30
370 802 249 50 41 43
269 613 222 45 28 30
418 556 187 200 18 51
269 618 221 48 30 32
420 568 221 167 13 48
268 623 218 54 31 32
299 774 149 62 53 51
270 623 221 56 28 32
259 634 195 86 28 37
260 638 196 102 27 35
258 638 199 89 36 33
261 625 213 57 25 26
263 630 213 42 27 30
265 634 212 53 35 34
265 633 215 70 29 35
444 723 241 91 69 48
258 625 219 93 65 55
258 629 220 116 78 67
259 633 220 128 87 76
257 633 223 144 97 82
266 638 211 58 37 37
263 638 216 74 45 41
260 638 221 139 95 82
262 637 218 99 67 59
300 832 172 97 74 66
269 629 218 38 26 28
271 628 221 62 28 34
497 848 248 49 38 29
266 637 208 65 40 39
268 638 213 46 23 26
273 629 222 128 25 48
273 635 218 48 28 29
398 567 167 155 23 46
273 639 218 85 26 35
275 638 221 76 20 33
272 623 225 77 31 38
414 889 239 46 40 38
258 640 224 153 107 90
273 619 228 50 26 29
274 623 227 103 24 41
276 623 231 158 15 51
281 618 240 79 26 37
280 623 236 171 15 55
390 852 171 65 59 59
278 624 232 161 18 53
282 622 239 158 15 52
459 736 238 73 57 42
285 613 246 93 26 39
284 619 242 106 27 43
286 618 245 120 30 48
272 626 224 62 17 25
289 877 256 128 98 76
279 628 231 47 24 29
278 633 228 45 28 28
271 653 176 69 30 37
290 673 161 65 33 37
279 633 231 49 29 31
291 878 241 159 121 95
281 628 236 96 20 37
280 638 231 106 17 39
283 625 238 176 13 55
303 942 278 59 46 44
283 628 238 115 23 43
355 878 132 100 80 70
282 633 235 54 30 32
264 682 190 71 53 38
286 633 240 93 26 36
285 638 237 148 13 49
290 598 255 109 27 45
418 562 197 192 16 51
289 604 253 57 27 34
295 608 255 68 27 35
370 752 269 83 67 61
293 610 253 162 34 62
296 612 254 122 36 52
289 618 247 97 29 42
291 617 249 78 34 42
482 880 305 77 64 54
295 618 251 85 31 40
292 621 249 103 28 44
300 608 257 83 35 43
300 613 256 93 29 41
300 618 255 148 27 53
334 951 202 83 76 78
305 618 257 109 24 42
306 815 159 91 69 60
305 623 256 71 31 37
264 783 159 156 109 74
559 847 302 100 88 76
291 628 245 84 29 38
405 928 292 48 42 38
409 587 216 125 36 47
289 633 242 79 22 34
292 633 244 93 20 37
294 628 247 109 30 45
296 628 249 104 27 41
300 628 252 61 29 35
297 633 249 96 27 40
353 904 168 72 65 64
300 633 251 76 31 39
306 633 255 66 32 37
455 878 236 84 65 57
298 639 248 100 26 40
304 638 252 138 31 53
306 637 254 127 27 46
347 519 134 145 0 29
363 628 173 82 25 35
356 813 122 80 61 49
346 523 135 153 0 32
345 528 135 115 17 36
550 813 232 98 80 65
352 518 139 119 7 33
352 892 278 147 113 88
352 523 139 143 0 30
351 528 140 148 5 33
340 533 131 84 29 37
343 532 133 129 38 52
338 536 128 41 30 34
339 538 132 94 24 37
341 543 136 67 31 36
341 538 135 72 29 35
355 603 160 131 20 39
370 833 236 150 117 92
278 663 223 39 26 28
347 534 139 123 18 39
346 538 140 75 34 38
350 538 142 90 25 35
349 542 143 119 25 40
351 543 144 134 7 33
334 558 132 75 28 35
308 897 283 131 97 82
325 568 131 173 6 38
437 793 225 86 59 39
324 572 132 175 2 37
330 563 131 96 26 38
329 567 132 172 6 38
420 816 259 138 90 67
430 704 196 98 57 44
331 569 135 166 4 38
333 562 133 137 33 48
335 563 136 103 22 38
332 565 134 132 11 34
485 833 226 91 73 57
336 568 140 157 2 36
451 758 247 132 90 61
377 835 159 50 47 49
352 739 147 54 43 42
333 571 138 159 3 35
335 573 141 157 1 36
338 546 133 88 20 31
340 548 136 89 32 39
337 549 134 63 31 31
345 548 141 61 32 37
344 553 142 92 27 35
338 557 138 81 35 39
340 558 141 111 24 39
375 728 116 90 69 56
304 902 283 145 113 91
343 556 143 108 27 42
428 531 172 68 32 37
348 546 143 114 46 46
345 558 145 127 13 37
342 559 144 146 28 49
346 553 145 119 21 38
350 548 145 98 18 34
409 608 266 121 93 60
350 558 148 158 0 33
337 564 139 132 20 41
339 563 141 104 19 36
342 564 144 164 3 35
340 573 146 157 0 35
326 863 207 157 114 88
344 572 148 159 4 34
346 569 149 152 3 33
349 562 148 159 0 34
395 588 181 75 37 43
350 563 149 159 0 33
352 515 139 144 0 27
539 826 236 114 85 68
355 518 140 97 19 34
358 514 139 119 26 38
361 517 138 59 30 33
355 528 142 116 14 34
419 888 235 61 52 49
360 523 140 79 29 34
360 528 141 93 27 39
363 961 217 90 85 89
365 522 138 83 31 40
423 545 219 133 20 52
365 524 139 77 31 34
365 528 140 69 31 33
355 533 143 44 34 36
333 877 200 57 50 48
360 533 142 97 28 37
355 537 143 83 26 34
359 839 244 152 121 93
365 533 141 39 36 39
365 542 143 49 37 39
435 913 271 75 61 54
355 543 144 116 15 31
360 543 144 96 26 38
365 544 144 75 33 38
370 518 138 80 32 38
307 961 236 89 84 85
417 865 204 58 52 50
374 517 138 76 28 37
376 518 139 114 19 35
372 960 229 89 83 86
340 963 276 58 53 52
370 523 139 116 24 35
375 523 140 89 29 38
375 528 141 88 31 40
479 848 232 90 71 60
385 518 142 155 0 36
380 523 141 103 17 34
380 528 142 66 32 37
375 533 142 100 28 38
374 537 143 123 28 42
370 823 147 54 46 46
378 532 143 133 21 43
381 628 190 64 31 34
315 878 220 113 84 59
370 543 144 92 25 35
372 540 144 68 30 26
310 848 274 178 136 117
375 543 145 124 21 38
413 590 282 134 96 59
342 853 161 52 46 44
380 538 145 88 26 37
380 543 147 105 26 38
297 700 153 111 18 29
341 683 269 85 31 39
385 538 147 110 24 37
384 542 148 145 16 39
308 846 254 103 83 61
355 548 146 124 11 32
321 622 264 54 28 32
360 548 145 74 33 38
355 557 148 135 3 35
360 559 149 161 1 35
483 782 222 72 56 46
365 548 145 99 27 38
365 553 147 105 29 39
355 563 150 151 0 34
318 816 158 87 66 56
371 663 258 124 18 43
360 563 150 158 0 31
355 778 251 69 58 55
365 574 154 161 0 33
370 553 148 56 31 37
369 556 148 120 20 41
375 554 149 103 31 39
379 547 148 96 29 39
378 551 148 153 22 48
380 553 150 76 26 36
466 889 244 83 66 51
370 563 151 167 0 34
375 563 152 172 4 38
369 571 153 165 0 35
380 568 156 171 8 37
382 560 154 172 9 39
401 613 255 87 63 41
386 569 159 173 12 38
379 648 182 83 29 27
295 758 147 113 68 50
385 573 161 143 17 40
325 578 135 176 4 37
430 905 292 64 54 47
325 582 137 178 7 38
326 584 139 176 7 40
329 578 137 173 6 40
331 578 139 162 8 41
330 583 140 111 18 36
389 623 201 38 33 38
373 833 234 155 118 92
470 858 226 93 70 58
326 839 235 132 102 80
335 578 142 153 5 37
330 588 142 169 10 39
329 592 143 81 25 37
333 587 143 99 20 36
435 713 266 153 104 72
336 583 144 89 32 40
412 548 240 115 9 33
332 590 144 176 12 34
323 601 143 176 4 39
328 596 143 132 31 51
326 599 144 177 5 39
325 603 145 147 14 40
470 878 300 69 57 44
336 598 150 105 28 39
330 603 147 106 26 39
416 548 256 85 26 38
358 852 139 86 67 58
347 818 137 76 67 62
415 893 291 36 34 34
329 607 148 55 32 40
456 738 216 70 55 46
332 604 149 118 31 45
333 602 148 133 33 47
337 579 144 149 11 39
261 643 221 150 104 88
325 867 282 134 104 79
339 583 147 55 31 37
345 578 150 102 26 37
341 583 150 84 34 39
448 778 198 55 46 44
345 583 152 82 31 37
341 588 150 92 29 37
340 593 151 100 28 39
345 588 152 69 30 34
326 773 239 70 58 53
350 578 152 64 34 36
273 663 174 107 23 39
349 583 153 74 33 38
382 619 189 47 33 38
352 580 154 52 35 39
348 586 153 150 24 45
403 911 223 74 66 66
337 594 149 68 28 34
340 598 152 73 34 39
443 759 269 169 114 82
342 599 154 56 36 38
345 598 155 84 30 37
341 603 154 95 33 41
408 538 233 37 27 31
338 606 153 136 21 49
340 608 155 54 33 38
350 598 157 102 30 39
324 612 148 56 31 37
415 698 171 69 47 40
435 788 186 60 50 45
326 614 149 120 23 40
327 610 149 44 36 39
294 737 149 79 26 34
397 666 200 101 29 34
325 618 151 154 6 35
330 613 151 81 30 39
329 617 152 123 20 36
335 618 155 48 35 39
335 623 156 43 36 39
325 633 155 74 31 34
330 633 157 54 34 36
425 753 278 167 117 83
335 628 158 44 36 38
334 632 158 47 34 37
500 873 276 91 73 62
330 638 157 113 19 32
335 638 159 119 15 28
340 613 156 44 37 41
344 612 158 56 30 35
339 622 158 84 33 38
388 569 298 182 130 109
343 616 158 94 42 44
395 678 186 93 64 51
383 902 292 41 39 39
419 802 178 61 49 45
345 618 160 51 34 38
374 623 182 72 29 34
341 623 159 99 30 36
445 728 246 118 91 59
293 913 240 169 132 107
345 623 161 101 29 38
346 614 159 128 26 43
345 944 195 88 79 79
347 610 159 140 15 37
350 613 161 136 15 36
337 629 159 59 33 36
415 879 216 65 58 57
340 628 160 101 26 36
350 618 162 101 27 39
470 848 231 87 65 56
349 622 163 95 19 36
410 648 286 191 131 103
351 623 164 141 12 37
382 583 281 146 101 90
345 628 162 76 33 37
407 935 271 73 61 62
340 636 264 48 27 30
347 630 164 89 30 34
346 633 164 116 20 31
350 628 165 97 22 35
333 701 268 84 19 33
330 908 295 146 117 97
350 633 166 119 21 32
350 638 166 118 15 27
402 668 226 62 30 35
355 583 155 80 33 38
358 576 153 123 13 33
360 578 154 151 5 34
360 583 155 82 27 37
413 623 286 147 103 67
355 588 156 93 26 36
355 593 157 129 17 36
360 593 158 133 16 37
365 583 156 156 11 40
365 588 157 102 27 39
265 773 217 160 118 90
298 933 216 68 63 65
364 592 158 78 33 42
325 663 155 55 34 35
367 589 159 59 36 39
365 594 160 86 29 40
554 790 227 89 75 66
354 597 158 87 30 37
359 596 158 138 15 39
360 598 160 133 15 38
416 658 276 161 108 78
361 594 159 176 15 38
370 578 156 172 5 38
295 837 196 52 43 42
360 623 264 188 14 60
370 583 157 173 7 37
474 688 196 97 74 56
376 579 159 174 10 37
297 897 275 164 114 99
373 581 158 173 9 40
368 586 158 171 13 44
370 588 160 100 24 39
450 803 216 67 55 51
468 857 248 47 41 40
360 603 162 169 8 39
382 688 126 73 54 44
359 607 163 122 18 39
365 598 162 144 19 41
367 600 164 67 29 34
364 602 163 159 11 43
362 605 164 157 15 37
375 593 166 41 33 38
380 583 162 137 20 42
381 584 164 92 24 38
385 583 166 42 34 39
380 588 166 167 17 44
292 758 148 129 94 61
407 579 252 153 13 46
379 592 167 126 18 40
384 587 168 47 26 34
331 966 222 93 90 93
386 588 170 59 30 39
382 590 169 186 19 50
384 592 172 137 22 42
420 794 278 192 142 113
371 594 164 44 34 42
376 599 170 48 33 38
371 604 170 45 33 38
350 798 240 189 136 116
368 606 168 96 45 49
373 607 173 139 45 57
376 604 174 106 41 50
445 753 186 62 50 44
380 598 172 83 35 42
330 768 146 65 51 45
381 599 175 64 32 37
384 598 176 149 24 45
300 549 273 182 19 58
474 868 257 83 76 71
378 601 173 71 27 31
380 603 176 58 32 37
379 607 177 53 33 38
380 608 181 50 35 38
383 601 178 36 32 39
408 551 264 127 29 52
382 604 179 48 36 42
385 603 181 75 34 41
399 831 229 36 31 30
385 608 186 60 33 37
354 612 163 93 29 38
426 860 229 40 35 33
355 623 167 113 25 40
470 703 211 89 71 54
359 618 167 98 33 39
395 523 147 154 2 33
358 622 168 68 29 35
474 778 227 81 61 49
355 713 281 173 19 56
360 623 170 77 29 36
364 612 168 122 28 41
315 918 292 182 138 117
365 613 170 83 34 39
426 914 241 79 70 69
361 619 169 62 32 35
365 618 171 52 34 37
367 619 174 38 35 39
366 623 175 51 33 38
354 633 168 113 22 33
356 628 169 92 29 38
406 888 211 60 53 54
356 633 169 82 28 31
399 693 151 76 56 43
357 624 169 59 26 33
360 628 171 109 26 39
360 633 172 72 32 35
386 928 211 76 67 66
354 638 168 117 16 28
350 672 263 137 13 44
391 539 149 79 36 40
386 693 141 69 46 41
365 628 175 68 31 36
363 638 173 74 32 34
366 638 174 59 29 33
371 613 175 56 35 39
374 613 177 93 31 41
368 616 173 46 37 37
376 613 180 120 24 41
320 803 228 178 131 107
373 616 178 38 30 36
329 663 258 163 20 53
375 618 181 49 31 39
310 573 266 171 16 53
377 610 180 52 29 33
379 613 182 126 23 40
381 613 186 100 26 38
330 839 176 134 89 69
385 613 191 76 36 39
372 849 149 49 44 45
377 619 184 55 28 36
342 951 202 90 84 86
384 618 192 47 33 36
371 628 180 84 28 32
369 633 177 45 33 35
297 913 280 176 138 118
460 763 221 125 94 73
371 633 179 37 34 37
372 638 179 36 33 37
379 628 187 75 31 33
377 632 184 50 35 36
405 896 286 32 31 32
290 811 158 138 102 80
390 848 226 40 36 34
380 633 186 57 34 35
275 678 221 40 27 28
380 638 186 66 31 32
385 638 191 101 22 31
383 639 188 92 25 29
388 552 153 166 7 36
362 695 116 75 61 56
355 558 282 147 15 46
315 928 291 177 135 116
366 694 116 79 64 55
289 918 256 192 149 128
366 695 113 86 70 62
366 694 122 69 57 49
365 696 117 77 60 52
366 698 122 75 58 46
386 603 290 177 127 106
350 573 280 136 15 44
367 701 123 66 49 37
309 722 249 169 15 54
370 689 117 78 57 40
376 685 122 80 59 50
375 684 126 72 54 42
371 688 126 64 50 42
373 686 125 70 55 45
288 908 261 127 107 93
380 688 121 82 60 47
363 727 119 64 52 47
370 693 112 80 59 38
400 933 292 64 55 51
376 693 107 81 60 37
372 691 108 81 59 38
422 743 169 58 44 37
370 697 111 67 52 35
375 698 113 77 58 42
375 704 112 71 54 39
377 700 106 88 62 43
378 704 107 77 56 38
370 693 116 77 62 47
368 692 120 71 58 49
375 693 117 82 64 46
315 842 181 122 98 82
368 691 126 60 48 43
358 896 168 66 58 59
330 948 296 71 66 64
371 698 116 75 62 50
370 628 262 162 17 51
369 698 120 74 58 45
375 703 121 79 67 58
369 704 126 65 49 38
377 694 120 76 60 45
381 693 126 65 49 38
340 868 186 46 43 45
403 674 207 35 31 33
380 702 114 84 62 49
381 703 126 52 42 34
384 704 121 68 59 52
384 702 126 55 43 35
352 748 127 56 46 41
352 758 127 70 63 59
398 622 229 84 26 41
384 793 159 62 54 53
352 764 122 64 53 43
351 768 121 75 60 49
367 719 121 68 56 47
385 583 291 178 129 109
365 728 116 75 55 42
385 773 265 70 57 52
362 728 121 55 45 36
366 724 117 72 55 45
491 890 241 87 72 62
311 905 202 174 120 93
365 723 126 71 62 56
362 725 122 52 42 32
392 590 180 129 49 64
363 726 127 87 79 73
362 730 118 77 59 43
365 733 117 60 46 38
375 712 112 73 54 34
372 716 111 91 64 48
379 708 107 72 53 38
411 647 255 119 92 62
380 708 111 79 63 49
427 759 174 69 51 46
379 713 111 74 53 37
378 956 251 66 62 63
394 688 278 168 123 100
379 716 111 75 56 37
372 706 117 72 59 48
375 713 116 83 62 46
374 711 124 58 47 38
371 715 115 89 69 52
360 703 282 66 28 34
371 714 121 66 51 41
370 718 117 83 62 48
370 718 121 69 55 45
375 718 116 91 64 49
375 718 119 81 62 50
380 708 116 76 60 47
381 708 125 61 49 42
457 718 224 71 46 41
384 711 120 67 54 44
305 578 264 171 16 54
295 898 236 177 128 107
381 713 126 66 55 47
402 682 199 114 33 35
379 718 121 77 61 50
380 718 126 75 60 50
374 728 112 98 70 55
384 558 291 121 80 72
375 723 116 93 70 56
375 888 266 116 84 66
474 887 307 65 55 47
377 733 121 69 54 46
377 723 119 80 65 54
425 774 171 65 51 42
378 728 126 70 57 48
317 850 238 104 85 66
378 732 122 68 51 45
377 734 125 62 49 42
378 732 127 65 53 45
360 743 117 63 49 39
358 737 126 60 47 39
356 753 117 66 52 41
354 753 121 67 58 51
358 747 119 68 52 42
361 752 113 77 58 44
360 754 116 74 57 44
353 747 125 64 52 42
330 923 293 133 104 88
439 898 230 64 52 48
361 739 118 61 46 41
365 743 117 60 48 39
374 852 133 94 75 61
408 569 278 128 99 65
482 797 235 73 59 45
367 744 119 78 56 44
365 748 116 68 51 41
363 752 113 72 56 46
270 728 172 100 32 32
364 752 116 70 55 43
367 749 121 76 61 50
410 826 236 36 31 29
353 755 124 71 67 65
356 758 122 69 59 54
355 763 121 66 52 43
330 874 290 144 113 84
356 765 118 73 53 43
360 762 120 88 65 53
360 764 118 85 62 50
360 768 118 83 62 51
465 768 221 93 66 50
410 553 236 118 9 35
353 761 124 59 51 46
365 764 118 83 64 54
388 871 183 59 55 57
365 767 118 84 65 53
367 761 124 74 62 54
370 738 118 72 53 42
368 741 118 79 57 39
374 737 118 85 64 50
280 813 162 192 133 100
351 773 121 87 66 51
375 738 121 72 57 47
377 738 126 58 46 40
420 563 206 184 14 51
373 742 122 71 54 47
375 743 126 61 48 42
345 913 171 86 77 76
370 748 126 71 55 46
437 728 200 75 63 56
368 752 128 74 57 48
406 693 166 56 45 39
328 882 204 74 62 54
429 813 231 90 57 43
368 758 127 80 65 54
275 743 161 117 94 67
392 884 194 62 57 56
368 764 122 68 54 45
368 763 126 65 55 48
439 777 190 68 51 46
301 863 271 160 93 106
395 899 276 32 32 33
368 767 121 67 54 46
369 768 126 54 44 40
269 644 175 129 15 40
420 861 228 38 35 33
272 647 173 147 18 43
266 643 181 163 3 42
268 645 179 163 2 38
265 643 186 156 6 41
548 821 233 107 82 69
264 643 191 132 14 37
287 909 252 148 122 106
