ply
format ascii 1.0
comment Created by Open3D
element vertex 2230
property double x
property double y
property double z
property uchar red
property uchar green
property uchar blue
end_header
261 740 343 159 19 53
258 751 341 150 112 88
260 830 279 86 66 59
270 740 349 165 20 53
270 745 348 158 19 51
268 746 346 155 19 50
261 760 342 167 125 97
260 765 342 173 128 99
270 760 345 60 49 47
272 758 347 45 41 39
270 765 345 107 85 71
275 770 245 77 60 52
275 750 350 172 20 55
280 750 350 166 22 56
285 750 350 65 32 37
275 755 348 128 35 53
275 758 347 70 58 55
275 761 346 64 53 49
280 755 349 116 48 58
284 758 347 86 72 64
277 744 352 179 17 57
285 740 354 76 28 37
311 710 350 143 1 45
311 720 351 166 0 54
320 715 344 162 6 52
312 725 351 176 1 57
350 735 324 151 30 56
310 735 349 79 23 38
318 852 332 118 94 68
319 725 343 174 9 56
317 725 346 174 5 55
320 735 340 107 31 45
327 875 201 104 85 75
318 735 342 145 18 49
314 730 348 176 9 57
316 730 345 174 11 56
295 710 359 127 22 45
357 761 306 91 70 61
290 720 360 179 17 57
295 715 360 141 20 48
295 720 360 109 23 43
335 700 335 53 26 33
302 709 356 141 13 44
385 735 279 47 29 33
303 712 357 146 12 43
290 725 359 186 17 61
290 730 357 119 23 47
290 735 356 70 31 39
288 733 357 25 28 33
303 724 357 171 12 55
300 735 355 146 21 51
305 730 354 177 12 57
305 735 353 176 16 57
309 715 352 155 0 50
308 733 352 154 18 48
290 750 350 101 34 47
295 746 351 58 31 35
295 750 349 99 35 45
300 745 350 133 27 50
302 742 351 188 18 62
305 740 350 165 19 55
300 750 348 69 27 36
295 759 343 89 71 62
290 755 348 101 59 60
353 753 312 88 66 57
338 846 298 139 109 85
295 765 339 86 68 59
304 759 338 88 68 58
306 756 340 90 69 60
299 753 347 56 40 41
281 856 300 112 74 50
297 767 336 85 67 56
400 536 278 78 7 29
340 715 330 97 30 42
306 761 335 86 66 56
303 763 337 86 65 57
315 750 334 90 69 58
317 747 336 92 70 59
321 750 330 92 71 60
319 749 332 92 70 58
309 740 348 65 27 35
370 795 174 85 63 53
311 741 346 40 28 32
308 744 347 169 24 59
311 751 339 87 68 59
377 698 268 117 7 36
394 817 199 98 83 72
404 854 229 78 62 53
309 750 343 93 57 57
307 747 346 178 19 58
320 740 339 52 33 36
504 569 277 134 80 79
314 749 338 89 68 60
312 761 331 85 66 56
311 765 330 84 65 56
309 765 332 85 65 54
316 756 331 88 69 57
315 760 329 86 66 56
401 811 244 149 96 74
320 765 324 85 66 56
307 757 336 88 67 57
411 869 339 69 55 44
309 754 338 88 70 58
410 870 344 67 53 42
308 753 342 88 69 61
360 867 299 30 28 28
312 752 336 89 69 59
359 852 278 30 28 27
340 695 333 46 27 30
290 740 354 126 33 51
290 744 352 105 34 47
342 644 316 62 26 34
345 645 314 75 24 36
367 921 324 63 55 52
343 650 317 32 25 28
341 655 320 64 25 35
343 655 317 128 22 47
349 645 309 91 27 39
351 655 309 106 20 41
341 660 320 159 20 53
344 660 318 160 16 50
454 554 278 86 37 28
342 664 320 118 12 40
331 750 320 83 64 55
349 665 314 108 16 39
345 670 320 56 25 31
384 765 278 79 63 56
348 667 317 87 27 41
351 670 315 37 28 30
350 675 318 96 25 40
361 645 259 36 30 34
363 645 265 40 29 35
481 594 309 122 11 40
364 645 269 93 27 41
362 649 258 38 30 34
293 852 272 182 128 98
364 650 264 45 30 35
364 650 269 85 27 39
365 655 269 57 29 33
360 645 284 112 21 41
358 645 289 156 18 49
359 650 289 57 22 33
363 646 273 132 31 49
426 570 329 143 19 48
362 645 275 57 23 31
361 645 279 87 29 40
363 650 274 87 27 39
363 651 277 44 25 29
364 655 274 126 25 45
361 655 284 92 19 36
365 660 259 44 31 36
459 591 313 120 13 37
366 660 264 47 29 34
367 665 264 118 28 44
367 665 269 107 27 43
367 670 259 64 31 37
367 668 263 59 27 36
392 532 257 106 25 29
364 665 284 88 22 37
360 710 324 34 28 31
362 664 290 144 11 44
363 666 288 144 14 45
429 604 259 197 131 106
315 820 308 156 115 89
367 669 274 93 30 42
367 670 279 59 26 34
366 670 284 90 21 37
365 670 289 140 12 43
368 667 268 80 17 31
390 819 209 67 53 45
368 670 269 56 30 38
305 844 334 111 89 63
368 672 278 41 28 29
358 647 292 157 16 45
355 645 299 142 14 45
353 645 303 103 20 41
357 650 295 153 14 47
455 549 285 113 10 33
358 650 293 137 15 45
354 650 304 64 20 31
357 655 299 138 12 44
358 656 297 149 10 46
353 655 307 142 21 45
288 840 305 162 116 93
360 660 294 146 9 45
355 660 304 147 14 45
358 660 298 144 7 45
356 665 305 140 10 44
390 557 320 109 10 38
360 670 304 135 9 43
361 665 294 142 7 44
399 805 199 72 56 49
447 558 310 79 11 27
364 670 294 138 5 42
444 572 266 135 102 62
362 668 296 140 5 44
353 660 307 149 15 47
400 591 389 156 18 50
356 670 309 108 15 39
358 671 308 134 12 42
354 671 313 44 27 31
367 673 281 34 28 33
345 815 185 82 66 56
330 665 329 132 14 42
369 680 259 138 19 43
369 675 269 70 28 36
370 680 269 137 19 43
371 685 269 146 17 43
368 675 279 87 27 40
370 680 279 140 15 42
368 676 284 130 19 42
370 680 284 136 14 41
368 676 289 143 15 44
351 911 371 49 44 42
370 680 289 132 13 41
351 746 316 86 66 55
358 939 290 74 67 69
372 684 279 132 14 40
373 687 274 145 17 43
313 856 257 53 47 46
372 684 284 124 11 37
372 683 289 117 2 36
326 741 331 89 69 61
387 892 320 62 52 47
374 686 289 111 6 36
372 690 264 152 20 46
372 694 258 150 18 47
372 693 262 151 18 46
373 696 260 140 16 44
373 692 266 150 20 47
376 695 269 122 8 38
375 700 259 121 11 37
400 559 268 47 31 32
376 699 264 120 8 37
377 704 258 138 16 44
516 867 241 115 100 86
377 703 262 137 15 45
379 705 264 146 18 46
442 802 172 95 84 74
297 882 241 52 49 49
339 871 318 81 70 59
378 697 271 113 7 34
375 690 274 139 15 44
376 689 284 78 16 33
531 867 206 103 92 80
377 694 273 116 6 36
460 560 294 85 12 28
377 693 277 114 1 34
454 853 277 94 75 60
378 692 280 116 5 37
378 691 289 36 31 33
355 885 249 68 62 63
305 885 363 177 128 106
381 695 289 38 32 35
380 700 274 129 16 42
381 704 274 127 19 45
382 704 278 47 26 32
384 705 279 53 29 36
382 699 283 90 22 37
383 700 289 62 31 36
383 702 280 140 29 54
340 879 330 57 50 43
270 870 304 145 110 82
366 674 294 135 10 42
366 675 299 134 9 42
362 674 305 127 12 41
363 672 302 135 12 44
364 675 304 124 11 40
357 673 311 122 22 49
360 675 309 115 16 39
355 675 314 48 25 31
356 679 315 79 23 34
354 680 318 96 21 37
358 676 312 74 26 37
360 680 313 58 26 32
378 759 287 98 78 71
355 685 319 56 26 30
361 684 315 53 24 31
357 683 316 85 33 45
359 686 318 76 20 33
445 570 268 124 95 58
365 680 309 102 15 36
366 684 311 110 9 37
417 853 201 101 86 79
363 682 312 52 20 26
362 688 316 134 13 41
364 691 318 131 9 41
367 693 316 131 6 42
366 699 321 146 13 46
370 680 299 131 13 42
369 681 304 130 12 40
374 686 294 119 5 38
371 684 305 129 11 41
368 682 308 127 11 41
376 689 304 133 13 43
381 695 294 69 24 34
377 688 299 131 13 42
341 951 283 81 73 75
267 880 344 168 121 102
379 691 299 135 14 43
383 700 294 79 26 36
381 700 304 94 25 38
383 705 299 67 29 35
382 703 301 129 36 58
372 689 310 127 7 39
374 690 309 130 11 41
370 690 313 131 8 42
477 518 261 95 5 28
369 696 318 136 5 43
374 695 313 137 10 43
373 702 317 144 7 46
377 693 306 118 12 47
378 696 308 46 24 29
325 845 314 143 111 87
379 700 309 87 22 37
378 706 313 155 14 48
322 644 331 110 23 42
338 883 205 83 73 71
325 645 330 99 27 41
325 650 330 67 27 35
390 840 235 68 54 49
323 652 332 47 23 26
300 929 255 94 85 84
323 655 332 147 22 54
334 645 323 96 26 40
339 865 309 104 86 69
329 650 328 32 28 31
455 851 279 87 69 54
332 655 326 160 24 56
325 660 330 134 15 44
330 660 328 151 19 49
332 658 326 169 20 55
335 660 325 143 18 47
333 662 327 140 18 48
336 665 325 124 15 41
344 874 229 69 66 67
297 799 241 78 60 55
334 666 327 137 15 42
335 670 328 128 21 46
330 670 330 80 23 35
328 670 332 162 21 52
337 648 321 138 23 52
337 669 326 148 20 50
412 820 183 98 81 70
340 670 324 57 26 33
343 671 322 53 30 34
350 939 358 68 59 54
325 675 333 143 19 48
330 675 331 122 26 47
328 675 332 140 20 47
331 680 331 80 20 34
292 897 362 84 73 74
335 675 328 62 27 33
335 680 329 86 24 36
332 683 331 67 21 32
324 686 337 44 26 28
330 690 335 45 25 31
335 690 333 47 26 30
305 865 353 140 110 79
335 695 335 71 30 38
335 705 335 108 28 45
321 694 341 56 25 34
445 555 294 89 17 33
325 695 339 61 28 36
324 705 342 112 27 45
330 705 338 48 25 32
399 820 209 76 60 52
333 704 337 147 29 54
338 675 327 54 30 34
340 685 328 60 27 31
342 684 326 50 26 28
344 686 327 44 28 30
337 688 331 62 22 30
345 690 328 71 24 32
342 694 331 47 26 29
345 695 330 44 29 32
340 700 333 33 29 31
345 700 330 40 29 31
343 700 332 36 29 30
345 705 330 42 30 32
346 689 326 38 25 26
350 695 328 44 26 29
352 694 326 98 20 39
350 700 328 51 27 31
350 705 328 83 33 40
353 686 322 64 24 31
355 690 323 92 17 34
355 695 325 121 17 41
358 692 322 133 13 42
444 808 168 94 84 75
353 697 327 33 26 28
353 700 327 81 30 40
353 705 327 75 27 38
360 700 324 158 18 51
403 833 220 81 66 59
360 705 324 61 23 34
361 694 321 135 11 43
365 705 323 129 20 46
367 703 321 156 17 50
335 750 319 81 64 53
325 765 321 86 66 56
439 878 283 90 72 59
330 765 318 83 63 54
332 766 316 82 61 53
340 750 318 81 62 53
350 740 320 80 63 58
348 748 317 84 63 54
366 831 199 86 70 58
340 756 316 83 63 53
340 760 315 83 63 53
343 753 317 85 63 52
399 815 199 84 64 53
345 760 313 83 63 53
340 765 314 81 61 53
350 760 310 88 68 57
351 756 311 88 67 57
348 759 312 87 66 55
379 710 259 142 17 45
381 710 264 138 16 44
381 715 264 133 19 46
382 715 267 148 19 49
383 715 269 165 20 51
395 585 314 87 11 34
383 720 269 132 21 44
383 706 275 128 17 42
403 810 206 67 51 42
381 725 259 75 30 38
384 730 264 70 28 37
395 575 312 42 24 25
365 720 320 188 18 62
421 889 279 64 54 47
367 726 316 191 6 62
508 583 256 195 112 110
364 729 318 189 11 61
365 735 314 170 22 58
366 730 316 191 10 61
362 736 316 187 19 61
408 840 216 85 68 58
382 710 305 38 29 33
384 715 299 89 34 44
383 714 302 44 28 34
382 721 300 54 33 35
370 710 320 167 17 54
375 710 315 168 7 53
369 720 318 179 14 58
400 545 265 78 28 35
371 721 316 189 9 61
306 969 295 86 81 83
375 715 315 180 7 58
375 720 314 188 7 60
379 715 312 179 11 56
378 718 312 182 10 58
383 725 294 138 27 49
383 724 297 40 29 37
382 725 299 59 31 37
380 725 304 66 31 39
383 729 293 92 28 40
383 735 289 70 29 36
381 735 294 48 30 35
383 733 292 54 23 26
379 730 304 138 28 50
378 735 303 91 28 39
380 735 299 60 31 36
265 770 343 183 135 105
371 735 310 142 19 51
372 731 311 190 14 59
375 730 309 192 14 60
267 885 306 167 123 98
374 735 308 193 18 61
370 730 313 190 11 60
369 734 312 147 18 51
379 725 308 146 20 50
377 732 306 168 23 57
377 736 305 162 24 54
384 740 284 112 29 44
383 744 287 107 57 57
384 760 278 82 66 57
381 755 284 97 78 70
382 756 281 95 76 68
381 760 280 94 75 66
407 858 215 83 72 64
365 750 304 94 72 63
416 575 349 160 20 50
367 752 301 93 71 64
355 745 314 87 67 58
353 743 317 85 66 60
356 741 316 83 67 60
361 746 310 90 69 62
422 560 282 39 33 36
360 750 309 90 69 60
395 579 274 107 19 31
354 750 312 87 66 57
366 741 311 48 41 42
365 745 308 90 72 64
364 740 313 83 36 45
363 749 307 93 70 61
366 746 305 92 72 64
360 760 304 92 71 62
364 829 258 42 33 32
474 585 314 129 7 39
356 765 305 89 69 59
361 766 300 91 71 62
361 755 305 92 71 62
366 755 300 95 75 66
364 765 298 92 71 64
362 762 301 93 72 63
367 762 296 94 73 65
355 760 308 89 69 60
380 822 227 65 51 49
359 754 308 90 70 61
352 767 306 88 70 61
320 875 204 101 82 68
375 745 299 69 55 53
370 750 299 94 73 67
374 749 298 94 76 66
380 740 294 94 31 41
379 745 294 92 58 58
382 740 290 147 29 51
379 740 299 68 33 38
377 741 300 65 28 34
322 824 231 63 53 51
378 743 297 97 37 45
377 746 296 83 68 63
378 749 292 90 73 67
373 759 292 95 75 69
372 752 296 97 76 71
369 765 293 93 74 66
331 720 335 103 30 42
286 832 306 132 90 71
335 715 334 67 26 36
332 715 336 55 25 31
329 715 338 116 20 43
328 719 337 159 25 55
369 884 254 70 60 58
278 796 252 75 60 52
336 721 331 172 21 57
335 725 330 169 21 55
333 724 332 147 28 55
305 898 230 74 65 63
331 736 331 80 58 53
335 730 330 132 26 48
399 794 195 90 68 54
322 726 341 175 14 56
325 725 339 175 16 56
327 726 336 176 16 55
302 907 237 104 94 93
324 730 338 117 21 45
321 730 340 141 16 49
324 735 338 34 28 30
400 595 318 67 26 34
328 724 337 174 19 57
465 600 327 166 10 53
435 585 334 184 2 57
339 710 332 68 32 37
345 880 238 62 59 59
342 706 331 34 30 31
340 720 329 88 31 42
345 720 327 120 24 44
350 710 327 64 31 37
352 711 326 114 29 49
310 775 328 81 60 52
350 895 349 37 35 36
340 735 328 74 56 51
340 730 328 146 30 54
345 825 195 70 57 51
345 735 325 90 49 51
348 729 327 176 17 54
350 730 326 182 18 59
331 860 204 92 75 63
280 925 259 86 76 73
321 742 335 84 67 58
324 744 332 92 71 61
325 745 329 92 70 60
326 750 325 92 71 61
322 747 331 94 72 62
425 588 290 73 22 32
330 740 329 87 67 59
378 868 246 66 57 54
334 739 327 86 67 59
335 741 325 85 65 57
328 738 332 85 66 60
329 749 323 88 67 58
332 747 321 83 66 54
295 819 318 124 84 67
307 779 226 76 60 53
335 747 321 83 64 54
323 738 337 33 28 33
323 753 327 92 70 62
325 760 323 88 68 59
340 740 325 79 61 54
323 816 228 71 58 53
344 743 322 78 61 53
355 710 326 73 30 39
355 715 325 124 31 47
365 710 323 52 28 36
367 712 321 54 16 27
363 719 322 181 20 58
355 725 325 44 28 32
390 594 424 182 19 61
359 725 323 63 26 34
361 925 283 76 67 67
355 730 323 89 25 40
357 732 321 71 16 31
362 722 321 188 21 63
404 842 215 85 70 61
400 525 259 68 14 26
386 546 258 71 28 30
390 540 259 101 23 29
390 544 268 103 23 28
390 542 270 97 24 29
395 530 259 115 20 31
394 535 260 130 17 30
399 529 261 85 18 23
401 531 263 91 17 28
397 535 262 116 18 29
295 880 274 93 77 63
397 532 262 118 17 30
400 535 264 92 21 31
399 535 269 102 17 30
395 540 262 85 24 30
269 836 273 139 104 81
392 541 262 107 23 29
395 545 264 97 23 35
399 540 259 90 32 42
390 539 279 78 22 32
390 540 284 72 23 32
390 541 289 64 25 32
396 536 274 79 12 27
394 538 274 86 17 31
395 538 279 76 11 30
395 540 284 75 17 32
400 541 283 69 14 29
405 521 258 69 8 25
402 522 257 64 15 28
404 524 260 79 4 30
406 526 262 79 6 29
374 824 258 42 35 34
411 516 257 70 2 25
410 520 260 77 2 28
523 862 243 103 87 73
420 881 314 67 56 51
277 928 261 89 78 74
467 574 305 139 7 42
294 814 322 39 37 39
415 515 259 82 0 27
461 890 229 101 84 69
415 521 259 127 10 35
416 517 262 85 0 27
411 525 259 147 12 39
329 815 209 60 52 50
412 521 262 82 0 31
416 525 264 138 14 35
419 594 312 103 21 41
416 526 269 125 12 35
405 530 263 109 9 32
404 535 259 148 19 41
405 535 264 144 9 34
279 875 293 142 112 82
404 539 260 147 19 41
405 540 264 144 11 35
410 530 259 161 13 40
425 810 179 107 86 70
409 533 260 154 14 36
410 535 264 156 13 37
415 530 264 152 14 36
415 535 264 154 14 36
409 530 269 112 8 31
414 539 265 148 12 36
402 532 272 104 11 30
405 535 279 97 8 32
405 545 284 65 17 26
410 531 274 94 5 30
293 890 264 50 47 48
412 534 273 130 11 34
410 532 277 100 8 30
411 541 273 114 11 30
410 545 274 68 22 30
415 540 274 111 13 32
408 538 281 88 14 30
415 537 282 89 15 29
420 596 310 112 30 47
415 543 286 76 14 24
415 546 288 67 18 25
390 541 299 58 37 31
395 541 294 57 29 31
398 542 294 60 29 30
395 542 299 59 36 30
397 543 300 61 36 29
400 543 299 60 34 28
396 543 304 61 39 29
400 543 304 60 37 29
431 561 329 114 16 36
390 541 309 59 45 33
395 542 319 61 47 35
425 520 268 101 6 30
488 592 293 140 14 45
400 543 314 63 42 31
369 840 219 66 58 56
399 542 319 62 46 34
401 543 319 64 44 32
390 555 259 60 26 31
391 560 263 58 27 32
399 548 266 72 26 33
481 583 261 163 97 79
395 560 265 54 29 32
397 558 267 43 30 30
386 569 258 38 28 34
390 570 258 35 30 35
398 567 261 42 29 32
395 570 260 35 29 35
397 572 262 44 32 33
404 555 271 63 27 32
410 557 271 45 32 35
410 550 274 50 28 31
412 558 272 38 33 36
415 560 274 39 33 37
404 565 265 50 31 31
403 562 266 55 31 34
346 891 243 63 58 59
406 565 267 42 32 33
405 570 269 70 30 33
403 574 271 126 22 38
410 565 269 38 32 36
429 838 312 56 45 39
413 563 271 37 31 35
501 877 246 108 89 75
483 557 277 121 3 36
409 569 270 64 32 36
401 576 273 121 19 31
405 575 274 131 15 34
406 572 272 125 18 36
412 566 272 43 32 35
415 571 279 118 20 32
414 574 280 119 22 25
424 853 297 65 51 48
410 576 283 116 19 28
415 575 283 124 18 25
390 560 318 99 12 33
399 558 317 121 9 39
400 560 315 102 10 36
389 565 317 72 20 28
391 561 316 102 7 29
390 570 315 66 17 29
388 568 317 28 18 31
390 575 315 50 22 25
427 566 329 132 18 43
400 565 314 37 25 25
398 574 312 40 18 28
522 865 240 102 84 69
405 546 294 65 27 27
405 545 304 57 35 27
411 548 294 68 24 26
410 547 299 53 30 24
413 547 303 49 32 23
405 545 314 61 40 29
406 559 318 108 14 36
405 561 316 65 20 30
408 547 319 58 45 29
414 551 314 56 37 27
410 555 320 88 25 31
405 565 313 77 18 33
408 567 311 79 12 37
410 565 315 92 17 34
340 815 189 76 63 54
414 562 316 91 16 32
410 571 310 44 23 27
410 575 309 40 25 25
415 574 308 58 15 28
416 576 306 44 24 26
415 572 310 53 20 25
412 849 205 166 151 148
420 516 264 87 1 28
425 519 259 174 19 42
420 521 265 125 11 30
425 521 264 149 17 38
332 869 311 124 102 83
425 524 264 150 17 41
429 546 281 49 28 32
471 579 314 134 1 43
425 526 269 72 24 34
430 515 269 80 0 25
430 524 265 142 23 42
413 770 154 96 78 66
420 529 264 155 17 43
454 557 298 84 18 30
418 533 266 154 15 39
420 534 270 142 21 45
424 534 271 77 28 36
420 535 274 79 25 33
425 535 273 60 31 33
345 916 264 75 67 69
420 540 279 98 18 32
417 541 277 92 18 30
388 898 296 52 41 43
425 540 279 115 20 36
420 545 276 71 24 30
418 537 282 90 19 31
420 546 289 68 16 26
427 531 272 66 23 30
431 535 279 86 27 39
426 536 280 113 21 39
431 539 275 82 36 39
481 599 304 115 23 42
427 537 282 100 18 34
430 545 284 54 28 34
435 516 259 172 19 42
438 513 256 175 18 43
440 515 259 175 20 42
435 515 269 95 2 30
446 808 166 95 83 74
394 603 317 89 34 40
440 520 268 113 2 35
441 521 262 170 20 39
440 525 269 142 14 39
445 520 264 166 20 42
402 834 201 92 71 57
445 523 265 164 19 42
440 526 273 124 14 35
289 905 249 64 59 58
435 534 271 76 29 38
439 530 271 96 25 37
446 529 269 151 17 41
435 530 273 77 27 34
435 534 274 69 28 36
440 530 273 86 22 34
412 830 194 90 74 60
440 534 275 81 29 37
435 540 284 66 25 33
436 544 280 54 26 29
408 795 218 56 42 35
440 545 284 89 16 30
445 530 274 120 13 38
445 534 275 109 20 37
445 536 277 100 24 36
445 540 280 86 24 34
310 820 310 158 112 85
439 545 280 68 28 32
445 544 281 82 22 34
445 545 284 90 19 34
418 548 276 47 26 28
420 550 280 44 29 32
425 546 289 73 13 27
480 580 294 155 4 49
550 857 210 103 91 79
422 549 282 49 25 32
420 555 280 44 33 35
420 560 280 42 31 36
422 555 282 41 34 34
425 555 284 48 30 32
425 560 284 45 33 35
430 550 284 49 27 31
430 555 288 65 21 33
428 558 286 56 28 32
430 560 289 66 26 35
427 572 270 110 82 46
430 570 269 110 82 43
430 574 267 110 83 51
430 575 264 110 85 54
430 876 304 86 68 60
424 565 284 52 36 38
425 565 289 61 38 36
478 524 262 75 21 28
423 574 278 105 42 30
421 576 280 108 35 28
425 570 284 89 33 36
423 573 284 119 26 30
427 572 274 107 80 41
430 569 284 73 41 35
435 549 285 53 28 31
438 546 287 93 10 30
446 550 289 92 22 36
446 547 287 96 15 37
441 560 289 106 21 29
445 559 284 93 38 29
443 558 288 91 22 25
459 562 304 106 7 35
445 561 280 101 71 42
440 566 270 114 89 57
435 575 264 114 90 60
435 576 260 117 91 58
435 572 266 110 87 60
458 869 263 85 69 60
435 566 279 102 62 41
432 567 280 89 56 46
432 567 284 81 42 39
429 565 291 57 36 39
435 566 289 90 24 35
412 579 381 161 0 52
433 568 277 107 70 39
445 564 274 111 86 51
444 563 278 109 82 43
420 548 291 66 18 26
408 773 186 68 50 45
423 548 291 62 17 26
420 550 304 49 27 25
426 547 293 73 12 27
428 547 292 72 9 29
430 551 299 68 12 26
420 551 309 52 30 24
425 553 310 62 26 27
460 890 249 97 80 67
466 575 324 133 3 41
420 555 314 71 29 28
425 555 314 79 22 30
365 800 179 72 56 47
425 560 319 80 21 31
430 554 309 72 17 29
431 553 305 69 18 27
430 557 318 73 22 25
429 559 320 79 22 27
424 571 292 91 31 39
421 573 293 100 32 34
431 564 293 72 33 35
420 565 318 76 19 28
424 565 320 92 19 31
420 574 309 57 16 29
425 576 309 43 25 28
423 572 315 69 19 26
384 784 170 69 53 43
426 575 319 116 22 39
296 834 256 178 126 100
489 580 288 152 2 48
434 551 299 67 17 25
465 604 319 115 13 33
434 555 290 72 17 31
435 555 294 73 17 26
440 554 294 84 20 30
437 554 298 77 15 26
347 794 181 66 56 55
434 552 303 66 16 24
440 555 299 80 17 27
294 823 313 113 77 60
410 855 329 59 47 39
305 930 373 48 44 43
273 894 297 127 99 72
440 554 304 73 16 27
438 559 297 93 22 31
442 547 294 81 16 29
417 868 213 92 78 67
444 551 292 95 19 35
328 809 218 54 48 48
314 882 222 70 61 59
435 554 309 70 16 26
435 556 314 75 16 26
435 557 319 75 18 26
413 862 259 84 71 69
444 557 319 81 13 28
446 558 319 82 13 28
438 563 294 119 23 42
433 568 290 68 22 36
390 540 324 62 50 38
390 539 334 62 49 38
490 890 234 96 82 69
399 542 324 63 46 35
399 542 333 67 47 37
401 544 335 66 45 36
390 539 339 63 49 38
394 582 378 133 22 44
389 542 348 66 50 41
390 545 349 61 34 29
385 836 253 39 34 32
394 541 339 65 47 38
393 542 343 66 44 37
396 545 340 64 44 35
394 545 344 65 47 34
402 543 329 68 45 35
404 545 329 66 46 35
390 556 324 121 7 40
395 551 335 111 12 36
400 550 336 79 23 31
402 837 228 79 61 50
395 556 324 123 6 42
400 555 329 122 3 39
400 556 324 123 6 41
395 553 333 120 4 40
439 805 177 97 84 75
400 553 333 118 5 38
390 549 344 88 16 32
394 549 338 80 32 30
393 548 344 80 36 28
393 545 348 62 33 29
392 552 336 123 0 38
404 546 334 68 43 33
300 940 370 70 66 65
405 550 334 77 33 30
404 554 333 102 16 34
408 551 327 73 37 32
408 554 323 95 17 33
404 550 337 68 23 27
388 552 363 86 13 32
400 770 149 90 71 54
388 552 361 101 24 38
388 555 364 90 20 34
389 556 369 97 21 29
389 558 381 100 10 30
396 556 370 99 17 29
395 560 369 120 19 35
400 555 374 91 13 25
400 560 368 120 18 37
395 558 381 96 11 30
400 556 379 91 7 27
386 562 367 105 17 35
399 570 368 127 20 41
390 570 370 110 20 37
327 870 201 92 73 61
395 565 368 127 20 41
395 570 369 128 20 42
400 575 368 107 20 38
410 560 364 135 20 44
451 842 176 97 84 73
415 556 364 151 15 48
306 786 326 74 57 49
413 559 363 150 16 47
416 557 360 156 17 50
415 560 359 152 20 48
405 556 370 105 15 35
410 554 374 116 18 36
415 560 374 160 9 49
331 901 244 69 62 62
410 556 379 135 13 42
411 560 380 145 10 44
405 565 364 116 24 39
510 870 245 100 83 67
402 570 366 124 20 41
291 815 251 79 61 54
405 570 363 115 23 37
407 570 361 125 26 41
407 575 361 113 22 36
411 565 360 147 22 46
415 575 369 189 0 57
415 565 374 152 2 47
403 585 397 157 5 46
412 565 380 150 0 45
410 565 384 143 5 45
412 570 381 166 0 51
412 575 384 168 0 53
284 841 300 151 104 82
430 560 324 97 18 32
421 561 350 168 17 51
458 575 267 141 99 63
429 559 343 126 13 37
435 860 292 123 99 78
431 556 345 122 11 35
426 556 350 144 16 44
423 575 334 157 19 53
426 565 324 114 18 38
426 570 324 123 20 41
267 901 342 122 97 77
426 575 324 137 22 45
424 564 343 164 17 51
425 565 339 150 16 47
421 566 345 172 16 54
420 565 349 174 18 53
419 575 344 149 21 48
423 569 338 166 19 55
420 570 344 165 17 51
365 815 274 74 57 52
420 576 349 179 11 54
425 576 349 195 2 61
430 574 348 191 0 59
434 558 324 85 19 28
436 557 324 80 19 27
461 893 224 102 84 67
420 600 263 177 119 106
440 556 324 80 18 27
437 557 328 96 16 31
440 558 334 95 14 30
444 556 324 82 16 27
435 555 344 119 12 35
409 838 319 41 35 31
434 558 338 107 14 32
405 829 214 85 67 58
436 557 340 110 14 32
439 557 348 141 15 42
445 559 339 111 10 35
442 558 345 134 13 40
437 567 351 184 1 59
435 570 349 187 0 58
445 565 344 176 8 54
415 595 263 142 97 90
445 575 339 185 0 58
418 893 288 68 59 55
425 555 354 148 16 46
435 578 342 188 0 60
267 888 342 171 120 105
419 560 368 187 13 58
296 796 326 71 55 48
296 849 266 173 120 94
425 560 363 175 10 55
429 556 358 137 15 42
430 560 359 151 10 44
427 558 361 148 15 45
428 560 362 172 9 53
417 561 355 163 20 48
418 564 352 167 19 50
420 565 364 197 1 60
418 564 368 181 6 53
425 564 362 193 2 59
421 567 361 196 0 62
420 575 354 202 1 62
418 574 358 204 0 61
425 570 354 193 0 59
424 574 353 197 1 60
417 570 365 201 0 61
504 552 264 108 91 73
418 570 363 202 0 62
416 570 369 191 0 59
416 575 364 192 0 59
431 567 356 189 0 59
435 560 355 146 12 43
435 565 354 185 3 58
438 564 352 184 7 60
434 569 353 190 0 59
379 869 250 69 60 58
387 577 257 61 28 35
387 582 264 112 27 37
296 885 259 43 40 43
390 580 264 118 26 40
268 864 319 157 117 91
394 578 265 112 21 34
391 750 259 134 97 65
394 579 269 107 19 35
386 582 274 96 19 36
390 581 284 108 24 40
390 581 289 118 28 41
395 580 279 118 19 40
395 582 284 117 30 40
400 583 286 121 16 25
400 585 289 123 14 24
416 582 259 107 81 48
415 585 264 102 68 57
408 588 256 100 72 52
409 590 260 106 67 60
411 590 262 108 68 65
404 578 280 111 22 28
405 580 284 111 21 28
405 585 289 102 18 24
280 846 294 158 105 80
407 577 282 104 23 25
410 586 288 80 29 35
415 586 288 84 28 33
410 595 260 131 87 81
361 877 243 71 63 62
300 815 318 138 95 74
415 605 259 183 123 107
391 583 290 137 21 40
305 880 363 171 124 100
388 587 297 130 21 37
318 800 227 82 64 55
390 590 299 106 25 34
395 591 298 110 17 34
390 585 315 80 18 33
388 587 317 67 19 32
390 590 318 55 24 30
390 588 316 72 21 32
397 578 311 33 23 23
400 585 313 54 19 27
395 589 316 69 21 34
395 591 318 41 24 29
390 567 392 93 9 28
400 589 315 56 26 29
390 595 304 50 32 30
395 594 300 72 25 30
400 594 299 81 18 34
390 603 311 58 40 32
467 578 325 141 4 46
390 586 424 80 13 29
445 879 269 87 72 61
390 604 314 71 29 36
395 595 320 53 27 32
400 599 318 122 24 45
400 601 309 97 24 35
396 602 314 147 24 54
405 590 294 121 13 36
476 520 276 143 1 47
410 588 291 102 20 39
415 588 290 88 23 33
415 590 294 92 18 32
335 944 368 64 57 53
402 583 311 65 17 26
430 578 343 194 0 60
405 590 315 67 20 31
410 584 311 37 21 25
415 580 308 38 24 24
410 586 312 33 24 27
415 590 313 39 27 28
406 593 296 125 13 33
336 825 200 69 57 51
408 593 296 115 0 23
410 595 299 80 24 33
465 855 284 88 69 57
412 592 297 93 8 29
338 835 202 85 66 56
406 595 316 101 23 39
416 597 311 159 35 62
410 595 315 77 25 38
415 595 313 107 26 42
390 585 419 104 6 34
321 947 355 63 56 54
290 785 333 76 60 53
413 598 312 64 25 30
425 578 258 109 86 58
425 577 260 110 85 54
422 577 263 108 81 43
420 585 268 104 67 62
267 895 305 174 128 105
423 578 266 109 81 46
423 578 269 105 77 49
419 590 265 127 88 81
422 580 274 91 56 45
422 577 276 93 62 42
310 910 364 64 53 45
425 585 274 96 62 57
420 587 288 82 27 33
425 586 284 77 35 36
426 590 273 118 82 75
428 587 276 99 66 61
429 586 279 96 62 59
429 587 284 87 53 50
428 587 287 71 38 41
420 595 265 152 105 95
425 595 269 154 107 95
381 863 279 31 30 29
425 603 262 195 131 111
499 587 263 148 76 79
425 605 259 197 131 108
500 585 259 188 90 90
432 602 260 197 132 108
430 594 273 153 108 97
439 580 260 110 86 56
438 576 261 119 92 60
346 840 279 115 89 68
441 590 258 133 95 61
442 579 262 108 84 53
407 842 327 45 38 33
445 580 264 116 88 52
443 585 261 123 91 54
446 591 269 193 127 103
315 975 309 64 60 60
435 590 279 123 87 79
440 590 279 143 102 92
436 587 283 105 73 70
441 587 286 79 44 46
441 587 289 51 24 30
438 588 289 41 29 32
445 590 279 164 114 102
445 591 274 187 130 109
445 587 286 86 51 53
445 587 289 65 23 30
437 597 257 192 129 107
438 598 260 199 134 109
440 596 264 197 131 107
435 592 276 150 110 98
440 594 273 177 126 110
444 593 273 188 130 110
391 830 224 71 57 47
420 591 297 64 24 30
425 591 298 60 20 30
429 585 305 38 20 29
430 589 294 48 27 30
430 591 298 77 18 31
422 583 306 69 27 35
425 590 309 56 17 24
419 591 312 66 17 30
428 577 310 41 36 24
432 585 308 39 24 24
428 577 314 55 24 26
430 580 314 48 25 29
428 577 318 110 21 38
431 585 319 88 29 34
420 597 303 70 28 36
419 598 305 75 31 41
464 884 258 92 79 71
430 595 304 61 35 38
425 595 309 88 24 39
276 815 330 61 49 43
430 594 308 79 23 37
440 590 294 41 29 31
434 592 297 82 26 37
441 587 292 43 27 34
444 587 292 45 24 36
446 589 290 55 27 33
435 589 308 62 19 29
440 591 306 57 29 28
436 589 315 58 26 29
445 591 309 75 22 32
420 870 264 77 59 59
365 930 304 59 53 50
445 591 314 78 19 28
440 594 304 57 31 35
445 593 295 76 34 40
445 594 299 95 34 43
444 593 303 89 29 38
437 593 320 53 18 31
396 810 189 114 84 62
440 594 320 47 21 30
360 820 190 92 70 56
389 596 322 66 22 31
415 580 349 187 16 58
416 585 340 169 17 54
369 834 215 68 58 56
391 578 376 125 22 43
390 584 384 146 18 45
399 586 378 123 17 42
396 588 385 127 20 39
410 817 205 78 61 54
407 588 365 140 16 45
347 847 207 81 65 53
406 590 369 143 16 47
411 580 354 139 18 45
408 580 358 125 21 43
302 876 239 54 51 53
415 580 354 195 10 61
415 585 359 182 13 58
415 585 369 186 11 59
411 589 354 123 9 45
408 592 368 136 15 46
266 880 339 137 98 80
403 587 372 140 14 39
402 588 375 129 17 37
404 591 379 147 18 52
403 592 384 159 19 50
413 580 379 172 2 54
400 890 309 56 48 44
412 580 384 161 1 50
413 582 382 161 3 52
413 585 384 169 12 53
435 854 188 99 87 76
415 590 374 173 18 54
411 594 364 105 23 38
410 595 369 103 19 39
414 594 369 68 24 35
407 593 371 139 16 44
406 594 379 154 18 49
414 595 374 85 25 43
450 595 320 90 17 31
409 596 384 146 18 49
406 854 254 56 48 47
413 598 380 102 22 36
413 598 384 153 20 52
424 585 329 128 27 44
421 585 334 142 22 49
394 835 219 62 48 44
422 588 331 140 24 46
425 590 329 139 26 46
425 589 334 161 18 52
429 585 323 96 28 33
426 590 325 114 22 38
261 785 341 160 116 85
430 591 329 153 19 51
398 888 312 52 44 39
359 872 318 31 29 29
430 589 333 180 13 61
420 581 344 186 10 57
419 584 343 165 16 56
425 579 344 192 1 60
425 581 340 196 4 61
425 585 338 171 12 57
424 578 348 197 3 64
431 593 326 137 17 42
440 585 334 187 1 58
440 587 331 183 3 56
445 580 334 186 0 57
445 584 332 187 0 59
445 590 329 179 7 57
358 938 318 65 57 56
434 583 337 192 0 61
444 578 337 183 0 54
447 577 336 184 0 58
440 594 328 165 17 56
445 597 324 131 16 47
446 598 323 151 17 49
447 598 321 119 14 39
419 578 353 203 7 62
416 580 359 193 1 60
450 519 260 96 22 32
455 515 259 124 23 34
450 520 270 90 1 27
456 525 260 56 31 32
459 516 260 82 25 33
461 515 263 60 24 29
460 520 259 66 31 30
465 521 260 63 28 27
462 518 262 72 26 30
465 519 263 80 19 27
465 525 259 54 33 32
274 810 257 78 60 53
452 518 272 75 0 22
453 517 275 82 1 24
455 525 272 86 1 29
460 520 278 114 3 37
289 844 309 88 57 44
465 515 279 128 2 39
301 921 367 43 35 34
464 526 275 87 0 26
456 534 270 91 23 32
461 529 261 55 30 36
463 532 262 54 30 31
430 891 259 82 71 64
461 533 265 122 31 50
465 535 264 78 31 35
465 539 269 78 22 34
450 535 275 139 17 39
450 536 278 125 17 38
455 531 273 109 14 37
454 536 278 114 13 35
450 540 279 119 16 36
460 530 273 87 2 30
465 530 274 77 2 25
465 534 272 89 7 29
410 831 208 88 69 55
458 536 279 115 18 35
335 860 200 94 75 59
460 540 279 131 14 41
465 545 274 105 15 31
470 520 264 87 15 27
468 522 261 83 17 30
474 515 263 98 10 29
476 515 261 110 16 31
481 514 264 139 15 42
480 520 260 55 29 31
480 515 269 140 10 44
475 525 263 82 15 27
358 888 251 76 67 65
473 527 261 85 17 17
471 514 275 139 10 44
468 512 277 130 5 39
453 574 337 172 4 52
470 525 278 131 4 42
475 515 274 141 10 45
290 815 323 53 46 43
478 517 273 144 7 46
478 527 277 139 3 45
467 533 261 48 34 32
470 536 262 52 31 34
466 546 270 81 13 27
472 545 265 64 24 31
475 530 261 83 25 31
299 879 249 43 40 43
480 540 260 88 32 35
478 544 262 40 26 34
470 544 275 123 11 40
475 530 277 126 3 39
475 536 276 97 3 30
481 530 276 145 5 46
480 535 276 132 4 40
475 540 275 77 3 26
475 545 275 106 3 35
421 816 174 111 87 69
480 540 276 109 2 34
480 545 275 90 2 28
459 560 268 132 101 68
462 560 266 142 106 76
454 550 279 51 28 30
338 884 231 86 81 81
452 550 281 45 31 33
451 556 280 82 42 32
301 898 230 82 72 69
456 556 274 96 68 41
322 917 252 81 74 74
454 559 273 105 80 47
396 579 405 158 13 50
448 558 282 81 38 26
457 547 276 67 26 34
457 551 276 73 17 29
463 549 272 94 9 29
460 550 284 130 7 41
463 547 282 131 5 38
459 556 288 135 13 44
376 817 188 106 80 60
474 561 282 127 5 39
465 560 285 126 12 41
452 562 271 118 89 54
450 570 269 109 84 52
450 575 268 113 85 49
455 575 267 126 89 52
459 565 267 113 84 50
376 860 234 61 52 50
461 565 266 113 85 51
460 880 249 117 97 80
458 569 267 108 80 44
461 570 266 117 86 47
460 575 266 145 100 64
449 563 273 108 84 51
470 550 264 84 55 40
465 585 279 199 128 107
468 549 268 80 26 24
475 550 259 105 82 57
475 555 258 127 96 63
480 555 258 121 95 69
479 559 257 114 90 62
470 547 277 135 10 43
470 560 283 125 8 42
480 550 276 119 7 38
478 551 277 122 3 38
475 555 279 131 0 40
480 555 278 122 1 37
480 560 279 127 1 40
382 847 237 58 49 44
472 575 261 143 97 68
478 565 257 128 92 59
475 570 259 129 89 57
412 831 228 69 53 51
479 570 257 136 94 64
475 565 284 102 12 32
474 567 289 93 11 29
455 554 290 127 12 42
450 556 299 87 13 30
455 560 304 90 13 30
457 558 291 109 6 32
510 855 274 105 83 61
450 560 319 89 11 28
463 562 297 97 12 33
461 564 304 125 12 38
464 880 258 91 78 71
464 566 304 142 14 44
454 562 314 98 13 31
456 564 319 97 11 30
458 562 308 115 10 35
457 563 311 117 9 35
459 566 314 119 7 35
269 951 315 67 63 63
466 569 304 149 9 46
305 800 321 64 52 48
461 569 319 121 4 37
464 571 319 128 4 38
281 832 310 62 46 45
500 892 221 104 87 69
469 567 298 146 16 49
499 894 216 102 88 75
271 843 284 198 138 106
472 568 295 151 14 47
469 575 304 146 9 46
475 570 294 156 12 50
478 572 292 161 10 51
481 575 290 158 7 51
400 590 414 127 14 41
473 571 298 156 8 46
466 574 319 133 1 39
482 514 256 105 33 47
484 521 268 136 9 42
485 525 259 84 33 33
490 525 260 83 25 30
495 893 223 105 88 72
493 527 261 63 30 20
483 526 273 142 9 45
426 838 321 44 37 32
486 529 270 119 16 40
483 544 257 97 78 54
325 952 272 84 79 81
489 530 268 104 22 36
491 530 265 105 20 36
490 535 269 94 18 33
494 544 256 179 135 118
495 545 258 126 63 65
496 538 266 59 28 27
265 885 309 170 124 99
495 545 269 102 10 34
497 877 248 109 92 77
484 530 273 141 11 45
485 535 274 145 10 47
485 545 275 129 6 41
488 537 272 132 9 43
500 540 259 137 108 88
499 537 264 120 92 72
499 544 260 148 86 86
498 541 267 71 18 25
492 547 257 124 57 53
320 855 334 122 98 71
495 550 259 66 44 41
488 558 257 114 92 65
492 557 256 121 95 66
485 555 275 128 12 41
482 554 276 123 6 38
490 550 274 130 15 43
490 560 275 128 12 41
495 555 275 86 28 33
414 898 284 71 64 62
495 560 275 84 24 32
482 573 256 162 111 86
486 574 256 158 111 85
490 575 256 127 93 63
494 575 257 106 81 55
486 563 276 125 7 39
485 571 284 110 11 33
485 575 288 155 8 48
490 565 277 130 13 42
495 564 276 91 19 32
495 575 279 118 9 38
310 947 272 93 86 88
488 572 282 121 17 43
500 549 264 89 54 42
500 550 269 82 38 37
505 555 259 128 105 83
501 553 271 112 86 65
267 866 310 152 116 88
505 555 269 140 109 88
371 846 220 67 56 52
507 558 263 150 119 101
509 560 264 116 92 71
509 561 269 116 92 70
499 552 272 73 26 29
504 556 273 151 125 110
505 560 274 104 75 61
507 563 257 111 90 64
508 566 256 121 96 69
512 565 269 146 112 89
512 575 264 150 109 87
498 563 276 54 26 26
362 927 320 61 55 54
500 565 278 81 49 41
504 562 277 104 82 67
505 571 275 78 37 39
505 575 274 100 44 47
369 891 362 55 47 41
363 854 221 67 57 55
509 570 273 127 77 71
450 559 329 86 17 28
453 562 324 90 11 28
456 564 324 93 13 28
350 870 238 62 58 58
453 562 329 90 12 27
453 562 334 103 9 31
455 575 335 178 1 55
304 874 239 55 52 53
459 566 324 97 8 31
458 567 332 118 7 37
460 570 329 125 10 38
463 580 332 171 0 52
456 570 335 153 10 48
459 570 333 139 11 43
460 575 333 166 4 53
451 565 340 146 12 44
448 565 342 164 8 50
454 570 338 161 9 50
448 577 266 116 88 51
451 585 268 155 101 73
455 580 268 157 105 73
448 588 266 166 109 81
449 589 269 187 121 96
460 583 271 188 124 96
461 578 266 177 122 93
395 815 249 143 93 71
299 962 288 81 78 80
273 868 326 91 49 54
465 579 265 173 118 86
466 583 270 185 122 97
452 587 274 189 120 94
450 589 279 183 122 103
452 587 278 195 124 102
455 586 279 202 129 106
450 589 284 87 50 48
450 589 289 64 28 35
365 785 164 79 63 52
371 873 316 56 48 41
456 587 283 136 69 62
460 587 287 96 13 28
465 586 284 156 89 79
465 589 289 158 28 46
471 583 266 178 118 88
480 587 269 214 146 128
470 589 289 98 26 38
475 586 274 208 140 120
475 586 279 203 137 117
480 587 274 200 135 116
475 587 284 145 71 73
472 588 286 113 24 38
385 785 174 71 55 46
480 589 284 93 34 40
455 592 294 92 35 44
451 592 300 68 31 35
441 850 176 102 88 77
450 590 304 72 25 37
362 837 190 88 67 56
455 592 299 74 28 35
460 592 294 109 34 46
271 826 325 50 42 39
460 591 299 100 24 36
455 590 314 103 13 34
460 591 309 120 14 37
465 591 309 102 18 34
264 873 330 120 88 68
449 593 295 59 34 36
453 593 297 65 30 36
454 595 318 90 16 30
455 599 320 110 16 34
464 594 311 99 18 35
460 595 314 111 14 34
285 820 255 73 58 53
459 601 318 113 17 36
461 603 320 120 14 37
464 602 317 117 16 37
470 590 294 102 30 46
263 874 313 157 119 91
470 590 299 94 18 36
304 880 228 87 75 72
477 578 296 156 2 49
472 578 301 149 7 46
320 900 355 110 84 65
474 581 304 135 8 40
478 581 297 152 6 46
311 810 235 80 62 55
478 585 297 146 10 46
480 590 294 93 19 41
377 850 224 66 59 58
475 591 299 98 24 37
414 874 255 84 70 65
477 593 296 69 28 42
475 590 304 108 14 38
480 591 304 116 8 35
471 579 309 129 2 39
470 580 319 132 4 41
470 591 309 100 22 37
407 832 222 80 66 57
290 850 345 156 122 99
473 582 309 129 3 40
473 582 314 132 4 41
475 590 309 119 14 36
479 591 314 127 8 39
477 589 319 131 10 41
477 593 300 102 23 39
476 594 304 96 20 35
480 595 299 99 24 40
467 603 316 118 21 34
468 603 316 115 20 34
470 604 319 116 14 36
479 600 309 101 19 38
475 600 314 137 14 43
450 802 169 94 84 74
481 600 319 154 13 48
479 595 319 143 11 44
481 600 314 139 12 44
373 863 230 61 52 50
480 605 314 111 19 35
480 606 319 121 22 43
510 595 264 195 17 46
485 584 259 189 116 104
485 587 264 215 140 129
484 588 270 203 135 115
490 580 256 140 98 69
490 584 259 204 133 121
494 581 257 172 119 100
495 585 259 203 129 118
490 587 269 189 117 103
494 587 269 187 116 106
525 870 237 104 85 68
496 588 269 163 95 87
485 580 290 152 3 47
485 587 274 180 119 102
487 588 276 117 72 71
485 590 284 79 31 39
485 591 289 106 29 45
365 825 264 53 43 39
488 577 287 158 6 48
491 586 286 142 6 44
495 585 284 141 5 44
490 588 275 83 50 46
280 895 355 128 94 78
490 590 279 82 31 38
495 590 274 81 32 37
493 591 277 107 22 36
495 590 283 145 10 46
496 595 275 153 22 44
370 805 184 89 67 55
491 594 280 148 29 47
354 894 255 73 63 63
496 599 279 162 28 53
495 600 284 142 23 47
496 603 285 160 31 53
510 883 206 95 84 76
500 588 265 168 110 105
500 590 269 105 38 50
509 590 261 149 19 34
511 590 263 158 18 38
505 585 278 136 9 44
499 585 282 141 3 44
505 590 278 122 5 38
499 589 282 139 7 45
510 585 274 125 19 41
508 587 277 133 17 53
339 944 365 67 60 58
511 589 275 100 14 34
510 591 277 95 7 32
344 774 308 84 65 57
506 595 265 127 16 34
501 594 270 138 15 41
496 598 276 165 24 46
500 601 279 93 37 47
505 594 280 99 0 32
344 944 338 56 51 51
505 600 274 192 21 53
501 594 281 123 7 38
500 599 284 100 13 34
500 600 289 103 5 34
405 865 339 52 42 35
505 604 289 124 25 45
510 594 280 85 4 30
408 783 213 59 38 29
455 856 299 88 70 58
440 865 289 109 89 72
510 600 274 117 25 41
510 596 283 86 7 32
405 855 259 50 43 40
509 601 288 133 13 43
483 581 292 152 3 46
485 590 294 141 10 45
482 593 291 77 32 42
485 596 294 90 41 48
345 835 197 91 72 64
486 595 299 111 20 40
485 599 299 109 33 52
482 598 301 91 24 37
485 605 304 107 23 39
489 595 294 118 19 39
491 601 294 101 22 37
425 868 197 95 83 73
494 602 298 106 12 35
495 605 299 114 17 40
484 596 309 130 11 40
485 600 309 141 14 45
482 603 306 108 16 34
485 606 309 113 23 40
300 895 229 87 75 71
483 605 318 128 20 44
489 605 308 119 17 40
500 602 293 107 10 36
500 605 294 112 19 41
503 604 292 116 18 39
492 608 301 121 20 40
482 608 316 106 24 40
484 608 314 107 22 39
483 608 318 96 26 40
455 580 334 177 0 54
455 585 332 179 0 56
455 590 329 179 6 56
460 580 333 176 0 55
460 585 332 179 1 56
465 580 329 158 5 49
465 585 332 182 2 57
460 590 330 182 7 57
320 875 349 149 115 91
450 596 326 164 12 52
450 599 323 158 16 49
455 600 324 160 17 50
460 595 328 176 12 56
458 597 326 160 15 50
470 890 219 106 85 67
465 595 329 178 7 56
457 603 324 155 16 50
468 581 327 148 9 45
474 590 328 164 5 51
470 604 324 143 17 49
474 595 328 185 6 59
272 875 300 154 116 85
394 562 388 97 9 28
395 564 390 98 6 31
400 562 387 103 6 31
399 567 392 115 5 35
395 569 395 105 6 33
479 851 265 82 67 52
395 571 399 111 5 34
400 569 394 129 8 39
400 572 398 140 12 44
387 572 402 90 12 29
393 572 402 110 4 36
395 575 404 135 9 43
396 573 401 130 7 40
398 576 402 161 14 53
404 562 387 114 6 36
403 572 397 152 10 47
405 575 394 152 2 49
403 575 398 160 6 50
408 574 392 147 3 48
390 586 389 134 18 44
391 588 390 134 18 44
386 588 395 122 15 40
388 587 392 127 18 39
390 589 394 120 16 41
395 592 399 104 6 29
390 580 409 129 7 39
391 584 410 144 16 49
394 580 407 159 12 53
399 580 403 160 9 51
401 580 400 158 5 50
398 585 404 160 14 52
326 820 219 55 49 48
397 584 406 161 13 53
398 587 408 154 18 50
400 589 404 155 18 48
401 589 409 143 16 45
401 593 394 122 13 41
390 594 414 147 18 46
394 592 403 95 9 33
395 594 409 141 17 45
395 595 414 140 14 47
400 595 414 162 22 59
407 584 391 152 2 50
277 848 286 193 131 102
405 580 394 156 0 49
406 589 395 161 12 53
405 591 399 154 17 51
383 858 241 51 41 40
467 849 274 83 65 54
409 580 389 157 1 49
410 585 389 161 8 50
412 584 385 165 8 52
345 898 349 36 34 36
411 590 390 169 18 56
325 775 213 71 57 50
413 587 387 170 15 55
405 594 399 137 18 48
410 595 389 146 18 49
413 594 388 143 17 48
408 593 397 149 18 50
405 594 404 120 14 40
404 594 409 139 24 49
389 586 428 91 17 31
396 588 419 97 15 30
310 810 314 153 104 83
395 590 424 104 21 40
399 590 419 123 17 43
388 593 427 179 16 60
395 594 423 170 20 58
399 594 419 186 21 64
385 705 294 111 30 46
385 710 284 42 30 36
385 720 274 163 17 48
386 720 284 167 16 49
408 844 223 79 61 47
377 796 166 73 58 46
339 795 194 60 51 48
385 730 269 100 27 41
385 725 274 158 18 48
386 725 284 168 17 49
385 710 294 72 33 41
386 739 259 135 104 71
388 740 269 130 49 57
269 880 354 186 140 123
389 750 269 144 109 85
387 745 275 56 47 45
388 745 272 38 33 37
387 750 275 52 44 42
390 765 269 167 121 92
392 760 260 140 99 65
394 760 258 151 110 75
263 895 313 172 125 103
392 763 261 155 113 79
387 755 275 46 39 38
300 785 330 75 59 51
386 765 275 38 34 36
403 803 252 162 112 87
264 770 253 71 57 50
270 770 248 74 59 51
267 770 251 73 58 51
277 851 310 115 86 65
267 774 251 72 57 51
270 775 250 73 58 51
268 776 252 72 57 51
269 780 253 73 57 51
270 785 253 73 58 52
270 795 255 74 59 51
274 775 248 76 59 51
312 876 216 96 80 70
280 770 246 79 61 53
281 770 247 81 61 53
295 820 250 67 54 51
280 775 244 78 61 53
277 784 246 74 59 51
280 785 245 74 59 52
345 955 294 82 76 78
285 775 244 79 62 54
285 780 243 78 61 52
273 786 252 75 58 53
275 795 253 75 60 50
275 800 254 76 60 51
367 915 289 57 49 48
368 883 251 73 62 59
280 795 249 75 59 51
282 788 246 74 58 52
450 879 268 82 70 63
283 791 247 75 59 53
285 800 248 75 59 52
280 805 253 78 60 53
276 810 256 79 61 54
280 815 256 80 62 55
285 810 253 80 63 54
285 815 254 80 61 54
306 775 225 74 59 52
310 780 224 78 61 54
320 770 214 68 55 49
320 775 215 71 56 50
315 770 218 70 57 49
315 775 219 73 58 51
312 778 221 77 61 53
315 785 223 79 61 53
320 785 219 75 59 51
315 790 224 81 63 54
319 790 222 80 62 54
292 770 236 74 60 51
292 775 236 76 61 52
294 770 233 76 61 52
291 779 236 76 60 52
295 780 234 77 60 53
406 850 223 87 72 64
292 784 236 75 59 52
304 776 227 74 58 52
301 780 230 76 60 53
305 780 228 76 60 53
305 785 230 77 61 54
288 770 242 76 61 53
291 790 240 78 61 54
470 893 228 96 79 64
293 786 237 76 60 52
295 790 238 77 61 53
295 795 240 78 61 54
303 787 232 78 61 55
304 801 237 79 63 55
288 787 242 76 60 53
289 790 243 76 60 54
350 835 196 97 75 61
410 870 280 73 64 58
289 796 243 76 60 53
290 800 245 76 60 53
294 800 243 78 61 55
308 782 227 79 62 54
306 790 230 79 62 55
350 850 213 104 79 62
307 794 231 80 63 54
308 797 232 80 63 55
316 793 226 82 63 54
315 795 228 81 63 54
291 804 246 77 59 53
293 807 247 78 60 53
296 809 246 78 61 54
288 811 252 78 60 54
500 850 280 94 73 52
295 815 248 79 61 54
298 816 247 78 61 54
304 815 243 81 63 56
289 820 253 64 52 50
295 825 250 96 78 68
301 819 246 74 58 53
302 824 246 39 38 45
305 825 245 71 62 59
305 830 249 171 123 95
312 804 231 81 63 55
306 814 240 81 63 55
440 846 299 67 49 42
309 811 237 81 64 55
275 855 309 125 95 72
318 804 227 82 63 55
320 805 225 79 62 54
321 809 225 77 61 53
317 814 231 80 62 55
320 815 229 78 62 55
314 811 233 80 63 55
306 936 263 94 85 86
315 815 234 80 63 55
300 860 269 138 103 75
311 820 240 79 62 56
315 824 240 68 55 52
320 820 233 77 62 55
310 825 243 55 48 50
312 823 241 71 57 51
423 814 183 103 81 65
310 829 245 160 119 94
315 830 244 133 100 82
392 818 193 84 71 61
317 828 241 41 37 49
321 830 239 53 47 49
320 855 224 57 52 53
258 905 329 139 116 101
317 866 220 57 51 50
317 861 225 49 45 46
306 834 251 169 121 95
319 845 239 52 48 49
309 837 252 161 115 91
310 840 253 150 106 84
310 845 255 123 87 70
313 832 247 166 116 92
316 834 246 149 102 81
268 826 267 83 64 57
315 841 253 119 82 66
295 895 239 74 67 65
320 845 244 47 42 45
319 845 249 49 44 45
317 845 251 56 47 47
319 854 228 55 51 52
316 855 234 51 47 47
317 852 239 50 46 47
318 853 232 53 49 49
315 865 229 50 46 46
315 860 234 48 44 46
314 860 238 49 46 47
312 861 240 48 44 45
313 863 237 50 46 47
311 850 255 86 64 56
310 865 244 49 45 47
311 861 249 50 45 47
317 852 244 50 47 49
318 849 244 47 44 46
379 847 267 30 28 29
318 849 248 44 42 45
314 850 253 58 48 47
314 855 254 49 45 46
313 859 244 49 45 45
313 858 249 49 46 47
313 858 254 47 45 45
318 874 208 96 77 63
320 870 209 109 89 73
309 875 224 81 68 62
312 872 220 85 72 62
455 850 310 85 65 52
311 872 224 67 59 57
310 880 219 83 71 66
260 820 269 83 64 56
309 881 223 80 68 65
370 789 170 81 64 54
314 869 224 59 54 52
317 872 210 109 88 72
317 878 210 91 78 71
319 881 214 82 72 66
306 880 225 87 74 70
318 881 218 78 69 65
319 885 218 86 73 67
310 795 320 55 45 45
317 885 221 76 66 62
320 890 214 86 75 72
320 895 214 75 67 65
315 895 224 77 70 68
317 894 221 82 73 74
306 876 229 65 59 59
302 881 230 84 73 70
305 875 234 57 54 56
301 876 244 52 48 50
303 874 249 43 39 41
304 874 254 42 40 41
301 885 230 88 76 73
299 885 234 79 69 68
301 890 229 90 77 74
303 889 227 86 74 71
305 896 228 79 68 66
296 890 239 62 56 56
298 888 237 72 64 60
296 885 244 52 48 50
333 836 207 71 59 56
296 885 249 47 44 45
296 885 254 42 39 41
295 890 244 55 50 51
294 895 244 56 52 52
291 895 254 52 48 48
293 890 254 46 43 45
292 896 250 55 51 51
297 882 254 41 38 41
306 871 239 59 55 58
310 870 234 57 52 52
308 873 229 62 56 58
307 867 249 47 43 46
306 870 244 53 50 51
306 870 249 46 42 45
308 868 244 52 48 50
306 870 254 43 40 41
310 885 225 73 63 60
310 890 225 80 68 66
311 894 226 78 69 66
310 896 228 74 66 66
343 769 188 58 49 44
344 775 184 62 50 45
341 775 189 66 54 46
345 780 184 68 54 47
342 779 191 58 46 44
344 785 189 62 51 47
350 775 178 72 57 49
346 779 180 78 60 50
345 795 184 67 57 53
345 790 184 65 55 49
350 790 179 64 53 49
348 788 182 71 59 50
348 797 182 66 51 47
351 800 180 75 60 52
273 833 317 56 44 42
348 800 182 70 56 48
341 805 190 66 56 50
334 820 298 147 110 90
343 805 187 62 51 49
340 810 190 69 57 51
344 810 187 73 59 52
351 810 180 66 53 48
349 816 183 75 60 50
341 819 190 77 62 53
345 820 189 70 56 48
350 819 185 70 57 49
350 823 191 71 59 50
371 781 160 88 67 57
380 775 160 102 75 60
381 769 155 75 56 43
385 771 159 89 66 52
378 783 160 82 66 57
355 769 176 67 51 43
357 775 176 64 50 44
311 805 315 149 105 83
359 780 173 61 49 44
360 785 169 71 56 48
271 839 275 185 132 102
391 868 295 51 44 39
358 783 172 64 51 45
514 864 253 103 83 64
341 956 288 87 79 80
366 771 170 69 54 45
411 804 219 52 39 34
352 785 176 67 55 48
357 788 171 63 52 47
360 791 172 71 57 50
287 853 281 187 126 96
360 795 173 81 63 55
425 855 295 68 54 49
365 795 173 80 61 52
365 798 175 72 56 47
352 790 176 61 50 46
369 770 168 67 53 47
374 770 163 66 53 47
369 779 164 76 62 52
368 778 167 63 52 44
384 773 161 95 71 55
381 780 164 91 72 60
385 780 169 75 58 48
442 844 316 58 46 35
380 785 169 78 58 47
370 785 164 73 56 45
375 785 164 74 59 51
