ply
format ascii 1.0
comment Created by Open3D
element vertex 2220
property double x
property double y
property double z
property uchar red
property uchar green
property uchar blue
end_header
256 248 276 102 82 59
355 473 208 61 36 43
278 228 303 101 81 59
279 233 300 128 97 67
323 147 293 113 91 65
324 423 334 139 99 77
278 238 302 111 87 61
316 218 332 114 93 70
436 837 242 88 74 68
178 531 227 194 14 50
280 238 300 120 93 68
282 228 297 128 98 67
415 472 264 127 117 118
274 540 358 68 18 25
320 902 246 79 72 72
287 228 292 114 82 47
270 293 351 116 93 69
287 233 293 110 79 46
282 237 298 109 84 60
373 839 230 66 56 55
271 401 202 139 16 28
310 462 329 71 46 33
381 562 327 57 26 31
278 228 306 106 85 61
281 228 321 112 92 71
296 208 285 122 89 50
338 427 296 121 97 70
283 905 244 87 77 77
286 947 292 94 89 92
279 231 318 113 93 71
336 479 316 55 39 26
351 433 201 62 38 40
276 238 311 110 88 62
406 522 246 183 0 43
259 840 269 195 129 99
364 635 188 120 91 56
276 238 306 104 82 58
207 597 257 183 10 47
278 242 303 123 95 69
386 758 226 150 111 78
281 243 302 112 87 63
345 876 236 85 72 69
261 343 326 98 75 54
286 243 297 89 68 43
276 248 306 116 90 64
279 244 304 130 100 72
391 492 381 173 27 61
275 243 316 114 90 64
266 930 279 83 75 74
276 243 321 116 94 69
191 698 306 135 101 67
272 821 238 179 136 108
277 253 306 121 93 66
357 538 214 94 32 41
280 253 304 119 93 67
274 253 316 113 89 62
266 728 336 173 20 56
384 501 396 67 30 40
294 194 284 122 89 51
295 198 285 122 88 50
446 550 303 126 12 39
291 202 288 122 89 51
293 208 288 120 85 46
301 208 282 130 95 56
193 601 286 188 21 56
292 213 287 120 86 47
342 703 191 145 107 79
292 218 288 120 87 48
296 223 285 127 92 53
456 515 347 87 34 33
345 448 260 85 60 38
301 213 282 129 95 57
261 658 326 162 23 54
306 213 281 134 97 59
298 218 283 128 94 56
306 203 277 137 99 61
291 913 247 93 85 86
336 423 316 131 98 67
359 516 394 196 17 59
304 204 279 135 97 59
231 813 266 81 65 60
311 206 278 143 102 63
375 490 325 57 40 26
371 577 322 67 36 41
317 204 279 142 104 66
322 198 280 139 104 66
191 583 316 162 0 49
398 586 235 103 85 65
306 218 282 134 99 59
306 223 283 134 99 59
296 548 411 186 120 107
372 486 302 61 45 31
311 223 283 137 102 61
401 497 241 98 11 24
396 558 322 60 27 32
322 213 285 141 104 65
314 222 283 140 104 63
316 223 285 140 104 64
183 645 325 143 96 77
394 732 179 53 43 33
271 598 346 46 30 32
318 219 284 142 105 64
321 218 286 141 105 66
288 201 288 130 101 66
289 197 307 110 91 70
430 799 170 85 67 54
291 198 311 109 90 69
262 303 291 88 69 48
296 559 386 192 130 110
295 198 317 104 86 67
361 518 376 84 26 39
297 198 320 104 87 68
290 207 317 110 91 72
374 536 228 164 18 51
292 208 321 107 89 70
293 204 319 106 88 69
386 827 359 82 63 50
273 660 223 49 33 37
294 202 318 105 87 68
290 213 322 108 89 71
408 808 258 93 74 61
292 371 279 108 91 73
306 843 336 120 96 72
292 228 288 124 88 52
350 628 246 154 22 51
311 588 339 99 20 38
296 233 287 129 92 56
433 454 254 85 23 32
377 534 230 160 9 42
300 225 284 131 96 57
301 228 284 132 96 57
208 541 339 111 22 38
399 740 185 51 41 31
301 238 287 132 95 58
253 695 329 39 27 29
320 506 392 65 23 26
306 229 284 135 99 59
296 333 306 96 82 66
320 227 288 139 103 63
214 629 275 191 9 52
316 793 285 147 103 84
316 343 351 132 102 69
406 804 276 55 46 38
293 232 288 125 88 54
291 238 291 110 79 47
287 374 276 103 87 68
288 237 293 104 75 43
341 802 264 39 35 33
200 599 316 65 27 35
300 240 289 128 92 56
271 308 371 120 93 65
292 242 292 102 75 45
206 608 321 180 1 53
277 908 242 89 77 76
296 243 291 111 81 50
358 575 319 107 24 42
293 246 293 92 70 43
296 253 296 83 65 43
351 658 241 55 30 37
303 241 288 132 96 59
351 513 216 90 21 28
319 232 288 140 104 64
321 238 292 139 103 64
240 723 322 56 29 31
272 607 223 47 39 42
297 749 317 75 58 49
306 241 288 135 98 61
306 251 293 105 80 51
301 388 262 108 91 71
311 251 293 111 84 56
216 658 315 129 83 67
220 738 339 175 123 96
321 248 296 122 94 60
205 618 281 123 33 50
260 793 234 76 60 54
322 253 300 116 91 61
287 223 326 108 90 71
280 237 327 114 94 73
283 229 325 112 93 73
284 226 323 111 92 72
284 232 328 112 93 74
430 509 301 63 39 29
287 229 330 109 91 73
272 883 272 110 90 73
286 233 331 111 92 73
288 234 334 110 92 73
286 238 336 111 93 74
290 222 328 108 90 71
216 713 341 174 121 94
277 243 326 116 95 73
338 678 198 134 99 75
281 468 191 119 13 32
276 248 326 118 96 71
266 373 296 78 63 53
382 487 239 90 13 29
221 783 341 175 130 101
279 247 333 114 94 72
208 652 354 175 123 98
281 248 336 114 94 73
326 188 306 120 96 70
445 569 314 148 17 47
476 538 261 101 63 43
282 244 335 112 93 73
271 813 236 78 61 56
375 852 316 63 53 49
283 240 334 112 94 75
287 243 340 109 91 73
286 398 195 163 12 16
301 427 339 159 115 95
284 246 338 112 93 74
360 787 254 52 44 40
366 828 243 42 36 33
286 248 341 111 93 74
341 743 190 95 72 43
284 252 343 110 91 72
311 582 208 57 34 38
335 851 331 33 31 31
294 207 322 104 86 68
317 363 306 115 93 68
296 208 326 104 86 68
238 579 365 134 103 76
449 786 246 99 77 57
463 800 260 101 84 70
362 442 253 73 26 27
297 204 324 105 88 70
251 563 356 94 23 34
301 203 326 104 88 71
300 207 327 103 87 70
302 209 329 105 88 71
470 550 298 58 26 27
440 442 247 97 23 35
228 712 248 153 5 41
483 561 294 60 21 26
293 210 324 106 88 69
289 216 323 109 91 72
282 613 340 41 27 29
314 547 392 171 110 102
291 218 326 108 90 72
376 643 221 145 93 72
294 216 328 110 92 75
294 760 204 70 56 51
296 218 331 106 89 71
376 488 311 60 44 30
296 224 335 106 89 71
298 220 334 105 88 70
315 471 193 86 25 33
302 219 334 106 88 71
222 577 233 185 8 43
374 526 218 153 37 51
312 197 323 108 90 71
311 203 327 109 91 72
396 729 166 51 41 31
267 818 310 96 74 61
371 426 232 90 8 31
309 205 329 108 90 71
356 778 165 60 50 45
318 202 323 113 92 71
274 354 363 152 109 91
356 685 183 122 91 55
383 505 368 103 30 48
321 203 321 117 95 70
319 205 324 114 93 70
291 395 192 155 17 19
307 215 334 109 91 73
376 784 142 89 67 45
312 217 333 111 92 72
471 574 269 159 104 75
421 509 331 56 32 26
321 213 326 119 97 72
320 538 201 157 3 37
246 638 242 132 0 34
316 213 330 114 94 73
199 627 342 139 105 72
412 809 302 77 60 52
319 214 329 118 97 74
320 218 330 119 96 71
320 223 331 119 96 71
317 222 333 116 95 70
291 708 207 120 21 33
292 228 335 111 94 75
292 234 339 110 92 74
300 227 338 105 88 70
297 230 339 105 88 70
316 433 335 145 102 80
262 343 331 117 88 66
301 238 345 109 91 71
346 849 331 35 32 32
339 637 208 90 62 48
283 547 399 168 113 96
294 241 343 107 90 72
271 323 316 106 84 59
295 247 348 108 91 72
290 252 348 111 93 75
436 522 331 158 21 52
356 489 286 65 50 34
351 503 221 110 8 25
292 254 350 109 91 73
293 250 349 110 92 74
342 768 182 76 57 44
412 507 332 72 32 29
299 246 348 109 90 71
218 566 228 148 33 56
180 548 251 162 7 46
320 233 335 121 97 70
394 778 200 64 47 38
374 836 248 39 34 31
451 508 276 98 3 33
336 783 276 49 40 39
306 228 340 109 90 71
306 233 342 111 92 72
283 883 246 54 51 53
324 912 354 43 39 38
312 227 338 111 91 71
310 229 339 110 91 71
266 658 227 54 36 38
323 638 303 64 28 33
311 233 341 112 92 71
308 236 343 113 94 74
316 238 341 117 94 70
306 243 347 111 91 70
311 243 346 112 91 68
311 253 350 116 92 66
375 506 386 197 11 62
317 243 342 119 95 68
319 240 339 121 97 68
387 557 254 41 30 30
370 862 246 81 67 62
255 925 352 59 54 54
178 552 261 105 31 41
319 243 339 122 96 66
397 807 201 85 65 55
319 248 340 122 97 67
406 583 241 109 88 64
370 857 350 60 51 46
317 248 342 120 95 67
314 244 344 116 93 68
266 643 326 187 9 60
315 248 345 119 95 67
373 865 303 51 45 41
326 413 266 89 76 63
302 397 255 98 66 45
300 255 354 111 90 68
322 134 260 141 98 73
253 540 346 36 28 25
327 133 266 126 95 66
236 579 346 62 32 34
196 648 310 118 89 58
325 138 266 132 101 70
269 582 362 150 94 79
324 143 267 136 104 71
286 428 189 141 5 34
292 275 364 99 84 67
327 133 276 121 96 69
325 133 281 120 96 68
302 865 361 33 31 32
405 500 358 189 18 64
322 133 287 114 92 68
324 130 284 118 95 72
249 853 306 154 115 88
326 138 281 120 96 69
317 333 331 123 97 66
327 143 281 116 93 66
323 137 288 113 91 67
296 698 207 114 21 31
276 384 261 94 77 59
205 595 333 94 22 40
291 748 326 82 48 49
325 153 272 135 105 70
322 158 270 138 105 69
324 158 272 135 105 69
406 425 230 110 9 35
327 153 281 118 93 65
326 198 286 134 103 67
281 308 381 120 93 69
326 148 286 115 93 68
326 158 276 131 102 69
327 158 281 121 95 64
327 158 286 117 94 67
322 143 292 112 90 65
371 818 201 77 58 50
291 518 391 62 36 33
324 144 290 113 91 65
324 150 294 114 91 67
325 158 296 115 92 67
266 423 181 142 11 32
329 532 406 77 30 39
184 575 281 100 30 42
322 163 270 137 103 67
334 591 314 104 52 59
326 163 276 132 104 71
316 410 225 88 16 29
328 238 306 119 94 66
267 630 332 75 25 34
326 168 281 124 98 68
286 354 368 163 113 96
323 174 274 134 102 64
325 173 276 133 103 66
305 897 379 62 57 55
327 173 286 120 95 64
324 178 277 134 103 66
243 670 238 117 13 38
338 920 313 62 56 54
182 558 261 162 21 49
232 713 327 118 76 61
326 183 281 133 103 67
387 593 246 128 72 71
327 178 286 121 97 68
325 188 281 134 104 68
325 193 282 135 104 66
326 193 286 130 103 70
461 534 265 43 33 34
327 163 291 119 95 67
386 612 244 156 102 87
286 363 365 164 116 96
326 163 296 117 94 68
327 168 296 119 95 67
227 673 261 42 34 37
260 323 266 92 76 59
260 298 296 86 71 55
421 519 251 187 4 43
293 391 254 109 92 69
325 168 301 117 94 68
327 173 296 118 94 67
324 174 304 115 93 68
327 178 296 120 96 68
301 552 371 67 34 36
240 528 339 36 24 25
396 418 221 83 28 36
327 183 291 119 94 66
230 595 239 83 32 36
283 893 271 74 64 61
232 783 252 73 59 53
310 922 359 55 51 51
326 183 296 119 95 66
316 477 346 54 33 25
198 581 253 196 15 53
282 421 189 146 1 30
326 183 301 120 96 68
280 404 343 141 101 85
224 676 300 44 30 32
326 193 301 120 96 69
326 193 306 123 99 72
323 509 412 83 19 30
271 663 326 34 29 30
292 879 380 41 37 37
323 204 284 140 105 66
323 509 416 90 8 30
324 201 283 139 105 66
325 203 286 137 104 67
324 212 287 141 105 67
326 198 291 123 98 69
326 198 296 119 94 65
245 594 229 154 15 40
326 198 301 120 95 67
439 834 192 115 91 73
272 688 218 117 17 32
327 208 301 120 95 66
339 400 206 98 24 34
326 198 306 121 97 69
322 198 317 116 94 68
324 198 315 119 96 71
343 914 316 63 56 54
346 496 391 79 32 25
326 402 200 94 36 35
356 858 223 80 67 64
350 496 390 83 31 24
326 203 311 121 96 67
440 778 281 76 57 41
322 208 322 120 96 70
380 822 307 41 34 30
209 748 276 131 95 65
316 602 321 56 30 35
182 523 325 115 22 42
326 208 316 122 97 68
324 205 319 120 96 69
325 213 291 137 105 68
299 309 379 131 94 69
406 430 240 87 1 29
327 213 296 123 97 67
303 668 318 164 10 53
324 216 288 141 106 69
325 223 292 140 105 67
327 218 301 121 96 67
276 952 335 59 55 55
326 223 321 122 97 69
454 787 257 85 67 49
322 228 290 139 104 66
438 835 208 129 110 98
324 228 292 139 105 67
324 368 331 120 95 66
296 528 197 54 35 39
245 826 310 131 92 70
326 228 296 137 105 68
208 806 298 198 133 106
325 233 296 137 104 67
430 510 334 52 36 32
386 841 238 84 72 66
327 238 301 127 99 67
327 228 311 118 94 66
286 513 335 96 11 34
327 228 316 116 92 64
327 228 321 119 95 67
328 233 316 117 93 65
328 238 321 118 93 64
301 463 341 75 31 32
323 249 299 120 93 61
276 541 198 100 40 48
328 243 306 118 94 64
327 248 306 120 94 63
258 334 265 87 73 58
211 523 207 176 3 37
328 248 311 120 94 65
341 480 311 58 42 25
387 766 148 99 73 54
328 248 316 123 97 67
328 248 321 124 98 67
317 378 291 106 88 68
378 850 321 72 62 57
275 358 362 155 111 94
328 253 316 124 97 66
476 582 281 204 145 136
404 766 152 74 58 45
328 253 321 123 97 66
346 578 218 71 33 36
381 730 166 76 56 42
241 718 235 134 7 36
322 218 326 121 98 72
227 653 266 130 12 41
297 575 353 128 35 54
323 223 327 123 98 72
321 847 322 46 42 38
388 460 234 78 34 35
202 763 286 148 104 74
271 468 191 142 2 30
323 228 328 122 98 70
325 419 256 72 41 30
323 231 328 120 96 67
323 238 332 121 97 69
324 234 329 122 97 69
317 368 301 112 91 68
321 248 336 122 96 64
369 802 244 103 79 63
322 253 336 123 97 65
211 558 226 80 32 39
403 807 209 78 58 48
325 253 331 121 94 61
324 254 334 122 95 63
345 498 216 131 13 38
260 400 177 122 30 36
351 482 306 59 44 29
392 513 225 81 31 37
261 399 186 127 29 35
262 400 191 108 22 34
370 463 222 105 23 38
322 433 332 141 100 78
386 858 297 55 48 44
266 399 182 169 20 27
302 614 322 129 36 53
263 884 364 144 113 93
261 408 177 89 31 41
256 400 189 67 28 35
261 413 177 85 33 37
271 408 182 125 13 32
386 833 245 68 56 46
266 413 180 97 32 41
271 413 182 134 11 33
278 956 330 53 51 52
411 437 247 88 1 27
281 399 188 148 12 28
286 397 190 148 14 24
276 408 185 137 3 31
392 465 239 174 16 42
281 403 187 135 6 29
331 851 367 36 34 34
276 413 185 142 1 33
282 317 320 83 69 54
280 413 188 143 5 33
294 498 356 127 0 38
402 819 210 87 72 60
285 404 188 139 2 30
276 728 339 61 25 34
283 410 189 144 4 37
397 740 181 51 42 33
324 467 325 69 48 34
261 763 227 76 60 52
371 678 222 151 101 76
281 279 315 118 86 63
258 428 179 63 40 42
470 564 312 113 30 46
272 419 185 141 2 31
340 443 301 130 98 68
260 863 346 155 112 96
366 422 226 97 11 33
271 423 185 145 0 31
266 428 182 144 5 32
286 342 374 165 115 96
266 433 182 145 2 33
271 433 185 153 0 36
329 442 324 133 95 73
261 443 181 151 3 34
378 706 223 156 108 79
271 438 186 153 0 33
271 448 188 154 1 36
377 678 217 153 104 73
406 799 306 53 42 34
276 433 187 149 0 31
301 458 194 86 32 36
474 525 279 143 10 47
257 328 261 89 75 60
281 428 188 145 1 32
286 423 189 122 19 38
284 433 188 145 2 33
261 402 196 100 19 31
352 517 214 79 28 28
212 633 286 98 29 44
286 433 189 145 2 33
276 438 188 150 0 33
278 439 189 149 1 32
450 835 234 91 75 66
281 436 188 149 0 34
275 441 188 150 0 32
276 448 189 144 1 32
281 443 190 141 4 34
262 308 276 95 76 54
281 448 189 111 16 31
281 743 210 134 9 35
286 438 190 143 4 30
317 424 338 142 99 76
286 448 190 62 34 36
296 398 192 128 21 24
266 523 195 147 2 32
267 400 199 123 18 30
296 403 191 141 7 32
296 408 191 130 11 31
383 491 389 138 28 50
378 595 231 92 70 52
296 413 191 58 33 35
268 913 257 83 73 70
311 318 321 94 78 61
301 408 192 133 15 36
232 554 350 58 23 29
352 412 207 99 19 32
456 473 256 125 20 43
173 523 233 141 3 36
291 418 190 108 25 36
291 423 190 81 33 35
211 808 331 190 130 102
296 423 192 63 37 38
276 594 348 89 33 42
291 428 191 105 19 36
291 433 191 139 7 33
211 533 212 136 20 41
291 438 191 132 8 31
291 448 191 43 36 40
376 628 196 119 92 59
266 399 196 125 19 31
376 573 240 47 29 29
291 318 381 149 97 80
271 399 196 162 15 25
261 403 201 101 19 32
258 405 204 97 17 32
426 509 316 55 29 24
266 402 201 114 19 30
311 623 221 89 30 35
366 831 266 34 30 29
261 407 221 105 45 28
463 805 253 99 84 69
300 440 333 149 107 90
266 405 211 118 22 30
306 583 345 107 27 42
413 856 238 77 61 48
264 358 346 144 106 85
264 406 213 114 26 30
326 477 336 51 30 25
265 406 216 116 33 29
369 857 242 78 65 60
271 404 211 127 22 28
408 520 328 103 16 36
266 406 221 115 43 26
268 405 219 120 38 27
264 682 224 118 14 29
277 401 196 167 13 18
276 403 206 146 15 24
281 404 206 145 16 19
331 748 190 108 60 42
365 405 210 75 27 31
286 404 200 159 12 15
367 443 206 149 7 35
285 405 207 143 17 18
276 405 216 123 32 23
421 562 286 100 43 49
212 585 338 63 24 31
356 828 181 101 78 62
246 544 346 49 24 25
446 553 271 131 96 62
281 405 216 125 32 20
281 405 221 118 40 18
336 413 226 100 10 31
187 703 326 175 121 96
286 405 211 135 22 20
311 873 206 92 78 74
289 872 256 52 47 49
260 391 249 80 65 50
301 488 194 69 28 36
262 390 248 73 57 41
376 464 264 83 15 27
261 398 246 87 53 34
195 658 309 138 98 69
266 388 251 63 52 42
378 501 358 111 23 39
326 414 231 91 13 31
407 768 181 75 56 44
266 386 255 63 51 41
266 393 248 70 53 42
316 568 351 87 28 38
291 819 306 94 74 51
445 782 240 113 88 56
266 390 248 62 53 47
271 388 252 86 70 52
366 518 346 99 27 41
271 386 255 85 70 55
356 487 336 55 34 25
266 398 246 90 56 35
419 791 281 46 37 30
271 394 248 92 75 55
401 603 226 128 96 60
361 808 161 88 68 58
261 407 226 94 53 29
306 663 316 165 6 53
441 513 281 72 27 30
262 405 232 85 59 31
258 405 233 83 60 32
340 438 266 98 78 55
265 406 226 105 53 26
385 598 247 136 82 78
345 512 419 135 26 48
264 406 230 93 58 28
271 404 231 107 58 21
266 403 236 93 60 28
271 401 240 100 66 35
294 273 309 83 64 39
260 401 244 87 55 30
192 518 335 47 29 32
311 418 342 147 102 81
267 400 243 97 61 36
192 537 222 114 28 42
203 783 292 181 123 93
265 357 310 72 59 45
266 401 244 92 56 29
379 674 211 149 101 68
276 387 255 97 79 60
331 418 271 98 82 64
276 392 250 100 82 62
421 478 260 95 10 33
177 543 251 189 6 52
276 385 257 95 79 60
281 387 256 104 86 67
281 392 250 106 88 69
421 478 256 89 26 36
276 394 247 98 82 60
314 343 355 133 100 68
258 946 321 65 61 63
276 399 242 102 70 40
276 397 245 100 74 46
281 394 247 104 87 65
286 389 252 109 90 70
286 394 247 107 88 61
196 538 221 118 25 42
226 827 296 208 140 109
379 490 320 58 44 28
287 397 245 107 76 46
416 598 251 198 130 105
285 280 315 98 71 46
276 405 226 116 48 16
302 794 292 144 101 82
286 353 291 96 80 62
276 404 231 113 53 16
281 405 226 115 47 16
356 830 276 30 28 28
436 493 268 108 1 33
269 308 362 118 92 64
293 525 352 33 26 26
274 892 255 57 54 55
276 402 236 103 66 33
431 473 261 102 13 36
281 402 236 109 61 27
271 328 371 136 99 78
281 401 240 107 68 40
446 838 237 88 73 65
286 403 236 112 58 27
350 692 184 138 101 67
401 818 206 89 75 65
286 401 240 110 64 33
384 641 220 182 123 95
291 395 195 157 17 19
296 395 196 153 19 21
315 452 329 131 92 75
296 396 197 154 19 21
301 394 196 142 20 25
302 395 193 133 22 27
209 753 275 139 99 70
361 617 200 104 86 67
302 395 199 140 18 26
416 483 261 83 9 28
291 406 206 148 15 19
313 950 327 69 65 65
297 405 205 147 16 22
212 562 228 76 33 39
296 406 207 144 16 23
265 841 337 131 96 81
381 507 361 179 18 55
300 402 203 142 17 24
301 404 206 133 17 25
299 406 208 135 17 25
301 858 241 52 48 51
344 466 198 84 20 27
301 413 192 114 25 34
433 835 194 133 101 96
291 406 211 133 20 23
289 405 215 124 29 24
291 406 216 121 29 25
231 763 250 67 54 49
366 637 224 138 91 72
296 406 211 128 19 25
282 773 213 76 61 54
227 718 251 145 2 42
296 407 216 113 26 28
411 518 331 115 28 45
261 493 193 134 5 28
301 406 211 117 19 26
301 407 216 100 23 29
391 738 177 56 46 37
404 432 227 134 16 33
306 394 196 129 20 28
393 584 250 118 73 65
304 395 193 129 21 28
343 469 199 83 33 41
304 399 193 71 32 32
307 398 194 104 27 29
307 904 372 57 55 56
296 404 241 103 64 37
310 394 197 112 26 31
294 675 324 143 11 44
197 733 335 177 121 97
311 394 201 110 24 28
311 398 196 121 21 28
306 397 202 121 18 31
310 396 203 102 22 30
382 824 273 63 53 44
311 399 205 106 22 28
316 395 201 99 29 31
321 398 201 89 36 32
293 436 199 126 42 46
317 395 204 96 29 29
316 398 206 97 25 29
317 823 201 59 54 53
178 546 251 189 0 52
358 480 219 169 4 38
321 395 204 90 33 31
321 397 207 92 29 31
380 501 400 112 33 50
311 859 366 35 33 33
321 858 187 87 70 60
321 399 210 92 23 32
301 494 365 85 16 30
305 403 193 44 38 39
365 693 286 67 25 35
291 327 310 94 78 62
307 408 194 52 38 42
369 847 360 61 53 48
311 403 194 87 28 35
311 408 194 64 36 37
311 402 208 107 20 28
405 578 261 130 81 77
172 518 315 55 31 36
337 678 201 103 78 59
307 414 194 65 38 38
275 892 377 43 37 37
316 403 195 119 22 28
371 610 208 104 88 70
316 408 195 98 30 38
361 593 256 183 4 56
321 403 196 98 30 31
426 468 260 81 20 33
319 400 198 142 15 19
316 413 195 92 32 34
246 568 361 111 87 64
302 802 212 83 65 56
306 406 212 104 18 29
221 698 271 125 12 41
328 865 192 116 96 84
426 564 291 89 48 49
306 407 216 91 19 30
311 407 216 90 16 31
341 818 172 75 61 53
312 405 214 93 16 32
402 847 273 65 55 48
306 408 221 82 22 29
324 370 339 129 100 67
301 298 371 122 93 58
316 405 214 91 15 33
316 407 217 91 14 32
266 323 361 123 95 68
318 400 209 94 22 32
453 526 297 67 41 31
321 402 212 93 17 34
322 405 215 94 14 33
371 491 390 105 25 38
316 409 221 91 14 30
321 409 221 95 12 31
291 388 256 110 92 71
295 389 257 110 92 71
430 535 313 169 26 60
295 399 247 106 72 39
370 703 261 42 31 35
297 397 250 104 72 43
187 583 306 170 0 48
336 579 340 143 17 44
298 396 254 100 71 46
356 648 186 124 92 54
290 405 226 106 52 28
406 439 249 89 2 29
296 406 226 95 46 33
247 828 261 66 56 56
293 406 229 101 56 33
296 406 231 95 55 36
301 408 226 85 40 33
301 407 231 85 48 37
321 882 188 105 82 70
401 489 391 182 30 65
297 406 235 96 57 38
193 767 320 188 129 102
297 402 245 103 65 37
302 402 250 95 56 38
421 803 266 86 67 55
305 399 257 93 63 48
306 409 236 79 36 33
306 408 241 80 39 35
263 833 316 150 98 87
306 409 226 78 28 29
404 611 232 190 129 100
311 410 226 79 21 28
190 673 309 138 102 69
362 830 244 37 32 28
259 310 304 61 51 40
397 566 328 76 25 34
310 410 230 76 25 28
312 411 231 76 23 27
361 528 214 42 37 40
311 412 236 74 26 29
467 532 316 81 23 29
281 468 328 41 25 27
362 553 224 125 15 33
321 410 224 94 13 30
321 411 227 92 14 30
407 758 182 74 54 40
316 414 241 73 21 27
320 415 235 78 17 28
305 405 247 87 45 36
336 858 201 101 79 64
311 409 246 74 27 30
306 403 251 89 48 38
296 328 310 93 79 65
310 834 306 81 68 54
290 513 338 117 5 38
396 784 145 89 69 55
372 580 247 56 26 32
307 402 255 89 54 44
308 406 249 83 40 36
307 308 366 125 94 61
416 813 256 95 74 59
311 403 256 83 50 44
312 406 254 80 41 41
217 632 272 181 9 50
382 603 245 134 81 76
313 411 245 73 26 30
375 496 374 151 21 52
316 408 256 78 41 41
288 430 194 136 40 50
288 432 196 140 40 52
290 430 196 137 40 51
296 428 193 128 19 38
248 569 370 140 106 81
296 433 193 132 9 29
231 623 252 75 26 37
296 432 196 128 30 41
335 752 189 118 87 52
300 423 193 63 35 39
318 343 326 123 98 69
400 447 232 193 15 43
303 418 194 73 39 35
406 443 251 92 1 29
301 428 194 86 29 37
298 430 194 132 11 32
301 432 194 89 26 30
292 435 199 131 40 49
365 654 219 146 92 74
293 438 195 126 22 38
214 530 343 46 27 30
401 738 177 56 45 34
295 438 196 121 35 43
288 538 199 147 16 40
173 546 296 37 31 35
293 442 197 65 48 49
213 821 316 217 148 123
256 928 281 82 73 70
293 442 199 67 47 51
294 441 200 89 49 51
301 434 193 88 31 34
281 593 347 62 29 34
296 439 204 104 51 54
300 448 193 59 34 42
303 444 194 120 24 32
365 728 281 82 29 38
306 423 195 108 28 37
296 373 276 109 92 73
311 418 195 46 37 39
306 428 195 63 35 38
331 475 330 53 34 25
306 433 194 70 35 39
278 530 365 77 26 36
298 734 328 32 28 31
311 428 196 57 38 38
249 892 305 75 66 62
316 418 196 64 37 38
321 418 197 65 38 36
311 483 356 60 24 28
357 861 223 81 70 65
316 428 197 86 33 31
316 433 195 52 38 38
321 728 309 65 45 42
321 428 197 71 36 34
175 548 271 142 17 47
321 433 196 58 37 38
305 434 193 44 38 43
305 438 193 49 37 38
307 438 194 59 33 35
311 438 195 82 33 38
267 298 351 117 95 72
304 442 193 120 17 39
286 287 372 104 87 70
211 783 276 166 112 80
424 798 294 87 67 52
411 463 246 115 24 38
350 689 300 133 9 42
306 443 194 130 17 33
421 497 276 75 17 31
386 743 206 127 92 58
391 563 327 43 27 30
306 448 194 78 32 34
311 443 195 100 24 33
311 448 195 65 36 38
481 579 301 126 26 48
396 490 392 177 28 62
232 825 322 197 139 113
316 438 195 62 37 39
280 263 346 111 92 72
364 606 221 89 71 53
321 438 196 77 35 39
401 838 281 64 54 49
397 834 230 92 75 67
316 448 195 47 37 39
321 448 195 49 37 39
321 418 241 74 17 27
188 557 319 173 0 53
296 394 353 161 116 98
308 845 231 51 47 49
318 416 246 73 19 27
290 746 329 121 27 47
261 453 184 130 13 36
226 743 336 165 114 87
350 643 251 114 26 42
262 449 184 115 16 34
320 633 223 47 33 35
288 380 268 107 91 73
261 463 186 135 11 32
306 268 357 115 92 64
266 453 187 154 2 32
270 452 188 151 2 33
272 454 189 146 1 33
267 678 223 119 14 28
266 653 228 47 35 37
216 578 237 190 9 46
266 458 187 155 1 34
265 462 188 156 2 28
311 328 316 95 81 66
459 526 258 42 40 43
361 549 328 118 20 42
266 464 189 154 3 31
271 458 189 143 1 30
438 526 263 173 6 36
331 485 349 58 29 28
326 713 200 54 36 35
263 465 189 157 0 26
319 817 201 56 52 52
262 468 189 159 6 41
261 473 190 99 19 33
274 450 188 144 3 35
276 463 191 139 5 32
416 836 250 81 66 59
281 458 191 137 9 32
386 577 321 53 35 39
237 728 237 94 30 44
281 463 191 102 21 33
222 643 311 96 27 40
286 453 191 122 18 36
286 468 192 119 18 35
479 571 268 183 122 98
286 473 192 143 7 32
353 835 206 80 70 66
192 598 301 63 30 37
261 483 192 143 2 30
216 723 340 178 126 101
271 488 191 84 24 32
446 524 256 58 36 36
391 618 211 129 97 61
408 525 323 184 22 59
266 488 193 94 19 29
272 538 381 138 110 92
271 493 191 39 36 39
344 459 271 99 76 52
271 498 191 52 34 38
271 503 192 69 32 38
271 483 192 132 4 29
179 549 312 101 26 45
276 328 311 86 71 54
197 723 297 124 92 62
276 488 191 133 9 32
338 416 228 101 9 31
281 483 192 141 5 30
311 888 378 56 51 51
289 920 284 77 64 57
357 502 224 66 29 30
276 493 191 68 29 33
331 498 197 67 28 37
280 667 219 49 36 38
281 493 191 116 19 33
286 493 192 112 21 34
401 492 291 68 23 28
276 503 192 85 31 36
380 733 226 157 110 79
281 498 191 105 30 38
246 653 323 92 32 41
392 809 217 83 67 58
281 503 192 97 28 34
362 668 223 126 77 63
402 815 230 82 70 60
291 453 192 60 36 36
311 548 401 157 99 87
276 478 192 135 4 29
221 718 261 132 11 41
261 488 193 138 4 30
267 338 301 77 62 51
258 495 194 135 0 28
361 581 328 160 19 43
385 827 270 68 57 48
310 313 322 102 83 62
395 730 176 55 44 33
261 498 195 138 2 30
260 503 194 133 5 32
379 811 229 77 52 38
220 628 265 176 10 46
263 503 193 106 12 29
246 758 325 162 119 90
392 825 357 81 65 53
186 578 306 169 14 52
302 566 203 52 38 36
260 508 194 133 5 29
364 694 289 114 25 47
416 460 260 81 9 25
261 513 194 138 3 29
300 318 375 140 98 73
263 508 193 124 15 37
204 804 316 199 136 108
266 498 192 132 9 31
266 503 192 119 14 32
319 660 309 143 18 40
425 561 264 113 82 40
350 819 250 26 25 25
217 612 258 178 9 45
266 513 193 143 8 34
375 822 301 37 32 31
308 550 402 153 93 84
221 563 350 109 16 38
271 508 192 44 35 39
447 574 313 92 28 40
271 513 193 94 22 37
381 708 201 130 91 60
287 482 194 143 7 32
198 522 339 134 10 44
270 560 352 122 37 49
477 556 288 75 8 24
322 843 291 55 49 42
276 508 192 45 35 39
207 673 309 122 81 59
281 507 193 79 33 41
286 268 306 82 64 42
278 513 194 68 26 36
315 838 301 76 64 53
282 509 194 44 35 39
281 513 195 96 26 39
286 498 192 105 31 37
341 409 220 95 15 33
280 352 294 90 75 58
285 506 193 79 37 42
286 508 195 65 35 39
311 383 276 106 90 73
296 453 193 103 29 37
173 542 301 113 28 45
323 540 408 204 155 145
291 463 192 79 30 38
440 500 366 189 20 63
295 463 193 101 26 35
299 452 193 90 29 33
301 453 194 64 33 35
298 455 194 94 34 36
242 572 218 44 34 39
301 463 195 101 26 32
311 603 217 128 23 38
398 731 173 59 48 36
293 874 375 37 33 32
291 473 194 139 6 31
278 770 318 77 60 52
296 468 193 139 8 31
295 471 193 138 3 32
291 477 194 139 4 28
346 538 350 157 17 51
296 473 194 136 4 30
301 468 194 103 20 31
356 484 326 56 39 26
301 473 194 133 8 32
371 678 191 115 88 55
351 482 311 57 42 29
319 278 344 127 95 63
301 478 194 138 4 31
302 474 193 137 7 29
237 619 362 180 120 95
305 318 370 135 97 68
302 476 193 137 3 28
241 803 250 78 61 54
263 328 351 124 93 70
199 584 255 193 14 51
330 413 281 107 88 66
311 453 195 62 35 35
478 536 325 101 10 26
311 458 196 54 37 39
258 291 270 119 94 67
311 463 195 80 35 37
408 561 274 32 33 30
316 463 195 53 37 39
236 808 332 160 117 90
321 463 194 63 37 39
429 576 319 73 29 38
306 468 195 92 25 34
278 841 248 187 128 104
332 874 373 52 48 46
311 473 195 144 3 32
386 479 275 77 15 25
304 475 193 136 7 32
325 852 183 91 73 59
306 478 194 137 3 30
337 443 311 131 96 71
295 513 346 85 20 35
311 478 194 141 1 31
168 527 300 166 2 45
316 468 194 67 34 39
313 470 193 86 20 31
398 720 152 96 72 44
311 598 345 83 23 37
315 469 193 50 33 40
334 562 339 170 14 52
348 481 283 72 56 39
321 468 194 136 16 36
411 573 251 108 84 54
316 473 194 133 11 35
451 517 336 57 27 27
321 473 195 153 4 34
316 478 195 145 1 32
309 778 199 80 63 55
318 505 389 66 20 26
240 658 245 118 9 35
321 478 196 147 2 33
336 477 326 54 35 26
291 483 193 132 9 30
424 583 252 131 96 62
436 557 270 121 88 49
354 757 274 80 63 55
223 678 271 90 23 38
288 480 194 145 6 29
291 483 194 140 8 32
386 538 246 95 25 38
291 488 192 80 26 34
269 390 338 130 93 74
371 558 236 110 21 38
259 628 234 128 22 38
481 543 331 83 32 40
292 486 194 136 10 30
382 730 171 75 57 44
296 488 194 114 17 32
295 493 193 137 14 38
301 483 194 123 12 33
381 492 326 57 37 28
212 710 293 88 42 32
275 920 259 85 75 72
358 436 248 78 24 27
291 498 194 76 33 38
296 498 195 104 31 39
296 503 195 55 35 38
451 576 301 140 97 95
272 418 326 130 91 77
291 508 195 48 37 40
255 753 328 122 84 71
368 713 250 154 21 47
311 453 330 123 87 69
291 513 196 46 38 40
391 788 141 104 79 57
271 858 350 141 105 88
296 508 195 40 37 39
296 513 196 41 37 40
423 495 373 195 22 67
301 498 195 67 31 35
301 508 195 50 33 38
378 548 323 159 16 50
184 550 240 197 11 55
269 322 319 121 96 66
315 353 355 135 101 70
256 826 300 42 32 30
319 698 319 141 27 51
345 843 191 112 85 67
306 488 195 139 11 35
392 496 331 81 35 32
311 483 195 138 3 29
311 488 194 142 2 31
366 458 260 74 33 29
275 258 331 117 95 71
306 493 195 96 23 34
259 303 261 112 92 72
316 688 207 86 26 31
316 483 195 140 1 31
416 787 179 76 56 49
290 533 413 130 96 76
293 266 303 77 60 40
285 562 368 128 77 72
501 568 276 150 101 83
321 483 196 141 2 32
301 573 205 105 29 38
186 583 281 112 25 43
316 493 195 139 1 31
306 503 194 63 30 36
256 663 326 156 23 51
311 498 195 120 13 29
319 293 341 128 96 65
311 503 194 43 35 39
306 508 194 106 24 36
306 513 195 92 31 38
316 943 296 85 77 79
311 508 194 93 28 38
342 481 296 65 52 36
322 934 290 83 73 74
316 503 194 88 27 36
321 498 194 136 7 30
321 503 195 124 14 32
316 508 194 96 20 33
189 723 328 174 119 96
331 398 311 116 93 67
268 835 329 152 139 133
491 554 322 163 29 58
251 648 325 40 26 30
316 513 195 65 32 37
380 499 355 88 24 33
354 673 266 147 17 45
321 508 195 132 11 32
291 900 235 84 72 69
321 513 195 71 26 33
321 353 331 123 98 69
318 295 342 128 95 64
285 913 256 86 75 73
325 395 203 90 35 31
326 395 205 87 34 31
326 396 207 94 30 32
306 862 352 43 38 35
331 428 197 81 35 35
241 783 331 152 115 83
429 526 263 71 34 34
329 395 205 89 32 33
292 728 203 103 25 34
361 873 321 56 49 45
330 398 203 85 36 35
393 757 198 49 37 29
310 479 350 55 28 26
290 728 204 78 32 35
331 397 206 86 33 36
326 399 211 94 22 34
325 404 197 76 37 33
278 546 394 175 129 109
500 568 286 129 91 81
326 413 198 89 30 35
376 773 148 84 63 47
436 511 321 55 26 27
410 458 242 127 25 43
326 763 292 71 55 46
327 409 199 86 28 36
168 531 281 60 31 37
496 548 271 107 89 72
419 843 260 78 64 56
296 933 276 88 81 81
327 412 199 96 29 36
189 693 309 140 102 71
331 403 201 77 35 40
330 408 198 98 30 35
336 408 200 57 37 40
336 404 202 61 36 40
383 480 244 83 26 27
352 803 257 37 32 30
333 401 204 64 41 39
411 450 240 194 19 45
433 851 198 110 85 69
336 413 199 72 35 32
326 403 216 95 13 33
321 758 191 69 55 48
188 536 223 55 27 32
326 408 221 96 12 32
271 913 375 67 63 63
332 401 213 103 14 32
336 718 307 97 24 39
337 402 212 103 17 32
336 408 221 94 14 33
491 563 292 93 60 58
341 403 202 86 29 31
236 829 286 76 63 60
341 408 200 86 33 35
286 868 261 113 86 68
256 523 196 81 30 37
242 583 369 146 109 84
381 620 238 144 91 76
341 413 200 67 37 36
346 403 202 111 25 27
307 838 326 116 94 68
346 408 201 95 29 30
496 563 311 112 28 42
273 258 321 117 92 64
345 406 208 105 17 34
278 790 308 74 59 49
341 427 242 75 15 25
281 598 341 45 27 30
406 828 246 66 53 42
328 392 309 115 93 68
284 884 261 60 55 55
181 518 326 88 30 39
295 335 303 95 81 66
421 532 315 54 27 33
475 784 249 98 88 80
351 408 202 101 27 30
317 293 351 128 98 63
337 504 206 63 29 36
279 571 379 187 122 103
261 683 225 87 23 31
346 413 201 82 36 37
352 408 207 101 19 33
331 508 201 130 14 38
261 939 332 58 55 55
341 407 216 94 16 33
337 406 218 93 18 34
375 462 227 166 6 35
346 408 211 98 18 34
349 405 209 110 3 26
427 849 247 82 66 56
349 408 209 102 18 36
329 507 198 150 3 33
345 410 216 94 19 32
347 411 216 98 17 33
296 498 366 120 8 39
473 546 304 86 57 50
380 553 247 100 15 32
351 414 221 104 16 34
320 353 336 124 99 70
291 528 197 48 36 39
326 410 224 95 12 32
291 561 385 189 123 105
282 669 218 43 35 37
324 415 234 85 15 29
386 812 302 41 33 27
248 889 349 160 121 97
268 308 327 97 77 53
329 410 224 96 12 33
331 413 226 97 11 32
341 414 225 101 11 32
395 490 295 65 32 27
346 414 225 100 12 33
271 638 227 64 34 38
365 831 297 36 31 29
350 415 224 101 15 33
244 918 299 64 59 59
326 433 196 56 37 38
332 417 199 117 23 31
367 744 166 62 52 44
376 788 140 107 81 56
331 423 198 92 30 32
365 405 208 77 35 33
317 874 378 59 55 55
361 566 333 112 25 44
335 424 198 69 35 33
245 568 347 117 13 40
251 523 197 99 25 38
326 438 196 89 33 35
446 577 281 208 140 116
410 490 271 73 22 28
243 899 340 119 89 77
326 443 196 83 34 36
338 688 198 127 93 73
326 448 195 70 35 36
336 438 197 78 34 35
331 443 196 67 37 39
238 643 248 146 0 37
323 735 193 47 38 37
367 863 316 56 47 43
331 448 195 78 37 39
249 566 366 123 97 72
425 499 276 68 18 28
341 418 200 101 31 36
267 328 366 133 100 75
264 318 300 60 49 37
341 428 198 43 37 40
368 510 388 181 20 57
342 426 199 45 37 42
341 433 197 61 36 37
346 418 201 64 39 39
411 504 346 120 26 46
350 423 203 72 39 38
480 805 248 101 88 79
203 759 287 131 92 64
352 422 204 74 39 36
224 653 276 147 4 41
344 430 198 56 34 37
345 433 198 73 39 36
347 433 199 92 33 37
351 428 202 63 38 37
352 416 222 102 20 35
448 546 310 152 18 48
351 473 266 80 60 39
341 443 197 87 30 35
256 858 291 159 120 90
196 708 301 128 96 63
341 448 196 110 24 31
346 438 198 98 29 35
350 439 198 119 26 37
346 443 198 127 16 32
322 538 357 73 24 34
389 600 248 154 105 95
346 448 197 137 12 32
344 897 282 64 56 54
347 445 199 134 7 30
268 422 323 106 73 56
341 431 247 73 18 24
392 773 216 129 94 66
347 446 200 139 10 32
296 371 279 111 94 75
400 808 187 82 64 53
352 443 199 134 15 34
365 583 271 48 28 33
288 938 306 55 50 46
322 416 237 79 17 28
273 269 335 118 95 69
237 623 247 48 35 40
327 416 233 88 13 31
326 418 236 83 14 29
296 823 225 65 55 56
325 420 240 78 15 28
456 524 316 72 19 29
330 428 251 67 16 23
327 422 242 76 14 27
344 713 190 148 111 80
316 313 331 114 90 61
396 811 270 67 54 44
331 417 232 92 12 31
358 426 204 48 44 37
336 417 231 96 11 31
331 419 235 86 13 30
271 568 210 122 22 40
379 679 215 152 105 71
331 423 241 76 13 26
336 422 237 83 12 28
336 424 240 77 12 26
411 557 317 66 22 31
323 421 246 73 15 26
279 638 224 48 34 40
322 417 255 71 20 25
324 420 253 71 12 24
259 286 268 122 96 67
327 426 247 70 11 26
336 847 316 32 29 29
435 473 266 95 8 32
258 717 334 166 20 54
240 612 365 180 121 96
328 426 250 69 13 25
331 428 246 71 11 25
401 527 324 148 19 49
288 525 409 120 98 76
258 324 260 94 78 62
202 667 309 127 86 61
336 427 242 73 13 25
331 428 256 78 60 39
333 431 254 75 55 34
335 433 256 79 59 38
336 433 251 70 19 24
437 837 188 119 87 66
341 417 227 100 10 32
341 419 231 96 12 31
340 420 234 92 11 30
265 318 356 120 94 67
341 422 236 85 12 28
366 518 217 43 37 40
341 425 240 79 14 27
306 753 196 72 52 49
287 556 395 186 128 109
346 419 230 96 15 31
346 421 232 94 13 31
167 523 296 114 21 41
259 363 322 92 68 51
351 418 226 99 16 34
351 420 230 98 14 33
343 629 215 69 39 30
346 423 236 88 13 29
346 431 248 74 20 24
350 429 245 80 21 26
220 703 339 163 111 83
355 483 216 174 3 40
350 430 249 76 24 25
418 506 321 56 33 25
351 433 251 74 27 26
368 697 277 127 27 48
304 840 334 124 98 70
338 436 256 78 55 35
401 564 267 80 22 35
338 436 253 70 29 23
359 524 213 61 37 43
353 870 362 53 48 45
500 566 314 166 36 61
424 500 280 69 22 27
285 503 332 42 25 27
341 436 253 72 29 26
225 653 306 87 16 35
346 439 255 72 33 27
351 443 256 71 32 29
256 528 332 71 17 30
413 795 278 40 34 30
354 405 203 107 26 27
254 887 295 117 93 73
354 406 203 106 31 26
323 279 331 127 95 65
368 540 332 182 4 58
356 404 206 97 25 30
168 522 256 48 34 36
286 638 221 57 32 35
356 412 206 100 25 31
322 808 272 116 91 73
274 364 358 156 111 94
394 560 253 39 29 31
361 413 206 75 36 34
273 322 374 136 98 77
358 404 209 80 23 31
261 819 307 40 31 30
314 400 263 88 75 65
361 404 210 78 23 31
361 408 210 100 15 36
323 367 320 119 95 69
356 414 210 101 19 34
399 508 228 150 3 35
355 415 216 99 20 34
375 527 339 169 15 53
354 415 220 100 23 35
366 408 211 92 12 34
410 820 334 84 66 52
235 584 229 72 28 35
366 413 212 105 7 34
370 409 208 73 36 35
436 568 317 139 17 45
425 430 240 133 20 40
371 413 208 59 38 38
391 588 231 103 84 61
369 506 404 195 12 61
371 408 211 77 25 30
372 412 210 71 27 37
372 410 214 103 10 39
370 442 207 162 4 39
371 413 214 110 7 34
376 409 211 65 32 35
270 409 327 131 93 75
393 596 224 103 86 68
376 410 214 84 20 33
376 413 215 103 13 33
381 413 212 50 40 41
278 295 374 105 87 68
381 413 216 91 18 38
476 553 322 75 32 38
357 418 204 84 39 37
427 784 256 76 65 55
403 496 303 60 36 26
409 761 152 95 72 56
356 423 203 75 39 36
308 298 363 131 96 64
367 490 393 94 23 34
386 524 231 184 4 46
267 343 312 109 85 65
360 424 203 69 44 40
356 428 202 54 41 39
274 271 338 117 95 71
356 433 201 73 34 34
332 524 365 52 23 32
302 377 275 109 92 76
361 428 203 60 39 35
416 524 256 111 15 39
268 323 366 127 96 70
366 418 206 97 30 31
436 498 261 48 33 34
366 423 206 85 36 31
486 812 250 108 88 71
313 328 357 136 100 70
366 428 205 65 41 36
364 430 203 87 32 39
365 433 203 122 19 31
356 416 212 98 24 37
361 417 216 100 19 34
204 762 284 152 106 77
258 690 329 124 17 35
366 420 220 104 8 35
356 438 200 101 27 31
338 653 210 70 46 38
361 438 201 138 10 28
356 443 200 128 16 34
356 448 200 96 27 36
361 443 201 135 10 31
427 573 286 145 103 95
365 438 203 141 11 28
360 578 300 182 13 57
365 442 203 139 5 37
336 490 355 56 27 27
365 448 206 117 21 37
342 642 215 106 81 72
371 418 208 48 37 39
381 533 236 158 10 43
259 671 229 128 10 30
242 728 232 60 33 37
427 854 231 84 70 64
434 836 236 95 81 73
354 876 340 57 49 49
371 428 206 73 36 36
371 433 206 53 39 41
401 497 316 62 38 25
371 418 217 108 2 35
505 573 301 77 29 34
342 794 172 59 50 45
374 423 208 52 41 43
401 853 251 76 61 54
376 423 210 46 41 45
282 558 353 119 18 40
371 420 219 105 1 35
371 422 221 97 1 33
377 420 219 98 2 34
467 536 334 192 17 62
380 446 218 74 29 35
376 428 211 62 36 39
301 484 360 101 15 33
374 434 208 63 40 41
217 533 344 106 26 41
376 433 210 57 38 39
381 418 212 47 41 42
347 834 180 99 76 61
190 703 332 169 117 91
382 422 214 44 38 41
304 762 304 71 57 46
322 487 353 63 31 27
381 417 217 97 3 35
231 823 326 198 140 114
338 428 311 131 99 69
381 418 219 94 9 29
381 428 213 72 37 41
371 713 185 111 84 51
371 438 206 101 23 37
339 858 374 44 41 39
375 438 208 62 34 35
377 438 210 54 36 39
372 444 210 167 8 37
374 441 208 136 17 43
456 463 252 89 28 39
326 583 212 70 33 35
406 797 286 46 39 33
375 442 211 95 26 38
377 443 215 94 28 35
331 493 197 113 16 32
360 425 234 94 10 33
301 819 295 103 82 61
376 448 216 118 31 47
376 458 261 83 20 27
351 653 251 63 30 35
378 440 214 66 38 33
381 443 217 92 31 39
238 753 327 147 97 72
320 432 334 142 101 79
183 531 223 173 8 41
381 448 221 124 24 43
322 599 317 124 27 49
246 583 371 156 113 90
366 788 146 88 66 47
301 453 332 99 70 55
383 445 219 49 32 36
222 551 218 54 33 35
356 419 226 99 16 35
258 273 266 114 91 65
354 420 229 99 15 35
357 421 228 97 12 35
419 570 324 146 19 51
321 448 327 135 97 77
343 914 311 57 51 48
291 348 371 161 108 89
362 421 227 95 13 33
361 758 266 83 66 60
361 424 231 95 13 34
328 386 316 113 92 68
327 868 198 113 95 83
352 426 238 90 16 30
361 511 219 70 32 37
425 841 235 123 100 76
356 426 237 93 13 31
332 534 376 181 18 56
356 428 241 89 16 30
361 427 236 93 10 32
285 889 286 91 62 51
366 830 266 35 31 30
370 683 224 145 93 73
366 424 231 95 9 32
366 426 233 94 7 31
366 428 236 92 7 30
251 593 225 147 14 41
356 433 246 81 22 27
299 538 418 147 99 85
396 555 258 53 27 33
357 431 243 86 18 28
361 432 243 87 15 29
381 626 234 139 85 67
355 435 249 76 26 27
356 438 251 74 28 27
210 788 281 167 113 81
364 495 364 56 21 25
361 444 254 71 29 27
186 583 301 189 0 52
223 612 253 65 25 41
361 448 256 72 32 28
366 434 245 85 15 28
306 273 360 114 89 61
366 437 247 81 19 28
491 552 287 104 29 42
356 483 316 58 43 27
366 448 256 73 31 29
371 428 236 88 7 29
344 601 294 187 26 63
370 430 239 87 8 29
386 783 235 119 93 69
191 763 311 189 131 103
371 432 241 85 9 28
335 737 300 70 56 49
376 432 241 82 10 26
263 328 336 120 93 68
381 425 226 89 10 30
380 426 228 89 10 30
252 693 228 127 13 36
262 693 222 68 32 35
320 856 356 32 30 30
178 542 242 34 32 35
380 431 238 80 12 24
381 432 241 80 10 25
367 496 362 61 21 26
187 713 321 171 118 92
371 437 247 82 13 26
366 489 406 96 22 38
440 842 216 87 69 60
376 435 244 82 9 26
371 440 249 81 16 26
371 448 255 77 27 29
378 698 196 125 91 61
252 917 365 61 58 58
223 679 267 163 10 48
273 304 374 116 94 69
292 748 202 134 20 39
376 443 251 81 12 26
365 490 340 54 27 25
312 260 299 102 78 51
284 889 246 62 58 59
376 446 253 83 13 27
287 369 282 102 85 66
376 448 255 82 16 27
304 845 340 119 96 73
366 468 221 165 8 42
341 520 353 138 21 48
261 923 271 82 73 70
381 435 244 81 7 25
381 437 247 80 9 25
381 443 251 84 7 26
381 448 255 87 7 27
257 508 333 78 16 29
326 453 195 121 26 36
461 538 331 110 24 43
326 458 195 65 34 35
287 754 322 82 63 54
326 463 194 54 36 38
331 453 195 63 35 34
331 463 194 58 33 37
447 484 266 87 21 33
336 458 195 133 19 37
336 463 196 155 14 38
395 792 151 93 73 57
352 763 272 78 61 55
326 468 195 154 8 37
326 478 196 146 1 32
274 394 342 138 100 84
331 473 196 149 2 33
336 468 197 149 8 35
384 734 215 141 101 64
354 668 246 62 29 36
336 473 198 150 5 35
331 478 197 145 4 32
335 478 198 140 11 31
273 912 248 86 75 72
337 478 199 109 22 33
384 417 213 71 37 35
341 458 196 166 8 41
352 454 200 168 15 42
347 459 199 169 7 35
347 463 200 157 5 35
396 763 196 56 43 33
349 456 198 164 3 36
252 718 228 139 4 36
317 720 198 78 32 33
341 468 198 102 23 35
316 373 351 141 103 77
337 628 286 81 26 37
315 422 339 143 98 77
340 471 198 146 17 41
230 663 256 61 33 39
276 658 222 41 36 38
341 473 200 111 25 36
275 368 357 156 112 94
337 475 199 143 14 38
210 778 275 165 109 79
341 478 200 62 33 35
457 516 350 109 22 45
346 473 201 87 28 34
352 468 205 134 12 32
346 478 202 55 35 39
336 813 261 49 41 34
376 606 215 104 88 70
417 490 383 187 24 63
352 473 205 58 35 39
349 476 203 43 37 39
365 694 183 118 89 53
225 642 355 178 117 92
351 478 206 47 35 37
356 533 213 79 32 39
348 479 204 46 34 41
326 483 196 141 1 32
401 722 162 60 48 35
326 488 196 135 2 30
273 885 369 114 92 71
226 538 210 65 33 37
326 493 195 138 5 32
401 808 217 99 81 71
331 488 197 142 5 32
288 261 303 78 61 42
245 668 323 50 28 32
169 519 250 100 25 39
225 683 321 90 65 52
337 483 199 85 25 33
192 738 297 138 101 71
395 791 157 94 74 59
334 488 198 142 8 31
337 488 199 134 13 33
388 778 231 128 98 72
326 498 195 134 8 29
391 823 241 61 50 40
376 513 220 56 37 36
326 508 197 142 7 33
326 513 197 127 12 34
330 503 198 134 15 35
342 599 297 175 22 59
179 559 271 52 32 35
269 307 324 91 73 52
385 581 330 94 29 44
334 496 198 34 37 43
380 713 196 126 90 61
194 599 276 196 1 51
336 498 200 44 33 39
333 500 199 47 32 36
211 528 210 177 6 41
421 498 281 71 25 31
332 504 199 120 27 41
336 503 201 54 33 38
329 512 202 169 3 41
336 513 422 122 24 45
331 513 206 169 2 40
335 508 206 138 14 43
320 358 316 120 96 69
333 510 205 172 10 45
337 508 211 153 1 34
336 513 211 117 7 32
313 860 352 36 33 33
341 493 202 81 31 37
183 556 253 89 52 59
331 783 192 79 59 47
343 494 205 55 34 36
245 812 325 152 109 84
345 483 202 55 37 40
344 488 203 55 34 37
476 512 267 69 32 38
312 609 317 145 25 52
344 491 203 65 36 41
345 493 206 64 35 38
319 296 332 120 85 57
352 483 211 113 21 41
250 858 301 174 131 104
339 501 203 57 34 39
342 499 211 69 31 37
339 507 212 139 1 30
341 508 215 117 3 29
271 378 286 80 66 52
261 543 200 174 3 35
257 853 291 148 112 83
342 512 215 82 17 26
344 496 208 64 38 42
347 503 219 116 5 25
268 890 369 132 104 86
236 578 341 76 27 36
441 468 256 132 15 39
416 473 252 64 30 35
347 507 219 105 11 23
362 855 212 73 61 57
171 533 261 185 1 49
235 703 240 133 8 38
351 508 220 100 13 23
351 510 218 95 15 24
301 848 346 119 94 71
358 454 205 82 27 34
361 453 206 162 16 45
420 499 286 72 37 37
248 855 329 154 109 92
259 846 335 135 97 82
354 457 203 171 16 48
224 591 341 58 32 29
353 463 204 151 5 35
327 874 211 92 78 70
356 463 207 142 10 37
363 449 204 127 17 37
311 643 219 87 25 32
380 708 196 129 92 62
364 451 208 130 11 34
358 460 209 146 14 41
264 360 343 144 106 85
174 518 236 125 8 36
336 428 316 133 100 70
361 463 211 133 5 31
369 571 284 170 19 51
492 586 294 190 19 60
363 464 215 150 3 36
350 837 191 120 90 68
365 463 217 147 7 37
372 501 229 70 28 26
367 463 220 118 20 38
399 485 274 70 4 24
306 318 317 102 84 64
271 908 251 84 75 74
355 468 207 97 20 33
221 523 205 119 17 38
357 468 209 78 27 36
329 419 262 88 74 58
360 468 212 141 14 38
262 318 302 61 51 39
359 471 213 88 21 34
362 468 216 160 5 38
360 473 216 66 25 35
319 701 319 62 24 28
301 308 376 128 95 65
174 548 286 177 2 49
354 476 208 57 37 37
355 478 211 88 27 39
200 641 314 110 82 52
358 474 215 35 31 39
314 275 354 124 95 61
391 458 235 117 23 38
292 826 228 182 128 103
357 478 216 137 16 42
219 717 265 126 15 40
359 477 218 146 11 45
447 779 272 84 62 47
362 473 221 163 5 41
241 788 332 152 118 86
364 466 218 166 4 37
370 452 217 191 11 49
377 450 220 132 22 43
209 610 264 181 2 56
374 451 218 190 24 46
298 520 414 114 88 71
376 453 222 178 7 40
342 563 215 150 7 36
367 469 224 171 4 42
363 475 224 162 0 42
362 479 225 151 2 37
320 378 345 138 102 75
318 265 304 111 86 58
371 494 351 57 23 27
365 477 227 99 14 32
406 460 264 73 14 25
377 455 224 185 8 45
352 825 174 108 82 59
262 363 336 129 93 74
373 459 224 136 9 37
381 453 225 185 7 42
301 578 350 128 33 50
377 464 230 175 6 39
236 643 251 157 2 41
381 463 231 179 11 41
371 468 226 162 5 39
196 528 215 177 3 37
382 627 200 119 93 59
370 472 228 142 7 37
385 506 365 134 27 50
240 923 326 58 54 55
373 469 229 153 1 36
376 468 231 153 6 36
374 472 232 32 31 37
241 823 266 86 66 61
376 473 235 38 32 39
368 475 229 26 33 38
372 478 234 79 21 34
380 570 334 109 20 39
278 826 238 185 134 105
200 603 311 85 26 38
380 466 233 180 9 44
377 470 234 81 18 28
327 535 396 194 20 59
352 668 231 41 29 34
340 478 301 65 50 32
380 472 237 79 26 34
378 478 239 133 11 33
188 572 262 119 35 47
301 588 210 78 34 40
247 908 351 70 59 55
373 535 225 99 38 47
381 478 241 120 15 31
216 768 340 168 124 93
443 507 353 147 43 61
382 474 240 119 20 37
354 481 212 170 7 46
255 871 347 85 66 52
354 486 218 167 0 35
355 488 222 146 2 34
261 513 331 46 24 28
332 673 302 83 25 35
379 489 409 148 23 54
217 698 297 80 29 32
354 493 223 86 18 31
355 498 223 85 23 34
436 843 191 118 91 72
356 508 221 88 19 29
356 513 217 66 29 29
356 511 219 89 22 29
343 760 183 89 68 44
361 508 221 64 30 31
251 533 335 90 5 29
361 513 217 61 33 35
366 514 217 57 34 37
412 501 359 188 16 66
366 511 219 53 35 36
431 523 326 72 26 35
266 508 331 39 26 27
371 509 222 44 37 39
212 723 286 69 28 37
371 512 219 58 35 32
446 454 255 96 19 38
376 509 222 58 35 37
381 509 222 68 31 34
381 513 221 61 35 36
357 489 225 100 19 32
286 583 351 167 22 56
358 485 224 144 5 40
241 908 336 65 56 55
360 488 227 111 20 35
205 773 281 164 110 80
357 493 225 55 32 37
305 551 371 83 23 37
363 484 229 130 8 27
391 567 265 87 24 35
362 488 229 105 19 31
402 463 264 75 32 37
362 492 229 60 35 32
319 790 199 77 60 54
357 498 224 49 33 35
274 307 319 97 78 55
361 498 227 67 33 35
288 607 218 52 36 40
437 479 269 87 7 29
365 499 228 89 24 30
366 748 266 81 66 59
366 503 226 47 30 31
287 552 400 184 125 109
324 259 334 121 95 61
216 558 342 86 26 36
259 868 289 167 129 99
362 506 224 51 33 34
261 378 276 79 64 48
372 483 235 108 13 27
203 616 296 163 30 59
373 491 234 37 35 38
240 723 235 102 26 38
376 486 301 62 44 31
381 493 235 86 21 25
380 495 233 78 25 25
371 498 230 66 29 32
338 448 308 127 94 69
370 500 228 85 20 36
256 643 326 181 17 59
316 388 281 102 87 70
