ply
format ascii 1.0
comment Created by Open3D
element vertex 2215
property double x
property double y
property double z
property uchar red
property uchar green
property uchar blue
end_header
324 103 222 152 37 53
307 198 324 108 91 72
180 548 253 173 2 46
335 420 306 123 98 69
322 108 223 168 26 55
328 98 228 143 38 51
328 103 233 158 34 59
326 108 233 166 25 59
265 888 282 146 114 85
306 318 324 97 80 62
312 103 283 105 37 43
277 543 200 153 7 34
247 578 224 70 30 37
324 110 232 170 26 60
347 678 307 69 23 33
327 108 238 146 41 58
261 564 360 80 32 37
318 173 304 116 93 68
302 243 347 111 92 70
413 608 256 157 107 100
325 111 234 163 20 56
325 112 238 154 21 52
282 478 323 120 73 62
330 98 233 143 29 51
312 8 278 60 56 57
296 133 263 117 81 57
312 873 228 53 50 52
329 103 238 136 35 51
330 101 238 138 27 50
261 388 333 108 75 59
327 108 243 126 54 57
323 108 269 111 93 73
267 487 316 133 67 65
292 308 317 91 74 54
325 112 243 146 26 50
298 30 280 104 55 49
325 112 248 119 75 65
327 108 253 119 65 59
269 300 376 108 88 67
329 99 243 129 15 44
330 97 242 126 39 50
272 43 283 106 65 54
462 533 318 125 15 41
382 831 198 74 60 56
329 98 248 123 34 50
328 103 243 122 74 69
312 831 234 175 124 94
323 114 238 163 25 58
324 115 248 117 76 66
321 118 243 135 49 56
354 662 284 141 4 44
252 883 303 175 127 102
320 121 255 120 90 70
256 809 257 81 62 55
474 517 230 112 24 39
341 653 302 160 18 51
350 866 319 32 30 30
440 600 250 126 89 51
361 674 283 136 15 43
259 133 253 121 85 61
315 146 265 138 105 68
260 131 255 120 83 59
354 619 247 177 21 53
298 812 229 84 67 58
337 773 294 83 63 55
272 10 293 101 66 53
311 568 333 69 22 32
302 604 335 169 17 53
267 298 363 108 87 65
258 138 253 117 84 60
232 523 348 128 27 49
258 143 253 113 84 58
351 878 218 80 69 63
257 158 253 108 84 57
381 826 158 102 79 65
283 188 303 106 87 67
214 624 352 129 98 67
258 173 253 112 88 62
255 615 241 75 19 34
223 612 259 88 25 39
423 496 210 190 13 41
259 183 253 114 90 62
259 188 253 117 93 65
269 478 315 129 79 69
303 593 340 162 19 53
260 184 255 111 88 60
260 186 255 112 89 61
295 97 280 101 79 62
298 132 239 144 24 47
356 483 257 84 54 37
417 483 203 174 23 42
302 133 238 120 82 73
297 133 253 103 70 57
325 10 288 118 45 56
298 136 248 126 59 60
323 397 292 119 97 72
342 421 221 69 23 26
299 136 253 112 73 60
302 138 253 137 89 69
244 778 345 159 119 85
332 753 196 62 45 43
237 548 212 99 31 39
311 131 240 173 24 56
307 137 243 164 48 60
255 826 321 159 115 91
204 611 280 202 4 58
311 136 248 153 45 54
212 591 341 102 21 40
260 185 263 104 83 59
304 141 255 157 102 76
306 141 255 162 106 77
287 678 337 112 24 41
241 693 325 46 23 25
290 510 376 80 29 38
291 804 232 81 64 56
311 136 253 143 91 74
192 548 234 139 29 47
267 403 253 91 76 60
314 129 241 170 24 53
320 198 303 121 97 68
374 749 269 93 75 65
281 867 350 139 103 83
322 453 203 85 28 30
315 131 244 168 24 55
417 528 238 65 19 29
283 394 260 109 92 73
260 200 255 118 94 68
264 323 298 63 52 40
227 623 264 177 7 45
357 428 213 109 21 37
259 203 253 121 96 70
381 763 248 154 114 81
430 610 265 179 125 109
262 83 275 100 50 46
276 66 276 110 12 40
260 303 288 99 78 54
260 203 255 117 94 68
288 492 365 34 28 28
298 94 281 96 73 56
257 228 253 127 99 68
257 233 253 130 100 68
185 568 308 130 15 43
312 663 222 110 13 27
267 443 222 121 8 27
344 463 293 130 100 69
262 14 264 87 73 63
300 288 366 118 92 61
262 12 268 87 69 60
242 583 341 47 22 27
267 11 268 90 75 65
271 11 271 94 78 66
262 11 278 87 47 47
261 11 283 84 37 40
310 318 353 134 101 69
282 495 316 143 23 50
263 10 283 83 41 42
345 459 287 128 101 68
306 333 319 102 85 68
262 11 288 83 41 40
302 577 372 179 121 103
407 452 203 117 16 38
332 540 318 68 52 44
267 10 278 88 59 54
270 551 360 39 26 26
346 623 240 117 15 37
284 511 376 34 28 29
395 440 204 82 28 31
272 10 278 92 67 58
422 605 288 112 18 37
317 103 278 106 58 51
272 10 283 91 60 50
373 703 298 152 19 49
262 22 256 101 88 74
340 20 280 109 49 53
267 18 258 99 86 72
266 21 256 105 92 78
272 16 261 96 84 70
220 794 287 168 114 81
272 22 256 103 89 74
262 28 288 130 40 56
368 703 229 118 67 59
208 597 259 191 12 49
292 703 349 50 28 32
448 541 288 84 10 28
260 30 285 111 82 70
262 33 284 116 43 51
380 831 173 101 79 65
400 751 144 82 68 56
267 29 289 116 51 54
358 467 213 116 7 32
259 209 264 107 84 58
267 32 286 123 31 49
196 568 324 161 13 49
421 599 311 52 27 31
277 11 268 104 85 69
322 613 338 75 25 34
277 10 273 104 78 63
367 668 183 127 93 55
317 473 209 105 18 32
274 255 341 113 94 74
342 583 378 133 72 71
282 13 263 109 82 60
269 913 356 173 134 119
324 386 312 118 95 71
282 11 267 111 78 56
327 13 297 144 28 58
318 418 231 131 17 29
282 10 270 112 74 53
262 603 233 172 4 41
422 548 337 101 24 41
282 10 273 112 70 50
277 10 278 103 70 55
262 663 333 119 24 44
397 526 275 73 19 29
287 9 278 113 57 39
282 9 283 110 62 46
307 20 289 105 51 52
312 713 338 159 0 50
287 284 372 106 87 66
282 9 288 110 63 49
287 9 288 112 52 46
232 618 257 176 5 44
277 18 258 108 88 68
278 23 256 102 41 29
279 31 256 88 37 26
217 543 342 81 28 37
370 685 278 101 16 36
288 18 262 118 32 28
412 627 238 190 121 96
333 853 203 69 60 59
364 506 255 66 39 27
285 19 260 95 42 22
422 893 298 98 82 67
286 23 260 100 33 28
457 486 205 149 26 41
282 28 258 73 40 31
177 518 228 132 19 41
336 428 308 128 101 70
294 371 281 99 85 70
282 33 258 87 48 36
362 464 202 105 31 38
314 149 266 142 107 70
282 893 358 115 98 87
237 573 353 156 19 51
396 838 238 104 92 92
261 333 363 136 99 78
286 28 260 70 50 38
397 733 188 58 45 34
418 531 284 72 16 27
288 28 261 96 37 32
227 688 347 145 98 71
277 33 287 131 25 51
392 517 258 73 17 28
272 404 249 98 83 66
282 33 286 124 45 54
258 14 292 78 38 35
347 887 233 72 65 64
383 584 246 61 31 33
394 779 206 100 68 50
265 11 290 86 48 44
207 533 342 119 25 45
416 509 228 106 23 38
266 11 293 95 60 54
275 266 350 109 91 72
397 764 138 90 74 58
451 882 208 98 80 67
166 518 283 155 5 42
287 668 226 50 36 38
390 556 356 145 22 47
267 14 301 104 59 60
448 609 263 215 140 117
376 484 227 105 0 33
342 568 364 132 29 53
234 728 345 165 111 85
406 836 271 61 51 42
289 40 280 118 18 44
273 10 297 107 71 57
379 492 224 107 7 31
331 413 293 119 96 70
333 648 309 49 25 31
272 11 299 108 72 58
342 938 313 58 50 48
272 13 303 123 86 72
258 22 292 125 20 46
260 20 295 124 21 49
262 24 293 132 31 53
262 18 298 115 78 71
238 663 321 52 23 25
263 22 297 136 22 52
303 372 286 103 89 74
260 25 290 129 25 45
447 818 243 95 74 56
258 549 342 95 13 34
288 118 258 115 36 44
335 906 250 80 72 72
266 19 300 107 33 46
394 836 267 78 67 59
327 22 263 94 85 78
258 148 258 107 82 56
273 609 353 160 98 79
272 24 299 123 45 53
232 688 298 63 29 35
397 473 199 77 30 34
269 21 301 118 38 46
371 623 224 90 49 42
302 173 269 145 101 69
269 26 296 144 20 54
272 26 297 145 23 56
277 10 293 108 70 54
317 558 393 112 94 76
302 58 278 98 22 36
190 549 325 171 15 53
297 288 313 93 71 45
287 594 364 184 122 100
277 12 304 122 76 60
393 765 143 87 71 56
282 9 293 114 66 53
392 635 230 172 111 90
287 9 293 120 52 50
186 578 293 135 26 49
282 10 298 122 64 54
307 16 266 70 64 60
240 640 330 115 26 44
402 558 298 152 14 47
287 10 303 139 47 58
315 353 343 126 100 69
282 13 307 136 75 66
277 23 302 141 100 79
394 787 206 68 49 40
278 956 284 81 78 79
377 534 298 58 43 35
287 168 283 97 79 58
391 842 233 77 68 63
277 25 300 137 105 82
282 24 299 136 97 77
287 22 301 138 95 73
339 831 260 57 37 32
230 688 278 66 30 38
361 469 213 123 10 32
292 546 363 67 17 24
282 29 289 134 99 81
208 667 356 172 121 96
259 37 281 126 18 46
343 28 278 113 60 58
318 208 319 121 96 69
520 627 280 67 19 36
314 275 316 132 95 66
377 733 268 90 36 45
262 43 279 119 98 78
277 443 330 89 62 42
405 763 188 68 50 39
312 18 293 165 117 125
262 48 279 111 25 43
264 42 281 116 97 76
237 643 359 178 116 89
225 560 226 170 43 60
205 570 241 40 30 37
267 38 283 120 24 45
320 188 307 119 96 71
270 35 285 131 17 48
267 43 282 106 32 42
387 598 324 74 28 36
266 49 280 114 20 43
244 738 335 128 83 65
268 47 281 118 21 43
470 540 316 121 15 39
193 644 329 91 73 53
259 53 276 101 64 54
262 53 278 110 74 61
259 58 276 108 85 69
262 708 232 105 19 36
259 62 276 110 88 72
447 568 253 60 36 41
262 58 277 114 90 69
262 63 276 112 83 66
202 683 317 129 96 64
259 373 333 117 83 64
270 50 280 120 22 46
342 459 228 120 28 41
267 63 277 111 49 50
512 623 263 129 32 40
307 188 318 109 91 72
204 777 332 188 128 101
272 58 279 110 35 44
359 619 263 174 4 55
284 37 256 101 34 25
287 38 259 107 26 28
340 942 308 63 58 55
176 518 319 59 27 33
314 139 261 137 102 70
284 48 257 108 41 35
412 832 273 55 45 37
322 598 223 101 32 38
302 229 286 139 101 61
299 323 370 141 101 72
287 43 259 117 53 48
325 848 297 122 94 74
330 610 336 157 14 48
303 738 339 167 22 57
277 43 283 126 97 75
272 326 311 82 68 52
282 38 284 128 26 50
292 852 339 144 114 85
282 36 286 133 22 52
284 35 285 129 23 46
281 47 281 122 93 72
282 198 289 126 95 60
286 42 281 111 64 56
350 483 261 103 75 50
386 793 173 81 64 54
283 49 280 106 69 56
286 53 258 130 36 41
327 453 324 141 103 80
286 58 258 122 32 42
284 64 258 112 32 37
292 193 318 103 86 68
285 62 259 111 29 41
283 64 269 90 58 47
287 278 308 100 72 44
285 57 272 97 59 51
354 653 273 115 19 39
284 60 270 89 61 50
277 407 218 78 42 40
498 588 290 58 31 33
329 632 231 117 19 30
435 616 249 201 134 111
277 58 279 114 23 43
280 51 281 116 94 72
289 203 284 129 90 52
387 773 148 79 62 51
268 103 263 118 82 66
507 603 287 134 22 46
281 58 277 110 56 54
411 627 223 193 129 102
291 14 264 119 34 22
308 182 315 107 89 70
276 479 319 122 76 65
297 10 274 101 49 39
298 226 285 136 98 58
359 671 288 133 14 43
287 400 250 109 91 72
317 423 224 125 17 30
298 11 272 99 47 37
414 876 306 77 61 52
343 453 263 111 87 59
302 11 272 82 53 50
295 77 275 95 5 37
188 568 258 61 33 37
302 14 269 76 53 47
290 515 311 139 12 54
292 9 278 106 50 39
297 9 283 98 47 48
308 358 359 147 107 80
302 9 278 83 56 55
302 9 283 90 52 52
387 558 302 154 13 50
302 9 288 103 47 52
294 30 266 108 60 51
282 352 371 165 112 94
301 18 267 81 46 34
407 558 299 153 15 48
300 22 266 83 50 35
301 778 317 79 59 50
302 33 263 97 38 31
477 823 233 105 86 69
282 488 199 127 8 28
300 33 266 93 53 51
313 388 283 111 93 74
292 28 288 144 31 58
303 83 281 102 81 62
307 902 228 80 69 67
315 786 306 48 37 34
292 33 283 131 89 78
373 727 235 130 88 69
372 488 216 100 18 31
297 28 283 130 78 71
235 708 256 140 9 40
299 25 289 145 18 55
308 418 226 117 13 30
367 658 183 130 94 56
334 423 313 127 99 66
300 26 286 140 23 60
281 597 366 184 123 100
306 11 271 63 59 58
307 9 273 60 57 56
217 743 349 174 123 96
345 631 191 126 95 69
309 10 270 53 52 53
312 13 268 54 52 52
312 10 270 51 52 54
437 613 263 203 134 110
390 782 158 76 60 50
316 14 269 51 50 50
307 9 278 70 63 62
367 788 259 69 55 48
262 73 275 103 33 41
402 469 201 87 33 41
307 10 288 93 53 54
292 158 293 105 85 64
335 835 196 74 64 62
312 9 283 72 57 56
335 581 370 144 84 77
312 10 288 88 54 53
297 653 225 97 22 30
317 8 278 55 52 54
318 128 258 142 55 57
258 153 268 101 78 54
317 9 288 98 49 51
307 168 268 149 106 72
331 668 316 136 25 51
254 636 336 115 14 31
307 18 263 81 72 64
324 438 330 138 100 75
307 20 259 95 80 63
298 417 220 97 25 33
304 20 260 97 58 29
498 583 288 56 29 32
312 503 199 51 36 39
298 49 259 96 39 35
368 739 288 106 27 44
327 538 303 65 54 42
312 18 263 75 68 62
339 541 288 60 48 36
305 362 361 151 107 82
312 20 259 86 77 68
342 48 258 135 31 50
256 888 333 103 81 73
314 221 330 118 95 68
312 22 257 92 82 71
397 798 233 84 59 48
327 552 393 93 73 58
282 449 220 88 26 23
304 33 260 99 28 24
441 605 283 66 25 39
362 693 229 93 59 53
289 163 283 97 79 59
312 433 237 82 47 42
317 19 263 75 68 61
326 924 366 70 63 58
317 22 258 86 75 65
304 892 220 93 79 72
385 791 159 77 60 52
317 17 267 60 56 52
306 34 280 118 78 68
232 582 234 142 20 43
186 558 248 160 11 46
373 481 225 102 4 31
320 198 293 122 97 67
189 663 333 165 114 89
309 26 286 120 31 49
212 753 347 171 118 93
377 744 158 65 54 47
221 778 278 116 84 67
311 29 285 126 18 47
317 33 284 131 79 68
226 644 308 74 23 33
317 895 357 40 37 37
297 9 293 118 41 52
292 10 303 139 35 57
405 615 215 109 86 55
302 10 293 113 43 53
210 554 340 43 27 33
307 582 363 173 110 94
303 11 294 112 43 52
314 459 212 104 15 31
300 10 297 119 37 50
302 12 298 116 37 47
302 12 303 116 42 47
292 10 307 145 35 61
368 477 209 190 22 48
292 13 309 138 39 58
355 528 200 129 11 28
406 520 252 66 9 28
294 12 311 147 38 63
304 69 281 105 83 64
295 12 311 143 38 62
292 408 349 169 120 99
302 13 308 119 51 53
232 683 293 46 29 35
309 516 354 100 22 37
297 24 293 145 92 78
277 443 222 109 17 27
322 469 201 106 32 39
285 770 226 74 59 52
292 19 303 164 117 100
297 20 303 191 142 146
288 254 352 109 91 72
302 893 352 121 97 75
297 22 298 160 112 91
212 788 342 183 126 97
295 26 291 152 19 58
482 588 302 96 29 41
303 19 298 150 99 89
342 648 229 62 30 37
318 478 201 91 28 33
301 21 297 152 100 86
252 703 239 128 10 34
325 794 206 75 59 53
297 18 307 159 109 96
382 601 289 97 25 42
307 12 294 98 46 49
312 12 294 97 47 46
305 14 298 118 55 46
456 509 231 75 32 33
264 895 279 130 97 76
305 14 303 115 70 52
316 11 295 114 40 49
360 771 276 87 69 61
248 612 244 43 31 38
257 593 364 132 101 74
305 14 306 113 76 58
313 16 296 138 94 81
272 583 367 148 110 87
317 23 289 136 103 85
232 553 218 131 18 40
471 578 266 83 31 30
274 389 270 97 81 64
295 146 290 106 86 63
289 38 261 112 21 30
312 598 222 44 35 38
397 773 213 140 98 63
312 83 280 104 73 59
314 960 286 93 88 90
297 38 268 105 63 58
378 701 187 98 76 51
297 38 273 108 76 66
290 43 264 131 42 44
300 160 266 143 99 68
391 485 217 179 21 45
290 47 264 126 60 54
292 43 268 123 52 52
224 642 307 52 31 35
322 408 338 147 107 81
303 416 246 112 56 29
292 43 273 115 61 60
291 158 288 101 82 61
243 643 348 172 109 86
304 38 259 88 35 28
355 465 208 111 7 34
301 38 263 97 57 41
307 184 317 107 90 71
298 44 264 101 58 55
377 718 263 164 14 49
230 653 278 152 5 42
234 692 333 114 74 61
298 48 263 95 45 48
211 798 333 195 134 105
341 547 330 68 51 43
302 43 258 83 36 25
333 523 289 81 41 42
301 42 262 93 46 35
297 43 268 103 71 77
292 834 313 95 76 55
298 220 336 107 90 72
322 118 273 117 56 55
337 578 398 172 123 110
286 218 329 109 91 73
377 613 213 107 82 49
299 40 265 100 48 47
298 48 268 84 30 37
322 413 338 147 106 80
293 34 279 113 43 50
272 668 232 68 32 33
385 723 223 157 108 76
289 45 275 113 74 64
189 648 337 149 98 80
300 39 275 97 21 35
297 243 348 110 91 71
351 921 343 67 60 58
303 43 276 101 9 34
388 627 236 142 94 81
416 490 217 147 6 39
312 962 318 69 64 64
342 503 202 108 16 23
300 48 275 93 51 46
297 53 258 100 67 64
290 51 268 115 71 65
295 58 263 92 33 37
289 111 272 105 62 55
268 268 338 118 96 71
356 560 381 41 28 25
372 477 209 111 25 39
295 63 263 88 18 33
296 58 268 93 31 40
294 64 263 85 27 37
330 768 196 50 46 46
300 51 256 90 29 23
297 58 273 94 19 37
312 678 217 43 35 39
222 728 298 39 30 33
299 55 276 96 46 45
300 52 275 105 78 62
301 887 227 64 59 61
378 698 188 102 79 52
298 63 277 104 74 58
262 467 359 75 30 34
302 63 279 107 75 57
443 514 226 82 36 39
305 38 257 80 33 24
306 43 257 70 58 44
427 528 348 142 20 45
305 46 256 80 70 58
296 73 274 94 40 42
320 87 276 120 18 46
395 768 208 126 87 54
292 472 321 99 66 51
309 36 281 123 26 50
262 318 268 128 100 73
312 37 281 121 44 51
312 43 280 116 13 41
228 602 249 176 13 47
320 444 234 84 29 32
312 48 279 109 45 47
317 37 281 121 88 67
216 623 318 95 34 44
317 40 280 119 65 57
212 703 313 118 84 57
341 453 303 128 97 65
447 527 328 174 21 56
282 503 319 142 19 51
317 48 279 113 37 49
312 58 280 117 95 69
293 842 249 178 125 99
307 58 280 104 47 46
306 62 280 102 29 41
314 218 330 118 96 70
242 553 339 32 24 26
307 578 373 183 121 105
312 63 280 109 62 53
351 743 188 132 99 68
311 64 281 106 42 40
261 68 275 109 20 40
382 438 204 106 26 26
251 688 242 131 4 32
272 67 276 104 58 51
272 448 333 96 66 47
372 698 183 105 79 50
267 68 276 106 44 47
272 73 274 110 86 63
272 78 273 106 70 57
364 565 391 65 19 26
271 88 272 103 42 46
267 93 272 107 65 56
169 517 307 153 7 44
382 704 178 81 68 58
270 92 271 106 14 40
267 83 275 107 35 42
317 468 199 93 33 40
267 88 274 112 15 40
348 630 202 93 69 49
385 703 203 134 92 60
278 300 381 113 89 64
279 69 270 101 44 45
312 833 303 140 109 82
227 587 239 93 33 41
279 79 264 96 31 33
333 537 348 64 43 34
284 69 263 96 49 41
204 762 309 164 112 82
291 430 340 149 106 87
382 550 388 83 11 28
285 66 263 102 38 36
482 558 262 111 1 32
247 592 353 102 78 57
282 68 268 95 44 42
319 264 329 123 94 61
311 388 352 150 106 80
394 831 253 85 69 57
280 66 271 107 75 62
281 73 267 96 30 35
336 716 206 82 27 34
256 627 353 175 111 88
278 83 258 104 27 35
231 673 313 77 19 34
277 88 258 96 27 32
354 558 310 32 25 26
283 193 308 108 89 68
274 84 269 105 60 54
419 835 260 65 53 43
302 483 199 139 2 31
263 348 278 81 70 58
274 85 265 104 76 60
274 88 264 89 60 45
323 565 346 128 13 43
221 723 288 111 19 41
275 93 258 88 30 33
296 787 316 76 57 48
275 91 261 83 13 28
274 93 263 89 21 32
246 543 341 27 25 26
291 420 240 97 42 37
274 94 260 94 16 31
376 698 288 105 22 40
262 428 324 75 50 37
297 398 258 111 93 74
327 901 208 73 60 52
262 103 272 112 89 67
251 789 252 73 58 51
257 523 347 99 22 39
320 108 276 112 35 45
261 108 272 113 89 66
342 552 323 98 14 36
322 892 343 32 31 32
264 108 269 115 84 65
271 102 258 122 83 68
348 562 314 93 24 39
258 338 319 89 68 50
313 955 330 68 65 66
270 101 261 121 84 68
384 643 192 153 106 71
235 651 334 119 66 57
266 103 268 116 84 65
264 104 270 114 87 66
316 858 318 124 95 68
266 663 236 52 35 37
269 100 265 120 82 67
268 108 258 133 87 70
266 113 258 133 88 69
355 866 204 96 82 74
265 107 266 115 81 64
442 579 298 69 20 31
290 480 339 108 73 60
264 114 264 116 82 63
407 458 197 85 28 36
262 98 273 113 91 70
263 118 263 116 82 63
277 348 372 163 114 95
351 551 331 97 3 36
261 128 258 125 86 63
255 888 297 174 128 105
261 128 263 120 87 62
393 753 208 122 87 53
336 458 313 136 101 75
316 253 303 137 102 65
261 123 268 110 80 61
294 100 281 93 20 32
260 121 271 109 82 62
272 838 332 170 125 109
260 128 267 109 79 60
275 96 257 105 28 36
288 108 258 112 44 45
226 813 293 196 134 103
332 904 243 76 68 67
277 407 247 105 89 72
288 103 258 109 25 39
307 967 308 51 47 46
265 422 325 102 69 53
367 437 207 116 18 38
288 108 268 97 27 37
326 541 313 68 54 44
314 270 311 143 99 69
288 117 267 106 72 54
294 68 258 86 48 43
436 557 225 193 10 45
260 551 345 108 7 33
293 852 255 170 123 96
328 954 293 84 78 81
317 78 278 113 72 60
210 793 313 188 128 99
292 78 258 90 20 32
293 73 258 91 35 40
287 495 312 144 19 50
323 448 329 141 101 77
190 660 340 166 112 89
359 819 250 29 26 26
293 73 263 87 26 35
294 65 266 90 15 34
320 183 303 121 97 70
295 67 269 88 35 35
262 518 349 44 26 27
281 793 232 78 61 54
292 412 246 104 80 51
238 788 263 75 61 57
296 68 273 96 69 53
317 888 339 88 67 56
272 414 240 83 64 50
294 73 272 99 8 36
290 495 308 144 20 51
257 243 273 106 84 57
412 554 243 188 11 49
293 78 263 84 41 38
248 646 331 62 26 33
297 198 324 105 88 71
248 888 313 169 124 103
185 550 241 34 29 38
417 523 228 66 25 31
227 663 328 119 85 66
292 462 326 94 66 48
297 78 277 96 23 36
384 608 325 69 31 38
426 912 323 100 83 73
320 223 298 126 99 67
298 73 277 103 80 61
169 528 298 125 12 41
368 672 220 130 77 63
452 568 307 148 23 51
297 898 228 85 75 73
259 324 261 125 97 71
302 68 279 113 90 69
362 653 182 125 92 54
304 73 281 104 25 43
427 493 212 166 15 42
291 83 258 96 49 43
236 808 273 77 63 59
303 812 225 83 66 58
291 83 263 95 22 37
291 88 263 99 46 47
231 549 216 162 17 44
316 188 279 137 104 66
201 763 333 189 129 104
291 88 268 98 18 37
293 88 273 92 22 38
265 334 370 142 103 81
295 81 275 87 19 34
297 88 278 93 50 45
282 723 348 183 19 59
296 93 279 105 85 65
300 87 280 97 16 37
302 88 282 99 45 42
302 93 283 98 25 37
307 73 281 108 17 40
385 851 234 80 69 63
303 398 263 109 93 75
260 354 349 142 103 84
304 663 330 172 3 55
311 73 281 114 20 43
269 243 305 119 88 60
359 667 252 33 30 36
307 78 281 104 72 58
373 855 313 37 34 33
311 78 281 101 50 47
251 678 330 79 30 39
313 78 280 105 27 42
317 73 278 115 93 69
422 507 220 171 25 45
430 893 297 92 73 61
327 503 302 124 84 70
314 68 280 107 33 44
350 926 311 68 58 57
307 93 283 104 34 41
212 728 350 173 118 93
299 200 326 107 90 72
236 648 333 120 56 55
262 673 335 83 27 38
311 93 282 105 23 41
331 408 313 120 95 67
388 813 167 104 79 61
317 83 278 111 26 42
318 93 274 107 47 49
347 723 313 107 27 44
417 538 343 62 26 32
214 524 215 135 2 33
272 423 228 75 42 40
297 753 333 90 71 63
289 99 259 105 25 35
290 98 258 108 28 40
262 418 233 77 59 47
272 433 222 108 22 34
322 433 224 130 13 42
289 99 262 93 27 36
290 97 263 88 34 40
473 543 308 56 26 31
197 578 323 159 12 49
224 606 255 182 14 53
290 102 256 108 32 35
360 848 193 89 74 63
290 98 268 86 57 49
324 386 328 125 98 68
290 98 273 92 24 37
351 723 311 34 29 32
290 102 265 78 60 44
289 103 273 87 40 39
292 98 278 94 47 44
335 792 196 59 50 46
387 513 217 109 14 28
313 383 288 111 92 73
289 104 276 97 14 36
297 98 282 97 47 46
264 766 336 180 132 101
289 107 276 100 14 35
304 251 350 114 92 68
251 892 329 118 99 86
330 47 276 125 22 49
292 108 278 102 68 54
329 402 323 127 99 64
198 758 318 183 124 99
293 113 278 107 86 64
268 854 289 119 88 58
297 108 282 106 87 66
263 353 278 77 67 58
295 108 280 108 85 63
264 294 352 115 93 68
315 458 214 112 9 31
281 401 252 107 90 71
382 613 228 99 55 45
302 323 368 140 101 72
302 103 284 99 69 55
242 547 341 29 25 27
302 108 285 107 89 70
259 620 340 73 39 37
242 743 248 91 28 38
336 833 268 114 87 68
302 112 285 108 90 70
397 552 303 144 17 48
290 114 270 116 81 70
331 752 306 84 64 53
293 118 273 115 86 64
292 122 258 103 42 42
438 876 186 88 77 68
289 121 262 98 48 38
397 605 223 107 82 49
384 850 231 74 62 54
292 123 263 113 77 56
271 474 319 124 82 68
293 123 273 116 88 65
403 737 149 61 47 38
294 128 268 112 82 57
287 513 197 62 34 37
294 128 273 107 82 59
307 573 214 100 29 36
298 503 328 128 62 60
480 816 225 92 76 60
294 118 278 106 84 62
502 824 224 99 87 77
294 118 281 106 85 61
205 600 266 194 14 51
297 118 283 107 87 65
419 543 340 139 28 52
379 707 224 154 104 76
295 128 279 103 80 58
425 614 235 148 104 72
295 128 283 107 85 60
299 120 286 108 89 70
189 542 326 172 14 53
318 633 320 97 28 41
393 798 193 75 57 48
307 103 284 97 52 48
277 844 336 145 112 90
307 108 285 106 87 66
358 678 238 97 22 41
272 403 253 100 84 66
292 498 367 36 27 29
383 867 325 48 41 36
307 113 285 109 90 68
212 738 304 110 82 56
309 366 297 107 90 72
378 844 217 71 60 58
312 108 283 104 63 55
312 113 284 113 93 69
319 98 275 98 75 56
205 605 315 69 22 30
316 113 282 110 86 64
326 403 333 141 106 75
319 124 256 137 35 48
393 833 231 83 71 62
287 453 328 89 64 46
309 116 285 108 88 66
327 19 269 85 75 65
402 878 302 87 71 59
307 123 288 107 87 66
247 823 273 87 67 60
351 472 205 111 34 43
397 558 393 184 19 60
216 633 293 153 19 49
319 118 279 120 96 70
352 483 212 117 18 33
316 198 318 116 94 69
198 728 342 175 119 95
319 123 279 119 95 69
315 128 286 114 93 69
293 215 331 105 89 72
369 442 206 123 11 39
307 128 290 106 87 65
355 643 263 101 27 41
325 10 279 72 55 56
273 604 364 184 122 101
319 157 295 115 92 67
325 10 283 93 52 56
351 442 207 120 14 39
256 697 335 43 27 29
331 408 308 118 95 69
327 12 283 102 53 58
327 11 288 122 45 56
205 558 335 171 20 54
331 15 279 98 67 68
318 392 287 110 91 70
322 23 289 133 97 75
260 861 322 98 43 47
403 842 266 91 73 65
332 13 288 123 47 57
336 15 284 116 56 61
321 20 264 80 73 67
233 533 210 116 28 41
258 703 235 86 27 36
327 24 259 88 82 76
271 950 334 58 53 52
260 323 306 59 47 36
398 747 189 49 37 26
327 17 273 79 73 71
205 631 344 120 94 64
325 20 265 89 78 68
212 644 320 119 80 59
328 21 267 93 83 72
324 26 256 90 80 70
327 26 257 87 79 73
262 818 254 82 64 57
395 834 257 79 64 54
332 24 263 99 91 84
262 419 325 66 45 36
322 932 353 57 52 50
332 19 273 88 73 68
269 238 308 111 86 58
326 393 308 119 96 71
334 21 271 94 79 73
232 598 244 97 33 42
477 617 292 120 31 50
331 25 259 95 89 83
399 560 384 196 16 62
332 27 257 93 85 79
368 875 263 70 61 59
312 478 319 118 80 62
337 28 258 102 89 81
394 871 320 57 47 41
315 384 289 110 91 71
336 25 264 100 88 82
327 32 287 136 48 60
262 538 202 106 28 40
307 543 358 37 28 27
328 708 324 118 24 45
381 703 193 110 83 56
332 23 288 144 111 102
337 22 287 130 68 73
332 33 286 125 53 57
338 24 285 144 108 107
293 966 304 66 63 62
215 629 288 28 33 37
335 28 286 113 79 61
361 862 308 33 31 31
206 758 307 142 101 69
273 413 337 131 93 78
342 28 263 116 75 73
228 658 338 113 75 60
392 439 204 83 31 30
341 29 259 111 84 76
272 568 358 81 20 32
422 558 302 115 18 41
276 929 257 81 71 69
277 608 337 118 24 43
386 709 188 67 54 42
380 483 222 111 2 35
343 32 258 123 71 67
344 31 262 126 64 65
316 763 201 69 56 49
238 803 268 75 61 58
339 26 266 108 81 77
289 194 316 104 86 67
370 690 296 113 14 37
341 25 269 107 72 70
341 24 273 108 58 61
297 483 320 108 68 56
262 462 355 76 28 35
345 29 268 125 56 61
357 648 258 76 29 37
267 328 313 87 71 54
345 29 272 115 44 50
339 541 284 59 47 35
345 32 272 120 45 51
342 23 278 108 46 52
340 21 286 124 37 53
342 33 278 121 67 61
474 616 285 137 68 64
322 10 293 128 39 55
274 628 235 84 35 39
345 38 258 118 54 53
353 718 185 150 107 74
337 438 313 130 99 66
327 12 293 137 35 57
357 557 311 101 19 39
450 875 217 80 67 56
322 13 297 132 30 53
280 198 291 118 94 65
322 20 290 149 111 98
322 28 288 120 85 64
255 770 246 71 57 50
306 338 313 101 86 69
302 683 217 42 37 39
455 530 326 154 19 50
336 17 292 131 42 53
370 757 272 95 78 70
327 35 284 135 43 58
214 807 328 200 138 109
389 743 218 144 104 67
327 43 277 118 79 63
382 595 268 94 25 38
319 223 296 134 103 67
327 48 276 119 25 44
332 39 279 127 83 70
333 34 285 140 28 55
299 406 251 110 90 67
336 36 282 142 24 57
200 651 321 122 92 61
288 750 340 104 42 49
332 43 277 123 63 59
317 243 333 121 96 66
337 44 274 132 55 64
272 593 369 181 130 108
442 540 314 100 16 36
302 457 331 137 101 80
336 48 272 121 79 67
269 914 260 69 63 65
251 692 330 93 20 35
332 53 273 126 21 47
337 53 268 126 42 55
277 878 273 121 97 76
173 533 258 172 11 49
377 468 199 165 21 46
333 59 270 125 78 67
259 213 263 109 86 58
443 883 223 92 79 70
282 223 328 107 90 71
343 939 303 60 52 50
342 728 202 61 35 34
322 53 277 105 44 47
387 438 204 98 29 29
412 903 333 92 72 61
326 52 276 124 18 47
328 54 275 118 35 49
324 58 275 110 58 50
349 848 185 97 77 65
340 848 196 75 61 55
317 433 233 87 37 38
324 63 275 118 28 48
327 63 273 123 68 64
260 579 345 57 23 29
329 50 275 124 18 44
319 836 300 139 111 87
343 39 268 137 24 51
357 628 213 88 55 45
344 43 258 138 31 50
307 234 342 113 93 71
341 48 263 125 88 72
311 273 348 127 98 63
317 788 303 134 97 79
345 34 259 131 58 61
232 569 352 66 19 28
344 39 258 139 41 55
296 488 322 106 64 55
345 38 263 138 40 54
357 630 185 107 86 63
277 253 302 128 87 56
402 589 263 108 29 39
213 592 254 190 10 47
345 37 267 107 34 42
187 533 328 157 15 50
345 41 256 140 37 49
340 51 266 136 107 86
339 58 258 129 35 50
338 58 263 133 20 48
340 56 258 110 61 54
467 609 273 209 148 128
277 958 308 69 64 64
427 608 293 59 24 31
456 541 321 98 29 44
326 78 272 125 34 50
253 767 335 127 92 61
356 626 192 104 86 67
477 598 304 145 25 51
389 784 158 76 59 49
270 292 321 104 79 56
328 78 268 126 32 50
332 619 328 53 29 35
308 576 377 179 119 102
327 488 309 135 95 78
335 67 262 128 92 79
196 563 324 163 14 50
301 373 284 102 88 74
332 73 263 125 48 57
292 218 283 132 97 57
402 883 308 83 69 56
301 319 319 105 86 66
398 469 202 87 34 40
366 768 268 88 70 63
327 68 273 120 27 48
330 72 267 124 28 50
376 633 190 117 91 58
387 468 202 179 21 46
329 73 269 122 23 46
331 78 262 136 111 93
306 708 211 96 25 31
282 503 375 76 27 35
323 68 275 115 69 58
396 580 311 135 16 44
312 338 348 131 103 71
321 73 276 125 101 75
323 78 274 116 67 59
296 883 247 54 50 54
320 78 276 117 95 72
198 733 342 176 119 95
382 559 363 111 26 43
323 88 269 114 92 73
452 533 328 126 19 42
284 210 321 106 89 70
321 88 273 117 62 59
247 593 233 160 18 44
326 83 268 112 56 57
394 794 187 81 61 53
326 88 267 113 61 56
302 275 306 137 93 64
328 88 263 116 26 47
295 184 276 134 97 59
400 814 142 114 93 75
296 772 321 84 63 53
277 288 317 97 70 47
323 93 268 126 24 48
432 483 204 179 19 39
262 448 222 106 18 28
387 550 363 101 9 33
489 571 282 72 18 25
329 85 260 121 14 42
332 583 335 44 27 31
187 523 229 148 11 39
330 86 257 124 43 45
232 518 209 67 35 35
326 98 258 110 71 58
325 98 262 113 89 67
297 813 303 140 92 70
257 593 228 136 21 43
321 103 273 104 34 44
392 550 313 71 20 32
262 452 322 125 89 70
325 113 258 142 41 58
322 113 273 117 36 47
444 610 256 188 126 99
199 516 341 39 27 30
324 115 256 143 46 59
323 118 268 128 22 49
322 123 263 138 35 52
314 200 281 141 104 66
320 127 259 141 46 55
320 128 263 136 96 73
272 448 221 82 27 29
373 698 293 74 26 36
367 468 203 190 19 41
322 123 268 126 81 65
331 823 203 62 56 54
328 427 263 103 86 68
321 128 268 127 100 69
321 128 273 123 98 69
327 498 303 128 89 75
326 957 298 87 81 84
320 118 276 116 86 66
320 128 276 122 97 67
277 233 297 126 89 53
260 133 258 120 85 61
247 618 247 68 37 41
466 553 244 91 16 29
257 248 263 123 96 66
261 133 263 120 86 62
297 930 365 67 62 62
260 138 263 118 86 61
307 913 233 92 83 82
263 288 333 106 85 61
268 253 313 115 87 60
258 138 268 111 81 59
265 298 326 95 75 53
260 137 266 112 83 59
258 148 263 108 82 58
337 768 193 134 91 61
197 558 238 148 20 43
412 480 207 185 20 44
269 238 305 113 86 58
258 153 258 105 82 56
208 568 337 150 19 49
258 153 263 105 81 56
308 179 271 148 106 69
211 544 221 63 32 34
258 158 263 104 82 57
332 898 228 71 64 62
281 464 338 91 62 48
258 163 258 104 82 57
312 773 203 74 59 52
259 168 268 96 76 55
297 133 288 106 86 65
289 895 240 61 58 59
309 381 286 110 93 75
328 403 298 118 95 71
259 173 258 106 84 58
347 867 323 33 31 32
266 348 307 80 66 52
292 893 238 62 59 60
267 503 199 126 6 27
259 173 263 103 82 59
183 558 313 163 8 49
405 525 271 72 17 31
315 241 295 139 101 65
313 233 292 139 103 64
425 535 311 126 27 49
259 178 263 104 84 60
245 708 246 140 1 37
259 182 258 107 84 58
269 284 357 110 89 66
360 678 243 149 20 45
397 752 194 53 42 33
217 592 341 53 27 32
259 183 263 104 83 59
212 593 338 107 25 42
260 184 258 107 85 58
258 323 333 116 89 65
259 178 268 98 79 58
209 625 338 111 85 57
364 471 200 199 21 45
299 401 256 111 93 74
259 183 268 98 79 59
219 758 278 100 70 57
275 718 226 47 35 38
259 193 256 113 90 63
293 583 348 77 34 38
260 188 263 105 84 60
332 553 213 193 1 41
186 518 330 90 26 36
327 537 363 45 23 26
433 837 244 78 56 43
291 182 309 105 87 69
260 193 263 104 84 60
364 764 274 91 73 66
287 394 355 169 119 98
259 188 269 98 79 57
218 632 283 183 10 52
337 558 316 51 25 29
237 728 253 80 33 43
259 193 269 97 78 57
270 401 261 95 80 65
258 193 273 94 76 56
467 508 227 133 17 40
232 698 343 144 97 73
260 193 267 100 80 58
288 323 380 151 99 79
426 544 219 86 26 29
288 173 279 113 87 54
292 627 338 60 26 32
176 548 298 41 30 35
288 168 278 110 86 56
343 708 198 145 105 82
261 338 317 94 73 55
286 173 283 98 80 58
456 611 285 111 18 34
202 608 303 88 30 39
317 273 318 124 91 62
288 168 288 98 80 60
288 178 279 117 86 51
452 564 237 205 13 48
283 183 288 93 76 57
285 178 283 100 80 56
371 663 217 147 90 72
456 570 253 170 15 44
273 457 343 67 47 32
284 179 288 93 76 57
285 177 288 94 77 57
418 492 209 202 18 48
284 183 285 101 80 56
464 824 245 90 72 58
221 634 282 199 6 52
310 766 316 86 64 54
312 913 368 58 52 51
282 193 288 116 89 59
296 279 366 120 96 69
287 188 282 125 91 53
267 823 253 89 72 66
392 768 233 150 111 77
287 193 284 128 90 53
288 173 298 103 84 63
286 178 298 102 84 63
179 542 248 124 12 37
288 178 303 104 85 65
284 184 298 103 84 62
333 905 247 78 69 69
286 183 303 105 86 67
337 813 273 137 103 84
280 193 292 97 78 58
468 831 235 96 78 65
280 193 298 102 83 62
332 569 326 99 28 41
297 266 300 137 92 63
281 193 303 106 87 65
369 492 244 77 34 29
223 822 314 214 143 112
284 185 301 105 86 66
325 433 248 91 75 60
287 193 313 105 87 67
288 189 312 105 87 68
294 131 265 117 81 60
295 346 371 152 103 80
258 936 284 77 72 73
467 543 318 118 27 46
294 133 268 111 84 57
293 138 273 105 83 59
320 263 328 123 94 62
232 566 344 73 19 29
295 143 267 114 86 57
393 724 148 90 65 47
264 803 330 148 119 92
252 768 248 70 56 50
254 708 336 36 28 31
327 438 213 55 32 34
299 137 259 121 83 57
320 232 300 129 101 67
200 673 350 172 121 98
268 860 341 134 84 81
298 143 263 122 86 57
264 840 309 133 101 79
299 142 260 126 87 52
302 143 258 142 91 62
307 373 288 104 90 75
294 133 278 101 79 57
407 508 228 92 26 35
285 869 266 154 118 86
295 132 279 100 78 56
295 133 283 104 81 58
290 466 206 95 24 24
314 461 210 90 23 36
294 135 282 101 79 57
371 718 243 72 30 38
294 138 278 102 81 58
369 745 280 85 68 63
388 839 227 74 64 58
275 217 314 111 92 73
293 143 278 103 82 59
261 470 361 72 32 37
414 461 202 131 19 41
443 875 198 86 78 73
294 139 282 101 81 58
337 641 231 84 25 31
269 766 235 76 60 52
323 403 338 146 108 82
296 138 288 107 86 63
312 461 201 41 38 40
294 143 283 101 80 57
295 143 289 107 87 64
497 563 258 137 15 44
296 148 267 119 87 55
296 153 267 125 90 54
277 428 221 50 37 39
367 874 283 68 58 56
296 158 267 132 95 60
277 213 313 111 93 73
291 158 273 117 91 60
293 148 278 103 83 62
237 549 340 52 27 28
293 153 288 103 83 60
291 158 283 98 80 60
307 143 257 156 105 76
311 143 259 139 101 66
277 908 253 61 57 57
267 370 285 68 58 47
316 132 258 142 97 73
165 514 263 128 26 43
315 864 331 142 112 82
318 133 263 136 99 72
317 581 364 159 99 84
167 523 278 79 28 36
498 627 283 146 26 51
319 129 262 134 97 70
319 135 266 126 95 70
217 568 342 81 25 35
319 920 246 86 77 78
382 518 263 68 34 28
316 138 263 139 105 73
381 699 176 86 71 59
359 688 233 75 29 39
249 638 250 141 4 34
313 143 262 137 103 68
278 909 249 62 58 59
381 758 248 145 104 71
318 143 268 136 104 72
318 133 283 119 96 71
240 743 251 119 24 43
319 137 284 118 95 68
319 141 285 115 91 64
326 838 288 123 96 75
306 151 260 160 112 80
261 822 322 86 64 54
207 608 318 142 21 50
310 146 260 142 100 68
187 573 273 91 30 38
309 149 261 153 108 76
292 363 367 164 111 90
241 688 252 88 25 36
311 153 264 146 107 71
416 613 229 131 95 58
307 158 263 154 111 77
313 158 267 144 106 71
326 540 335 92 41 40
213 618 318 103 22 41
319 149 272 133 102 68
318 153 272 134 104 69
251 663 330 36 27 29
295 212 330 104 88 72
318 158 273 136 104 69
379 813 245 47 39 34
303 129 291 105 86 66
300 132 290 105 87 67
298 138 292 105 86 66
289 170 296 103 84 64
302 138 294 105 86 66
296 148 293 106 86 66
279 219 322 108 90 72
315 529 335 87 48 45
445 600 255 133 93 58
294 153 293 105 85 62
297 153 298 104 86 66
340 803 182 63 52 50
299 145 296 105 86 66
310 370 295 106 90 72
412 719 163 81 65 50
369 895 311 65 59 58
298 149 297 105 86 66
257 618 363 180 118 93
302 338 308 104 89 73
340 688 208 81 52 45
298 159 301 104 86 68
302 158 303 102 85 66
281 602 353 155 94 78
232 688 303 64 29 36
307 133 292 107 88 67
309 131 290 106 87 65
377 448 198 109 23 39
394 640 206 195 127 99
377 848 218 76 64 60
313 132 289 111 90 67
292 673 223 46 36 37
256 628 343 160 102 83
185 555 247 199 9 55
307 138 294 108 89 68
234 576 230 194 8 49
308 142 295 108 88 67
230 668 288 96 21 39
312 138 293 108 88 65
307 144 296 108 88 67
367 543 317 59 27 27
202 708 313 132 99 66
213 627 288 50 31 35
459 586 306 154 20 51
314 136 290 114 92 69
311 145 296 108 88 66
318 443 228 91 13 31
287 939 359 81 75 75
238 658 322 31 27 26
188 557 244 199 12 51
312 148 297 109 89 67
282 424 234 96 37 36
312 153 299 108 88 66
297 783 317 77 59 50
307 154 301 108 89 68
262 433 218 144 4 30
339 456 236 97 46 35
311 159 302 108 89 67
267 454 319 118 82 66
357 850 181 121 92 69
313 157 300 108 88 65
204 606 274 202 2 53
314 147 295 110 89 65
383 550 368 82 5 26
267 498 199 121 8 26
257 513 200 137 1 31
284 743 220 132 8 37
268 456 350 60 30 30
317 148 293 113 91 66
306 358 299 105 90 74
281 743 222 136 3 36
319 147 290 114 91 65
192 673 323 153 110 81
292 163 273 118 90 57
294 163 270 126 93 58
286 203 319 105 87 68
307 203 278 149 107 68
297 168 269 139 97 62
391 748 218 141 102 65
295 169 271 136 96 57
349 550 212 192 13 48
296 173 271 136 96 60
303 162 265 148 103 70
332 644 230 66 29 34
367 713 238 64 24 34
269 478 316 130 77 69
289 168 293 102 83 63
297 852 339 143 115 84
298 173 270 141 98 66
290 168 276 117 88 52
239 688 254 53 34 39
297 178 272 138 97 63
322 698 211 76 31 36
379 860 257 81 69 62
452 841 272 87 68 58
307 388 354 154 107 82
301 179 271 141 100 66
372 733 159 57 46 39
289 187 280 128 89 53
277 358 292 85 72 57
282 408 218 60 40 43
292 188 278 131 92 55
288 860 346 113 86 62
295 189 276 136 97 61
237 593 342 79 15 31
296 193 277 138 100 61
328 774 300 80 60 52
375 722 287 46 32 34
349 729 310 177 25 61
372 459 194 73 31 36
290 190 281 128 90 52
323 502 201 108 15 27
291 193 281 132 92 55
312 163 268 143 106 70
310 172 270 143 104 67
319 493 209 102 12 28
315 162 270 139 104 68
316 173 274 137 102 67
357 838 179 104 78 62
312 183 274 142 104 66
392 551 218 41 35 40
307 188 274 147 106 67
376 630 190 111 88 58
310 192 275 144 106 66
313 188 277 140 105 65
343 548 374 65 24 29
318 178 278 135 103 67
230 675 329 88 68 56
462 500 222 95 29 38
318 223 293 140 106 68
318 548 332 75 29 35
314 184 276 138 101 65
319 178 282 131 103 70
293 538 322 82 49 41
358 830 266 29 27 28
316 193 280 136 103 64
408 613 251 174 121 111
292 313 317 91 75 58
318 188 283 134 104 68
290 167 294 101 82 62
333 536 358 56 44 31
327 568 399 153 114 96
312 353 353 133 102 70
292 163 298 103 85 65
295 161 300 104 86 68
189 571 316 165 7 52
412 553 238 165 14 49
330 505 200 116 13 27
297 163 303 103 85 68
377 558 352 112 26 40
198 533 224 152 10 41
294 164 301 104 86 66
259 338 310 67 52 40
389 506 240 81 8 26
375 738 156 60 49 42
330 418 327 137 102 71
289 175 301 105 86 66
463 578 270 60 34 32
293 832 244 179 129 102
194 683 320 144 105 73
302 162 305 98 82 65
297 173 309 102 85 68
409 542 211 77 31 34
302 168 308 103 86 69
302 174 312 105 88 70
290 177 304 105 86 66
302 203 328 107 90 72
427 868 253 78 65 57
402 518 253 66 8 28
239 643 260 170 8 47
380 736 151 65 54 45
355 838 181 99 74 57
289 180 306 105 87 67
312 407 263 111 94 75
292 183 312 105 87 69
294 180 311 105 88 70
275 224 296 136 102 63
274 456 334 102 71 56
297 183 314 104 87 70
278 272 309 104 74 45
290 191 315 104 86 66
357 562 369 151 26 57
329 413 329 138 101 72
295 186 315 104 88 71
298 185 316 104 87 70
217 758 283 144 101 71
211 632 354 130 100 68
432 463 201 138 22 37
480 568 245 41 36 37
297 188 318 104 88 71
296 192 320 104 87 70
347 542 200 177 9 40
237 598 348 90 67 50
376 546 205 72 41 43
228 798 279 54 47 49
317 168 303 113 92 68
502 593 288 108 24 42
318 163 298 116 93 67
259 299 343 115 93 69
313 167 305 109 89 67
312 168 307 108 89 68
320 228 308 119 95 67
263 908 352 169 132 114
310 175 311 110 91 71
343 458 258 106 81 54
195 560 241 190 10 42
287 763 329 87 68 60
316 173 307 114 93 69
195 589 319 185 11 56
204 752 341 178 121 96
350 881 195 93 83 79
292 348 299 100 85 69
277 433 222 54 37 38
267 477 365 34 29 29
190 669 327 158 112 84
319 177 304 118 95 69
312 178 312 110 91 70
348 569 402 103 78 63
200 670 350 170 120 96
310 185 316 108 90 70
268 488 308 133 65 64
260 337 270 98 80 60
312 193 319 113 94 72
282 458 213 63 31 32
313 177 310 113 92 70
461 577 271 42 30 35
316 184 312 115 93 68
377 708 268 86 28 42
427 588 263 115 38 30
341 443 278 119 95 68
318 183 308 117 95 70
270 404 339 133 95 79
389 778 240 148 111 80
319 192 310 118 95 69
252 928 288 62 57 58
315 190 316 115 94 71
369 487 216 117 14 33
362 508 203 46 36 36
307 194 322 108 91 72
262 947 313 68 63 61
231 663 313 93 18 36
392 477 204 174 35 49
351 902 268 75 66 66
318 536 305 73 56 47
258 198 273 96 77 56
260 198 267 100 80 58
259 209 257 115 91 64
494 621 267 174 99 93
269 372 356 158 113 95
243 773 344 154 117 83
265 551 354 40 26 28
260 208 263 108 85 57
350 683 220 89 81 82
334 838 270 115 89 68
222 603 336 60 26 33
259 203 273 96 77 55
260 211 261 110 87 60
317 569 352 93 39 50
333 433 319 133 99 69
259 213 268 105 84 59
333 612 335 162 12 50
259 218 263 111 87 60
273 228 299 135 101 66
353 788 274 70 56 49
183 568 288 46 32 35
259 223 258 121 96 66
207 788 323 191 130 104
259 218 268 107 85 60
387 703 158 93 74 56
352 539 313 64 43 37
353 483 259 93 64 43
259 748 336 160 58 70
387 597 278 94 27 39
258 223 268 108 85 58
369 880 341 47 39 37
258 223 273 101 80 55
257 278 273 125 96 67
296 269 361 108 86 61
286 194 286 127 91 52
409 744 168 92 68 53
286 218 287 128 91 51
292 478 320 101 65 51
320 173 288 119 94 65
261 415 226 84 54 44
288 218 285 130 94 54
271 223 303 103 82 58
324 505 300 120 81 67
272 408 338 132 94 78
272 223 313 110 91 70
279 195 297 100 81 60
205 636 350 127 97 69
322 593 339 54 29 33
373 854 303 40 36 35
278 208 293 129 100 65
221 819 328 210 145 118
277 203 298 102 83 62
296 946 346 95 91 92
292 513 322 130 34 51
278 203 303 107 87 65
276 208 303 106 86 64
311 580 374 178 114 99
432 499 227 97 4 28
280 196 300 104 84 61
265 718 231 107 17 35
349 660 216 122 98 84
424 861 256 84 68 57
280 197 304 108 88 66
368 893 303 65 57 57
282 203 290 123 91 53
283 208 289 121 87 48
372 523 204 124 9 27
279 200 306 111 91 70
230 779 271 70 59 55
278 203 308 111 91 70
319 223 324 123 98 71
277 208 308 111 91 71
277 413 217 70 34 40
279 205 311 112 93 73
281 198 308 110 91 71
442 537 288 79 13 29
284 195 311 107 89 70
280 207 314 110 92 73
214 620 347 124 97 68
282 208 318 108 91 72
368 749 279 93 75 67
270 247 330 116 95 73
203 598 323 70 26 35
265 298 359 113 91 67
256 939 318 77 70 69
389 762 235 149 111 78
335 420 303 121 97 70
270 375 355 158 112 95
285 201 315 107 88 69
193 723 323 173 118 93
336 938 323 51 44 40
277 346 301 86 72 56
285 207 320 107 89 70
275 213 297 110 88 62
226 717 303 92 19 32
282 553 201 138 12 35
274 214 299 101 82 60
277 218 294 133 99 59
365 606 272 172 21 55
339 452 257 106 82 56
273 218 298 113 88 60
275 216 296 132 102 67
385 718 223 157 107 77
323 734 320 84 64 57
230 683 278 104 25 43
273 223 298 130 99 65
283 218 289 123 87 45
270 459 319 117 79 64
283 223 290 126 87 49
274 214 307 109 89 68
265 282 344 115 93 70
274 219 313 111 92 72
387 507 243 79 11 27
219 763 279 142 101 74
316 961 317 61 57 56
295 495 362 100 36 49
277 218 318 110 91 72
272 843 333 135 84 73
273 224 317 109 90 71
270 459 351 67 25 29
261 794 247 76 60 53
275 222 319 109 91 71
425 876 234 105 85 63
258 228 263 114 89 61
205 578 330 49 21 30
258 233 258 123 97 66
313 279 317 127 92 62
394 506 228 75 21 31
404 830 288 41 36 31
258 228 268 109 85 57
223 572 234 186 7 43
257 233 273 102 80 55
382 503 214 107 14 27
237 748 253 103 26 40
507 627 264 177 23 42
258 238 258 127 100 68
257 238 268 109 85 58
421 478 200 83 27 39
257 243 268 111 87 59
333 413 308 119 95 67
297 488 198 133 5 29
257 253 263 127 99 69
481 813 233 106 87 68
271 233 303 121 91 61
271 238 302 135 99 68
270 231 308 107 85 60
269 233 308 109 86 59
270 231 314 112 90 66
384 773 245 151 115 84
207 683 317 122 88 59
347 468 268 118 92 63
360 598 331 183 0 58
270 232 318 114 93 71
375 572 239 46 28 28
281 481 321 122 73 64
287 552 200 76 33 40
327 558 319 63 25 30
269 234 305 109 85 57
314 436 236 79 42 38
319 383 344 142 105 77
269 238 313 112 88 61
268 243 308 115 87 59
363 809 254 70 57 51
268 243 313 113 88 60
321 158 283 118 93 64
272 248 304 138 101 67
255 825 266 82 64 58
417 488 211 199 18 49
268 243 318 115 92 65
264 416 236 76 60 48
267 248 318 116 92 64
462 607 273 212 144 121
271 253 306 140 103 71
273 233 299 140 102 67
277 238 298 127 88 53
433 542 227 74 30 33
332 483 308 143 103 83
292 499 318 139 31 51
283 233 294 128 86 52
321 148 283 118 94 68
285 230 291 130 87 52
390 718 193 67 50 36
352 613 318 70 29 36
287 233 289 132 91 57
283 238 294 130 87 53
221 693 351 167 113 85
305 210 331 111 92 73
287 238 292 132 89 55
281 234 296 129 85 51
320 171 280 128 100 67
281 238 296 129 85 51
327 573 329 58 25 30
274 241 300 128 93 58
267 268 313 120 89 63
277 243 299 127 86 53
275 244 301 128 91 58
320 163 288 119 95 67
292 754 334 91 72 63
279 252 300 128 84 50
277 575 216 50 34 39
283 243 295 131 88 53
284 247 295 131 88 54
260 897 287 81 69 62
287 243 293 132 89 55
343 688 193 156 113 85
337 728 202 78 32 31
282 248 297 130 86 52
374 692 283 117 21 45
375 825 166 111 84 62
277 483 314 129 70 65
282 253 299 129 85 53
293 203 280 137 98 62
289 208 285 131 93 54
345 468 292 130 100 70
218 709 309 91 54 40
297 207 280 141 100 64
302 198 276 146 105 66
281 218 324 107 90 71
189 578 273 92 34 43
272 508 363 48 27 31
302 203 277 147 104 66
381 758 253 157 114 84
292 213 283 132 96 58
367 703 178 105 77 45
432 534 298 78 11 29
339 790 285 151 109 92
297 223 285 135 98 59
303 211 280 147 105 67
312 581 368 169 109 93
302 223 284 138 101 60
306 196 275 148 108 69
252 688 329 102 18 37
307 208 280 148 106 67
418 506 220 173 20 39
319 628 320 93 31 42
358 513 201 46 35 37
254 894 337 78 62 55
311 203 280 144 104 67
310 206 280 146 105 67
283 473 348 81 24 33
322 498 201 100 20 25
315 197 280 141 106 67
317 198 283 138 105 67
239 640 329 116 23 44
306 211 280 147 105 68
261 323 268 119 94 68
312 213 284 145 105 65
315 287 337 131 97 67
322 943 338 53 48 47
290 206 325 104 87 69
311 218 285 145 106 66
367 798 154 78 61 53
379 809 171 80 58 47
202 692 316 129 98 64
313 218 286 143 104 65
310 222 285 144 106 66
232 763 263 70 57 52
352 627 203 88 65 44
317 213 288 141 105 67
291 197 319 104 86 68
232 753 346 168 119 87
330 621 332 100 17 39
319 198 314 120 96 70
358 778 159 71 56 48
319 202 314 121 97 70
293 198 322 105 88 70
315 222 290 141 104 67
325 835 291 121 96 73
292 228 286 133 94 58
332 898 208 83 69 62
191 703 328 171 120 95
297 318 318 102 84 65
292 233 287 133 94 57
412 600 240 114 81 36
296 225 286 134 97 59
297 228 286 135 98 58
302 233 287 140 101 62
312 228 289 141 105 64
257 343 338 128 96 74
292 238 289 134 93 58
292 243 292 134 92 58
178 553 283 184 0 49
292 248 294 133 92 58
309 871 340 147 112 88
329 444 325 138 102 78
297 244 292 136 94 61
339 473 304 142 104 81
289 251 295 132 90 55
251 663 247 128 3 32
291 254 296 133 91 57
302 248 293 140 98 64
189 667 336 165 112 87
405 751 170 86 64 49
304 251 295 139 98 65
301 250 296 139 96 63
315 226 290 142 106 67
258 567 214 173 0 38
317 228 293 141 105 67
314 229 291 141 105 66
511 631 269 210 16 44
204 572 331 159 18 51
316 233 294 139 104 66
373 778 145 78 60 53
318 233 298 135 103 68
239 626 255 62 33 38
316 238 294 138 102 64
272 553 204 167 2 36
432 533 243 72 25 30
219 615 339 103 76 54
318 238 298 135 101 65
319 239 301 132 102 67
325 916 245 75 67 69
307 618 226 51 33 37
341 543 377 101 24 40
318 253 333 122 95 63
306 242 290 142 102 64
203 694 315 127 97 64
353 452 204 122 12 39
307 243 292 142 102 65
312 243 294 141 102 65
239 811 270 78 64 59
264 318 371 125 94 66
339 828 190 62 54 52
307 251 295 140 100 66
416 851 265 79 63 52
309 250 296 142 101 66
301 359 294 103 89 75
481 564 267 88 5 29
314 232 335 121 97 71
222 538 344 83 29 38
372 763 264 83 66 58
312 253 298 141 101 66
498 578 268 136 13 44
393 844 243 91 81 80
314 244 296 139 100 64
316 247 299 138 101 65
183 563 268 56 34 37
319 244 302 134 102 66
248 933 308 57 54 55
457 598 264 136 89 55
317 248 303 134 101 65
207 633 328 87 69 47
319 249 306 129 99 64
319 253 307 134 100 65
317 663 323 161 6 51
263 283 338 113 90 66
312 623 227 45 32 37
407 478 202 164 23 49
288 204 322 104 87 68
277 469 321 114 75 60
277 223 323 108 90 72
377 573 388 115 28 46
329 875 205 68 58 58
371 898 318 67 58 57
357 463 199 85 35 41
283 214 322 107 89 70
273 918 254 72 63 63
286 212 324 106 88 69
395 841 239 98 92 92
259 338 274 94 77 60
443 585 264 108 54 29
288 213 327 108 90 71
402 468 199 77 33 38
283 219 327 107 90 71
284 224 331 110 92 74
452 873 243 93 83 76
402 476 199 84 31 39
287 223 333 108 91 73
272 233 323 113 94 73
257 328 348 124 94 71
269 239 322 115 93 70
337 539 363 55 41 30
392 713 183 65 52 40
