ply
format ascii 1.0
comment Created by Open3D
element vertex 2223
property double x
property double y
property double z
property uchar red
property uchar green
property uchar blue
end_header
305 868 209 90 80 75
318 240 257 102 83 62
372 733 295 65 29 28
198 689 242 138 106 83
336 165 257 116 93 68
214 624 214 91 55 41
327 203 258 109 87 62
311 703 340 95 28 40
326 808 313 61 51 47
334 166 256 115 93 68
336 168 257 116 93 68
266 733 222 87 32 33
285 415 210 91 77 61
332 173 257 115 93 68
336 173 258 116 93 68
296 733 198 71 55 48
332 178 258 114 92 68
245 519 163 168 16 47
372 880 293 81 63 58
336 183 260 117 95 70
261 868 269 153 113 85
335 192 261 117 94 69
376 498 334 104 16 37
339 165 257 117 94 69
298 871 310 54 47 40
343 498 183 110 17 37
303 484 147 112 26 36
220 583 300 54 28 32
343 172 256 120 97 71
344 179 257 119 96 70
346 188 258 121 98 73
322 343 292 126 91 68
331 198 260 115 92 67
390 426 300 69 24 29
333 199 262 117 94 69
404 476 350 70 20 27
336 198 262 118 96 71
329 208 261 113 90 65
311 553 341 64 26 32
324 211 256 110 88 63
163 520 172 193 134 115
336 911 394 74 65 63
287 483 132 158 3 36
326 213 259 112 89 65
425 757 250 97 73 53
207 738 211 139 97 63
391 913 341 102 84 70
328 223 262 114 91 66
374 546 307 151 13 51
331 213 263 115 93 68
328 219 262 115 92 68
251 748 223 100 27 33
351 388 293 123 96 67
255 829 237 81 65 60
336 218 266 118 96 70
382 683 274 70 53 37
271 823 301 174 132 107
171 568 181 158 109 76
357 693 309 67 29 36
340 194 262 118 96 71
326 333 229 93 79 64
360 293 244 128 96 63
341 198 262 121 98 73
174 615 211 159 117 91
291 793 204 76 59 49
341 203 263 122 99 73
434 656 276 148 107 71
347 203 260 124 99 72
355 598 341 148 17 46
273 727 215 73 34 33
286 628 332 107 29 43
484 889 332 86 70 56
345 203 262 126 101 75
427 438 325 137 16 45
347 208 261 124 99 71
221 698 213 137 96 63
301 942 354 57 51 49
341 213 265 122 98 72
341 218 265 122 98 72
343 473 320 24 24 24
340 224 267 122 98 72
346 223 265 122 97 69
349 223 262 124 98 69
434 587 305 133 92 80
345 864 241 65 55 53
325 228 260 113 91 66
211 678 208 143 97 61
397 464 343 55 25 29
327 228 262 114 91 66
359 323 244 124 97 65
226 693 254 120 21 44
324 238 261 112 90 66
281 638 236 88 25 34
333 230 267 116 94 68
330 238 266 117 94 69
324 241 261 111 89 66
285 363 254 109 84 67
322 429 298 110 82 63
249 916 258 60 55 57
336 382 222 91 79 67
336 303 285 122 91 63
328 253 267 116 92 66
332 243 268 118 94 68
361 283 239 134 97 64
367 638 284 42 31 34
444 428 317 130 38 47
331 248 268 118 94 67
188 783 235 163 111 76
312 435 338 53 29 25
336 248 270 121 96 68
290 358 299 118 80 60
331 253 269 118 93 67
304 538 326 56 26 32
257 845 309 78 65 50
211 523 224 42 34 36
341 238 269 125 100 72
352 228 260 124 99 71
344 229 267 122 97 67
271 944 370 70 63 61
215 528 300 88 24 37
315 908 401 52 48 47
288 353 262 125 92 77
341 253 271 126 99 69
284 313 256 87 72 54
417 878 381 86 70 59
301 488 324 80 22 34
418 693 284 180 121 92
271 494 132 194 10 38
349 244 267 124 98 68
346 253 269 126 98 65
306 298 254 86 75 65
351 253 265 128 100 66
253 915 382 42 39 39
334 858 255 66 57 55
381 432 305 57 23 23
353 208 256 124 100 73
354 214 257 124 100 73
362 273 239 129 97 62
354 218 257 124 100 73
354 223 258 123 99 72
353 233 261 123 98 68
445 573 314 134 98 83
411 618 289 128 88 74
345 767 327 75 61 55
350 873 290 42 37 35
356 243 259 125 98 65
286 429 159 86 70 53
353 241 261 127 99 67
356 253 259 128 100 65
444 632 285 169 117 84
354 253 262 128 100 66
271 553 180 147 28 49
156 528 173 173 118 92
260 257 246 107 84 60
330 876 377 47 40 36
386 870 381 63 55 50
261 258 248 106 84 59
261 263 249 103 82 59
261 268 250 99 79 58
266 410 210 95 81 67
241 973 304 78 72 73
261 273 250 92 75 56
266 258 250 103 83 59
267 264 252 100 80 58
364 481 336 110 2 33
410 625 276 99 72 35
328 292 226 133 98 65
355 693 313 59 26 32
406 495 371 105 27 47
390 522 226 165 16 41
270 257 251 103 83 58
268 260 252 103 82 59
361 728 219 66 47 42
207 639 232 112 86 68
222 947 285 73 67 67
271 258 252 104 83 58
335 420 195 94 71 56
206 708 250 113 84 66
264 267 251 99 79 58
266 268 252 98 79 58
261 284 252 83 69 55
336 298 284 120 94 65
226 903 289 125 96 73
318 934 308 76 69 67
261 288 253 82 69 55
409 696 261 138 99 65
366 768 228 60 49 42
264 278 251 88 72 56
271 278 255 93 76 56
264 282 251 86 71 56
407 483 259 167 18 47
253 862 275 161 116 85
266 288 254 86 73 59
225 866 335 136 96 91
271 283 254 90 75 58
340 727 227 66 43 35
400 803 289 159 106 78
271 288 255 88 74 60
275 343 251 80 69 58
261 293 254 82 69 55
197 718 215 145 97 62
404 729 251 83 61 48
336 468 168 110 22 36
271 293 255 88 75 62
402 507 367 103 18 36
482 550 335 209 145 117
260 318 253 88 76 63
262 318 250 89 77 64
277 975 324 79 76 78
371 578 234 164 17 40
337 865 386 58 48 39
346 783 230 65 52 49
261 458 314 77 25 33
266 308 254 92 79 67
264 310 251 90 78 65
392 778 244 55 45 41
266 314 251 90 78 66
291 318 269 95 74 57
271 313 252 90 78 65
289 501 141 98 25 34
269 317 251 89 77 65
322 408 293 124 89 72
314 458 354 107 15 37
275 293 256 90 76 63
350 836 246 68 55 52
275 298 255 91 78 65
299 956 300 83 77 78
275 303 256 92 80 67
276 308 255 90 78 65
276 313 253 89 76 64
301 898 349 35 34 36
371 773 310 143 101 71
281 318 254 84 70 56
285 318 256 87 70 52
271 338 250 82 72 62
313 258 231 118 93 64
315 258 229 122 95 63
318 263 226 128 99 66
272 531 161 197 17 58
314 264 233 117 92 63
317 268 229 124 97 65
346 268 270 127 97 63
318 267 226 128 100 66
319 273 227 129 99 65
313 273 239 102 82 60
261 883 270 98 79 64
297 903 257 63 57 59
314 273 237 107 85 61
312 268 249 92 77 60
251 955 361 74 67 65
170 608 199 173 119 92
311 273 244 97 79 59
405 472 359 77 8 24
413 475 352 46 38 34
312 258 249 96 79 62
313 258 254 93 77 61
211 648 201 159 107 76
261 406 219 97 82 67
226 826 272 63 53 51
314 258 256 90 75 59
244 662 247 145 8 34
311 273 254 86 72 58
311 288 239 96 80 62
349 343 231 111 91 68
315 278 234 114 91 65
321 343 228 90 78 66
241 967 290 79 76 78
206 548 244 70 26 35
313 278 239 102 83 61
348 739 336 68 22 32
318 288 231 121 97 70
334 468 166 112 21 35
288 436 142 85 68 50
296 763 328 69 58 54
248 606 226 175 1 39
321 288 229 129 100 69
312 283 240 98 81 62
222 688 284 36 31 33
280 867 224 63 55 54
474 832 416 104 84 66
314 283 238 102 83 63
212 748 289 152 118 93
310 278 244 95 78 59
261 443 114 91 73 55
309 287 243 92 76 60
308 285 249 89 74 59
310 283 254 85 71 58
211 653 203 166 109 79
303 313 249 79 67 54
510 527 343 199 135 120
273 541 171 213 13 48
262 658 328 159 20 50
220 668 210 135 91 61
341 588 333 98 25 38
303 313 254 88 78 68
306 328 239 77 67 57
207 638 197 148 103 70
303 319 246 74 63 51
284 885 337 62 55 48
228 527 191 55 29 34
310 293 238 96 80 64
415 478 284 91 27 39
433 840 402 74 60 47
310 298 238 96 81 65
317 891 320 31 32 33
312 299 235 101 85 67
377 710 245 103 77 48
313 440 293 108 80 65
318 293 231 113 92 69
408 449 337 34 24 25
315 293 233 106 88 67
230 623 248 42 32 37
220 893 346 140 103 88
313 293 236 101 84 67
385 513 330 110 17 39
336 914 370 62 54 50
317 298 231 105 88 69
363 368 259 114 91 65
321 298 229 112 91 67
350 648 255 80 23 33
317 303 231 102 86 70
307 293 244 90 76 62
220 703 289 45 31 34
351 899 334 45 42 42
308 293 241 91 77 61
445 589 316 158 112 96
309 334 237 77 67 58
368 613 315 175 14 55
170 543 176 167 113 91
336 687 242 45 36 41
360 425 302 66 57 47
308 293 254 87 75 64
308 446 337 97 10 29
360 293 249 127 98 63
333 444 162 146 6 34
402 733 239 69 53 40
452 604 310 192 124 102
306 298 249 90 77 65
304 303 249 87 75 63
256 847 250 176 118 90
307 313 239 87 74 60
276 965 287 85 81 85
311 308 234 98 83 68
251 907 361 94 79 64
309 307 237 95 80 64
311 313 235 96 81 66
180 558 180 142 100 74
301 613 330 74 29 37
336 528 338 88 27 38
348 463 182 131 3 34
218 796 221 178 119 87
308 318 236 89 76 62
286 937 265 81 74 73
266 498 135 120 25 43
317 308 230 100 85 69
321 308 228 105 87 68
315 313 232 97 82 68
316 318 230 94 81 67
304 308 249 83 70 58
219 729 211 135 96 64
435 653 293 185 127 101
304 311 249 80 68 56
281 438 129 88 71 53
304 312 256 88 77 68
335 463 358 84 24 34
392 882 325 83 72 67
291 318 279 113 80 61
284 971 305 85 78 82
305 318 244 77 66 54
181 575 207 109 85 67
239 663 311 149 14 48
262 322 251 87 75 64
373 544 217 42 29 37
407 484 277 113 18 35
325 289 227 133 101 68
258 333 251 88 76 65
213 763 292 177 134 109
396 888 409 90 72 61
300 413 264 70 52 39
265 322 251 88 76 64
268 320 252 90 78 66
271 322 252 88 76 63
268 328 251 86 75 64
212 669 207 141 94 64
258 421 172 93 71 56
163 582 198 165 115 91
269 328 252 86 75 63
346 428 344 81 23 32
345 873 401 61 49 40
350 273 268 129 96 62
266 334 251 86 75 64
271 333 251 83 72 61
407 738 259 101 74 54
276 506 141 205 13 43
262 338 251 88 76 65
396 420 279 81 54 48
235 697 320 66 31 37
260 338 252 89 77 65
229 752 216 124 85 58
261 348 249 91 80 69
266 347 247 88 77 67
315 328 284 96 69 49
448 565 313 127 91 78
266 354 247 86 76 66
271 348 249 84 73 63
278 588 327 120 8 36
270 349 246 86 75 65
276 328 253 80 69 58
195 578 199 95 69 49
396 528 249 159 22 48
281 328 255 77 64 50
451 578 301 121 97 71
274 334 251 81 70 60
304 728 190 88 69 58
290 733 336 50 27 31
342 621 337 195 15 60
285 323 256 88 70 51
285 328 255 90 71 54
387 538 338 137 15 40
286 333 254 98 76 59
352 289 227 139 98 64
371 553 340 135 13 42
281 338 254 84 68 52
370 613 254 53 33 37
409 743 279 160 103 73
277 343 252 77 66 56
275 349 250 81 70 60
286 738 199 64 48 42
289 847 217 84 66 56
401 763 254 106 77 56
269 882 233 61 55 54
277 353 249 81 70 59
281 348 253 84 69 53
402 533 278 78 30 35
278 351 252 77 67 57
306 638 235 100 28 38
336 318 226 119 93 64
278 470 122 101 32 41
186 638 194 164 111 76
415 481 312 66 29 32
281 352 253 87 71 55
516 498 334 120 93 73
286 338 251 93 73 57
297 488 143 130 16 36
285 343 251 92 73 58
287 343 254 92 73 57
285 348 250 93 74 60
286 884 224 84 73 70
287 353 254 96 76 58
418 460 244 173 20 46
259 355 246 90 79 70
261 363 244 90 79 69
391 493 329 93 26 37
261 368 244 92 80 69
408 455 342 48 24 24
266 357 247 87 76 66
266 678 330 160 21 52
266 363 244 89 78 67
271 368 245 86 75 65
203 750 262 134 99 73
359 508 196 133 2 31
217 708 212 136 94 64
261 379 235 94 82 70
351 878 274 74 60 56
416 907 354 82 70 61
260 383 233 95 82 70
282 463 123 163 8 37
280 258 259 107 85 60
266 374 239 92 80 69
327 474 360 95 21 37
267 377 238 94 82 70
346 895 284 68 59 58
381 453 314 61 19 25
331 553 189 65 34 39
270 378 239 93 81 68
387 539 301 128 12 41
270 383 239 95 82 69
368 620 311 150 26 54
261 371 242 91 80 70
321 323 228 93 80 66
271 373 244 89 77 66
275 358 246 83 72 61
380 553 329 39 32 34
282 354 251 90 73 58
276 363 245 81 71 60
356 528 329 94 23 38
256 949 369 83 75 69
276 368 244 81 70 59
346 498 334 32 25 26
280 363 249 85 70 57
279 367 246 81 68 55
405 457 340 47 26 28
281 368 249 94 76 59
486 548 334 209 144 117
349 414 215 91 72 58
275 374 247 89 76 64
205 733 212 139 97 61
281 372 247 99 81 62
216 523 214 58 34 38
281 374 246 102 81 62
297 431 280 52 42 32
336 887 359 47 44 44
272 376 247 91 79 67
383 560 337 57 32 33
275 376 247 90 77 64
282 384 247 102 81 60
421 463 379 177 15 57
286 383 244 111 88 66
288 378 254 106 84 64
227 698 249 110 47 40
401 808 262 70 54 49
219 921 292 62 57 59
414 452 367 88 12 26
303 322 250 75 64 52
346 328 230 118 93 64
303 323 254 82 70 59
351 418 301 96 77 56
411 423 219 178 17 20
451 598 314 191 127 101
303 328 254 82 70 57
321 668 239 63 30 33
303 340 245 69 61 52
416 472 377 69 28 34
413 454 274 166 18 44
303 343 249 72 61 50
331 918 314 73 65 63
424 491 304 171 22 50
303 338 254 77 66 54
318 935 324 67 59 58
242 928 378 55 51 51
303 348 244 70 61 52
302 348 249 72 61 50
373 749 232 58 47 39
303 353 249 70 60 50
303 353 254 72 60 47
441 588 314 147 104 90
411 856 401 64 51 41
306 323 239 79 68 58
234 595 227 163 4 38
303 389 236 101 80 56
311 333 234 81 71 60
338 421 197 95 68 55
331 421 179 93 70 54
358 363 238 106 88 68
313 696 227 74 39 36
278 609 333 97 19 36
393 466 318 121 9 39
379 816 312 152 115 90
317 323 230 92 79 65
271 442 119 89 72 53
308 410 210 89 75 60
286 417 248 85 71 57
317 328 230 90 78 65
424 491 299 164 22 46
321 328 230 93 79 65
271 473 119 124 28 44
341 911 373 51 44 40
315 328 232 87 75 63
367 573 343 127 8 39
189 583 186 132 97 65
321 333 229 91 78 64
301 738 194 85 62 51
305 323 244 73 63 53
417 453 382 149 18 47
305 328 244 72 62 52
304 328 249 73 62 51
304 320 249 76 64 53
356 897 299 64 56 56
304 324 252 78 67 56
261 440 120 91 74 55
218 660 207 148 99 71
304 328 252 79 67 55
301 883 249 70 64 65
256 523 159 114 30 44
191 629 192 162 110 74
321 688 237 46 36 42
306 338 239 71 63 55
187 793 254 169 122 92
312 347 231 82 72 63
305 348 239 71 63 54
311 348 233 79 70 61
311 353 235 79 70 61
314 342 232 82 72 63
313 345 231 83 73 63
321 348 228 88 77 66
304 338 244 69 60 51
304 353 243 70 62 54
303 363 241 71 63 55
396 853 299 86 74 62
411 463 269 122 25 42
331 873 304 40 38 38
303 363 244 70 61 52
302 363 249 70 60 49
427 844 402 71 57 45
303 378 240 78 65 49
288 382 254 108 85 65
407 463 334 93 19 34
289 384 254 108 85 65
302 373 254 71 59 44
302 378 244 76 63 46
301 378 249 79 58 42
458 545 323 130 91 80
302 383 244 84 65 44
433 455 316 117 15 39
301 383 249 83 60 42
301 378 254 77 57 38
225 614 248 65 31 36
321 603 218 151 13 40
311 358 238 80 70 61
311 361 237 81 71 62
345 308 226 133 101 65
277 802 215 66 52 44
313 357 235 82 72 63
315 358 233 83 74 64
386 788 243 82 60 47
321 363 229 85 75 65
321 368 229 86 76 66
416 788 254 108 82 67
190 723 239 161 111 81
356 403 294 115 92 67
348 677 316 127 17 42
314 367 232 83 73 64
358 333 242 119 95 65
360 303 249 124 95 61
304 357 242 70 62 54
291 458 128 149 18 38
304 362 242 71 62 53
312 373 235 85 75 64
419 456 351 159 18 43
291 353 269 109 81 67
305 323 269 74 60 45
309 370 237 81 71 61
221 538 209 159 10 40
360 777 231 73 57 51
306 378 235 86 70 53
453 845 417 96 79 62
223 537 206 161 10 40
286 388 244 112 88 64
304 378 238 82 66 48
250 903 273 91 73 56
271 759 321 66 56 51
304 382 237 93 72 47
311 378 235 89 77 65
412 458 364 68 18 28
360 860 391 55 48 44
483 530 352 132 102 84
345 689 246 78 35 38
312 384 237 93 79 65
313 370 231 84 75 66
250 908 264 58 52 51
374 821 312 151 110 88
313 371 231 86 74 63
224 692 267 52 29 31
314 374 232 88 77 67
361 698 304 138 19 46
158 563 197 156 110 89
317 378 230 90 80 69
321 378 228 91 79 69
313 819 223 53 47 49
318 382 229 91 79 68
213 956 334 70 66 66
317 382 235 91 79 68
323 258 221 132 102 65
323 263 221 133 102 66
326 268 220 137 105 68
189 674 212 181 119 93
333 257 216 135 103 64
336 261 216 134 100 60
268 372 316 141 101 72
331 273 220 138 104 65
254 837 290 157 115 89
336 268 218 136 102 63
326 278 223 138 104 68
326 283 224 137 102 68
225 748 310 182 17 59
231 819 232 126 91 77
329 279 222 136 101 65
289 415 225 86 72 57
213 777 287 176 129 102
336 278 220 138 102 64
331 288 224 137 102 67
251 523 163 84 34 41
399 481 352 104 4 34
336 282 221 137 103 66
336 284 222 137 104 68
207 778 279 171 128 99
404 468 346 63 24 28
336 288 223 137 105 69
216 723 289 60 31 38
292 623 331 143 24 49
279 274 292 112 86 59
301 694 214 69 47 38
341 263 217 138 102 63
311 758 212 56 45 41
394 504 361 66 23 30
269 437 312 59 23 27
341 273 219 138 103 65
302 363 269 75 62 46
345 257 216 138 101 62
346 258 217 140 101 62
288 313 289 111 80 55
351 263 219 141 100 62
268 474 306 36 25 25
351 268 220 140 100 62
261 443 319 57 25 31
341 278 220 139 103 65
341 288 223 141 106 69
290 962 333 57 54 54
352 274 222 142 101 64
356 323 264 131 101 69
339 482 171 104 25 41
349 276 221 140 99 62
346 673 250 82 29 35
302 414 209 88 73 58
351 278 223 142 101 64
256 791 211 71 57 51
344 281 221 141 103 66
220 689 242 70 53 39
272 723 214 79 36 33
346 283 222 142 103 66
323 282 226 135 103 68
324 284 227 135 103 69
347 493 188 136 1 31
350 288 225 140 101 65
411 443 219 99 30 38
336 293 224 133 102 67
371 716 274 91 66 58
341 293 224 137 104 69
331 303 226 117 93 64
223 678 271 91 24 42
317 468 364 91 24 36
357 916 368 62 54 49
359 308 249 123 95 62
326 308 226 110 87 62
324 313 227 104 86 66
331 308 225 119 93 63
319 542 176 82 29 37
331 313 226 114 90 63
271 562 185 51 34 41
331 318 226 106 86 63
356 848 254 80 63 60
331 320 227 101 82 61
336 363 225 94 81 68
341 298 224 131 100 65
197 678 238 143 111 86
252 572 201 182 13 40
341 303 225 127 97 61
406 763 279 155 101 69
257 578 317 55 28 33
209 615 217 89 53 42
346 293 225 137 103 67
277 458 118 114 29 41
331 897 324 36 35 36
151 533 175 177 119 92
349 292 226 135 101 66
346 298 225 131 100 65
401 723 249 84 63 47
326 318 290 119 89 65
346 303 226 129 99 62
351 298 229 130 100 65
261 358 316 133 98 73
351 303 229 125 97 64
341 388 220 90 78 67
367 598 324 145 31 52
341 313 226 132 100 65
347 313 227 139 105 68
271 632 332 110 33 45
350 318 230 137 104 71
215 528 219 44 32 37
355 258 220 136 102 63
176 598 185 160 110 74
455 905 322 93 82 76
358 259 222 136 103 64
402 538 279 70 34 40
359 675 266 42 33 42
408 778 271 66 46 34
272 413 310 115 85 63
356 268 224 138 100 62
356 273 225 140 101 63
286 901 358 35 33 35
191 578 189 118 87 60
368 397 254 94 78 62
299 496 146 128 23 39
360 263 225 136 101 63
415 420 284 98 26 30
291 602 215 124 25 44
359 268 226 138 99 63
387 493 218 92 34 38
319 921 296 75 68 68
361 268 229 138 102 64
336 577 205 188 9 43
362 258 229 132 100 62
311 429 149 87 69 50
363 263 234 125 96 62
362 268 234 129 99 64
363 268 239 125 96 61
288 416 218 89 74 58
360 258 254 125 96 62
360 268 253 131 98 65
321 919 374 51 45 43
358 273 256 129 97 64
363 268 244 129 98 62
246 727 227 86 27 34
513 514 323 191 130 115
172 579 207 131 100 80
420 458 354 158 19 43
361 273 249 129 97 64
312 538 342 85 21 35
363 534 332 48 25 28
341 920 344 73 66 65
355 278 225 142 101 63
358 274 227 140 99 63
442 428 314 117 38 46
261 971 337 65 60 58
357 278 228 141 102 64
320 872 251 68 59 60
359 278 230 143 102 65
356 288 230 140 99 66
359 288 235 143 102 68
364 571 221 120 31 45
515 498 329 117 93 73
361 278 234 141 101 66
360 278 254 129 96 62
220 618 300 76 30 38
388 448 217 70 36 38
358 288 256 126 98 63
357 293 233 142 103 71
211 688 209 140 95 61
308 450 296 85 56 44
359 292 235 142 103 70
354 297 231 136 100 66
397 823 289 82 53 42
221 704 249 78 60 56
359 303 240 129 98 67
344 453 322 65 29 31
420 438 284 126 17 32
360 298 254 127 98 63
320 803 214 63 53 51
331 273 273 114 90 65
301 408 234 92 72 50
250 813 296 110 86 77
359 303 254 126 97 62
436 868 384 112 93 76
208 944 334 50 45 47
324 425 156 115 47 37
355 313 235 140 105 74
357 308 239 131 99 67
379 587 256 172 20 45
326 704 343 129 13 41
346 473 179 101 17 34
357 313 239 131 100 68
380 688 274 71 55 42
420 448 285 136 12 34
336 313 288 116 87 59
359 313 244 124 96 65
422 421 244 39 31 28
358 318 242 125 97 64
436 628 275 140 105 66
256 788 305 64 55 51
331 323 227 96 80 62
224 718 252 92 41 38
331 328 228 94 79 63
348 696 239 68 31 34
338 896 339 36 34 37
336 323 227 106 85 61
389 492 326 77 27 36
331 333 229 94 80 64
326 338 228 92 78 64
326 343 228 93 79 67
352 513 336 63 28 33
254 795 301 69 57 52
360 713 219 75 55 44
326 348 228 91 79 67
339 420 200 92 72 57
326 353 229 91 79 68
376 568 294 89 22 36
331 348 228 94 81 69
400 753 294 177 120 91
352 268 265 129 98 64
395 793 303 162 119 90
387 460 328 55 23 28
208 759 282 161 124 95
336 348 228 95 82 69
336 353 227 94 81 69
349 322 231 131 101 68
279 467 121 118 26 37
241 960 350 69 64 64
349 328 231 122 95 65
399 752 246 96 69 58
251 672 242 56 31 36
351 328 233 124 98 69
346 333 230 112 90 66
211 683 209 141 96 61
312 448 354 128 17 43
349 333 231 118 94 67
256 801 221 72 59 53
303 505 152 43 37 34
341 798 231 65 53 49
351 333 233 118 95 68
443 623 283 147 105 71
341 348 228 97 84 69
346 338 230 109 89 68
346 343 229 105 87 68
501 538 339 208 135 121
352 343 233 114 93 69
286 683 333 155 21 51
386 828 273 107 70 58
346 348 228 103 87 70
225 678 215 121 86 58
356 608 340 106 30 45
346 353 228 102 86 70
391 509 310 140 7 43
350 353 230 108 90 71
352 348 233 112 92 71
332 384 221 88 77 66
343 574 332 55 25 28
336 378 223 93 80 67
315 906 276 70 61 64
336 384 221 89 78 67
336 848 288 34 30 31
216 768 212 165 112 80
451 848 399 91 73 59
228 674 298 54 30 35
341 373 225 97 82 67
356 703 224 73 47 37
341 382 222 95 81 67
340 384 221 93 80 67
360 890 411 75 57 47
326 363 227 90 78 67
191 753 249 159 115 84
286 747 195 61 47 40
328 364 226 91 80 68
331 358 227 93 80 68
336 358 227 94 82 70
331 363 226 93 80 68
362 683 269 56 36 38
329 361 227 92 80 68
422 920 311 100 85 71
332 360 226 93 80 68
325 427 300 108 81 61
326 373 225 89 79 68
316 694 337 99 27 39
331 373 224 91 79 67
336 858 293 37 34 35
317 268 263 85 70 55
341 358 227 97 83 70
303 934 282 69 62 64
340 360 226 96 83 70
291 418 234 85 71 56
342 369 228 98 83 67
346 358 228 101 86 70
258 400 232 99 85 71
281 648 237 114 14 29
346 368 227 101 85 69
281 653 238 110 15 29
403 465 328 111 19 39
351 363 229 104 88 71
342 372 229 101 84 67
244 634 311 120 29 49
296 493 319 71 24 33
345 818 240 76 62 59
345 372 228 102 85 67
411 419 279 108 25 33
200 528 264 151 1 41
346 374 225 100 84 67
350 378 226 100 84 69
377 885 342 74 65 63
351 383 225 97 83 68
266 473 118 182 11 40
354 323 236 121 95 65
355 593 225 47 33 38
358 323 242 122 96 64
425 438 239 99 31 42
356 913 374 57 50 46
358 328 242 120 95 65
276 583 325 115 15 38
360 338 249 126 99 67
360 343 244 122 97 67
372 463 207 118 20 31
241 958 284 71 66 68
359 345 241 117 94 68
359 348 241 118 94 68
211 656 236 104 72 60
360 348 244 121 96 68
266 591 211 196 8 44
346 778 228 64 52 45
303 505 337 31 25 29
290 323 284 107 76 54
246 820 232 78 63 57
421 422 304 60 31 32
359 353 241 117 94 69
360 353 244 120 96 68
428 441 374 49 32 30
431 613 280 118 93 63
271 803 219 66 52 46
354 364 231 105 89 72
358 366 237 103 86 69
376 897 398 68 57 49
355 425 200 135 24 19
286 918 248 85 75 74
360 368 239 102 86 68
316 406 208 92 78 63
271 598 325 132 13 42
232 942 368 65 60 59
359 369 236 101 85 69
361 368 244 109 89 67
321 463 370 154 20 52
359 350 267 125 100 71
291 772 202 69 54 46
292 530 330 113 17 40
281 733 204 61 43 38
362 363 254 116 92 65
363 368 254 113 91 65
355 378 230 98 84 70
275 453 116 102 35 43
355 383 229 95 82 69
386 826 271 118 82 64
216 819 275 164 126 106
378 896 402 62 53 46
358 378 233 99 84 70
236 708 329 41 28 31
294 478 316 57 27 31
360 378 235 97 83 70
304 457 141 163 6 37
361 373 239 100 85 68
363 373 249 112 91 67
363 382 243 102 85 66
290 353 264 131 95 80
364 378 250 111 90 67
364 384 245 104 86 66
364 378 254 113 91 68
370 503 205 135 3 32
365 383 254 111 90 68
261 448 105 97 57 48
181 648 214 172 125 99
262 446 108 87 69 55
261 445 110 95 75 57
264 445 111 90 74 54
333 844 247 63 51 52
261 436 128 91 74 57
316 588 331 150 20 50
262 441 118 91 73 54
271 439 124 90 73 54
266 444 114 91 73 54
356 828 244 80 63 58
303 348 269 79 65 50
358 438 306 37 22 24
271 444 115 89 71 51
281 440 126 88 72 53
225 955 351 64 59 58
356 704 214 83 55 45
276 444 119 88 70 49
275 448 116 103 45 50
256 850 329 111 89 65
369 723 298 128 16 39
313 791 214 68 57 55
276 343 315 138 90 69
382 758 244 64 51 43
278 448 117 116 43 51
285 444 120 76 56 40
288 441 128 84 67 48
291 444 125 98 54 39
394 421 222 176 10 16
296 443 129 62 48 45
261 453 105 118 37 46
392 649 274 99 70 52
201 678 240 136 104 83
284 425 166 86 71 54
261 455 107 102 45 48
266 453 108 96 37 44
310 897 265 65 57 59
269 449 111 103 44 41
265 462 111 81 37 42
250 643 320 129 24 47
271 463 114 71 40 45
287 333 304 104 75 51
261 471 116 191 10 40
397 523 244 50 34 37
372 583 309 83 27 38
266 471 116 170 13 41
209 902 329 93 81 73
331 558 330 82 30 39
272 469 117 62 35 43
190 569 199 93 66 50
277 453 118 122 31 45
276 463 118 88 33 43
302 696 208 68 48 40
271 668 330 154 20 51
287 454 123 111 26 41
278 806 216 62 50 43
243 636 246 144 8 43
430 663 274 156 111 75
182 638 218 163 120 96
286 458 124 176 8 39
283 474 127 155 3 37
248 616 231 170 0 42
261 486 126 202 13 42
431 608 283 116 92 62
266 694 231 52 34 36
266 486 126 204 12 44
164 567 201 140 104 83
270 486 126 200 11 39
255 888 273 97 80 63
237 713 332 86 25 39
271 488 128 201 12 42
245 529 173 192 13 48
276 482 125 179 7 37
371 443 305 50 21 23
232 850 306 101 81 57
273 485 127 191 9 38
316 648 331 55 31 35
374 415 260 71 63 55
281 483 129 168 4 35
276 542 327 167 20 54
290 453 125 80 32 40
295 453 130 95 32 41
225 873 293 134 105 73
303 358 269 78 64 49
251 528 312 120 21 42
291 463 129 144 21 40
299 477 141 91 31 40
258 426 157 94 70 54
425 439 334 95 10 40
261 426 157 91 72 56
266 429 149 90 74 57
312 824 223 53 48 49
366 424 298 64 56 47
271 432 144 89 73 56
407 508 359 74 31 36
266 425 160 89 72 56
210 943 309 57 53 54
361 853 290 36 31 30
324 431 309 51 42 33
456 593 299 178 127 95
261 952 363 78 68 64
339 512 181 154 1 39
261 434 134 91 74 56
261 433 139 90 74 56
266 434 134 90 75 58
271 435 131 90 74 56
173 618 195 174 117 87
210 820 270 178 133 108
271 434 134 90 74 56
418 435 278 89 13 28
271 433 139 89 73 56
336 632 332 136 22 50
226 653 289 58 32 36
276 427 159 87 72 56
357 857 291 41 36 33
245 564 202 175 5 38
276 429 154 87 72 55
321 425 156 106 54 40
282 431 152 87 72 55
287 431 153 85 69 53
271 778 315 65 55 50
416 428 334 64 26 32
321 395 216 94 80 66
390 883 334 65 58 54
456 563 329 155 114 99
356 868 402 59 48 40
386 443 215 88 34 38
276 435 134 89 73 55
281 433 144 87 71 54
262 888 244 54 51 52
285 434 140 86 69 52
387 473 342 53 21 28
287 437 139 84 67 49
244 540 182 188 16 50
321 288 274 91 74 56
397 679 292 162 119 96
261 421 172 90 72 56
221 558 219 97 31 40
266 422 169 88 72 57
167 563 202 127 97 77
329 386 222 89 77 65
471 548 340 208 148 129
271 422 169 88 73 57
357 634 253 87 24 37
264 421 172 89 73 57
261 417 184 93 77 61
354 278 262 131 98 66
266 418 184 93 77 62
271 418 184 93 78 62
285 972 309 85 79 81
266 417 189 94 79 63
271 417 189 94 79 63
273 421 172 88 73 58
170 538 175 159 108 91
266 903 239 85 73 72
281 422 174 87 73 57
296 621 226 173 12 49
301 718 343 84 35 41
219 518 207 56 37 38
281 426 163 87 71 54
281 425 165 87 72 55
366 563 339 134 12 41
287 426 167 85 70 53
276 419 184 92 77 62
281 419 184 91 77 61
277 421 178 89 75 59
359 647 266 44 31 31
393 555 272 80 33 40
386 786 241 79 58 46
281 421 179 89 75 60
276 418 189 93 78 63
190 753 234 149 104 69
286 422 179 89 74 59
401 423 218 146 22 24
231 803 289 69 58 53
286 420 185 90 76 61
321 483 160 68 32 40
291 429 159 84 69 52
321 867 300 35 33 35
230 748 315 71 32 38
281 803 309 183 136 115
289 430 156 84 69 52
295 431 154 83 68 50
192 728 224 161 105 75
296 429 159 84 68 51
284 820 217 76 59 50
294 431 157 83 68 51
297 430 154 83 68 50
296 432 149 83 68 50
383 698 288 73 45 31
298 430 151 83 68 50
301 430 150 84 68 51
301 433 144 85 69 52
482 539 312 201 141 116
372 420 219 149 25 12
242 632 245 156 4 39
301 429 154 84 69 51
291 439 134 79 63 49
258 866 346 134 108 80
234 687 310 37 28 32
291 437 139 80 65 49
476 538 348 173 130 118
293 435 140 79 64 48
351 916 331 62 55 55
296 435 140 80 65 49
216 743 211 135 98 65
291 435 144 82 67 50
355 418 220 92 75 59
306 939 349 60 54 51
291 440 131 77 63 52
195 689 212 166 107 76
294 440 131 73 63 51
311 873 309 32 32 34
376 417 254 72 64 57
301 439 135 94 55 42
301 443 134 150 29 39
299 445 131 99 39 44
418 445 347 91 5 40
326 598 331 164 17 52
402 424 323 52 27 29
211 812 231 184 123 93
299 447 131 88 34 42
394 744 248 86 62 43
417 445 328 100 56 53
291 433 149 83 67 50
440 638 298 185 126 100
305 431 147 84 68 51
310 430 146 87 68 50
312 425 159 90 67 48
316 424 159 98 60 43
246 673 318 42 29 32
321 423 159 106 53 40
384 597 287 157 20 50
269 442 312 52 27 28
316 429 150 91 65 47
336 678 244 62 33 34
315 434 146 130 30 29
346 348 284 117 90 58
348 347 280 115 90 60
320 429 151 110 45 32
276 515 147 58 39 42
316 425 155 95 62 44
328 768 217 65 52 47
316 426 153 94 64 45
305 435 141 85 68 46
311 398 218 91 77 64
306 438 139 110 49 37
386 883 329 77 67 61
287 403 294 113 78 59
304 440 136 128 43 31
347 463 179 131 2 32
374 732 232 71 56 40
310 438 141 128 25 30
251 743 223 72 35 36
366 916 369 67 58 53
312 438 143 131 19 30
304 443 136 158 18 36
307 443 138 146 14 35
361 828 243 76 59 52
304 447 136 156 5 37
310 448 144 174 8 42
320 438 150 144 8 36
314 442 146 150 7 38
316 443 149 152 5 35
312 448 148 169 8 38
246 959 354 66 61 60
284 377 307 137 97 75
233 723 224 110 75 52
293 494 142 134 27 45
315 448 150 164 7 40
231 878 349 136 104 84
291 427 164 85 69 52
245 559 198 174 5 38
291 426 168 85 70 53
406 419 259 73 31 32
296 427 164 85 69 52
296 426 168 85 70 53
299 426 279 57 45 34
291 425 170 86 70 53
226 876 346 100 78 57
301 424 174 89 72 56
339 503 176 52 35 36
289 299 274 102 83 62
241 789 217 92 68 54
261 908 240 89 78 78
301 426 164 85 70 52
300 426 167 86 70 53
414 665 291 180 131 108
313 278 262 76 64 53
302 425 166 86 71 53
296 422 179 88 73 57
361 388 284 119 95 67
316 398 288 125 87 73
391 723 299 152 109 84
261 393 318 145 106 80
214 889 340 171 124 108
291 419 189 89 75 60
296 419 189 88 74 58
296 420 185 88 74 58
396 544 296 93 13 33
331 338 292 128 92 66
301 421 183 89 74 58
278 727 210 65 39 33
301 420 185 88 74 58
330 547 337 66 27 34
306 423 174 92 71 55
202 644 232 133 105 86
311 423 174 93 72 56
306 425 166 90 70 51
291 923 393 81 75 74
306 425 169 93 69 52
299 877 225 86 73 70
381 418 264 70 62 54
311 425 165 94 68 49
206 663 237 125 94 77
316 424 164 99 62 45
321 422 164 103 55 42
316 424 169 96 68 51
382 760 247 67 53 44
321 423 169 96 64 49
269 762 208 65 52 46
191 723 244 159 111 84
316 423 174 92 72 56
321 423 174 91 71 54
311 419 184 88 74 58
238 517 171 98 28 39
213 533 297 100 30 42
312 420 181 89 74 59
316 548 341 107 26 41
457 877 351 89 83 80
316 421 179 89 74 59
316 418 189 89 74 59
511 508 334 114 88 70
291 599 213 80 32 40
321 418 189 90 75 60
285 404 225 87 72 58
261 413 204 95 81 67
343 524 336 88 29 35
266 415 195 94 80 65
270 415 195 94 80 65
321 557 185 108 31 42
271 414 199 94 80 66
360 473 314 30 22 27
302 609 331 122 30 47
266 411 208 95 81 67
266 413 204 95 81 67
367 493 203 119 13 35
396 418 249 76 53 47
273 575 322 123 20 41
271 413 204 95 81 66
261 408 214 96 82 67
261 404 224 96 82 68
261 405 221 97 82 66
261 410 210 96 81 67
331 693 335 115 13 35
354 429 196 124 17 31
266 409 214 95 81 67
230 892 351 130 100 87
266 405 224 96 81 67
288 464 303 71 16 28
267 406 224 96 81 67
269 405 223 96 82 67
420 423 279 131 16 38
271 406 224 95 81 66
297 891 335 37 35 35
360 877 305 35 31 32
271 410 211 94 80 66
416 430 337 38 27 25
271 409 214 94 80 65
276 415 200 94 80 65
352 453 189 128 1 33
276 414 204 94 80 65
276 412 209 94 80 65
281 415 204 93 79 65
376 773 309 145 107 76
341 838 248 76 61 58
248 850 301 91 75 58
359 481 330 83 8 29
281 414 209 92 78 64
394 496 317 156 6 51
276 408 219 93 79 64
406 878 374 61 49 41
375 457 315 62 21 26
304 831 302 141 109 89
335 498 344 56 27 32
276 407 224 92 78 64
286 493 314 38 26 27
281 408 219 90 76 61
282 405 224 90 75 59
285 414 214 90 76 60
191 763 254 153 114 82
286 413 219 89 74 59
251 599 223 179 3 40
291 683 238 86 25 32
284 410 221 88 74 59
411 884 399 90 69 66
287 413 224 86 72 58
261 388 231 99 85 72
366 468 203 93 22 27
259 386 232 96 83 71
336 713 345 68 21 33
276 278 258 97 79 59
260 397 230 99 85 71
261 399 233 100 85 70
196 693 213 160 105 72
263 395 232 102 87 71
264 384 231 100 86 73
382 448 213 47 39 39
264 388 231 99 86 73
264 392 231 99 86 72
425 463 374 185 15 58
347 568 332 109 21 40
291 913 254 80 71 72
269 388 236 98 84 70
271 388 239 96 82 69
236 818 285 75 61 57
278 975 320 74 70 70
266 398 234 97 84 70
169 589 187 165 109 77
266 523 155 77 34 39
271 398 235 96 82 69
251 873 354 137 110 83
374 900 326 61 56 53
258 402 229 96 83 70
193 773 226 153 103 69
406 438 218 80 33 39
261 404 229 96 82 69
257 403 233 97 83 69
386 593 279 148 19 40
261 403 234 97 83 69
264 405 228 96 82 68
280 434 302 61 49 35
266 406 229 96 82 67
271 408 229 95 80 66
236 752 222 81 55 36
265 404 235 95 82 69
379 458 211 74 40 41
264 400 237 98 84 70
212 878 339 157 119 98
268 406 238 96 82 67
271 402 236 96 82 67
356 880 366 57 51 52
271 733 333 193 16 63
331 412 203 91 76 62
270 404 238 96 81 66
271 409 234 95 81 66
256 728 335 195 1 64
272 412 237 94 79 65
276 393 239 91 77 63
275 395 236 92 78 65
411 419 259 81 23 29
280 298 308 114 89 60
276 398 236 93 79 64
280 393 240 88 74 59
278 398 237 91 77 63
280 398 240 89 75 61
273 386 242 94 80 66
391 843 279 84 65 59
284 466 301 67 16 24
276 388 242 91 76 62
281 388 244 95 77 59
425 754 252 98 75 58
522 503 334 174 120 108
282 386 247 98 78 58
285 393 241 103 82 60
290 518 329 83 23 35
218 666 236 86 61 46
286 389 241 112 88 66
246 809 227 76 62 57
282 398 243 88 73 57
276 409 229 93 79 64
304 402 227 91 74 55
281 408 229 90 75 60
237 845 332 142 115 90
281 743 333 101 37 47
275 408 235 93 79 64
277 403 238 91 77 64
282 782 317 64 55 52
260 502 306 67 17 27
279 403 240 89 76 63
465 537 329 102 84 67
411 497 307 126 14 42
279 408 240 91 77 62
273 411 231 93 79 65
372 558 223 114 30 43
276 411 231 93 79 64
425 438 344 89 22 35
273 282 257 93 77 59
209 543 290 143 15 44
280 411 231 91 77 61
207 908 314 145 118 100
181 607 186 158 109 75
304 453 326 152 6 49
391 419 249 75 61 54
281 413 234 90 76 61
280 414 239 89 75 61
282 405 228 89 75 59
306 824 305 142 102 84
282 403 243 88 74 59
248 841 272 183 131 104
394 866 296 86 68 62
282 408 243 89 75 60
286 403 245 87 72 56
285 408 245 86 72 58
308 460 147 127 13 41
287 403 247 88 72 56
301 903 394 43 39 38
181 589 212 121 95 76
266 663 329 162 21 52
287 408 247 84 70 55
245 835 275 179 130 105
282 413 244 87 74 59
217 831 254 178 118 95
285 413 245 86 72 58
365 568 220 50 34 37
400 477 359 84 5 25
261 416 192 94 79 64
376 469 333 87 12 28
266 416 192 94 79 65
271 416 194 94 79 65
352 895 327 47 43 42
281 416 199 93 79 63
376 868 407 60 49 41
234 760 311 88 73 67
380 877 300 87 69 60
326 408 205 92 78 63
286 418 194 91 77 62
281 616 226 148 19 43
286 417 199 92 77 62
286 416 204 92 77 62
287 416 214 90 75 59
273 416 236 92 78 64
274 416 236 92 78 64
283 417 239 88 74 59
351 919 349 63 57 54
286 418 239 86 72 57
302 414 214 87 73 59
345 443 170 47 40 41
311 694 224 77 44 38
208 938 334 93 75 68
301 413 219 87 73 57
307 394 224 90 75 59
269 458 308 35 24 24
223 748 308 173 15 56
305 398 224 91 75 57
311 394 220 91 77 63
311 392 224 90 77 64
316 389 224 89 77 66
321 929 339 68 59 58
321 388 224 90 78 66
343 692 326 138 7 44
322 390 221 91 79 67
321 392 219 91 79 66
312 399 216 92 78 65
316 398 215 93 79 65
259 860 267 184 131 97
208 763 283 171 129 99
497 519 357 166 120 112
318 395 216 94 81 67
311 415 196 89 74 58
308 415 196 88 74 58
306 328 274 73 61 50
324 422 296 117 87 67
395 723 231 79 59 40
311 414 199 89 74 58
306 413 204 88 74 58
312 410 205 90 76 61
248 859 286 126 97 68
393 478 324 126 12 41
321 403 209 93 78 63
278 291 306 109 86 59
321 408 204 92 78 62
320 406 207 92 78 63
316 415 195 90 75 59
348 490 323 37 20 25
321 415 195 90 75 60
321 413 199 91 76 61
371 593 319 99 31 42
216 733 294 142 11 43
315 411 202 90 76 62
306 408 214 89 76 61
371 423 294 64 55 47
311 403 214 92 78 63
395 538 270 50 31 36
347 904 308 67 60 59
362 743 314 90 30 41
312 404 210 92 78 62
381 563 293 42 26 29
398 520 237 122 24 39
307 403 219 89 75 60
305 403 224 91 75 57
271 778 194 72 56 48
222 648 209 97 70 48
226 868 294 127 100 71
419 458 239 168 22 49
305 408 219 89 75 60
380 558 329 36 31 35
304 407 223 90 74 58
309 402 218 90 76 63
304 411 213 88 74 60
421 483 310 69 22 33
316 403 210 92 78 64
431 443 374 58 31 33
315 402 213 92 78 64
319 401 212 92 78 63
390 678 263 99 73 42
302 388 239 97 76 52
302 393 239 101 79 54
303 395 230 99 77 52
354 463 195 123 6 30
446 756 226 103 82 63
217 806 226 183 123 93
397 538 273 44 33 38
303 398 234 98 76 51
291 833 304 145 110 87
301 398 239 101 78 54
289 386 251 112 88 66
296 833 303 145 112 92
275 553 317 78 18 29
281 303 309 111 85 57
289 393 255 105 83 61
288 398 249 99 79 58
289 304 283 115 89 61
289 399 250 98 78 58
251 848 279 166 118 91
336 708 343 119 9 38
288 396 252 103 82 60
330 557 191 126 35 47
206 758 265 115 87 59
213 883 339 171 126 107
301 388 249 87 64 43
301 393 244 99 77 51
321 533 343 158 21 53
301 393 249 93 72 47
302 393 254 88 66 44
301 398 254 92 71 47
289 414 229 86 72 57
336 888 264 74 62 61
384 572 260 166 19 45
290 413 234 85 71 56
414 849 279 126 113 111
258 325 312 121 91 64
371 421 232 110 68 44
289 413 238 84 70 56
294 440 292 51 40 29
236 698 244 78 16 32
289 408 240 84 69 56
237 534 312 58 29 31
396 848 298 67 52 39
299 896 256 58 51 53
303 405 226 91 74 57
377 829 268 117 84 67
406 467 318 77 19 34
302 408 229 89 71 51
302 403 234 94 73 50
354 616 337 193 18 60
291 674 237 83 30 32
301 403 239 98 76 53
300 413 234 89 71 50
316 728 347 58 28 35
290 403 249 91 74 56
232 914 275 84 69 56
389 576 271 160 20 41
289 405 245 86 71 54
203 607 197 122 89 63
491 523 308 147 109 83
289 407 244 84 70 55
216 738 211 134 96 63
256 603 224 180 4 41
290 403 254 93 75 56
151 528 173 192 128 102
283 648 332 118 28 43
290 413 249 85 71 56
283 348 311 132 94 69
421 673 289 180 126 100
417 609 289 127 89 68
301 403 244 101 79 55
170 608 204 164 117 91
301 403 249 101 79 54
317 449 373 57 17 27
273 731 216 68 40 38
376 618 279 142 24 41
300 408 244 99 77 54
301 403 254 95 74 50
376 708 254 94 70 42
300 413 244 95 74 52
300 413 249 94 73 51
358 770 321 28 25 33
299 451 304 57 41 34
300 413 254 84 65 46
281 603 334 110 16 39
310 391 229 88 76 63
217 893 300 160 116 91
312 389 229 90 78 66
297 810 212 83 63 52
326 433 155 119 24 35
304 387 237 98 78 54
305 392 233 100 79 56
307 473 148 84 34 39
304 449 326 97 12 34
385 563 348 150 22 52
304 398 229 94 75 52
288 348 258 106 82 63
320 386 228 92 80 67
363 708 305 151 8 46
316 386 237 92 79 66
289 304 266 134 105 80
387 498 354 68 23 32
282 474 308 46 23 25
319 386 235 91 79 68
319 384 237 92 80 69
291 418 199 90 75 60
356 813 239 61 52 49
296 418 199 88 73 58
316 888 318 31 32 34
162 524 172 189 133 108
291 417 204 90 75 60
404 502 271 155 18 42
296 417 204 88 73 58
514 506 316 136 103 81
296 417 209 88 73 58
394 710 238 89 71 56
395 479 341 100 14 34
301 416 199 88 73 57
341 907 309 66 60 60
190 723 229 162 108 76
300 416 204 88 73 57
300 416 209 88 73 58
291 418 214 89 74 58
290 418 224 86 72 58
350 512 337 92 27 38
296 418 219 86 72 56
384 518 330 41 25 30
299 416 214 87 73 58
299 416 219 87 72 56
299 416 224 86 70 54
385 906 372 71 61 55
290 418 229 85 72 57
383 675 274 81 59 40
292 423 229 85 72 57
290 419 239 84 70 56
295 428 230 85 71 55
295 428 234 84 70 55
417 483 288 101 24 37
296 468 318 55 26 30
293 426 238 83 69 54
297 423 239 85 70 53
349 642 317 179 5 56
518 490 325 139 105 90
295 432 235 83 69 54
343 739 210 60 46 41
332 727 213 58 45 40
296 432 239 83 69 54
346 703 225 86 46 34
335 886 261 76 64 62
299 417 229 86 70 52
306 618 331 34 29 32
422 774 249 136 104 74
395 901 373 65 55 47
299 417 234 87 70 51
350 607 230 78 38 44
299 417 239 89 71 51
243 951 276 80 73 73
298 420 239 87 70 51
290 419 244 83 69 55
291 418 249 84 70 56
316 756 337 63 45 44
293 422 244 83 69 55
301 605 217 171 18 50
314 867 240 61 55 56
293 422 249 83 69 55
293 421 253 82 68 53
387 699 292 112 78 62
296 423 254 76 62 46
295 428 244 83 69 53
296 428 249 81 67 52
366 474 329 73 16 26
298 483 142 138 11 37
296 431 244 83 69 53
257 833 294 155 117 89
224 644 222 87 50 41
296 431 247 82 69 53
292 509 323 55 23 28
303 914 274 76 73 75
296 427 254 75 61 47
336 283 278 112 90 66
299 418 244 89 71 50
356 423 300 77 63 49
298 456 294 90 25 30
396 869 303 97 80 77
271 318 317 136 94 74
298 420 244 87 69 50
321 616 226 56 35 37
256 630 237 158 1 38
298 420 249 84 67 47
299 418 254 76 59 41
281 653 331 100 29 41
435 448 318 86 25 35
406 488 314 148 11 46
371 423 209 144 15 18
257 491 131 171 11 42
234 715 231 83 39 37
261 492 131 187 12 42
416 473 315 103 21 38
266 492 130 203 12 41
258 718 226 104 17 34
356 823 243 70 58 56
271 492 131 200 12 41
324 807 225 67 55 51
271 338 316 140 99 76
267 751 327 64 54 50
257 496 136 131 21 44
261 498 135 150 21 44
260 500 137 90 31 37
231 613 240 99 23 38
331 483 354 155 20 50
270 819 301 184 138 114
201 629 227 119 92 74
261 503 139 95 36 42
261 508 144 69 36 42
262 506 141 96 35 45
266 503 138 92 36 43
225 738 314 184 14 58
306 848 298 106 85 66
267 500 137 84 38 39
433 589 304 131 92 78
271 503 139 117 31 44
266 507 141 95 35 38
266 509 143 115 30 43
261 514 148 90 33 41
281 488 130 177 7 38
276 494 133 192 10 40
331 831 302 45 38 37
456 598 309 194 129 104
196 662 201 154 106 71
406 433 217 53 35 38
279 491 131 187 9 36
342 543 330 99 29 41
281 298 260 94 79 64
281 493 134 183 8 39
288 479 132 154 2 35
351 812 235 64 54 51
326 894 334 31 32 34
284 486 131 169 5 37
301 428 284 57 45 34
286 493 135 168 6 38
281 496 136 186 12 39
326 638 239 86 26 38
276 503 139 189 15 41
281 498 138 195 11 41
271 783 204 63 52 44
281 503 140 200 12 41
276 508 143 202 13 43
279 506 141 204 12 43
286 498 139 169 13 42
326 338 292 127 93 69
265 478 308 49 25 28
413 523 294 74 28 37
285 502 140 187 14 43
291 948 359 61 52 47
351 424 199 139 26 29
282 505 142 199 11 41
387 588 278 155 18 42
300 810 311 166 124 101
424 462 365 177 19 50
285 511 146 190 11 42
424 462 378 179 15 57
322 463 158 48 38 40
286 513 148 189 12 40
294 458 131 97 30 40
297 458 133 57 34 40
294 462 131 82 36 42
312 844 296 107 83 66
327 584 208 191 9 44
306 433 285 104 78 60
293 464 132 122 27 40
330 663 327 127 23 46
296 463 134 107 26 41
250 688 238 53 35 38
214 625 222 84 55 35
298 450 132 62 33 37
300 453 135 118 24 39
214 638 201 129 94 65
283 404 301 118 85 65
303 837 212 81 64 56
336 498 334 67 22 31
303 450 137 163 3 40
241 527 174 190 12 48
281 448 300 29 24 24
217 903 300 165 121 96
302 454 138 153 10 39
291 672 236 80 31 36
372 438 207 113 25 34
301 463 139 136 12 36
303 464 142 142 11 38
292 468 133 159 10 40
311 798 204 73 58 52
197 653 229 154 116 94
292 473 134 156 3 38
207 563 289 83 21 35
421 453 322 95 16 36
239 902 272 169 114 89
438 644 296 182 122 99
282 273 269 99 81 60
295 468 135 144 13 37
294 472 136 158 11 39
313 676 237 41 35 38
291 478 134 152 1 33
409 481 276 150 16 42
349 258 267 127 98 63
371 543 214 72 35 40
297 468 138 123 23 36
298 464 137 130 13 35
299 472 141 67 33 38
211 718 253 101 70 56
304 328 269 81 67 52
302 468 143 109 26 37
179 550 185 115 83 62
441 628 303 181 125 98
187 778 234 160 109 74
301 473 143 69 33 37
206 558 249 59 28 35
419 430 337 50 21 27
298 480 142 86 34 38
257 798 302 64 53 49
308 449 142 172 7 40
319 842 230 67 58 59
304 461 141 157 4 39
309 453 145 165 6 38
336 598 219 66 36 40
479 551 321 212 142 112
326 293 280 108 85 61
345 468 318 41 24 26
312 453 148 151 4 34
309 456 146 149 5 33
311 458 149 139 6 34
280 764 321 69 57 51
304 911 266 71 63 65
310 937 349 64 58 56
396 418 239 132 40 35
311 463 149 114 18 33
427 673 279 195 134 105
266 905 364 38 36 36
240 594 222 49 32 37
411 888 379 65 52 43
286 608 338 33 28 32
315 453 151 148 3 34
316 458 153 140 7 32
313 463 152 138 9 31
430 468 309 59 24 31
319 463 156 75 32 34
221 783 215 168 113 80
189 768 233 151 106 69
251 728 336 197 7 64
359 472 310 26 23 27
421 907 349 81 70 63
304 473 146 112 27 38
310 468 150 101 29 36
341 423 304 88 71 54
304 478 146 101 28 35
216 788 218 178 120 87
296 648 237 126 8 31
306 478 148 111 27 38
313 463 348 71 22 31
310 478 151 83 32 38
361 438 306 28 24 24
312 473 152 83 36 38
312 478 153 63 37 40
303 813 211 64 54 51
319 467 156 82 37 46
321 468 159 61 37 40
331 403 298 130 95 72
318 470 157 76 36 34
290 313 265 132 98 79
396 753 245 76 54 45
328 495 167 87 31 39
289 300 270 96 80 64
271 768 318 66 55 50
318 473 157 119 34 44
315 478 155 79 36 41
303 398 278 80 57 43
317 478 157 85 32 37
289 393 264 96 71 53
354 473 196 124 6 30
290 483 135 150 5 34
280 819 223 64 51 45
292 483 138 132 13 34
206 913 324 173 139 121
430 643 270 146 104 68
295 483 140 116 20 37
280 518 315 35 25 29
287 614 336 48 27 31
295 487 141 146 6 37
288 490 137 165 4 34
335 902 289 67 60 61
276 563 318 84 22 34
206 683 208 144 97 61
291 493 139 134 17 40
321 874 253 66 58 58
208 904 315 121 101 83
294 492 141 116 14 41
296 493 144 109 27 38
301 488 145 145 8 34
301 618 225 137 20 40
303 488 147 140 15 37
361 921 339 62 54 49
290 497 140 135 25 41
291 503 144 122 25 43
303 328 259 81 70 59
280 343 313 133 91 67
219 698 274 84 29 39
290 507 146 191 10 42
166 568 203 135 102 81
292 509 147 189 10 41
291 513 149 188 9 38
297 503 148 113 20 37
236 618 240 49 33 37
326 508 348 89 29 39
326 633 333 151 33 55
356 704 219 76 53 41
296 508 149 172 10 42
301 498 148 151 11 36
300 507 151 116 20 35
298 510 152 139 18 46
351 423 204 146 42 32
297 514 152 165 8 39
261 970 293 87 84 89
343 434 167 44 39 40
306 483 149 94 30 38
246 583 315 63 29 33
278 846 236 69 54 49
416 421 224 185 19 14
306 488 149 84 30 38
311 488 154 51 39 42
246 628 313 65 29 34
311 493 154 46 39 42
366 748 309 102 30 42
406 498 249 58 34 36
317 488 158 91 29 37
331 925 354 66 60 57
226 858 333 145 52 76
251 949 272 82 75 77
353 468 193 128 1 33
317 483 158 141 19 40
388 659 274 98 69 54
256 973 299 82 77 79
390 513 335 110 20 39
305 498 150 140 17 40
420 613 300 141 101 88
310 436 318 51 36 30
311 498 155 55 38 39
246 703 239 88 18 27
371 788 313 167 125 94
308 498 152 109 28 41
309 507 156 85 41 46
312 508 158 47 38 41
434 443 301 138 17 38
247 957 280 74 69 72
316 503 160 58 39 43
229 713 220 117 85 56
465 827 381 122 96 71
297 498 323 60 26 32
252 536 176 178 7 40
391 913 319 87 73 65
344 723 223 67 40 34
320 493 161 72 39 41
314 814 202 91 74 63
320 498 161 88 42 43
285 418 298 70 53 34
349 467 312 25 22 22
315 789 204 67 53 49
319 502 161 46 35 45
321 503 163 47 38 43
363 614 330 42 29 31
317 513 163 45 37 41
326 424 159 110 46 38
322 433 152 143 9 31
326 428 155 141 24 33
420 629 301 163 118 100
346 843 249 66 55 55
328 426 157 122 34 37
331 424 160 104 40 39
501 509 319 106 89 74
329 428 156 131 30 45
236 947 274 75 68 68
329 432 156 87 29 30
331 433 158 52 38 43
206 763 214 165 112 80
335 433 160 56 40 45
386 898 379 65 56 52
322 438 153 144 14 35
323 449 157 154 4 38
217 904 348 139 113 91
343 682 247 99 26 30
328 439 157 38 37 41
327 443 158 132 15 42
331 438 159 55 34 40
463 885 335 82 69 60
159 570 196 169 117 95
334 916 316 81 71 69
404 911 337 96 80 67
405 733 293 179 121 93
276 947 364 67 60 56
326 422 164 101 51 40
326 421 174 92 68 52
226 938 365 50 47 48
331 421 169 91 54 42
289 344 302 114 79 54
336 421 169 83 48 43
331 421 174 91 63 49
336 421 174 88 57 47
382 888 333 64 58 55
393 507 358 128 28 49
461 833 382 114 89 61
334 425 161 98 36 37
367 598 238 122 21 41
301 673 235 49 35 36
382 469 337 73 24 30
326 421 179 92 74 58
422 605 285 104 73 46
326 420 185 91 75 59
327 421 183 93 75 58
335 538 337 88 26 36
331 421 184 93 73 57
197 693 242 140 106 83
336 421 179 90 62 50
311 658 331 64 30 36
286 693 224 95 31 29
329 420 186 92 74 58
336 443 164 132 14 34
332 421 188 94 72 56
336 422 189 97 64 52
233 663 260 128 25 44
333 418 302 114 87 65
334 437 161 72 32 38
336 438 163 117 23 37
205 528 285 88 20 36
332 448 162 147 1 32
346 353 285 117 91 59
338 312 286 114 87 57
336 448 165 135 9 34
340 424 166 90 41 43
346 837 298 40 34 33
495 542 339 212 144 124
337 420 175 88 58 48
341 422 174 81 50 47
337 428 162 122 36 42
340 428 165 77 40 39
346 558 200 164 9 40
345 424 174 72 45 46
168 597 191 174 116 87
341 263 272 126 98 66
348 428 174 74 36 38
350 643 314 176 5 55
314 672 332 173 14 54
197 588 194 114 83 57
202 669 237 136 106 85
217 628 279 107 27 40
345 433 170 53 38 42
349 429 176 67 41 38
296 793 317 63 54 50
337 420 177 89 58 48
304 398 280 81 57 43
213 918 348 165 125 106
341 421 179 88 52 46
381 818 259 85 63 54
341 421 184 99 50 45
454 907 311 91 79 69
310 332 280 71 57 43
341 422 189 107 51 45
215 758 295 174 136 111
369 532 336 74 25 32
431 448 320 135 19 47
346 424 179 86 42 41
267 267 301 118 94 66
271 889 233 84 71 70
420 448 354 98 17 34
325 463 161 56 33 38
346 423 184 110 37 34
442 838 408 77 61 45
302 403 264 78 57 42
331 688 240 56 39 40
309 906 269 67 60 62
346 422 189 121 31 35
350 424 189 124 16 31
364 743 312 65 31 37
349 428 179 87 32 35
349 425 185 122 21 26
261 961 352 78 73 72
