ply
format ascii 1.0
comment Created by Open3D
element vertex 2235
property double x
property double y
property double z
property uchar red
property uchar green
property uchar blue
end_header
351 342 284 111 79 60
344 137 227 108 80 57
414 626 352 174 122 86
401 42 254 131 87 75
203 506 177 66 25 32
308 24 216 133 41 39
382 97 219 111 67 52
323 732 309 108 20 40
421 407 249 65 48 39
206 528 144 231 156 143
313 57 234 125 91 67
412 718 194 63 48 39
386 887 349 62 52 46
201 513 178 83 11 30
327 287 234 101 78 55
241 482 133 43 38 39
409 276 246 144 102 67
380 46 218 74 40 27
327 507 288 133 0 41
366 391 219 96 79 64
206 507 178 59 24 29
351 72 234 98 23 39
366 727 199 93 29 33
395 387 313 125 98 66
372 868 354 47 41 37
256 502 134 54 36 36
355 688 201 81 32 34
399 546 196 59 33 36
204 508 176 79 17 27
416 701 294 73 15 30
421 438 314 69 53 41
386 92 204 138 10 43
215 553 162 176 116 88
270 492 256 114 21 42
289 672 218 90 26 40
306 342 278 128 92 68
401 362 248 93 81 69
210 482 186 79 25 35
228 606 183 164 116 90
215 486 190 35 29 30
316 642 200 146 4 35
381 10 284 143 51 73
308 781 263 74 59 53
209 494 186 45 22 26
332 647 307 32 28 31
310 723 296 65 24 33
212 496 188 102 25 41
245 497 215 87 21 37
340 492 295 123 1 34
385 828 295 45 38 37
216 497 189 92 22 39
441 502 229 111 19 32
304 157 229 109 91 73
354 106 227 97 22 35
394 697 320 124 67 63
271 327 269 122 88 63
377 72 252 109 29 44
209 502 181 40 22 24
464 446 261 84 31 37
368 207 240 117 93 64
306 822 180 190 130 102
429 820 246 67 52 47
236 452 139 72 37 36
316 587 303 152 7 46
396 448 383 67 37 33
302 208 252 112 91 69
253 466 238 97 15 35
289 406 281 115 84 63
376 767 200 56 46 43
349 392 290 112 78 61
208 500 182 53 28 32
311 411 159 100 80 64
217 502 188 122 17 43
279 276 255 112 90 65
306 641 201 138 15 37
331 332 249 77 64 50
321 337 269 104 76 55
246 512 134 61 35 39
326 677 304 77 23 34
288 955 294 69 65 67
212 507 183 80 20 33
372 938 314 61 56 55
253 500 227 155 0 49
373 183 236 117 91 61
350 98 197 143 23 39
327 297 243 87 70 52
210 512 180 68 15 28
370 42 234 69 45 40
474 442 314 107 27 38
292 237 220 120 96 69
351 842 283 131 103 80
212 512 183 114 9 39
311 227 257 122 98 72
226 512 194 68 21 30
276 332 279 126 90 70
296 303 222 90 75 61
282 356 282 142 100 81
327 871 316 108 88 67
401 478 384 137 5 43
216 507 185 92 15 32
216 512 185 111 8 37
322 940 231 80 72 73
219 498 191 91 24 38
354 486 306 129 2 38
420 627 348 171 121 89
218 506 187 98 22 40
360 322 248 95 77 60
391 614 326 41 28 28
226 522 154 59 28 38
284 241 233 112 92 69
218 512 187 114 8 40
226 457 134 89 31 35
264 603 171 112 69 53
246 492 132 82 31 36
418 510 402 189 131 114
398 507 378 148 110 100
345 442 315 107 22 42
344 136 211 136 103 66
283 248 230 114 92 66
227 450 137 52 38 35
394 104 197 148 18 44
410 172 234 119 96 70
316 142 240 116 93 68
303 912 347 48 42 41
386 237 229 128 96 57
396 717 208 61 46 42
420 522 340 124 5 31
309 146 235 108 89 69
391 367 243 86 76 66
399 55 252 100 65 52
418 588 301 110 20 42
232 451 137 53 39 38
277 362 278 140 102 78
379 147 249 105 84 61
330 342 239 75 64 53
376 217 233 121 91 55
311 411 144 124 72 55
421 861 323 52 45 39
476 817 270 91 73 62
226 462 134 117 16 29
231 462 135 110 19 31
442 498 330 174 12 54
396 113 209 130 85 67
211 557 179 165 115 94
437 812 319 147 95 71
326 157 208 120 97 71
310 226 207 127 97 62
234 454 136 47 39 36
331 142 239 115 91 64
292 869 279 109 89 69
285 262 223 122 95 63
376 82 249 109 56 55
273 377 230 110 90 67
239 449 141 48 41 46
270 742 173 150 99 67
421 867 259 65 54 52
396 277 289 122 94 60
296 835 194 204 130 96
374 429 357 64 48 34
372 222 268 112 91 69
314 419 301 151 9 44
412 853 287 40 37 35
234 462 136 95 22 30
236 462 137 102 20 29
325 897 356 50 44 43
431 433 324 65 52 43
351 512 308 73 24 32
241 462 138 99 18 31
343 554 172 176 2 39
410 387 294 117 93 64
225 468 131 106 15 25
397 382 238 91 79 67
226 466 133 108 16 22
343 875 306 59 50 41
363 903 222 69 61 61
311 312 223 77 67 58
298 914 336 44 39 39
445 450 388 138 27 45
231 467 134 107 18 22
414 199 247 118 94 66
230 472 131 105 19 27
381 942 274 59 52 50
232 471 132 105 14 28
245 532 210 49 28 30
331 107 240 121 96 71
243 527 208 39 27 30
386 177 225 127 96 56
412 888 269 62 52 51
231 477 130 115 14 25
446 444 378 59 26 23
236 467 135 107 19 21
317 970 302 61 57 57
242 466 223 119 26 43
265 367 254 123 95 64
282 942 264 68 64 65
241 472 135 99 21 27
344 729 331 177 14 56
491 830 300 99 76 55
286 232 229 112 93 72
261 707 179 161 106 73
237 466 137 112 18 23
249 487 225 141 1 40
404 642 255 131 29 45
276 632 194 73 48 36
313 50 247 128 102 79
369 57 244 102 16 37
241 467 139 110 18 21
272 621 249 80 29 40
324 357 267 84 63 45
421 406 224 120 65 52
272 387 229 108 88 66
416 833 299 53 36 32
239 468 136 109 19 20
279 425 147 134 0 25
361 577 189 184 7 41
294 597 285 39 29 31
279 911 299 169 129 104
235 478 131 116 12 26
287 702 214 96 24 39
281 521 141 162 4 35
298 524 147 112 38 38
372 66 198 104 32 25
296 357 219 92 82 72
246 452 142 91 25 28
343 718 332 150 14 48
391 57 191 117 29 20
301 941 234 86 77 76
260 532 229 152 0 45
246 457 140 102 23 26
405 112 239 119 96 70
436 448 384 67 11 25
281 422 154 127 56 46
334 256 226 126 92 65
247 455 142 101 20 22
232 562 213 159 1 50
240 523 154 95 27 40
374 51 222 67 42 35
365 606 206 109 24 36
306 872 310 113 89 67
251 452 144 112 15 28
341 572 314 70 19 30
408 500 402 181 130 112
410 571 220 180 14 42
339 173 238 105 83 59
425 722 264 58 27 31
252 456 142 113 7 29
251 462 140 111 13 27
423 758 197 80 59 47
273 304 272 114 89 63
326 472 149 81 28 36
412 517 198 143 8 37
253 460 142 113 0 33
256 452 144 114 11 27
266 597 214 95 18 38
391 882 288 36 35 36
409 77 228 103 28 38
303 752 167 129 99 64
236 558 198 159 0 52
408 38 251 123 16 43
242 470 138 118 15 16
245 473 136 105 20 25
379 935 256 81 69 68
371 727 203 81 30 34
251 467 139 111 14 26
355 382 253 109 84 69
401 202 226 128 99 62
251 472 138 109 15 25
346 947 240 92 85 87
278 340 282 141 100 78
243 487 217 64 16 26
381 404 209 88 75 61
402 31 233 104 90 76
255 468 141 110 14 26
401 637 249 79 30 36
442 442 229 161 15 41
256 472 140 111 15 27
346 407 159 88 70 57
365 467 150 77 32 35
321 897 354 48 43 41
381 67 255 113 28 47
443 817 257 84 62 56
293 17 229 139 97 94
386 797 315 45 38 36
287 278 267 100 82 62
374 950 288 55 48 46
288 770 247 83 67 59
249 479 136 107 13 25
373 414 322 96 76 54
226 487 128 136 6 29
400 582 350 163 116 94
266 418 184 92 62 49
231 487 128 100 22 29
342 182 234 108 84 59
374 85 200 130 10 37
296 322 279 118 85 60
394 536 191 91 14 26
250 532 215 121 5 40
195 522 180 153 57 72
226 492 130 157 6 32
226 497 134 192 11 42
403 227 276 120 96 70
337 437 309 37 28 30
243 497 213 97 20 36
398 268 286 127 94 63
231 492 129 79 27 36
245 563 163 93 28 37
356 827 200 71 58 51
231 497 130 100 24 39
236 482 130 113 18 30
352 373 229 121 92 83
328 498 287 134 0 39
337 88 201 105 45 37
351 922 335 51 47 47
375 423 334 71 56 40
401 708 204 65 48 43
236 487 130 83 27 33
296 11 244 168 117 117
306 467 145 46 37 38
377 192 264 108 87 64
331 187 209 134 101 62
466 419 299 57 35 31
276 462 142 46 37 40
387 732 326 139 14 43
352 387 224 126 98 87
447 498 269 190 13 55
370 57 239 79 56 46
232 506 140 199 15 41
326 167 208 123 98 67
294 939 331 64 59 59
351 417 134 99 22 33
319 62 218 128 35 43
373 92 229 101 26 40
239 483 131 53 35 33
339 92 242 108 86 64
404 639 346 177 129 104
238 480 132 94 24 29
402 512 384 190 135 119
311 322 225 81 71 61
401 262 235 143 102 66
450 417 234 146 15 40
236 492 130 61 37 40
396 607 229 48 35 36
236 497 130 50 36 40
309 43 229 133 93 70
305 453 281 40 28 31
385 532 185 138 5 34
398 593 222 103 22 39
244 464 226 90 20 28
417 878 336 49 41 37
301 227 214 120 96 69
341 887 359 54 48 46
255 627 197 132 100 82
260 487 244 151 7 46
241 492 131 68 36 38
230 498 133 164 5 38
337 772 299 78 61 54
296 772 164 159 109 76
469 414 276 71 0 25
381 752 205 67 39 41
327 127 211 126 100 71
316 127 219 109 91 72
383 85 201 141 6 38
414 252 267 121 94 60
225 499 137 203 13 46
390 253 232 131 99 61
410 52 229 109 49 45
338 655 202 126 6 26
469 441 353 187 15 60
429 492 216 130 10 37
368 49 211 109 47 31
275 562 249 75 24 32
355 763 186 63 52 49
226 504 142 189 7 46
311 457 283 145 3 44
230 503 139 197 12 39
292 712 282 144 5 46
340 38 214 92 79 66
321 917 348 65 60 59
391 197 273 114 94 72
439 508 226 34 36 41
226 507 144 176 4 40
376 832 200 78 61 51
401 848 275 31 28 28
366 272 279 110 89 66
356 87 194 146 4 38
407 77 234 106 85 66
368 52 244 103 12 35
486 849 329 73 57 45
316 112 229 117 96 75
235 503 133 160 6 38
309 33 218 135 102 82
241 502 131 54 30 36
238 510 136 186 5 33
382 117 249 113 91 67
361 409 169 63 42 39
399 88 247 97 69 49
252 480 137 112 17 27
441 492 384 159 111 94
307 37 244 144 20 50
241 512 135 112 21 40
379 526 176 142 2 31
361 422 344 75 53 37
356 932 234 74 67 69
351 972 294 61 56 54
432 462 379 144 17 44
418 701 279 73 22 33
407 97 239 109 25 42
361 277 269 104 82 59
226 513 154 105 21 40
425 652 329 130 90 56
326 482 149 109 15 28
446 847 298 52 44 38
378 78 213 115 43 47
235 508 138 206 16 45
306 12 264 113 58 51
443 527 279 150 13 40
296 925 342 58 52 51
236 512 139 193 12 42
281 382 220 98 83 69
418 454 387 83 10 22
320 23 212 123 44 34
338 775 298 77 62 55
233 510 141 207 16 40
323 312 234 80 67 53
273 302 264 109 86 60
526 835 311 105 85 63
411 839 290 29 26 25
224 509 148 114 7 35
227 510 146 118 14 40
330 312 254 86 71 54
339 586 320 134 11 45
386 527 359 135 11 43
412 527 324 59 25 34
242 487 132 46 39 39
223 495 197 60 25 34
286 552 154 74 31 37
238 490 212 38 29 29
287 821 180 193 131 102
361 17 274 112 39 49
246 487 133 64 35 36
461 807 272 52 41 36
242 490 132 60 34 36
316 847 298 143 114 89
338 52 246 105 22 41
440 777 328 169 117 87
374 396 232 92 78 63
420 713 246 75 68 64
389 926 289 60 53 52
241 492 214 72 22 34
331 952 324 70 66 66
246 497 131 76 33 34
297 269 267 118 94 68
441 409 219 130 32 39
326 842 229 189 137 109
401 33 230 103 90 76
496 823 313 85 68 52
334 251 225 127 93 64
251 482 135 110 19 23
301 257 211 134 100 63
361 72 226 75 21 29
262 722 180 163 107 76
256 492 135 76 32 34
278 292 236 115 92 65
329 511 291 131 0 39
414 212 254 118 95 68
444 718 241 67 54 45
246 502 131 62 35 36
366 64 196 96 38 22
237 642 174 162 110 77
283 645 247 146 3 50
246 508 132 77 34 35
300 937 232 84 73 71
426 508 325 141 21 47
250 502 131 61 38 39
289 212 239 111 92 72
390 122 218 119 84 53
347 884 357 46 41 39
375 97 244 111 21 43
252 502 132 51 37 39
262 462 254 81 22 34
291 212 244 112 92 72
426 507 349 170 12 51
436 408 214 156 36 37
376 426 321 79 61 41
317 87 229 102 85 64
410 896 279 71 61 58
250 506 131 63 35 31
437 742 330 168 112 80
296 317 278 123 85 63
317 77 229 130 19 43
326 429 137 147 0 27
445 497 319 160 13 43
432 853 325 46 38 36
251 507 133 48 36 42
251 512 134 53 36 38
443 508 264 162 11 45
355 472 310 59 24 30
367 42 258 110 48 53
221 452 194 132 1 40
310 177 213 119 97 73
180 522 170 173 122 106
218 453 192 133 0 40
294 425 160 121 65 50
338 217 246 106 83 59
275 292 264 111 88 61
220 457 195 122 3 37
217 462 193 51 22 27
339 240 242 111 85 61
282 777 234 138 104 85
343 182 229 111 85 57
369 950 256 85 76 76
394 477 360 149 6 44
275 633 197 69 47 24
351 627 205 84 26 37
321 171 246 114 93 70
263 378 249 123 96 64
328 293 248 88 71 52
426 442 369 62 26 25
217 467 193 63 26 31
240 502 209 91 24 38
318 37 211 115 63 48
346 72 239 109 80 66
274 548 246 93 18 33
422 878 269 76 64 62
373 197 259 109 88 65
219 467 196 87 24 34
220 472 195 59 27 32
316 147 240 114 92 68
222 467 198 128 12 44
315 67 229 122 75 61
222 471 198 55 22 29
399 815 201 84 63 52
218 476 192 59 22 30
411 82 224 103 42 44
340 975 261 84 81 86
325 857 244 148 110 81
471 857 305 94 75 61
439 472 362 97 14 34
356 100 196 142 19 39
386 18 240 83 72 61
358 532 344 45 24 28
221 477 194 62 25 31
344 170 223 113 86 55
446 737 274 40 32 28
368 574 192 183 8 40
423 844 252 51 42 44
408 493 192 47 35 42
393 672 317 119 79 69
346 137 219 118 86 58
331 352 239 77 65 54
262 482 248 63 24 32
290 802 230 109 84 71
217 487 193 34 29 31
377 39 226 67 42 33
221 482 194 50 29 32
468 444 350 179 22 58
396 102 249 119 97 72
327 442 298 34 26 29
387 147 225 120 90 52
363 410 163 54 40 39
218 484 192 33 26 32
220 487 195 37 28 31
304 186 246 110 90 70
407 377 294 118 93 63
223 484 197 82 28 38
223 487 197 45 24 29
396 247 285 122 96 65
217 495 192 34 26 29
371 497 160 94 29 35
454 759 286 67 52 36
351 51 208 96 83 71
401 182 224 135 103 62
381 434 363 89 21 31
420 497 200 148 6 33
233 475 207 147 0 40
489 806 255 101 78 67
271 337 249 114 91 65
371 52 229 66 29 28
221 497 194 49 25 29
266 442 146 122 10 27
307 37 224 140 28 46
336 67 204 127 35 42
449 786 250 51 43 39
376 52 208 81 39 29
224 467 201 157 0 49
222 501 192 99 20 40
301 447 280 67 29 33
371 48 210 119 27 18
343 564 312 68 21 33
223 510 192 63 21 27
412 192 234 121 96 65
321 42 255 119 59 58
291 587 279 142 1 43
291 282 270 109 88 65
404 139 252 113 92 68
443 767 326 169 119 89
328 494 287 131 0 34
355 317 279 102 75 52
225 452 200 127 1 38
412 202 254 117 94 68
391 454 392 67 33 27
265 377 244 116 92 64
409 32 249 111 26 40
269 603 214 78 25 35
356 918 335 48 44 43
477 427 289 125 18 41
227 457 203 128 2 38
349 49 210 95 81 66
310 152 218 113 94 72
341 901 357 72 64 60
375 635 317 174 14 54
446 492 304 40 31 32
410 82 229 103 23 38
278 923 280 128 100 83
229 457 206 123 10 38
227 462 204 140 0 43
421 858 297 36 34 33
351 102 230 99 39 43
229 462 206 145 1 43
333 876 316 79 65 52
231 462 209 127 8 39
234 450 211 59 33 26
411 403 229 97 81 65
331 462 146 103 27 36
235 452 214 50 27 31
233 454 212 54 24 33
340 399 191 98 84 69
288 228 248 113 93 72
235 457 215 92 24 35
420 896 309 69 56 51
425 632 334 155 106 72
239 457 221 82 22 35
319 657 296 32 30 32
353 341 256 134 98 81
343 904 212 77 68 68
296 512 264 143 0 44
331 27 214 100 85 71
446 842 294 38 32 28
339 389 239 72 59 46
305 605 181 57 34 35
235 462 215 113 18 41
286 312 228 96 81 66
237 462 218 98 18 38
289 683 185 109 85 58
422 432 303 69 50 40
261 414 209 90 55 50
447 741 298 108 85 60
227 467 203 160 0 49
284 241 245 115 93 70
321 642 299 116 23 44
387 532 188 145 2 33
310 187 212 118 97 72
232 467 209 155 3 49
291 417 154 116 66 50
301 457 278 144 5 46
361 82 223 70 19 28
427 859 320 53 45 39
382 43 219 78 51 38
231 472 205 159 1 50
231 477 204 101 13 36
201 542 169 203 132 108
320 67 218 114 61 52
306 762 274 77 62 55
382 848 276 71 52 42
426 732 204 77 57 46
376 502 354 48 22 25
286 417 280 109 18 39
387 82 189 145 15 41
376 77 250 109 20 40
248 457 233 126 15 42
358 288 268 103 80 59
229 478 201 92 25 37
234 478 206 129 11 41
412 382 279 115 91 63
258 435 147 130 8 20
346 408 154 91 69 58
311 132 229 111 92 72
409 63 200 98 46 34
466 423 314 68 56 47
234 468 211 163 2 51
400 736 198 58 45 41
299 23 222 145 20 42
359 454 326 159 0 53
233 466 212 128 14 44
369 96 204 123 33 43
397 874 320 39 34 35
360 955 250 73 66 67
236 467 214 128 16 43
435 425 301 68 44 38
372 442 164 114 9 33
424 582 348 168 118 86
383 96 216 120 50 50
237 472 213 156 3 48
386 207 276 113 92 71
316 757 283 75 61 55
311 417 299 159 6 50
370 82 196 138 17 37
319 112 218 116 96 73
250 667 191 163 126 104
240 467 219 93 18 36
456 851 289 80 63 56
238 477 212 152 0 44
419 546 362 174 122 92
321 242 258 122 97 70
381 847 277 86 64 50
342 72 200 130 38 38
360 17 264 105 34 45
413 196 246 117 94 68
336 429 137 153 0 34
444 480 303 178 13 49
311 298 222 88 74 58
403 829 219 59 50 48
242 452 224 35 28 30
321 127 214 122 99 73
241 457 224 62 27 30
359 362 252 120 92 74
406 132 239 115 93 68
325 272 258 104 81 59
242 462 224 74 25 33
470 422 269 101 26 37
365 409 174 65 42 35
294 477 141 42 36 40
368 242 268 110 89 66
428 577 254 71 31 36
438 449 387 59 12 24
412 417 299 97 78 57
331 8 239 72 62 57
242 472 219 155 9 50
446 512 294 51 31 32
245 467 225 106 20 38
316 107 229 116 96 74
409 302 264 118 91 62
380 532 180 81 26 35
429 525 312 131 28 37
246 472 224 156 3 48
425 612 330 160 115 81
244 451 226 34 30 29
287 746 273 155 14 54
380 237 281 114 93 71
461 752 258 90 65 50
448 787 249 53 44 42
368 98 204 115 62 52
316 972 263 91 88 92
246 452 229 63 25 30
432 888 313 84 71 66
407 102 204 129 28 41
351 912 344 53 49 48
355 413 135 148 18 33
245 457 229 95 18 34
406 642 264 140 24 46
376 322 244 87 75 64
248 452 233 103 15 37
243 461 227 135 20 51
356 408 154 84 45 39
246 462 229 136 15 46
248 461 232 124 11 38
347 57 235 64 43 36
399 48 200 115 96 79
321 292 265 104 82 59
298 256 211 131 99 62
351 410 137 108 48 45
248 448 232 72 16 27
323 835 237 185 137 111
250 452 235 110 19 36
252 452 239 76 20 31
307 737 179 105 83 59
355 62 229 71 23 29
321 272 218 132 96 65
369 754 326 167 19 52
389 51 197 107 60 44
473 447 309 95 24 37
354 764 316 79 63 60
316 42 214 135 47 50
466 442 264 69 33 38
307 908 334 37 33 34
346 427 135 153 6 36
345 92 237 96 30 37
259 529 142 158 12 36
409 87 200 145 25 50
283 671 201 87 69 55
378 227 277 110 90 67
250 457 235 122 18 42
287 337 225 96 82 66
252 457 239 105 15 36
282 597 264 159 0 48
401 232 228 132 100 59
262 392 249 123 94 64
409 628 306 59 41 33
303 177 221 115 95 74
266 717 174 149 100 62
250 462 235 123 15 42
441 844 355 73 59 46
409 177 231 118 95 66
254 452 241 111 7 37
296 257 214 127 98 62
325 782 280 75 60 54
381 432 324 74 57 39
271 747 209 157 110 86
341 182 219 122 93 58
381 597 210 156 16 43
306 512 145 48 32 35
271 432 147 135 0 32
371 522 355 112 14 39
317 47 253 113 23 41
256 452 244 132 8 41
450 466 319 141 15 46
293 252 216 123 96 64
382 927 304 50 43 40
349 375 271 86 68 49
254 462 241 154 1 47
381 10 264 97 55 62
332 272 244 100 78 55
386 329 247 89 77 64
370 202 249 106 85 62
315 132 219 109 91 71
293 899 317 73 65 60
248 471 228 152 7 45
345 106 232 117 78 65
480 817 279 89 71 58
251 467 234 89 26 39
453 844 282 88 67 58
414 222 259 116 93 67
335 227 248 109 86 60
240 497 210 88 23 37
307 697 293 51 26 32
419 614 321 125 97 67
253 470 237 104 3 33
321 452 290 114 13 39
341 722 330 166 14 53
254 473 236 130 9 46
404 39 226 88 78 67
371 92 214 89 18 31
249 477 226 155 0 48
301 452 279 44 26 30
182 517 173 144 109 94
319 82 241 108 70 58
283 244 247 115 93 69
255 477 235 146 8 43
326 175 246 117 95 71
257 477 239 156 1 47
376 47 219 74 43 30
363 476 317 137 5 44
224 480 196 68 20 26
311 137 234 110 90 70
419 501 201 147 4 34
391 286 241 135 102 69
434 455 211 88 30 41
226 487 200 53 26 32
396 87 249 111 90 69
296 917 334 44 39 41
228 487 202 56 23 28
291 17 234 149 94 96
457 452 253 134 11 35
415 207 244 121 97 70
229 481 201 57 24 31
339 881 196 84 69 64
444 479 333 109 10 41
485 762 264 68 50 45
231 487 204 79 23 33
459 481 264 48 31 34
375 82 200 121 12 36
352 772 188 67 56 50
375 642 221 123 9 30
392 391 316 132 102 71
416 442 187 108 21 32
361 302 249 96 78 59
367 864 198 90 74 65
225 498 195 92 28 38
403 170 261 118 95 70
227 496 198 133 15 45
274 707 254 121 12 40
316 12 219 99 71 58
283 656 231 51 34 38
228 490 202 133 20 51
298 821 227 51 42 42
406 552 204 134 19 40
396 132 217 139 101 64
230 497 200 138 10 45
232 496 202 111 14 41
295 207 224 112 92 70
379 500 349 84 0 28
321 12 259 102 39 44
413 187 239 122 98 72
288 830 186 218 143 114
234 481 206 125 17 44
414 197 240 123 99 71
326 227 255 124 99 70
308 800 252 72 56 51
236 482 209 126 9 39
370 82 225 97 30 41
236 487 209 75 26 33
281 413 184 104 88 70
379 424 181 102 20 30
514 839 318 83 66 48
330 217 252 119 96 70
346 547 308 79 21 33
302 31 234 123 70 61
234 493 206 72 20 34
343 212 234 108 85 58
383 487 182 129 2 32
340 227 243 104 81 60
318 568 172 57 34 32
355 926 230 71 65 66
331 428 310 128 14 43
363 27 255 96 36 41
470 424 317 69 60 49
403 302 285 130 98 68
236 497 205 128 17 44
316 907 353 63 57 55
240 482 214 138 4 41
266 413 209 97 71 61
381 142 229 120 91 58
279 634 193 74 41 35
406 57 239 117 59 59
447 762 244 78 58 53
390 801 192 60 49 43
344 429 321 84 15 28
381 19 241 79 69 59
304 201 251 112 91 68
258 702 180 169 112 82
277 297 239 117 93 65
426 841 359 70 54 41
238 487 212 57 22 29
306 616 186 74 34 32
317 336 228 84 73 62
226 502 195 111 14 39
371 231 236 119 90 55
231 502 199 111 18 40
361 111 209 118 36 48
276 487 140 121 6 25
400 372 245 88 78 68
226 507 194 84 26 37
231 507 199 91 23 39
374 526 352 85 5 34
338 243 233 119 89 61
391 237 229 130 98 59
281 702 210 81 54 45
451 448 379 93 24 34
320 322 230 78 67 56
311 838 199 147 91 73
229 508 196 103 35 52
343 662 312 79 27 36
229 513 196 123 7 42
328 316 242 82 68 53
299 419 286 159 0 45
232 512 198 110 15 40
238 502 207 58 23 32
404 49 210 90 83 76
283 679 252 40 34 27
304 34 234 128 55 58
407 872 294 34 31 31
416 767 336 171 124 93
371 777 318 66 57 52
347 419 333 92 30 30
334 232 215 131 98 63
236 507 204 69 27 35
366 17 244 76 43 35
303 687 287 34 27 30
239 513 206 84 16 32
332 232 213 132 99 63
379 263 237 119 90 56
367 904 346 57 52 50
247 482 224 145 0 43
312 352 276 126 90 69
284 247 228 115 93 67
290 242 255 113 91 68
395 842 215 64 52 49
245 487 220 91 10 34
306 801 171 166 114 78
298 863 284 104 59 61
278 392 220 94 81 68
243 490 217 64 20 30
290 22 239 130 85 66
392 487 359 38 25 29
248 492 222 164 1 49
257 607 167 132 100 66
291 677 214 88 31 39
441 772 329 169 116 88
431 416 274 67 41 37
255 502 229 157 0 48
332 652 307 35 28 30
336 882 199 90 75 72
250 492 225 164 1 50
471 846 307 94 72 54
361 522 164 164 1 35
447 482 289 156 12 47
362 56 220 81 72 69
364 945 246 62 56 57
418 405 244 86 71 59
251 497 224 152 1 45
243 501 212 101 29 41
245 502 215 115 18 40
294 195 234 110 91 72
405 29 236 85 70 54
271 797 209 171 128 100
436 429 314 66 53 44
247 502 218 130 10 43
293 873 265 129 104 78
401 408 189 86 71 60
421 517 323 68 22 32
243 507 212 113 23 41
243 510 212 102 19 33
270 607 224 75 21 35
245 507 214 107 17 37
267 611 239 75 27 37
246 533 158 91 16 31
310 547 285 127 2 38
318 61 247 122 94 75
248 507 217 148 7 45
293 919 338 44 40 41
396 217 225 130 99 60
250 502 220 155 1 47
303 173 221 115 95 73
331 117 210 127 100 69
391 117 253 113 91 66
286 897 304 117 95 72
356 395 208 91 77 63
379 109 246 119 90 66
337 402 269 60 51 41
334 880 220 42 39 39
301 442 147 84 29 31
400 652 334 172 129 108
333 879 207 64 56 53
248 512 217 57 19 31
249 482 226 145 1 44
316 367 219 95 83 70
380 457 384 84 22 35
401 112 204 137 73 69
280 257 244 113 91 66
404 18 273 96 61 49
402 607 349 166 119 95
412 878 340 56 45 40
433 470 401 80 44 43
251 482 229 146 0 43
325 327 268 97 74 50
301 302 221 85 73 60
316 857 258 104 79 52
414 413 293 99 79 57
252 487 229 143 0 44
362 563 336 141 12 45
306 192 249 111 90 69
253 482 232 147 0 44
287 222 239 111 91 71
403 142 223 118 94 66
255 487 234 147 0 45
279 327 232 109 88 66
391 806 191 71 56 45
254 493 231 163 2 47
321 597 180 190 7 38
440 430 320 66 55 45
336 462 298 74 22 31
407 607 243 80 29 38
347 857 214 60 51 50
336 192 214 125 94 58
254 497 230 155 0 46
279 400 218 98 85 72
401 177 265 116 94 69
288 927 334 45 42 44
406 502 399 176 128 111
401 401 224 94 80 66
256 497 234 156 1 47
412 439 326 67 53 40
335 432 309 88 25 37
254 507 226 157 0 47
386 742 209 73 35 36
356 542 339 127 12 42
255 507 229 158 0 48
351 67 195 129 32 26
365 52 219 98 70 64
191 536 164 211 141 116
319 86 222 99 60 46
382 162 231 118 88 50
361 382 310 125 93 71
287 17 249 172 116 104
356 487 309 95 11 33
425 627 339 159 109 74
301 13 225 119 70 63
323 904 220 58 53 53
360 317 247 95 77 59
302 409 176 99 84 69
366 22 244 81 36 27
407 147 234 116 94 71
271 322 264 117 88 58
417 694 229 84 63 45
296 22 224 143 28 43
356 736 332 40 28 34
396 212 226 127 99 62
344 150 216 127 93 61
321 47 253 118 67 61
386 92 252 109 41 48
351 337 264 92 73 54
306 17 219 118 50 40
392 477 358 151 6 47
326 332 238 80 69 57
306 12 224 109 71 61
359 530 334 70 18 31
351 416 329 62 49 35
320 27 213 106 56 43
382 466 374 98 25 43
311 13 219 104 70 58
310 17 217 92 56 45
377 884 311 31 29 31
343 157 230 104 81 58
366 12 254 78 45 42
343 162 230 104 81 58
352 378 237 131 99 89
334 424 316 115 15 38
355 322 289 110 78 53
312 17 215 127 42 34
300 192 245 108 90 71
361 467 148 77 33 37
319 861 253 100 77 51
321 57 214 143 90 77
276 687 207 95 68 57
433 877 289 77 62 59
174 519 142 166 111 93
316 17 213 127 44 36
294 957 289 78 74 75
293 21 230 131 64 64
336 792 180 59 50 49
280 257 239 113 90 65
376 672 314 97 21 35
232 533 198 61 19 28
310 47 229 129 101 77
316 11 224 90 70 59
296 227 254 113 92 69
306 197 214 118 97 74
278 707 239 115 22 41
321 10 224 83 69 61
312 32 215 134 43 43
334 33 248 94 19 32
306 27 219 131 38 44
275 439 146 110 10 25
347 814 192 74 60 54
384 473 345 151 2 45
400 202 273 120 97 71
307 32 220 143 39 49
321 198 252 118 96 72
305 32 224 137 62 62
291 408 184 104 86 67
302 182 243 108 89 70
309 28 217 119 91 68
344 39 232 75 29 25
344 399 243 68 57 46
289 212 234 110 91 70
404 747 331 176 125 98
400 875 317 40 35 35
385 542 355 42 27 31
282 312 230 105 87 66
401 436 329 67 51 40
418 573 356 176 125 95
331 262 249 98 76 53
400 117 249 115 93 70
421 505 407 193 135 118
297 26 254 148 100 81
286 787 168 163 109 73
395 712 324 123 65 59
400 482 399 65 17 29
366 377 243 96 80 63
320 19 211 98 37 32
400 522 370 175 128 106
307 187 215 118 97 73
318 21 211 104 27 33
436 441 369 58 41 29
391 867 279 40 37 37
283 419 146 127 55 46
330 237 253 121 95 68
426 837 254 57 47 48
422 502 343 84 0 34
405 14 259 99 48 48
389 813 310 42 38 38
401 838 289 40 32 31
406 252 279 125 98 64
371 422 329 79 61 43
297 14 225 121 75 69
290 17 238 165 122 121
321 162 244 114 92 68
262 580 166 71 9 31
395 434 344 61 45 35
293 14 234 163 117 121
341 447 308 40 28 30
261 652 203 152 114 98
289 808 226 158 121 96
296 13 234 157 109 113
292 243 257 113 92 67
250 569 203 169 0 47
294 15 232 150 103 106
331 17 224 76 70 64
316 852 300 135 109 84
227 566 161 164 113 82
408 202 265 119 96 69
301 12 229 128 77 74
381 572 345 93 22 38
301 11 234 143 92 95
451 707 249 106 76 44
435 417 195 107 25 35
369 207 249 106 85 62
338 401 255 62 51 39
246 562 220 101 1 29
291 13 244 174 122 121
461 844 344 73 56 42
288 17 241 171 127 119
435 726 224 45 36 37
381 277 239 123 92 59
401 877 349 63 51 46
339 137 232 113 87 61
232 517 198 118 10 40
291 11 254 138 63 64
296 402 283 120 89 71
301 667 205 74 26 33
397 763 190 61 48 42
315 162 212 119 97 72
296 577 168 138 21 41
301 10 244 157 105 108
359 356 252 114 88 72
322 587 307 59 21 29
338 57 246 106 87 69
348 405 177 85 71 59
338 456 302 112 22 42
411 792 335 163 121 94
301 10 254 125 61 63
313 667 292 139 7 43
403 57 245 114 82 69
324 338 231 87 74 60
283 657 234 55 28 35
292 22 234 146 27 47
234 554 197 158 0 48
296 28 239 166 20 56
298 25 225 164 12 50
306 37 234 146 24 51
430 860 317 52 45 40
350 448 315 120 7 40
313 128 233 109 90 69
481 813 268 83 67 58
337 177 240 110 88 63
300 28 229 161 27 55
242 637 192 162 119 95
439 495 402 171 119 96
286 582 173 124 4 27
348 974 291 66 63 63
302 31 229 159 32 55
409 521 196 55 30 32
314 202 207 128 101 68
299 29 239 156 27 55
381 762 205 55 44 42
361 886 295 47 42 38
384 167 228 122 91 52
474 442 324 85 30 34
289 19 244 163 115 88
256 707 194 175 121 96
386 217 278 114 93 71
396 592 220 141 20 42
332 465 146 61 33 39
296 232 255 113 91 68
421 652 309 123 94 65
289 19 250 163 112 92
321 102 214 128 92 68
281 382 280 149 106 83
291 22 249 146 103 77
290 18 254 175 128 119
292 21 254 152 106 79
288 877 304 171 127 108
326 422 310 151 8 48
280 317 281 126 89 69
276 507 255 132 10 43
326 27 210 98 52 31
356 492 152 76 29 35
316 67 224 143 27 49
433 763 223 72 54 50
376 23 280 130 91 70
326 942 234 89 82 85
385 322 303 125 90 59
293 25 244 147 108 86
380 87 218 103 40 42
346 927 224 78 71 71
330 806 181 91 69 59
401 57 249 100 35 40
302 30 244 137 56 60
396 15 248 91 73 62
350 402 259 63 53 41
416 438 187 122 15 31
420 684 306 104 83 59
407 37 234 88 37 34
337 417 131 81 28 31
304 969 283 82 78 79
406 142 249 114 92 67
445 752 324 171 119 87
421 492 419 133 74 76
295 697 203 82 49 49
306 10 234 124 78 76
329 235 211 132 99 61
304 724 181 105 83 54
433 873 292 77 61 57
376 262 238 113 86 55
312 9 235 99 66 61
315 57 244 121 34 48
423 627 345 168 116 86
473 807 266 102 81 66
393 87 251 109 84 65
236 602 163 157 109 73
341 122 210 122 96 64
377 157 244 102 81 58
394 637 325 176 124 106
330 787 176 135 96 63
312 482 278 64 24 32
274 720 172 128 89 53
294 592 176 101 19 31
196 534 152 233 153 132
320 10 227 80 70 63
321 9 234 80 68 64
441 742 274 44 30 31
327 92 205 122 59 46
406 572 358 170 117 94
350 8 228 73 72 72
321 9 239 85 60 57
286 309 282 116 89 63
280 421 148 129 40 38
311 42 249 124 63 60
398 370 306 117 91 59
311 10 249 110 51 54
255 578 208 134 2 48
289 607 275 89 30 42
300 662 280 87 19 35
304 161 235 109 91 72
316 10 244 96 52 51
336 117 210 118 91 60
318 9 243 92 52 50
292 532 263 99 16 34
334 142 237 114 90 65
398 522 368 133 98 82
321 9 243 90 52 49
343 451 307 71 34 34
336 106 205 134 72 59
240 637 191 164 120 95
296 22 259 157 110 87
307 31 254 149 44 63
392 162 221 132 98 59
391 433 334 68 48 37
397 427 315 89 72 53
338 108 236 130 96 73
321 10 245 91 48 46
366 502 158 109 23 36
296 262 265 117 94 70
321 10 249 93 44 42
340 32 229 75 53 36
445 512 309 145 17 46
366 717 200 112 21 29
269 566 246 63 31 34
321 11 254 96 40 40
304 33 229 144 48 59
349 698 196 76 36 35
305 33 244 141 43 58
386 16 243 75 66 57
396 761 193 64 49 43
407 82 234 99 30 36
306 32 249 138 85 75
461 786 260 79 65 53
390 469 364 101 17 38
401 433 187 117 16 32
366 282 289 102 82 61
439 556 279 170 10 50
348 397 279 91 69 52
344 132 227 108 80 57
347 863 194 94 78 67
305 29 255 140 84 75
391 657 314 67 48 43
321 222 256 126 102 74
433 715 297 84 71 58
337 400 188 98 84 69
310 37 219 136 51 55
336 442 140 123 19 30
440 487 230 121 5 28
485 794 264 88 67 53
374 180 251 106 85 63
312 37 215 140 24 42
426 846 364 69 55 41
436 846 364 76 60 48
342 36 229 73 55 38
308 35 221 139 18 42
417 257 254 122 93 60
312 42 219 148 29 50
296 396 281 129 96 75
318 34 211 94 83 69
355 905 352 69 64 62
400 502 384 131 99 86
326 142 241 119 95 68
346 447 140 108 23 36
341 577 183 186 6 41
348 118 221 108 78 56
322 724 186 91 32 26
321 32 210 117 41 37
351 52 229 62 22 26
311 242 208 134 100 63
321 37 209 121 37 34
411 897 319 58 49 45
273 337 277 136 96 75
332 756 303 82 65 58
313 41 216 150 24 49
391 742 325 70 29 33
317 47 215 128 90 72
408 450 381 67 31 26
336 406 279 59 47 32
319 64 246 113 64 52
352 372 234 113 87 76
238 520 146 68 36 38
387 767 199 55 45 42
397 476 404 156 10 49
337 132 235 116 89 63
356 893 314 40 36 34
323 97 242 114 76 62
335 877 204 74 64 58
261 457 254 100 14 37
318 41 211 144 32 44
319 48 212 126 99 77
290 577 274 136 7 42
405 177 263 115 93 69
314 48 218 152 17 48
317 622 298 99 28 42
326 102 208 136 62 56
319 358 272 111 81 62
368 212 239 115 91 62
360 881 205 73 63 62
317 52 215 142 27 46
472 447 289 134 15 40
320 52 213 142 25 45
366 767 319 67 58 55
314 137 218 110 92 72
347 97 235 104 47 47
280 537 255 74 26 33
446 852 285 84 64 53
310 261 211 139 100 64
379 109 232 128 88 70
416 438 349 61 38 31
316 52 219 147 13 44
316 548 162 94 25 35
317 57 220 129 35 43
288 258 221 122 96 65
337 27 239 84 22 31
399 363 302 117 92 63
341 52 202 97 50 33
386 77 253 114 92 70
414 249 267 120 93 62
318 55 216 138 66 60
319 58 218 130 101 77
317 62 220 131 19 39
333 122 236 119 93 66
368 451 357 107 18 39
342 132 230 112 85 61
424 507 211 133 5 33
325 277 258 99 77 56
388 127 221 119 86 52
304 910 247 79 67 57
306 37 229 144 26 52
304 33 239 129 52 56
426 752 204 79 58 48
336 408 294 60 47 33
376 408 189 72 61 51
301 797 169 163 111 75
306 37 239 138 26 50
338 834 202 84 67 61
304 162 223 112 93 73
306 447 148 89 27 38
322 27 210 114 37 28
278 409 196 102 87 73
497 825 302 95 73 57
318 66 221 127 50 50
288 214 236 111 92 72
309 44 234 130 24 44
464 414 265 89 21 22
308 36 248 133 23 48
381 537 349 113 5 35
436 426 304 67 47 40
414 275 267 128 96 65
287 917 318 158 123 103
309 39 246 151 21 61
417 417 289 82 69 54
375 577 196 182 8 42
266 432 148 127 8 28
344 170 221 114 87 56
338 817 272 174 125 107
331 337 249 78 64 49
351 482 304 128 5 40
313 40 252 128 16 48
397 912 289 62 54 51
322 307 233 85 70 55
342 182 224 114 87 58
401 47 204 106 90 77
354 521 311 50 22 25
320 332 230 82 71 60
380 687 317 72 27 34
417 862 248 68 55 50
314 47 250 122 87 71
293 300 221 97 79 59
283 242 244 114 93 69
282 257 249 115 92 67
302 249 262 122 99 73
312 52 229 138 29 49
411 62 219 106 66 57
478 426 309 138 20 45
439 729 296 96 76 55
418 809 232 64 53 47
401 478 389 99 15 40
314 58 229 124 99 73
299 633 281 56 25 30
292 273 267 118 95 69
368 55 252 102 43 38
413 274 252 146 102 68
280 632 214 155 3 49
313 60 236 129 102 75
313 60 238 114 68 57
408 298 276 128 97 63
282 472 141 91 25 32
336 97 243 115 31 45
423 614 346 172 119 85
314 62 239 120 47 52
391 122 254 114 92 68
254 584 217 80 42 44
313 56 243 115 58 51
442 477 344 141 11 41
321 342 269 103 76 55
332 43 206 103 43 28
306 696 197 83 22 31
314 53 246 123 97 78
317 57 249 118 40 50
301 547 274 126 1 38
371 11 289 133 47 56
444 515 235 107 16 38
307 903 340 39 36 37
451 413 274 65 35 30
406 406 204 87 73 62
353 394 206 92 77 64
321 52 253 118 22 43
311 865 306 114 89 73
436 472 379 111 62 55
423 522 359 172 120 93
360 111 214 102 18 35
256 702 184 176 118 88
320 58 251 128 93 78
321 56 252 123 84 71
314 58 241 123 11 40
318 107 220 118 97 74
300 241 212 127 98 64
445 807 293 66 42 35
318 342 271 117 85 65
377 107 239 121 86 69
321 62 249 133 101 83
360 512 315 59 29 33
353 62 231 86 19 31
310 223 207 127 98 63
261 432 165 119 44 42
391 282 294 117 92 62
297 192 225 114 94 72
535 831 329 109 85 63
317 72 224 114 48 45
366 707 329 43 26 28
318 76 221 128 39 44
412 899 309 64 53 48
396 122 253 114 91 66
319 78 222 147 19 50
320 82 219 122 27 42
365 657 211 121 11 30
337 797 182 70 56 48
403 288 247 140 100 68
267 653 172 168 110 79
436 802 329 163 115 90
236 586 185 125 86 71
278 279 258 107 87 65
375 757 201 65 46 43
338 924 222 87 78 78
306 951 323 54 51 51
372 304 241 96 80 64
318 82 225 103 68 54
319 82 222 110 51 49
371 407 189 75 60 51
320 87 219 102 39 36
341 817 190 80 63 57
313 172 211 119 97 73
398 632 338 179 127 107
315 437 290 156 0 48
389 353 307 118 93 62
381 332 245 86 75 63
318 88 221 104 34 36
269 442 266 141 0 41
402 627 248 76 30 37
381 10 254 57 48 44
339 216 221 121 92 60
353 544 322 43 32 32
216 537 198 61 22 29
364 285 286 103 83 59
319 92 218 95 61 42
389 657 311 35 31 32
290 232 223 114 93 69
318 92 220 117 31 42
306 252 262 125 100 73
288 248 221 116 93 66
470 452 279 79 28 33
316 242 209 135 100 63
320 97 214 121 32 39
315 67 234 125 56 56
284 662 180 115 83 59
339 237 229 122 92 61
273 337 241 118 94 67
316 67 239 124 34 50
361 760 322 76 63 58
347 861 295 71 58 44
372 277 246 100 78 54
407 739 191 70 54 44
307 497 272 122 9 42
316 72 234 124 44 52
317 77 234 110 61 52
386 137 224 121 89 55
291 227 224 112 92 70
304 211 212 119 96 69
319 77 241 113 91 68
408 307 264 115 89 59
387 662 311 43 28 28
317 82 229 101 57 46
408 342 263 112 90 66
411 409 191 89 73 57
291 887 264 160 116 93
317 82 234 113 25 42
303 869 256 128 99 68
421 516 384 200 134 106
356 812 290 161 116 97
270 417 270 112 18 41
283 801 222 167 125 97
420 417 284 77 63 50
320 92 240 111 31 45
371 212 234 118 91 56
321 162 209 118 96 73
342 96 200 138 46 47
419 806 231 63 54 48
231 562 182 103 54 50
317 97 234 111 86 66
419 597 298 128 23 49
341 82 200 133 35 35
332 12 229 76 73 72
236 607 189 154 113 91
430 727 256 47 33 32
319 102 218 124 100 74
342 856 295 83 67 49
284 255 227 117 93 65
361 822 200 71 58 50
300 372 282 139 100 78
318 102 220 118 96 71
368 46 240 72 28 31
411 463 399 46 26 24
317 102 224 117 96 74
412 872 249 71 56 51
319 107 218 119 97 74
353 409 307 77 61 43
315 117 224 111 93 74
311 817 244 65 53 51
319 117 217 113 93 73
256 577 204 41 22 30
381 672 220 57 33 33
391 547 193 145 15 40
459 725 234 90 71 49
382 553 187 48 33 37
442 729 267 50 38 30
317 117 220 111 93 74
340 182 239 105 82 59
293 940 245 76 70 70
315 122 224 111 93 75
314 126 223 111 93 75
316 976 269 99 94 97
286 632 200 75 26 36
436 767 228 82 61 55
319 121 217 112 93 73
319 126 217 114 94 72
466 451 334 52 30 34
317 102 229 119 98 77
346 517 157 149 6 32
369 875 206 66 55 55
346 662 313 66 26 33
231 551 211 93 8 31
317 102 234 115 95 73
345 97 237 109 11 38
396 13 279 131 75 86
296 942 330 66 61 60
327 897 357 53 47 45
318 102 237 114 93 73
424 657 338 172 117 86
227 597 169 170 113 82
290 753 270 184 12 60
280 410 193 99 85 70
321 102 239 115 93 70
271 649 202 114 81 68
397 642 334 182 131 111
326 212 208 131 100 63
278 606 257 110 16 41
317 112 234 113 92 69
407 172 229 117 94 65
285 242 249 115 93 70
351 937 234 82 75 76
281 392 218 91 79 69
266 607 234 123 20 43
449 467 241 81 19 33
318 113 237 112 91 69
329 29 211 105 86 60
321 112 240 117 94 69
378 939 262 70 61 59
353 419 337 76 50 37
436 737 219 46 39 36
346 923 336 52 49 49
363 109 209 105 23 37
315 117 229 113 93 72
331 177 245 116 94 69
318 117 237 111 90 68
352 357 294 127 92 69
370 62 234 88 19 34
340 807 185 79 63 56
413 508 197 141 2 38
401 302 249 122 95 64
452 777 258 60 49 40
314 121 229 111 91 72
391 132 219 124 87 50
365 517 320 64 26 32
396 802 191 75 58 45
315 122 234 110 90 69
396 72 185 118 35 31
317 127 238 111 90 68
442 736 297 98 79 59
370 192 239 120 95 66
297 388 210 96 84 71
302 826 228 68 56 52
310 357 277 128 92 70
317 122 238 110 90 68
338 222 246 105 81 57
386 10 269 118 62 73
418 620 317 112 88 61
386 512 184 84 24 31
321 122 240 117 94 69
331 117 238 121 94 69
391 47 259 113 23 42
381 887 350 68 58 50
451 412 239 140 15 41
451 722 245 79 59 42
321 127 241 117 93 68
323 15 217 96 83 69
346 67 239 101 59 55
332 21 223 81 71 61
396 807 194 82 63 49
414 455 386 77 22 24
381 82 204 138 12 42
321 267 215 136 97 65
368 442 358 81 20 33
326 13 220 77 68 61
411 443 369 65 28 26
326 16 218 90 79 68
331 13 224 84 81 80
449 744 296 97 77 56
351 917 339 53 47 44
334 581 181 171 5 31
389 15 287 149 65 78
339 86 242 102 41 45
331 13 221 86 83 83
330 17 220 85 76 67
335 17 224 74 69 64
299 920 242 68 63 64
181 532 159 216 145 123
324 23 211 96 54 28
401 107 198 120 59 55
435 857 280 64 51 49
326 22 214 105 88 67
331 487 150 122 11 28
415 392 254 98 83 69
406 857 238 59 51 49
287 227 244 111 91 71
335 22 224 80 70 60
471 452 314 126 25 46
409 202 231 126 99 65
341 717 330 150 14 48
396 857 364 56 46 39
351 592 193 176 6 40
383 859 362 47 38 33
335 24 221 83 71 59
334 29 216 90 77 64
372 852 198 84 68 57
335 32 214 93 80 68
330 257 219 136 97 67
421 498 343 84 6 31
336 27 219 80 70 59
399 102 247 116 95 71
241 593 188 121 85 70
446 466 324 177 15 55
337 27 224 85 74 64
275 707 249 139 7 42
337 873 204 62 54 50
323 9 226 80 72 66
425 612 344 165 114 83
301 257 263 121 97 71
433 849 340 64 52 43
441 762 234 84 61 55
331 8 229 79 74 72
329 247 252 116 90 66
433 543 233 171 21 52
451 457 244 130 8 31
331 7 234 72 68 65
283 657 243 122 11 43
407 521 378 185 128 103
311 182 248 110 89 67
301 372 213 92 81 71
329 9 226 83 78 76
231 548 208 80 5 27
335 17 234 63 58 52
386 357 309 121 95 62
332 772 293 79 62 55
336 12 239 63 59 56
335 17 239 70 56 47
182 530 145 243 159 137
285 638 209 152 17 49
326 9 243 84 54 50
364 441 146 137 0 37
326 10 245 86 49 45
288 682 268 60 18 28
351 736 332 69 21 36
347 362 279 101 75 54
376 527 174 134 4 34
378 112 243 119 85 65
331 9 242 75 57 51
280 949 309 65 60 58
311 940 231 86 78 78
327 327 265 90 69 45
415 237 240 127 98 62
366 676 316 125 11 40
420 852 249 67 53 52
330 13 248 90 42 37
261 412 254 100 60 50
433 462 374 152 14 42
436 737 294 81 63 45
331 17 249 88 26 34
332 227 213 130 98 61
354 406 306 101 78 61
334 9 242 75 58 51
361 282 269 104 82 59
408 637 284 61 30 35
326 222 255 123 99 71
312 442 287 145 2 44
326 237 211 133 99 62
402 352 294 123 97 66
408 272 275 126 96 62
411 417 185 130 13 27
285 557 265 83 23 37
345 700 326 123 5 38
335 17 243 79 45 40
440 796 234 57 46 42
276 421 169 112 60 50
308 143 225 111 93 75
369 437 360 66 26 32
348 352 269 82 68 52
333 17 245 86 29 33
406 707 194 72 54 41
449 811 260 76 60 56
274 604 182 176 20 38
341 102 238 116 37 50
426 444 373 66 25 28
358 317 302 124 90 67
278 635 237 141 18 51
321 467 149 73 30 35
329 14 252 91 34 30
370 68 195 113 35 33
453 772 253 68 52 40
291 442 148 114 12 34
335 22 229 82 71 60
361 64 196 94 34 26
336 22 234 78 62 49
336 18 247 91 20 34
336 102 204 141 23 38
374 180 237 117 93 65
472 422 274 146 18 41
294 769 256 83 66 61
334 22 243 91 15 33
455 792 288 52 40 28
310 352 277 127 92 69
414 202 240 123 98 69
406 642 289 54 27 32
297 242 215 125 98 66
332 22 249 91 19 35
417 237 259 122 97 67
408 336 267 119 94 67
348 387 269 87 68 48
381 252 285 116 93 67
330 22 254 98 22 38
245 522 210 113 21 42
266 425 167 107 52 41
267 537 239 109 23 41
295 687 279 136 3 42
346 921 338 53 48 47
376 433 364 70 39 32
280 597 260 146 5 45
332 27 249 89 37 39
272 457 267 82 22 34
336 32 244 56 31 28
329 357 262 73 57 39
333 30 246 92 22 34
281 427 146 153 0 31
433 549 242 61 29 40
410 207 264 119 95 69
370 72 244 110 71 62
381 227 230 126 94 55
346 903 356 67 59 55
446 430 329 66 54 45
409 301 273 127 95 62
424 587 289 169 10 52
431 876 333 58 52 48
333 31 250 93 49 45
356 872 294 50 43 37
421 487 420 102 59 53
434 479 412 141 111 87
383 44 216 97 84 68
390 46 208 108 86 67
426 472 413 116 79 67
361 80 191 146 7 35
420 557 358 171 122 92
285 597 269 164 0 50
330 27 254 101 47 49
270 497 255 69 28 35
441 752 284 79 58 42
382 54 205 106 91 74
331 32 254 113 67 65
371 217 264 110 89 66
382 183 267 110 90 68
358 338 251 111 86 70
367 512 323 51 25 32
369 217 237 116 90 59
342 7 229 74 73 72
372 503 364 64 10 31
340 8 226 74 73 72
445 522 284 102 17 35
298 178 233 112 94 76
416 407 279 100 81 60
342 8 235 79 68 65
296 393 204 100 86 72
396 317 248 113 89 63
401 702 333 165 119 95
342 8 239 85 69 66
405 562 360 170 118 94
338 8 226 74 72 72
340 11 226 76 72 71
340 10 229 75 70 69
321 607 304 122 17 43
438 463 360 156 13 43
406 405 209 90 75 63
340 11 234 73 66 63
291 422 142 143 4 32
260 584 173 80 23 33
320 183 207 125 99 69
331 327 254 81 66 50
339 15 232 74 72 71
401 436 319 77 62 47
303 162 233 109 91 72
372 252 278 114 93 70
423 894 312 70 57 52
420 567 334 122 91 63
431 692 305 111 88 61
234 637 179 171 119 88
340 10 240 80 64 60
398 346 296 124 97 65
346 3 228 72 72 72
270 617 189 85 56 45
403 395 237 96 80 64
275 707 259 82 25 36
351 4 225 71 69 69
347 402 284 83 62 44
228 592 166 163 109 78
359 286 264 99 79 58
257 597 238 94 25 37
306 787 168 167 114 78
346 8 226 74 73 73
372 938 248 63 55 58
366 457 334 78 20 32
321 82 243 117 28 47
350 9 237 75 73 71
410 432 309 76 62 48
324 63 212 141 18 43
380 942 269 64 56 52
340 12 242 83 62 59
307 672 288 149 3 46
361 62 223 56 25 26
438 538 249 145 24 49
338 30 230 76 54 31
339 32 234 79 25 28
375 53 206 96 33 27
326 37 208 110 30 29
366 406 194 78 61 53
371 77 229 87 31 40
407 137 239 114 92 67
191 522 178 149 104 96
326 42 208 113 41 36
342 938 331 57 54 55
259 647 201 151 114 96
361 712 198 115 19 31
335 157 238 112 90 65
326 47 208 109 40 41
350 48 214 89 76 62
411 87 224 119 23 45
256 592 224 51 29 34
353 100 196 141 15 37
501 837 324 88 71 58
286 532 148 127 12 36
350 117 214 127 89 64
320 344 226 86 75 63
297 597 288 124 12 42
433 854 277 67 54 53
367 429 357 78 35 19
309 779 266 74 59 53
331 37 208 90 46 32
307 558 287 130 0 40
287 436 277 52 28 28
331 42 207 102 44 32
326 87 244 121 97 74
408 172 255 118 95 69
378 112 239 118 84 66
403 272 281 128 97 62
330 46 207 66 39 33
419 584 326 116 84 59
405 367 294 118 93 64
336 43 206 87 50 29
405 23 240 105 86 73
334 34 211 103 90 76
385 477 344 154 2 47
337 36 213 96 82 69
311 497 275 95 15 35
331 352 234 79 68 56
381 867 214 68 58 57
306 212 254 115 93 69
325 52 208 139 30 41
412 582 309 155 13 50
340 202 220 114 88 56
328 49 206 124 40 43
358 442 337 138 1 41
292 317 281 126 86 65
373 939 310 55 48 45
328 52 206 142 30 41
306 20 267 134 77 70
292 296 276 117 92 64
326 57 209 133 62 57
346 137 224 110 81 56
426 861 319 54 46 40
291 487 141 71 27 32
374 72 251 113 19 42
418 247 249 127 99 64
336 52 203 119 32 29
316 232 207 134 100 61
329 207 252 119 95 69
329 58 207 132 102 80
256 522 224 158 2 47
322 52 210 144 21 41
291 532 149 89 24 37
322 56 211 145 14 45
312 771 272 74 60 53
357 422 343 114 25 36
322 62 214 135 40 47
450 718 246 73 54 39
242 559 217 98 0 33
386 468 379 137 10 46
342 45 207 110 95 80
408 234 232 132 100 61
346 47 209 98 84 69
297 344 221 92 81 71
335 237 248 109 83 59
356 747 328 73 23 33
299 225 217 119 97 71
345 48 206 107 94 79
408 55 212 86 58 36
339 39 211 99 85 70
342 36 224 82 70 57
342 41 213 96 81 66
344 39 225 82 69 55
442 482 233 126 5 31
315 890 321 89 72 61
431 850 339 56 46 38
376 187 233 121 92 56
260 593 183 70 52 57
344 44 210 100 84 67
349 120 211 147 107 73
277 282 244 112 90 65
347 45 214 92 77 61
268 393 235 110 88 64
276 572 169 120 4 27
386 787 192 57 47 43
436 837 293 50 42 38
404 127 247 112 91 68
296 342 223 89 79 69
427 477 204 98 32 41
421 801 219 62 50 45
286 472 141 83 29 33
286 422 144 135 5 28
346 42 219 85 71 57
349 125 216 128 91 60
324 371 267 76 58 41
361 867 288 58 49 40
346 42 224 81 64 51
228 555 201 60 20 47
348 45 218 84 69 56
301 572 164 46 34 39
391 62 189 109 34 23
350 47 224 71 50 41
340 56 202 75 39 34
321 237 258 123 98 70
316 552 165 99 29 39
342 58 200 104 41 33
374 418 180 74 37 36
386 802 313 45 38 37
339 236 243 110 85 61
316 410 294 69 52 39
341 62 199 131 46 37
303 178 242 108 89 70
396 26 278 137 28 55
338 59 201 130 26 36
303 704 292 32 26 29
401 192 269 116 94 69
423 706 222 57 47 41
321 132 241 117 93 67
251 652 171 153 105 67
338 62 201 135 35 37
386 28 230 94 80 66
282 422 146 132 13 27
347 55 202 83 55 33
272 322 254 115 89 58
369 925 236 75 67 67
347 958 315 53 48 46
351 53 205 97 83 69
366 482 154 44 37 40
351 56 202 94 76 59
436 431 319 66 53 44
258 602 167 129 95 62
338 979 272 81 75 76
362 107 214 91 13 29
301 677 284 148 0 46
347 63 196 121 37 27
351 58 200 90 46 28
351 61 198 103 42 21
374 324 247 84 73 62
415 766 195 72 55 47
378 148 239 104 83 59
319 856 257 99 74 49
388 122 221 117 83 51
351 64 196 118 36 23
296 693 199 70 47 43
365 437 355 145 7 45
326 257 215 138 99 66
261 552 164 135 0 29
428 429 307 68 50 41
321 38 256 125 20 47
322 845 296 130 106 80
335 37 249 98 17 33
331 37 254 114 35 47
331 42 253 113 50 55
402 61 192 86 45 25
299 399 282 125 93 73
311 447 147 77 30 36
264 372 254 125 97 66
386 267 291 116 90 63
330 47 252 120 95 78
321 617 190 54 35 39
294 954 269 80 76 78
328 292 244 93 73 53
276 682 206 105 75 63
336 42 249 101 23 40
334 40 252 115 24 47
401 861 372 72 58 45
407 47 244 120 79 70
345 925 221 84 75 76
333 197 212 128 97 59
381 886 294 31 30 32
250 568 199 155 0 50
346 492 151 160 0 35
470 742 269 71 53 40
404 127 225 116 93 68
336 47 249 103 25 41
340 112 233 120 88 66
326 52 253 120 26 47
468 462 284 125 19 43
420 692 337 172 113 82
326 56 252 120 83 68
256 622 196 122 88 73
453 798 258 78 60 48
291 442 277 64 25 31
326 58 251 127 98 79
301 317 276 127 90 66
438 457 223 131 18 38
329 52 252 119 23 45
276 418 174 97 74 51
362 914 336 45 42 42
219 563 181 148 104 86
331 57 250 106 42 47
441 452 374 119 18 41
301 828 183 212 146 121
385 97 214 114 45 45
335 52 248 110 15 40
336 57 248 102 44 47
336 62 248 106 24 41
390 273 292 119 93 62
401 717 199 67 52 45
397 356 247 92 82 71
367 97 215 91 8 31
441 517 229 82 26 37
420 712 199 73 54 43
340 37 239 85 22 33
408 30 244 66 46 37
337 172 240 109 87 62
343 41 235 86 14 32
342 42 239 91 17 33
373 949 263 83 72 71
401 192 226 134 101 59
369 295 301 103 82 59
402 312 253 120 95 66
276 627 239 140 16 49
386 297 244 111 86 56
344 39 229 74 57 39
296 19 266 178 135 136
331 197 249 117 94 69
377 157 234 112 88 59
289 222 228 112 92 71
348 45 225 77 56 45
186 517 138 154 111 86
340 831 275 136 107 83
417 402 269 96 78 58
338 35 241 63 44 33
348 72 236 100 82 69
340 42 243 88 27 36
344 131 211 132 100 62
338 42 246 94 42 46
284 900 305 126 103 81
392 302 295 129 93 63
336 880 234 62 54 52
404 399 231 94 78 61
282 902 304 134 109 88
319 255 211 141 100 63
311 388 200 100 86 72
270 342 259 117 91 60
285 292 228 117 91 63
306 361 217 91 81 71
