ply
format ascii 1.0
comment Created by Open3D
element vertex 2236
property double x
property double y
property double z
property uchar red
property uchar green
property uchar blue
end_header
469 527 164 204 16 50
388 436 366 50 23 25
344 708 320 35 29 33
331 379 262 67 51 36
501 435 223 50 28 28
283 390 215 108 89 69
376 854 203 117 91 74
288 390 210 100 85 69
282 394 214 107 89 69
285 394 212 102 86 69
466 513 128 98 33 44
505 493 227 142 17 47
287 394 209 98 84 70
336 822 220 77 61 54
429 822 317 181 111 85
252 574 266 168 117 92
247 814 234 190 130 100
471 488 99 207 14 44
284 399 211 98 84 70
371 869 288 41 32 30
396 938 308 73 66 66
278 416 195 139 10 33
269 544 265 62 28 33
281 412 198 128 51 39
352 394 248 75 63 50
275 412 207 130 42 32
431 794 334 177 122 93
278 411 203 122 62 39
348 295 259 93 75 56
418 683 249 78 29 34
406 789 213 44 35 40
279 411 200 122 55 31
277 411 209 99 79 58
461 446 158 98 64 44
435 583 193 211 27 60
381 429 217 92 78 64
279 412 206 101 83 62
342 869 213 57 50 52
424 508 331 77 34 38
321 823 219 90 70 61
317 480 159 102 18 27
287 411 199 101 89 75
281 404 213 101 85 70
278 405 215 102 86 68
356 394 303 131 97 73
262 449 223 44 30 35
390 829 209 57 44 43
524 462 211 104 26 43
457 765 254 102 74 50
397 434 363 76 22 32
273 400 224 114 92 67
466 439 183 57 33 29
478 505 259 171 13 51
264 454 212 72 30 35
326 559 289 133 4 40
410 659 288 36 28 30
274 403 222 111 91 69
431 698 263 62 41 35
243 614 256 161 115 88
342 354 292 128 90 70
374 837 291 155 115 87
275 408 217 100 83 67
326 919 227 88 77 76
416 709 332 176 121 91
514 441 213 69 28 32
279 402 216 108 89 70
281 599 198 57 29 37
269 389 238 120 96 68
426 487 90 190 8 35
272 394 229 115 93 67
278 379 271 129 98 71
271 399 228 116 93 67
269 399 232 118 94 67
306 819 278 169 118 100
269 427 216 143 7 40
460 759 258 107 80 51
267 399 238 124 98 68
416 438 153 96 78 58
269 393 236 121 96 68
391 779 184 70 52 42
324 469 156 72 29 32
268 396 235 121 96 68
268 400 234 121 96 67
331 819 288 166 126 104
426 745 178 92 65 51
290 354 280 135 98 75
268 389 243 122 96 66
267 389 248 124 97 66
255 764 212 159 109 76
283 487 271 27 26 28
415 394 258 93 77 59
291 609 173 106 30 43
391 890 242 66 57 55
290 879 303 142 112 82
451 455 118 111 29 31
269 387 241 121 95 65
535 469 173 195 15 52
267 394 243 123 97 67
267 394 248 124 97 64
446 503 105 137 33 48
263 415 234 79 35 38
419 410 253 82 71 60
411 432 173 93 78 62
266 409 233 114 93 70
463 541 249 38 32 32
421 729 174 85 66 52
270 404 228 116 93 68
266 404 238 123 97 67
442 714 313 147 100 67
266 414 228 89 46 43
398 542 356 165 114 96
345 421 165 91 75 58
403 589 346 170 121 95
264 412 238 94 78 61
316 469 164 58 28 32
396 434 353 93 3 30
262 415 243 78 55 45
262 415 248 85 66 50
338 434 291 130 4 40
262 415 253 94 69 51
266 404 243 124 97 66
296 579 161 85 25 34
265 409 253 121 94 65
272 444 198 120 23 37
264 412 248 105 85 63
317 304 269 102 77 53
454 937 275 90 64 46
342 805 216 74 59 52
273 389 229 116 93 68
274 393 226 114 92 68
274 397 226 115 93 69
377 549 333 104 19 40
271 419 208 129 18 41
474 482 95 196 12 44
271 424 208 146 6 39
272 429 203 141 6 39
408 404 285 113 91 66
270 419 213 111 25 39
411 624 233 118 30 45
295 564 269 79 25 34
306 400 200 94 82 71
479 474 276 142 21 50
294 934 262 65 61 62
267 419 223 76 35 38
268 424 218 121 21 40
266 424 223 95 29 38
269 424 216 135 15 40
268 430 214 138 9 37
262 420 262 87 45 40
408 649 289 51 28 34
318 495 150 110 9 33
334 336 272 69 55 40
410 709 164 101 65 47
266 429 223 127 15 37
272 434 203 141 7 39
271 439 203 138 8 39
268 440 209 119 23 36
269 443 206 125 18 41
269 448 202 64 34 37
380 534 353 72 28 36
263 444 223 110 20 35
377 902 300 61 51 47
260 509 272 128 71 68
356 264 283 118 92 64
268 434 213 114 16 35
278 354 267 126 96 68
268 436 210 119 17 34
368 441 316 123 16 44
265 434 223 132 11 37
295 950 277 74 71 72
264 444 218 79 28 36
296 830 226 98 75 68
336 430 148 87 58 49
277 419 194 134 12 35
273 419 200 136 14 38
395 429 338 93 27 34
336 419 173 97 82 67
401 284 258 115 90 61
332 554 292 132 3 40
273 430 200 140 6 39
396 434 389 71 23 30
273 446 195 85 33 38
240 764 228 164 112 80
273 450 194 44 36 41
261 419 238 83 32 38
376 909 314 109 74 60
265 419 228 74 32 37
361 420 208 89 75 60
264 419 231 84 31 43
264 424 232 89 31 40
401 424 218 96 80 63
314 468 166 35 34 38
257 419 248 104 40 41
396 859 228 57 51 51
286 489 177 59 36 40
366 540 117 92 29 41
386 824 303 61 50 47
283 285 257 113 88 59
257 424 253 94 33 38
407 439 325 96 9 35
258 429 248 134 21 42
359 464 310 56 28 31
257 429 253 103 27 37
406 509 362 179 124 95
446 749 243 60 48 43
303 890 275 130 104 77
263 435 229 137 8 37
417 674 273 84 36 36
261 434 238 142 7 39
291 774 282 74 62 55
280 499 181 129 12 35
373 297 295 134 98 65
356 406 234 79 65 50
414 594 346 170 114 89
417 429 247 97 80 60
507 480 117 108 41 49
262 444 228 120 15 36
261 444 233 131 12 37
274 676 256 99 78 59
431 695 263 64 41 34
279 776 275 51 43 39
261 449 228 41 30 33
260 449 233 63 28 33
305 554 275 37 24 31
301 389 280 118 88 67
260 449 238 78 28 34
440 573 258 183 1 54
260 434 243 142 6 38
442 564 268 150 12 48
417 529 338 139 91 73
340 334 278 94 65 45
259 439 248 137 4 38
359 848 211 56 48 49
268 386 261 129 97 70
260 439 243 140 1 39
258 434 249 123 14 38
396 838 189 100 75 57
258 434 253 120 18 39
388 827 301 62 51 48
258 438 253 128 8 38
346 422 163 90 74 57
304 902 266 116 80 74
380 549 343 156 14 48
339 385 274 91 64 50
391 269 244 101 83 64
260 449 248 54 28 29
276 438 282 93 21 38
260 449 253 52 29 26
266 440 284 42 24 27
286 794 275 64 53 48
243 544 267 166 118 96
296 389 208 93 81 70
296 393 206 93 81 70
293 396 205 91 81 71
300 389 206 91 80 69
301 394 204 90 80 69
301 399 202 91 80 70
444 889 274 75 64 60
291 389 209 97 83 69
289 387 211 101 85 69
338 388 217 96 82 68
339 818 290 163 122 101
296 405 200 96 83 70
447 504 314 135 9 42
369 892 196 77 71 72
296 344 283 141 101 79
279 631 221 67 41 37
292 729 296 117 18 41
291 404 203 96 83 71
354 489 300 141 8 44
261 634 223 137 103 68
289 402 206 95 83 71
291 410 199 98 85 73
423 711 201 69 57 55
256 539 239 96 20 33
290 412 196 100 88 76
327 699 307 32 29 30
293 411 195 101 87 74
356 429 143 89 73 55
297 411 194 93 80 69
396 869 289 46 41 39
301 404 199 93 81 70
370 499 323 94 25 39
339 440 290 131 8 41
300 408 197 94 81 69
301 410 194 93 80 69
473 546 197 140 37 52
412 644 278 153 17 48
301 401 200 92 82 71
404 817 196 96 76 56
518 967 260 109 99 88
441 914 274 63 54 52
357 809 210 48 43 44
306 389 204 91 80 68
310 386 205 99 84 69
253 808 225 181 121 89
471 879 250 62 53 46
311 400 199 93 81 69
460 888 248 75 64 60
316 390 205 97 84 70
274 520 266 45 28 26
486 888 273 64 51 40
321 389 207 94 82 71
316 394 203 98 85 71
316 398 201 98 85 72
394 903 254 62 55 55
307 406 195 95 83 71
497 454 249 73 24 33
316 403 197 98 85 72
315 405 194 98 86 74
249 636 260 179 128 102
317 490 154 94 19 30
308 726 195 121 19 32
453 730 266 67 51 37
319 401 200 96 84 72
386 429 218 93 79 64
455 893 248 70 57 52
391 564 344 122 35 48
321 404 198 99 85 71
322 409 197 96 83 69
271 464 193 123 22 37
269 479 192 47 37 39
416 899 303 37 35 35
266 779 208 163 113 77
331 955 344 75 71 72
272 479 189 67 33 36
242 734 228 145 101 69
359 889 212 78 71 71
274 454 191 75 33 37
339 370 266 104 75 67
276 459 188 65 32 38
400 572 155 172 21 48
458 561 223 44 31 35
273 461 190 116 23 33
291 614 178 91 33 41
278 464 185 73 31 34
324 882 252 53 47 45
403 490 370 184 126 105
285 454 181 79 35 37
356 549 122 177 21 46
288 454 180 68 37 38
271 629 222 123 88 59
345 394 243 78 64 51
356 517 105 177 3 36
392 941 312 65 58 54
285 459 181 73 38 37
373 534 327 57 26 31
409 699 209 49 39 36
402 421 321 65 53 40
286 464 179 63 36 39
448 712 295 79 48 40
361 719 329 165 13 52
287 459 180 53 37 38
331 823 220 78 62 55
326 390 277 62 48 35
284 464 181 44 37 39
477 457 132 111 27 32
386 629 203 134 30 47
420 415 273 68 62 53
281 469 182 62 36 37
273 469 189 47 37 40
277 479 184 82 34 37
275 474 187 67 35 36
283 474 180 50 36 38
283 479 180 104 33 37
405 719 183 86 67 53
316 729 193 136 8 35
286 474 178 59 37 39
276 470 275 64 23 32
341 630 186 197 10 45
286 479 178 69 33 37
382 408 318 108 78 57
428 692 281 82 33 37
362 434 311 58 25 31
269 489 191 136 11 36
391 559 137 158 20 45
381 274 293 131 97 62
267 489 193 144 6 37
461 559 213 95 33 45
290 418 287 139 15 45
289 577 168 111 22 38
271 494 188 144 4 37
269 499 191 152 0 38
267 504 193 150 0 38
426 428 208 96 80 62
269 509 191 150 0 34
272 509 189 151 1 37
283 294 263 117 89 59
280 484 182 89 32 39
381 899 243 68 62 63
367 859 293 144 106 83
274 483 186 80 31 36
336 864 329 149 120 88
276 494 184 123 16 37
426 694 262 63 34 32
508 486 132 57 23 33
452 714 272 94 70 48
447 560 263 168 24 57
274 495 186 143 5 36
282 484 180 83 32 36
282 489 180 48 36 37
402 428 390 93 22 34
340 329 269 78 63 47
286 494 177 87 26 37
411 433 225 96 80 62
368 672 305 140 11 47
441 424 233 83 67 52
350 904 332 146 106 83
275 504 186 145 1 35
277 509 184 139 5 35
391 943 313 62 56 51
466 426 229 75 37 31
259 437 276 50 24 30
290 359 280 135 100 76
280 509 182 142 7 35
282 499 179 107 17 37
395 918 268 66 59 58
403 435 377 127 4 38
331 449 138 46 31 33
282 504 180 142 6 33
385 449 373 78 19 31
286 499 177 132 14 36
286 504 177 112 19 33
336 394 213 97 82 68
475 749 263 81 61 46
321 474 158 95 22 32
454 813 273 83 63 53
305 919 340 177 143 123
304 325 281 122 86 62
454 887 258 68 58 50
298 460 175 54 28 30
365 459 314 96 20 37
301 464 173 67 35 37
446 505 107 147 28 46
296 454 177 47 37 39
300 624 273 70 23 32
426 674 294 79 61 43
331 394 209 100 86 72
291 459 178 53 35 37
468 551 198 70 31 41
291 464 177 96 28 34
389 426 180 91 77 61
296 459 177 50 36 37
446 454 118 102 43 36
441 822 296 58 43 35
390 853 218 59 52 53
295 463 176 112 24 32
326 344 276 69 54 37
407 629 341 185 134 106
300 454 176 73 34 35
397 895 251 59 52 52
266 689 218 129 96 61
388 715 169 74 57 47
299 457 176 44 39 39
464 776 286 85 67 57
376 434 133 91 75 57
382 872 167 89 83 82
417 595 192 189 23 54
289 951 295 66 61 62
424 464 80 110 26 38
450 524 303 80 19 35
293 470 175 46 36 40
500 469 242 81 22 33
292 474 175 98 24 33
347 868 324 148 114 81
311 938 243 80 70 70
461 463 103 116 24 28
296 474 173 116 19 34
296 479 172 136 9 31
313 520 138 97 29 40
301 469 172 80 32 36
331 379 280 72 55 41
291 469 177 54 36 41
331 964 338 66 60 58
422 529 324 150 14 49
294 468 176 61 32 35
351 837 300 161 126 95
396 689 318 130 88 74
290 479 176 89 24 34
306 454 173 71 32 32
296 539 168 72 28 33
305 463 171 45 37 36
376 729 327 93 30 42
317 753 296 64 56 52
307 465 170 45 36 37
309 458 171 74 38 34
480 771 290 100 81 66
382 474 368 129 17 43
311 464 168 45 37 36
479 421 253 65 28 29
316 454 168 58 35 31
318 456 165 82 39 34
317 464 165 59 33 31
320 464 162 92 28 32
443 438 310 49 27 30
345 421 168 92 76 60
342 364 259 103 75 67
312 474 165 90 27 33
313 639 286 126 15 42
310 479 166 113 19 34
284 673 254 51 24 29
312 479 164 114 17 32
301 284 272 107 86 62
309 564 146 142 13 35
320 469 162 112 25 34
320 489 152 80 26 33
307 890 340 168 124 103
322 489 149 89 21 33
412 556 315 49 26 28
508 460 234 49 30 31
313 490 160 123 9 34
261 459 218 80 29 35
313 496 155 119 12 32
411 459 373 169 117 102
317 509 133 68 27 35
242 619 253 156 109 81
450 724 247 60 45 38
316 279 262 108 85 59
379 540 344 149 14 43
466 417 258 98 21 34
318 506 132 101 19 37
477 464 278 71 27 34
318 510 137 71 31 37
264 589 261 160 111 88
361 571 141 157 29 53
320 508 139 65 30 33
258 481 215 94 34 40
307 504 159 56 32 32
255 559 232 111 59 44
421 785 227 52 47 47
333 523 115 153 2 33
418 606 290 107 16 38
421 659 332 183 123 95
355 474 303 148 4 46
310 504 157 101 25 33
307 509 159 50 32 35
315 499 152 113 7 30
407 379 279 122 95 64
481 461 124 115 22 32
386 809 197 81 61 50
320 504 148 95 11 30
259 464 233 47 30 31
402 564 351 176 119 96
358 956 330 61 54 52
316 509 152 101 11 29
433 560 300 90 23 37
321 509 148 99 12 31
288 494 175 113 27 40
301 494 168 135 4 33
281 774 204 148 103 67
366 514 103 78 32 37
294 504 171 129 13 30
346 314 294 113 85 60
288 506 175 55 31 39
291 509 174 67 31 36
313 494 276 77 26 33
418 687 257 73 40 42
405 425 235 98 81 62
425 714 198 75 52 40
295 509 171 128 18 34
501 494 143 223 21 58
303 505 165 98 24 36
297 499 170 138 5 31
307 574 281 140 10 43
302 509 164 55 32 33
330 397 285 62 46 33
297 509 169 143 8 36
316 579 289 139 6 41
280 614 208 111 22 40
305 489 166 130 9 31
307 489 164 122 12 32
301 818 215 91 71 63
357 855 209 50 44 46
266 634 257 177 121 103
304 494 166 132 8 34
314 483 162 118 20 34
252 689 224 126 92 58
304 497 166 133 14 33
300 859 308 168 130 103
520 488 183 156 29 54
269 463 196 111 21 35
411 925 298 73 60 51
333 435 133 114 31 33
266 459 203 63 32 37
265 464 203 102 28 37
419 479 361 159 109 84
264 463 207 87 31 38
261 454 223 35 32 35
263 460 209 60 33 37
385 779 193 72 55 46
356 649 197 143 8 36
260 464 223 64 30 33
268 466 195 124 28 36
344 736 315 177 14 58
399 932 326 54 46 41
318 553 135 150 2 36
394 289 286 127 96 63
265 469 203 95 30 37
272 399 267 132 100 74
266 474 198 55 39 39
265 479 198 54 38 38
264 474 202 49 35 37
271 673 255 134 104 82
349 694 195 45 33 33
264 479 202 62 38 37
491 448 173 89 29 37
311 843 234 60 54 56
261 469 213 90 30 37
258 470 224 78 30 34
490 499 247 157 14 49
260 479 213 96 28 39
258 474 223 56 33 36
258 479 218 54 32 36
479 512 251 179 7 56
259 477 216 51 30 32
260 454 228 36 32 34
414 391 258 97 79 59
361 963 265 78 73 74
260 454 233 42 31 32
260 454 238 45 31 31
424 892 299 40 36 33
258 464 239 58 29 29
408 926 296 80 69 63
391 480 380 37 30 31
258 455 248 36 30 29
341 354 258 105 77 62
362 880 218 61 54 59
257 454 253 42 33 30
347 849 219 54 46 44
462 774 257 91 69 56
259 452 251 34 28 29
460 739 286 70 53 39
409 370 272 115 91 65
258 456 244 34 30 30
258 466 228 55 31 27
452 449 304 37 28 30
258 469 228 71 32 32
413 453 358 135 107 81
401 524 362 176 121 92
494 502 241 137 21 46
259 467 226 81 34 30
395 597 175 93 24 37
348 299 259 103 79 61
365 830 206 60 50 48
258 470 233 48 33 31
259 468 234 56 32 33
259 468 236 43 31 32
263 494 199 155 4 41
498 432 238 67 24 30
415 800 184 92 72 56
260 494 203 156 6 41
265 489 198 143 7 36
311 519 275 78 24 34
400 274 282 132 98 67
264 484 201 101 23 37
249 659 236 114 84 48
306 739 297 72 40 42
264 494 197 151 3 39
259 483 212 130 20 40
495 430 238 57 23 24
258 484 213 93 21 36
317 914 229 79 71 70
258 489 209 129 13 36
259 498 206 145 15 41
490 434 253 130 13 40
411 839 184 96 75 64
258 504 205 47 34 35
410 634 288 132 20 43
260 509 203 58 34 37
455 504 307 48 26 32
265 509 197 150 3 36
336 424 158 92 77 61
246 584 234 128 98 65
346 426 148 90 74 56
377 809 200 56 47 44
356 520 106 178 3 36
292 774 200 153 107 70
332 429 154 78 44 41
380 602 175 176 40 61
332 426 155 85 63 55
345 404 223 84 70 55
330 429 158 70 31 30
371 429 317 33 27 28
334 432 133 95 34 31
334 724 310 159 12 50
421 434 233 97 79 58
466 464 103 115 30 29
332 434 138 90 31 36
374 957 307 71 61 58
316 854 258 188 129 96
332 434 143 63 31 36
381 454 353 107 9 35
261 739 211 130 98 63
330 439 138 96 24 37
334 432 137 93 38 35
330 444 133 97 25 34
330 449 133 75 26 34
366 879 194 95 79 69
444 711 302 121 85 56
431 427 213 95 79 61
426 432 183 95 79 61
441 489 93 158 20 43
330 444 138 59 29 34
287 294 272 109 87 61
386 269 242 97 81 64
330 444 143 70 26 33
514 492 207 92 25 37
330 294 257 77 66 55
331 449 143 83 26 37
376 518 104 65 36 39
296 630 192 56 35 40
425 583 178 199 19 48
252 654 234 127 85 55
328 435 158 71 29 32
401 289 273 121 90 61
263 569 223 103 24 34
328 444 158 105 20 33
391 804 194 94 72 61
327 449 158 111 16 31
386 554 132 212 13 45
247 559 266 172 120 100
255 689 222 124 91 56
356 414 224 79 65 50
254 639 226 145 104 72
332 435 148 56 30 32
331 434 153 72 29 33
329 437 152 41 30 34
381 426 178 91 76 59
334 432 148 77 35 35
334 432 151 72 32 27
384 434 334 97 6 34
329 444 148 109 23 36
328 443 149 83 22 35
361 560 131 194 24 50
369 879 201 85 71 64
328 443 153 90 22 32
276 440 280 143 14 46
391 428 173 90 75 59
337 431 130 77 40 38
414 636 295 102 64 45
416 744 203 58 43 42
337 431 133 85 35 36
361 421 183 92 78 63
245 809 233 183 124 94
321 785 201 84 65 56
363 951 334 67 61 60
341 430 133 86 49 36
288 603 170 53 36 38
411 454 373 144 105 86
436 418 263 80 54 46
351 430 133 87 70 52
351 934 349 58 54 54
475 424 267 128 18 42
351 428 143 90 74 56
388 839 204 60 47 46
281 439 279 136 12 44
506 968 275 96 77 58
341 428 148 90 71 55
342 426 154 89 73 57
346 427 147 90 73 57
470 774 278 83 63 52
346 425 153 89 73 54
480 512 149 216 19 51
426 458 88 109 37 29
351 424 158 89 74 57
247 694 248 161 110 83
396 429 363 86 16 30
323 424 168 75 35 32
341 586 151 217 13 49
346 394 223 83 70 56
393 608 316 116 79 67
322 421 174 85 68 54
257 828 252 218 149 121
326 420 173 93 80 66
406 414 298 71 61 51
331 420 168 96 80 63
302 944 333 146 105 91
332 421 165 95 80 65
336 422 162 93 78 62
336 420 168 95 80 64
408 876 248 57 53 55
331 419 173 97 82 66
311 374 279 132 93 76
386 443 218 94 80 65
328 430 160 50 29 29
391 812 200 80 59 51
326 418 178 97 81 65
386 284 245 94 78 60
325 416 185 99 83 68
421 834 248 46 41 41
502 484 234 128 18 45
327 417 186 99 84 68
310 863 282 104 80 55
336 418 183 97 82 68
244 534 270 166 117 95
441 729 238 52 44 40
417 470 81 56 38 43
330 416 188 98 83 67
469 921 286 73 58 46
336 417 188 97 82 68
301 854 313 170 131 106
401 319 268 123 93 65
326 434 163 50 33 34
314 851 258 189 130 99
405 380 244 91 80 69
290 836 254 55 45 43
325 439 163 76 30 32
469 773 268 87 66 54
324 439 166 74 28 32
322 445 165 68 33 33
500 770 303 90 69 52
281 824 222 208 145 116
496 459 143 110 70 50
322 449 164 69 29 30
416 434 243 98 81 61
325 449 162 90 25 32
411 836 290 34 29 28
398 392 236 94 80 65
351 423 163 90 74 57
499 780 302 91 72 58
350 421 174 92 77 60
348 422 171 91 76 59
411 754 197 47 37 37
251 799 223 173 115 82
421 429 318 106 7 35
341 419 183 97 82 67
264 574 261 152 103 86
341 418 188 97 82 66
346 419 188 97 81 65
341 545 121 177 11 38
371 434 133 89 73 55
356 428 148 90 74 56
300 401 286 95 63 50
405 689 329 166 122 97
349 504 295 137 3 42
341 749 308 77 62 55
353 427 151 91 75 57
357 427 152 91 75 57
438 769 330 168 115 82
361 429 148 90 74 56
355 426 154 92 75 57
394 605 319 136 96 81
359 426 155 91 75 58
384 444 358 36 26 29
362 427 157 91 75 58
367 432 137 88 71 53
369 431 140 88 72 53
409 567 155 60 31 34
396 438 138 96 79 60
370 431 144 89 72 54
371 429 153 89 73 55
374 431 145 90 73 55
260 785 211 176 119 85
376 431 148 90 74 55
278 709 282 141 19 49
370 309 296 132 95 63
376 430 153 90 73 55
253 793 220 169 112 80
371 428 158 90 74 57
431 504 327 168 7 52
400 719 324 144 93 78
381 431 153 91 75 57
372 432 142 89 73 54
376 432 143 90 74 56
381 436 133 94 77 58
406 836 294 41 35 34
381 434 138 93 77 59
381 432 148 91 75 58
504 451 170 77 33 31
382 432 152 91 76 58
454 562 185 124 17 38
356 423 168 90 75 57
321 604 293 80 32 40
408 364 268 111 89 65
356 422 173 91 75 59
330 444 285 113 10 36
397 820 189 125 95 76
361 424 168 91 75 57
281 559 267 108 23 40
393 397 231 94 80 66
361 423 173 91 75 58
366 424 173 90 75 57
471 485 97 207 13 47
299 877 325 124 37 64
366 426 163 91 75 57
356 421 183 93 78 62
421 426 218 96 80 62
361 422 178 91 76 60
310 864 330 138 52 70
371 929 344 44 40 38
464 822 306 80 65 56
381 434 217 92 78 64
327 564 292 132 3 39
356 419 193 93 79 63
444 577 228 186 12 51
361 420 193 92 77 62
309 584 285 70 18 34
362 422 182 92 77 62
264 564 217 162 3 41
366 422 183 92 77 62
387 689 193 75 53 42
366 421 188 92 77 62
468 526 161 211 18 51
351 414 302 108 17 37
394 928 284 73 66 65
371 426 168 91 75 58
376 428 163 90 74 57
391 438 133 96 79 60
415 469 363 135 102 72
410 634 238 67 33 41
289 912 320 136 116 99
373 427 166 91 75 58
416 399 253 89 77 65
371 425 173 90 75 58
376 426 173 91 75 58
350 977 283 78 72 71
273 538 190 38 32 37
289 937 281 58 56 57
338 339 283 110 72 52
381 409 219 94 80 64
346 904 223 69 61 63
380 426 174 91 75 58
376 424 183 91 76 60
445 784 238 62 50 46
371 421 193 90 75 60
381 425 183 91 76 60
326 389 208 96 83 71
323 397 206 98 85 72
356 964 318 64 59 57
386 484 377 83 20 33
401 450 373 82 17 29
326 400 204 98 85 73
362 504 308 59 27 32
326 398 207 99 86 72
390 384 301 121 94 63
356 973 278 85 80 82
335 399 208 98 83 68
409 906 295 36 34 33
329 385 210 95 83 72
330 389 209 96 84 72
336 389 214 95 82 68
334 395 210 100 85 70
441 414 288 73 46 29
326 413 197 98 84 69
331 754 197 105 29 37
426 784 183 79 61 50
397 496 370 142 97 79
336 404 208 97 82 67
414 509 352 174 120 93
385 849 208 69 59 55
382 469 373 151 14 46
337 413 201 98 82 66
340 395 215 98 81 65
342 394 218 92 77 62
344 395 220 87 74 60
404 709 187 83 64 47
341 409 208 98 82 64
340 410 204 99 82 65
423 614 253 148 27 47
336 479 287 137 2 42
355 704 325 145 15 46
340 416 199 98 82 65
343 413 207 96 80 63
382 602 316 123 23 47
406 430 222 95 80 64
343 871 210 54 49 51
338 402 211 97 81 65
276 719 278 160 9 50
380 421 199 93 78 63
353 389 301 135 100 76
305 841 236 81 61 58
340 405 209 97 81 64
401 289 258 114 90 62
410 820 177 96 77 62
343 403 216 93 78 64
344 409 218 89 74 60
344 444 295 56 25 30
344 411 210 97 80 63
347 389 233 80 66 53
471 451 148 103 55 40
251 784 218 168 111 79
496 443 188 76 28 33
395 893 249 65 56 54
399 299 281 128 95 65
461 839 304 68 56 47
348 394 228 80 66 52
406 709 178 82 61 44
347 394 233 78 64 50
411 549 353 171 118 91
338 389 255 76 60 46
343 398 250 73 60 50
390 682 212 74 47 41
425 624 333 156 107 73
346 389 243 82 67 55
384 411 323 104 53 44
345 399 252 74 61 51
366 274 293 124 91 65
281 529 182 43 35 38
348 403 232 74 60 45
440 557 165 199 17 46
411 449 98 93 75 55
363 889 205 85 76 73
290 600 167 151 15 40
351 409 228 74 62 49
391 814 313 59 49 45
351 407 232 74 62 49
282 503 266 154 13 48
327 479 143 87 22 34
349 401 238 74 62 48
280 584 258 65 29 35
447 877 295 57 49 43
350 411 225 73 62 50
347 402 248 72 59 48
366 264 293 128 99 71
351 403 243 74 62 50
288 919 321 162 135 117
380 439 217 93 79 65
433 586 263 108 17 39
348 403 245 73 61 48
479 723 273 86 70 54
316 398 278 63 47 34
349 402 247 72 61 49
486 429 228 71 36 30
351 418 198 95 79 63
355 809 212 51 45 46
397 428 334 81 43 35
345 416 203 95 80 63
348 417 213 90 74 58
353 422 213 87 72 57
348 417 217 84 69 53
388 412 221 94 79 63
350 420 218 81 67 52
326 354 273 69 52 35
344 868 212 57 50 50
376 414 223 93 79 65
377 399 225 93 80 66
378 414 219 94 79 64
469 522 261 79 17 24
366 389 238 89 76 62
361 399 239 84 70 56
367 394 235 89 75 62
257 524 213 69 32 37
364 394 236 86 74 63
420 778 209 45 40 42
288 881 308 136 107 80
389 269 291 129 96 61
367 399 234 88 75 61
386 538 356 98 29 42
364 398 236 86 73 60
360 387 246 85 71 56
341 955 251 92 87 89
398 779 326 175 134 102
356 394 243 80 67 53
396 274 249 105 85 63
354 393 246 79 65 51
426 895 250 74 57 55
359 398 241 82 69 54
361 405 234 84 71 56
361 410 229 84 71 57
295 664 269 119 14 41
416 844 286 46 39 36
256 554 232 104 32 36
317 309 269 101 75 52
361 413 227 84 71 58
381 499 358 39 27 29
366 404 232 87 74 62
368 405 230 89 76 64
411 574 308 71 20 33
381 499 363 84 21 37
351 764 312 74 61 54
358 401 240 81 67 51
375 388 231 91 78 65
371 389 233 92 79 65
370 398 232 90 77 64
285 609 183 74 28 36
376 394 228 92 78 64
375 398 227 92 79 65
386 864 288 42 39 37
446 489 314 139 0 43
347 834 218 54 48 48
372 400 229 90 77 65
341 555 126 194 9 44
373 396 230 91 78 65
267 394 258 131 99 69
430 587 198 223 21 60
378 386 230 91 78 64
298 554 271 37 26 28
381 389 228 92 79 66
380 393 226 93 79 66
378 396 225 93 79 64
370 408 226 91 78 65
368 410 225 90 77 63
371 413 225 91 78 64
361 419 198 90 76 60
361 419 203 89 75 60
288 649 252 133 12 43
383 945 278 71 64 63
341 779 303 74 59 55
356 423 209 90 75 60
360 422 209 88 74 59
366 419 198 90 75 60
366 419 203 91 76 61
356 418 222 79 66 52
352 422 217 83 68 53
318 704 301 32 27 30
396 469 382 132 19 46
356 420 218 82 68 54
385 617 189 92 27 38
273 354 258 121 95 65
381 474 353 142 8 43
424 554 311 42 27 28
362 418 222 84 71 59
356 714 197 125 12 31
366 420 213 89 75 61
366 420 218 88 74 61
303 624 276 120 26 46
371 420 198 91 76 61
375 421 195 91 76 61
441 894 302 53 48 46
371 420 208 92 78 63
321 904 228 65 60 61
430 420 312 132 12 44
378 422 196 92 77 62
498 481 240 158 15 50
346 299 263 86 68 50
381 422 198 93 78 64
371 421 213 91 77 63
378 494 342 40 25 30
375 424 215 93 79 63
371 419 224 90 77 63
371 874 189 94 75 63
371 424 218 91 78 63
376 424 222 93 79 65
341 649 300 101 19 38
302 664 204 132 9 34
372 429 218 91 78 64
376 429 221 93 79 64
378 419 218 94 80 64
490 507 154 222 22 56
380 425 218 94 79 64
476 432 213 78 35 33
381 429 222 96 80 64
376 434 218 92 78 65
425 456 89 109 53 33
375 434 223 93 79 65
382 440 215 93 79 65
460 926 277 138 127 118
378 438 219 92 79 65
407 644 288 51 27 33
435 695 283 100 30 41
377 438 223 93 79 65
395 340 249 93 81 69
350 284 268 89 70 48
381 443 218 94 80 65
398 280 251 109 88 64
371 417 226 90 77 64
378 437 226 95 80 65
381 437 227 95 80 65
331 454 133 104 21 38
387 703 320 41 27 28
411 684 332 174 125 96
420 484 357 185 125 104
419 544 334 154 105 78
489 497 129 123 26 42
332 454 143 46 31 35
333 459 143 55 31 32
414 432 225 96 80 61
296 324 282 125 88 68
327 454 158 91 23 32
311 814 213 90 69 60
323 464 159 70 29 28
344 302 278 96 72 50
326 459 158 74 27 30
386 431 158 91 75 57
329 454 156 83 28 33
331 459 148 59 29 34
331 464 148 60 31 34
332 469 133 61 28 32
415 422 240 98 82 64
329 478 133 85 25 34
459 921 271 80 68 63
331 474 138 59 29 33
330 474 143 53 30 32
399 786 325 180 136 105
296 799 279 69 57 51
329 477 138 85 23 34
490 524 213 195 11 57
322 469 158 84 26 31
491 456 148 111 71 50
327 474 148 86 27 33
379 674 210 53 33 33
312 905 250 69 55 48
390 339 291 132 102 70
326 479 148 82 25 31
434 690 246 64 47 38
324 478 152 68 27 32
302 589 154 113 26 41
291 589 164 112 16 31
317 919 229 81 71 68
330 469 148 45 32 33
327 484 133 70 24 33
351 594 312 146 17 47
327 484 143 72 24 33
352 424 302 77 25 34
325 494 133 69 29 34
317 699 195 48 36 40
327 489 138 93 23 33
323 485 149 62 31 32
343 408 296 135 12 43
445 824 268 82 63 55
325 484 147 74 28 32
265 434 298 162 9 52
324 482 151 75 33 34
301 669 278 141 4 44
323 496 132 64 30 36
366 719 331 70 25 34
323 496 139 104 13 33
385 260 240 96 80 64
356 834 212 54 46 44
396 269 248 105 85 64
406 915 322 36 33 34
401 269 253 107 86 61
386 274 244 96 80 62
386 289 244 93 77 59
389 284 245 98 80 60
388 282 246 97 79 59
406 589 173 196 14 44
391 289 248 98 81 62
402 259 252 105 84 59
402 264 253 106 85 60
299 919 257 106 78 69
404 259 255 108 85 57
471 794 307 84 63 50
391 294 248 95 79 63
268 539 200 162 5 43
379 464 338 130 1 39
396 329 253 98 82 64
388 296 246 88 75 61
426 509 329 77 23 34
361 859 302 151 116 90
391 299 248 95 81 67
396 294 252 103 85 66
370 886 296 58 47 40
316 324 273 104 76 53
394 300 250 99 84 68
399 299 255 103 84 63
385 319 244 96 82 68
404 524 361 168 114 85
338 329 267 78 63 46
489 487 110 207 17 40
388 319 246 93 79 65
384 684 203 72 46 45
264 576 226 88 37 35
395 309 250 100 83 66
252 699 256 155 108 83
399 316 255 108 87 64
388 324 246 95 81 66
416 529 119 208 13 48
272 609 255 148 107 91
404 859 230 56 49 47
391 324 248 95 81 66
416 920 277 66 57 54
481 934 270 96 78 61
388 332 246 93 80 67
391 334 248 93 81 68
296 958 293 71 67 67
260 654 256 171 127 106
406 421 322 65 55 45
399 322 255 106 86 64
412 427 198 95 79 61
250 804 264 177 132 108
399 334 255 99 83 66
472 452 147 106 48 37
390 344 245 93 82 71
392 344 246 92 81 70
386 349 242 91 80 69
396 344 249 94 82 71
291 794 205 175 119 86
428 669 323 156 105 72
400 344 253 94 81 67
393 348 246 93 82 72
316 559 283 138 8 42
396 504 367 124 82 67
394 351 245 93 83 73
401 349 253 94 81 68
459 557 236 148 23 51
391 364 239 92 81 70
372 693 206 98 18 25
391 369 237 90 79 69
386 355 240 89 79 69
391 354 243 93 82 71
286 369 277 131 97 73
342 858 319 132 103 73
389 356 240 92 81 69
391 359 241 93 82 71
291 559 173 119 17 38
388 359 241 93 81 70
427 719 330 169 112 81
478 773 290 112 85 67
466 481 91 198 10 38
286 729 293 165 16 53
294 899 287 161 118 95
440 709 260 69 45 41
366 890 198 86 76 73
383 861 221 56 51 56
395 355 245 93 83 73
396 359 243 92 82 72
397 358 246 93 83 73
391 580 158 119 21 39
400 354 250 91 81 71
279 724 284 129 20 48
460 494 302 162 12 51
393 362 241 94 82 71
383 449 363 45 27 29
399 365 245 91 81 71
511 454 233 40 30 32
413 761 186 93 67 46
306 359 282 141 101 79
271 694 217 125 93 60
361 334 298 132 94 63
402 364 248 89 79 70
345 834 222 54 47 48
397 368 242 90 80 70
384 821 305 67 55 52
422 772 170 100 78 63
375 958 288 67 60 59
387 370 235 90 79 67
384 374 236 92 80 69
427 899 249 88 71 66
475 439 273 129 11 42
390 370 235 91 79 68
354 784 206 65 51 46
344 944 246 86 80 81
391 374 235 91 80 69
386 379 238 93 81 69
368 892 307 100 72 54
386 385 238 96 83 70
391 377 235 93 81 70
391 384 237 93 81 69
382 612 306 139 17 51
276 833 253 183 136 113
393 373 236 90 78 67
447 575 228 186 12 52
396 374 238 92 81 70
459 562 208 103 40 47
400 380 239 92 81 70
401 384 239 91 80 69
453 462 101 112 26 32
401 374 243 91 80 70
402 284 263 111 86 55
399 374 240 92 81 71
401 379 242 91 80 70
419 482 361 183 124 101
427 531 127 198 23 53
491 459 254 162 7 52
464 522 144 117 41 47
424 782 189 91 72 62
402 354 253 95 82 69
361 900 227 61 56 56
383 429 332 132 8 39
403 359 252 93 81 68
326 659 195 152 0 36
404 360 254 100 84 68
326 719 193 78 33 38
405 364 253 97 82 67
405 369 249 89 78 67
471 464 108 119 29 30
406 369 253 97 82 66
421 679 233 89 57 41
408 374 253 98 82 65
481 494 263 46 27 33
281 429 284 146 15 47
403 384 241 91 80 69
436 479 319 136 7 42
407 379 248 92 80 67
410 384 248 98 83 67
509 445 232 77 25 32
408 378 252 99 82 65
340 865 327 145 114 81
409 380 253 101 83 65
366 854 204 60 51 47
409 381 249 96 81 66
400 669 224 85 24 31
412 384 253 101 84 65
386 444 113 93 76 57
253 789 266 173 131 102
386 449 108 91 75 56
447 825 282 74 56 50
386 446 110 93 76 57
386 447 111 92 76 57
391 448 108 93 77 59
391 445 113 94 77 59
391 446 110 93 77 59
401 447 108 94 78 59
311 389 278 99 75 55
400 446 110 96 78 58
386 440 123 96 79 61
492 515 178 119 35 48
386 438 128 96 79 60
387 442 117 94 77 59
341 869 329 149 117 83
390 441 120 95 79 61
391 441 123 95 79 62
451 714 294 76 54 43
392 442 121 95 79 61
395 441 124 95 79 62
475 489 278 152 17 50
434 583 273 174 13 50
396 442 123 95 79 61
297 893 337 196 145 126
300 291 276 111 88 62
396 440 128 95 79 61
366 950 333 61 55 53
244 790 226 172 115 83
401 443 123 94 78 61
401 441 129 95 78 61
398 442 126 95 79 62
401 442 127 94 78 61
416 599 344 170 118 87
410 379 273 116 91 63
399 839 188 87 68 54
402 447 111 94 78 60
276 489 268 70 22 32
495 469 247 72 26 32
406 447 108 94 77 57
349 424 300 64 24 32
406 447 112 94 77 57
393 432 161 92 76 58
517 454 223 62 31 34
356 319 299 137 95 72
411 448 108 94 75 53
288 619 257 38 25 30
406 446 114 95 77 58
406 445 118 95 78 59
311 809 212 91 70 61
406 444 123 95 78 60
406 442 128 94 78 60
411 446 118 96 77 55
323 401 286 97 30 39
411 443 128 94 77 59
296 729 199 103 21 33
290 544 177 70 32 35
294 496 270 111 28 46
411 445 123 95 78 57
416 444 128 94 77 57
300 954 273 77 72 74
421 448 118 93 73 49
411 654 253 52 28 33
381 644 299 126 10 40
420 446 124 94 75 52
251 529 244 115 73 54
426 448 123 93 74 49
331 834 228 63 52 51
381 533 114 101 26 38
456 444 298 106 15 38
426 679 327 163 108 78
427 447 127 94 74 51
449 572 218 59 29 35
366 869 183 103 78 66
431 448 128 93 74 50
391 454 93 91 52 40
244 609 236 151 108 76
446 889 259 60 49 40
392 464 84 103 28 27
481 427 232 73 38 28
358 777 311 64 57 54
365 967 278 86 81 84
390 464 88 102 27 25
343 298 278 92 73 50
386 464 93 106 28 28
487 427 237 78 35 26
385 463 97 95 31 23
388 460 93 100 30 30
389 459 93 96 38 33
371 949 328 56 51 50
388 460 90 108 26 27
307 967 313 63 57 56
263 431 273 71 25 28
456 524 138 116 33 46
397 456 85 66 55 50
401 453 88 77 65 53
346 689 312 94 24 38
535 966 263 100 83 70
369 484 319 35 28 30
395 453 92 89 60 47
401 450 93 94 77 59
495 499 238 144 14 45
421 694 228 56 43 38
344 688 310 53 24 27
400 452 92 88 73 57
387 860 222 60 54 57
396 459 84 98 37 35
394 459 86 83 35 37
260 539 233 113 7 33
406 889 268 53 48 47
396 464 83 119 19 29
399 463 81 122 20 33
471 449 153 100 64 45
393 456 89 80 49 46
300 305 281 121 89 66
386 469 88 96 34 21
495 434 247 132 15 42
391 469 83 107 22 25
385 468 92 98 31 24
245 814 238 202 140 111
386 474 84 133 11 28
336 834 298 152 122 97
384 472 86 101 27 22
340 334 289 123 83 64
402 639 332 183 135 112
386 479 84 176 3 36
419 416 288 69 61 51
391 474 82 153 2 31
401 779 185 88 66 55
385 419 334 128 10 37
284 734 290 49 24 27
256 599 228 129 98 65
391 479 83 181 5 36
395 469 81 139 5 29
398 468 80 145 4 37
247 619 233 149 108 73
401 469 80 142 13 35
396 474 81 164 0 32
396 479 82 180 4 37
401 774 327 169 127 97
401 629 223 119 27 43
376 611 305 158 15 50
422 678 287 45 31 32
406 455 79 109 47 47
443 764 246 56 42 41
281 415 294 95 24 33
406 459 78 97 42 43
411 456 80 119 52 41
389 942 308 59 51 48
411 464 78 71 39 41
386 884 232 58 52 53
254 717 216 127 96 59
416 464 79 72 40 42
246 614 233 147 107 73
479 532 227 45 30 34
354 464 304 70 26 33
403 456 80 65 52 52
425 609 318 151 107 74
426 444 323 111 10 36
406 451 89 94 76 57
406 453 83 93 64 48
386 438 222 95 80 64
406 452 87 92 75 56
402 451 90 92 77 61
445 910 302 46 41 39
439 578 243 199 6 63
411 454 83 99 69 49
460 469 302 77 22 31
281 609 203 66 29 36
416 455 83 100 70 44
493 511 230 133 33 47
416 453 88 93 73 51
289 534 176 69 35 40
411 450 93 94 76 56
341 694 313 84 20 33
327 543 125 123 23 39
417 452 93 92 72 50
318 549 134 93 18 34
243 634 256 170 122 97
411 469 79 92 39 44
366 624 302 99 28 42
416 469 80 73 39 41
494 886 278 64 52 43
441 578 198 111 30 46
453 484 310 152 8 46
402 472 80 154 11 34
338 324 287 122 82 62
406 479 83 155 13 38
411 472 80 75 41 46
349 509 295 132 8 40
306 499 273 141 9 42
434 454 321 58 26 30
411 479 84 78 36 43
284 610 196 159 0 40
367 474 317 129 12 43
414 472 80 61 42 42
387 455 104 88 58 42
391 450 104 92 76 57
367 965 278 87 82 84
393 822 216 44 35 41
391 454 98 91 59 44
306 279 267 106 84 59
390 453 102 96 63 46
385 453 107 91 63 48
238 512 271 181 125 105
416 739 331 178 126 95
388 450 105 91 74 56
396 514 104 103 30 40
387 460 98 87 36 28
389 458 98 85 48 36
391 679 213 75 49 42
469 469 292 60 23 30
394 452 100 92 76 58
491 484 108 108 29 44
401 449 98 95 78 58
356 369 302 129 97 72
401 448 103 94 78 59
326 605 167 215 17 47
337 364 264 93 67 55
450 719 268 83 66 50
406 449 98 95 77 57
242 739 243 159 109 80
406 448 103 94 76 56
446 447 142 95 73 48
361 890 198 94 79 75
411 449 103 93 75 53
454 417 261 102 26 37
416 450 98 92 72 51
416 450 103 92 73 51
421 809 331 196 139 109
416 449 108 93 74 52
351 559 128 81 29 40
406 450 371 79 53 39
386 483 85 191 8 38
441 524 313 172 0 53
451 824 283 81 64 57
385 486 86 195 10 39
467 534 248 184 7 55
381 530 112 112 32 43
391 483 84 190 8 36
386 493 90 165 10 38
386 495 91 141 20 39
456 854 297 62 52 44
496 447 177 90 24 36
450 461 99 111 28 34
417 896 301 37 35 36
391 493 90 186 8 38
496 479 108 102 39 44
391 495 91 180 8 38
299 912 262 116 89 68
396 484 84 189 8 38
460 799 269 75 59 51
396 486 86 191 9 38
396 489 87 190 9 37
363 506 311 85 35 39
401 484 84 182 6 38
448 912 300 47 41 38
287 939 303 93 79 72
401 489 88 185 9 39
396 493 90 189 9 38
388 429 342 119 5 37
413 650 296 86 63 42
297 959 327 54 50 51
396 495 91 192 9 40
401 493 90 193 10 38
386 499 94 121 30 42
485 934 282 79 63 50
391 499 94 153 19 41
306 821 275 133 90 76
406 483 84 173 10 40
406 489 88 148 20 42
428 600 278 140 22 48
306 784 287 66 55 49
406 495 92 194 10 41
254 775 211 171 116 81
456 493 99 133 20 42
406 264 268 120 90 57
331 389 278 68 52 38
411 484 87 86 30 39
376 673 304 131 9 40
411 489 89 159 17 42
324 519 126 108 21 32
451 458 108 112 27 31
483 462 265 142 9 45
269 379 258 126 96 67
416 481 86 84 34 42
416 484 87 125 31 44
290 298 275 107 84 59
416 488 89 189 12 40
410 492 90 187 7 36
411 494 92 192 9 39
336 819 219 77 61 54
416 491 91 191 9 40
436 584 213 202 18 53
529 468 201 84 24 30
416 494 93 191 9 39
472 790 293 107 78 60
406 498 94 197 10 42
411 498 95 196 10 43
415 498 95 193 10 41
391 504 97 136 24 40
291 709 208 117 14 30
386 509 99 80 35 39
377 464 328 119 12 38
370 539 318 82 25 37
384 511 101 72 36 38
490 471 105 115 19 28
391 508 99 84 37 40
446 539 153 197 14 47
391 511 101 93 35 40
416 504 348 179 128 105
367 960 267 88 80 79
396 504 97 128 22 38
401 501 96 195 9 40
386 434 223 95 80 63
396 508 100 80 38 41
421 535 128 202 17 50
293 714 205 119 12 31
386 434 217 94 79 64
396 510 101 89 37 42
400 507 100 88 34 44
274 519 187 89 29 37
401 510 102 116 31 44
494 440 251 103 14 33
406 504 98 184 10 38
405 507 100 149 16 43
448 784 308 151 98 69
401 769 203 48 39 40
441 448 133 94 73 48
411 503 99 198 11 41
281 309 258 127 95 63
416 500 97 196 10 42
416 503 99 197 11 41
461 544 253 44 31 35
408 506 101 195 13 43
412 506 101 196 11 40
466 549 228 197 13 56
411 509 103 196 11 42
456 454 303 37 26 28
416 505 101 195 10 43
420 460 80 113 47 42
421 464 80 113 29 39
416 423 243 97 81 63
421 455 88 96 65 42
421 453 93 97 65 40
421 458 83 83 47 44
411 654 334 187 135 112
441 492 95 170 14 42
420 456 84 88 64 45
331 344 268 66 50 33
426 455 93 106 54 33
426 460 84 90 35 35
376 304 295 137 98 67
446 434 193 86 68 53
374 696 205 98 14 25
284 692 280 97 24 42
426 464 82 108 35 40
431 464 84 75 43 38
431 458 93 107 45 30
258 445 284 125 15 42
420 468 80 96 37 41
456 719 292 64 46 36
398 434 335 94 15 33
386 289 291 127 97 62
295 945 267 81 76 77
421 474 83 101 34 44
421 480 86 154 13 38
422 560 309 122 25 46
426 474 83 173 2 32
360 414 309 107 18 37
301 369 281 145 104 83
426 480 86 184 6 38
431 474 83 178 5 38
431 477 85 183 6 38
248 802 225 177 118 86
436 463 87 105 35 34
441 464 88 102 30 32
331 694 194 47 38 40
406 479 374 181 117 103
436 459 93 106 37 31
400 369 287 125 97 65
442 462 92 106 29 30
446 465 88 104 23 31
448 764 251 67 51 41
388 621 196 186 17 46
446 463 93 107 29 32
436 465 84 92 40 44
436 469 82 61 41 44
270 429 298 152 13 48
339 319 273 77 61 43
450 456 114 112 27 31
441 466 85 92 29 37
435 477 85 182 5 33
366 764 198 66 51 47
390 607 180 33 36 40
451 884 254 78 63 49
436 480 86 185 7 37
266 759 209 135 100 65
420 414 248 90 78 64
441 474 83 94 31 42
446 469 84 79 38 33
306 379 280 131 94 76
447 467 86 106 17 30
395 829 196 82 66 54
466 428 223 78 39 32
389 437 373 54 33 35
288 270 257 108 88 66
481 439 193 55 31 28
446 474 84 88 41 46
356 969 268 76 71 75
301 544 163 97 12 30
445 477 85 60 29 32
446 479 87 107 37 46
421 452 98 96 66 42
360 409 310 128 12 39
342 533 115 159 7 40
421 449 113 93 73 49
423 839 251 45 40 39
426 454 98 101 58 36
307 689 200 56 31 36
426 453 103 95 64 41
431 455 98 104 49 33
431 454 103 100 51 37
424 451 104 94 69 45
425 451 108 93 70 46
317 923 229 83 73 71
426 450 113 93 71 47
303 757 291 70 59 54
431 453 108 95 58 41
287 613 179 68 32 36
432 452 112 94 61 42
284 614 193 130 1 35
462 919 296 55 44 39
382 454 363 54 25 31
426 449 118 93 73 48
436 428 213 93 77 58
431 450 118 93 71 47
395 923 278 67 61 61
431 449 123 93 73 48
396 427 183 92 78 63
436 455 103 104 40 33
383 446 355 59 14 29
436 454 108 99 47 37
508 481 121 63 41 42
436 453 113 94 56 41
441 455 108 104 38 33
311 719 298 163 11 52
436 458 98 108 37 31
441 459 98 108 30 31
437 457 101 107 37 32
416 584 173 112 33 44
366 404 313 105 77 56
441 457 103 108 32 33
391 359 293 128 99 67
365 469 315 64 24 33
325 563 290 132 4 40
304 372 281 142 103 82
419 807 235 66 55 53
446 460 98 109 30 33
305 845 248 195 143 112
351 544 119 170 13 41
445 456 109 107 33 32
318 891 254 60 53 51
435 451 119 93 69 45
432 489 328 131 8 43
277 409 272 120 92 70
437 452 117 93 64 43
441 453 118 94 59 42
436 450 123 93 72 47
436 449 128 93 73 48
416 764 222 56 47 46
247 809 262 186 135 111
444 451 125 95 68 45
446 451 128 95 69 46
446 452 123 97 58 41
403 626 222 50 32 36
306 434 278 49 26 27
467 917 273 72 60 53
421 490 92 188 8 41
411 424 218 96 80 62
257 519 208 58 35 37
421 724 187 79 57 45
306 544 274 144 12 44
406 440 138 95 78 60
426 484 88 187 8 39
412 804 332 178 131 105
431 489 92 198 11 41
251 774 213 169 113 81
456 421 244 86 29 33
431 493 95 195 11 39
436 484 89 144 18 42
332 825 222 77 61 55
273 359 262 125 96 66
441 486 91 74 40 44
398 916 273 60 54 52
263 416 256 100 78 57
465 788 293 120 86 70
341 329 258 117 84 71
310 770 290 71 58 51
515 464 223 100 25 39
436 492 95 193 11 38
446 483 89 56 37 38
269 524 196 158 12 44
326 931 236 86 76 78
446 489 94 162 16 41
346 669 304 76 19 33
500 494 233 129 15 43
427 496 96 196 11 42
421 496 96 194 10 40
307 684 200 100 25 34
421 504 102 197 11 43
291 744 293 158 20 53
421 508 104 148 17 42
414 676 244 125 41 44
431 709 327 164 107 78
418 511 106 168 14 42
498 511 182 80 28 38
422 510 106 170 24 49
477 520 163 215 20 53
446 497 100 95 33 45
426 499 98 193 10 41
416 749 194 51 39 37
424 502 100 199 12 41
426 510 106 139 25 42
421 429 198 95 79 62
419 459 348 122 88 69
341 967 260 91 87 90
431 507 105 179 14 44
265 831 242 222 146 116
431 510 107 183 19 47
427 424 238 93 77 57
447 491 96 154 27 51
275 374 269 128 98 71
446 494 98 109 30 42
303 322 280 121 86 62
402 629 337 181 133 106
436 498 99 171 17 42
436 500 101 139 25 44
511 440 213 69 29 33
436 504 104 163 22 44
441 500 102 78 33 39
334 881 341 146 114 83
436 509 108 186 20 47
378 499 342 117 17 43
442 506 106 171 29 50
457 699 278 90 67 47
446 508 109 134 31 45
407 889 283 38 32 33
451 464 93 110 31 35
396 844 193 111 84 62
336 404 292 115 17 39
449 470 85 93 41 40
456 469 88 122 23 29
442 437 177 91 74 56
450 466 90 113 25 40
239 519 263 173 121 98
456 465 93 110 31 32
457 467 91 109 31 30
297 519 169 68 32 39
420 460 343 101 60 49
452 474 86 114 34 43
357 929 242 77 71 73
448 476 86 67 40 46
456 474 86 191 14 40
460 466 94 115 23 27
461 474 87 176 7 36
466 469 93 112 29 23
331 679 194 56 34 38
400 299 278 120 91 62
436 689 308 136 95 62
316 831 226 96 74 65
465 471 90 114 25 20
471 470 94 107 35 28
487 452 157 110 74 53
466 474 89 156 7 31
387 439 368 57 24 30
312 519 154 90 16 30
466 478 89 161 10 39
470 478 90 166 14 41
306 534 158 73 23 30
336 965 333 70 64 63
399 426 221 96 80 63
472 480 92 184 11 45
291 454 279 66 25 31
293 942 321 152 117 99
476 479 93 189 13 43
401 425 198 94 79 62
480 474 94 191 5 30
405 810 325 182 135 111
382 398 310 127 99 64
480 478 95 203 17 47
451 460 103 111 28 33
515 494 188 70 34 40
242 744 243 159 109 80
452 457 112 113 25 30
456 460 108 115 24 29
311 919 238 71 64 65
406 804 188 96 76 59
461 465 98 115 25 27
461 459 113 117 26 28
459 461 105 116 22 29
243 808 235 184 126 95
461 461 108 117 24 28
462 462 107 117 24 27
343 499 291 138 1 41
455 456 119 115 25 28
303 842 239 70 58 58
245 624 237 158 111 77
451 452 128 101 53 39
456 455 123 114 29 29
244 563 241 140 105 72
460 539 268 47 31 31
395 473 381 61 24 31
456 453 128 109 40 33
457 457 117 117 24 28
461 456 123 118 26 29
336 534 289 77 21 33
421 619 338 167 116 86
461 458 118 118 27 29
376 349 297 122 96 65
459 456 120 117 26 28
462 457 122 119 26 29
256 564 266 172 117 96
273 726 216 113 79 55
464 461 110 118 27 28
476 463 113 121 20 29
466 459 118 120 27 30
311 834 228 99 75 67
285 599 173 61 30 39
471 460 118 121 21 30
486 460 133 105 36 32
262 818 225 200 137 108
466 457 123 120 23 30
464 456 125 120 23 29
471 457 128 118 19 31
475 461 119 120 18 30
401 434 389 75 23 33
496 508 168 54 35 40
477 462 117 120 18 29
382 944 273 77 71 70
481 464 113 119 18 29
481 463 118 117 18 30
413 662 284 66 24 32
476 458 128 115 23 32
300 709 202 92 24 30
411 765 165 82 67 57
481 460 128 111 27 32
374 958 283 71 65 64
466 466 99 113 31 28
345 870 327 151 116 83
471 468 98 110 38 31
306 550 146 146 3 36
294 563 166 109 2 31
476 469 98 112 38 32
516 479 128 217 20 55
473 467 101 112 37 33
434 714 175 87 68 55
382 474 373 95 15 34
475 466 104 117 33 31
481 468 103 120 25 29
436 829 258 76 58 52
337 365 274 96 68 54
481 466 108 120 20 29
470 543 228 194 15 59
340 783 204 79 60 53
471 418 263 111 13 38
478 472 96 121 21 18
406 649 333 181 138 114
534 898 286 100 82 67
352 429 302 83 23 35
481 428 228 73 37 29
482 473 97 152 7 21
501 509 188 95 35 44
451 483 90 143 20 39
420 603 223 121 36 49
431 779 334 177 123 90
451 485 92 170 13 41
417 427 207 96 80 62
449 694 260 62 47 37
456 484 92 197 10 42
411 421 322 65 56 48
456 488 94 211 13 44
460 482 90 192 8 43
460 451 139 104 57 41
461 484 93 206 12 45
331 919 227 88 78 76
460 487 95 213 14 52
296 828 224 98 75 68
251 824 243 233 157 129
310 877 335 120 39 55
447 561 176 203 19 50
466 484 93 210 13 46
452 491 96 210 13 51
449 734 303 142 98 68
245 624 259 162 117 91
409 404 283 110 89 66
437 526 126 54 37 39
451 494 99 178 18 44
397 823 184 115 83 53
456 490 97 213 13 50
371 879 222 68 66 70
391 680 198 69 48 42
257 744 261 162 115 90
456 495 101 118 28 40
461 495 102 203 16 47
425 720 223 49 40 37
451 499 103 104 33 41
402 505 365 175 125 95
456 498 104 138 27 45
450 502 105 85 36 41
242 729 233 146 100 70
446 699 258 77 57 40
457 501 106 139 30 47
487 459 259 160 3 51
376 754 189 63 50 45
456 503 109 136 33 48
347 852 305 132 105 74
477 792 299 102 76 61
449 507 110 83 42 40
391 589 168 211 14 47
452 506 111 83 35 39
451 434 193 77 56 45
349 312 295 111 85 61
379 458 330 121 10 36
456 505 112 125 34 46
460 497 104 199 18 48
386 386 233 94 81 67
460 502 110 152 35 52
461 504 113 127 38 50
456 510 117 64 35 42
430 739 178 88 64 50
460 507 115 147 34 53
351 540 116 194 9 40
461 509 118 45 33 38
341 349 258 107 78 62
463 506 116 78 30 35
466 489 98 205 13 46
464 492 100 202 13 43
466 494 103 208 15 45
533 980 291 80 71 62
452 952 283 98 79 64
427 832 173 100 82 70
470 493 104 207 16 48
252 514 238 69 31 36
467 496 106 194 14 47
471 495 107 161 18 43
316 610 172 223 13 46
296 944 263 78 73 73
376 369 304 127 99 66
444 744 321 169 115 84
391 908 308 35 33 33
476 484 98 199 13 45
448 891 244 79 62 51
474 487 100 211 16 48
300 879 282 148 112 84
392 674 217 63 36 37
478 481 96 199 12 50
446 499 314 138 7 43
346 714 194 109 24 35
438 815 313 179 115 89
461 844 293 98 79 63
383 474 376 139 16 45
482 480 97 194 13 46
480 483 99 192 15 45
477 486 101 203 16 47
481 485 102 138 20 43
480 487 104 212 19 56
477 491 107 217 19 54
313 272 260 111 86 60
477 495 112 178 18 46
466 498 108 110 30 40
501 441 198 68 30 31
346 973 268 81 78 82
479 488 271 74 22 31
467 500 112 53 35 39
376 403 314 122 96 68
470 497 109 66 34 37
348 819 296 181 138 112
282 344 272 130 97 70
471 499 113 80 32 41
260 564 227 94 32 34
413 452 368 105 83 60
473 496 111 63 37 35
286 899 308 186 133 115
298 943 259 78 72 72
428 591 206 67 39 42
466 503 114 61 39 41
466 505 118 112 30 44
377 940 334 61 53 49
469 502 115 96 36 40
465 508 119 64 33 38
337 334 268 74 59 44
466 509 123 82 33 42
382 843 195 112 86 73
345 374 294 130 95 72
471 505 122 149 22 46
342 469 291 140 2 42
311 804 208 90 69 61
470 508 124 88 35 44
471 509 128 136 31 50
311 769 291 70 58 51
481 499 123 227 24 58
462 913 283 56 47 44
477 501 122 225 24 54
480 503 128 179 19 49
384 366 301 121 95 64
336 714 313 89 25 37
436 894 249 78 61 51
517 474 218 62 30 33
482 462 122 115 21 32
486 461 128 108 31 32
336 800 212 79 62 54
426 890 293 53 46 41
416 431 183 94 78 62
487 462 127 109 29 32
486 470 103 121 17 28
485 466 109 118 18 29
486 466 113 116 17 30
448 551 166 169 28 51
486 474 98 185 10 36
487 472 101 131 10 32
485 479 99 178 22 49
418 630 268 111 33 44
370 963 303 75 68 65
386 944 298 80 72 70
487 480 102 78 34 40
413 533 329 60 19 27
496 458 148 114 77 54
492 468 112 115 18 30
273 374 266 128 98 71
476 446 168 84 40 39
496 470 113 114 18 31
379 489 345 122 17 40
495 471 109 115 15 28
434 542 145 203 13 52
488 478 255 143 10 43
489 476 100 217 31 56
489 477 100 197 40 64
416 454 353 107 81 60
491 479 103 75 35 41
495 475 104 140 29 35
261 754 264 156 113 87
322 840 292 157 122 100
386 444 373 44 28 30
363 926 246 73 68 71
495 477 105 116 41 48
493 467 116 114 20 31
501 504 173 71 30 38
496 468 118 113 22 30
301 364 282 144 103 82
494 466 120 112 22 30
