ply
format ascii 1.0
comment Created by Open3D
element vertex 2220
property double x
property double y
property double z
property uchar red
property uchar green
property uchar blue
end_header
305 909 230 91 81 81
275 619 234 50 35 39
275 624 235 67 35 38
435 593 254 113 74 33
366 860 229 75 66 62
280 619 233 89 34 39
280 624 233 68 35 40
282 618 231 95 28 36
285 619 231 45 36 41
286 624 231 126 24 37
439 605 302 50 29 32
283 620 232 42 35 39
273 626 237 135 25 42
360 854 204 71 62 60
273 629 237 82 31 38
274 608 337 126 24 47
280 629 234 73 34 37
276 634 236 111 24 35
340 789 289 142 106 88
273 639 237 101 27 37
350 654 183 143 104 67
286 629 231 72 28 37
284 629 232 76 30 38
351 629 209 89 60 46
267 532 347 149 17 49
286 634 231 42 34 40
291 578 216 55 36 39
312 542 327 74 47 44
449 539 241 70 21 26
290 579 217 54 37 41
295 579 216 76 36 39
349 639 289 118 20 42
305 644 329 155 18 51
391 724 189 57 42 30
294 581 217 87 38 45
295 589 219 70 35 38
376 512 261 77 27 29
297 582 216 115 34 47
300 582 216 74 33 40
300 585 217 58 36 40
305 583 216 114 30 39
443 842 277 77 59 51
420 601 277 87 32 30
320 874 209 64 58 58
300 589 218 84 34 40
305 585 217 88 34 38
289 595 222 144 21 39
400 520 259 71 10 28
290 599 223 61 35 39
295 594 220 64 34 38
295 599 222 87 34 42
296 597 221 40 35 41
295 604 223 85 32 38
300 594 220 86 32 38
300 598 221 114 22 36
300 600 222 96 25 37
400 704 159 102 77 52
277 896 357 74 61 56
305 594 220 98 32 39
381 790 159 75 60 51
430 839 288 65 50 39
300 604 223 103 26 37
320 679 218 100 21 30
310 579 216 71 33 37
310 585 217 87 29 36
475 594 258 117 83 49
315 584 217 71 33 38
300 859 258 133 98 75
319 578 216 52 34 36
320 579 217 88 30 37
405 529 284 73 16 28
320 584 218 55 34 37
475 558 279 79 28 30
320 589 220 52 33 36
310 599 222 51 36 38
310 604 224 72 32 36
320 593 221 86 33 38
380 884 299 75 66 61
262 837 275 201 141 111
320 595 222 70 34 35
495 604 253 152 105 79
315 604 224 110 28 38
391 573 253 54 30 33
288 606 227 49 37 40
290 610 227 95 29 39
300 609 224 76 36 40
408 531 216 71 29 31
333 518 292 95 47 50
310 609 225 92 29 38
315 609 226 65 31 36
320 604 225 116 26 38
395 867 280 75 62 56
320 609 226 91 31 38
290 614 229 147 14 38
273 799 327 68 56 49
294 614 227 118 25 42
296 613 226 76 31 34
290 624 230 123 17 34
295 619 228 76 32 37
300 614 226 65 35 38
301 514 329 114 48 52
299 616 227 54 35 41
305 614 226 79 36 40
267 856 337 172 154 143
334 889 186 109 87 74
323 917 241 85 77 76
305 617 226 64 34 37
305 619 227 64 33 35
305 624 227 41 36 39
290 629 230 78 30 35
295 629 229 79 32 35
290 634 230 76 36 38
295 639 228 92 25 32
300 629 228 74 30 35
300 639 227 117 13 27
305 634 227 107 17 32
268 731 341 171 22 56
334 690 322 70 27 32
310 614 226 59 35 39
390 550 239 128 24 41
308 617 226 51 33 39
311 616 227 75 41 48
310 624 227 47 34 37
315 613 226 72 30 36
436 526 335 180 24 61
315 615 227 77 25 32
320 614 227 108 22 36
289 898 244 56 52 55
385 593 264 134 21 40
315 619 227 93 29 37
336 925 361 58 51 48
481 617 280 155 100 88
310 629 227 86 27 33
280 644 335 183 9 57
310 639 227 118 13 27
320 639 228 79 25 32
325 519 197 94 26 32
325 529 197 50 35 37
330 909 244 73 65 66
330 514 199 111 21 30
345 724 199 126 87 66
381 572 306 138 13 43
335 519 198 122 14 29
330 524 197 64 31 33
385 744 234 155 109 78
377 726 276 137 45 58
330 529 197 109 23 34
335 524 197 109 17 30
335 529 198 136 6 32
325 534 198 65 35 37
435 529 244 67 23 29
325 539 199 84 32 36
343 632 199 102 78 55
330 534 198 48 33 38
346 910 269 74 66 65
330 539 200 61 34 37
400 879 314 60 50 43
330 542 201 154 21 43
423 601 307 50 31 29
330 544 204 203 9 45
357 653 252 66 32 39
340 514 200 106 19 27
345 519 200 69 27 35
340 524 198 129 7 28
340 529 198 135 5 27
367 688 258 144 18 43
345 524 199 126 14 30
348 798 173 62 51 48
349 514 201 43 38 39
351 518 202 48 30 37
350 529 199 133 7 29
340 534 198 162 3 36
345 534 199 152 6 35
367 884 282 69 59 59
340 588 375 142 82 79
320 634 320 86 29 40
340 539 200 137 16 39
340 544 204 162 18 46
395 759 149 81 64 51
342 541 202 211 18 36
265 640 335 156 18 52
345 541 202 202 19 47
350 538 201 190 19 47
350 540 202 112 22 42
413 542 369 170 22 64
352 520 255 58 40 25
351 524 254 58 37 25
326 540 314 70 58 48
351 527 250 59 34 25
470 574 308 184 15 59
351 527 254 57 35 25
323 547 206 207 11 47
318 737 327 69 54 48
326 546 207 209 9 49
330 546 208 212 9 48
335 546 208 195 13 45
367 867 326 39 34 31
322 551 212 191 0 43
326 550 212 196 1 41
324 558 216 140 3 33
326 559 218 138 2 31
380 709 224 155 105 77
326 556 217 143 0 33
330 547 210 204 7 42
403 614 246 153 103 95
330 550 213 198 3 42
291 750 341 85 53 53
330 553 215 165 0 37
334 552 216 174 0 37
330 555 217 149 0 34
330 559 219 139 2 31
335 559 220 141 1 32
315 519 300 119 12 49
326 588 379 180 117 101
413 531 221 92 16 31
322 564 217 137 4 31
415 528 274 72 19 30
424 552 329 113 26 41
325 564 218 134 5 31
440 574 270 47 29 33
321 569 217 137 7 28
321 574 217 121 20 34
298 831 242 173 125 97
325 574 218 64 30 36
330 564 219 134 3 30
330 569 219 128 9 32
334 564 221 133 1 31
280 774 230 77 60 54
334 569 221 130 3 31
330 574 219 89 22 32
307 523 369 131 13 43
341 829 259 100 74 61
333 574 221 131 8 29
359 622 198 104 83 58
336 574 223 127 9 30
345 545 209 72 30 40
350 545 209 76 34 39
340 548 214 200 3 44
346 546 213 187 16 47
460 616 288 151 37 48
345 548 215 200 6 43
395 638 228 180 117 94
367 588 321 109 21 35
341 550 217 188 0 42
360 694 230 89 72 69
345 550 219 188 3 43
337 560 222 138 0 32
339 558 221 144 0 34
340 559 223 140 1 32
344 553 220 164 0 35
346 555 222 155 0 35
345 559 224 139 1 32
349 548 219 183 8 43
351 546 218 183 11 49
316 859 324 130 102 74
350 554 225 155 1 35
395 602 285 107 11 28
337 564 222 132 0 30
340 564 223 132 2 30
349 558 225 140 1 33
275 604 364 183 122 101
350 559 227 137 3 31
352 556 227 146 3 33
344 570 226 122 9 28
345 568 227 125 7 29
345 574 225 72 24 32
346 565 227 128 5 28
350 569 228 116 10 28
348 571 226 113 12 25
351 573 227 69 27 30
311 532 306 78 57 47
355 514 203 44 36 37
355 518 202 71 31 34
355 520 201 113 19 33
360 519 202 94 24 31
357 527 202 133 2 29
425 889 298 102 85 69
360 527 202 132 3 27
310 574 344 101 20 39
365 514 205 52 32 33
364 512 207 46 36 38
365 519 204 104 19 28
365 529 202 127 9 28
408 596 272 104 4 28
355 534 200 55 31 36
360 534 201 71 28 34
355 537 201 82 29 41
370 569 396 107 28 43
355 539 203 73 35 40
360 542 206 161 34 50
275 863 346 150 111 96
364 533 201 124 17 37
365 535 202 111 18 35
365 542 206 73 26 40
325 894 349 31 30 32
365 544 209 84 39 44
371 513 207 93 19 25
374 519 206 103 17 26
390 834 224 80 70 65
320 931 360 63 55 52
370 524 205 122 8 26
370 529 203 126 12 28
477 569 306 176 16 56
375 525 206 115 13 24
300 899 355 130 103 82
376 523 207 109 16 26
380 519 209 52 34 33
369 803 156 87 63 52
380 523 207 69 32 35
500 564 249 120 22 39
380 525 206 87 24 28
380 529 205 93 27 30
385 524 209 60 35 39
334 587 371 151 93 83
384 526 206 52 41 31
379 515 210 80 27 31
335 794 194 51 46 45
385 514 214 85 20 27
314 719 338 173 2 56
384 520 211 56 34 34
365 918 353 73 62 56
386 518 212 58 33 30
370 534 203 153 6 34
375 534 204 131 14 34
370 543 209 101 39 45
425 600 269 95 40 42
405 604 244 119 79 56
372 541 207 100 33 33
365 553 314 97 13 35
275 884 350 144 104 90
375 543 209 59 35 38
436 554 228 188 11 43
385 539 207 116 31 40
385 543 210 112 39 49
359 633 221 107 73 64
355 520 256 60 37 25
353 527 255 58 35 25
355 545 214 143 30 48
320 879 334 129 99 71
360 545 214 119 31 43
355 549 224 161 17 45
360 545 219 96 30 40
360 546 223 152 34 56
360 547 225 149 24 46
365 546 219 112 39 49
375 545 214 42 34 40
370 546 224 103 34 45
375 546 224 118 31 46
280 814 245 78 61 56
385 545 214 92 39 47
320 564 320 42 29 30
380 546 223 149 36 56
383 546 222 164 46 70
385 547 224 146 34 48
354 553 226 161 4 38
355 554 228 153 6 36
360 559 230 123 7 28
355 659 220 106 83 70
308 705 342 142 3 46
365 547 226 60 31 38
366 551 232 176 15 44
362 558 232 123 5 29
346 687 218 102 92 95
355 564 229 121 6 28
360 564 231 117 6 26
353 576 226 76 26 35
360 574 229 100 18 28
309 952 337 71 67 69
365 566 231 117 6 27
362 563 232 115 6 25
365 563 232 116 8 26
398 752 136 88 67 50
275 604 344 83 35 39
367 575 232 96 20 35
348 719 192 163 117 89
380 543 315 51 33 31
370 548 229 139 23 43
431 537 232 77 27 35
375 547 226 94 31 43
375 550 233 188 2 44
370 554 233 145 4 34
310 514 301 132 13 53
375 689 223 146 93 72
370 559 234 113 8 29
380 547 229 104 26 40
342 906 257 75 67 66
385 548 229 93 26 38
360 567 385 26 25 27
382 551 237 159 9 38
377 556 237 73 27 32
380 559 238 47 33 37
385 554 239 88 26 37
368 566 231 120 5 26
371 569 233 102 20 34
392 835 221 73 64 61
375 564 235 81 28 36
428 601 269 93 55 54
368 572 231 96 22 36
370 574 234 76 24 32
373 572 236 50 26 24
380 564 239 77 29 37
377 566 237 36 33 32
376 571 243 40 29 30
375 574 244 51 28 29
372 576 242 57 28 28
383 562 241 129 28 48
409 749 135 101 78 61
384 564 244 104 18 32
382 566 243 94 17 32
289 749 218 134 11 36
396 730 145 98 70 53
350 784 169 61 49 45
380 569 244 62 23 30
383 567 246 80 15 28
377 574 247 47 32 34
380 574 248 36 28 32
385 574 250 46 28 34
269 567 358 48 25 28
345 634 189 137 103 75
428 536 307 105 24 38
351 631 186 117 93 62
350 639 184 132 101 65
347 635 186 137 106 72
347 639 185 140 107 72
350 634 185 126 97 63
355 628 189 104 86 66
475 599 300 145 22 50
329 854 294 113 91 72
355 631 186 108 88 64
360 628 189 102 85 66
360 626 191 103 86 67
357 658 248 39 31 36
333 849 198 66 58 56
360 639 183 119 91 57
355 634 184 116 91 61
438 908 293 100 82 71
365 629 189 102 84 65
270 834 304 147 103 80
363 631 186 108 87 65
365 634 185 108 86 58
370 630 190 104 86 66
369 635 186 114 89 57
381 779 250 154 118 89
348 882 216 74 65 59
369 639 186 124 93 57
371 639 187 124 93 56
375 639 189 124 93 56
378 636 191 116 89 56
265 814 255 82 64 56
380 639 190 128 96 57
325 589 220 70 34 37
330 579 220 59 32 37
275 514 364 77 29 37
330 584 221 57 34 35
335 579 223 116 17 28
334 585 221 77 30 33
330 589 221 48 34 36
269 946 346 66 60 59
303 841 318 125 101 75
334 588 221 64 30 30
325 599 224 81 32 37
475 559 244 73 26 34
340 579 224 55 30 34
340 584 223 47 34 36
340 589 223 62 34 38
415 538 228 80 26 32
325 604 225 74 34 38
289 769 223 72 57 51
330 604 226 58 33 36
388 882 301 71 60 55
330 608 226 68 35 39
386 734 229 158 111 80
334 607 226 57 36 37
345 589 225 79 32 36
373 893 296 65 58 57
350 584 225 56 31 34
380 594 320 113 21 40
350 589 226 61 30 30
463 806 252 75 57 44
345 594 226 73 29 34
343 598 226 51 30 31
341 600 227 54 34 36
475 805 239 101 80 63
345 599 228 49 32 34
435 554 303 64 27 33
337 605 227 53 31 32
340 604 228 39 33 37
501 588 275 105 20 35
340 609 229 70 32 39
385 540 314 54 35 33
345 604 230 35 31 37
356 779 159 69 54 46
344 608 231 47 32 38
375 552 313 56 26 31
356 869 209 88 74 69
346 596 227 76 33 34
303 587 355 162 99 84
305 784 214 79 62 54
350 594 228 72 26 30
350 599 230 71 28 32
348 603 231 36 32 39
340 855 289 33 30 28
347 606 232 36 28 33
351 600 232 66 25 32
350 604 234 56 30 38
295 524 377 95 27 39
345 629 194 117 90 62
345 630 199 97 76 53
343 638 192 137 105 75
342 635 203 99 74 55
345 634 204 98 70 54
341 639 204 102 71 56
457 537 261 94 6 28
344 638 206 102 71 57
350 627 194 105 86 63
352 626 195 105 86 66
352 626 199 97 77 55
261 816 331 165 124 96
346 630 203 95 70 51
347 635 207 100 69 55
348 632 206 96 67 53
349 634 209 100 66 55
385 838 204 69 58 55
352 634 212 105 70 60
349 639 210 114 79 68
330 891 343 35 33 34
322 611 227 45 30 36
263 766 242 76 60 53
325 614 227 135 18 38
325 619 228 126 24 38
325 624 229 65 33 37
374 859 249 81 68 62
333 623 231 86 28 42
336 621 232 140 41 53
347 666 217 113 87 76
325 629 230 46 32 36
300 789 315 68 52 46
495 589 283 62 30 34
325 634 229 64 34 38
336 630 231 50 32 40
332 626 232 40 29 33
335 634 231 75 31 37
335 639 231 69 31 36
405 899 348 63 50 39
333 632 232 105 22 31
340 624 233 147 25 38
344 619 235 78 37 37
280 514 374 46 27 29
344 624 236 150 22 34
286 790 321 81 64 55
351 610 238 163 23 37
350 614 239 77 39 47
315 564 329 84 18 33
346 624 238 126 16 36
338 512 292 91 61 50
349 619 240 51 37 42
304 749 207 131 18 36
352 615 242 82 42 46
351 624 244 130 17 43
340 629 234 104 28 35
385 735 145 68 53 44
346 629 238 105 10 29
339 639 230 99 26 34
355 608 305 97 35 47
341 634 233 116 27 36
341 639 233 94 35 43
344 639 235 88 24 36
346 634 238 114 11 38
275 669 335 40 29 31
351 634 244 75 21 35
371 602 295 140 20 46
351 639 244 51 28 35
424 609 236 124 93 56
394 768 129 87 72 59
354 579 226 76 28 29
356 579 227 77 24 29
353 584 226 36 32 36
355 584 228 35 30 35
445 541 314 110 18 38
390 524 220 81 28 34
360 579 229 87 23 27
347 734 195 133 96 70
360 584 230 42 29 30
355 589 229 42 29 32
357 591 232 95 28 38
364 875 332 42 37 35
364 579 231 92 21 26
366 579 234 82 19 28
354 532 284 61 45 35
361 585 233 35 28 33
367 581 237 67 23 24
289 689 222 87 28 34
366 584 238 63 23 27
363 588 236 64 27 30
463 559 236 144 21 39
363 859 215 69 60 57
366 591 243 117 20 32
354 594 230 94 23 30
353 598 231 114 24 33
356 595 233 114 24 34
356 600 237 52 24 29
361 595 238 94 14 29
311 569 384 183 132 116
310 704 212 116 16 28
360 599 239 62 25 33
284 800 238 78 62 53
353 603 236 120 35 48
355 604 239 75 26 36
353 608 240 145 24 40
363 593 240 95 17 31
396 779 184 74 58 48
356 609 243 102 27 35
415 553 239 193 1 52
360 604 244 57 30 37
359 609 245 67 26 35
385 878 314 69 59 52
365 594 244 93 22 31
362 600 243 66 29 30
363 737 177 61 49 41
349 592 385 157 92 89
363 598 244 58 26 32
365 839 168 133 103 78
366 595 248 141 20 34
330 702 212 99 23 31
365 599 249 88 27 33
385 863 264 74 62 58
361 609 249 132 26 50
363 607 250 163 26 64
365 604 254 150 20 51
351 729 310 143 23 51
363 608 255 175 11 55
368 578 235 69 16 25
369 579 239 61 24 27
370 584 241 68 24 28
470 538 250 80 27 35
340 684 209 84 58 49
372 579 242 63 23 26
290 859 344 123 92 71
375 584 243 49 28 32
374 587 245 36 32 35
381 578 247 40 28 32
380 584 245 54 28 32
385 578 248 37 30 34
385 580 246 47 29 32
398 537 306 66 30 33
384 583 246 57 30 32
378 587 246 42 32 32
380 588 250 84 32 42
388 718 152 75 60 46
392 749 200 62 44 31
384 819 159 99 79 65
385 585 249 53 31 34
381 590 253 100 33 38
349 843 280 32 29 28
314 884 343 142 108 85
371 595 253 114 23 42
324 952 280 88 82 84
368 597 251 156 19 36
373 592 251 102 24 35
375 594 254 121 25 39
350 574 370 142 74 75
373 597 256 134 22 48
361 621 200 104 83 57
418 730 149 91 69 52
361 620 204 95 74 50
358 622 204 90 69 45
359 623 209 84 60 40
365 624 194 102 85 65
366 622 197 106 86 62
385 794 179 84 64 53
387 591 262 153 21 38
354 894 264 75 65 63
359 624 214 84 54 40
375 545 317 50 30 30
367 616 214 94 70 44
365 619 219 77 44 34
362 624 218 80 46 36
365 624 223 80 43 36
366 620 223 76 36 32
410 602 232 108 81 43
376 901 324 73 63 61
354 627 193 104 87 68
364 684 254 154 19 46
358 577 376 156 92 90
356 625 195 105 86 66
353 627 210 87 59 43
367 627 192 98 83 67
357 639 222 143 116 107
355 629 213 92 59 48
317 561 324 54 23 31
352 630 212 93 59 49
316 564 393 145 110 94
357 631 218 100 64 58
354 634 215 106 72 62
478 594 257 119 83 50
305 914 368 51 46 45
355 639 219 142 114 105
360 634 222 100 63 55
258 832 312 41 35 33
285 584 370 185 131 111
347 621 286 98 19 37
360 639 223 115 81 70
326 950 329 63 58 58
365 634 224 105 66 55
370 615 209 105 79 48
370 616 206 107 82 51
374 616 205 106 85 59
426 546 311 137 30 56
375 745 145 66 52 41
374 621 201 102 85 66
370 618 203 107 84 56
376 622 202 103 86 67
385 614 209 103 84 62
390 549 319 63 26 32
334 840 278 135 105 81
380 624 199 100 83 65
385 624 200 103 85 63
319 734 328 43 29 32
329 923 260 72 65 67
380 618 204 103 85 65
380 615 209 105 85 60
379 617 207 105 86 64
380 621 201 99 83 65
385 619 203 99 82 63
378 852 236 79 67 62
340 537 299 63 52 42
382 616 206 104 86 64
385 616 206 99 83 64
505 579 249 179 126 109
375 613 219 94 67 42
300 604 335 159 21 53
372 616 222 76 39 31
375 614 224 81 44 34
369 617 220 76 42 32
370 619 223 79 38 32
381 744 244 124 91 61
477 798 236 102 82 61
351 704 185 150 106 73
359 664 249 72 29 37
380 611 215 106 83 54
385 612 212 106 84 58
380 610 219 103 77 48
289 813 313 94 67 56
381 610 224 98 67 44
279 754 227 88 46 49
378 612 220 97 69 44
385 608 224 104 74 47
375 629 194 106 87 64
373 626 196 101 86 70
267 669 236 73 29 33
376 627 198 104 86 67
312 961 321 90 88 90
385 629 199 109 87 60
383 630 196 111 88 58
380 634 193 115 89 57
327 843 295 116 89 67
384 634 195 120 93 57
313 851 319 125 99 71
325 623 329 61 28 36
300 834 309 109 87 63
318 645 322 89 28 39
381 638 192 126 95 56
385 639 194 139 100 63
355 614 244 124 32 44
370 569 309 136 12 43
296 589 340 52 25 29
358 613 246 124 29 45
359 614 249 161 26 55
354 619 245 148 24 48
353 623 245 164 23 55
354 624 249 163 20 49
334 708 322 107 31 44
365 874 330 43 38 35
357 616 247 164 27 54
358 618 249 180 20 55
369 863 239 83 70 65
356 624 254 154 19 45
357 620 254 175 18 55
354 629 249 130 21 46
266 818 255 78 61 55
356 629 254 165 20 53
352 634 247 87 29 41
307 881 239 50 47 51
352 637 247 117 34 52
353 640 246 48 28 35
355 639 254 84 31 44
370 624 225 90 51 43
375 618 226 91 46 40
376 621 228 101 56 49
279 795 238 76 60 53
480 832 235 105 92 80
372 625 227 99 59 49
279 813 317 61 50 43
373 622 226 97 53 45
382 611 227 97 61 44
385 610 229 102 64 48
384 614 229 103 54 50
378 618 226 99 53 50
380 619 229 107 59 55
379 624 231 115 68 61
381 624 232 121 73 66
385 619 234 120 70 64
323 896 202 88 72 64
370 629 227 103 62 53
375 629 229 115 70 60
375 639 225 131 85 69
377 745 266 86 68 58
284 840 257 181 124 99
380 629 230 129 82 71
377 794 251 154 120 94
380 634 229 140 91 76
385 634 230 151 99 82
311 634 326 113 33 49
345 514 284 77 57 40
385 638 228 160 104 84
265 644 240 62 29 33
265 649 239 118 16 33
270 644 238 64 30 34
269 649 237 94 24 33
271 650 236 87 27 31
264 755 237 74 56 52
374 714 298 179 17 57
370 744 163 57 48 42
271 654 236 52 35 40
268 654 237 68 36 39
295 836 314 99 79 57
263 642 242 93 15 26
262 649 241 130 9 32
265 659 238 65 32 33
265 664 238 68 33 36
317 857 316 132 102 73
267 664 236 49 35 35
270 669 234 60 33 36
340 549 349 64 35 31
261 659 241 95 27 32
258 664 242 72 26 31
275 649 235 89 29 33
289 961 321 70 67 68
280 644 233 69 30 36
275 654 234 55 34 36
286 644 231 128 16 36
285 649 230 109 15 30
430 902 308 88 70 56
285 654 230 58 31 36
307 814 220 82 65 57
277 664 231 42 34 39
275 659 233 52 36 38
275 664 232 50 34 38
279 658 232 46 34 38
426 850 273 74 59 56
276 670 231 56 35 37
308 807 302 148 101 78
380 674 199 131 91 59
280 669 230 47 35 36
291 854 260 171 123 93
285 659 229 60 31 34
285 664 229 53 35 37
340 669 199 140 102 77
391 740 135 81 59 47
285 669 228 49 35 37
415 524 237 70 14 29
385 550 379 85 7 29
285 694 223 130 10 32
475 514 229 125 19 41
280 704 225 84 25 34
287 704 221 131 11 35
260 679 239 121 9 30
264 674 237 125 10 29
260 684 238 124 9 29
259 689 238 129 6 31
480 573 250 56 35 36
287 889 260 60 55 54
466 559 238 119 29 37
455 554 235 147 15 37
265 689 234 56 33 36
262 686 236 106 16 33
266 674 236 116 17 31
271 689 231 56 33 32
269 684 233 107 18 30
277 840 299 102 70 56
268 688 232 56 35 35
257 675 241 123 6 28
265 694 233 88 28 36
375 779 259 76 61 54
258 699 237 103 26 35
260 704 235 89 26 36
258 704 237 90 29 38
264 699 233 89 28 36
405 734 131 106 74 53
264 704 233 74 34 39
268 692 232 56 40 41
505 609 253 121 87 63
267 699 231 75 27 32
331 915 253 77 69 68
388 846 250 76 68 63
267 704 231 62 30 34
390 848 314 40 35 33
270 699 229 117 20 33
499 592 252 118 91 61
300 744 340 153 23 55
420 616 304 78 38 43
270 704 229 116 21 35
267 611 342 62 19 22
276 674 231 121 17 32
400 545 213 151 33 49
280 679 228 113 17 31
274 674 232 126 15 32
273 679 232 122 15 30
370 527 280 62 48 37
355 824 168 81 63 55
275 689 228 99 23 32
383 701 179 82 64 52
279 688 227 106 22 30
286 674 226 43 34 38
281 685 226 118 11 29
454 535 264 88 8 27
281 689 226 115 17 33
275 694 228 123 16 33
455 569 305 160 20 52
278 692 227 129 11 34
274 704 227 122 13 32
280 699 225 130 11 32
276 704 226 133 18 36
398 532 223 72 32 36
295 669 224 74 35 37
300 669 222 51 35 36
307 666 221 108 16 22
293 780 222 74 59 53
310 666 221 112 15 25
338 892 190 116 101 95
310 669 220 100 20 30
315 664 222 110 12 26
262 706 342 34 28 31
425 588 262 110 39 32
320 659 223 98 16 26
320 664 222 106 13 25
315 669 220 93 19 29
298 707 217 124 17 31
411 545 235 116 25 39
318 666 221 107 10 28
320 669 221 100 19 28
340 679 204 125 90 73
290 644 229 129 13 32
290 649 229 125 11 30
390 705 169 86 71 57
350 564 394 127 92 77
295 649 227 122 12 29
294 654 227 119 14 29
293 658 227 123 14 30
394 873 294 70 58 56
300 644 227 99 21 30
298 648 227 108 22 33
305 643 227 109 14 26
302 646 226 90 24 30
366 799 260 75 57 50
305 649 226 74 27 29
312 565 387 161 122 104
291 789 226 78 61 55
297 651 226 108 16 30
300 654 225 101 22 29
290 659 228 110 21 31
289 664 227 58 35 37
295 659 226 89 27 32
363 695 240 148 18 46
351 929 304 68 61 58
292 660 226 83 26 28
289 668 227 49 37 39
291 669 226 45 35 35
310 643 227 117 14 26
310 654 224 46 34 36
315 643 227 89 23 29
325 614 334 64 24 33
315 649 226 100 21 28
320 650 226 103 16 27
376 799 159 82 63 52
321 648 227 114 13 26
315 654 225 72 28 31
320 654 225 97 17 27
460 562 236 166 20 46
357 880 243 78 68 65
290 679 224 42 34 38
295 674 223 48 36 36
290 684 223 68 34 36
375 644 223 137 88 69
292 686 221 48 34 34
291 689 221 50 37 39
293 683 222 93 35 37
296 680 221 54 37 36
295 689 220 76 29 35
300 674 222 50 36 38
302 675 221 44 33 34
305 679 219 69 35 36
300 689 218 107 22 31
293 892 252 49 47 51
285 709 222 116 19 35
305 684 218 52 34 37
412 624 222 175 120 90
304 688 217 96 24 32
430 840 258 78 60 47
338 902 246 79 69 69
290 694 221 108 22 35
288 694 222 105 17 32
269 840 273 192 129 100
295 694 219 108 20 31
318 779 307 74 57 50
290 699 220 128 12 31
293 592 351 135 82 73
295 704 218 121 17 33
305 694 215 112 20 29
316 533 333 74 44 42
303 692 217 106 14 25
305 962 281 63 59 60
390 539 208 92 34 39
300 699 216 113 20 31
341 669 209 101 72 61
305 699 215 106 20 29
300 704 216 122 16 30
305 704 214 115 18 31
298 699 217 116 19 33
298 704 217 122 18 31
310 674 220 48 37 39
310 683 217 88 25 32
317 793 211 80 61 55
310 686 216 110 14 27
310 689 216 114 18 27
375 644 188 130 96 57
416 617 307 103 34 48
315 679 218 55 30 35
475 543 255 106 13 36
315 689 215 104 20 30
270 843 284 180 122 94
320 689 215 94 23 30
310 694 214 107 20 28
310 699 213 107 20 30
379 779 140 93 71 54
315 694 214 102 22 29
315 699 213 98 24 31
347 926 320 66 59 57
309 825 232 47 42 48
315 704 211 105 25 31
320 704 211 51 35 38
290 674 225 39 35 39
287 709 221 139 12 34
306 528 376 137 20 44
284 719 223 103 24 36
465 815 252 96 79 66
287 719 221 119 20 37
353 691 312 132 14 41
284 724 223 92 34 41
287 730 221 48 34 38
260 709 235 129 10 35
351 609 326 179 0 56
258 709 237 127 7 33
353 887 244 75 65 65
260 719 234 142 3 34
390 547 219 55 36 40
264 714 232 138 8 37
267 709 231 120 15 35
257 724 236 139 11 37
260 729 235 93 26 35
257 729 236 105 22 39
264 724 232 144 5 36
351 562 380 67 26 26
265 729 233 139 13 39
260 734 235 97 29 36
265 734 233 94 28 38
266 724 231 145 10 36
267 729 231 116 21 39
347 663 300 88 19 39
270 724 229 82 28 39
270 729 230 48 34 39
274 709 227 59 34 36
276 709 226 66 29 34
280 709 225 81 31 37
358 872 226 80 70 65
274 719 227 52 34 37
276 714 226 40 37 40
276 719 226 58 33 36
408 832 284 41 36 33
280 719 225 87 30 37
397 789 235 153 115 87
276 724 226 76 30 36
380 528 284 64 46 39
280 724 225 87 32 38
277 729 226 68 32 38
382 791 172 74 57 49
280 729 225 79 32 36
275 734 228 124 17 39
280 734 225 138 9 37
410 849 265 75 61 57
284 744 223 136 4 36
280 744 225 139 2 35
281 749 225 140 5 37
286 749 220 133 10 36
284 754 223 81 48 49
395 547 384 89 10 31
285 759 224 73 57 51
285 764 224 73 59 51
258 739 237 89 31 40
445 519 238 106 18 34
355 840 279 34 31 30
347 704 190 158 113 84
265 739 233 81 31 38
261 744 236 47 35 41
279 525 351 94 17 34
440 930 326 105 84 70
259 749 237 100 33 42
261 749 236 83 31 36
288 869 267 147 112 82
270 739 230 148 9 36
271 744 231 148 7 37
268 739 232 144 14 40
271 749 231 143 10 36
272 752 231 144 20 43
269 574 350 58 20 26
270 754 233 101 44 49
380 669 209 153 101 71
335 564 316 42 28 30
270 759 235 76 59 52
370 910 333 104 95 91
266 769 241 77 60 52
268 761 237 78 60 52
367 772 146 77 59 48
269 764 238 76 60 51
272 769 235 76 60 53
317 726 331 178 18 59
269 769 238 77 60 52
257 757 241 74 59 52
260 764 243 74 59 52
261 763 241 75 58 52
264 770 242 76 60 52
293 539 351 115 9 37
275 744 228 143 4 36
400 799 219 104 73 58
278 740 227 143 3 36
278 744 227 143 3 36
275 749 229 139 7 36
278 749 227 139 6 36
276 758 230 73 57 52
320 854 309 141 110 85
273 755 232 72 52 49
274 759 233 75 59 52
280 764 229 74 60 51
479 574 303 169 10 52
277 769 231 77 61 53
274 764 233 78 61 53
290 594 364 184 121 100
282 758 226 72 57 50
283 766 228 74 60 51
305 759 325 87 66 55
297 766 326 86 66 55
284 769 228 74 59 51
294 709 217 87 26 33
296 710 216 118 21 31
414 553 337 61 28 32
296 714 215 74 34 36
290 714 219 106 26 38
290 719 219 135 11 35
382 688 216 153 103 74
386 764 244 153 114 81
294 714 217 80 30 34
356 919 299 75 66 66
311 528 369 128 14 42
305 709 213 79 28 33
304 714 212 88 29 34
305 719 211 91 25 32
290 724 219 111 21 36
293 724 217 135 14 40
333 674 317 63 29 35
290 734 218 103 23 37
301 725 211 87 29 36
302 720 211 41 32 36
305 724 210 57 35 37
301 729 211 111 21 32
300 734 210 83 25 32
298 734 212 62 31 36
305 734 208 103 25 32
312 706 211 114 16 28
309 708 212 110 23 32
306 715 211 88 26 30
315 709 210 91 25 30
320 709 210 56 37 37
310 724 208 47 36 40
310 734 207 61 34 37
374 823 165 88 63 45
315 724 207 89 27 32
319 723 207 70 30 34
320 724 206 78 33 35
320 729 205 76 32 36
315 734 205 45 36 39
313 732 207 48 38 42
320 734 204 80 30 33
399 732 138 96 66 47
295 739 214 68 29 36
292 740 216 130 12 37
289 739 218 127 11 34
378 813 169 94 73 56
289 744 218 131 7 34
375 714 254 134 23 45
410 909 339 91 73 60
291 749 216 132 9 34
295 749 214 134 10 36
300 739 210 126 15 33
300 744 210 133 6 35
298 741 212 124 15 41
298 744 212 136 9 37
300 749 210 136 12 38
391 849 254 67 57 53
298 748 212 137 7 36
292 754 216 95 46 47
295 754 214 86 47 50
290 759 219 72 57 51
293 760 217 70 56 51
382 823 205 71 59 56
290 764 220 71 57 51
396 769 204 83 59 43
288 764 222 73 59 52
291 768 220 70 57 50
300 754 210 81 49 48
454 540 274 86 31 34
301 758 211 69 55 49
300 764 213 69 57 50
297 768 216 72 57 52
300 769 214 73 59 51
294 926 247 91 82 81
305 769 209 71 57 51
307 740 206 52 34 33
371 688 269 114 11 36
379 649 190 149 102 69
345 604 328 195 0 61
415 914 334 113 91 74
309 738 207 54 32 37
337 926 349 54 48 46
310 744 205 82 32 34
336 864 196 72 61 58
279 819 247 49 44 48
370 554 384 58 21 28
306 749 206 124 24 38
315 739 205 68 33 36
315 744 203 83 30 33
352 643 243 39 25 35
315 749 202 83 34 38
318 747 202 63 37 41
306 754 206 79 49 47
307 758 206 68 52 48
420 584 298 83 23 35
310 754 204 74 49 48
307 765 206 68 56 50
307 767 206 68 56 49
355 545 323 58 34 31
314 754 202 66 48 47
305 809 224 83 65 56
315 759 202 65 54 48
317 754 201 66 48 46
305 704 344 140 4 44
315 764 203 69 57 50
318 761 202 66 55 48
320 764 200 68 56 49
327 745 311 85 65 55
318 764 202 69 57 50
320 769 200 72 58 50
355 565 389 62 32 32
342 640 191 142 108 77
282 788 231 78 61 55
342 644 191 142 105 76
344 644 189 143 105 74
344 649 188 142 103 73
332 901 233 76 67 64
342 649 191 141 103 74
327 881 196 141 119 102
344 654 188 144 106 73
344 938 313 58 50 46
347 644 185 141 105 69
344 664 189 144 104 72
344 669 189 147 106 74
350 659 183 144 103 67
324 582 360 164 101 89
350 664 183 146 104 68
346 669 185 146 104 69
350 674 183 141 100 64
372 698 258 145 18 43
448 578 272 60 24 37
295 759 330 89 69 59
395 534 299 68 28 33
346 674 185 145 104 68
350 684 184 138 100 63
304 851 337 135 109 80
347 689 186 150 108 74
415 594 268 119 29 25
350 689 184 142 101 67
347 694 186 153 110 76
350 694 185 145 103 69
384 718 159 78 61 45
346 699 189 158 112 82
348 700 187 155 111 78
355 644 182 124 93 57
355 649 182 127 94 57
360 644 182 128 94 55
360 649 182 128 92 55
291 838 251 180 124 99
355 654 182 131 96 58
399 804 220 98 72 59
348 590 396 166 119 109
360 654 182 126 92 54
365 644 183 129 95 56
365 654 183 128 93 56
355 659 182 132 96 58
345 619 319 77 22 34
360 659 182 128 93 55
360 669 183 129 93 55
365 659 183 129 94 56
280 865 348 127 101 80
365 664 183 129 94 57
470 589 304 109 28 44
370 644 185 126 93 55
434 547 329 189 13 60
372 643 187 126 93 55
370 649 185 133 96 59
374 646 186 131 96 56
373 649 186 136 97 60
370 654 185 135 96 60
378 653 191 148 101 70
370 659 185 134 95 60
365 619 319 144 27 50
369 664 185 131 94 57
374 664 190 132 93 60
371 669 188 125 92 56
282 928 250 83 74 71
378 657 191 144 99 68
355 674 183 134 95 59
360 679 183 128 92 55
355 684 183 130 95 57
360 684 183 126 92 55
378 713 167 93 72 53
360 689 183 124 91 54
365 674 184 126 91 54
333 789 198 60 49 47
365 679 184 125 90 53
365 684 184 122 89 52
264 848 303 135 105 80
365 689 184 119 88 51
358 622 273 187 5 59
428 855 273 78 63 57
355 694 183 130 94 60
360 694 183 123 90 54
355 704 183 135 98 63
360 699 183 124 91 55
363 703 182 113 84 53
365 704 179 97 73 45
405 539 314 77 30 33
366 701 181 99 75 46
371 674 188 121 89 55
319 952 275 87 82 83
369 679 186 121 90 54
371 679 188 117 88 53
475 575 259 77 32 40
374 679 190 115 87 54
369 689 185 112 85 51
372 689 187 111 85 54
374 684 190 111 85 54
375 689 189 108 83 54
370 705 170 106 79 52
387 728 221 154 107 72
375 701 171 114 82 47
336 940 324 55 49 47
374 702 174 102 74 51
412 540 335 132 23 46
380 705 170 127 97 72
343 551 350 67 30 29
400 526 277 74 13 29
385 704 174 106 83 71
340 862 315 34 32 31
370 694 185 107 82 50
470 797 244 89 70 52
375 694 189 106 82 53
361 704 311 99 26 42
472 796 244 92 72 53
373 696 186 108 82 52
371 702 182 98 74 47
385 549 318 51 26 31
375 700 179 116 83 60
373 702 179 99 73 46
347 694 316 45 27 30
376 698 188 106 81 54
380 700 179 91 68 56
500 558 244 82 27 35
380 700 184 85 63 48
341 849 190 83 67 60
384 701 176 94 71 58
374 598 259 141 22 44
383 701 182 73 61 51
385 704 184 67 57 47
325 659 224 89 21 29
325 664 222 99 17 29
260 838 289 91 75 69
330 664 223 56 32 33
335 659 224 45 34 34
338 555 341 122 25 40
368 602 256 62 26 29
335 664 223 41 34 35
330 669 222 61 32 34
328 670 221 61 33 34
335 669 223 47 34 34
340 644 199 141 108 80
341 649 194 142 105 76
340 649 199 142 105 79
345 644 209 123 89 79
325 744 314 90 68 59
341 654 194 143 105 76
340 654 199 140 103 77
355 684 229 63 54 58
339 654 204 124 86 71
341 654 208 119 84 74
345 649 210 128 95 84
344 654 210 125 92 81
362 610 259 179 4 57
348 643 211 128 96 86
350 644 213 132 102 90
348 648 211 131 100 90
350 649 213 136 106 96
347 650 212 130 99 88
346 654 213 126 95 85
349 654 215 146 116 104
351 655 217 148 127 112
342 664 195 146 106 78
339 659 204 124 86 70
341 664 209 105 73 63
343 659 211 117 85 76
343 662 211 109 79 69
345 664 214 114 86 76
387 740 190 49 37 32
340 659 224 65 29 34
340 664 223 51 31 33
320 530 349 67 38 30
345 669 214 103 78 68
341 668 222 58 35 37
467 810 244 93 74 62
296 518 306 130 9 51
345 669 224 57 40 42
490 569 249 65 29 31
350 664 218 109 85 72
325 644 228 75 28 32
395 604 317 121 25 46
325 649 227 89 22 28
330 644 230 93 25 31
335 644 229 63 31 36
330 653 227 53 33 36
306 810 301 147 99 77
360 659 220 104 71 57
334 653 227 59 34 35
468 808 252 88 70 52
330 659 225 44 34 36
340 648 228 67 32 34
395 828 214 74 63 59
505 584 265 119 14 39
440 614 303 73 30 37
342 643 233 72 33 36
425 928 338 103 83 72
345 644 234 71 29 37
337 651 226 54 33 30
340 654 225 67 30 31
342 652 227 72 31 32
345 654 229 61 32 37
387 786 173 74 58 49
343 656 226 59 29 32
346 649 233 61 28 37
295 739 345 68 27 36
510 631 264 190 18 50
350 644 239 41 28 32
351 648 238 49 30 35
390 536 304 59 33 33
347 653 232 60 35 41
343 658 226 41 33 37
315 754 320 89 69 59
290 623 341 86 25 37
345 659 229 73 28 38
343 665 225 38 34 37
367 556 361 83 15 31
398 802 216 102 76 64
348 660 231 85 17 34
359 888 264 70 60 59
347 657 232 94 26 44
266 804 331 136 111 87
350 669 230 35 28 33
348 671 226 67 35 40
352 668 232 36 27 30
294 529 312 95 47 44
325 679 218 93 21 31
325 683 217 107 15 25
325 685 216 106 12 24
325 689 215 100 17 28
330 675 220 59 33 36
330 679 219 50 32 36
275 934 360 49 46 46
334 673 222 48 32 34
336 674 220 49 32 35
289 568 370 126 100 80
336 684 215 40 33 37
330 689 216 102 18 28
334 683 217 39 35 36
321 701 211 71 26 32
376 860 254 81 68 60
324 701 211 89 29 43
400 557 297 160 13 50
327 702 212 92 30 39
330 704 210 80 25 33
271 513 359 56 26 31
335 699 213 84 25 28
378 762 262 38 35 36
343 674 192 151 110 79
340 674 199 143 103 79
276 551 362 100 21 39
359 680 235 49 39 46
342 679 195 152 110 82
343 679 192 153 111 82
340 679 199 145 105 80
340 674 204 125 91 73
378 720 260 164 17 47
341 674 209 97 70 58
340 679 209 90 64 54
344 689 193 158 114 85
341 689 199 150 109 84
340 684 204 125 90 72
340 689 209 73 50 44
331 566 347 146 17 45
340 679 215 62 42 39
300 950 268 98 92 95
342 674 212 80 57 49
483 569 297 156 11 49
344 674 214 87 65 57
344 679 214 78 59 55
341 679 217 89 60 56
345 675 220 100 71 66
345 679 219 96 76 75
340 684 214 63 50 48
342 901 252 73 64 65
340 689 214 68 51 51
344 684 215 83 69 67
350 674 219 92 72 64
349 674 225 72 52 50
336 939 279 77 69 69
350 679 224 103 93 92
347 682 222 105 95 98
349 684 220 102 93 95
341 694 199 153 111 86
263 889 346 173 134 116
342 693 196 159 114 87
344 699 194 159 114 86
342 699 199 150 109 85
343 699 197 157 113 87
344 704 194 158 114 87
343 704 197 154 110 86
339 699 209 85 35 33
341 699 204 120 86 68
395 573 300 149 10 47
338 693 213 71 23 28
338 698 212 92 20 24
337 700 211 91 22 24
410 544 317 114 26 41
351 674 229 39 29 34
352 679 228 71 55 57
354 644 215 141 111 101
354 648 215 153 124 112
302 941 351 74 74 77
340 545 364 56 37 29
380 584 315 61 27 32
356 643 218 158 130 120
415 919 344 97 76 60
359 645 220 157 126 114
361 643 222 125 91 78
355 654 218 126 101 84
331 774 196 62 51 47
360 654 219 110 76 61
395 619 240 142 92 84
365 643 222 114 76 61
393 819 224 77 65 57
365 646 221 119 80 63
355 664 221 99 76 61
331 940 273 86 78 77
360 663 221 103 70 55
353 667 221 93 71 58
355 669 222 86 65 52
360 669 222 97 69 54
365 664 220 120 75 60
363 666 222 111 71 58
363 667 222 111 71 59
362 670 221 108 71 57
382 646 192 158 109 75
384 648 195 174 114 86
380 654 194 161 108 78
285 664 336 112 27 45
385 649 199 186 121 94
321 714 330 172 15 55
384 653 204 180 119 90
381 655 209 167 112 86
480 569 245 47 37 39
384 653 209 177 116 91
370 643 222 125 81 64
370 649 218 134 85 67
290 584 369 188 128 108
327 839 210 60 55 55
360 909 319 66 58 61
351 804 164 67 57 54
370 645 221 130 85 67
375 649 219 144 91 73
357 875 234 68 59 55
375 654 214 153 98 76
403 706 164 77 63 48
369 654 217 141 87 71
376 651 216 152 97 77
374 652 217 147 92 75
386 833 235 90 78 71
445 617 294 81 42 46
380 648 219 156 99 78
386 646 221 168 109 85
380 651 216 162 103 81
380 653 213 162 104 82
376 664 193 131 91 61
377 660 192 137 94 62
476 553 293 71 20 23
380 664 199 145 97 66
380 659 204 160 105 78
379 664 209 158 104 76
518 607 264 186 132 118
380 669 199 136 93 62
415 605 284 100 22 32
262 861 325 120 69 69
380 669 204 148 99 67
375 664 214 157 100 78
376 669 214 155 101 76
370 669 220 138 85 67
377 659 211 154 98 77
377 663 211 159 104 81
374 743 149 63 51 41
378 666 212 159 105 78
378 670 212 155 102 75
354 649 240 55 26 33
353 656 236 27 30 34
353 644 244 38 29 33
355 644 249 38 31 36
361 874 244 80 69 64
355 649 244 53 28 35
356 649 249 65 31 39
330 536 304 64 54 44
358 656 250 43 33 36
277 790 326 79 61 52
386 734 204 124 86 53
354 669 234 35 29 33
357 669 239 40 29 35
356 659 244 40 30 35
358 659 249 66 34 39
357 663 243 55 29 37
358 665 245 90 34 44
360 664 254 105 28 43
359 669 244 51 30 35
345 565 313 108 21 41
355 684 225 85 79 80
354 689 225 91 87 89
365 673 221 120 73 62
365 675 222 116 72 60
360 679 225 80 56 47
345 849 184 89 70 61
374 824 254 38 33 29
365 679 224 113 70 59
265 524 349 54 23 29
376 674 193 118 87 55
376 679 193 113 87 54
379 674 195 122 87 56
381 674 204 142 95 65
381 674 209 148 99 68
470 554 313 114 31 46
382 837 251 60 49 42
382 679 209 147 99 66
381 689 199 127 91 59
360 514 260 61 42 24
382 683 203 137 96 62
415 525 259 64 19 33
383 684 204 141 97 63
383 681 206 143 98 63
310 534 308 72 58 45
383 681 208 146 99 66
383 684 209 147 100 67
383 689 204 140 97 65
370 674 220 137 83 67
262 928 271 73 65 66
369 676 222 130 78 63
374 681 222 144 90 72
375 684 223 145 91 72
476 814 231 104 84 66
310 929 249 97 88 89
376 683 220 152 99 76
420 606 287 100 20 33
379 674 214 151 100 72
293 531 369 97 27 40
378 679 217 153 99 77
382 682 211 149 102 70
283 856 272 193 142 105
381 684 214 152 101 72
384 689 209 147 101 67
308 514 302 134 13 53
380 689 219 155 102 76
377 692 192 108 83 54
382 694 199 126 89 58
286 884 265 80 69 61
384 694 204 139 95 63
382 699 198 122 87 57
382 704 198 118 84 55
384 699 204 136 93 62
294 832 306 100 73 48
400 543 211 82 30 37
375 694 224 146 92 73
382 694 216 154 104 74
378 691 222 153 99 75
384 699 214 153 104 72
379 699 224 154 100 77
384 704 219 156 106 75
380 704 224 155 102 77
382 702 221 157 105 77
354 680 230 48 35 40
390 825 194 80 63 58
274 843 336 149 109 89
356 679 233 70 36 41
358 674 239 77 26 36
360 689 234 87 28 37
365 684 226 110 69 58
355 874 334 41 36 34
364 690 227 101 62 54
329 939 269 83 75 75
361 684 239 126 23 44
361 689 239 146 19 47
360 674 244 120 23 43
361 679 244 152 19 45
420 608 290 77 22 30
272 846 337 125 59 59
362 674 253 106 32 45
456 605 263 169 108 77
402 849 267 83 64 68
363 679 254 158 20 46
362 684 244 152 19 48
341 759 300 87 65 55
362 683 248 153 18 45
362 689 243 151 21 48
363 684 249 154 19 45
395 560 344 155 22 53
363 690 245 153 20 47
365 689 254 149 18 45
280 784 328 90 70 59
482 567 269 82 11 28
265 840 279 199 136 105
357 693 227 85 77 75
384 559 398 180 18 58
365 694 229 105 58 52
363 728 302 190 11 60
361 694 234 110 30 41
362 693 238 148 19 47
316 961 288 92 87 88
362 697 231 100 57 51
359 512 262 63 44 24
366 698 230 118 57 56
358 912 317 66 58 59
367 704 231 105 59 57
325 599 334 159 22 55
363 696 234 114 26 39
365 699 239 129 14 41
374 728 163 60 48 36
366 704 234 95 35 41
260 572 353 67 15 27
260 832 309 41 31 31
362 692 242 151 19 49
366 698 243 121 14 37
277 686 342 79 29 37
370 689 225 130 78 65
368 691 227 121 71 59
371 694 226 133 81 66
370 704 230 124 72 62
515 619 259 168 103 96
372 697 226 137 84 67
395 764 139 94 77 60
375 704 228 142 89 70
377 702 226 148 95 75
378 704 227 148 96 74
472 828 238 97 80 69
259 864 298 146 111 82
369 694 254 117 7 33
368 700 245 135 16 42
368 705 240 138 18 43
265 889 348 157 121 102
369 704 244 145 20 46
430 534 299 75 9 29
371 704 249 147 18 46
373 701 256 146 18 47
372 703 253 149 19 48
388 810 186 81 65 57
347 709 190 158 113 84
349 709 188 155 110 79
351 709 185 150 106 72
352 714 186 152 107 75
406 540 359 110 16 37
350 724 189 160 115 84
351 734 189 156 115 83
341 750 191 96 73 46
345 749 190 88 67 42
446 553 307 35 26 27
350 749 189 103 77 52
263 951 299 74 70 71
385 594 319 91 24 37
352 750 185 76 59 46
352 765 170 55 47 44
465 614 295 110 28 45
349 769 174 51 44 41
340 754 191 100 75 46
511 632 272 53 24 32
341 759 191 99 73 45
345 754 189 80 61 41
345 764 184 57 46 41
341 769 190 87 62 46
350 754 184 59 47 39
339 622 328 184 18 62
350 759 179 58 48 43
349 758 183 55 45 40
347 760 185 56 45 39
346 769 180 51 44 42
349 764 179 51 43 42
362 714 181 99 76 51
280 837 304 79 60 48
348 762 182 54 43 43
354 884 234 71 65 62
375 734 159 57 46 40
380 724 159 67 53 42
270 819 253 64 52 51
379 729 158 60 49 41
325 622 324 67 29 36
355 584 324 153 9 49
382 720 160 76 60 45
383 722 157 68 52 41
382 726 156 63 51 43
381 734 149 67 54 46
384 733 148 70 55 45
387 566 386 154 28 60
376 730 160 60 49 40
309 773 317 83 62 52
494 824 223 93 81 70
358 907 286 82 74 71
377 735 155 61 51 43
342 785 185 62 52 48
260 945 319 76 70 70
455 574 269 50 30 35
379 734 154 61 49 42
366 705 175 90 68 42
430 534 294 73 10 29
501 628 274 136 28 49
366 709 174 81 63 42
366 714 171 83 62 40
355 709 183 138 99 64
295 874 356 171 124 101
360 709 182 124 91 57
308 882 218 62 59 61
355 714 184 141 102 67
355 719 185 142 103 69
359 719 183 119 88 57
362 710 180 107 80 52
363 714 178 87 68 48
366 723 175 73 57 42
366 734 169 60 48 40
366 730 175 65 51 40
425 549 324 152 19 49
365 734 174 60 48 40
359 724 183 110 82 54
376 773 135 95 71 57
355 724 185 141 103 69
286 957 328 72 69 69
359 729 182 97 72 47
352 724 186 153 111 77
365 724 178 83 66 49
364 734 178 67 53 42
356 615 285 116 20 46
362 734 180 66 51 41
290 955 334 61 57 55
370 709 170 105 79 53
375 714 168 91 69 47
370 719 170 74 56 40
381 711 166 86 65 44
385 708 168 105 81 64
386 706 170 115 91 75
380 714 166 92 69 48
376 720 166 88 65 46
380 719 164 90 67 49
385 714 163 93 73 54
400 840 274 67 58 52
369 759 274 95 76 69
384 717 162 86 65 49
382 708 191 97 74 54
385 709 189 80 62 47
370 724 169 68 52 39
420 589 264 110 30 30
372 726 166 75 56 43
371 730 165 61 48 39
368 725 174 68 52 39
368 728 174 63 49 38
368 732 168 64 51 42
364 878 264 62 53 55
386 766 145 87 72 61
379 723 163 74 56 43
420 594 304 86 23 35
367 751 149 61 49 41
367 750 155 55 45 39
357 760 160 58 48 42
357 764 160 66 52 44
358 769 158 63 49 42
415 538 334 147 24 51
385 542 316 53 33 32
362 756 151 61 50 42
299 779 218 78 62 54
366 754 150 63 50 42
366 759 149 76 59 47
367 753 144 73 57 42
362 755 153 59 48 42
363 753 158 54 45 40
365 764 149 80 62 48
364 769 148 83 63 49
362 769 151 81 64 50
367 761 146 83 62 48
355 674 299 86 23 36
361 764 154 64 52 43
363 763 152 68 53 43
361 769 154 72 57 47
375 749 144 64 51 41
374 746 140 72 57 48
483 604 297 43 29 31
374 747 141 66 55 48
450 814 244 94 67 45
382 751 131 104 74 49
384 750 130 104 74 51
380 744 144 64 50 42
379 748 143 67 54 46
475 819 239 100 83 71
385 745 140 77 59 48
355 534 294 60 48 37
295 614 335 56 25 31
381 745 141 69 56 48
298 536 356 48 25 29
373 744 160 60 51 44
394 739 133 93 66 51
371 745 149 59 49 41
369 748 154 53 44 39
369 747 158 58 49 44
380 739 148 64 51 42
376 741 146 67 52 41
381 740 146 65 50 42
385 739 144 70 54 45
311 528 364 125 13 41
371 753 145 69 53 42
374 759 143 86 66 51
397 854 316 50 41 37
376 759 140 98 74 57
370 769 144 83 64 51
415 739 154 83 63 50
370 759 145 75 58 47
376 769 134 95 72 59
405 599 313 109 23 41
374 769 139 87 67 55
372 769 141 85 66 53
384 753 130 103 74 53
385 759 133 101 74 54
380 754 139 95 70 51
378 752 142 84 63 50
300 909 229 97 85 86
377 766 135 96 73 58
381 764 131 100 76 56
382 761 131 103 78 59
411 892 309 77 63 51
465 819 237 105 89 75
386 761 130 101 74 56
385 764 128 99 73 56
468 814 247 93 78 64
361 884 264 61 51 53
381 769 130 96 73 56
369 754 148 70 54 42
359 744 174 67 54 44
364 739 169 61 49 41
366 739 165 60 49 41
363 737 174 59 47 40
420 618 253 196 130 110
355 909 324 68 60 63
364 749 164 51 43 40
363 748 168 51 42 38
265 654 334 78 24 36
362 751 166 49 43 39
358 738 182 71 53 40
357 745 179 58 46 39
361 789 265 74 60 51
357 741 181 58 46 38
353 749 183 64 50 41
357 746 176 64 50 42
335 869 324 37 33 33
361 754 164 50 44 40
357 760 164 48 42 41
358 757 164 50 43 40
361 814 160 86 68 56
481 828 250 94 80 72
356 759 169 51 46 43
358 757 168 54 47 43
298 592 356 159 93 78
300 749 338 95 47 52
356 754 174 58 47 42
358 753 172 51 43 37
300 824 235 76 65 62
353 767 167 52 45 42
353 752 182 54 42 40
369 739 163 57 47 40
460 828 249 102 84 69
378 746 163 56 47 41
379 748 163 57 48 43
325 719 207 66 35 38
257 551 342 60 27 31
371 842 280 36 32 30
365 523 269 58 41 29
325 714 208 46 36 38
326 720 206 56 32 35
329 717 207 59 34 33
370 584 319 47 26 31
325 709 209 47 36 38
356 677 300 45 26 29
330 709 209 41 35 37
351 629 279 110 19 40
362 720 306 189 10 61
325 724 205 60 34 35
327 735 201 41 36 40
330 724 204 89 28 31
335 724 204 65 33 34
335 729 202 77 30 32
332 731 201 47 38 36
348 538 289 59 46 35
437 832 281 58 47 39
329 732 202 43 39 40
335 734 200 93 26 31
374 690 289 139 18 44
344 709 194 159 115 87
343 709 198 152 111 87
353 789 277 70 55 48
342 709 200 144 105 83
338 709 207 88 27 29
340 719 204 87 32 32
295 934 363 75 71 71
356 814 165 78 64 56
342 712 201 134 96 76
365 537 304 59 44 36
258 884 335 157 113 97
343 716 202 119 81 63
355 922 346 76 68 66
344 719 199 143 102 79
343 719 202 101 59 46
340 724 204 55 33 33
340 729 203 68 34 33
337 732 202 83 27 28
318 796 212 79 61 53
347 729 195 154 113 85
348 729 192 162 119 88
326 739 200 49 36 37
390 859 255 71 61 57
363 587 397 179 120 114
324 739 202 40 37 40
390 553 349 153 21 51
323 742 202 56 36 39
335 739 199 81 26 30
330 749 197 80 31 35
325 759 198 65 53 48
325 769 198 71 57 50
350 849 179 105 81 66
329 764 197 55 49 49
329 769 197 61 52 50
360 729 304 188 13 60
335 764 195 119 84 54
464 536 314 123 15 42
340 743 198 95 72 48
344 739 198 86 66 42
345 744 194 93 70 43
317 877 336 139 106 78
348 743 192 129 97 67
446 585 265 105 57 32
339 760 192 111 80 49
339 764 192 118 83 54
339 769 193 123 85 58
382 709 194 108 82 60
320 809 294 161 119 95
383 709 200 121 85 56
385 709 219 156 106 75
383 710 222 156 106 76
500 578 246 122 95 69
446 578 303 129 26 46
395 789 189 73 56 48
384 714 223 156 107 76
367 707 237 108 26 41
368 709 239 139 21 47
317 920 366 52 48 47
372 712 231 128 79 64
400 759 194 61 46 34
370 714 234 97 53 50
370 719 234 98 55 51
369 719 239 85 28 39
374 715 232 134 86 67
375 719 233 136 90 70
380 719 230 152 102 76
455 834 263 105 86 75
323 867 212 59 53 54
383 720 228 156 105 78
378 720 232 149 99 76
373 709 250 151 19 46
365 618 315 135 15 35
375 709 254 148 18 45
371 714 244 99 25 39
371 719 244 75 31 39
320 583 360 162 101 87
372 714 247 136 31 48
372 717 247 47 31 30
374 719 249 47 33 37
375 719 254 85 28 41
371 723 235 96 64 55
375 724 234 135 91 70
317 886 201 115 92 74
283 845 263 183 124 97
376 729 235 137 93 72
372 727 239 110 82 62
344 659 303 150 15 46
373 730 239 117 82 60
299 856 257 152 112 86
383 724 228 156 107 78
382 724 230 155 106 79
304 748 337 98 53 54
384 729 229 158 109 79
380 729 233 152 104 78
379 735 237 143 98 71
364 794 263 75 58 51
383 731 232 156 107 81
384 734 233 157 109 81
372 724 242 74 32 38
375 724 249 86 30 39
276 513 373 48 28 30
374 729 244 120 85 64
376 724 254 93 29 41
377 734 249 136 99 77
378 730 255 116 21 41
378 735 250 141 109 82
455 830 249 103 83 64
377 732 252 126 42 52
379 734 254 129 34 47
380 739 238 136 94 66
382 738 236 152 104 75
384 739 234 156 109 80
381 743 240 136 94 65
383 740 237 152 106 76
383 744 238 149 104 73
384 749 239 145 102 71
377 738 243 122 92 64
337 876 191 128 98 81
378 736 246 132 102 72
382 744 249 140 107 75
381 744 254 149 117 89
382 749 245 124 90 58
383 749 243 119 81 55
382 749 249 143 107 74
382 749 254 152 113 84
500 623 283 136 26 50
423 552 332 64 28 32
421 850 290 81 65 54
384 754 244 130 93 61
382 754 249 144 104 73
382 754 254 154 114 83
290 739 345 106 34 46
382 759 254 156 113 83
405 614 304 52 34 38
312 854 246 53 46 46
383 764 248 153 115 83
382 769 250 156 115 85
387 514 224 103 15 32
327 853 300 119 94 75
387 517 224 98 21 30
331 880 194 140 117 101
390 514 224 100 14 28
420 527 269 70 19 31
389 519 223 92 24 30
374 837 184 91 71 62
388 521 211 65 30 30
391 521 221 81 30 34
390 529 219 93 20 30
261 831 311 43 34 32
330 573 397 163 119 102
390 529 224 76 19 33
394 520 215 40 34 37
395 515 219 83 17 32
394 516 216 70 24 33
396 518 218 47 30 33
395 519 223 83 22 30
400 519 219 72 25 31
398 516 220 77 24 34
393 824 218 71 61 59
393 857 256 73 63 61
401 516 224 100 12 22
395 524 213 47 34 34
394 525 211 85 30 31
401 529 213 39 33 37
392 772 236 149 113 80
394 524 220 61 29 33
396 524 223 74 25 28
400 525 225 84 20 25
388 530 206 44 39 39
391 533 220 74 21 32
392 533 222 69 21 30
380 527 281 64 44 36
400 534 210 54 36 40
485 604 254 145 96 71
394 533 221 63 29 32
395 533 223 65 28 29
395 543 210 85 33 36
400 888 323 67 53 45
404 515 225 92 14 26
315 885 204 102 83 70
406 518 223 92 15 24
404 520 220 94 18 23
405 529 215 50 32 33
