ply
format ascii 1.0
comment Created by Open3D
element vertex 2207
property double x
property double y
property double z
property uchar red
property uchar green
property uchar blue
end_header
387 374 275 101 73 54
342 364 240 90 77 64
463 550 217 135 16 33
536 445 223 47 25 30
352 699 200 61 32 35
389 133 216 121 88 54
364 344 284 122 84 63
320 88 216 103 83 64
363 394 254 100 77 60
298 399 250 96 82 67
416 848 249 44 40 37
367 564 168 178 6 38
325 81 221 113 12 42
505 761 190 119 77 68
437 789 164 69 54 47
321 434 184 115 10 35
325 82 221 109 18 40
330 102 231 116 97 77
437 604 269 192 18 61
402 403 174 92 76 59
304 710 235 120 20 42
427 689 279 119 13 38
306 224 234 125 98 67
362 434 148 46 38 41
313 435 148 89 14 33
327 84 224 92 50 44
321 434 169 119 9 36
397 189 210 125 97 61
361 379 254 143 107 93
326 89 224 96 33 37
386 859 148 89 70 62
382 274 224 121 94 63
271 434 304 84 28 37
308 319 279 131 102 72
264 424 272 109 20 40
312 179 224 121 98 72
451 509 174 56 34 37
407 209 207 118 95 67
299 385 260 113 91 67
384 868 151 89 70 58
320 92 216 114 97 79
351 894 174 83 73 69
387 64 257 124 38 52
353 941 312 44 40 41
312 529 149 144 18 39
334 181 212 138 104 65
354 248 243 110 84 56
402 619 291 34 30 31
341 194 216 130 100 62
377 584 303 162 13 50
323 94 223 108 29 42
351 99 194 112 56 51
350 18 272 151 103 88
270 488 238 105 24 40
411 414 145 123 23 34
448 724 143 54 46 39
394 734 151 44 39 38
308 219 254 115 93 69
402 314 213 99 82 64
415 664 206 54 34 35
411 239 206 127 96 57
295 499 144 59 27 31
331 803 292 73 59 52
397 529 162 46 37 41
412 951 316 62 52 44
326 69 229 119 30 47
316 319 295 127 100 70
310 241 232 130 99 64
311 924 294 115 94 79
327 74 229 118 32 46
471 938 289 92 76 71
415 200 252 122 97 69
317 744 304 128 15 41
331 69 235 120 40 50
297 459 209 99 18 28
425 254 216 126 97 61
312 405 314 89 68 52
350 169 229 107 85 59
336 398 225 93 80 66
373 84 239 116 11 42
320 144 213 124 100 74
475 416 214 97 24 34
431 374 229 109 88 66
542 489 185 174 130 109
402 479 156 116 21 36
313 929 299 181 141 120
392 109 248 124 98 70
329 73 232 125 18 46
397 402 178 94 79 64
392 189 249 113 91 66
332 74 235 113 52 51
414 698 291 127 20 46
381 99 218 88 50 30
413 380 207 96 83 70
354 364 306 142 99 76
354 267 270 108 84 55
312 439 199 84 22 33
330 596 187 79 31 35
411 84 224 106 43 44
329 78 232 124 20 48
417 569 183 144 6 36
500 537 238 129 28 53
461 946 312 101 80 73
370 65 238 103 32 44
388 259 252 89 72 54
444 614 246 170 11 54
421 844 175 53 44 44
375 294 234 97 79 60
269 581 286 126 94 63
353 982 245 58 56 56
356 304 255 90 73 53
313 169 234 115 93 70
387 578 176 88 37 43
421 569 185 156 1 36
332 79 234 109 36 44
412 374 276 138 100 69
276 554 269 163 1 44
367 539 309 142 23 49
392 399 184 95 81 65
336 75 236 117 91 68
307 699 234 108 21 39
338 73 237 121 93 70
317 149 219 120 98 73
458 459 157 155 12 34
384 82 196 148 9 40
477 834 229 87 67 58
388 834 264 144 112 92
337 79 236 112 88 66
279 808 260 187 126 96
327 119 204 123 96 64
313 444 154 122 8 37
457 694 199 95 78 58
317 679 224 47 39 41
328 89 228 100 76 58
456 499 179 155 4 38
309 234 231 132 100 64
278 579 269 130 15 40
327 94 229 109 27 42
549 483 216 53 34 32
430 607 201 83 26 29
398 45 256 135 110 85
329 84 228 107 88 68
342 679 205 129 7 30
415 947 291 69 64 63
348 154 224 105 83 57
401 69 244 109 85 68
528 457 212 48 32 30
447 942 286 73 64 60
330 84 231 110 89 67
376 407 163 93 80 66
301 734 228 134 12 40
419 367 212 93 83 73
304 380 250 108 88 66
330 88 231 111 88 68
297 529 169 118 17 35
429 871 207 78 65 64
328 109 232 115 96 76
276 559 244 162 3 44
537 468 193 105 86 67
381 84 209 123 14 41
309 459 153 52 26 31
332 84 234 109 34 43
438 896 263 68 57 55
289 525 186 53 36 34
340 631 301 156 29 59
393 139 247 119 94 67
364 330 275 110 78 59
439 776 162 66 51 44
380 11 292 150 44 64
521 503 220 40 23 26
327 454 131 108 23 35
390 820 168 53 47 45
362 389 259 98 75 60
403 114 214 100 80 56
337 84 235 112 46 48
330 94 231 108 31 43
331 403 214 91 77 64
378 89 219 117 31 41
332 94 233 109 39 48
402 584 181 98 32 41
382 99 248 122 92 73
342 69 238 121 36 49
312 639 292 149 45 55
362 694 197 114 16 29
401 439 287 120 17 40
311 479 174 84 23 33
328 300 307 112 89 63
342 74 237 119 76 63
331 778 302 74 59 52
328 440 128 169 5 38
337 319 313 130 93 71
346 69 237 116 53 55
425 219 219 119 97 72
378 73 252 112 46 47
327 374 314 138 105 77
440 406 246 81 69 56
383 109 244 123 96 74
472 773 179 121 84 61
404 900 203 64 57 57
372 674 197 59 34 35
278 444 322 71 30 35
382 939 315 45 42 42
348 69 236 113 58 55
462 714 164 89 68 49
320 124 224 112 93 73
295 484 129 159 7 41
352 69 233 115 25 44
288 469 215 104 19 28
303 699 244 110 11 35
441 494 167 48 33 36
353 74 229 112 73 62
394 169 211 127 96 57
443 704 249 136 11 42
342 469 313 147 23 49
377 69 199 125 21 29
426 723 292 148 22 52
347 74 235 118 17 43
482 679 204 125 91 55
332 224 219 137 102 64
377 854 189 41 40 43
367 799 283 142 105 90
327 769 212 65 53 46
419 380 212 95 83 71
412 695 144 68 53 45
378 199 234 109 86 63
356 917 180 71 62 61
391 11 274 124 61 74
345 72 237 117 32 46
298 449 109 150 10 40
347 79 234 113 27 45
350 78 232 119 19 46
445 599 216 56 30 33
455 493 171 47 29 35
337 214 218 134 102 64
556 494 199 157 117 87
355 278 251 106 84 65
446 589 214 111 13 30
319 659 226 128 5 36
392 684 196 46 34 37
269 509 263 151 6 43
342 84 235 116 32 47
342 89 235 112 56 53
309 209 249 113 91 67
494 474 246 159 17 49
315 172 246 116 97 78
332 179 211 138 104 63
429 357 237 118 95 69
430 356 239 120 96 68
293 440 314 90 30 41
359 284 259 96 80 65
547 464 204 100 80 63
341 230 272 114 91 65
388 134 243 115 93 69
349 84 230 107 75 60
274 807 266 187 127 96
515 607 218 176 122 89
387 529 161 101 23 36
312 624 219 204 9 50
342 114 234 114 82 60
336 639 212 63 25 32
303 435 138 75 22 31
386 149 239 110 87 65
409 759 126 69 53 43
504 609 202 147 105 70
467 739 234 161 112 87
352 84 224 103 27 39
351 169 224 111 88 61
437 549 184 50 33 38
427 574 190 151 0 35
349 81 231 108 55 49
337 134 240 112 89 62
343 164 212 131 98 58
331 950 218 73 68 70
386 194 244 112 90 65
352 89 224 103 25 38
347 709 319 68 29 36
422 760 275 91 70 62
452 933 295 64 54 45
381 109 229 131 92 72
346 84 233 115 70 61
489 438 177 57 43 26
345 425 141 47 38 40
397 549 290 157 14 48
401 60 191 85 44 27
346 88 233 117 83 65
352 804 205 75 59 51
488 520 239 54 23 29
355 89 214 107 30 36
324 145 242 108 90 72
323 99 194 95 63 48
295 394 274 115 93 69
391 884 159 78 66 59
340 884 239 116 95 74
379 276 231 107 84 58
345 754 202 60 35 36
401 325 277 137 94 71
285 519 314 125 83 72
321 99 199 99 59 48
410 59 219 111 35 43
501 579 203 125 99 70
492 424 249 73 25 33
324 103 194 130 35 49
308 489 128 148 16 41
476 689 201 127 92 57
412 864 184 66 59 60
412 859 179 64 57 59
315 492 136 118 23 38
412 199 208 123 97 65
325 105 194 132 45 52
322 309 250 113 86 58
308 704 229 98 25 40
328 144 206 134 103 65
397 112 200 164 95 97
328 108 194 132 82 69
310 649 238 181 9 48
326 106 199 137 86 69
301 469 144 70 23 31
371 798 282 170 127 107
513 544 218 88 56 44
497 423 209 66 26 29
323 129 210 123 98 71
326 109 203 129 90 67
267 418 264 72 24 29
308 214 229 126 99 67
347 943 206 78 72 74
397 159 210 126 95 57
498 530 218 74 31 37
446 854 277 57 47 38
331 110 194 145 101 78
284 510 308 118 22 40
350 166 227 107 85 60
302 424 214 52 37 38
490 783 233 107 76 57
375 89 222 130 27 45
398 366 206 88 78 68
380 269 237 104 83 61
285 546 317 149 98 75
438 849 209 69 59 61
323 99 224 108 56 53
377 10 269 120 58 63
323 104 224 116 97 77
306 939 264 132 104 89
428 234 224 121 98 71
392 631 197 79 31 31
422 209 239 117 95 70
387 819 268 161 112 92
321 109 214 125 102 77
355 224 230 123 90 58
277 509 325 161 121 94
423 579 280 161 23 55
410 69 224 123 27 44
327 114 204 127 96 66
323 119 209 126 101 71
291 489 309 105 65 59
346 119 219 111 78 56
352 174 224 116 91 60
325 119 207 125 99 68
314 664 235 141 13 43
354 70 230 111 59 56
394 886 282 36 32 29
481 734 214 144 94 65
355 68 228 105 51 48
335 212 216 134 102 64
325 124 207 123 98 70
462 474 174 158 3 36
328 129 205 126 100 70
388 164 243 111 90 67
387 34 224 100 85 69
276 457 317 78 30 39
365 489 156 49 30 37
333 114 194 148 105 78
322 774 213 68 56 48
417 405 174 122 61 49
437 689 204 59 42 42
479 700 231 177 126 98
279 482 316 86 63 51
345 144 233 107 79 55
331 114 199 127 96 65
337 115 193 164 112 86
415 150 237 115 94 70
417 659 208 65 33 31
334 118 196 148 112 76
323 474 317 165 13 51
316 219 222 132 100 62
365 602 307 141 29 49
393 134 247 120 96 69
392 880 274 61 50 43
378 209 220 110 86 57
330 116 202 119 92 60
344 223 266 113 90 63
455 508 185 140 11 40
330 119 202 120 94 62
455 706 156 69 54 40
332 124 199 133 104 68
393 41 261 130 14 49
345 744 202 82 32 37
335 121 197 148 112 75
456 411 199 116 43 41
426 757 277 88 71 66
310 479 126 160 3 38
316 444 159 128 6 38
457 419 150 137 17 30
387 809 270 181 125 103
352 904 174 80 68 67
327 214 216 135 102 63
346 402 207 88 73 58
442 757 141 74 56 41
405 407 152 107 69 46
441 434 157 101 28 35
337 124 198 155 114 78
379 284 252 80 66 51
273 564 284 146 22 44
304 639 296 160 109 93
333 129 200 138 105 68
382 935 313 44 41 42
337 129 200 154 112 77
415 325 216 99 84 68
378 431 152 137 11 33
377 599 303 109 33 47
312 219 225 131 100 62
330 125 202 127 101 69
330 129 202 129 101 66
381 494 157 142 1 30
355 82 222 103 24 35
387 484 155 127 8 32
321 119 214 125 101 76
457 949 314 93 75 66
309 484 312 128 21 43
322 114 224 114 95 75
327 955 229 70 66 68
343 160 212 129 97 57
321 119 219 115 95 73
358 654 201 92 25 33
355 199 238 109 85 57
332 454 132 120 18 34
311 744 217 88 29 37
402 399 279 101 75 50
321 119 224 113 94 74
320 124 214 124 100 74
320 129 213 124 100 73
399 412 146 133 20 23
304 494 159 63 28 31
320 124 219 115 95 74
387 894 159 91 78 70
427 554 184 157 1 35
536 450 211 64 37 33
305 498 173 76 26 31
320 127 224 112 93 73
334 421 153 58 25 28
442 444 159 64 33 39
317 774 304 169 120 92
433 570 270 112 22 42
382 10 264 98 59 55
356 239 239 116 86 56
399 216 257 123 100 75
398 891 176 73 65 65
336 261 287 113 92 67
391 308 271 90 70 47
309 199 239 115 94 71
351 104 199 108 37 38
287 729 258 107 80 57
318 210 267 112 93 73
507 569 223 130 98 78
397 454 289 135 14 42
287 804 305 179 131 104
397 289 213 128 98 64
348 110 199 138 90 65
437 719 144 80 56 49
287 554 199 152 4 40
489 500 203 149 9 32
418 870 193 74 62 57
327 124 235 110 91 72
292 449 224 93 21 27
380 454 313 160 17 49
444 474 161 125 7 27
273 654 304 177 126 100
452 864 254 65 54 54
350 107 195 114 22 36
350 108 199 127 49 47
477 829 254 61 48 37
387 59 259 119 57 57
482 654 230 186 136 112
409 57 214 107 31 43
466 848 224 77 61 54
377 79 209 116 26 43
350 107 204 140 88 71
443 854 214 83 71 75
418 244 256 126 99 69
392 164 213 123 93 54
392 30 269 134 59 63
369 67 240 114 70 61
350 107 208 130 87 64
327 589 183 189 9 41
316 417 208 90 77 64
351 103 214 129 65 61
429 354 244 122 97 69
373 620 301 81 32 39
382 814 270 182 127 104
308 504 312 37 28 31
353 99 214 120 25 38
345 129 219 108 80 54
288 569 204 69 30 35
353 99 219 120 31 43
402 194 255 124 100 74
345 114 229 115 82 61
263 474 318 131 99 76
351 99 224 120 27 46
462 929 280 84 69 55
440 828 176 81 64 59
410 94 214 126 44 51
350 103 223 125 75 66
304 240 253 120 96 69
275 459 274 58 28 28
352 415 149 104 40 38
374 84 243 107 67 57
348 109 214 126 85 64
387 553 166 105 35 42
479 744 219 151 102 72
349 106 211 129 87 66
333 406 206 91 77 63
387 27 278 142 37 57
290 618 312 169 121 93
444 886 257 81 66 61
349 106 214 129 87 68
512 787 228 95 72 49
526 554 205 165 119 84
382 334 219 96 81 64
304 248 241 133 101 67
495 593 202 125 98 67
381 654 297 43 29 33
448 604 223 105 17 31
348 109 219 122 82 63
426 556 277 103 35 49
347 109 224 122 80 64
338 174 212 137 104 66
499 765 209 87 70 56
512 609 209 162 114 79
417 174 219 116 95 74
362 410 169 85 62 53
514 473 236 104 13 37
343 114 199 141 98 70
340 118 196 153 112 79
402 109 199 129 38 40
304 390 246 103 86 69
307 689 239 50 33 36
453 559 259 146 14 47
342 119 199 143 101 70
398 48 203 121 103 83
338 122 196 160 117 82
317 454 184 116 6 33
362 389 289 115 84 65
275 458 278 36 29 28
372 359 234 71 61 51
363 399 259 92 70 53
346 169 215 127 97 59
502 425 229 59 18 23
390 449 152 139 0 30
343 124 204 133 96 65
287 679 267 124 90 56
455 490 267 40 30 31
409 58 204 85 56 28
407 854 139 113 89 68
437 714 144 83 56 50
304 657 261 68 29 30
269 460 312 57 31 34
391 492 156 151 0 35
391 269 255 89 73 55
346 112 194 140 87 67
338 361 241 92 79 67
402 484 157 155 2 34
387 469 295 111 25 42
346 114 204 133 92 64
319 282 241 113 84 55
309 440 147 114 11 36
312 239 229 133 99 64
387 965 233 79 74 75
290 629 312 175 125 97
319 330 251 103 84 62
342 835 223 166 115 89
326 180 212 137 103 63
328 425 149 68 22 28
413 644 280 42 29 32
344 115 202 136 95 67
308 499 132 174 9 37
347 114 209 119 82 58
406 953 289 74 67 67
422 754 280 80 64 59
506 634 210 157 110 75
388 219 210 127 98 60
312 415 214 94 81 66
397 810 265 184 130 108
347 22 268 157 105 87
412 69 204 125 43 49
331 837 268 130 96 77
377 729 190 102 26 30
501 766 242 102 78 54
359 871 220 57 51 50
346 119 209 116 83 55
292 574 199 65 30 33
463 717 176 86 66 50
360 386 243 123 95 79
492 814 244 77 61 52
344 129 207 123 90 59
421 214 248 124 100 72
308 638 236 164 14 46
345 129 209 118 88 57
399 780 136 77 60 51
466 849 264 65 52 43
331 423 144 79 27 25
456 942 286 82 71 62
354 85 220 106 24 37
371 844 204 51 47 48
342 524 151 149 9 35
486 755 239 149 107 80
346 119 214 111 82 54
346 114 224 116 78 60
337 494 313 117 21 42
314 206 262 112 93 73
298 489 307 61 29 32
381 514 298 156 5 47
331 118 236 113 92 70
452 828 204 186 117 97
268 434 273 139 13 47
402 856 139 118 94 75
346 124 214 108 83 54
441 411 159 169 7 19
445 696 162 65 52 42
305 894 274 169 123 104
346 129 214 109 84 56
435 395 239 102 84 64
384 94 209 114 20 38
345 129 224 109 77 54
325 99 226 107 67 58
325 102 226 116 97 77
424 826 167 58 50 51
324 110 227 117 98 80
350 178 221 121 94 59
408 865 178 57 51 54
332 714 208 134 4 33
330 99 231 112 91 70
385 144 229 109 85 59
378 354 224 82 71 60
332 99 233 115 95 73
372 334 249 83 71 59
276 434 284 127 13 42
270 550 321 164 118 95
332 104 234 113 93 72
333 963 230 76 72 75
347 979 249 81 78 78
382 11 289 149 52 70
360 868 222 68 57 51
377 219 224 108 84 55
432 727 183 74 52 47
402 234 259 126 101 74
337 104 235 114 91 67
372 980 254 77 71 71
315 210 222 131 101 64
372 549 163 128 19 39
338 429 316 153 21 51
419 199 212 117 95 69
338 832 221 149 117 96
397 229 205 128 97 60
337 109 235 115 92 67
335 694 207 132 9 33
310 919 258 153 122 97
323 114 228 112 94 76
309 790 226 74 59 49
319 925 226 64 60 62
515 930 295 95 75 54
363 14 284 130 84 67
327 28 259 144 41 60
323 119 229 110 93 75
379 102 242 126 94 73
285 508 202 137 5 39
277 569 259 171 1 48
277 819 274 201 135 106
342 744 203 81 30 37
318 139 219 119 96 72
477 784 234 79 60 45
402 285 267 108 87 64
401 40 220 109 94 79
279 564 235 129 19 44
297 494 130 154 18 40
422 604 282 133 14 41
347 803 287 83 65 57
326 114 230 112 93 75
484 422 177 131 35 45
412 919 229 67 58 60
405 42 252 114 43 46
391 864 263 139 109 87
327 119 234 110 92 73
407 184 209 127 98 61
397 694 195 56 33 39
418 249 255 129 100 66
278 419 250 139 17 38
303 474 149 78 23 32
320 129 229 110 92 73
326 128 236 110 92 73
381 279 224 119 94 64
317 474 315 150 17 47
327 129 238 109 90 71
314 659 235 134 9 39
512 779 214 112 81 58
422 214 214 115 94 70
341 439 140 120 12 30
332 159 249 111 90 67
448 538 266 67 30 34
342 275 293 105 85 64
506 629 209 160 111 76
336 170 252 109 89 67
415 160 220 115 96 74
438 835 189 82 65 62
385 42 213 101 86 71
353 284 253 94 75 54
333 120 237 112 90 67
336 174 211 137 103 65
275 815 295 198 136 108
290 604 224 161 5 44
370 379 239 71 60 47
350 164 220 117 92 60
456 411 239 68 55 49
427 926 286 128 115 116
363 324 279 117 83 63
337 119 237 114 91 66
329 125 237 110 90 70
381 798 277 189 133 112
396 41 211 121 78 42
416 209 252 125 100 72
363 399 274 81 62 46
400 407 157 92 77 63
332 129 239 111 90 67
337 124 238 112 89 63
342 104 233 116 84 62
382 779 284 84 64 56
422 314 254 129 97 62
316 615 208 91 25 38
352 494 311 105 29 42
502 794 229 83 64 50
345 759 202 84 38 42
391 429 293 144 11 44
342 109 233 114 82 60
470 567 244 98 36 43
261 464 304 119 92 72
425 304 225 106 86 64
403 894 198 64 57 59
456 411 214 67 49 43
473 624 206 108 86 61
344 134 207 123 91 58
344 104 231 115 82 59
309 470 186 71 31 34
407 114 239 116 94 71
376 360 272 75 59 45
346 104 229 115 83 63
337 789 210 73 58 49
420 290 257 126 96 61
270 629 294 174 125 94
377 844 169 43 38 38
344 119 230 112 77 57
352 415 154 88 37 39
305 239 254 118 94 67
322 840 265 42 36 38
385 324 217 100 84 67
336 116 237 115 93 68
312 570 173 97 33 42
339 119 236 114 89 63
347 764 304 89 71 63
364 324 276 114 81 59
456 411 234 67 54 48
420 199 244 120 96 70
347 959 219 86 81 84
350 190 248 109 86 59
346 204 258 111 89 63
532 539 225 185 137 109
466 779 179 116 77 56
384 146 227 109 85 58
342 119 234 112 82 59
302 832 283 196 139 114
426 289 224 121 93 60
279 509 210 125 11 35
342 124 234 110 82 58
342 129 234 109 81 56
343 154 240 106 83 56
317 949 229 79 73 75
291 550 188 161 7 38
340 129 237 109 84 57
350 407 197 82 69 55
437 484 273 116 19 41
344 114 231 115 81 60
536 528 205 173 119 89
417 403 184 101 75 61
274 754 297 161 113 86
370 394 274 68 56 44
385 178 217 118 89 49
315 458 184 73 25 27
379 334 221 98 80 61
345 119 228 112 77 56
433 694 147 88 63 47
357 814 280 181 126 104
505 500 202 133 10 30
403 124 246 118 94 66
313 354 250 106 88 68
345 124 228 109 77 55
404 52 203 127 110 93
368 815 276 185 127 107
379 244 243 101 83 63
403 838 131 109 80 61
308 209 244 114 92 69
345 129 228 107 77 51
323 244 282 117 95 72
487 779 239 102 76 57
357 979 239 65 61 62
365 402 204 84 74 65
474 743 177 108 82 55
372 384 269 70 56 43
347 274 244 100 78 56
304 249 244 130 100 67
437 609 264 103 25 42
427 409 274 112 62 50
487 604 228 141 107 87
286 794 244 160 109 74
337 304 312 121 92 65
428 349 229 114 92 68
352 825 275 167 120 99
364 627 196 67 39 41
489 531 237 64 14 25
358 69 194 98 40 34
409 34 244 87 51 42
437 764 149 72 55 46
332 169 254 110 90 68
378 740 301 38 28 33
426 349 224 100 85 69
357 69 199 74 43 35
359 329 294 120 86 59
334 752 312 134 39 58
357 69 209 94 46 38
269 486 241 132 13 40
268 759 293 164 116 87
357 74 199 112 34 35
357 79 199 94 63 52
378 898 291 89 70 52
294 573 195 68 29 31
377 509 304 161 13 50
274 694 279 144 101 70
357 79 209 111 41 35
318 334 250 101 84 64
476 714 195 113 85 54
381 100 245 124 93 75
489 784 235 107 78 59
308 229 230 130 99 64
310 392 242 96 83 70
357 69 214 89 62 47
453 831 249 52 40 33
356 69 224 104 38 33
308 431 133 38 35 35
428 519 276 43 28 30
427 895 239 68 58 58
357 69 219 101 56 44
377 319 224 106 87 65
357 74 214 97 74 53
327 12 259 116 74 55
404 444 286 118 20 41
315 961 247 86 80 81
384 159 234 109 86 62
355 74 223 102 41 39
290 601 237 62 31 38
408 29 254 124 92 74
323 488 317 167 14 51
495 452 191 182 0 39
455 513 190 154 7 37
516 599 219 178 123 92
314 161 237 112 93 72
457 935 284 67 55 50
356 79 219 92 63 48
437 939 314 46 40 37
357 74 219 101 69 55
447 454 268 123 20 41
364 751 306 85 65 59
426 244 215 124 97 64
315 883 262 147 118 90
377 439 153 135 4 29
379 425 316 35 27 29
354 85 193 123 20 39
512 430 219 70 21 29
425 749 131 74 56 43
520 583 222 184 123 99
347 369 239 87 75 62
312 754 215 113 18 34
277 554 323 168 118 95
355 88 200 99 64 53
393 59 255 132 103 77
357 84 209 109 28 31
288 411 264 72 64 56
433 805 246 66 51 44
397 59 253 125 100 77
355 89 204 97 40 36
406 108 209 129 61 61
308 439 205 102 20 31
356 89 209 111 24 31
437 925 285 68 58 56
410 149 215 109 90 70
352 805 286 52 44 44
447 409 189 147 43 42
354 91 202 110 37 34
354 94 204 112 58 45
299 395 251 100 84 67
316 644 228 138 4 36
394 159 211 126 95 56
393 479 291 64 25 32
532 554 219 183 129 100
355 93 205 115 32 37
523 450 231 72 26 30
292 564 194 85 29 34
355 94 209 104 58 47
335 246 282 116 94 69
458 484 174 76 29 38
354 80 225 110 21 39
420 598 191 101 26 32
354 89 220 99 55 46
372 364 254 73 60 47
417 369 273 132 98 66
337 269 235 93 74 50
419 203 212 116 95 70
356 299 289 122 91 60
355 94 214 111 27 34
377 939 205 74 69 71
400 103 196 122 50 42
376 805 173 43 39 39
417 474 165 51 37 38
485 704 214 161 109 78
366 31 265 133 42 55
501 761 185 117 85 62
354 94 219 107 64 52
512 930 307 82 69 57
334 660 211 127 2 30
401 64 190 96 46 27
463 629 214 78 62 43
345 141 232 108 79 55
374 73 205 128 38 43
314 905 256 164 123 100
402 844 134 86 66 57
323 429 174 84 21 29
436 659 220 45 37 35
392 314 274 105 79 55
358 972 231 88 82 85
383 114 234 123 89 69
397 314 213 102 84 65
407 824 144 86 67 57
511 431 238 65 18 29
327 464 318 133 19 46
337 359 313 140 102 72
376 75 203 134 19 40
427 839 254 40 33 29
457 932 281 82 68 56
404 145 212 122 96 64
337 420 154 57 25 28
375 76 210 120 21 38
379 68 196 121 25 32
379 65 196 94 28 25
322 414 204 89 75 60
419 304 256 135 95 66
305 255 243 135 100 68
380 71 197 132 10 35
314 455 118 113 22 38
324 871 261 120 97 72
392 12 254 82 63 55
430 692 206 53 42 48
306 432 134 42 27 29
379 504 300 140 17 45
382 430 152 130 5 26
388 744 155 50 42 39
380 75 198 137 6 38
422 449 280 71 27 33
347 149 229 104 79 51
414 702 136 80 61 45
443 624 244 182 1 57
383 79 194 143 8 39
308 364 299 125 99 69
338 764 206 70 55 49
349 159 218 118 91 58
421 608 196 118 20 38
346 295 307 110 87 60
412 674 285 101 18 38
348 904 176 87 74 72
381 109 234 129 93 74
404 38 228 86 74 61
429 354 239 121 96 69
378 375 216 90 79 68
467 499 260 156 19 53
379 77 201 139 6 38
313 504 138 164 4 36
371 69 214 82 33 38
286 417 301 49 27 26
396 249 207 131 99 60
417 279 213 130 96 58
407 839 139 78 64 51
375 339 234 78 66 54
373 69 224 96 34 43
298 449 134 94 15 32
402 704 298 38 30 32
495 805 242 74 57 47
484 826 233 83 65 56
324 169 211 135 104 65
418 204 249 123 99 72
267 509 254 68 28 36
512 479 199 60 34 34
519 470 190 103 87 72
373 73 214 101 28 41
482 444 169 87 31 39
290 499 312 121 84 76
305 479 188 68 29 30
376 75 214 120 32 50
458 412 194 142 34 35
378 79 214 100 56 56
361 346 240 88 70 56
267 794 284 186 129 102
310 899 294 166 120 103
387 294 218 113 90 64
373 74 224 113 33 44
272 419 299 79 29 37
375 76 222 131 16 44
377 79 219 130 28 48
419 314 256 129 95 57
375 80 222 135 18 44
384 290 257 71 59 45
316 407 232 98 84 69
354 937 201 88 81 82
307 524 144 147 19 39
302 759 304 170 120 89
354 199 244 107 83 55
315 154 234 113 93 71
310 434 202 67 30 35
381 84 204 138 6 41
288 524 189 63 31 35
362 649 200 91 26 32
466 710 191 102 80 54
310 198 245 114 93 69
338 260 232 111 84 55
407 34 234 83 38 27
451 705 154 69 54 42
380 81 209 109 25 41
384 88 200 147 9 44
393 901 192 61 55 57
397 504 159 68 30 37
398 215 206 124 96 60
309 207 226 125 98 67
411 401 189 94 80 66
416 882 286 40 36 35
382 89 209 113 24 40
532 753 197 100 86 74
408 956 304 93 83 79
374 99 234 110 24 42
382 284 254 73 60 45
384 93 205 131 11 39
382 599 301 45 29 32
455 462 156 136 19 38
413 239 208 126 96 58
361 19 270 123 67 63
421 710 137 68 51 39
374 84 225 123 23 44
320 232 276 112 93 72
482 549 250 112 23 41
374 89 225 119 26 43
376 94 223 115 61 51
384 103 247 125 102 79
332 885 307 120 53 59
390 897 156 82 70 63
417 219 253 124 99 70
304 259 263 125 96 66
305 239 237 130 101 65
380 81 214 118 29 48
380 84 214 127 27 48
287 564 209 72 28 35
332 154 248 111 90 67
357 594 308 180 10 56
393 154 248 112 90 66
353 254 238 116 85 57
379 82 216 133 19 43
382 94 214 129 29 43
393 31 266 124 87 69
270 574 316 162 116 91
308 319 284 130 101 73
315 193 256 113 94 73
342 134 204 134 96 61
458 933 291 61 51 44
289 584 210 88 31 38
406 877 162 78 69 66
370 695 307 148 15 47
435 613 263 122 23 46
285 426 247 77 28 37
296 519 149 56 29 32
305 450 311 101 24 40
378 94 220 126 54 49
297 539 169 92 18 33
259 524 314 153 114 92
380 90 217 127 32 45
325 409 322 150 17 48
288 444 234 91 22 25
448 604 245 178 17 55
380 94 218 126 54 49
339 869 246 147 114 85
355 72 227 98 66 54
397 439 289 140 15 44
384 244 216 127 98 62
452 519 264 65 29 34
354 384 306 130 95 72
345 237 226 131 96 59
298 564 169 129 24 43
356 552 161 128 22 42
404 84 241 98 34 40
370 69 234 107 14 39
373 79 229 80 53 43
352 254 269 114 90 60
486 808 219 76 57 48
346 139 219 107 83 56
391 739 153 46 40 38
421 549 277 60 29 32
397 514 160 87 34 40
369 67 242 121 73 66
311 454 198 101 14 30
440 455 162 77 29 36
372 973 284 77 74 74
411 144 219 111 93 73
350 370 245 96 79 66
367 494 158 144 6 31
457 699 195 85 71 57
408 688 291 70 24 32
372 69 249 120 30 47
388 139 243 113 91 68
402 304 212 112 90 66
452 434 265 148 13 45
385 414 302 140 13 44
452 410 224 66 54 48
375 69 251 119 55 58
374 11 292 138 42 54
377 69 253 122 35 50
467 494 194 156 4 36
431 369 239 109 88 64
372 74 244 117 81 70
457 544 263 147 22 50
373 74 248 121 20 43
416 697 137 67 49 39
344 148 236 106 78 55
403 700 154 45 40 36
433 854 135 95 79 65
435 434 162 112 21 35
289 614 259 157 15 49
336 159 248 109 88 64
418 870 278 38 34 32
271 514 229 98 27 40
378 249 234 108 86 62
392 294 216 115 89 60
357 13 265 69 41 41
377 79 249 117 37 50
323 749 211 89 32 38
322 229 220 139 103 64
322 334 249 99 81 62
380 254 224 121 91 58
376 74 250 121 23 44
277 748 257 130 97 62
290 600 217 167 8 48
283 789 245 159 107 73
379 77 252 104 57 43
279 626 276 141 103 69
425 224 216 117 94 68
322 24 259 119 64 57
347 414 179 79 60 49
337 689 308 44 29 31
506 789 213 88 64 52
309 489 312 73 25 35
380 80 251 120 27 45
501 504 243 70 28 35
411 929 274 61 55 57
487 449 250 70 24 34
386 43 209 104 88 71
348 159 229 105 81 54
462 839 267 60 48 38
393 724 164 41 36 33
337 975 289 52 49 51
373 84 229 105 22 41
402 688 196 41 35 42
374 89 234 90 61 48
378 891 177 74 68 70
300 438 218 67 34 35
431 604 200 58 33 36
314 194 221 125 99 68
528 509 190 153 109 89
422 948 295 76 68 66
373 94 229 103 29 41
401 114 209 121 89 62
308 244 234 131 99 64
378 890 166 105 92 82
437 933 299 60 51 44
402 129 247 121 95 65
439 511 271 61 20 24
327 369 239 93 81 69
317 639 294 168 29 56
262 464 289 116 94 74
374 94 225 113 32 42
352 449 149 137 4 31
327 674 299 64 28 34
512 498 229 83 21 36
374 94 234 91 64 50
392 469 153 128 18 36
332 405 209 91 77 63
467 504 258 139 21 49
376 84 245 121 97 76
343 328 248 89 75 61
384 107 211 128 17 44
347 294 252 86 70 52
405 774 132 60 47 38
539 526 207 194 132 101
345 374 312 142 100 74
489 666 207 142 102 66
403 854 158 54 44 47
374 89 243 109 24 42
307 254 239 132 99 65
348 364 310 142 100 75
329 847 241 194 132 104
448 784 245 150 104 79
376 89 245 106 78 62
372 20 289 198 142 143
295 504 139 140 16 41
527 454 228 176 15 57
374 859 281 161 126 103
377 479 156 142 0 31
378 84 249 122 83 70
378 89 248 119 95 74
323 967 298 70 65 65
461 499 262 37 29 31
454 586 249 149 35 56
450 867 236 75 64 64
482 469 253 124 17 40
347 149 219 110 87 60
368 724 311 173 0 55
300 459 306 143 17 47
380 85 251 113 49 53
510 612 206 154 110 76
321 918 228 62 57 59
387 504 157 146 5 32
382 254 248 89 72 53
392 402 177 95 80 65
487 499 200 153 7 31
383 84 252 122 24 47
541 513 227 193 139 117
354 246 237 121 86 57
402 344 213 90 80 71
271 534 244 166 0 44
304 243 240 130 100 67
427 504 278 113 25 42
430 364 244 114 91 65
288 489 314 147 104 86
381 89 250 111 65 57
432 723 133 85 58 44
357 209 234 113 88 59
383 88 252 117 29 46
364 871 199 50 47 50
374 396 292 59 49 37
374 808 176 50 44 44
316 454 164 85 22 34
384 391 201 95 81 66
378 94 248 116 35 48
402 204 256 123 99 73
435 684 254 47 26 33
308 224 230 129 99 65
313 449 114 85 31 39
375 99 224 97 47 38
326 139 240 110 91 72
294 424 225 66 36 39
379 185 220 108 84 54
383 99 214 96 53 40
338 810 286 61 52 50
439 407 260 101 81 59
405 52 243 126 32 46
403 324 276 138 93 71
285 554 317 158 106 82
378 99 220 93 49 30
500 459 242 130 17 41
322 614 304 51 30 32
394 154 211 127 96 55
307 719 224 130 10 37
380 104 218 131 29 42
379 107 224 124 77 65
375 101 227 124 19 46
355 259 245 108 83 56
370 842 212 75 56 47
391 548 166 69 36 40
392 174 213 124 94 54
362 408 179 85 62 53
538 524 204 190 130 101
374 102 230 112 4 37
285 580 232 154 12 42
406 444 151 118 27 38
337 239 223 136 100 63
346 259 236 116 86 55
336 434 134 112 14 32
486 794 244 81 60 48
318 179 253 112 94 76
457 419 264 156 16 50
374 98 238 113 13 43
378 749 185 75 34 35
360 384 298 129 93 71
377 103 234 126 81 70
495 663 222 195 137 109
378 102 239 125 91 74
299 498 131 169 10 43
487 420 209 103 22 30
309 194 234 117 95 71
357 359 235 109 85 70
378 99 244 120 56 56
392 274 258 91 74 56
317 239 225 139 101 63
306 224 249 116 94 69
362 724 195 39 35 39
296 739 234 137 6 38
382 104 244 123 96 74
501 649 223 197 137 108
485 707 211 159 109 81
323 233 221 139 101 64
384 114 225 124 85 62
354 316 301 122 83 61
323 429 164 82 19 29
397 389 278 114 82 60
319 145 237 112 94 75
442 859 279 57 47 39
383 434 304 94 23 36
334 309 312 137 94 74
487 539 209 151 18 38
384 119 229 121 87 66
294 715 256 81 33 32
330 277 236 102 78 53
312 429 320 96 25 38
408 425 147 150 11 33
432 794 149 53 45 43
429 719 291 176 12 57
447 423 164 159 8 24
318 134 219 119 97 73
276 434 320 91 29 38
319 176 252 114 96 78
318 134 224 114 94 73
419 910 296 39 35 36
277 629 314 171 122 97
319 139 215 121 98 73
396 244 207 129 98 60
474 606 217 87 69 48
319 144 215 122 99 74
446 544 185 85 33 41
422 811 126 88 67 56
392 95 193 156 21 46
407 949 254 67 61 62
317 139 224 113 93 72
424 851 118 125 101 78
362 414 154 118 35 36
423 730 291 181 21 61
397 124 209 137 97 60
317 144 219 118 96 72
397 194 254 120 97 71
269 494 239 65 32 34
447 820 235 118 85 66
390 871 267 132 106 86
365 301 268 95 78 59
484 551 234 91 36 43
306 229 234 127 99 65
319 149 215 122 99 74
314 454 158 71 24 32
419 353 266 121 94 59
318 154 215 121 99 74
332 298 247 90 72 52
342 398 213 89 75 60
318 159 215 119 97 72
381 568 171 169 0 36
397 169 251 120 97 72
522 539 200 148 113 81
491 421 199 123 24 32
315 154 224 116 94 71
302 561 306 136 11 41
371 729 192 99 23 34
397 756 286 79 62 52
311 459 155 53 27 32
387 659 197 115 16 29
411 134 224 113 94 73
316 154 219 119 97 72
428 424 276 96 24 37
394 880 155 81 68 59
386 110 219 122 80 60
402 544 168 64 37 42
363 314 249 113 85 66
299 706 250 65 38 38
316 159 219 117 96 72
414 475 162 57 35 38
274 465 240 103 18 32
315 159 224 116 95 72
378 279 249 88 73 58
319 134 229 110 91 71
467 669 234 151 110 90
414 514 167 95 30 38
295 489 133 97 23 37
385 844 272 144 112 87
420 375 272 133 97 67
319 139 233 109 91 72
318 144 234 112 93 73
407 174 251 120 96 69
316 149 229 113 93 71
318 149 238 112 93 73
442 845 273 51 41 34
361 19 274 131 71 70
315 154 229 114 93 71
308 309 274 129 101 71
347 364 244 89 75 61
314 159 229 114 93 70
314 160 225 115 94 71
488 790 202 89 64 52
401 714 169 44 37 34
401 213 256 123 99 73
474 466 187 170 5 33
412 194 253 121 97 69
402 834 249 140 108 91
284 519 200 52 27 32
285 478 212 66 29 34
381 334 264 68 55 40
382 304 220 112 91 69
398 74 250 120 24 46
387 959 299 68 61 60
354 348 252 87 70 55
422 394 274 133 98 66
315 158 235 113 93 71
384 439 300 91 31 40
317 154 239 112 93 73
316 159 239 112 93 73
414 414 148 112 24 32
319 154 242 110 91 73
292 423 314 40 21 25
332 359 244 96 82 69
316 164 219 117 96 72
420 828 130 67 51 44
314 164 224 114 93 71
343 583 176 57 36 38
438 849 115 105 88 71
325 167 251 109 90 71
504 495 201 145 7 41
314 166 221 115 94 72
285 560 218 81 34 41
288 680 266 121 88 53
354 224 255 115 88 59
315 228 271 112 92 71
347 825 275 136 97 83
462 415 179 146 36 34
316 174 218 122 97 68
401 49 253 122 67 64
313 174 224 117 96 72
377 444 318 156 20 51
269 456 290 78 64 51
434 796 152 52 42 40
309 896 302 142 113 90
412 709 189 60 46 38
423 219 214 114 93 69
314 174 221 121 97 71
319 308 251 118 89 60
362 534 159 133 9 34
314 184 220 126 99 69
357 664 200 79 32 34
316 184 218 127 100 69
392 244 208 130 99 61
316 189 218 129 101 67
447 409 244 72 64 56
452 429 151 96 30 35
322 219 219 136 102 64
420 579 282 180 12 56
358 469 152 74 30 37
314 189 220 125 100 69
512 584 226 176 124 95
388 214 211 127 98 61
333 326 246 88 73 57
312 189 224 123 98 69
332 204 215 132 100 62
326 178 256 110 92 73
305 831 252 86 68 64
497 920 343 85 85 85
289 558 311 79 49 43
305 234 238 127 100 69
298 484 194 83 24 28
399 880 182 64 58 60
293 759 230 53 36 39
302 610 208 209 11 49
420 250 211 130 99 62
313 164 229 114 93 71
377 294 229 102 83 62
347 19 274 162 113 106
374 305 253 70 57 44
332 965 305 65 60 60
412 664 283 161 17 51
313 169 229 113 93 71
314 165 238 115 94 73
392 739 180 54 49 47
412 406 150 103 74 47
429 269 239 128 96 62
315 163 240 114 94 73
294 778 231 66 55 51
313 169 239 115 94 72
414 549 281 48 28 35
312 174 229 115 94 71
313 174 239 116 95 72
421 589 278 166 9 51
385 139 234 111 87 62
397 114 248 124 98 66
264 480 322 166 119 99
417 749 126 71 54 43
397 114 204 139 84 66
317 164 244 113 94 75
315 169 245 115 95 76
314 170 243 116 96 76
523 509 196 121 58 47
337 499 143 43 38 40
307 744 220 42 36 41
432 709 178 63 54 47
319 165 247 111 93 75
420 369 211 92 82 72
411 454 155 55 33 39
385 20 191 125 35 11
510 469 237 150 12 49
314 174 244 116 96 76
471 424 160 52 44 40
317 174 249 113 95 77
352 859 289 119 98 76
305 488 182 37 33 32
378 795 281 126 100 88
306 939 269 169 132 111
346 285 298 108 87 62
311 184 229 118 96 72
317 204 219 134 103 66
392 629 196 57 34 38
311 184 234 116 94 71
310 188 229 118 96 70
407 269 209 130 98 61
328 425 144 70 23 29
304 479 152 68 23 33
397 369 277 143 99 76
351 184 244 108 85 57
472 940 329 69 56 45
337 179 255 108 87 64
308 949 279 152 119 103
309 191 229 118 95 69
311 924 254 120 98 81
512 504 195 123 15 31
358 351 236 95 75 59
280 790 248 162 109 76
379 232 221 117 90 57
363 349 244 115 86 73
310 189 239 114 93 70
312 184 244 117 95 73
387 924 304 42 38 38
438 411 160 166 10 19
486 484 252 150 15 46
318 244 226 135 98 61
448 534 184 39 33 38
311 189 244 116 94 71
414 294 266 126 96 62
453 514 184 147 1 38
439 407 242 79 68 57
388 149 243 111 90 67
342 629 205 98 33 41
400 86 247 100 83 61
337 837 267 155 111 86
362 394 274 94 70 53
337 374 314 142 103 74
288 429 239 123 17 39
312 189 249 116 95 72
361 349 252 124 90 78
303 436 115 60 35 35
296 609 308 164 119 93
382 249 219 125 95 60
317 184 254 111 93 75
417 609 284 72 27 33
262 529 319 162 118 95
365 804 188 64 54 50
378 22 282 146 103 81
401 19 278 110 52 53
309 238 231 132 100 66
268 789 294 177 124 96
386 114 245 123 98 75
326 644 296 165 19 52
477 444 254 57 27 32
314 185 252 115 95 74
316 189 255 112 93 74
275 684 279 143 99 69
312 204 224 128 101 69
365 392 239 80 67 54
454 932 281 86 68 57
436 898 282 62 51 45
471 789 238 70 53 40
317 234 224 138 101 62
306 904 274 191 138 121
392 279 213 133 100 65
318 819 226 79 61 54
385 347 271 78 55 33
271 539 259 169 0 46
316 194 218 129 100 65
311 194 224 124 99 70
442 694 164 64 50 40
340 151 242 107 84 58
414 909 228 72 64 63
421 289 254 131 100 65
315 457 188 72 27 33
534 526 202 185 131 101
472 629 229 128 94 76
517 503 221 44 21 27
407 239 205 126 96 58
317 199 218 133 103 66
397 914 205 72 64 64
314 199 221 128 101 70
467 744 173 97 74 55
332 389 229 95 82 69
296 649 303 165 119 97
366 889 303 165 127 104
312 214 264 114 94 72
348 863 300 133 108 82
314 204 221 131 103 69
340 581 177 61 23 41
402 164 210 124 96 60
312 209 224 129 101 68
410 84 204 140 32 50
401 873 179 63 59 61
483 529 236 104 16 36
314 208 221 131 102 67
377 324 260 64 53 41
270 549 292 83 54 45
394 254 257 119 95 70
427 224 224 120 98 73
467 724 179 82 67 52
466 572 262 146 31 54
312 214 224 129 99 64
285 433 247 107 12 25
390 178 246 113 92 68
460 738 160 74 56 43
322 154 244 109 91 72
349 167 230 106 84 57
549 510 214 187 134 106
318 214 220 134 102 64
307 644 244 157 8 41
333 243 281 116 94 69
318 219 220 134 101 63
394 234 206 129 99 61
412 943 314 40 37 36
269 504 264 90 21 38
514 496 224 49 23 27
298 720 240 112 16 36
329 427 127 133 20 24
271 529 239 165 1 43
318 224 221 136 102 63
367 459 318 76 25 34
402 224 258 125 100 73
322 564 170 74 34 40
310 194 227 123 98 71
411 934 264 67 60 61
310 192 236 117 95 72
423 885 214 63 55 55
372 319 239 86 70 52
310 193 239 115 94 71
292 784 307 176 132 99
402 69 189 120 32 29
358 324 294 117 83 59
309 199 234 118 96 71
309 201 226 126 101 71
387 54 194 92 33 24
338 818 216 80 63 55
386 19 194 125 35 11
416 863 271 40 35 32
337 184 213 135 103 65
308 209 229 124 98 68
300 478 141 92 23 37
468 719 169 67 51 41
308 204 239 115 94 71
336 419 317 110 17 38
307 434 139 70 24 31
339 501 311 165 7 53
369 385 244 72 60 46
307 209 239 116 95 70
371 374 239 70 59 46
285 447 237 99 16 27
519 463 231 124 14 37
311 194 249 116 94 71
417 943 285 65 60 58
507 784 225 95 72 52
404 68 192 124 38 35
349 689 201 128 9 30
462 504 194 73 30 37
309 196 242 113 92 68
455 764 151 80 63 49
309 199 243 114 92 69
411 862 261 36 32 29
412 484 284 151 11 46
462 439 155 92 31 39
320 754 306 150 22 51
403 679 291 53 30 33
398 27 232 107 92 76
401 112 200 160 49 59
298 419 220 64 39 37
313 194 254 114 93 72
312 199 254 115 94 71
310 204 250 116 94 69
385 405 298 97 28 37
314 350 251 106 88 68
346 294 251 85 70 53
402 179 252 122 98 72
342 734 203 105 22 34
377 799 278 189 133 111
327 269 233 105 81 54
428 761 271 92 72 64
311 204 254 115 93 69
373 739 190 61 34 37
397 184 253 120 97 72
302 504 159 80 21 32
316 213 266 112 93 73
310 208 251 114 92 67
310 209 254 114 92 68
320 444 182 123 2 35
419 579 187 155 3 35
342 154 210 131 99 60
323 314 303 121 93 64
310 215 227 127 99 65
449 514 266 66 30 34
311 269 279 122 96 68
405 98 242 116 59 57
410 824 134 141 135 131
510 464 237 136 8 40
307 214 234 122 98 69
373 756 296 91 70 60
374 380 216 86 75 64
267 789 289 181 125 99
393 214 253 119 96 71
308 219 229 127 99 66
419 274 256 133 97 64
408 59 234 123 34 50
299 457 111 164 6 32
383 398 280 56 46 34
310 219 227 128 99 64
428 800 148 60 50 45
331 664 213 109 15 31
311 224 227 131 100 64
384 279 220 126 97 65
411 144 243 116 93 68
332 739 313 177 20 57
495 774 247 87 69 53
372 369 254 72 59 46
397 24 234 106 87 68
376 384 212 90 78 67
327 574 311 68 31 37
455 473 161 152 14 35
306 219 234 124 99 69
402 349 212 90 80 71
410 739 132 56 46 37
316 873 274 155 121 92
289 745 245 114 60 48
306 219 239 119 95 69
312 593 190 190 11 45
307 214 244 115 93 70
341 449 139 47 35 37
379 818 175 49 45 45
308 214 249 113 91 67
273 434 278 83 24 35
380 239 222 120 91 58
440 714 172 62 50 38
326 314 306 121 93 65
393 93 191 164 30 51
309 214 254 114 92 68
387 444 152 136 1 29
401 211 206 119 95 64
407 304 212 112 90 65
342 269 239 91 72 48
346 219 263 114 91 64
306 219 244 115 93 69
358 763 196 78 49 44
305 224 244 118 95 70
498 525 203 169 20 38
377 229 234 109 89 68
373 324 259 69 57 45
494 516 235 35 27 26
387 44 262 123 95 73
316 229 223 136 101 62
322 589 185 185 7 38
407 199 255 125 100 72
432 715 186 70 53 46
401 709 160 46 39 35
346 173 216 130 99 60
348 416 154 87 31 31
367 10 264 105 47 47
410 817 257 129 104 88
476 489 257 156 5 47
450 718 130 102 73 53
402 13 259 101 48 47
303 244 244 127 99 68
304 239 249 121 96 68
389 154 216 122 90 51
397 414 148 130 17 25
499 656 220 199 139 111
323 149 243 109 91 72
303 244 249 123 97 68
305 677 262 50 28 33
372 349 259 75 63 52
304 254 245 133 100 67
416 844 128 118 90 76
463 499 193 124 22 39
451 549 204 66 32 34
310 684 234 129 19 40
494 576 214 82 57 37
386 304 265 72 58 42
303 254 249 130 100 68
312 344 299 121 96 67
472 419 259 157 22 50
441 700 264 79 20 35
385 169 240 110 89 65
334 429 132 119 21 31
304 249 254 124 98 69
362 429 318 134 18 44
301 548 306 117 5 36
353 249 264 115 89 60
361 369 294 135 95 72
447 779 164 80 58 47
304 254 254 127 99 68
354 411 176 80 65 54
347 649 205 125 9 30
392 948 219 75 69 70
345 154 238 106 80 55
317 608 200 207 10 48
304 234 240 126 99 69
402 524 163 41 37 41
412 874 189 72 62 60
442 454 270 104 22 38
395 234 256 122 98 71
307 239 234 131 100 64
367 930 198 83 77 78
313 229 226 135 101 61
314 233 226 136 101 61
321 285 242 113 84 57
315 240 227 136 99 64
403 104 198 133 31 42
344 243 275 115 92 65
381 204 240 110 88 65
318 339 303 121 97 69
307 229 254 117 94 69
304 234 244 123 98 70
400 907 301 39 35 35
277 504 324 152 115 86
424 274 250 133 99 65
402 914 302 47 42 40
270 468 282 117 81 73
434 388 254 111 89 63
304 234 248 121 97 70
505 783 201 110 79 54
432 831 243 47 39 34
417 444 159 66 36 38
427 454 278 82 27 35
306 244 238 132 100 66
352 189 224 118 92 60
312 954 284 117 84 73
308 510 137 163 13 36
310 245 232 129 97 62
459 826 253 52 42 34
347 973 294 52 49 49
309 253 236 127 96 61
341 144 238 108 84 57
488 489 251 149 21 48
392 234 208 129 98 61
482 814 250 73 55 45
316 244 228 132 97 62
317 264 235 114 85 54
274 624 281 150 107 72
327 819 288 74 58 52
383 749 159 49 41 39
431 664 216 52 35 35
317 249 228 125 92 58
362 19 279 139 52 61
327 259 288 116 94 69
319 247 226 131 96 61
346 149 214 117 90 58
414 424 281 92 27 35
410 64 227 128 32 49
317 254 230 117 87 54
377 464 155 142 0 31
363 859 286 149 120 92
315 255 232 118 88 54
406 154 211 123 96 62
388 99 199 142 14 40
384 552 296 155 10 49
357 444 315 152 17 47
423 683 207 57 37 46
442 419 270 94 24 35
272 774 299 163 116 87
397 594 184 85 33 40
325 134 207 127 102 75
325 139 207 129 102 71
301 464 203 82 24 30
337 149 205 141 106 69
282 434 325 90 27 39
432 406 179 148 41 35
503 454 197 95 11 26
328 139 205 133 103 68
401 873 145 98 81 73
482 704 204 137 97 64
279 426 322 108 29 45
319 22 257 127 34 50
332 139 203 140 106 67
287 719 260 120 86 55
282 619 275 128 93 63
403 59 244 113 56 55
337 307 246 82 67 50
376 304 229 103 84 63
436 540 182 147 5 32
332 144 204 139 103 63
452 449 155 74 34 39
352 23 263 128 47 57
350 169 220 118 92 59
346 179 248 109 87 60
337 144 204 142 106 69
439 452 161 82 32 34
390 244 251 112 89 66
436 943 321 63 51 41
341 527 151 72 28 38
323 139 210 125 100 73
482 614 204 116 91 61
326 149 208 134 104 68
409 94 209 128 31 46
398 22 237 103 88 73
342 134 234 109 81 57
473 609 214 79 61 36
310 696 297 95 64 53
327 154 208 136 104 66
360 389 244 117 91 75
512 589 203 154 111 73
332 179 258 112 91 69
459 580 244 47 27 33
327 159 208 136 104 66
332 149 205 142 107 69
405 581 292 157 14 48
298 508 136 77 32 38
528 509 227 105 78 71
303 464 148 68 26 32
440 669 225 41 31 33
323 154 210 129 101 68
295 781 232 68 57 51
438 539 181 151 5 34
450 544 267 60 30 31
323 159 210 131 101 66
321 159 213 124 99 69
432 419 274 108 24 39
342 139 205 133 98 61
343 169 245 107 84 58
274 704 271 131 97 64
345 134 209 119 89 58
317 519 313 166 13 52
427 858 135 118 94 72
410 125 225 115 94 72
518 474 189 108 79 60
429 249 234 120 95 64
442 479 271 142 19 45
379 259 244 102 86 69
277 429 289 62 28 35
314 470 127 108 27 39
292 664 305 164 123 99
303 689 254 56 32 36
362 369 259 122 93 78
412 234 206 125 96 59
346 134 219 107 81 53
332 976 274 66 60 58
346 139 214 112 87 58
345 144 210 120 91 56
422 489 279 113 18 39
532 754 189 111 88 70
346 144 214 114 88 57
326 929 209 68 61 63
347 978 279 78 75 75
346 139 224 107 79 53
299 632 240 56 32 40
321 339 305 121 96 68
374 843 191 53 48 49
404 886 192 66 60 60
347 144 219 107 84 57
349 411 185 84 67 52
347 149 224 104 81 54
392 894 154 84 69 61
296 559 179 78 20 31
409 440 152 104 27 36
416 214 253 124 99 70
323 319 251 105 84 58
303 827 246 86 67 60
381 389 209 97 84 71
419 174 224 124 102 78
405 110 242 115 94 69
302 509 164 99 20 36
481 504 252 58 28 32
505 458 196 90 36 42
338 158 245 107 86 62
489 585 218 71 51 35
292 814 303 195 142 115
344 156 212 127 95 57
430 823 170 64 53 49
336 764 207 70 55 48
347 159 214 121 93 58
332 869 305 175 135 112
367 699 309 148 14 46
472 444 160 59 40 42
388 224 248 118 94 70
397 819 138 76 61 53
274 659 291 121 86 55
350 159 220 116 91 60
447 864 278 59 48 41
496 579 220 93 68 53
371 883 153 116 95 82
387 249 251 100 80 58
412 499 283 149 12 45
462 412 249 72 61 53
349 158 225 106 84 59
350 160 223 109 87 62
302 454 110 179 8 39
426 584 191 132 14 36
476 923 291 77 65 54
320 133 231 112 93 75
388 314 216 101 84 67
289 741 246 111 26 40
299 501 185 103 16 32
307 629 296 81 55 51
467 416 174 127 42 36
321 134 234 110 92 73
352 410 184 82 64 52
362 949 209 88 82 85
324 135 237 108 90 72
359 848 221 128 91 71
322 204 215 136 104 65
264 574 304 164 118 92
414 236 207 125 96 61
384 489 296 85 22 36
410 124 229 116 95 72
463 799 188 117 76 57
324 131 237 109 91 73
332 219 272 113 93 70
452 669 214 64 53 41
429 249 229 121 95 66
264 498 291 114 16 34
394 334 277 127 88 68
382 27 278 140 38 56
331 919 209 62 58 59
303 374 254 113 91 66
320 142 236 111 93 76
410 89 209 112 48 48
392 379 277 126 90 71
306 354 289 124 98 68
325 142 241 109 91 72
327 144 243 109 90 70
332 133 241 113 91 68
318 449 184 121 2 34
279 529 326 168 122 98
302 724 229 118 18 36
336 139 242 112 89 63
385 134 234 112 86 62
416 454 160 97 31 40
402 29 234 109 94 78
336 144 243 111 89 63
442 930 294 59 50 44
392 114 248 124 98 70
472 464 258 99 28 41
327 149 245 110 90 70
501 508 234 90 26 37
321 158 245 108 91 73
356 229 234 122 89 57
417 164 234 114 94 71
434 837 241 54 47 39
432 554 186 154 4 35
269 781 297 168 118 90
323 160 247 109 91 72
341 184 215 130 99 61
284 709 261 122 90 58
428 824 241 59 49 44
317 623 215 201 8 50
327 154 247 110 91 70
343 484 142 43 36 41
388 910 297 43 36 34
320 343 306 122 96 68
327 159 249 110 91 70
451 713 138 81 61 48
437 419 158 61 35 37
329 151 247 111 91 69
382 962 304 71 64 63
419 339 260 126 94 60
337 149 244 109 87 62
349 268 281 117 92 63
337 154 245 109 87 63
477 775 178 124 86 65
273 494 224 39 35 38
420 334 257 130 95 63
358 875 209 49 46 50
335 155 247 110 88 64
392 54 191 120 29 20
392 184 249 113 91 67
388 59 190 111 31 24
344 134 230 109 78 55
340 134 238 110 85 57
511 454 200 109 16 30
281 825 289 206 139 114
298 832 264 153 97 85
325 402 227 88 77 65
524 497 191 172 14 41
415 184 211 121 96 65
378 499 304 89 29 40
344 144 235 108 80 55
272 794 299 172 122 93
345 134 228 108 78 54
384 24 191 125 35 11
399 866 262 35 30 28
425 209 228 120 97 72
346 144 229 105 78 51
405 41 225 72 58 42
372 9 264 106 51 48
270 524 283 73 28 33
332 489 140 78 36 39
346 149 234 107 81 54
437 749 274 55 29 34
399 520 162 40 38 41
345 151 237 106 79 56
404 780 131 74 57 51
440 700 268 133 13 42
348 154 229 105 80 53
377 459 314 163 14 50
410 74 224 108 42 44
447 734 140 62 49 42
408 39 249 127 21 46
427 698 192 68 52 46
302 541 177 93 19 32
359 374 252 150 113 101
347 154 234 106 81 54
348 159 234 106 80 54
301 504 179 69 27 34
459 856 243 71 56 49
339 148 241 106 83 56
322 169 213 132 102 66
385 111 222 116 78 55
357 401 206 83 70 57
424 707 291 143 8 44
327 164 209 136 103 64
291 614 249 80 32 39
406 88 195 147 20 47
362 554 163 149 15 38
268 499 244 43 32 33
347 909 315 194 140 120
327 169 210 137 104 64
304 365 256 115 92 67
487 494 250 115 22 44
322 174 213 133 103 65
489 605 201 127 98 65
443 407 225 69 59 51
324 174 211 138 106 66
357 229 244 106 80 53
327 174 210 138 104 63
297 554 308 137 11 42
389 816 266 169 116 98
332 169 209 138 104 65
442 509 270 65 29 33
302 444 310 91 22 35
307 359 254 111 90 67
422 718 181 57 49 42
442 558 190 162 2 36
274 455 263 68 29 34
337 164 209 137 104 65
316 528 151 98 23 38
332 174 210 137 103 64
308 334 284 129 100 70
397 164 210 126 96 58
309 346 256 109 89 66
274 456 251 124 8 31
322 184 213 137 104 65
407 834 129 115 85 61
324 177 211 138 105 65
427 406 165 173 20 21
456 709 155 72 57 42
425 334 252 132 102 68
328 179 211 137 102 62
347 954 313 52 49 50
308 411 225 97 84 70
297 479 124 170 7 40
509 599 226 174 123 94
362 594 308 175 12 55
310 270 242 126 95 62
328 184 211 139 104 63
432 564 189 155 0 35
322 189 214 137 104 65
393 78 186 137 36 46
412 464 284 83 26 35
379 714 191 109 17 29
395 48 257 121 58 59
442 424 270 84 28 37
332 184 212 138 104 63
337 179 213 137 104 65
332 189 213 136 103 63
327 714 210 134 4 33
397 45 204 119 96 71
387 714 190 83 27 30
310 468 120 156 9 34
337 189 214 133 101 63
389 792 141 67 55 48
378 389 281 61 46 32
354 505 152 157 2 34
342 174 214 135 103 64
377 769 290 86 67 59
350 164 224 109 87 62
390 199 212 116 91 61
420 238 211 129 100 64
348 169 218 120 93 60
327 831 276 65 52 50
350 174 221 119 92 59
