ply
format ascii 1.0
comment Created by Open3D
element vertex 2219
property double x
property double y
property double z
property uchar red
property uchar green
property uchar blue
end_header
202 534 216 168 9 40
316 154 235 121 93 57
194 464 300 142 4 43
278 579 337 106 24 41
248 399 312 133 98 70
284 935 296 82 74 73
248 264 234 131 100 67
328 54 259 121 19 45
240 527 183 204 12 52
303 800 442 96 78 60
181 495 256 92 17 37
273 669 332 169 12 54
208 499 186 163 8 43
406 442 218 161 19 34
218 519 322 75 29 36
190 788 248 170 112 80
222 649 251 104 56 49
228 279 281 120 93 67
242 267 233 129 98 65
233 464 326 96 24 37
350 846 402 65 55 50
207 660 229 150 102 73
228 414 221 89 76 63
243 269 234 127 97 65
194 559 231 88 56 48
244 265 234 131 99 65
219 384 300 120 95 67
295 388 314 121 90 71
269 289 261 92 76 60
216 354 255 109 88 66
221 882 334 142 117 91
211 561 224 157 22 49
379 414 271 103 20 34
253 264 236 129 100 67
351 494 218 124 4 31
336 205 284 118 96 71
358 504 336 52 27 29
233 421 181 87 73 59
253 269 236 126 97 66
345 363 286 120 96 68
222 669 237 112 80 52
161 474 231 95 61 50
243 274 235 121 93 63
291 330 258 74 62 50
222 329 282 125 98 72
372 439 301 121 12 38
268 49 280 121 18 44
227 294 282 122 96 69
197 564 251 41 30 33
243 279 236 114 89 62
322 779 215 52 46 45
340 323 285 123 96 65
256 60 213 95 33 22
344 364 301 123 97 67
197 821 276 210 141 113
322 794 449 84 66 54
383 584 266 82 22 32
162 459 210 132 94 72
367 554 311 93 30 41
216 269 268 126 95 69
222 879 331 149 113 91
296 309 323 129 96 71
320 357 254 99 85 69
263 672 239 76 26 31
242 288 238 107 83 60
293 844 426 83 72 61
249 284 239 112 88 64
313 204 282 107 86 63
275 379 293 63 53 43
404 764 322 83 66 53
186 463 240 31 29 32
323 529 197 95 23 38
307 189 245 119 93 62
398 849 291 95 77 67
428 497 233 196 134 114
248 289 240 108 87 64
253 274 237 122 95 65
396 751 192 90 68 53
198 569 301 134 9 43
388 449 202 148 14 36
218 284 271 121 94 67
252 278 238 119 93 65
178 488 237 98 16 36
361 705 305 134 8 42
324 830 213 77 62 51
451 468 237 191 139 119
341 394 261 108 93 79
219 380 243 101 84 66
263 44 280 125 102 81
286 348 302 112 79 62
404 429 206 172 18 43
255 276 239 121 94 64
230 430 329 90 28 36
203 479 176 73 32 34
318 334 325 130 91 66
285 324 281 81 62 46
224 334 285 122 96 69
342 35 227 111 96 81
365 712 293 132 7 40
402 629 269 168 118 91
254 279 240 119 93 65
228 404 231 92 79 66
338 106 221 129 94 74
250 281 239 115 91 65
379 784 371 64 49 40
218 499 322 143 1 43
338 604 336 181 8 57
385 443 277 131 2 43
222 548 322 41 26 28
433 773 322 113 92 77
225 356 294 113 91 66
195 558 251 71 27 36
253 284 241 114 91 65
223 544 321 61 21 29
253 289 241 109 89 67
349 886 325 64 56 53
207 417 303 72 60 48
370 589 256 95 26 37
291 369 253 74 62 51
314 862 366 35 34 34
341 554 332 62 20 28
246 571 209 48 39 43
348 459 225 122 18 32
264 474 145 107 16 35
233 299 239 103 83 62
184 534 266 126 12 38
369 844 319 77 61 52
178 439 211 101 68 58
303 384 246 91 78 67
335 485 366 90 11 31
265 129 250 120 90 60
278 867 405 37 34 36
238 290 239 108 85 61
169 504 207 146 106 75
308 599 338 36 29 31
263 44 236 115 99 82
212 434 312 93 24 38
238 294 239 105 84 60
183 444 211 81 55 53
238 304 240 98 81 63
328 84 190 147 26 46
311 862 400 39 33 33
306 928 365 52 47 46
313 734 338 64 25 32
344 469 220 66 36 37
273 547 354 102 25 43
225 292 243 111 88 62
225 300 243 107 85 60
334 418 218 125 7 35
267 384 237 87 75 62
228 299 241 107 85 61
366 414 321 83 24 33
436 757 313 120 96 77
225 304 243 109 86 60
225 308 243 111 88 61
273 422 176 93 63 43
328 13 291 146 37 60
325 494 399 78 17 33
193 489 197 72 31 35
247 955 351 60 56 56
271 296 270 89 75 61
265 284 249 107 86 62
233 309 240 100 82 63
238 369 240 87 77 67
300 246 284 109 88 65
213 634 291 112 22 42
385 590 247 98 71 47
251 372 239 86 77 68
210 416 304 102 82 63
228 314 242 105 84 61
333 44 261 121 29 47
328 224 238 137 102 61
229 319 243 104 83 60
267 614 332 84 17 32
226 319 244 108 85 61
197 494 307 82 24 35
307 802 439 61 53 45
298 565 204 111 30 43
409 804 256 81 62 52
249 272 288 115 88 64
343 764 191 76 58 47
238 319 241 93 78 62
274 515 169 122 31 43
346 200 247 131 102 67
248 294 240 104 85 64
234 489 323 93 17 34
380 434 282 137 5 41
233 329 290 117 91 62
248 299 240 101 84 66
278 474 308 30 25 27
186 463 236 36 29 29
228 274 281 122 94 69
165 464 208 105 63 47
283 686 233 83 27 29
247 621 323 69 27 35
319 139 260 104 82 58
301 892 251 72 63 67
248 304 240 101 86 71
276 379 281 63 54 46
242 432 144 86 70 53
358 604 246 52 31 35
253 294 241 105 87 69
253 299 240 104 88 71
345 364 281 119 95 69
221 878 351 78 68 62
255 891 288 112 91 74
253 304 240 103 88 73
225 714 315 93 18 39
240 461 323 86 29 35
347 49 246 125 74 68
356 594 315 67 27 33
383 874 325 60 46 38
423 504 237 179 135 113
248 314 239 97 83 67
398 509 275 118 19 40
248 319 239 95 80 66
412 420 226 83 30 37
226 378 244 93 80 67
248 309 240 100 84 68
400 748 263 147 101 71
201 500 194 127 12 34
247 628 323 48 26 30
391 704 274 158 111 81
241 683 244 39 34 39
319 724 339 68 29 34
364 448 202 66 35 38
182 434 266 84 32 38
253 319 240 94 80 66
308 884 232 145 123 113
243 309 240 97 82 65
243 838 276 173 127 100
228 399 236 92 79 66
243 314 240 98 82 66
218 430 161 85 48 38
339 639 249 94 30 38
273 24 255 93 75 59
340 822 303 50 42 40
327 863 410 54 49 47
295 290 309 110 85 59
398 529 252 109 18 31
270 878 278 120 93 75
173 449 217 89 63 55
243 319 240 97 81 65
233 304 287 129 95 69
220 329 252 118 94 67
257 37 244 117 103 88
329 299 311 123 92 59
220 334 252 114 91 65
371 426 218 108 33 37
366 424 197 135 12 32
163 454 211 119 89 66
189 779 285 153 116 85
333 504 340 84 22 34
193 435 201 85 26 33
218 334 256 109 87 63
298 639 238 83 30 34
191 459 292 130 1 37
205 426 182 119 16 32
210 704 289 73 38 43
253 925 387 56 51 51
268 429 300 103 72 52
291 20 263 117 15 25
224 344 247 103 85 66
337 164 232 133 101 62
302 424 313 128 96 77
217 339 256 107 87 64
181 495 251 142 3 43
292 279 286 97 78 57
305 796 446 68 56 45
180 489 261 65 26 34
198 613 218 160 112 77
217 344 256 109 88 65
278 954 361 59 55 54
221 344 250 108 89 67
219 384 243 99 83 65
370 777 383 59 46 36
271 360 299 83 56 39
223 349 246 102 85 67
358 789 394 58 49 40
190 734 238 129 94 62
338 504 337 50 24 29
384 444 202 118 19 29
285 344 266 66 57 49
187 459 281 131 5 39
258 829 241 64 56 61
217 349 256 110 89 66
337 112 205 146 65 69
396 562 258 66 43 29
174 478 233 52 32 33
275 384 266 68 59 50
248 394 311 133 98 69
221 348 249 106 88 68
352 654 305 94 22 35
214 359 256 111 91 68
422 554 256 160 110 80
215 364 252 107 88 67
318 411 222 103 69 42
436 748 242 101 77 54
245 690 238 69 31 33
378 414 286 74 23 33
200 455 187 90 75 63
340 319 296 131 102 70
213 364 256 112 91 68
219 894 356 163 123 100
345 55 242 130 83 71
345 821 351 43 38 38
353 410 221 103 63 53
220 355 248 104 87 68
268 344 247 77 68 59
304 219 276 107 85 62
211 377 273 124 97 69
211 374 272 125 98 70
259 234 276 117 91 64
343 868 262 67 57 54
217 774 302 169 123 95
340 761 193 82 64 54
220 359 247 103 86 68
183 629 250 147 107 83
338 414 215 132 8 33
195 430 220 108 9 32
332 848 237 77 63 59
162 529 226 161 113 91
217 359 251 105 87 68
333 254 247 147 103 69
388 614 266 113 82 63
190 469 291 112 7 36
332 768 206 52 45 42
248 394 230 95 82 69
219 364 247 102 85 68
267 254 266 110 90 68
333 709 232 91 25 28
399 559 247 110 83 57
216 914 336 51 48 49
218 619 241 102 47 42
160 479 231 93 63 50
218 369 246 103 86 68
338 354 311 125 98 66
191 444 236 100 16 33
258 942 374 66 62 61
224 364 242 96 82 68
292 799 234 69 56 50
217 384 244 102 84 65
303 11 286 124 43 50
221 369 244 100 85 68
355 729 327 71 28 34
223 469 326 70 28 34
373 664 271 99 74 55
216 368 249 104 86 66
239 904 292 148 102 79
298 494 321 104 8 34
322 819 431 86 71 59
211 374 256 115 92 67
336 464 323 68 34 30
274 871 396 33 32 34
237 879 305 166 125 94
347 694 243 81 30 29
355 760 183 76 59 47
213 374 251 108 88 66
192 510 215 129 38 45
211 449 313 59 29 33
215 374 248 104 85 65
283 429 291 70 52 37
190 694 264 153 106 79
215 379 247 104 86 65
387 797 228 90 66 54
245 502 318 90 4 29
180 452 246 85 10 28
317 862 363 36 34 36
227 694 242 92 66 52
250 696 334 42 27 30
367 873 297 79 68 66
311 898 374 42 39 38
214 384 247 103 84 65
241 838 316 157 120 93
412 434 222 64 33 32
272 13 302 133 96 84
251 887 399 36 34 35
219 734 301 87 23 37
194 420 247 79 32 35
286 937 374 57 54 54
283 903 251 90 79 75
283 849 256 178 126 102
289 369 311 120 88 68
203 415 246 86 59 51
210 379 257 118 95 67
388 709 277 153 108 78
207 575 235 57 36 40
184 509 246 138 0 39
211 379 254 114 92 67
360 640 269 173 46 52
288 644 332 100 29 42
318 39 266 121 25 47
219 431 157 78 58 45
344 384 265 104 88 71
212 384 251 109 88 65
341 155 260 117 94 68
383 822 330 83 65 56
209 384 256 118 94 67
224 374 242 95 81 67
216 372 249 105 86 67
339 494 386 164 18 48
399 434 201 125 21 39
242 481 144 213 14 52
223 384 242 95 81 66
333 44 216 117 84 54
388 664 268 142 106 79
362 827 233 71 56 50
228 329 245 106 85 63
177 629 241 168 117 89
268 871 375 62 55 49
229 323 243 105 84 60
223 899 326 93 76 65
233 323 243 99 81 61
296 444 188 69 36 35
296 900 250 98 91 86
344 99 211 120 64 56
339 289 296 129 100 66
308 634 333 76 29 39
159 489 226 148 109 86
289 536 184 69 24 27
232 326 244 100 82 62
383 757 203 67 52 44
228 334 245 104 85 62
181 459 261 130 2 38
189 684 261 154 107 80
330 536 328 77 12 26
340 476 395 54 23 26
234 329 242 97 80 62
192 424 246 77 30 32
224 452 128 94 26 42
248 349 242 84 75 66
304 194 256 106 85 62
337 483 371 107 2 34
373 429 216 90 30 37
303 413 200 113 53 32
230 334 243 102 84 63
224 359 295 115 92 67
238 329 241 92 77 62
335 180 234 140 105 63
446 477 237 205 135 120
414 604 256 161 111 80
283 20 302 139 95 75
330 876 260 78 69 68
263 349 243 80 70 62
169 484 203 144 101 75
228 339 244 100 83 64
227 344 244 99 83 67
288 11 267 111 70 53
381 597 273 140 28 48
230 344 243 95 81 66
253 748 330 142 23 51
319 367 249 97 83 69
230 340 243 96 81 66
262 334 300 118 81 61
411 424 244 104 13 35
279 413 267 67 48 38
238 400 314 128 100 70
349 689 316 135 6 43
228 349 245 96 82 67
209 379 266 123 98 70
222 669 276 95 26 40
263 499 314 34 26 27
193 494 201 126 24 39
273 872 429 58 52 50
278 769 318 56 47 44
232 349 244 91 79 68
295 24 264 117 28 29
342 359 306 123 97 66
258 219 235 130 101 66
228 369 301 117 94 67
238 344 241 89 77 65
238 349 241 88 78 67
243 329 240 91 77 63
283 669 235 88 30 36
248 329 240 88 76 63
238 398 313 128 100 70
350 688 313 140 10 45
289 849 251 101 75 66
426 763 238 98 70 52
338 259 252 148 102 68
253 584 330 40 27 30
192 439 216 91 15 33
383 589 276 141 25 48
268 689 335 147 14 46
248 334 240 86 75 63
299 531 367 180 17 58
273 419 191 81 67 52
418 827 294 93 74 65
341 314 291 127 97 66
197 445 199 76 51 42
374 614 251 79 59 41
165 489 207 156 110 83
300 244 281 106 85 61
335 12 281 151 86 101
398 589 267 115 83 63
301 473 313 111 2 33
379 634 238 129 98 65
253 329 240 88 76 64
333 69 251 121 32 49
232 442 329 134 32 52
313 899 372 46 44 43
303 324 328 131 94 72
335 114 221 121 93 64
311 411 218 92 75 60
204 518 202 167 6 44
367 416 227 102 45 47
329 11 242 89 68 56
253 334 241 85 74 62
306 16 302 142 91 74
248 339 240 83 73 63
341 341 300 129 102 72
270 100 268 131 98 74
336 400 247 103 88 73
218 424 176 94 61 50
248 344 241 82 73 65
261 285 284 80 66 51
243 349 241 85 76 67
371 882 312 68 57 55
253 339 241 84 73 64
183 504 202 183 130 115
285 369 295 111 76 62
361 699 296 151 16 47
184 484 281 43 25 30
339 194 277 119 96 71
229 360 243 92 80 68
192 439 236 95 10 32
373 701 238 93 77 61
289 404 300 122 85 67
375 525 308 173 10 55
318 319 264 116 91 60
308 279 316 100 83 64
335 504 204 126 12 29
208 429 171 115 25 38
396 709 269 165 111 80
334 703 234 98 24 25
228 369 241 90 79 68
413 434 226 81 30 38
191 447 232 101 14 33
233 364 241 88 78 68
257 873 410 41 39 38
240 482 147 207 13 51
243 384 234 88 77 68
314 89 250 103 59 53
223 889 366 152 114 91
321 818 434 74 61 52
299 29 276 141 33 55
233 421 319 112 89 64
353 795 302 43 37 36
238 354 241 88 78 69
238 359 242 86 77 68
294 945 315 82 75 76
381 812 238 77 60 52
318 214 290 110 90 69
285 354 291 100 70 57
180 480 241 113 11 36
316 168 268 105 85 64
313 669 238 95 24 31
344 264 261 147 103 70
235 361 246 86 77 68
314 195 280 106 86 65
159 484 216 160 107 84
238 361 245 86 76 67
228 421 319 98 77 56
289 29 259 89 33 29
232 373 239 88 78 68
346 365 286 120 96 68
293 554 196 93 33 41
234 375 238 88 78 68
390 856 294 93 75 67
268 11 267 92 75 64
233 379 237 87 77 67
223 664 256 91 56 42
445 481 256 169 113 93
238 372 239 85 76 67
351 592 324 132 30 49
191 770 239 179 120 91
315 59 221 100 28 34
234 384 238 87 76 66
367 679 280 47 30 28
368 409 276 86 51 43
311 163 257 101 80 57
333 394 322 131 98 68
228 324 286 124 97 69
306 477 318 113 0 35
228 384 240 90 78 67
368 549 239 98 21 35
347 84 206 142 26 51
293 402 225 86 72 58
398 789 296 143 106 79
341 718 339 163 6 52
264 224 266 117 91 67
378 479 216 116 19 35
177 449 214 77 54 51
321 114 225 120 88 58
378 800 297 149 115 91
243 364 241 85 75 66
328 74 186 136 30 37
243 284 291 110 88 64
218 904 361 109 88 78
183 464 271 51 27 30
296 382 254 86 73 59
258 827 315 84 68 53
243 369 240 86 76 67
264 214 240 124 96 63
388 549 251 112 24 39
267 314 247 101 84 68
313 719 338 76 31 38
385 484 292 143 20 49
273 519 320 36 28 27
253 359 240 86 76 67
304 199 247 118 94 65
278 44 282 130 99 77
310 840 418 94 80 68
347 199 256 120 96 68
293 824 305 73 60 47
291 308 303 113 81 61
253 371 238 86 76 67
220 894 361 161 120 98
253 364 241 86 77 68
253 369 240 86 77 68
333 164 270 112 92 69
323 105 254 112 90 67
297 328 264 77 66 53
243 372 239 86 76 67
381 534 295 39 28 31
394 464 211 61 33 36
220 933 349 58 55 56
317 109 252 107 85 62
338 399 251 104 90 75
344 254 286 126 97 63
266 78 217 158 21 47
412 469 246 107 27 36
168 494 239 133 91 84
223 634 246 110 59 50
243 375 237 85 76 67
253 524 319 58 20 29
313 829 437 63 55 47
210 528 202 170 11 43
184 436 209 84 52 46
248 294 295 115 88 63
361 828 359 52 44 39
216 412 239 82 70 58
248 379 236 87 77 68
188 594 215 160 112 78
248 383 234 90 79 70
253 379 237 87 77 67
223 440 126 82 49 33
224 449 127 96 28 40
310 94 228 108 25 35
320 854 371 39 36 36
228 439 126 73 58 45
273 39 247 79 42 26
323 619 237 56 36 37
208 764 230 151 107 75
166 504 209 149 107 76
197 424 216 106 29 36
373 594 266 91 11 28
233 438 126 83 63 40
313 344 258 94 80 66
340 846 413 46 39 34
345 94 231 119 42 51
222 600 239 152 9 38
225 441 123 83 41 47
317 879 386 46 42 41
229 564 329 168 18 54
228 444 122 125 30 37
278 84 246 128 25 44
380 524 298 164 17 51
192 804 255 177 117 87
402 779 271 138 97 69
228 449 125 52 36 40
236 447 123 56 36 39
239 446 124 111 30 38
398 574 241 125 98 68
243 444 124 133 25 45
300 268 263 121 91 60
288 309 296 113 85 64
243 449 126 120 23 36
418 798 251 99 74 58
252 440 127 67 51 44
278 750 327 62 52 47
267 259 266 108 89 68
328 32 269 142 28 57
252 448 128 137 14 38
233 453 127 110 36 45
314 366 248 95 81 67
343 174 261 119 95 69
204 421 201 94 27 34
286 364 306 117 85 65
273 624 236 78 37 42
315 69 216 105 46 43
243 453 128 80 35 38
354 669 302 153 21 48
215 339 270 123 96 67
173 444 207 95 70 50
313 828 424 93 79 67
180 494 266 74 28 35
244 562 203 117 35 42
176 469 200 119 90 65
173 449 205 100 82 63
204 609 286 164 1 46
442 479 221 156 101 80
216 604 237 108 44 41
344 259 286 128 99 64
209 614 301 68 26 33
340 274 293 126 97 63
185 807 267 193 130 101
383 649 237 144 101 71
168 444 217 111 78 66
446 754 316 119 99 81
253 389 232 94 82 70
302 589 340 159 16 52
338 12 251 101 72 60
160 459 219 130 92 79
370 772 188 97 72 52
185 514 247 127 3 39
164 449 212 94 79 62
163 449 216 111 85 68
313 154 256 99 79 56
168 449 219 87 57 47
173 440 211 103 72 57
218 629 261 61 36 39
333 499 376 116 22 43
244 339 299 127 95 68
333 449 217 118 15 29
404 619 240 152 107 73
378 499 223 54 34 38
225 264 279 120 93 67
221 729 306 142 16 47
297 804 446 71 55 41
173 441 215 110 69 59
358 544 231 66 31 36
170 441 215 117 86 70
293 566 204 65 31 35
216 338 261 110 89 64
268 574 207 195 13 46
170 441 213 109 79 63
258 384 236 91 79 68
173 444 217 91 56 50
310 506 361 46 27 28
160 494 221 156 110 85
351 419 204 104 37 38
178 440 206 103 83 61
360 846 265 66 53 51
183 439 206 115 84 62
386 509 290 62 27 31
288 594 341 87 16 33
277 464 162 79 34 33
304 815 448 78 63 51
391 429 259 44 24 25
311 169 239 115 89 55
178 444 205 116 91 65
359 534 230 74 31 40
335 104 248 117 94 70
178 446 203 130 100 71
184 464 246 66 22 30
387 784 340 58 47 37
323 114 221 132 95 70
264 334 244 88 75 62
273 409 295 91 63 45
253 839 281 172 122 94
236 352 298 111 89 64
178 449 203 117 87 66
239 400 227 94 81 68
177 447 204 116 91 69
242 911 398 61 57 57
212 404 245 98 81 65
168 514 211 150 110 80
372 434 301 142 7 45
183 449 202 93 69 58
303 904 381 48 44 43
182 447 204 78 51 39
358 420 192 138 44 45
243 459 322 73 22 32
327 299 263 125 95 62
199 494 310 106 17 36
365 804 381 70 55 43
192 438 200 87 72 61
273 394 246 83 68 52
381 778 369 68 54 44
184 436 208 103 70 59
303 404 317 129 94 76
181 504 266 109 15 37
310 936 342 50 43 41
189 769 241 179 121 91
319 165 269 107 87 66
339 23 235 101 87 72
187 438 205 84 50 41
424 804 281 94 70 54
185 494 286 68 25 34
303 12 275 128 35 40
231 407 225 92 79 65
338 399 320 128 97 68
214 459 151 148 5 39
214 788 233 182 122 91
217 459 322 85 24 35
378 644 238 123 92 59
188 436 207 94 38 42
343 99 206 144 28 49
318 274 255 134 97 65
211 404 297 116 93 67
278 837 248 186 133 109
159 489 221 153 109 84
193 434 206 91 24 32
282 69 251 119 45 47
216 912 341 52 48 48
310 879 221 88 68 50
318 13 271 122 59 68
213 609 246 84 46 43
189 439 201 75 49 42
338 25 232 95 82 70
333 249 245 145 103 67
187 448 200 99 82 63
323 414 217 129 12 28
221 309 278 122 97 71
381 867 334 53 44 41
172 490 239 99 43 48
186 454 277 135 1 39
220 674 263 80 53 44
310 501 382 87 16 26
314 219 290 109 89 68
439 489 266 176 117 102
252 462 133 168 0 39
224 593 233 74 26 34
318 634 330 119 31 47
333 69 186 103 40 27
312 228 292 111 91 70
260 229 273 118 90 65
190 441 198 116 100 84
253 827 315 95 78 60
193 444 198 116 90 72
348 479 221 64 34 35
234 478 147 205 13 49
189 449 198 116 85 59
268 64 276 117 66 59
412 829 307 95 78 68
262 338 243 84 73 62
193 449 198 100 65 54
264 617 233 66 35 32
218 324 276 129 100 73
394 763 336 58 46 41
319 16 242 84 66 48
273 564 201 156 17 41
366 410 320 67 23 31
186 443 204 82 55 51
183 506 204 190 136 120
216 438 150 117 16 40
179 444 213 94 64 58
346 695 325 127 0 39
377 879 330 65 52 44
243 434 136 85 69 50
183 449 212 53 33 33
373 824 350 75 59 50
188 436 210 70 28 33
341 86 239 106 89 67
406 549 263 82 53 38
186 539 276 147 2 42
188 439 212 53 30 30
355 644 298 160 15 48
191 437 212 64 25 30
248 473 138 192 9 38
423 784 251 85 65 50
363 885 306 65 56 55
349 29 256 119 59 59
263 561 199 82 40 44
325 841 384 40 37 36
190 440 215 58 27 33
247 658 249 102 15 28
187 444 211 53 29 32
225 856 336 133 102 79
209 489 177 100 28 41
186 514 241 87 14 34
216 454 145 133 5 35
196 428 216 108 20 35
362 863 282 88 70 72
340 250 249 143 103 65
282 434 176 66 29 39
378 709 235 91 76 60
343 478 366 120 5 34
160 494 226 160 114 93
253 896 413 65 58 55
233 374 306 120 95 67
189 808 262 190 128 100
208 644 225 146 102 72
186 447 212 52 25 28
193 669 237 153 102 67
249 428 318 114 87 63
314 68 254 106 14 41
258 164 271 114 91 64
366 587 304 121 36 55
288 733 334 107 20 41
342 89 196 158 22 51
186 448 216 73 16 27
330 866 402 56 51 49
189 445 221 102 3 29
379 764 341 59 49 44
191 442 217 94 11 26
298 364 259 83 71 59
160 479 213 144 98 73
396 729 270 155 105 76
273 20 257 105 90 76
389 434 262 82 11 27
173 474 231 63 33 32
248 454 320 70 24 31
253 603 227 143 19 43
341 135 250 115 94 70
426 524 264 173 121 90
181 529 229 86 41 36
189 420 251 56 36 36
199 529 310 114 16 41
227 535 195 176 7 41
408 830 291 87 69 58
221 278 273 123 93 68
351 748 324 37 26 30
331 482 396 90 14 26
313 794 442 79 67 56
188 424 251 42 34 35
192 417 256 70 32 36
308 294 264 108 84 55
231 268 283 123 95 69
233 480 151 204 14 54
253 421 177 89 74 59
359 629 297 165 4 53
190 424 248 55 32 29
401 837 306 92 75 66
285 59 254 110 58 51
191 422 249 73 39 37
396 728 223 70 53 39
258 929 281 89 79 77
274 75 273 123 96 70
342 442 323 61 41 28
181 495 260 111 19 40
181 477 246 106 2 33
268 784 310 54 46 41
328 12 266 120 60 67
191 428 245 67 25 30
202 519 312 89 22 38
190 429 247 42 28 29
268 414 201 86 72 58
347 690 320 132 3 42
187 429 251 46 28 32
186 664 252 162 115 89
388 417 220 88 28 29
340 836 230 74 63 61
303 279 265 119 88 57
219 884 351 164 132 112
166 496 238 151 113 101
285 516 368 71 25 31
185 424 257 89 27 37
214 409 242 92 77 63
242 735 332 73 24 37
237 815 239 79 63 58
338 444 221 81 28 33
266 258 248 112 87 57
343 893 301 64 55 56
266 180 264 115 90 64
187 434 251 88 18 34
338 779 313 48 41 38
304 224 281 110 88 65
317 507 357 140 15 44
184 429 256 95 22 34
345 85 200 159 32 57
172 468 228 64 36 30
243 554 197 89 32 39
186 428 254 55 29 34
196 433 222 107 4 32
395 551 266 116 25 44
341 205 279 122 98 70
272 54 232 64 39 25
315 921 310 73 63 61
329 223 293 116 94 69
185 430 253 80 18 39
365 664 247 111 85 58
218 639 256 94 57 47
288 499 317 71 17 31
193 794 290 151 114 87
192 434 241 83 13 30
210 608 248 72 49 42
180 498 263 54 26 29
270 764 224 65 54 49
256 174 274 114 90 64
293 953 336 78 70 69
411 628 252 161 112 78
327 279 310 118 92 60
192 444 231 105 6 33
165 544 226 164 113 89
197 429 236 92 11 31
318 809 303 114 84 69
190 446 229 107 5 33
190 441 238 94 23 35
257 289 290 98 77 55
391 563 275 142 20 48
381 822 349 86 67 56
211 433 164 69 40 40
190 444 238 104 46 47
238 519 176 130 23 43
191 448 236 89 22 33
332 843 226 86 66 60
208 689 231 143 100 66
238 545 194 134 24 40
180 484 266 65 23 31
183 434 256 80 24 30
407 489 266 113 17 37
220 416 214 82 68 55
294 274 286 99 80 58
383 825 327 87 68 58
206 540 313 116 29 46
211 469 160 161 10 41
376 764 294 101 77 52
389 790 220 77 57 47
180 446 246 84 14 25
179 449 246 88 23 33
344 84 196 158 23 51
435 481 226 131 90 60
258 854 271 197 138 106
183 444 246 83 13 26
268 734 225 56 37 37
292 514 336 46 27 29
218 489 322 116 13 41
185 441 247 86 12 30
397 416 222 75 30 32
283 901 249 89 79 77
247 624 323 52 25 28
279 890 247 74 66 65
182 444 251 89 15 27
349 49 226 116 36 38
438 484 268 150 109 90
381 466 299 107 36 47
180 489 256 76 25 36
215 677 268 77 55 49
366 489 329 60 26 30
181 444 256 106 10 32
264 392 234 92 80 67
180 448 249 87 13 29
293 592 218 175 17 49
263 423 171 90 73 56
265 239 268 110 87 63
338 49 256 129 84 74
453 454 236 137 94 78
242 334 297 123 93 65
407 484 241 122 20 30
328 474 206 107 23 30
208 639 257 114 82 68
347 649 257 63 29 32
219 409 237 88 75 63
181 449 256 113 2 36
190 435 242 84 10 30
208 749 230 143 105 74
214 504 182 174 12 47
361 837 243 91 69 60
308 324 262 99 81 60
438 480 226 123 77 57
178 509 235 86 30 35
338 584 226 68 33 38
393 574 246 106 79 53
215 454 148 131 4 38
191 432 244 71 23 30
319 495 391 83 20 28
269 474 150 84 28 34
263 416 191 87 74 60
192 469 190 126 93 70
193 478 192 131 72 69
263 174 241 120 93 61
160 459 216 138 99 80
160 464 216 144 102 82
349 639 307 162 14 51
318 379 243 96 83 69
262 289 285 83 69 54
204 499 314 142 5 45
160 464 220 130 96 79
318 804 435 89 77 69
293 339 257 74 62 49
222 284 276 119 93 67
196 439 298 126 5 37
300 414 314 124 90 73
341 686 324 126 2 40
259 917 268 83 73 70
199 424 304 133 8 42
350 29 241 91 52 43
185 449 274 141 1 41
159 469 221 126 96 75
317 19 245 79 37 30
362 748 210 52 43 42
201 525 210 102 29 42
348 534 339 138 19 45
223 364 296 116 93 67
248 437 130 87 69 50
159 474 216 131 94 69
159 479 216 165 111 91
258 134 271 119 94 66
182 484 276 53 29 33
223 454 131 169 10 44
258 229 236 131 101 65
230 910 303 61 56 57
348 619 246 113 28 41
188 529 246 52 27 34
222 334 282 124 98 70
159 474 225 120 87 71
233 414 206 89 75 61
200 822 279 205 140 110
158 484 221 152 108 84
160 489 216 155 108 82
226 506 174 78 39 43
464 767 322 123 95 76
208 474 166 126 20 39
236 639 318 72 22 32
286 63 258 126 17 44
160 484 231 106 80 56
303 714 227 59 35 33
376 469 315 120 25 44
177 479 199 131 99 72
347 24 271 130 34 51
312 848 429 79 74 70
298 550 194 149 25 45
389 784 216 69 54 45
228 729 236 81 20 31
352 709 330 126 16 41
217 434 317 136 9 43
368 884 311 69 60 57
297 409 311 124 92 72
248 829 286 160 118 96
302 853 434 61 56 54
285 349 286 94 67 53
174 454 203 131 97 70
171 459 204 134 100 72
333 789 310 47 40 38
308 64 241 91 45 42
186 805 282 186 131 107
224 924 311 67 61 60
336 65 188 101 45 30
187 739 241 145 102 69
161 453 216 120 89 70
285 532 369 139 37 55
338 334 301 132 104 72
323 59 259 123 16 45
341 294 281 120 90 60
166 474 239 123 77 70
182 469 271 63 24 32
160 456 213 137 95 78
166 452 209 99 78 52
409 518 269 112 55 52
201 472 308 72 30 36
334 822 307 63 50 43
164 450 219 100 69 59
215 364 280 120 94 66
160 456 219 125 86 71
168 454 221 65 42 35
250 419 313 125 93 68
160 459 213 136 94 74
319 499 338 79 23 34
309 454 195 111 18 27
163 464 211 132 95 73
233 404 314 126 99 70
163 459 221 96 66 56
400 764 272 133 96 63
232 591 229 177 7 37
173 454 221 48 37 34
246 469 319 49 25 26
326 445 213 109 23 26
174 452 218 63 47 45
200 421 304 131 13 42
174 457 223 38 33 26
189 454 236 88 18 32
222 704 237 126 92 64
243 544 192 84 30 40
194 469 188 141 97 80
223 509 324 118 11 40
298 479 177 44 40 43
238 804 235 77 62 56
189 454 286 136 1 40
165 469 208 111 82 57
373 709 236 91 76 60
184 574 213 159 112 78
164 479 207 148 106 77
288 314 296 109 81 61
263 319 296 108 76 57
172 473 204 126 98 71
180 642 238 170 117 83
330 334 313 123 94 60
338 479 212 77 29 35
308 694 334 48 29 31
194 580 244 82 56 45
255 439 318 67 36 31
335 304 303 131 100 69
173 479 201 114 88 60
380 472 303 74 35 35
313 254 303 111 90 67
298 924 375 57 54 54
187 529 251 110 11 39
326 882 369 42 38 38
206 475 169 76 33 33
254 962 336 71 68 68
366 789 202 80 62 48
371 759 299 135 104 78
329 280 259 146 102 70
375 544 303 47 26 31
345 184 256 117 94 67
178 467 228 65 33 34
404 804 246 90 68 55
404 654 261 182 126 99
161 467 214 139 99 74
288 484 166 55 39 41
160 470 213 126 94 66
310 161 251 101 81 58
354 574 326 176 12 55
218 439 136 57 40 41
160 474 213 124 89 62
306 230 249 127 95 56
373 760 181 87 63 45
203 420 305 93 34 39
182 453 200 103 77 60
185 775 280 156 114 83
313 793 446 70 59 49
209 464 315 56 27 31
265 319 244 99 84 68
184 455 198 110 90 67
317 144 231 122 95 61
221 342 283 122 95 66
278 819 239 79 63 59
178 459 201 106 71 53
343 624 246 99 29 39
228 489 161 97 33 40
253 294 295 112 85 61
408 764 321 83 64 48
263 79 216 157 19 43
184 469 241 101 10 34
185 509 290 54 29 34
316 12 279 129 50 61
388 764 351 57 43 32
192 539 296 163 3 49
342 544 331 63 20 30
177 464 200 106 77 55
384 579 282 83 30 38
314 875 412 54 48 47
183 459 197 116 86 61
333 899 336 66 59 57
248 499 156 205 12 44
257 279 285 95 75 53
228 425 325 86 54 43
180 460 198 115 88 58
378 779 380 68 52 42
188 459 196 99 66 57
297 29 267 146 33 47
345 52 214 106 82 50
263 23 295 134 28 53
218 789 232 178 120 88
345 368 276 118 95 68
342 174 266 119 96 71
349 584 331 178 7 57
261 892 281 57 51 51
348 479 371 170 18 53
211 408 244 94 71 60
192 459 195 57 39 38
184 451 215 44 26 24
183 453 216 35 29 27
183 454 221 57 23 27
243 949 351 71 65 64
183 458 223 45 24 27
185 451 221 83 15 26
222 349 286 119 94 66
253 629 331 71 24 33
380 437 283 137 7 42
353 409 251 102 88 75
186 458 223 30 30 32
179 469 198 141 104 79
230 633 253 150 8 34
363 415 216 94 40 47
183 469 197 117 85 70
283 489 161 49 39 39
193 484 195 68 34 38
213 399 245 98 82 65
424 484 251 108 81 54
177 474 199 131 101 73
179 474 198 142 107 84
187 499 202 170 117 107
203 594 250 98 38 40
184 453 243 107 57 57
267 264 251 107 84 58
248 714 235 98 21 30
183 479 196 110 83 60
247 314 298 119 89 63
227 509 324 123 5 37
164 464 226 69 48 40
308 834 437 62 54 49
276 345 282 66 55 42
162 461 237 144 110 100
393 724 216 75 59 46
206 469 169 109 27 39
189 699 261 156 106 79
263 819 237 84 68 61
223 420 315 108 86 64
205 494 314 141 1 42
312 54 231 76 43 34
164 464 236 103 63 49
329 49 196 121 42 20
405 470 235 78 29 35
323 184 279 110 90 69
432 800 277 85 64 45
396 744 274 153 108 77
163 464 240 138 96 90
399 584 238 133 103 70
296 419 307 125 91 73
173 459 225 53 42 38
227 831 260 80 65 60
269 484 150 129 7 35
383 689 276 134 98 70
283 804 305 120 86 70
248 424 316 118 90 65
383 654 238 155 107 78
166 466 236 95 52 42
328 109 254 113 90 64
299 854 232 75 64 62
283 939 301 86 79 79
162 469 226 89 57 49
205 537 213 168 7 39
162 469 231 103 69 52
203 419 236 72 24 31
271 444 158 143 0 36
160 470 224 119 85 69
338 495 396 115 28 44
294 489 170 46 39 42
219 435 146 100 37 38
260 567 203 95 28 42
271 902 404 68 63 62
340 865 363 44 40 37
319 319 323 129 91 65
425 734 302 108 81 60
310 59 236 84 34 30
166 466 230 88 56 44
371 823 238 74 59 54
169 468 228 74 40 34
301 208 256 106 86 64
318 244 301 113 91 68
212 800 240 184 123 93
335 422 218 139 2 49
275 91 268 117 24 41
160 469 236 141 98 78
160 468 239 147 100 84
163 469 240 139 93 83
162 474 227 86 57 48
360 438 198 81 26 30
263 374 302 129 90 66
222 924 316 64 59 58
371 444 203 54 36 34
161 474 236 136 96 77
363 824 356 56 46 40
214 404 242 97 81 65
369 489 327 55 29 33
310 916 294 77 69 69
345 79 195 149 26 47
163 474 240 144 98 87
247 464 319 71 23 30
432 474 279 163 109 99
161 479 236 138 100 80
270 432 159 105 30 19
163 479 240 142 101 89
340 83 238 102 24 38
329 449 214 112 19 29
215 274 265 129 96 71
168 474 236 86 46 46
170 473 232 63 35 30
226 759 313 43 37 37
198 609 251 107 76 61
261 144 242 118 91 58
275 334 276 72 60 48
172 480 235 54 35 28
160 497 222 156 111 86
178 460 225 51 24 29
233 489 157 75 34 36
258 334 301 123 86 64
329 408 234 99 87 71
230 335 289 114 90 63
268 408 216 90 76 62
378 849 321 78 62 51
326 309 314 128 94 63
178 464 227 63 31 32
183 460 225 59 26 30
353 880 291 73 62 61
334 279 302 125 98 65
245 841 344 78 34 35
306 193 263 106 85 61
407 624 265 166 116 89
188 454 231 48 25 30
217 417 225 81 64 54
341 180 269 118 95 69
314 894 372 43 41 42
262 79 273 100 75 58
220 739 305 144 13 46
310 843 223 79 62 55
186 459 231 53 26 30
328 434 323 137 101 79
337 74 246 120 67 63
346 47 249 133 14 47
278 49 281 124 94 72
355 781 385 50 39 28
196 437 226 103 3 30
273 538 183 105 18 36
186 462 232 55 24 32
185 437 279 125 19 42
161 484 237 136 98 79
243 948 316 74 69 70
186 524 288 86 24 38
280 766 318 58 48 43
399 699 261 154 104 73
184 749 251 160 109 79
225 346 289 114 90 63
188 459 236 35 27 28
181 450 247 97 32 43
423 754 246 65 51 34
270 312 283 62 53 42
190 509 299 128 22 45
232 889 377 143 110 90
253 624 326 53 26 30
228 474 146 200 13 51
340 114 241 120 96 69
183 454 246 88 18 31
191 780 244 171 112 82
235 380 309 121 94 67
258 234 235 133 102 65
178 489 197 150 104 84
235 472 138 99 7 29
223 479 325 113 18 41
181 454 256 116 0 36
250 547 344 176 20 56
282 469 166 62 35 38
271 320 289 62 50 37
183 459 251 96 13 30
181 459 255 117 0 35
328 199 285 114 94 72
183 464 251 103 6 33
323 15 291 137 50 59
181 464 255 117 0 35
278 853 431 35 33 32
383 713 231 98 76 52
267 234 256 118 92 62
236 438 329 72 21 29
185 459 243 61 33 35
233 434 329 101 25 39
184 459 246 61 23 32
404 724 332 87 68 54
212 464 156 154 8 41
389 569 276 69 27 35
182 467 228 47 27 30
284 384 266 80 62 49
214 404 301 119 95 69
285 391 248 84 69 55
340 816 376 44 37 34
221 684 236 125 91 63
183 469 231 60 24 28
357 729 236 58 43 44
353 399 291 112 90 65
352 455 224 97 28 40
178 474 231 56 27 31
221 526 194 187 10 42
182 474 232 71 21 30
252 514 319 29 25 27
182 474 236 88 13 31
203 749 230 142 103 72
202 604 281 93 24 38
243 829 247 83 66 62
286 407 216 81 66 51
334 458 215 68 32 30
235 296 289 123 90 65
268 369 300 123 82 63
182 474 241 105 6 31
195 431 237 87 11 30
398 754 196 90 69 56
318 889 271 76 69 69
332 304 267 124 97 66
218 289 271 120 94 67
243 809 297 58 48 45
268 34 286 128 30 50
283 644 332 86 30 40
181 478 236 75 18 31
298 389 250 89 76 63
373 795 302 141 109 85
256 51 218 111 35 17
185 465 235 54 28 27
395 561 252 84 56 44
318 818 299 107 77 65
206 449 175 76 28 33
300 514 384 152 18 48
183 469 246 99 6 31
182 469 251 109 2 34
257 159 237 125 96 59
373 789 381 69 52 40
182 474 246 104 3 29
219 624 236 102 62 47
246 406 314 132 98 71
180 480 246 110 1 32
302 244 286 109 88 65
325 118 218 133 93 65
339 464 326 64 29 28
205 424 309 60 31 34
366 420 197 148 20 25
180 474 256 118 4 36
328 409 231 96 84 67
187 417 271 49 33 32
179 479 256 116 10 36
249 464 318 45 25 26
342 154 241 117 94 69
181 474 250 116 2 35
215 512 188 144 9 45
321 564 334 46 27 29
218 494 171 149 13 42
263 64 215 115 35 32
380 431 203 81 32 33
391 559 276 122 23 43
309 890 260 78 70 72
195 579 276 145 1 39
180 475 252 122 2 37
167 484 205 160 110 85
168 494 206 146 103 76
313 169 266 104 84 62
243 924 287 77 67 64
214 354 261 117 93 67
173 484 201 147 103 80
247 596 224 183 5 42
170 489 203 146 104 75
162 484 211 144 102 72
285 329 286 92 68 52
188 509 216 146 55 59
211 594 232 106 56 45
288 304 296 112 85 63
222 432 150 81 60 41
160 484 213 149 105 76
299 404 315 125 91 73
233 359 300 114 91 65
290 417 189 65 59 58
266 300 285 73 59 43
209 444 166 147 9 40
163 489 211 149 106 77
405 510 261 125 92 87
336 827 378 40 34 34
231 274 283 123 95 69
313 504 361 60 20 26
326 779 206 51 43 40
160 487 213 156 111 81
298 234 266 105 82 57
268 204 246 121 94 62
288 929 291 83 74 73
276 364 276 65 57 49
298 18 306 185 134 130
208 669 266 113 85 67
316 928 336 63 57 56
310 268 258 130 95 60
385 735 192 91 68 47
208 494 181 84 30 39
333 489 356 84 13 29
369 624 276 122 18 42
164 494 211 151 106 79
195 574 281 159 1 44
330 555 209 86 31 36
165 493 208 156 110 82
263 309 242 103 87 71
300 872 405 40 37 37
307 508 351 54 25 30
338 189 236 136 102 62
257 490 314 76 16 29
232 383 308 118 93 66
404 764 326 83 64 50
320 535 338 160 15 50
194 559 286 168 0 47
258 169 237 128 98 62
368 859 307 47 39 34
160 493 217 153 108 83
172 499 204 160 113 84
382 823 252 131 92 72
323 835 417 75 67 61
199 685 269 131 99 74
374 725 193 81 60 40
418 489 271 87 61 43
308 399 321 136 99 77
189 504 211 142 61 62
397 679 247 123 89 58
367 629 276 80 28 38
354 454 222 59 31 37
207 389 261 120 95 68
337 823 377 43 36 34
169 509 208 151 109 81
259 144 240 118 90 57
287 44 280 118 69 61
368 764 306 94 73 59
332 324 310 129 98 64
164 499 211 150 104 77
279 633 238 59 26 32
162 499 216 151 108 80
341 104 239 125 101 74
189 544 256 73 29 37
161 499 221 150 107 82
165 509 212 154 108 81
296 32 280 122 62 55
308 589 337 151 19 48
210 618 253 80 59 51
312 710 228 119 14 31
248 476 139 195 10 42
345 229 282 121 96 68
221 921 356 78 70 68
327 695 233 39 36 39
193 629 253 128 94 75
318 43 264 129 96 76
167 509 210 154 108 81
276 42 284 124 98 77
373 669 272 87 65 49
265 532 359 113 28 40
339 624 322 145 21 50
243 427 160 86 72 57
318 11 291 132 33 52
177 483 199 133 100 76
378 714 280 125 82 61
373 449 205 72 34 36
274 319 256 83 69 54
183 489 196 163 107 92
258 94 219 149 19 40
365 635 276 60 32 34
347 853 253 73 59 57
323 498 346 57 24 29
323 644 326 61 30 36
183 493 197 181 121 107
388 769 197 83 63 50
208 459 166 115 15 36
197 784 240 177 116 85
319 19 241 78 46 35
314 35 237 68 50 38
187 482 193 178 118 103
223 404 310 122 96 68
279 70 272 121 32 49
200 663 233 129 87 53
316 475 193 122 12 32
193 480 194 115 58 57
207 389 266 122 97 69
188 494 201 150 95 88
323 475 326 67 29 29
280 521 369 87 21 34
189 429 290 88 26 40
326 17 239 79 67 57
261 449 137 107 23 36
190 491 199 125 72 70
338 204 281 120 97 72
178 509 205 180 127 104
340 324 281 120 95 67
180 494 270 37 33 33
183 509 205 189 134 121
341 258 253 146 103 68
354 855 260 80 65 60
288 329 257 73 61 49
195 593 273 50 25 31
244 762 319 70 58 52
280 468 164 51 38 41
214 435 157 84 39 38
382 476 214 55 36 37
314 514 360 148 16 45
186 503 203 177 129 115
274 374 256 69 60 50
411 524 244 149 110 87
352 524 339 70 27 33
187 504 206 171 110 103
189 500 210 131 45 47
242 723 234 101 27 33
191 501 209 143 22 31
335 896 290 91 78 75
199 514 206 163 9 39
218 459 141 172 12 45
282 394 271 92 66 51
291 309 306 111 78 56
187 509 211 156 87 84
248 449 321 73 25 33
189 511 219 154 45 65
425 807 251 98 77 53
337 204 238 134 102 62
208 635 224 156 110 78
285 54 254 141 76 71
323 59 196 85 37 24
286 957 350 64 60 60
243 399 226 95 82 69
248 919 281 73 65 62
268 199 246 121 94 60
221 629 241 104 58 44
385 424 263 120 5 40
160 488 234 141 101 78
307 214 245 125 94 57
248 799 302 60 50 45
372 459 321 68 27 33
367 439 198 90 31 37
161 489 236 155 108 94
333 539 206 151 8 36
411 629 256 162 112 79
161 496 226 162 115 95
407 488 242 120 21 34
160 493 230 159 111 90
161 495 232 163 114 93
356 838 399 76 66 57
221 654 255 102 55 47
162 494 236 163 114 99
164 493 239 157 114 104
275 413 216 85 72 57
253 404 216 93 79 66
168 484 240 106 63 56
410 830 333 66 52 45
213 599 311 135 20 46
264 139 246 122 93 61
212 748 292 137 103 73
301 238 282 109 87 63
317 913 365 54 48 44
170 483 238 72 32 25
323 164 271 108 89 68
243 329 297 119 89 63
171 486 239 86 35 36
392 749 187 89 67 49
358 418 196 141 44 38
161 499 231 164 116 95
328 859 242 78 65 62
253 422 175 88 74 58
163 499 236 162 116 100
328 429 217 102 20 26
275 429 170 123 22 30
238 444 326 65 27 33
317 64 206 104 27 37
215 739 295 86 66 57
299 429 310 126 94 74
164 504 235 166 120 103
431 503 242 201 137 110
307 823 226 52 48 48
171 522 209 132 105 73
162 509 226 162 117 93
328 49 201 117 68 31
340 148 258 118 95 69
164 509 231 164 118 98
306 823 230 47 44 47
266 249 269 99 79 58
266 249 248 116 90 59
216 924 341 56 53 54
348 409 221 108 63 51
246 407 214 92 79 65
237 284 288 115 90 64
400 429 199 148 13 30
336 108 198 138 26 44
276 701 339 148 20 54
296 502 173 159 9 38
211 422 189 91 51 45
165 508 234 174 125 109
376 608 251 78 57 38
295 270 290 105 83 60
173 504 238 124 73 72
258 354 302 131 90 65
218 369 291 118 93 65
311 154 246 104 84 62
268 845 255 192 136 113
217 329 261 111 89 63
308 74 236 107 27 37
267 540 357 61 31 36
181 483 233 86 19 30
368 735 197 76 55 45
178 494 242 128 8 39
208 724 280 103 75 54
336 336 268 102 87 70
406 433 213 167 19 37
243 475 139 204 12 38
179 484 256 100 12 35
419 818 311 72 57 46
351 71 209 133 34 50
182 504 276 63 31 36
310 776 223 68 55 50
180 489 251 113 9 39
181 495 246 144 0 41
182 504 241 140 1 41
285 304 290 103 79 59
180 510 233 94 27 37
262 616 234 61 28 31
221 466 144 194 13 50
273 12 265 95 80 68
182 505 236 118 9 37
354 708 244 63 30 35
310 797 228 76 61 53
328 499 356 91 20 37
213 444 156 102 18 34
411 484 256 115 58 54
366 714 291 138 8 42
421 559 260 169 115 86
349 234 256 128 99 64
327 497 352 46 25 30
336 467 323 62 31 33
182 506 233 105 18 35
252 950 315 80 73 73
308 504 346 36 26 28
276 917 268 91 81 80
219 503 177 68 33 37
264 144 261 115 86 60
222 874 341 94 79 71
183 509 236 122 8 38
300 12 293 127 52 52
186 510 232 109 9 36
263 359 301 127 87 64
283 652 239 89 25 30
181 500 242 140 0 41
182 504 251 142 0 42
315 819 217 60 51 49
308 349 256 85 74 63
298 756 323 63 51 47
285 889 243 84 72 66
405 442 253 122 8 38
224 431 152 83 64 44
201 469 180 74 29 30
223 438 131 75 48 43
185 523 252 132 4 43
238 504 321 84 7 28
233 427 328 78 36 30
393 414 236 59 29 28
293 574 341 49 26 31
223 434 141 76 60 39
297 533 357 160 17 52
220 436 137 80 41 38
218 444 131 87 32 39
217 444 136 72 22 38
333 209 237 134 102 61
275 349 292 68 53 38
215 436 153 106 34 35
314 924 316 68 60 56
350 488 219 118 10 31
333 894 356 52 46 44
223 423 176 91 69 55
194 559 256 56 30 38
313 449 317 130 98 77
213 434 161 72 38 36
213 439 156 56 33 36
215 444 151 115 10 33
378 494 221 96 32 38
211 444 160 132 18 40
237 421 177 88 74 58
318 764 220 75 49 46
298 464 182 71 34 36
217 319 271 126 97 68
295 434 305 126 95 73
334 359 317 127 97 65
295 274 268 110 85 58
211 449 160 131 8 33
272 434 300 85 62 42
218 434 151 105 34 35
313 219 241 130 98 59
216 439 146 123 13 38
345 364 276 119 96 69
217 433 156 115 38 39
197 434 231 103 4 32
192 417 291 49 44 41
244 690 325 36 29 30
216 432 159 157 52 51
310 20 260 95 35 41
270 777 314 56 46 42
339 760 216 50 42 43
301 214 250 119 92 58
237 407 220 92 78 64
241 314 293 119 88 62
238 579 331 65 21 29
208 423 186 96 42 44
204 429 181 121 14 32
217 469 323 69 27 34
347 264 266 136 100 65
208 425 181 107 37 37
272 354 251 74 65 56
258 413 201 91 77 63
370 815 230 84 65 55
337 364 315 128 98 66
218 899 341 153 120 99
377 549 300 78 29 37
378 754 346 48 36 30
209 426 177 117 34 28
355 529 338 120 25 46
202 429 191 109 16 33
205 425 186 115 15 35
391 568 266 63 31 37
205 434 177 132 11 37
347 469 223 69 35 34
206 434 174 133 10 35
228 384 306 118 93 67
370 549 308 115 25 43
356 574 237 148 11 37
203 415 296 74 62 50
368 754 191 86 63 46
207 439 171 104 18 37
328 889 276 63 54 52
258 29 285 113 52 53
226 684 302 142 23 49
206 440 175 134 4 38
397 474 226 94 28 38
261 242 238 129 99 65
225 942 337 65 60 60
228 744 231 103 26 31
224 463 137 192 13 48
206 444 175 124 11 37
238 844 316 146 114 84
323 84 252 116 21 43
186 724 251 151 101 71
168 524 211 139 104 74
204 434 181 121 14 36
340 319 286 123 96 65
266 107 232 135 77 66
228 419 316 119 93 68
367 853 276 73 59 54
202 434 191 70 28 32
203 439 186 80 21 34
366 649 263 63 32 25
229 623 248 137 16 35
340 199 239 134 103 63
308 309 328 130 94 71
398 774 326 90 73 57
383 834 286 67 57 49
253 308 298 114 87 62
258 844 351 92 77 63
204 444 181 128 6 37
309 84 245 98 67 54
439 748 305 117 90 69
204 449 181 103 20 35
258 109 271 118 95 71
288 714 226 110 24 35
205 444 177 126 8 39
390 768 211 58 47 44
256 472 138 171 3 36
308 734 336 152 24 53
201 444 190 41 30 33
202 449 186 96 23 38
214 269 261 126 95 66
413 763 256 89 70 56
199 759 233 158 109 78
201 449 190 63 28 31
268 23 254 104 90 76
248 482 143 208 13 46
210 430 167 83 35 46
396 549 266 95 26 38
268 416 196 86 72 57
214 431 162 88 37 31
211 697 289 82 31 37
210 426 173 110 18 26
288 390 247 80 66 51
324 427 324 142 103 79
339 234 244 135 101 62
431 509 261 179 123 95
218 428 166 89 49 40
176 614 242 150 106 77
307 493 331 51 25 28
223 427 165 89 65 50
333 309 306 130 99 67
223 426 167 91 67 52
268 724 226 90 28 31
238 795 303 62 53 48
416 493 272 85 59 45
218 425 171 94 59 48
253 284 290 100 79 58
189 679 242 161 105 76
328 495 361 86 15 30
216 427 169 93 47 39
301 218 267 103 81 56
354 836 283 47 40 37
418 489 261 102 71 44
223 425 171 91 69 55
301 228 273 106 85 60
248 463 133 147 20 35
213 423 181 96 54 47
213 422 186 94 57 48
275 394 276 61 53 46
298 629 336 79 28 37
182 449 266 137 0 40
269 39 245 106 91 75
283 399 281 99 69 55
334 520 333 70 22 31
237 735 327 169 18 56
213 421 191 88 57 50
320 139 228 125 94 58
401 669 256 174 119 89
216 408 239 92 78 63
214 421 188 89 57 51
218 422 181 92 62 51
224 421 183 86 69 57
314 139 241 105 84 60
299 920 285 85 77 76
227 289 282 122 96 69
218 421 186 87 62 51
299 909 270 82 74 73
223 421 186 84 67 55
210 396 289 115 93 67
273 604 225 139 23 42
222 422 184 87 66 54
201 544 308 147 6 46
223 420 191 82 67 55
207 510 194 125 24 43
431 759 245 101 76 53
358 840 245 90 69 60
217 485 165 102 29 41
299 839 232 64 57 56
293 384 252 82 69 54
349 474 346 134 22 44
210 434 167 58 39 38
198 429 231 103 3 32
182 434 261 46 34 36
209 439 166 89 24 36
274 434 166 121 16 30
343 609 326 174 9 56
313 412 216 101 55 30
211 438 164 62 30 40
217 609 241 99 40 39
245 536 333 47 23 26
210 440 163 126 14 37
210 444 162 139 9 37
268 189 246 120 93 61
220 425 320 119 32 41
265 827 326 82 69 55
253 425 166 88 73 57
343 769 316 47 40 37
254 497 153 211 13 43
273 58 279 116 49 52
369 684 241 102 81 56
210 449 162 129 12 33
228 431 147 83 66 47
233 431 147 84 68 49
185 606 249 128 94 70
228 429 156 84 67 50
228 427 161 86 68 53
358 624 256 62 38 39
213 544 211 129 19 40
230 411 223 91 78 64
374 418 234 96 35 25
344 827 306 46 40 40
278 549 351 169 20 56
233 428 156 86 70 52
233 427 161 88 72 55
363 869 322 58 48 42
263 204 241 125 96 62
203 419 221 99 10 32
347 540 338 135 19 46
309 260 304 108 88 67
238 431 146 85 70 52
193 564 239 62 44 36
318 229 296 111 91 70
238 430 151 86 71 54
253 418 186 90 76 61
346 92 216 146 21 51
250 527 178 216 13 53
238 427 160 88 72 56
248 422 175 88 74 58
264 15 299 138 113 114
238 428 156 87 71 54
260 203 273 115 90 62
296 862 388 30 27 32
228 435 136 81 63 40
328 35 267 128 24 48
299 899 227 101 79 63
363 755 186 80 57 46
233 435 136 82 64 44
333 339 265 104 88 71
338 459 216 55 33 35
224 894 326 158 122 97
203 559 311 61 26 33
228 433 141 82 64 44
228 414 216 88 74 61
298 748 330 64 53 48
273 939 375 72 70 73
340 698 239 88 28 28
274 95 267 126 49 57
191 545 225 118 50 49
322 853 226 121 93 71
238 434 136 83 67 49
266 174 251 114 90 63
239 437 129 88 71 53
348 49 241 124 62 59
268 14 301 109 66 58
339 413 213 151 7 34
239 472 138 142 12 38
182 514 266 51 29 35
333 149 227 138 103 64
238 433 141 84 69 52
233 432 144 84 67 48
203 604 271 104 22 42
367 798 385 74 58 48
170 513 208 152 114 83
212 505 185 176 10 42
312 489 331 106 5 34
243 431 146 86 71 54
343 574 225 160 9 40
351 887 345 54 46 42
233 589 226 179 5 41
280 11 304 131 80 68
328 549 206 89 24 38
404 614 240 151 108 72
313 654 329 57 24 32
412 579 264 166 110 87
383 789 305 139 104 81
350 477 224 57 32 35
227 664 301 49 30 34
373 829 326 81 64 56
243 429 151 87 72 55
248 429 151 88 72 55
335 732 229 68 34 35
248 427 156 88 73 57
282 74 252 132 33 51
355 719 328 62 28 34
316 487 333 110 5 36
248 427 159 87 72 56
194 416 256 72 34 36
353 499 338 102 6 33
308 299 264 105 82 55
258 848 261 192 131 103
267 209 261 117 92 66
298 404 221 89 75 60
253 431 146 87 72 55
354 594 239 134 22 42
268 925 275 91 82 80
248 426 161 88 73 57
253 426 161 88 73 57
244 829 321 152 116 93
233 619 322 78 27 36
303 404 221 93 78 62
345 235 249 133 101 63
328 245 244 141 101 64
313 609 230 83 34 41
254 426 158 88 73 57
248 436 132 89 70 53
195 642 228 175 116 87
248 434 136 88 70 51
279 739 229 65 33 36
243 432 141 84 70 53
237 940 361 55 52 52
248 432 141 84 70 53
252 436 132 89 70 47
323 569 212 179 5 39
269 309 250 100 84 66
253 435 136 88 71 52
313 144 241 105 84 60
248 429 320 105 81 58
373 734 286 86 51 40
352 791 198 74 55 45
254 438 130 80 64 44
275 391 287 64 56 48
260 909 267 76 69 69
193 439 221 104 2 32
342 289 276 135 97 69
368 839 266 138 112 110
376 429 290 150 15 48
314 84 222 102 60 46
288 384 251 84 71 56
254 449 129 148 6 36
285 369 291 106 73 59
259 719 228 130 10 33
307 24 271 102 35 43
228 423 176 89 73 57
223 394 307 121 96 68
168 529 231 129 88 73
185 423 285 45 30 33
228 424 171 90 72 56
217 319 266 120 95 66
233 424 171 89 74 57
319 499 395 49 26 29
367 504 325 104 22 40
391 450 270 129 8 40
233 422 176 89 74 58
203 409 256 80 62 51
285 369 281 94 68 52
308 864 230 95 77 70
215 450 148 113 1 32
217 289 266 127 96 70
300 860 428 82 76 73
228 426 166 89 72 55
386 470 285 43 27 30
319 324 322 129 90 66
323 199 285 111 91 70
366 756 173 94 66 43
216 743 298 128 104 84
227 427 164 88 69 53
230 426 163 89 73 56
213 749 296 151 119 88
362 769 309 44 39 38
323 484 336 59 24 30
447 740 306 102 83 70
271 346 248 77 67 59
283 494 315 29 26 27
285 354 261 65 55 47
233 426 163 89 73 56
325 793 203 72 59 54
293 20 301 165 116 96
378 604 281 157 23 52
233 426 166 89 73 56
400 461 224 42 30 33
307 209 245 124 94 59
244 664 320 148 19 50
238 424 171 89 74 58
205 617 288 138 6 39
188 669 256 151 108 83
238 426 162 88 73 56
362 459 334 52 27 29
204 469 171 87 28 37
238 425 166 89 74 57
335 831 412 63 53 49
316 79 219 118 30 45
258 517 168 189 8 39
231 422 179 88 73 59
267 244 261 118 95 69
238 414 316 130 100 73
306 202 268 105 84 61
356 733 231 56 49 51
228 419 191 85 71 58
445 480 241 205 137 121
388 849 286 82 64 62
230 669 309 36 28 31
358 589 241 53 27 36
200 444 193 43 31 32
233 420 186 86 73 59
288 858 415 58 52 49
204 404 271 102 82 62
333 189 280 113 92 70
222 409 235 91 77 63
238 421 181 88 74 59
218 924 326 59 56 56
188 689 246 157 105 75
289 449 180 118 15 27
238 419 186 88 74 60
238 418 191 88 75 61
306 233 288 111 90 67
321 876 230 102 86 80
248 423 171 88 73 57
359 570 239 143 10 36
421 498 245 116 85 64
