ply
format ascii 1.0
comment Created by Open3D
element vertex 2223
property double x
property double y
property double z
property uchar red
property uchar green
property uchar blue
end_header
282 210 255 115 93 69
411 290 276 119 94 66
374 80 246 111 57 54
316 700 220 54 34 37
481 845 290 61 49 39
321 90 170 144 14 36
246 580 310 176 124 100
250 428 321 50 39 29
287 417 313 110 82 67
309 182 258 107 89 69
445 657 257 64 40 35
242 461 356 175 4 55
464 570 280 89 33 41
491 449 301 53 28 28
246 540 330 180 122 102
256 425 315 53 44 35
213 492 363 106 20 35
421 580 195 61 35 40
408 133 223 108 90 70
358 535 172 107 24 35
521 810 236 88 76 62
244 444 313 88 23 33
436 460 165 117 19 35
367 520 307 149 16 48
256 426 320 52 42 31
257 430 290 46 36 36
511 485 295 55 27 30
429 356 232 93 81 68
384 12 258 99 78 71
351 455 321 86 25 38
325 934 321 51 43 43
401 205 260 120 97 71
243 436 317 113 25 35
404 62 197 85 39 25
398 907 213 73 63 63
296 407 215 112 36 21
396 17 246 97 82 70
489 455 202 136 11 34
357 646 212 128 5 29
337 415 322 146 21 48
489 630 250 155 111 76
243 500 321 64 26 33
331 75 175 97 32 30
254 484 273 44 33 40
279 545 224 175 11 45
290 465 199 111 31 35
508 450 235 89 28 34
426 450 312 154 12 47
256 435 290 62 33 38
416 401 200 94 79 64
291 505 329 152 12 45
476 454 308 51 31 32
433 854 247 37 33 31
371 749 303 83 66 58
394 51 192 116 27 17
445 708 172 64 52 41
232 456 368 55 22 27
392 956 255 84 76 77
315 561 328 115 21 42
319 130 206 143 100 72
406 399 199 93 78 63
476 731 175 91 67 56
364 480 164 103 18 33
313 37 242 115 97 76
339 395 294 119 89 67
296 620 240 44 32 38
390 540 298 88 26 36
296 635 284 81 50 46
235 455 325 49 38 36
321 740 310 139 19 49
315 236 278 116 95 71
403 115 218 100 80 56
214 483 353 57 43 31
446 462 302 121 30 46
351 479 178 125 2 27
257 494 342 64 28 32
293 109 205 134 23 45
338 570 317 51 27 28
397 45 256 127 105 82
481 844 261 92 78 67
248 440 307 101 14 26
222 475 345 77 25 32
414 544 297 72 19 30
336 585 320 91 22 37
213 506 321 126 97 73
208 505 340 150 113 93
316 315 261 108 81 49
469 710 175 65 53 41
214 458 370 91 26 29
401 420 135 91 71 53
427 425 140 164 5 42
260 636 307 173 125 99
421 195 225 121 99 74
254 435 295 79 32 35
256 440 290 103 24 37
294 133 218 121 97 72
367 505 307 161 0 48
466 840 259 45 38 33
298 140 212 132 105 75
269 689 263 128 92 60
320 345 256 104 84 60
401 290 276 109 88 65
502 472 245 90 23 34
294 811 228 171 117 86
404 60 239 111 27 44
254 440 294 119 12 32
391 16 245 91 79 67
411 460 310 67 29 35
301 80 185 119 52 51
341 690 209 90 26 32
415 824 263 59 47 44
296 40 199 114 92 67
296 670 265 73 49 40
248 493 290 171 2 45
505 850 265 95 74 63
325 792 208 77 61 53
236 507 317 65 31 34
496 815 240 83 67 59
378 65 196 95 35 29
290 826 239 200 135 104
411 416 145 91 77 62
397 311 283 114 87 62
240 434 325 83 31 33
509 445 237 62 34 39
320 150 230 106 83 54
311 395 319 137 99 73
260 505 260 122 22 43
252 435 300 108 23 37
382 951 301 51 47 46
214 494 328 122 101 78
436 675 235 55 33 37
250 435 305 58 32 34
236 475 354 67 28 33
336 976 255 98 92 93
321 205 260 112 91 68
468 422 178 66 35 36
407 481 297 173 18 55
301 20 259 147 112 89
325 200 231 115 89 56
253 498 280 69 24 35
295 115 210 136 107 78
320 725 311 165 15 53
229 464 368 102 12 33
341 840 220 181 129 106
422 520 174 65 36 40
225 480 370 134 16 43
251 535 332 177 121 99
356 520 310 162 9 50
250 440 305 117 14 33
391 409 180 92 77 62
388 45 192 126 41 24
347 583 192 190 16 42
393 957 276 57 51 49
371 979 270 73 71 74
443 668 237 54 48 44
252 440 300 123 9 31
489 608 263 178 120 89
369 470 154 47 37 36
230 475 385 104 19 38
474 509 202 46 34 36
461 432 260 74 61 50
336 825 275 70 54 52
301 775 291 156 110 81
320 914 240 70 62 61
283 828 247 219 148 119
320 125 215 103 76 50
286 415 310 114 87 69
402 516 163 151 11 38
244 433 318 93 34 19
237 480 315 81 25 33
286 745 238 95 73 49
405 875 181 87 73 63
284 224 271 112 92 71
421 900 245 73 62 59
356 660 308 143 19 49
253 432 297 78 29 24
281 480 210 94 28 36
294 516 193 142 1 34
231 465 366 133 12 41
283 599 260 97 26 39
256 475 341 172 15 55
366 941 326 62 54 51
337 470 180 58 37 38
300 12 259 115 50 49
311 465 327 66 23 34
241 505 351 141 100 84
365 979 255 85 78 80
253 435 297 93 24 33
322 205 229 120 91 54
409 31 241 73 54 42
351 407 280 71 57 43
362 870 225 78 63 54
481 436 285 64 53 44
404 898 212 67 58 57
293 55 196 102 50 39
253 440 296 124 6 33
281 715 247 108 83 54
278 790 288 179 132 103
248 471 291 92 21 32
255 445 290 124 8 32
274 438 243 119 18 38
231 495 355 140 92 80
213 518 344 209 139 121
318 568 327 128 29 47
334 418 228 92 78 65
495 549 273 187 125 100
511 432 239 56 25 25
232 440 335 125 15 34
341 815 280 55 45 45
459 578 283 70 23 35
261 600 280 122 91 57
221 446 360 65 19 30
356 924 200 69 60 57
381 475 309 184 16 58
371 560 307 154 2 47
318 30 230 90 40 35
396 105 196 115 81 74
301 12 225 65 55 49
451 442 308 40 28 29
323 563 187 123 19 31
401 50 250 129 22 50
356 655 211 125 9 29
392 941 300 50 43 41
288 12 226 93 58 52
252 445 296 123 7 32
305 166 253 108 89 68
416 440 309 64 22 31
471 605 237 117 91 60
294 105 221 114 61 56
331 380 250 97 81 64
246 470 295 117 7 32
406 464 309 71 24 32
331 490 176 100 25 33
380 315 261 91 72 52
310 616 224 156 14 44
419 205 217 115 94 69
274 430 245 134 3 36
233 450 331 81 25 38
358 540 172 94 32 42
455 590 231 66 31 36
424 628 217 139 26 41
417 295 224 106 86 64
278 255 265 122 96 66
386 465 136 60 30 36
245 560 321 173 121 99
254 444 294 125 11 31
241 440 320 72 31 35
383 230 249 121 97 71
435 370 255 108 87 64
336 340 285 112 83 59
287 294 257 159 109 80
250 445 300 123 7 32
438 792 163 100 73 59
447 615 240 56 33 37
249 444 304 120 9 34
401 421 121 109 51 44
411 365 217 89 79 70
321 375 245 101 84 66
245 465 300 116 5 33
368 50 250 122 55 60
418 684 213 74 34 36
401 215 262 121 98 73
429 237 239 118 94 66
286 729 243 102 79 54
247 445 306 118 11 30
403 85 242 99 22 37
454 843 247 69 55 47
239 440 323 86 29 35
318 743 308 175 17 56
236 470 315 57 31 32
390 794 184 56 49 45
247 440 310 102 22 32
456 485 294 122 4 37
243 441 317 65 36 39
278 250 250 128 100 67
308 13 228 75 58 50
296 12 221 63 53 49
404 70 192 127 37 40
281 702 252 108 84 53
381 635 307 106 34 44
470 442 303 64 24 32
399 794 179 58 49 48
284 194 240 118 96 71
336 755 310 69 29 36
381 180 235 108 87 63
292 206 269 107 90 73
245 440 315 71 30 33
365 520 308 158 17 51
325 68 173 130 21 19
265 450 343 71 20 28
286 305 315 117 92 65
292 495 196 95 22 34
390 90 253 123 28 48
391 855 265 130 105 84
247 460 300 124 4 34
341 821 213 80 64 56
214 488 333 120 99 76
353 891 210 48 46 47
300 770 218 61 52 50
236 475 315 107 26 40
222 445 355 91 24 35
274 434 244 130 8 35
302 13 256 114 45 48
241 490 346 51 24 29
369 842 218 153 110 84
296 430 334 132 12 40
376 685 307 135 21 47
218 498 369 71 25 38
366 405 255 72 61 50
230 475 330 40 34 33
416 320 226 100 83 66
344 913 208 57 53 54
278 465 216 42 34 37
318 852 289 154 117 96
256 427 325 50 39 30
406 690 304 93 25 38
214 477 377 58 24 32
458 617 237 100 78 54
325 65 210 87 32 34
497 780 215 123 86 60
266 470 340 78 22 33
392 340 284 121 87 66
278 411 225 132 13 32
245 445 310 109 17 29
306 11 240 94 49 45
301 11 250 114 42 49
286 520 335 124 8 37
242 445 316 80 32 34
262 430 280 57 36 31
309 493 188 103 22 30
422 215 220 115 94 70
538 496 268 149 108 85
244 453 369 68 16 28
404 363 218 89 79 69
327 305 269 104 82 56
248 435 307 36 38 41
306 575 325 173 19 56
218 455 356 53 29 28
322 240 239 122 91 55
468 827 228 163 105 82
376 803 192 78 62 55
223 445 351 75 30 35
369 786 188 82 64 55
451 755 148 82 62 49
306 44 199 108 92 75
290 465 333 157 17 50
395 799 178 55 47 46
474 720 253 176 120 90
336 350 280 108 81 56
460 417 205 76 38 33
247 500 310 72 25 30
231 445 335 126 12 36
503 472 254 55 37 27
538 479 296 107 59 53
323 183 247 110 88 64
399 114 211 115 87 59
333 757 202 110 30 33
302 105 190 149 25 47
346 615 208 62 36 41
326 245 270 116 92 63
237 440 326 66 31 34
213 511 317 118 93 66
316 125 200 164 116 84
376 696 202 90 25 29
311 56 190 120 102 84
236 435 335 66 27 25
441 414 165 146 59 47
430 625 284 183 12 57
237 436 330 104 29 38
235 440 330 88 29 33
311 560 330 75 22 34
461 505 300 165 22 55
298 690 287 124 87 75
328 73 207 79 40 32
425 450 150 160 0 37
420 366 283 126 95 63
416 700 304 120 16 40
401 45 220 104 87 70
254 470 279 42 33 35
359 983 262 57 53 53
232 437 336 114 18 43
391 745 306 158 29 58
316 410 225 93 80 67
345 910 210 56 52 54
399 264 267 123 98 71
292 150 240 110 91 73
407 911 326 67 57 53
304 962 292 74 68 68
244 474 348 169 16 54
236 455 370 103 18 37
389 959 251 85 77 78
381 490 146 58 35 38
306 80 175 132 33 38
362 407 250 78 67 56
306 445 201 64 32 32
233 441 332 119 22 39
396 145 251 119 95 69
386 799 283 120 98 86
482 746 140 94 71 54
406 260 214 139 101 62
325 245 241 124 92 58
304 473 328 90 31 30
356 480 175 111 15 32
291 414 208 107 20 26
234 438 333 116 15 30
290 145 230 109 91 71
470 690 226 112 88 57
396 635 210 124 17 34
384 178 242 108 87 64
433 580 203 129 18 41
287 295 310 122 94 65
277 17 226 126 78 65
522 750 228 121 86 61
306 155 248 109 89 67
228 480 374 74 21 33
362 416 180 80 42 44
250 445 365 98 33 41
382 300 231 117 94 67
397 896 320 36 33 33
387 414 307 83 40 32
240 433 330 57 30 21
308 916 257 147 118 91
261 750 270 171 118 91
387 325 226 99 82 65
412 486 158 165 2 35
324 321 308 117 88 61
301 25 255 142 60 66
216 519 320 222 152 136
501 765 221 105 77 59
243 477 347 158 19 60
501 524 279 190 129 102
254 440 358 94 27 37
240 433 335 48 36 27
427 360 229 90 80 69
411 820 266 55 44 43
441 706 215 68 54 50
433 746 167 54 46 42
301 46 197 110 94 78
449 670 233 78 65 50
301 345 255 100 83 65
301 185 215 139 106 67
315 101 178 151 13 42
221 490 385 70 27 36
286 310 266 132 98 68
411 390 288 138 100 70
489 748 176 97 71 55
330 300 275 101 82 60
462 630 263 189 136 113
484 736 215 96 72 49
243 470 301 124 4 33
438 867 297 37 34 32
239 444 323 82 40 41
423 260 218 130 99 61
310 63 183 121 103 84
301 825 231 78 60 57
466 510 200 86 31 40
483 760 231 127 87 57
444 670 239 64 53 42
247 490 290 158 0 42
289 399 248 97 83 68
406 740 306 175 21 60
366 595 310 168 15 54
374 34 238 81 43 25
237 503 324 78 50 39
442 867 273 34 29 30
499 784 223 88 62 47
306 95 237 110 23 42
302 726 226 117 13 32
317 645 294 134 18 46
486 724 181 68 54 42
503 471 250 74 30 37
544 488 288 163 113 94
391 50 191 127 30 17
412 145 230 115 94 71
337 894 318 183 135 115
486 830 240 88 70 60
229 470 376 97 4 32
366 425 314 143 6 44
361 675 207 94 24 31
430 510 177 61 30 34
233 445 332 109 20 30
377 335 265 87 71 55
235 445 329 73 31 35
490 836 253 89 77 67
434 380 235 100 83 63
369 57 245 111 32 47
246 431 335 49 38 27
381 35 267 131 20 48
295 110 225 117 97 74
331 540 316 49 30 32
236 495 329 67 55 45
254 490 269 40 35 36
307 23 213 105 90 74
276 422 340 69 35 30
239 485 315 117 18 37
292 245 232 144 103 68
236 524 344 202 141 123
369 398 240 80 71 62
286 15 264 123 49 52
322 60 220 96 36 38
280 320 295 131 101 70
289 601 234 79 28 37
296 195 219 138 106 69
424 604 293 170 12 53
221 497 371 76 25 34
324 84 224 107 77 62
278 568 313 177 15 57
301 100 190 109 64 53
403 28 238 112 94 75
285 255 286 112 91 68
230 440 339 113 18 32
286 305 265 142 100 76
408 60 230 124 36 48
381 946 310 55 50 50
410 274 217 126 95 60
318 871 257 126 101 75
486 570 270 182 126 99
369 55 240 106 67 58
252 455 290 118 7 32
494 506 282 78 45 48
321 670 224 83 32 37
370 70 240 106 84 66
400 814 273 162 119 95
374 424 150 110 20 30
320 90 230 104 20 39
250 460 349 118 11 38
281 14 230 122 73 64
297 665 286 143 100 89
446 740 160 53 44 41
312 30 246 123 37 53
284 200 256 114 94 72
428 897 261 71 61 61
374 39 234 86 38 34
301 710 286 45 26 27
232 436 340 76 25 31
231 505 320 74 30 32
287 600 236 135 24 46
309 900 258 162 118 96
402 55 245 118 67 61
508 850 279 74 54 46
320 730 311 175 16 55
287 284 251 156 106 76
412 911 310 80 63 56
507 834 259 65 52 39
341 973 294 69 64 64
339 360 278 108 81 58
221 493 379 74 30 38
465 849 240 80 63 58
208 495 341 137 108 88
366 625 310 116 29 45
456 575 225 157 6 40
319 42 216 75 34 28
331 390 245 97 82 65
228 441 341 107 18 34
234 527 313 192 139 117
318 715 308 144 14 45
424 529 177 44 39 41
282 310 270 137 100 72
346 981 275 65 61 61
374 330 245 86 70 53
376 525 161 160 7 36
330 385 246 97 82 65
227 440 345 103 23 34
225 505 354 90 35 40
410 397 202 94 79 65
294 81 225 125 19 44
247 510 346 144 109 92
390 120 215 130 93 62
484 508 211 175 17 42
341 505 316 123 20 43
296 460 331 160 12 50
238 488 320 92 28 40
429 240 230 124 99 71
306 20 255 122 46 53
305 910 300 151 119 95
267 485 240 138 4 35
403 497 158 166 5 37
488 747 174 90 67 51
336 412 231 91 77 62
471 575 266 62 44 36
286 170 235 115 94 72
294 536 198 138 8 38
471 665 259 181 134 107
396 418 140 97 72 56
230 438 346 59 32 24
529 500 256 126 97 70
226 441 350 62 33 28
238 525 306 115 69 61
241 441 360 52 24 24
485 769 192 97 70 54
287 200 226 127 100 69
446 730 280 175 16 55
316 180 219 134 99 61
316 495 186 48 33 34
416 425 304 60 28 32
551 851 264 86 85 85
286 13 225 101 62 53
258 490 261 67 34 33
426 420 299 115 24 38
231 439 350 48 30 23
401 665 300 154 20 51
297 125 211 135 107 74
227 506 352 71 31 33
515 759 231 111 81 61
402 347 222 88 79 70
393 63 188 101 35 25
297 490 192 99 26 32
488 766 205 117 84 62
294 115 220 119 97 74
380 530 303 101 26 39
384 59 194 93 30 23
501 485 297 157 24 55
223 461 346 76 28 35
386 14 245 88 76 65
269 522 243 170 0 47
490 838 280 74 61 48
439 549 289 162 12 50
446 680 234 75 64 54
243 466 302 117 2 32
296 264 237 151 103 69
311 966 280 64 59 59
296 80 230 111 41 47
376 55 260 126 33 51
336 345 280 107 81 55
354 881 308 155 120 93
391 205 214 123 96 62
423 276 223 117 90 58
376 40 265 125 31 49
306 265 295 115 93 70
434 897 318 83 71 60
226 445 345 78 33 36
421 805 163 63 50 45
359 878 225 52 46 47
384 145 235 109 87 63
214 489 362 66 22 33
236 460 320 63 33 37
229 445 339 107 20 33
396 715 311 103 30 43
248 493 287 177 4 49
391 12 269 143 99 103
292 155 244 107 89 72
427 882 270 33 32 34
431 355 240 112 90 66
274 445 234 39 33 37
224 445 349 74 31 36
486 635 245 130 96 62
275 20 225 120 73 60
306 197 218 138 104 65
336 560 316 60 23 33
321 80 169 124 31 33
486 765 191 101 75 58
317 402 232 95 82 68
387 335 279 111 81 58
236 434 340 48 34 26
439 402 237 97 80 62
396 410 175 91 76 61
247 465 295 115 7 31
438 394 265 109 87 62
255 449 348 85 23 35
279 300 290 128 97 68
299 945 275 88 79 76
364 35 255 114 27 44
311 460 328 74 26 35
301 250 290 115 94 72
406 230 210 129 98 59
404 57 202 78 59 41
236 435 345 48 36 26
461 715 262 155 106 82
437 385 245 103 85 64
344 582 193 194 11 46
403 936 286 54 47 43
373 99 235 116 20 43
297 18 213 89 76 64
412 194 257 118 96 70
326 65 171 121 34 34
409 140 221 110 91 71
242 432 340 48 38 27
376 735 198 67 35 38
255 460 280 86 24 33
327 220 235 118 90 55
326 426 221 56 35 35
325 90 220 108 29 42
438 631 271 189 6 60
240 433 340 48 38 26
317 40 215 69 40 32
406 189 257 120 97 71
429 274 240 124 95 60
520 450 265 94 24 32
403 96 199 139 26 45
414 624 298 67 29 40
241 434 345 45 35 26
246 436 354 48 28 24
267 750 241 132 98 66
379 38 228 75 45 37
461 425 225 66 16 27
476 600 237 124 96 64
396 14 260 98 64 57
316 80 235 114 29 46
410 732 197 64 37 33
381 505 151 172 4 35
386 200 220 120 93 60
307 213 272 112 91 69
400 945 250 80 70 70
336 595 320 165 8 51
329 212 249 109 85 57
431 859 251 41 37 34
428 238 237 120 96 69
233 437 348 50 35 25
381 565 304 153 15 47
294 120 220 119 97 75
291 31 245 148 87 78
272 775 284 171 125 97
381 870 185 60 53 53
283 460 206 98 32 35
229 458 338 79 28 37
296 350 321 149 106 84
466 418 205 67 23 26
321 827 272 62 51 51
451 625 240 86 64 44
404 494 157 168 5 37
341 750 202 41 38 42
313 665 288 32 28 29
244 474 298 128 0 36
214 487 362 71 20 31
536 495 265 182 129 107
375 100 225 112 32 39
238 533 333 196 133 112
479 838 241 84 66 55
419 180 235 115 94 73
329 59 171 117 31 27
236 436 350 46 31 24
390 815 185 52 46 45
377 460 141 104 31 38
241 435 350 46 31 22
248 576 292 138 103 70
281 465 335 134 16 42
447 715 185 59 53 47
246 430 325 50 36 27
286 405 225 117 34 24
313 665 232 119 17 35
333 715 207 128 7 31
306 215 274 112 92 71
289 65 210 132 95 79
371 655 307 90 30 41
282 732 242 111 87 58
461 719 190 56 45 35
253 456 287 120 7 36
411 570 186 165 9 40
299 66 237 124 18 44
477 510 235 114 24 41
254 443 358 113 31 43
315 30 244 109 62 56
251 560 294 119 85 59
255 538 278 92 12 22
246 430 330 48 37 25
316 95 234 103 59 49
506 490 249 151 9 37
301 829 274 190 141 116
246 438 356 51 25 23
486 525 253 97 60 49
321 94 172 153 15 40
462 675 224 95 77 56
428 435 148 160 0 39
366 956 229 92 85 89
381 780 190 79 60 55
397 39 224 115 98 78
213 470 375 91 23 39
417 511 168 117 14 33
411 245 266 126 100 68
251 428 325 51 37 27
330 360 305 128 94 67
399 775 188 60 50 45
279 615 303 160 118 96
326 115 205 116 49 50
502 535 270 165 110 79
405 31 236 91 57 41
253 427 324 51 39 28
327 848 248 175 124 95
286 19 209 106 86 68
374 384 230 83 72 60
295 85 200 110 36 42
214 508 318 120 98 74
261 745 255 149 103 74
254 428 327 48 39 29
283 345 309 132 101 71
311 470 326 121 27 45
416 416 150 95 80 65
461 482 293 111 4 35
398 922 320 72 58 51
385 55 195 98 54 39
251 429 330 49 38 26
313 618 222 178 7 43
426 412 175 107 87 68
368 498 157 48 35 41
420 819 263 75 58 52
251 429 335 50 36 27
391 80 253 111 30 44
383 830 205 53 47 46
314 709 302 121 10 39
287 225 231 132 101 64
344 898 229 84 72 63
226 446 359 34 21 26
470 530 234 80 30 41
219 455 354 64 32 34
257 427 330 52 37 29
413 330 282 125 89 63
421 825 260 75 59 53
316 492 187 43 35 35
386 925 331 64 56 51
326 750 310 95 30 41
427 270 255 129 98 63
455 427 280 65 56 47
255 428 330 51 38 28
303 85 181 136 23 46
428 280 235 125 96 62
466 454 308 95 27 40
436 819 259 47 41 40
408 617 302 156 37 61
467 710 214 83 70 56
256 428 335 55 34 28
456 805 261 166 124 97
424 883 273 34 30 31
341 411 230 91 75 58
402 111 210 116 80 60
328 686 303 50 28 32
458 436 178 71 30 32
272 815 250 184 123 95
244 470 299 120 1 32
394 27 232 113 88 58
276 825 275 205 145 118
246 431 340 48 38 27
383 165 226 118 91 56
306 880 285 150 113 91
316 105 234 109 69 57
417 305 224 106 88 68
290 194 261 107 91 74
311 125 200 149 107 74
214 470 381 104 10 35
251 430 340 49 35 26
273 803 283 186 134 108
278 250 247 133 102 67
294 90 200 117 32 42
502 505 289 139 109 97
215 504 319 129 104 80
489 530 254 125 89 63
330 85 171 124 36 37
288 156 234 112 92 72
277 425 230 136 6 36
309 116 188 143 15 42
247 432 344 46 35 27
296 790 290 185 137 105
427 270 225 121 93 60
285 16 261 117 41 42
325 85 220 104 80 61
411 583 192 55 35 42
299 70 188 104 36 35
241 510 315 82 22 36
371 70 245 118 63 61
450 869 241 102 85 82
328 55 171 116 41 35
534 508 275 205 139 117
336 80 185 111 22 37
383 835 272 146 110 86
500 804 240 88 69 54
265 685 291 181 127 102
379 219 229 122 95 63
421 901 255 77 67 67
309 670 238 60 30 29
306 12 245 104 46 46
251 431 345 47 33 24
246 450 370 94 25 38
256 428 340 56 32 27
311 71 172 87 53 33
409 90 233 108 23 38
217 481 345 75 52 45
457 795 180 65 50 45
402 39 229 94 76 57
310 690 230 59 30 35
325 699 307 48 29 32
306 59 189 117 101 84
301 330 259 112 88 60
239 481 309 76 27 36
381 860 195 51 47 48
298 74 191 122 60 59
391 15 285 156 90 98
396 405 286 76 59 41
461 625 234 100 79 57
453 418 222 65 36 35
415 595 303 178 5 54
256 429 345 50 31 24
481 444 301 64 28 26
483 754 227 125 87 58
252 432 349 46 32 22
317 408 228 94 81 68
445 833 201 71 55 50
318 24 236 102 28 39
317 535 182 81 29 38
299 100 193 127 34 44
419 300 273 133 95 65
290 55 230 122 32 48
232 465 325 85 33 36
365 404 230 77 67 57
301 85 185 131 39 49
216 480 350 60 30 29
255 533 284 82 20 24
274 515 220 60 35 37
227 465 375 118 8 39
254 497 273 47 24 38
269 429 264 134 9 40
424 763 168 51 43 41
275 414 295 94 74 55
283 14 263 149 42 62
256 431 350 48 28 24
500 803 232 103 80 64
323 742 207 126 31 43
394 70 253 119 34 47
252 446 355 40 25 31
293 85 205 100 82 63
476 433 246 60 23 23
371 407 298 61 50 37
233 479 326 82 29 33
386 415 160 93 78 62
411 386 211 95 82 69
242 432 325 65 35 27
460 565 220 152 10 40
404 130 217 116 94 69
320 864 264 134 108 83
219 478 348 66 26 22
302 809 222 75 59 54
304 118 237 111 91 69
213 470 379 111 22 42
279 290 285 125 98 67
271 460 340 44 26 28
371 13 260 101 61 50
231 480 330 45 30 28
300 570 320 186 19 59
319 120 225 111 80 58
249 616 301 168 117 91
354 590 313 139 13 44
431 411 185 100 80 64
392 435 140 102 60 40
242 432 330 48 38 26
265 490 245 137 5 35
396 485 145 84 34 39
462 692 222 96 79 61
379 210 225 122 95 62
421 895 321 59 50 43
428 248 234 120 95 67
366 475 313 156 19 51
440 599 216 76 35 41
281 25 210 117 47 41
356 956 316 64 58 58
242 432 335 47 38 27
481 441 299 92 20 32
298 145 212 131 104 74
436 505 180 133 10 35
476 435 275 67 53 44
230 481 334 49 36 32
471 605 266 180 126 101
243 432 343 48 38 27
301 390 241 93 82 70
231 490 330 79 60 42
322 320 310 116 90 60
281 415 305 110 85 65
290 60 225 120 44 51
329 375 308 126 93 68
261 420 295 53 36 33
367 19 290 183 129 128
382 190 225 130 100 62
419 387 212 98 84 71
416 565 304 59 25 32
263 431 277 61 35 35
245 510 314 79 29 25
506 504 254 141 95 69
341 495 316 84 28 37
245 433 346 47 36 23
494 748 192 84 63 47
382 41 221 106 90 72
493 442 208 145 44 59
385 135 240 113 89 65
341 905 316 155 121 100
289 159 241 111 92 73
333 309 291 121 95 67
461 431 270 69 59 48
470 575 244 109 73 50
225 481 393 53 17 26
381 624 207 52 37 41
411 525 293 33 29 29
246 435 350 48 33 25
311 140 205 143 106 69
365 896 303 139 106 80
277 380 285 131 101 70
331 745 204 86 29 35
360 495 170 121 10 31
295 485 193 115 20 30
255 505 290 51 28 31
276 565 314 171 20 57
406 729 198 83 26 30
408 55 235 120 36 50
280 429 306 78 61 47
233 489 351 115 39 48
309 69 178 98 82 62
373 67 217 84 47 42
375 430 313 146 11 45
375 465 144 59 33 36
287 420 315 100 74 58
415 884 206 74 63 61
487 716 173 68 54 41
363 21 252 121 25 42
301 100 234 108 71 59
415 386 288 137 100 69
250 433 351 46 32 23
373 430 151 127 5 33
301 60 189 112 58 45
376 45 225 81 48 28
213 484 364 60 29 33
310 249 232 136 96 61
316 230 275 115 93 69
251 460 290 129 3 32
325 611 311 46 26 32
301 230 225 139 102 64
236 461 366 144 16 48
444 412 192 118 78 63
386 510 301 138 13 45
391 290 225 111 87 60
240 465 310 116 13 32
301 175 214 138 106 67
386 190 220 125 95 56
387 325 275 105 77 53
488 443 297 95 23 28
487 765 215 137 97 71
253 447 352 63 18 24
307 18 218 89 78 68
398 267 268 118 95 69
246 475 346 174 12 55
223 504 318 70 35 34
210 500 335 131 95 79
375 398 214 89 75 60
309 753 213 129 14 29
521 494 253 122 77 53
431 791 272 71 56 50
261 765 260 174 119 91
216 486 335 96 79 63
374 330 255 107 90 72
377 320 235 102 82 60
497 560 260 156 111 75
490 760 220 146 103 76
402 75 189 135 26 36
256 445 350 146 17 48
303 258 292 116 95 73
226 442 354 45 26 29
305 925 306 172 132 111
431 860 206 68 56 53
249 450 299 118 7 32
395 94 192 118 56 47
384 125 225 114 86 59
296 290 250 156 103 74
226 505 320 62 29 31
444 417 263 104 83 59
398 860 257 70 54 43
274 673 263 123 90 55
383 165 235 106 85 61
226 444 356 35 25 24
302 575 320 166 20 54
399 72 187 128 26 26
302 385 242 91 80 70
207 490 350 124 94 77
282 290 299 116 91 62
422 670 286 151 12 46
331 300 280 104 84 61
368 882 187 74 63 59
241 480 345 71 24 33
304 412 216 108 39 37
328 260 270 113 87 58
306 160 250 109 89 69
389 150 247 110 90 67
294 87 217 129 13 46
283 33 238 153 23 57
325 185 235 108 86 60
345 560 313 153 12 48
433 364 260 111 89 64
382 99 248 122 97 75
287 17 211 88 71 59
386 170 220 127 95 56
371 580 309 159 2 49
479 680 250 172 117 84
391 490 300 133 15 41
313 963 303 59 55 54
231 441 354 43 27 25
236 490 349 71 30 34
292 80 210 116 33 45
230 444 356 32 25 23
264 786 249 169 113 83
260 740 260 149 103 72
476 735 165 93 69 54
281 280 255 153 106 77
375 65 215 94 54 46
400 135 212 129 100 63
435 375 245 104 85 64
224 465 343 81 32 37
296 433 203 83 33 34
389 943 304 55 47 43
481 843 275 72 60 48
314 197 263 112 92 71
280 350 275 127 99 68
289 62 215 139 33 50
516 833 276 93 76 64
351 600 314 92 26 40
329 224 246 105 83 55
430 720 209 48 34 41
376 19 285 169 118 101
232 446 359 49 20 25
398 927 233 63 53 56
406 320 223 90 76 62
224 447 363 39 18 25
268 416 280 69 32 36
401 800 279 54 45 43
270 460 240 94 23 35
235 464 364 174 16 55
462 420 174 69 31 36
366 45 250 116 91 73
280 811 239 172 115 83
331 700 211 47 37 38
213 465 375 95 22 39
407 85 235 103 59 52
379 102 242 126 96 76
471 775 255 163 117 87
282 220 265 114 93 71
314 24 248 120 26 46
396 515 161 164 2 33
241 470 305 127 9 32
383 95 205 128 17 41
386 75 254 124 100 74
428 418 144 115 68 47
312 895 256 147 111 85
392 200 254 112 90 67
236 439 355 47 28 24
316 965 270 85 80 81
380 250 235 121 93 61
401 450 314 43 29 31
238 437 353 44 29 21
292 100 215 103 83 63
221 521 345 212 142 124
241 437 354 48 32 23
348 403 255 75 64 52
242 455 310 123 10 32
492 441 204 145 22 45
328 255 250 119 89 57
368 16 247 132 44 33
328 225 245 108 84 56
408 560 298 43 26 28
461 465 188 69 35 38
322 420 224 72 48 40
241 455 370 72 25 32
283 549 217 136 24 49
319 884 307 117 87 67
241 438 356 48 28 25
321 956 316 63 57 56
377 365 226 88 74 60
401 95 195 143 23 41
310 130 239 109 87 63
437 721 195 62 52 46
213 461 374 48 24 29
318 428 327 134 13 42
430 465 161 45 34 41
441 550 200 152 11 39
318 40 237 114 13 44
391 60 256 129 101 77
326 765 205 67 54 49
263 725 279 170 115 90
213 475 356 78 24 31
421 401 205 96 81 65
291 780 290 174 132 99
437 705 285 49 25 32
236 441 360 53 24 25
301 280 306 101 84 65
281 635 299 171 120 101
406 700 204 95 24 29
341 480 177 132 5 31
317 45 236 107 47 51
297 654 270 145 114 110
249 500 305 62 27 31
385 330 228 98 82 64
396 585 304 135 18 46
445 494 292 122 9 36
216 470 385 88 16 33
511 520 265 208 139 107
234 444 361 63 23 28
286 605 255 73 31 37
288 165 226 122 98 70
310 12 245 98 48 45
221 474 387 67 9 25
351 982 275 67 64 65
452 585 224 160 7 38
321 55 210 82 34 32
300 246 288 113 93 71
236 445 365 71 23 29
409 95 221 106 72 56
308 695 289 59 25 31
388 220 253 117 95 71
404 120 217 101 83 63
396 260 215 139 105 66
382 180 226 125 95 58
406 300 221 96 81 65
233 447 363 70 19 27
281 630 299 164 119 98
318 38 223 53 43 37
415 475 155 161 1 36
391 730 307 123 27 47
213 461 366 89 26 33
302 125 239 108 89 68
412 585 303 158 14 49
288 575 307 126 12 40
356 412 210 80 54 46
494 764 224 130 96 72
292 470 196 75 36 37
336 876 309 138 109 80
395 355 287 134 95 75
341 535 313 100 27 41
363 445 171 133 3 35
387 190 249 111 90 66
293 44 238 122 17 43
386 784 288 82 65 59
389 274 262 110 89 66
451 790 265 161 117 88
400 113 202 163 80 74
293 644 268 124 53 45
238 461 316 76 26 32
308 168 252 107 88 67
261 560 265 139 6 36
428 315 255 125 97 63
277 455 220 88 27 37
396 350 223 90 79 68
265 745 245 133 99 68
447 690 226 78 69 60
238 442 363 52 24 22
391 275 264 113 91 67
401 405 289 99 75 56
373 46 231 106 31 23
386 120 245 116 92 70
506 431 239 61 20 24
351 455 178 127 1 26
237 446 370 62 21 27
434 380 274 118 92 63
341 975 290 72 67 66
306 408 224 95 81 65
214 480 380 83 27 36
286 14 220 97 63 53
242 442 364 65 17 24
378 381 273 97 73 54
501 490 247 115 6 28
311 403 233 94 82 70
294 12 263 118 55 51
399 105 197 135 31 39
280 315 300 126 96 64
293 80 220 110 85 66
481 835 240 84 65 56
286 405 245 105 77 62
476 828 232 96 72 60
406 403 193 93 78 62
313 931 237 65 61 64
385 100 200 139 14 43
435 845 206 65 53 50
240 490 320 81 21 28
326 225 235 118 89 55
306 355 322 149 103 80
241 443 366 63 19 22
329 489 178 67 30 31
320 382 242 100 84 67
380 390 271 79 62 46
262 680 275 146 100 68
283 212 263 113 93 72
356 866 299 138 110 78
216 465 380 68 17 30
298 948 276 78 69 67
367 40 260 119 21 43
383 26 232 103 87 70
290 755 230 112 87 56
292 75 215 108 72 57
403 60 241 110 35 46
241 445 370 56 21 24
492 472 292 150 15 52
306 838 260 47 41 42
253 460 286 131 4 33
340 963 313 61 57 56
366 505 160 110 22 36
353 638 212 119 13 33
321 800 286 71 58 54
321 535 319 98 25 39
310 349 323 149 101 76
417 270 266 127 95 61
427 767 287 87 69 61
249 444 368 111 27 38
238 447 373 59 23 28
280 495 210 63 28 34
441 454 309 141 22 50
432 881 234 74 62 61
241 447 373 48 27 23
390 245 257 118 95 71
346 843 222 175 123 101
358 809 201 75 59 52
376 60 210 90 32 31
279 385 269 126 99 69
388 62 187 108 29 22
346 705 314 146 8 45
238 490 326 41 28 26
451 535 282 81 11 30
301 600 300 46 26 30
328 100 210 107 31 41
534 508 284 201 135 116
302 795 217 66 55 50
246 440 360 61 19 24
426 445 311 130 9 41
278 360 280 127 99 68
428 872 304 37 34 33
320 113 182 143 42 46
460 433 235 66 20 28
419 422 303 97 23 36
253 625 282 158 115 80
396 115 249 122 97 68
371 800 284 166 125 106
261 740 255 142 101 69
387 845 190 56 50 50
218 461 356 47 32 30
401 340 288 137 100 75
287 24 254 139 99 74
301 145 244 110 90 67
411 635 295 93 32 42
231 506 352 105 61 56
369 33 243 105 32 27
408 51 235 124 24 44
321 465 325 95 26 40
509 755 229 86 66 46
246 442 365 61 16 23
262 471 342 117 22 42
209 488 344 106 89 71
378 392 222 87 74 61
446 765 151 76 58 47
293 12 222 68 54 49
466 853 301 51 42 35
278 33 217 125 27 40
298 624 241 80 27 40
310 765 297 44 39 42
266 645 269 139 101 67
378 52 212 90 53 20
298 948 278 76 66 64
321 50 225 85 66 49
245 444 367 66 20 25
372 420 312 145 16 46
383 693 307 105 28 43
387 450 131 136 13 33
312 76 172 94 34 25
301 950 280 61 55 56
306 14 255 112 45 49
231 490 355 134 83 73
331 400 239 94 79 64
251 435 355 52 26 23
365 425 169 78 34 35
312 550 327 104 25 42
250 438 357 65 17 25
375 375 260 107 86 63
416 413 164 100 84 65
217 484 390 104 24 41
275 405 275 125 98 69
336 405 240 92 77 61
496 440 255 71 15 26
256 510 290 80 28 35
391 114 205 142 89 70
288 564 217 64 29 31
251 440 360 74 23 32
440 490 181 150 3 35
305 90 179 149 10 45
215 480 354 64 26 28
228 486 386 51 28 26
390 850 264 136 109 89
316 585 324 127 28 49
289 56 226 125 46 53
341 925 205 80 70 68
421 695 300 130 13 41
257 432 353 51 27 22
281 345 300 131 99 69
378 214 230 123 95 64
318 943 227 81 73 73
307 71 177 92 48 25
320 46 211 77 53 41
326 695 214 80 32 35
336 425 221 62 36 34
262 690 275 148 102 73
256 435 356 75 23 30
363 407 259 66 56 45
383 459 137 78 32 34
454 679 228 91 76 60
261 500 250 88 25 35
287 266 293 111 90 67
306 114 237 111 90 67
231 515 351 154 112 90
297 540 196 161 3 39
399 75 248 120 26 47
381 425 310 126 15 41
212 495 330 140 109 85
326 195 250 112 89 62
436 831 251 42 35 37
270 505 230 141 9 37
426 413 169 120 96 74
285 325 269 121 94 64
346 945 326 70 65 63
256 440 355 160 18 52
448 596 282 78 16 28
307 100 181 151 12 44
276 445 339 112 17 38
388 46 195 123 53 33
448 712 196 70 62 53
290 65 205 137 22 45
286 11 250 128 35 50
383 100 206 131 18 42
420 275 264 128 95 62
441 890 265 79 64 58
408 886 200 73 64 64
501 750 216 112 81 59
252 445 360 55 28 29
478 661 257 191 136 110
255 444 355 139 18 48
406 886 310 35 32 32
293 130 220 116 95 73
317 455 327 143 21 45
415 396 206 95 81 65
409 883 192 75 64 61
458 676 222 92 75 56
250 441 365 50 25 27
416 445 310 120 10 35
422 335 229 97 84 71
244 447 373 71 18 22
289 380 253 109 89 67
391 805 279 183 132 110
331 875 305 110 82 65
319 26 231 98 29 38
488 767 202 96 72 55
431 414 165 126 97 75
232 485 351 85 21 33
330 842 223 171 127 99
307 53 193 119 101 83
256 595 281 123 93 59
257 555 270 158 4 41
250 442 368 61 16 28
330 350 260 104 84 60
510 754 226 103 75 55
231 509 314 75 39 32
438 685 267 66 31 35
227 485 360 82 64 57
323 46 184 103 86 77
248 442 368 51 22 23
366 535 166 104 26 39
212 510 320 123 98 72
326 430 326 60 28 33
531 480 302 117 57 64
253 480 276 67 37 34
313 926 241 64 59 63
384 418 135 126 50 20
383 270 231 130 98 65
217 506 316 121 97 73
249 510 304 51 30 30
351 935 331 61 57 57
367 425 166 62 37 38
321 110 181 145 43 48
308 946 308 49 43 44
216 510 315 123 100 76
323 116 210 112 76 56
281 751 237 116 89 57
246 524 295 64 30 31
371 591 193 160 21 43
246 545 300 102 75 56
401 170 212 127 99 61
344 908 218 57 52 51
336 420 322 123 18 41
346 625 212 60 35 37
215 485 380 81 24 32
500 465 216 67 36 37
228 485 375 34 27 31
362 865 226 99 76 59
246 450 305 119 6 32
280 265 249 146 106 72
216 500 320 122 100 77
401 505 160 146 17 40
329 336 304 123 91 63
241 485 344 67 23 30
376 365 265 120 95 67
411 815 269 45 37 37
382 95 210 123 28 42
351 445 180 123 4 26
349 904 204 59 54 56
221 495 320 106 87 65
448 507 193 149 3 33
396 250 213 136 102 62
296 245 231 145 103 67
456 773 157 82 58 47
508 455 234 103 20 31
371 640 210 89 30 35
212 490 335 116 90 70
374 44 229 63 47 32
221 500 318 129 89 72
218 502 317 123 97 73
299 111 199 139 30 45
484 508 228 34 30 29
466 432 270 69 58 48
411 886 205 71 62 62
304 37 202 97 82 66
461 850 295 50 42 36
441 485 180 133 13 37
385 49 200 101 85 68
296 210 221 140 107 67
418 170 240 115 94 70
220 502 317 131 92 76
428 240 241 118 93 64
481 420 195 98 24 27
221 505 316 95 66 51
221 510 314 103 82 58
381 320 265 92 70 49
387 417 139 115 65 43
264 785 276 175 124 95
352 575 312 159 11 49
292 50 234 112 45 47
254 501 285 50 30 31
441 865 295 38 34 32
290 434 203 88 33 34
256 450 285 111 12 30
214 475 380 50 27 32
311 155 209 144 107 69
366 25 275 149 19 55
294 90 216 118 17 41
401 245 211 134 100 59
255 455 285 111 11 28
484 465 197 92 28 33
324 90 223 106 26 40
428 312 243 118 94 68
414 569 187 145 14 43
226 460 370 97 15 33
231 507 317 67 25 26
321 60 230 101 39 45
483 511 277 73 33 36
512 453 276 61 16 22
480 720 235 143 96 63
212 470 370 81 29 37
430 635 226 70 31 37
296 150 244 106 88 69
351 440 320 139 22 46
366 407 295 59 48 35
408 124 242 111 91 69
312 45 241 111 61 56
397 49 205 116 95 72
428 340 262 126 99 65
433 360 245 110 89 66
331 764 304 84 70 64
454 698 177 72 59 46
224 461 375 109 16 34
329 215 245 105 83 57
391 605 306 91 29 42
295 179 257 106 89 71
279 305 290 132 100 70
251 549 328 177 123 103
411 245 211 133 99 57
412 806 272 64 52 44
442 615 230 59 36 40
257 455 280 107 12 29
328 476 192 38 31 32
253 495 275 48 34 36
376 409 190 91 76 61
394 938 309 57 49 46
388 79 187 141 21 39
267 515 240 152 13 46
461 841 259 36 32 29
404 20 273 108 75 59
254 460 284 128 6 34
286 612 282 68 49 50
385 150 240 109 87 64
406 330 287 130 93 65
299 617 233 149 29 49
480 852 298 69 54 44
280 510 209 43 35 37
516 516 281 210 143 117
246 485 290 141 3 36
221 484 335 94 78 60
212 485 355 92 67 53
252 465 285 124 11 33
249 490 284 116 14 34
426 404 205 97 82 66
285 520 204 121 17 40
256 470 275 47 33 33
483 770 235 126 87 57
334 72 185 78 41 29
415 895 323 54 45 40
384 95 199 141 12 43
430 645 231 85 27 31
326 225 265 117 93 66
383 109 226 125 83 61
486 439 285 63 51 42
214 483 349 63 52 43
289 154 236 112 93 73
221 486 391 41 32 32
412 501 163 162 0 34
376 785 185 75 60 53
373 70 216 96 43 38
369 856 223 95 70 56
259 562 269 181 9 51
326 550 181 70 34 38
316 175 250 108 88 65
272 561 252 88 27 32
359 475 173 72 34 32
227 475 335 65 31 33
326 300 300 119 95 68
407 775 176 56 46 44
427 380 224 95 83 70
417 745 180 53 44 39
252 470 285 87 27 35
441 416 156 166 20 28
245 485 295 146 4 38
304 902 287 102 80 74
287 610 295 74 49 45
384 145 225 115 90 59
348 412 217 88 69 55
494 488 211 163 16 36
288 60 206 142 24 50
374 440 149 113 12 31
508 445 234 69 37 37
466 875 310 76 62 51
346 944 221 85 78 81
277 14 254 130 43 54
405 70 235 111 83 66
310 955 250 77 73 73
281 765 290 178 130 102
308 94 177 151 8 43
372 871 196 53 48 48
311 640 290 166 18 53
297 23 208 107 91 74
471 491 303 114 24 41
422 195 240 114 92 69
431 871 305 38 34 33
409 48 232 127 26 45
361 804 283 176 130 108
484 804 222 97 68 51
298 59 238 107 78 57
253 467 282 66 19 23
316 355 254 104 85 63
436 505 291 95 11 31
273 21 227 114 64 54
369 408 262 64 54 43
351 411 220 87 69 54
374 85 224 116 26 42
373 867 201 56 52 53
253 471 282 42 34 36
284 325 311 134 98 71
252 490 275 62 34 36
326 105 220 109 23 40
428 428 302 130 11 36
420 549 182 52 34 39
255 500 270 46 32 36
421 190 230 121 99 75
248 490 286 146 2 36
255 475 275 71 31 35
305 125 204 136 101 69
289 293 312 115 92 67
222 523 340 209 143 123
252 475 280 55 35 36
341 460 322 163 11 50
411 440 310 54 27 32
396 413 164 92 76 60
254 474 278 61 37 33
278 236 251 118 94 67
291 420 336 129 23 47
413 882 300 34 32 32
308 298 317 106 85 62
216 489 329 110 92 72
221 501 361 62 28 30
256 480 270 69 31 34
369 465 154 63 36 36
254 480 274 56 35 34
297 130 211 133 105 73
446 413 185 145 56 48
381 90 205 139 11 44
274 806 282 187 135 109
369 408 204 86 71 56
319 617 218 179 6 40
396 940 295 54 47 45
355 435 318 156 14 48
401 370 287 138 101 76
253 477 277 82 37 39
489 579 268 181 119 91
420 545 301 33 29 29
393 186 253 110 89 66
375 355 250 85 70 54
326 365 250 101 83 64
293 70 228 121 98 75
251 480 280 49 34 37
429 310 253 127 99 66
303 48 243 114 93 73
441 893 271 87 70 60
215 475 385 91 16 34
250 523 298 73 25 22
316 430 216 86 28 26
468 831 233 129 92 77
293 127 220 116 95 73
496 431 239 64 21 24
342 915 210 56 51 52
325 120 200 136 61 61
543 490 285 163 109 95
473 540 249 130 13 35
401 245 265 123 99 73
282 12 236 122 67 62
324 186 248 109 86 61
479 780 248 156 110 79
250 475 285 43 35 37
318 85 232 107 24 44
317 189 256 111 91 69
408 37 247 129 23 46
326 775 296 76 64 59
395 935 231 63 56 59
445 690 229 73 65 57
249 480 284 41 33 36
329 216 254 111 88 60
425 340 269 119 92 58
334 952 322 82 77 77
296 150 215 130 104 73
459 718 157 81 60 45
248 476 287 46 30 39
500 440 220 82 34 38
293 136 217 124 100 72
360 430 174 130 7 33
236 505 320 75 34 30
520 829 255 108 81 60
459 888 280 92 72 58
291 570 309 81 19 35
340 435 200 82 30 25
373 55 221 82 38 33
277 380 280 129 101 69
336 360 270 99 79 56
419 182 248 115 93 67
277 12 245 126 64 63
298 947 276 86 76 72
240 453 373 82 19 29
422 631 218 94 24 39
248 480 286 57 26 34
346 700 206 91 22 32
250 505 305 57 29 31
286 245 236 142 104 67
318 38 220 69 46 38
311 555 191 166 7 41
491 805 230 86 64 51
435 729 179 63 49 40
357 450 176 133 1 31
366 715 200 112 22 34
336 949 226 84 77 80
240 450 319 63 31 31
270 820 260 207 141 112
446 790 165 71 53 44
238 479 311 68 26 34
386 404 195 92 79 65
316 795 289 55 47 46
240 455 315 94 23 34
454 644 233 84 68 53
321 64 180 117 51 32
355 641 213 129 7 27
309 770 213 64 53 49
325 100 220 103 27 39
501 426 225 57 21 25
239 454 318 41 37 40
476 800 210 116 78 61
229 471 384 133 14 41
269 812 253 183 124 96
237 455 320 48 37 34
298 477 192 62 33 35
288 278 247 154 105 74
306 71 237 119 29 47
324 356 252 103 83 61
415 670 293 142 12 47
381 750 302 78 63 57
225 490 365 103 49 54
366 959 231 91 85 89
239 460 314 83 26 33
291 580 305 111 21 40
374 340 245 85 70 53
251 480 341 149 15 47
272 591 277 80 32 37
429 325 240 115 92 66
363 29 260 124 87 74
217 467 383 61 16 25
253 648 298 183 132 106
306 477 192 44 37 39
377 355 269 98 78 61
427 595 291 88 24 38
327 280 285 116 91 62
366 15 255 104 54 42
291 70 210 134 34 51
394 65 253 123 100 77
537 469 286 126 91 73
238 457 317 60 39 36
455 795 175 78 59 49
437 545 300 181 14 58
396 220 259 119 96 71
290 70 220 138 20 48
421 520 292 122 20 43
391 70 185 109 40 32
506 770 236 75 56 41
341 941 219 84 76 77
391 175 250 113 92 69
222 465 345 89 27 32
471 510 201 63 36 39
326 355 255 102 83 60
315 951 239 72 67 69
341 860 240 178 121 88
317 305 310 113 86 56
371 19 290 204 146 158
225 488 388 32 30 29
262 740 275 171 115 90
241 460 310 112 12 30
406 50 220 71 44 29
239 464 313 112 18 25
385 914 326 40 37 36
282 824 246 206 139 110
228 480 336 54 35 35
251 635 290 166 118 86
376 911 315 35 33 34
237 465 315 78 27 34
285 30 204 113 29 33
380 563 177 150 32 53
361 650 210 94 20 31
406 428 122 52 41 43
337 465 181 70 32 31
396 825 180 55 47 45
388 412 167 87 75 63
479 738 188 56 44 35
491 515 251 115 63 52
301 11 230 71 55 49
386 145 220 123 94 61
351 959 231 89 84 88
406 735 309 129 25 49
411 412 166 93 77 60
291 25 204 114 96 77
375 90 245 102 57 52
274 409 265 102 82 63
414 155 244 116 93 68
319 176 248 108 87 64
271 589 279 89 28 34
239 470 309 115 20 33
517 825 260 93 86 80
238 470 311 67 27 33
291 11 240 114 45 49
372 60 225 97 22 36
428 240 245 119 94 65
253 614 308 171 123 97
288 402 247 94 81 66
297 700 286 99 68 58
230 480 380 44 27 31
431 409 195 97 81 64
317 125 230 111 84 58
324 439 328 139 16 47
316 830 225 84 65 57
316 75 171 101 35 26
234 470 320 92 28 37
376 909 310 35 33 33
238 466 312 89 24 32
427 364 277 118 93 62
297 655 285 137 94 83
396 310 222 96 80 63
493 735 185 71 57 44
286 420 330 68 46 33
378 221 231 123 96 65
289 438 203 75 33 35
328 220 256 112 89 61
441 795 165 88 63 48
239 475 308 73 30 33
208 500 341 145 111 91
445 585 288 78 23 32
336 505 177 96 24 32
278 785 288 177 129 101
375 310 245 94 76 57
451 471 292 164 14 50
376 600 308 81 35 41
382 175 235 107 86 62
282 320 271 130 101 68
406 675 210 79 31 34
311 195 219 137 102 62
431 785 275 78 63 56
494 574 252 160 116 79
376 575 184 189 7 41
351 805 284 64 51 51
238 475 311 67 29 36
501 425 215 64 26 32
240 480 305 65 29 36
309 765 213 60 52 48
341 675 306 159 16 50
287 170 245 113 94 74
228 465 336 77 35 38
281 15 225 119 71 59
404 125 217 111 92 70
300 620 234 58 33 37
378 407 192 91 77 63
383 525 302 36 28 30
235 475 320 112 26 40
288 306 318 117 92 64
428 636 281 179 9 57
391 230 214 133 101 60
217 456 373 46 23 27
421 887 323 57 48 42
319 115 229 120 86 64
316 75 235 107 31 43
306 330 325 135 94 72
404 85 240 101 66 54
340 414 224 92 76 58
367 35 245 124 26 36
384 500 303 157 8 49
283 28 248 125 98 76
302 294 317 109 89 66
457 625 236 100 80 57
236 480 320 108 23 34
361 414 190 69 34 38
386 109 215 133 88 71
312 810 216 78 61 53
236 459 369 146 21 52
446 831 199 72 55 51
232 524 312 192 141 121
376 40 230 84 38 29
365 420 170 103 34 36
453 872 248 91 73 68
421 680 290 142 5 44
313 186 218 138 103 64
213 480 356 58 32 33
484 484 202 140 16 39
396 320 223 92 78 63
382 260 250 108 87 64
306 120 238 113 91 67
217 494 375 89 27 39
459 434 177 68 38 45
215 500 324 83 58 41
399 100 248 124 99 71
273 676 262 123 91 55
387 310 227 103 86 68
344 433 193 54 33 36
248 451 301 119 6 34
366 410 200 73 58 48
274 718 248 114 88 55
451 615 265 77 29 36
249 454 298 118 5 30
361 590 194 94 34 40
305 955 265 84 78 78
306 210 221 135 102 64
428 857 200 63 55 55
301 420 210 99 18 26
274 443 238 68 34 40
247 455 300 119 5 31
373 390 235 81 70 60
372 412 181 91 74 58
297 85 195 101 39 41
496 860 290 91 70 53
334 650 302 174 16 56
273 467 227 39 35 34
311 390 319 141 101 74
371 515 159 137 7 32
234 496 353 140 96 81
309 68 238 125 98 77
326 566 189 63 31 34
541 825 275 94 73 54
377 30 235 77 40 28
406 95 205 138 31 50
336 440 324 57 28 30
391 675 207 46 35 37
362 406 225 81 68 56
505 850 276 79 60 45
245 455 305 120 5 30
425 275 259 130 98 63
392 429 136 111 52 39
385 939 319 63 54 49
316 100 235 114 18 42
221 470 385 67 14 24
421 240 260 123 98 68
300 755 287 111 75 57
245 460 304 119 5 30
361 20 260 105 45 47
278 625 302 165 123 100
264 563 318 158 102 84
248 461 296 125 5 34
221 491 326 91 71 52
478 467 193 126 9 32
490 455 205 115 16 34
539 499 275 190 134 111
244 464 303 116 8 30
434 429 152 152 0 35
251 450 295 115 10 30
301 510 325 151 16 47
301 640 250 125 21 42
400 919 324 64 56 51
412 827 262 60 44 42
471 740 256 174 122 93
322 95 225 95 69 53
426 418 295 74 46 34
250 455 295 121 4 32
231 460 368 86 15 30
253 451 291 112 10 29
266 715 285 174 119 94
435 400 225 144 117 91
441 870 230 83 69 64
385 225 251 117 94 70
310 12 240 91 48 43
254 454 288 110 10 30
250 460 294 128 3 33
483 507 281 114 17 40
284 565 225 75 33 39
407 75 230 102 71 57
500 800 244 85 68 54
316 150 210 139 101 67
297 574 211 123 23 43
331 430 220 76 32 29
367 25 246 116 18 23
315 61 174 120 102 87
321 615 305 80 32 39
411 454 313 117 21 40
250 465 290 113 12 33
474 784 192 79 60 47
318 48 203 83 62 42
321 395 236 99 84 68
401 605 303 84 30 37
310 125 238 110 87 62
301 325 259 119 92 61
294 233 282 111 92 72
527 500 254 140 109 77
356 485 175 129 4 29
249 464 293 119 9 31
488 847 293 63 49 39
283 210 235 122 98 71
420 445 141 164 3 41
240 550 310 186 130 108
476 874 300 91 70 57
301 477 192 48 36 37
219 459 354 73 27 34
399 252 213 136 102 62
500 426 206 73 37 35
243 451 311 122 9 36
395 240 213 133 100 59
207 500 350 167 118 104
293 554 206 158 15 44
489 741 211 94 72 49
292 236 283 111 91 71
511 509 252 179 129 103
295 625 250 38 31 36
326 660 299 153 16 47
223 456 347 64 44 35
302 545 332 77 22 35
306 140 206 137 106 70
298 564 206 71 35 36
471 475 291 119 13 39
226 509 315 82 60 45
226 470 384 108 6 34
378 824 207 76 61 54
411 270 216 131 96 61
293 105 219 116 33 46
503 501 288 96 72 64
332 440 205 80 29 25
401 650 212 104 21 28
381 40 225 84 57 37
240 525 300 71 33 39
309 586 208 171 6 41
251 545 329 180 124 104
418 190 251 117 94 69
396 190 256 115 93 69
442 690 260 84 25 36
314 34 243 118 87 73
461 665 230 97 77 54
463 562 230 75 25 34
424 352 227 94 83 73
386 442 313 80 26 34
410 417 303 113 23 35
295 50 237 117 92 70
466 755 150 82 64 50
381 185 235 111 88 64
411 565 184 77 26 38
491 495 220 150 18 41
403 417 142 91 74 59
351 465 178 124 10 26
346 805 207 79 62 54
244 449 309 119 6 33
371 75 240 105 58 54
446 414 170 156 37 32
434 375 240 106 87 65
244 454 308 121 4 29
274 414 258 104 27 36
481 844 270 78 66 54
361 406 230 82 69 56
231 500 354 146 98 87
241 450 315 118 16 33
271 760 235 135 102 66
284 13 233 120 70 62
297 685 260 53 40 35
381 572 183 189 7 41
371 800 191 82 64 58
346 415 215 86 71 58
336 951 229 82 77 80
396 690 305 85 28 37
370 50 235 116 22 36
243 457 307 121 5 30
291 140 230 111 92 72
336 500 177 93 29 36
420 210 216 117 95 70
299 92 232 96 52 41
290 355 259 107 88 68
278 530 216 151 12 40
243 461 306 117 10 31
346 982 270 54 52 53
436 834 249 41 34 35
270 445 250 121 12 33
322 630 222 167 0 38
336 345 295 121 91 64
242 465 305 119 7 32
334 470 184 47 34 31
312 13 246 98 48 45
383 835 201 55 49 49
247 475 290 91 21 34
385 335 275 108 80 57
245 475 295 128 4 34
384 145 230 110 86 60
266 640 307 179 130 104
367 29 269 142 98 87
366 480 311 36 27 30
209 510 330 146 112 87
261 595 314 173 123 98
511 471 296 66 24 33
297 585 216 68 29 36
292 95 205 115 30 38
291 740 289 172 115 94
218 452 357 84 32 37
371 890 295 107 83 62
281 675 295 173 131 102
380 245 245 121 93 69
317 890 251 143 111 81
306 145 244 113 91 68
466 585 266 67 36 34
497 485 215 140 19 42
496 444 285 58 41 34
463 487 298 105 11 40
251 585 315 174 121 97
393 357 221 90 79 68
246 495 310 132 12 39
378 301 258 88 72 55
476 820 251 61 45 37
315 144 207 148 108 72
505 825 243 92 79 69
356 745 310 80 27 37
266 510 240 148 9 42
244 480 295 142 3 35
391 100 195 143 39 49
438 475 174 102 32 39
423 234 257 123 97 67
312 963 260 86 81 83
401 700 203 100 23 29
220 450 355 83 26 32
265 725 254 137 100 67
356 700 203 111 19 30
318 103 177 153 13 41
243 475 300 129 4 35
337 953 323 94 89 88
312 251 233 136 96 61
371 670 207 48 36 36
294 740 288 154 102 85
342 411 226 90 75 59
221 488 388 44 35 33
446 874 275 46 40 35
502 440 224 91 28 38
290 625 280 69 48 44
329 235 255 110 84 54
264 470 254 135 4 36
305 100 184 133 42 52
261 460 344 68 25 32
426 735 305 190 12 62
299 128 237 107 88 68
443 606 282 97 18 34
324 196 253 110 88 64
282 290 260 156 107 81
298 418 208 89 27 26
446 595 285 93 30 41
399 585 303 155 14 48
317 765 207 62 52 48
306 690 285 97 20 36
305 33 248 129 93 78
302 945 260 63 60 62
307 66 181 107 91 73
363 430 172 121 14 31
404 80 240 113 18 43
248 467 292 108 20 26
426 826 257 72 57 52
286 21 255 155 110 92
250 470 289 55 30 34
323 937 323 44 41 43
300 915 295 131 109 90
379 620 308 92 24 38
249 474 288 46 35 32
384 135 225 117 91 60
406 411 294 83 64 48
444 538 288 121 24 45
310 74 174 89 37 22
264 511 250 169 4 45
381 620 206 56 36 40
397 762 192 103 36 38
279 255 271 121 95 66
459 828 207 79 60 55
242 466 352 148 12 45
332 870 303 139 105 84
471 785 185 64 51 45
267 555 317 85 42 42
320 145 215 120 92 59
361 750 306 72 56 51
255 485 270 48 36 37
466 875 305 82 65 51
233 461 326 55 36 30
531 511 280 207 140 118
380 855 279 147 116 93
294 125 220 118 96 74
452 877 321 94 68 52
230 470 330 44 34 37
381 490 304 162 10 50
420 685 294 135 7 41
256 490 265 42 36 38
267 490 240 140 5 36
253 490 272 43 33 36
414 365 217 90 80 71
298 116 233 114 94 74
495 484 230 55 22 33
