ply
format ascii 1.0
comment Created by Open3D
element vertex 2222
property double x
property double y
property double z
property uchar red
property uchar green
property uchar blue
end_header
347 519 164 138 10 37
231 443 261 127 1 35
136 678 218 161 121 104
250 408 186 139 2 37
214 785 199 166 109 73
366 198 246 120 97 71
326 453 191 87 30 26
186 708 195 176 114 79
388 476 189 70 30 28
316 29 272 132 38 58
250 398 311 135 103 74
252 238 273 144 102 68
291 957 247 90 86 89
371 449 293 109 8 34
248 227 273 141 102 67
356 717 212 67 51 40
281 444 203 62 36 34
347 859 456 201 137 125
321 73 221 120 45 50
259 830 248 189 137 110
309 380 258 124 100 75
307 752 320 77 62 57
238 429 242 115 10 32
327 398 216 81 71 61
232 880 320 128 101 78
331 138 221 115 90 60
271 338 275 99 85 70
247 433 191 67 28 37
274 77 233 90 49 40
356 628 227 78 33 38
309 365 268 139 107 81
246 228 276 140 102 68
377 488 311 31 22 23
276 358 261 98 86 73
261 433 177 85 29 30
271 73 221 140 27 41
254 254 279 147 100 69
318 63 221 115 29 38
334 463 155 80 29 33
297 532 173 108 18 34
256 643 306 146 10 45
445 418 296 142 24 48
265 49 227 116 99 81
340 393 210 92 79 65
245 233 281 139 102 70
371 574 199 183 14 45
243 227 282 127 98 66
291 413 226 92 80 67
306 823 282 163 120 99
341 853 431 135 82 76
360 918 311 53 45 42
328 116 223 121 90 61
341 614 332 185 16 59
401 453 398 149 17 48
274 377 244 98 86 74
316 848 175 98 84 80
244 228 286 124 97 67
294 37 276 127 19 44
253 228 310 114 93 69
230 703 246 121 14 41
248 237 278 145 102 72
256 238 316 115 93 69
404 512 322 36 30 33
249 234 275 142 101 70
303 489 288 56 16 26
355 899 275 44 38 38
424 428 224 87 28 33
292 233 311 117 95 70
245 463 191 90 27 38
330 363 268 65 54 40
266 213 315 108 89 70
342 52 201 121 101 78
250 238 275 144 102 70
248 428 196 110 14 34
387 799 421 206 141 114
235 907 317 156 121 101
247 243 282 147 104 74
248 248 286 146 104 74
417 753 411 191 132 106
254 383 317 136 103 75
234 498 219 135 10 35
331 853 433 149 97 83
335 338 266 64 52 37
248 488 183 147 12 40
286 43 256 110 70 51
328 273 226 130 102 71
251 243 276 147 103 70
252 248 277 149 103 71
388 444 176 118 20 41
356 163 212 117 94 66
336 78 186 133 33 43
390 398 236 90 78 66
250 248 281 149 103 73
347 929 365 66 57 51
265 534 184 152 6 38
396 413 231 78 70 61
247 419 221 67 28 31
412 906 335 79 68 58
253 241 273 145 101 69
416 715 343 121 94 59
304 865 289 148 114 90
294 824 194 65 56 53
343 930 312 63 54 59
340 113 249 124 98 67
254 244 274 146 101 69
368 672 255 42 32 35
245 558 210 92 30 37
444 442 276 45 30 32
255 248 275 148 101 70
407 719 341 119 91 65
403 509 346 184 9 55
307 353 286 93 74 53
331 353 221 112 90 66
191 673 188 136 95 57
254 358 291 123 98 69
255 368 316 132 100 73
325 388 231 74 65 58
426 758 351 202 131 106
382 443 386 133 14 45
357 668 307 129 17 43
248 247 282 148 103 74
271 173 255 134 100 63
276 945 239 96 89 93
251 253 281 149 102 72
251 373 306 130 101 70
321 757 320 77 61 56
206 683 196 113 83 49
389 506 321 68 22 30
240 513 206 63 29 36
253 252 278 150 103 72
263 298 329 129 98 72
362 844 452 187 129 108
249 250 284 148 104 74
306 828 282 159 119 97
154 681 214 149 106 87
436 458 286 102 25 38
335 95 195 123 66 57
336 513 160 100 29 39
306 820 283 164 119 98
196 753 206 182 122 88
350 68 236 105 63 53
384 895 255 51 44 43
271 98 275 115 92 67
276 173 296 106 87 65
281 528 176 153 3 33
335 412 278 52 41 28
242 443 216 127 6 33
239 432 235 114 10 32
267 845 291 86 69 49
255 402 180 143 28 31
375 863 265 51 39 42
195 768 216 180 128 97
345 453 300 51 19 26
286 218 311 114 92 67
374 900 240 61 57 58
245 228 291 121 97 70
367 233 252 122 97 68
331 883 231 62 56 57
246 243 301 122 96 68
279 158 262 115 91 61
296 578 312 100 11 33
398 595 272 170 20 52
336 872 223 66 58 57
405 903 225 93 74 68
245 233 291 126 98 69
397 518 361 65 31 34
396 897 307 67 60 58
286 523 174 142 6 34
234 668 276 53 30 34
375 533 316 118 3 37
228 522 228 117 27 42
337 419 191 65 52 43
363 840 444 182 122 99
80 731 208 196 123 97
332 263 216 138 107 72
320 826 279 161 121 98
234 478 283 138 7 41
259 367 269 106 88 68
359 561 336 70 22 32
286 488 301 120 18 42
336 48 196 122 43 27
298 257 317 117 94 69
370 763 201 79 60 52
310 607 331 35 29 32
247 228 301 115 92 67
245 238 291 131 99 69
341 708 192 67 49 39
270 103 237 127 34 44
245 478 196 137 3 36
250 496 299 160 15 49
404 428 341 145 15 44
244 396 256 40 36 38
353 692 317 97 13 31
388 773 329 185 131 109
251 397 236 69 46 45
245 238 296 125 98 68
306 508 176 71 27 29
230 693 251 84 27 37
241 703 315 59 29 34
392 533 301 161 13 50
403 763 423 177 126 99
253 428 315 70 27 33
448 418 281 113 27 42
299 248 306 121 96 69
323 404 255 67 57 47
363 869 220 81 67 66
254 373 316 134 99 74
309 483 183 44 36 37
246 238 301 119 94 67
249 453 180 61 35 40
367 968 312 86 64 45
393 461 358 90 25 49
238 408 261 56 30 33
323 794 205 60 50 49
424 547 231 116 25 45
391 803 312 191 135 105
331 283 221 131 104 73
372 888 271 57 47 46
232 688 251 61 31 36
371 303 251 129 98 63
246 908 326 85 71 61
356 753 317 104 28 40
17 768 220 152 99 90
373 620 298 190 7 57
254 401 184 171 24 26
337 473 153 136 14 34
399 478 361 90 12 35
267 62 220 105 36 23
249 226 303 116 93 68
406 417 291 92 13 32
296 9 281 107 45 37
225 508 251 109 15 38
233 690 294 79 24 34
260 172 298 109 91 74
305 418 305 95 72 51
422 548 226 162 17 42
345 577 326 90 8 32
248 233 304 116 92 66
445 415 276 94 32 36
250 233 307 116 92 66
344 551 303 85 13 28
408 503 204 128 3 32
328 293 241 99 80 60
269 886 234 50 46 49
250 438 311 95 17 33
368 480 305 122 0 40
258 363 324 137 104 76
395 415 274 64 56 47
226 508 236 57 27 33
366 843 206 66 53 48
233 473 227 73 33 36
229 928 308 185 139 120
346 183 252 108 88 66
252 233 310 116 94 69
400 422 297 93 15 32
329 932 262 76 67 65
405 448 356 153 15 44
321 48 221 81 43 32
296 298 287 108 85 57
254 232 313 114 93 71
249 422 198 134 0 37
238 913 256 56 53 53
321 619 337 53 32 36
382 528 351 66 24 32
249 238 307 116 92 66
343 915 279 58 53 54
249 465 303 138 10 40
234 926 259 55 52 53
277 621 223 150 4 35
260 687 318 141 10 44
222 712 222 86 59 44
440 503 222 104 26 38
252 238 311 117 94 68
228 459 256 132 0 37
254 238 313 116 94 69
385 383 261 115 92 65
389 751 311 119 87 73
366 913 306 47 39 35
270 154 289 107 88 67
287 198 296 113 90 65
371 423 147 165 24 35
337 841 427 159 104 92
353 88 216 116 47 49
245 243 296 129 99 69
329 123 236 119 87 64
251 263 291 146 103 74
240 729 312 171 20 59
247 248 291 143 103 74
245 453 301 73 29 36
327 213 226 113 91 66
282 73 251 132 61 60
324 62 195 86 34 26
246 248 296 137 102 71
348 574 360 64 29 33
261 20 258 105 90 76
296 808 181 81 61 47
234 477 224 46 28 33
371 293 251 131 99 65
191 698 224 134 103 84
247 253 301 133 100 71
254 367 312 131 101 72
281 873 221 37 34 35
238 617 252 38 32 35
267 393 329 154 112 89
408 798 275 142 98 68
247 248 306 123 96 67
269 68 218 126 22 33
244 413 302 103 24 40
259 872 259 104 78 47
354 92 226 107 82 64
336 483 154 144 9 35
247 587 222 143 7 37
347 21 239 108 92 76
171 648 186 100 84 67
379 349 254 124 98 69
336 58 256 130 102 77
244 508 200 47 33 35
248 253 306 127 97 68
395 443 311 117 8 37
249 243 308 117 92 65
332 303 260 77 64 50
367 444 154 154 11 32
328 610 343 56 25 30
252 243 311 118 94 67
229 457 251 89 21 36
421 772 255 80 60 45
327 404 279 55 47 40
291 853 216 42 39 42
271 148 287 108 88 66
64 711 217 103 90 78
254 247 313 118 94 68
226 523 251 146 0 40
324 318 231 114 91 66
375 758 207 80 59 50
242 423 236 104 21 36
249 253 308 124 95 68
325 398 226 77 67 58
232 673 261 55 29 33
310 358 326 132 95 71
330 768 199 53 44 40
270 158 252 129 96 57
251 253 311 123 95 67
441 738 256 99 70 49
383 525 368 77 21 33
379 420 174 98 57 50
291 38 281 128 33 52
346 243 205 132 101 61
256 508 296 47 23 26
253 253 314 122 94 68
64 746 220 186 134 121
254 408 179 122 11 27
363 896 248 39 22 35
301 473 300 70 27 34
276 358 337 149 108 85
218 713 200 115 85 54
313 531 293 47 22 23
257 408 178 124 19 27
387 753 219 64 50 43
351 913 335 54 47 43
219 815 238 189 139 113
287 346 269 96 81 65
309 289 315 118 95 70
266 730 318 181 13 59
239 433 292 70 28 35
309 882 217 72 68 70
225 498 246 92 27 36
355 733 203 71 53 42
341 318 212 124 98 70
251 493 299 162 15 50
242 684 237 95 27 34
246 844 301 102 84 65
251 403 186 147 12 35
339 432 296 91 24 29
360 713 196 73 52 43
215 699 219 73 57 39
286 458 192 53 39 34
328 175 228 106 85 61
250 403 191 125 11 38
418 498 219 136 9 32
226 493 261 52 29 33
278 748 187 65 49 44
480 852 307 59 47 34
406 878 315 75 59 49
286 948 336 71 65 62
405 429 371 66 28 34
253 400 187 148 17 29
304 484 178 38 36 39
336 26 280 132 52 59
359 163 244 117 94 69
331 113 246 126 96 74
241 933 241 77 68 68
369 818 202 62 53 49
204 690 219 96 76 58
271 33 251 89 67 51
231 598 271 75 27 35
353 38 236 103 33 33
252 413 181 126 7 30
407 483 381 45 32 35
246 573 216 68 26 37
365 223 207 123 96 64
411 738 306 96 75 54
327 318 256 66 54 40
266 543 302 121 8 38
254 413 179 121 13 29
386 578 296 94 34 43
176 647 208 103 85 67
317 57 256 124 85 72
239 493 293 67 30 33
435 443 262 126 8 32
267 884 241 65 56 51
256 413 177 127 11 29
250 413 186 138 1 37
248 385 299 127 99 69
321 943 331 48 41 38
230 948 281 76 70 69
249 422 204 128 0 39
260 27 254 104 89 73
227 553 266 33 29 33
248 415 192 137 0 38
350 98 206 135 26 45
298 458 298 70 17 27
248 423 191 138 1 38
322 858 438 178 137 130
382 478 166 78 26 38
366 353 271 115 90 59
253 395 232 83 55 52
342 734 332 42 26 28
276 128 271 111 85 58
337 403 207 89 77 65
392 528 296 165 11 52
405 572 223 170 16 41
261 593 301 44 28 33
353 94 225 111 83 66
336 86 188 149 27 49
378 293 231 122 95 62
235 423 261 121 5 33
306 718 190 74 54 45
406 443 326 158 9 52
247 428 191 111 12 35
425 513 266 64 31 35
255 628 302 41 27 29
316 953 296 73 65 65
256 418 177 116 18 32
365 415 197 91 77 64
234 503 281 31 29 30
256 423 177 88 26 35
458 435 223 53 29 31
419 513 251 118 22 42
272 841 232 164 109 85
271 967 261 84 80 82
262 298 326 132 101 74
239 441 229 107 10 28
249 453 308 114 13 37
231 448 261 128 4 37
262 160 294 106 88 70
334 916 257 69 63 62
253 679 233 91 30 33
389 452 187 120 0 33
249 418 186 138 1 35
250 554 204 67 31 35
326 760 318 78 63 58
106 712 211 178 120 100
270 383 246 101 89 76
323 851 268 71 46 40
249 422 185 137 0 36
323 404 236 73 64 55
286 857 301 132 99 71
251 408 211 45 32 35
366 228 251 123 98 71
327 203 221 117 95 70
261 918 332 185 146 124
316 32 270 127 64 66
267 592 213 176 5 40
251 403 201 121 9 39
248 423 187 140 0 37
272 384 242 103 89 76
227 698 276 89 27 40
262 741 209 104 16 32
363 510 304 41 24 33
246 418 226 51 35 34
491 858 311 81 65 50
416 726 325 113 91 64
360 438 298 90 6 29
354 920 353 63 54 49
276 98 271 116 89 64
351 853 276 43 38 36
176 663 180 125 92 55
391 563 285 101 20 39
241 433 226 117 8 31
306 613 336 46 28 31
247 395 256 52 48 47
272 884 220 34 32 33
250 433 181 130 9 34
253 428 178 126 13 32
284 169 280 111 89 63
239 427 240 111 13 31
246 483 301 158 15 50
156 678 186 146 99 62
240 543 211 50 32 35
307 613 339 45 28 30
326 48 216 108 88 67
321 58 211 78 45 31
404 527 203 110 27 43
344 933 318 62 52 59
252 433 177 130 10 32
311 674 186 82 45 36
301 488 179 42 36 37
351 518 165 157 1 34
266 908 333 143 115 96
190 718 227 157 117 95
257 288 316 134 99 73
341 278 211 144 108 71
351 483 290 94 12 33
261 558 196 63 33 39
417 528 246 150 15 47
257 263 282 136 95 66
367 218 210 120 96 67
229 599 261 154 1 40
370 683 256 55 31 33
352 38 246 122 22 43
306 13 291 116 56 61
328 213 239 102 82 60
275 844 234 144 99 75
256 433 176 119 18 31
336 867 446 199 139 129
228 473 241 40 35 35
271 975 276 62 59 59
244 412 235 51 36 37
361 843 431 181 125 104
379 448 364 95 22 37
352 923 331 60 48 48
248 428 186 134 10 36
393 491 385 140 11 41
328 248 236 106 85 60
252 904 329 102 90 81
291 947 341 65 57 53
257 398 320 145 108 82
333 278 250 93 76 59
256 438 176 59 35 39
369 209 244 118 94 67
404 443 356 157 14 45
250 403 312 131 102 74
387 977 320 74 58 43
387 518 346 32 28 31
319 886 223 60 56 56
249 428 184 142 4 35
262 797 279 57 47 45
267 195 309 108 90 71
398 474 326 112 1 36
248 433 186 47 30 35
329 591 341 83 1 29
36 753 194 165 112 93
327 303 222 119 97 73
256 443 175 64 37 42
446 428 281 94 28 38
329 128 231 114 86 58
255 363 316 130 101 72
256 683 230 84 27 29
346 243 256 99 79 57
270 399 328 158 114 91
247 443 186 80 30 41
258 244 319 116 93 68
242 854 282 128 105 80
422 759 251 86 66 51
261 488 175 114 22 28
291 458 192 64 35 30
399 532 198 42 34 37
231 698 296 115 17 39
246 448 191 81 29 37
289 879 314 149 113 89
203 778 239 168 129 100
407 438 220 71 34 36
248 434 183 92 26 34
321 908 240 72 66 68
254 503 179 108 17 35
406 414 236 72 62 53
220 713 202 109 81 52
250 438 180 105 22 37
295 448 305 30 25 26
369 189 223 119 97 74
252 438 177 89 25 35
399 532 330 176 13 53
242 503 295 151 21 51
408 809 280 160 107 77
346 328 212 118 94 67
348 818 440 170 122 110
252 443 177 72 29 37
253 520 299 50 22 29
226 488 241 63 32 35
412 764 406 201 134 107
204 675 204 77 62 44
116 683 196 110 87 58
248 443 182 64 29 38
337 584 346 82 3 28
325 28 235 69 49 36
238 669 253 40 39 42
249 448 179 122 21 36
378 534 375 42 28 28
382 902 232 67 56 55
342 103 248 127 101 73
236 818 215 202 133 105
279 153 266 110 88 63
253 400 201 109 31 42
356 588 346 186 7 59
281 362 255 100 85 70
250 493 181 91 26 37
365 493 302 129 3 39
432 748 351 197 127 99
265 819 268 173 125 103
279 66 243 87 59 40
403 549 214 118 36 47
253 400 211 76 25 33
356 493 292 41 26 27
253 276 310 144 103 80
291 238 276 123 93 62
341 453 306 49 22 23
239 482 214 130 7 35
313 908 193 103 105 112
252 638 242 142 8 37
243 503 202 109 30 40
303 767 309 78 63 57
349 73 236 104 73 57
256 397 211 79 40 38
225 778 266 189 141 115
275 441 319 46 24 28
336 758 201 52 43 40
304 770 183 66 56 48
253 399 216 82 24 35
345 577 316 102 2 31
256 397 216 87 35 38
272 196 308 108 90 71
340 26 279 136 40 56
422 768 326 194 126 100
223 723 256 131 27 46
331 758 198 54 45 41
255 397 221 84 33 36
250 408 196 136 1 37
220 753 193 137 95 60
327 233 226 118 94 66
397 539 288 130 13 43
252 403 206 96 24 36
377 741 220 63 46 41
289 48 258 141 30 43
352 544 174 93 31 36
431 508 220 79 22 31
232 898 306 136 100 88
410 712 397 119 98 77
239 418 246 118 11 32
198 773 230 171 127 98
306 353 276 119 96 71
252 403 216 52 33 35
431 448 220 111 21 32
270 428 196 38 39 42
237 478 217 127 13 35
290 218 306 114 92 66
373 855 260 76 56 52
251 403 221 71 34 38
251 413 216 127 9 39
222 753 275 184 143 119
266 763 181 72 59 49
238 493 212 131 9 34
391 749 281 103 84 65
305 401 244 84 72 59
250 413 221 92 21 33
387 440 362 53 22 32
332 453 166 96 22 26
240 413 246 99 24 38
234 493 220 124 16 35
266 338 331 125 97 69
335 622 330 82 30 39
331 44 216 117 91 62
239 413 251 119 11 32
239 411 255 123 18 37
407 458 371 71 26 34
248 399 236 42 35 38
341 458 150 81 31 37
393 555 204 90 27 36
254 396 226 76 37 37
336 298 215 123 99 70
313 353 306 107 82 57
356 823 287 78 60 50
331 288 221 127 101 73
309 402 306 105 78 56
229 453 256 129 1 36
254 396 230 77 49 46
331 10 272 137 83 99
268 98 234 90 49 37
286 393 330 160 111 87
256 373 321 135 101 75
312 661 223 56 35 34
362 869 246 60 48 48
266 814 272 180 127 109
350 29 237 88 47 39
355 627 314 183 9 57
107 678 211 109 92 75
312 17 291 176 122 115
271 348 271 97 85 73
378 243 226 125 99 69
405 429 366 67 25 30
250 396 241 85 54 48
359 890 289 48 44 44
426 883 191 88 74 61
347 415 192 88 74 60
249 382 284 117 94 70
251 633 301 94 22 38
366 818 205 65 53 49
312 303 316 128 99 69
246 398 246 46 38 40
421 901 195 96 74 62
341 478 154 72 35 41
271 193 307 108 90 72
243 400 247 40 36 40
247 395 251 63 52 51
252 390 257 110 92 78
238 854 291 167 128 103
356 188 209 125 97 61
287 58 271 124 85 70
416 893 186 104 82 72
226 548 241 140 4 37
238 418 280 44 35 35
382 543 366 82 30 37
256 388 256 109 93 80
324 407 229 74 65 57
291 589 204 151 13 43
271 431 324 58 29 34
241 408 246 64 33 37
246 403 236 57 36 35
296 258 286 119 93 63
336 815 288 65 52 46
223 553 251 136 1 37
282 772 299 77 62 57
298 252 312 119 95 70
326 748 200 58 48 45
245 403 241 59 39 38
359 159 217 108 89 69
163 645 193 100 88 76
248 404 233 48 35 36
320 37 235 83 31 28
238 488 213 130 8 34
245 588 225 62 22 31
404 547 284 82 24 35
290 198 276 113 91 67
346 773 311 82 66 60
166 649 209 108 90 71
245 408 236 62 33 35
229 499 268 154 5 43
239 438 293 31 25 29
244 407 239 42 34 35
346 848 212 55 48 46
342 263 207 140 108 69
365 488 311 134 2 40
248 414 227 63 36 37
261 668 230 76 27 31
286 743 183 64 49 43
398 488 371 131 7 42
250 388 271 102 85 67
235 478 221 98 22 34
265 39 242 113 97 81
234 452 235 69 37 38
434 746 350 194 128 98
243 408 241 40 34 38
377 863 261 56 42 45
440 415 300 77 26 29
267 143 249 128 94 56
121 683 194 123 92 59
243 413 237 56 36 37
348 498 159 43 38 42
351 808 292 55 47 44
361 513 301 41 25 28
250 408 226 81 30 34
233 439 270 118 13 37
374 648 271 159 15 43
295 253 321 115 93 68
436 453 218 50 34 36
326 688 327 54 27 31
248 389 276 108 89 68
228 694 280 48 29 31
455 443 225 42 31 33
291 423 220 61 39 37
241 747 200 90 66 45
363 324 214 118 92 62
243 404 242 57 38 35
331 543 170 99 31 38
258 303 302 114 90 63
276 397 230 105 89 73
235 443 281 102 23 38
406 558 281 68 28 36
385 901 221 62 49 45
377 288 241 125 97 63
141 688 191 187 123 93
242 403 246 42 37 38
375 713 291 107 8 35
264 246 323 113 91 67
288 721 179 72 54 47
256 463 174 70 34 41
238 715 228 71 32 33
421 488 221 44 35 39
425 468 246 78 20 35
340 111 198 128 105 97
266 363 331 141 105 80
241 403 251 41 37 38
309 304 298 106 84 58
26 773 216 175 134 123
240 403 256 38 36 38
311 33 266 113 22 44
336 693 206 77 55 44
240 448 221 129 6 36
251 368 296 121 97 69
210 704 224 103 80 63
376 768 306 96 72 52
328 55 198 93 33 20
306 407 239 85 72 59
319 69 216 100 55 47
248 428 201 129 2 36
326 333 231 100 81 60
384 368 231 120 96 69
247 433 201 132 4 36
235 453 286 116 16 38
239 825 231 51 51 52
303 862 288 149 113 89
413 790 312 189 127 97
333 45 213 118 92 61
284 482 298 39 19 24
276 118 261 117 88 61
350 572 341 69 24 35
383 743 282 100 83 65
366 918 286 73 64 59
272 559 299 135 9 40
264 323 328 133 100 74
327 208 226 113 91 66
249 418 197 136 0 38
335 36 224 122 70 41
248 419 206 128 3 36
218 754 252 138 105 74
299 385 248 91 76 59
304 753 188 77 60 47
374 893 234 156 144 145
260 24 292 131 27 51
284 380 238 94 82 70
378 283 226 129 96 60
248 423 206 126 0 36
253 258 314 126 96 69
234 498 281 44 29 32
242 529 294 62 25 32
357 882 206 80 69 62
296 29 286 151 41 65
248 423 211 124 2 35
348 36 229 89 67 48
361 878 280 46 41 40
108 710 212 175 119 101
248 420 217 113 11 33
312 318 316 114 87 60
241 493 296 109 22 41
422 498 246 155 14 46
267 683 319 149 14 46
327 448 191 88 27 30
346 564 185 131 27 43
448 474 227 114 30 45
228 473 266 56 30 35
246 423 221 105 17 33
329 825 202 61 56 56
358 600 333 146 24 54
358 589 342 186 3 59
266 393 241 103 89 76
247 428 211 126 2 35
245 428 216 123 6 33
355 143 217 106 89 70
311 603 316 85 9 30
281 253 273 132 93 60
271 88 275 119 21 43
349 58 239 115 67 64
259 98 273 107 90 69
410 572 231 199 13 51
246 433 211 129 6 35
242 453 296 105 22 40
244 433 216 125 5 33
340 468 301 65 12 23
337 860 274 44 38 37
233 434 265 132 1 37
242 458 296 62 24 31
367 824 225 69 59 56
324 298 231 114 93 71
334 850 433 143 96 85
341 218 207 129 99 63
131 683 192 147 101 65
66 743 211 193 126 102
243 433 221 121 5 32
309 289 307 115 93 69
272 438 200 65 33 36
271 755 303 75 61 54
441 890 186 96 82 68
316 68 231 119 93 69
253 360 292 121 97 69
326 108 221 130 80 63
324 51 214 103 83 61
391 478 316 30 24 24
410 416 281 79 27 34
244 427 220 117 10 33
276 723 181 68 50 40
244 432 219 122 3 35
352 43 231 76 40 29
250 418 216 119 11 34
340 397 209 91 78 65
247 438 196 49 29 34
271 238 325 113 92 69
254 388 318 136 103 75
439 437 294 168 15 54
313 358 311 112 83 59
321 23 241 81 37 29
246 438 206 58 27 34
267 26 294 133 80 75
356 942 326 76 58 55
245 443 201 40 30 36
388 750 294 83 69 55
301 459 193 76 31 27
252 363 296 121 96 68
325 303 241 98 80 61
275 569 194 183 9 42
253 276 302 150 103 80
452 453 228 46 29 30
327 218 236 104 83 59
371 873 276 49 40 41
276 567 192 182 12 44
244 438 215 125 6 32
266 313 331 137 103 77
336 61 189 102 31 23
307 874 191 76 74 76
241 423 296 90 20 35
296 278 290 119 90 58
284 72 265 120 11 38
253 384 267 105 87 68
196 708 191 151 99 64
351 852 466 182 128 114
329 66 189 97 47 24
375 223 226 118 96 72
321 493 306 99 3 31
380 894 261 46 39 40
405 493 390 45 26 30
245 443 206 73 24 34
407 473 297 136 6 40
334 138 214 121 94 62
417 443 299 45 27 28
245 438 211 105 17 34
353 692 203 65 50 37
243 438 217 126 4 33
367 183 221 117 96 73
66 712 222 122 102 84
289 427 319 94 23 39
282 269 279 127 90 61
243 448 212 125 6 32
306 477 185 44 35 37
260 132 283 106 88 70
244 448 210 125 7 33
364 340 213 102 86 69
240 428 236 110 14 29
228 469 242 46 34 35
288 188 286 112 89 64
238 434 237 108 13 31
243 404 295 135 6 41
296 432 215 64 34 32
237 433 241 112 10 30
163 654 188 97 82 66
272 628 228 143 4 34
318 411 255 67 56 45
325 413 276 56 49 42
241 418 241 97 24 36
311 773 196 44 41 42
311 617 340 61 31 35
353 58 221 113 23 39
240 423 241 120 12 31
435 423 256 94 23 38
331 790 303 76 60 56
245 623 292 140 16 46
239 422 245 118 8 32
345 378 209 97 83 68
384 441 365 51 27 24
271 118 251 121 90 57
368 575 342 183 8 58
297 937 349 65 59 56
344 217 253 100 81 58
361 398 205 89 76 64
231 873 281 146 115 84
241 428 296 112 21 41
393 784 427 201 139 113
408 805 302 176 119 90
287 504 293 53 16 24
238 423 247 116 6 31
287 279 284 124 88 59
331 73 187 137 24 36
238 418 251 122 6 34
379 420 171 92 51 47
319 84 247 115 84 68
429 473 224 58 30 35
270 35 248 110 93 76
341 353 214 106 87 67
414 886 210 88 67 59
234 428 261 122 2 34
291 313 283 105 82 51
394 746 311 116 85 71
239 416 249 119 10 32
426 483 241 152 15 47
238 425 243 114 12 29
275 11 269 100 83 70
248 458 182 42 35 36
272 138 282 112 89 65
276 218 262 128 94 59
336 288 256 83 70 56
91 698 220 148 115 98
236 433 246 118 8 32
326 93 251 111 29 45
378 803 224 80 59 49
376 493 164 85 35 39
235 428 256 123 3 33
340 812 217 68 54 56
167 663 182 122 91 54
234 433 251 124 4 34
414 448 223 59 38 40
234 432 255 127 3 36
374 447 304 117 5 45
368 458 322 71 21 30
257 383 261 101 86 70
240 433 231 118 10 32
353 78 226 105 25 39
278 858 238 110 83 65
266 308 291 117 93 67
387 608 241 61 34 38
367 449 293 100 11 34
291 359 257 98 83 67
423 883 187 93 75 62
312 43 246 87 38 35
311 416 229 79 67 54
364 183 244 118 95 71
443 875 154 89 79 69
306 912 336 37 35 36
366 508 168 151 0 30
283 350 263 98 83 68
239 437 230 112 15 33
16 773 216 159 116 102
383 460 164 143 1 31
243 690 309 35 30 30
343 420 177 75 60 50
250 585 219 159 3 38
395 428 331 116 6 36
379 268 235 126 96 61
237 438 236 67 26 29
286 29 288 132 92 76
386 773 221 67 54 49
312 328 326 119 88 61
350 728 329 60 28 32
236 438 241 112 14 32
317 581 193 66 20 27
371 893 296 73 67 66
270 59 226 101 42 20
306 698 181 71 53 41
428 416 244 88 36 30
239 443 226 118 8 32
274 423 198 86 30 27
238 444 227 116 13 32
22 734 197 119 98 75
226 478 251 51 31 33
397 473 321 63 13 28
237 443 231 79 26 32
343 50 253 125 10 45
281 383 237 98 85 72
208 807 217 210 141 111
239 448 224 126 4 33
291 43 276 125 29 49
269 65 218 124 20 34
356 892 306 48 44 43
234 442 245 114 16 32
236 753 196 106 76 46
310 507 305 116 4 38
234 448 236 39 33 35
311 398 237 85 71 57
375 972 324 83 66 49
406 463 296 130 6 40
328 248 226 131 103 70
367 348 267 113 88 57
377 916 273 53 44 39
233 448 241 43 33 35
373 443 307 107 7 33
333 203 213 122 97 67
386 693 226 70 56 44
234 446 240 37 33 34
290 437 314 111 26 44
349 107 206 138 29 44
326 433 196 58 35 35
386 708 226 80 65 53
391 733 226 67 50 42
340 428 155 67 33 34
365 683 301 62 27 33
335 833 211 69 61 62
349 39 227 81 49 27
192 753 216 195 136 106
383 746 259 89 65 46
295 389 242 94 79 63
232 443 251 89 20 32
341 723 191 74 56 47
381 914 301 57 49 44
379 415 284 74 62 49
264 60 218 80 33 22
324 338 251 69 59 48
346 638 315 111 24 44
271 466 309 100 26 41
346 133 248 118 94 66
230 448 251 66 26 33
305 463 299 49 25 27
306 498 177 68 33 34
273 340 273 95 82 69
234 438 246 117 8 32
312 878 282 54 43 38
238 488 294 57 19 22
242 458 211 130 5 34
330 920 243 73 63 61
228 493 269 72 20 36
370 637 246 111 28 43
371 458 159 147 10 33
346 863 441 206 143 128
353 81 228 105 21 37
346 813 220 67 52 52
233 434 256 127 1 36
431 423 221 146 15 17
241 608 241 87 33 40
229 503 267 152 4 44
395 738 336 146 108 91
395 433 301 123 13 40
263 827 260 175 126 100
233 438 251 121 5 34
234 432 267 131 3 36
374 448 296 114 1 33
251 368 301 125 99 70
333 443 166 103 16 30
233 439 248 119 10 35
351 248 204 133 100 59
316 93 236 100 75 57
280 809 283 193 139 118
346 353 277 101 74 52
346 733 330 47 27 30
336 198 211 118 95 68
260 872 322 114 89 68
232 438 256 125 2 35
379 338 231 120 95 67
250 378 301 128 101 71
235 453 231 80 27 32
281 30 288 123 79 68
233 443 246 102 22 32
446 458 230 48 26 30
304 17 301 167 111 99
258 546 193 149 16 50
373 580 204 186 11 45
399 975 316 84 66 51
266 403 326 157 115 92
262 917 218 81 70 68
378 570 333 160 33 56
243 424 232 77 29 33
278 590 309 39 24 29
53 726 204 106 88 70
329 178 236 101 81 59
347 734 199 65 50 43
312 586 198 149 34 51
132 664 210 114 96 78
245 418 231 52 36 36
258 318 302 126 97 67
318 35 238 75 43 24
372 723 214 61 44 38
367 478 316 40 28 31
237 488 291 68 21 31
244 423 226 59 30 33
415 428 298 88 12 33
244 422 230 43 33 34
390 438 201 103 13 31
407 888 223 68 55 43
406 762 350 207 146 121
238 428 286 70 28 35
312 373 291 102 78 56
350 421 155 96 56 42
390 398 251 89 76 62
326 793 206 62 53 51
354 909 334 51 43 38
242 418 236 55 34 38
415 563 236 96 27 41
339 713 188 72 55 45
376 493 311 34 22 23
271 353 266 97 85 73
243 420 233 41 35 37
330 688 186 63 48 37
324 491 304 78 5 25
271 323 282 97 82 67
353 48 236 125 22 43
243 425 228 79 20 26
293 886 193 81 69 68
255 433 317 125 16 39
496 919 266 93 77 65
243 428 226 111 12 31
392 543 195 43 35 41
352 33 251 121 54 55
401 983 325 82 66 44
242 428 231 111 12 30
296 438 210 82 31 26
281 263 276 127 90 59
286 38 256 122 23 32
245 563 298 80 13 30
360 463 157 91 31 37
375 483 316 45 15 24
244 426 225 103 15 33
291 478 300 65 27 32
346 123 247 119 95 67
300 913 212 82 74 74
276 208 260 129 96 60
251 453 176 54 36 38
330 852 460 120 86 76
376 420 171 93 60 52
108 705 218 168 121 103
261 13 266 91 71 61
234 458 283 112 15 40
256 453 175 75 33 36
356 343 213 98 84 68
251 458 176 45 39 44
254 274 313 132 98 73
404 508 322 132 24 45
251 463 176 51 34 41
311 403 296 83 65 45
230 453 266 86 22 33
380 577 207 178 14 43
246 663 246 52 33 36
366 433 298 80 15 31
431 753 261 85 66 49
276 438 320 88 28 39
311 443 206 87 28 26
247 453 186 83 31 35
369 546 351 39 28 34
238 468 289 96 19 39
346 703 191 80 57 42
248 463 181 78 36 41
379 319 238 124 97 63
248 380 290 120 96 69
258 334 293 122 97 67
328 836 158 127 100 73
249 498 184 74 33 37
266 253 272 142 99 67
26 758 197 144 102 82
246 458 186 49 34 35
258 20 258 107 92 78
316 58 231 96 40 34
243 768 193 107 78 43
338 198 249 98 79 57
245 458 191 55 31 37
376 283 221 131 96 59
329 103 210 114 20 36
249 458 180 47 37 43
401 753 264 76 60 46
322 635 323 100 35 45
346 128 247 118 94 65
373 678 287 57 30 35
247 638 247 145 3 38
291 863 301 138 102 75
262 233 319 112 91 68
409 434 381 93 25 40
314 48 240 89 46 39
251 468 176 136 21 37
251 473 176 56 33 37
376 932 386 94 79 64
331 168 221 111 88 60
398 514 361 75 31 37
354 694 193 70 52 42
324 88 216 92 55 42
255 465 173 61 35 46
425 888 177 108 81 69
281 313 346 139 98 76
306 518 295 70 13 26
280 67 275 124 17 47
306 592 203 105 29 38
254 471 173 58 30 37
356 278 262 108 86 61
547 849 298 85 85 85
239 401 271 124 8 39
276 843 291 119 95 70
237 513 290 100 26 40
226 563 246 156 4 40
266 373 331 143 105 82
356 372 209 90 79 69
414 556 270 155 24 47
256 473 174 55 35 36
286 538 298 115 5 36
396 420 325 66 25 32
261 313 296 101 82 61
256 478 173 110 24 37
272 578 304 51 32 36
284 414 213 93 78 62
311 933 238 67 61 64
364 174 218 112 93 70
256 478 174 102 24 33
80 719 204 152 104 74
301 548 172 69 34 38
254 377 270 112 91 68
328 183 226 108 87 64
373 293 219 124 95 59
430 463 257 54 27 32
248 468 181 88 30 38
206 703 224 108 85 67
259 338 313 131 100 71
246 468 186 56 32 33
376 248 216 123 96 62
237 413 261 111 15 35
247 473 186 98 25 38
341 73 187 133 23 32
363 707 312 72 20 27
230 513 225 145 9 37
247 478 186 125 15 39
350 18 246 109 49 50
406 888 341 77 57 42
228 483 266 70 25 36
442 498 226 136 23 44
249 468 179 137 22 34
264 688 224 44 34 38
362 411 200 91 77 64
356 208 206 117 95 68
249 473 179 44 34 36
271 158 291 108 89 68
356 528 301 59 24 30
235 663 276 52 32 36
251 483 176 149 12 36
226 528 246 140 0 37
256 481 173 122 15 36
372 363 214 104 88 71
309 911 328 35 34 36
256 483 174 129 13 32
252 488 177 128 19 38
302 452 199 78 32 26
397 498 366 130 6 39
381 528 336 79 23 33
210 714 229 111 86 68
290 18 262 126 19 26
365 781 214 54 45 40
251 383 311 134 102 74
254 376 274 115 93 68
335 233 210 131 102 65
322 96 249 116 42 45
365 553 346 68 26 32
256 488 175 135 15 34
388 519 361 51 29 32
254 960 323 60 55 53
266 173 299 107 89 71
408 710 381 134 101 78
442 728 371 166 111 78
256 493 176 150 6 37
457 892 167 104 89 74
253 374 277 119 95 69
181 678 187 162 104 70
403 896 213 103 77 57
426 414 256 79 28 31
246 493 191 111 13 35
381 518 175 81 26 37
274 134 279 116 92 63
342 333 274 85 65 40
248 483 182 136 13 41
367 743 307 74 21 30
242 597 232 124 28 45
256 633 306 92 22 35
401 888 230 80 68 59
268 57 225 86 40 20
411 543 281 151 15 48
314 28 249 79 32 31
248 498 186 79 30 36
274 88 274 124 14 45
362 558 346 51 29 33
71 718 224 144 118 101
284 48 252 125 44 43
247 498 191 38 31 34
323 483 176 53 32 30
263 971 278 72 69 71
71 708 221 127 106 88
400 988 320 86 73 60
226 473 256 106 22 38
398 824 261 71 53 47
268 95 234 89 63 37
247 503 191 51 33 35
298 915 339 40 38 38
123 670 198 95 84 73
298 930 229 82 78 80
440 503 226 62 32 38
278 381 238 100 87 73
401 912 237 81 68 64
256 573 207 73 31 35
256 553 300 116 8 35
252 378 311 134 101 73
274 632 318 66 22 31
428 721 339 108 87 64
395 436 397 55 9 25
247 508 191 52 34 38
376 348 256 122 97 67
247 513 191 57 33 36
296 288 345 111 89 65
336 673 201 77 58 41
316 863 201 69 68 71
329 308 256 77 62 45
388 466 368 29 25 27
331 663 227 46 37 43
331 368 269 64 52 38
236 508 286 39 26 29
402 468 302 159 8 51
251 498 181 129 16 38
363 166 224 119 98 75
368 840 231 57 45 44
306 872 166 74 63 61
383 402 214 109 89 66
241 703 231 87 29 31
378 451 374 129 8 37
256 498 177 156 3 35
318 600 332 85 2 31
254 500 179 154 5 42
223 558 255 141 8 40
321 867 445 175 121 113
300 958 321 61 55 54
326 398 221 79 69 60
387 398 266 98 80 61
257 503 177 152 10 38
333 218 244 98 79 59
391 778 231 62 49 45
374 238 245 122 96 67
249 503 185 44 35 36
321 513 161 110 21 33
223 720 256 129 16 41
281 28 256 85 30 28
261 769 292 81 65 58
411 712 360 145 105 82
315 43 236 71 41 20
308 950 323 58 49 47
253 508 182 58 33 35
276 243 326 112 91 66
403 584 251 181 10 52
379 254 234 120 93 60
276 713 323 174 19 57
300 283 293 115 89 60
376 888 331 46 38 34
256 508 180 73 34 38
323 475 178 58 32 30
358 307 268 120 89 60
331 383 217 101 85 68
426 453 299 36 26 28
234 447 278 93 20 33
256 513 181 55 32 39
233 458 232 68 32 34
49 729 198 109 88 65
266 832 222 142 104 82
364 165 227 118 97 73
250 508 185 51 36 36
321 513 292 92 4 29
316 503 176 57 32 31
366 268 255 124 94 61
311 396 245 96 78 60
375 858 266 54 43 46
111 693 197 148 102 67
350 68 196 120 42 43
334 398 278 53 42 28
265 408 178 129 9 28
251 513 186 76 28 38
388 472 386 100 14 35
332 173 240 100 81 60
351 523 167 155 1 34
431 473 286 88 28 39
296 18 306 176 127 112
225 503 246 114 20 38
357 494 164 56 37 42
411 478 297 123 3 36
357 619 317 183 14 58
331 946 313 75 64 57
344 62 249 124 30 48
321 563 307 87 9 27
240 453 221 116 10 32
238 453 223 103 16 31
394 831 276 166 113 94
394 909 240 70 59 50
302 448 297 30 24 26
238 458 222 70 27 35
300 917 213 83 76 78
266 378 331 145 106 84
278 700 202 73 37 34
336 544 299 52 22 28
234 453 282 100 22 37
321 43 226 68 40 26
296 513 173 66 32 36
109 706 198 185 120 96
240 463 216 101 17 33
408 498 331 168 16 45
297 684 186 74 51 43
237 463 221 102 24 35
422 508 256 43 29 34
132 700 207 180 124 104
261 108 226 142 27 41
295 408 320 141 98 80
249 391 264 86 73 58
331 593 351 125 9 38
327 233 236 105 84 60
263 348 329 127 98 69
296 608 215 82 33 37
248 390 268 91 78 64
239 468 216 69 28 35
367 402 283 107 83 59
372 328 220 118 95 69
238 469 218 87 32 42
366 948 346 86 75 65
238 684 243 149 10 46
336 53 192 120 32 15
256 873 260 114 88 60
238 473 217 87 22 32
253 966 291 64 59 58
507 855 295 117 93 66
240 478 211 128 5 33
370 772 208 68 53 43
349 98 202 134 21 44
244 463 196 123 15 37
304 423 304 89 68 48
248 393 301 132 102 73
239 770 283 86 71 65
321 413 266 56 47 38
244 463 201 129 7 37
373 708 293 110 7 35
13 753 206 170 121 109
261 223 316 109 90 70
351 133 245 116 93 67
444 710 384 163 115 85
243 463 206 130 6 34
156 688 206 178 121 102
336 208 210 125 98 65
244 458 205 130 5 35
300 28 276 139 26 51
314 53 240 98 46 39
401 414 266 68 59 50
386 598 291 98 26 42
244 463 204 133 4 36
430 482 284 119 19 40
306 533 170 91 20 27
241 453 216 130 8 35
383 372 257 113 90 65
421 415 241 77 46 37
331 42 220 114 88 64
242 463 211 121 7 32
269 582 303 38 28 30
326 223 231 109 87 62
350 258 258 102 81 55
340 596 354 191 11 61
364 899 255 43 35 35
356 914 332 66 55 51
257 363 321 135 102 75
238 713 314 143 20 49
376 228 221 118 95 69
201 683 217 92 73 54
244 468 201 131 6 36
342 143 249 118 93 65
271 53 231 74 46 28
381 528 371 58 24 29
346 493 290 52 23 26
291 538 175 89 27 36
299 490 178 39 36 39
336 47 206 120 88 60
243 468 203 129 3 34
276 238 325 113 92 70
332 228 212 128 101 68
280 168 261 118 91 59
311 568 310 34 26 29
394 501 342 113 2 35
291 348 267 97 81 65
330 318 262 68 57 46
324 314 231 117 94 69
271 598 215 178 4 38
250 258 291 145 102 73
117 694 218 167 124 108
321 17 291 177 124 108
243 468 206 127 3 34
322 933 251 79 70 69
255 358 311 124 98 67
333 934 286 77 69 68
301 10 291 127 54 66
240 488 210 131 6 32
333 332 218 125 98 68
233 883 273 159 117 90
311 588 200 86 30 37
243 473 203 131 2 34
368 328 258 123 91 56
242 473 206 130 4 35
501 917 281 95 83 71
361 193 210 123 97 65
336 849 470 120 88 74
111 674 210 108 91 75
404 493 317 88 23 38
300 328 282 97 80 60
381 628 271 74 28 36
244 466 204 130 4 33
313 53 242 99 42 40
375 253 245 122 95 62
244 478 200 133 4 35
339 710 188 69 52 41
444 433 272 58 31 35
296 703 327 50 29 32
367 644 250 45 32 37
243 478 202 131 2 35
329 94 206 121 12 36
256 438 316 133 21 45
301 588 312 38 24 26
289 43 258 125 37 38
314 631 329 103 38 48
328 112 223 122 86 60
242 478 206 131 4 33
348 56 204 95 57 15
312 675 200 80 49 40
361 878 251 60 49 45
256 343 296 128 100 69
228 483 233 75 31 39
434 478 268 84 27 31
292 684 206 79 40 38
345 37 260 128 17 46
241 468 211 117 13 33
303 282 328 121 96 65
341 183 211 128 99 62
385 478 176 124 2 34
232 453 241 61 34 35
386 428 201 105 12 31
329 183 237 102 83 62
342 433 152 87 30 34
346 563 309 87 14 31
314 398 246 95 77 58
273 108 273 117 91 64
436 513 231 79 26 35
232 458 236 60 34 34
390 478 386 122 13 42
230 458 241 60 33 35
330 118 221 115 87 56
326 770 313 78 64 57
297 272 332 112 90 65
339 253 209 134 103 66
231 463 236 48 35 36
336 809 292 68 55 50
232 463 231 56 34 36
229 463 241 50 31 34
402 463 311 140 9 45
237 453 226 113 16 32
253 359 301 122 97 68
215 758 256 164 122 93
233 449 238 38 34 35
341 389 279 96 69 51
432 728 341 130 97 63
318 526 163 158 3 31
286 33 257 85 56 42
282 78 256 139 21 47
260 54 217 97 72 46
363 558 369 38 27 28
233 454 233 90 28 38
260 514 179 50 32 37
366 922 342 69 58 53
428 488 238 170 15 51
360 917 326 65 50 49
298 908 209 82 75 76
342 268 255 93 75 55
350 438 305 46 18 24
327 855 201 59 58 60
282 694 201 75 41 36
333 228 244 100 80 59
326 613 341 110 32 44
304 412 309 108 79 58
239 418 286 65 30 35
236 458 226 59 30 34
375 338 222 108 89 68
270 908 204 83 72 69
234 458 230 82 31 36
304 392 319 130 92 73
326 671 191 78 52 39
356 183 209 125 97 63
276 88 241 126 26 37
234 462 229 54 30 33
375 578 331 82 30 39
436 738 381 183 120 92
342 415 193 82 71 60
258 283 320 124 97 70
257 628 305 46 28 29
229 453 251 69 26 33
284 626 323 82 24 35
332 458 161 97 20 30
229 458 246 35 31 36
311 568 187 161 19 44
240 513 292 79 29 37
366 383 208 93 80 67
229 462 245 51 25 30
200 753 200 160 106 71
355 866 278 39 35 34
227 463 251 130 6 35
301 268 296 113 89 63
405 744 419 157 118 89
341 488 155 93 34 40
436 888 322 82 67 54
239 493 210 126 11 33
228 463 256 133 0 37
387 598 286 157 16 49
411 418 298 100 13 34
249 259 307 130 98 71
229 457 256 131 0 37
228 460 248 63 16 25
271 228 322 111 91 70
337 163 212 126 98 62
389 484 313 51 15 25
230 468 236 42 33 36
286 498 175 112 19 27
399 513 193 135 8 37
281 53 280 117 71 61
285 922 338 43 41 42
286 9 286 116 54 51
227 483 261 123 17 39
378 363 219 104 88 71
229 473 235 37 34 38
321 833 171 86 63 54
346 948 331 64 51 39
387 498 180 114 7 31
327 78 192 137 7 41
226 483 241 84 30 38
419 768 311 167 107 74
318 67 216 89 68 53
228 474 237 38 34 35
281 533 177 130 15 37
414 443 223 60 38 41
365 688 247 64 33 36
341 133 210 132 98 60
323 353 232 94 78 61
264 103 227 131 18 37
246 408 306 105 20 39
306 872 171 84 75 74
297 697 178 65 45 37
225 493 241 60 30 34
271 43 282 111 26 42
370 453 293 113 3 35
328 476 309 105 4 30
184 645 204 81 68 53
224 708 261 82 31 40
232 478 226 80 29 37
235 820 242 54 36 43
96 698 220 159 122 107
332 133 241 115 88 64
259 318 300 121 95 66
351 218 204 124 96 62
228 478 236 38 33 38
258 313 306 128 98 68
233 465 228 65 42 40
248 776 284 82 66 59
321 453 293 48 21 24
291 528 174 131 10 34
194 763 221 178 127 97
233 468 228 76 39 42
386 483 311 34 22 22
346 828 201 54 46 45
234 473 225 69 35 37
341 758 205 61 46 42
415 533 251 63 26 36
292 393 327 151 103 82
228 942 291 83 73 70
238 438 291 31 28 31
341 193 209 118 94 66
240 698 235 94 20 30
227 468 246 49 30 33
391 493 316 59 19 28
327 339 260 74 66 59
357 844 220 63 51 46
227 473 246 52 30 36
342 148 249 116 91 65
374 782 415 132 94 74
363 844 446 181 121 98
227 468 256 133 1 37
226 473 251 110 22 38
270 469 183 43 37 38
341 693 191 77 54 38
371 203 231 117 94 70
256 628 236 142 7 37
254 275 299 145 103 76
281 399 226 104 88 72
377 713 286 112 13 39
328 464 167 93 23 25
367 589 332 161 19 53
403 775 411 203 138 109
383 624 266 74 37 41
226 478 246 64 29 34
276 563 302 134 11 42
374 215 223 122 99 74
240 483 211 131 5 33
237 483 216 127 12 32
308 399 312 117 84 63
256 393 321 143 107 81
236 488 216 124 14 32
248 538 299 172 18 58
236 493 216 121 13 33
233 493 222 123 18 36
421 902 326 111 90 73
354 118 231 115 94 72
241 448 296 63 28 33
294 374 248 97 82 65
361 421 149 123 61 50
351 288 265 93 74 53
246 513 196 51 32 34
366 553 331 55 28 33
396 763 395 146 93 76
304 844 284 150 115 90
369 303 254 130 95 64
267 812 274 182 128 110
232 498 221 121 15 35
232 503 221 131 7 35
246 493 300 164 15 52
288 10 309 151 33 61
284 400 227 103 88 71
250 383 306 131 102 73
228 505 228 135 16 42
372 738 301 50 24 28
295 640 323 138 34 52
183 732 211 207 138 108
376 333 251 130 101 68
336 419 285 62 49 38
435 468 266 49 29 32
351 208 206 117 94 67
232 508 221 143 5 35
287 263 279 129 92 62
286 403 226 99 85 69
410 488 366 96 25 38
325 83 206 135 4 43
392 435 371 60 8 25
300 388 325 143 99 82
232 513 221 145 7 37
249 263 301 143 103 76
410 478 212 48 39 39
235 503 216 121 13 34
193 668 189 124 90 51
329 95 209 115 20 37
305 318 291 99 80 58
402 448 398 86 15 31
346 422 151 108 42 32
382 543 356 77 30 38
275 564 190 173 8 40
238 498 212 112 16 35
251 723 321 182 14 58
226 813 211 203 134 110
241 498 206 55 28 33
291 473 185 57 34 34
33 733 209 134 92 86
282 32 255 87 38 29
326 834 272 146 108 87
240 503 206 42 32 36
347 604 338 187 7 59
431 443 256 127 8 36
239 503 209 38 34 37
333 163 217 116 91 61
296 813 285 179 133 111
255 353 291 125 98 68
408 754 254 74 56 45
242 568 217 124 17 39
234 501 219 134 11 36
369 454 319 96 17 37
269 501 298 48 29 31
324 403 231 74 65 56
291 689 163 90 65 42
363 575 351 188 5 60
166 658 186 110 87 56
225 498 241 89 29 38
235 513 216 144 6 36
266 788 196 55 46 42
251 758 296 88 71 65
372 713 296 94 11 30
322 408 241 74 64 54
331 353 266 63 52 39
311 633 222 78 26 30
426 463 246 127 12 39
239 508 209 44 35 39
286 68 261 125 43 53
276 743 191 53 42 39
269 106 241 127 83 57
341 168 210 129 100 62
309 418 300 74 58 41
239 513 209 110 17 40
372 394 209 104 86 65
406 483 300 142 8 47
274 83 274 111 54 51
331 527 293 92 11 32
237 513 212 117 13 36
263 83 274 108 90 70
330 482 305 69 9 26
234 509 219 142 3 36
379 881 261 54 40 45
497 910 273 94 79 66
273 550 298 159 16 51
256 473 307 59 23 31
234 512 219 146 5 36
373 676 279 36 27 30
264 453 187 63 36 35
305 893 218 76 72 74
348 103 242 120 97 72
308 404 238 82 69 58
245 483 196 139 5 37
266 849 310 131 105 78
266 58 221 81 42 27
250 638 244 143 5 36
401 763 251 98 76 58
408 906 212 85 68 60
241 488 206 133 6 33
265 823 266 172 127 101
245 488 196 140 5 37
391 419 280 74 45 41
363 222 253 123 98 69
242 698 231 76 32 33
131 701 201 208 133 106
196 703 191 146 96 62
369 198 235 116 94 70
244 488 200 138 5 35
313 446 204 87 25 23
306 608 316 35 27 28
251 388 311 135 102 75
332 30 228 116 66 46
300 828 184 80 63 51
242 483 206 132 5 34
301 258 311 116 93 66
243 488 202 138 5 36
383 383 219 103 86 68
252 268 311 132 98 72
245 493 196 134 11 37
291 319 348 144 99 80
383 461 371 75 24 28
327 28 231 90 75 60
463 901 167 98 84 74
244 493 200 143 5 37
276 471 184 62 40 36
330 238 241 103 83 59
340 846 466 118 88 73
243 493 202 140 5 36
241 493 206 126 9 36
281 759 303 75 61 55
244 503 200 88 30 38
300 600 209 71 24 34
280 487 298 54 16 25
364 272 208 134 100 60
346 23 236 106 91 75
246 508 196 59 35 36
211 715 193 136 94 58
271 68 221 124 27 35
346 420 309 71 52 41
276 728 186 55 43 37
244 513 200 48 35 37
292 426 219 56 34 39
401 903 231 79 66 65
379 532 366 72 19 31
285 13 307 137 47 58
270 937 338 42 40 42
243 513 202 43 33 36
386 433 196 116 5 31
434 703 394 160 115 89
232 483 226 71 27 37
352 58 231 119 65 60
229 483 230 84 25 38
308 395 248 90 74 57
234 508 278 46 29 31
276 298 286 100 79 56
371 397 209 101 83 65
381 733 256 93 31 38
409 513 207 134 4 33
268 94 231 124 49 50
257 802 274 64 53 49
262 278 286 126 90 62
239 620 254 55 34 28
229 488 230 59 29 35
228 488 232 40 32 38
396 478 371 119 16 43
284 835 219 74 59 50
391 907 236 69 57 50
346 408 281 110 80 63
227 483 236 59 33 36
227 488 236 38 32 36
398 458 320 110 15 37
373 673 287 47 29 32
247 799 204 152 102 66
236 473 286 134 8 39
416 766 261 79 60 46
297 616 218 54 36 38
409 496 359 81 34 31
286 813 282 181 127 109
271 10 291 104 71 59
269 73 218 135 15 34
229 493 229 35 34 38
346 586 359 58 31 35
228 493 232 36 33 36
226 493 236 74 30 36
305 907 205 90 86 89
225 488 246 68 31 35
419 894 184 118 105 99
368 202 214 112 91 68
266 593 302 51 30 34
275 133 256 125 94 63
395 459 355 47 18 29
225 488 251 48 31 32
270 153 252 126 93 54
266 503 297 41 25 26
376 890 246 68 56 46
302 934 234 80 73 75
225 488 256 78 29 36
244 489 298 157 17 51
266 42 240 113 97 80
305 440 207 85 27 28
208 709 194 134 94 58
225 493 246 86 27 35
246 473 301 142 13 44
225 493 256 52 30 32
361 383 207 87 77 68
271 503 300 33 26 29
326 72 254 119 90 70
396 412 256 71 62 54
301 418 311 113 83 63
408 755 269 59 46 36
356 583 200 173 15 45
395 513 306 53 26 31
227 498 231 56 34 37
336 818 286 66 53 46
421 483 222 77 29 35
76 708 205 117 92 66
351 48 221 82 52 38
227 503 231 54 31 35
248 606 233 144 28 46
355 458 152 103 32 42
230 498 226 77 27 37
276 397 329 167 120 95
230 503 226 136 12 38
365 218 250 122 98 70
205 693 192 124 90 53
337 761 319 79 64 59
226 498 236 75 31 35
266 248 325 113 91 67
225 503 241 92 22 35
323 363 232 93 78 63
361 923 371 72 60 52
264 93 223 127 15 33
357 868 206 80 65 57
253 268 291 146 102 75
381 493 306 45 16 25
390 513 182 130 3 30
355 728 203 70 48 39
227 513 231 55 29 35
261 388 251 104 90 75
331 878 226 59 53 54
255 638 240 140 5 35
309 362 325 134 97 75
290 604 313 112 3 34
326 343 231 96 79 60
241 748 196 89 65 42
441 493 231 138 18 45
228 508 228 134 16 38
225 513 236 113 15 38
431 697 371 107 90 71
270 400 196 104 69 54
408 810 284 164 109 81
261 23 256 103 89 74
323 344 241 75 64 54
326 478 307 119 4 37
388 737 224 73 55 49
386 749 286 86 72 58
431 698 366 114 96 78
253 363 287 121 97 70
356 923 301 61 53 50
234 550 288 139 15 47
426 703 361 112 92 69
284 67 269 119 91 71
225 513 241 147 0 38
297 763 185 64 51 43
451 927 260 90 78 67
302 464 299 40 27 27
225 498 251 70 28 36
401 418 221 99 42 32
381 773 431 146 119 94
254 449 313 112 18 39
258 353 282 119 95 68
351 803 296 56 48 45
249 387 275 111 90 68
398 515 366 99 32 40
393 462 199 107 14 33
272 442 200 63 34 36
190 654 210 77 61 44
225 503 251 74 27 35
280 163 286 109 87 61
330 173 236 101 81 59
243 408 296 110 13 36
36 767 198 180 122 108
336 83 188 138 31 45
266 847 301 109 85 58
225 503 256 143 11 42
279 150 280 110 86 60
250 373 291 120 96 69
328 332 223 117 93 67
161 688 186 213 136 108
43 728 219 158 112 105
225 508 246 141 5 37
391 453 316 59 15 25
421 508 251 44 29 34
349 113 217 96 77 56
232 588 275 61 27 33
225 513 246 143 0 39
303 876 293 137 109 85
328 288 223 124 99 73
249 401 308 133 101 75
225 513 251 148 0 40
326 854 270 39 32 30
313 368 276 81 67 52
341 700 194 71 48 35
333 203 244 97 79 59
284 466 304 61 26 31
226 513 256 154 0 43
351 420 156 98 57 43
269 288 333 128 96 72
411 894 208 105 84 64
304 14 305 113 78 60
251 258 286 148 102 73
346 23 276 128 34 52
282 173 291 108 87 62
278 877 323 156 120 96
367 819 220 71 59 56
253 257 282 147 101 72
328 474 163 80 26 32
26 758 221 108 69 57
363 303 263 133 93 65
388 448 186 123 0 34
225 793 257 178 134 108
349 55 207 88 56 28
349 558 309 96 10 32
361 798 300 157 117 93
256 268 286 137 96 67
291 564 185 88 30 40
248 258 301 136 101 72
191 738 206 196 129 98
300 258 316 118 95 68
402 788 241 65 51 44
395 498 341 119 6 39
248 256 293 144 103 74
199 673 193 114 84 51
249 259 296 143 102 74
336 542 298 39 25 27
275 438 203 62 33 35
366 708 306 74 16 27
375 353 261 117 93 65
375 223 231 118 95 70
238 478 290 136 9 40
372 668 266 104 26 39
277 103 251 138 86 71
280 98 256 136 29 49
370 547 336 67 27 34
329 456 180 79 28 24
230 458 266 131 10 39
413 705 390 121 98 74
246 513 295 113 26 44
359 562 326 62 27 31
380 622 246 66 31 36
295 238 281 123 93 64
334 114 215 117 83 57
26 736 208 127 88 79
250 263 296 147 104 76
236 548 290 158 14 49
249 260 301 140 102 74
322 102 241 135 97 79
243 413 299 81 26 36
376 883 261 59 47 51
151 691 205 180 124 102
252 268 296 148 103 76
253 266 288 145 101 73
263 56 219 85 62 33
245 763 191 89 67 43
326 498 161 121 12 30
228 550 284 146 17 47
254 269 290 143 99 71
246 393 271 91 73 58
336 373 216 105 88 70
256 273 291 139 97 70
361 523 306 79 23 35
395 448 398 93 19 35
367 203 246 121 97 70
291 442 205 77 31 29
296 687 323 85 26 37
281 43 250 129 42 42
279 150 267 110 88 64
297 248 311 120 96 69
219 709 203 106 78 51
261 12 271 90 63 55
411 448 296 50 32 34
253 272 297 148 102 77
254 274 296 144 101 74
271 22 300 118 58 55
311 333 331 125 90 64
351 198 207 119 95 67
281 483 298 45 25 27
327 193 226 115 92 67
293 849 187 59 50 47
336 368 272 69 52 33
251 268 301 148 104 78
355 848 461 194 131 117
316 403 276 62 51 38
324 373 251 71 61 50
343 93 248 111 24 43
279 87 247 115 38 40
248 257 305 130 97 71
231 458 271 73 25 33
232 523 276 98 19 36
250 258 311 127 97 69
166 683 210 160 107 89
301 533 296 42 24 29
276 698 323 98 22 40
259 224 264 138 101 65
249 263 306 136 100 74
247 433 306 83 26 36
265 118 242 131 94 62
255 258 316 125 96 69
349 848 469 171 124 112
255 263 316 126 96 70
158 670 183 118 89 56
252 273 306 148 104 81
346 858 275 43 38 36
360 148 231 113 93 70
228 459 260 133 0 37
321 68 255 109 28 45
373 218 231 116 93 68
341 183 250 103 83 60
330 478 160 68 32 32
253 273 311 138 101 76
270 123 279 109 88 65
382 758 216 64 50 44
255 268 316 124 95 68
236 658 276 74 26 36
