ply
format ascii 1.0
comment Created by Open3D
element vertex 2183
property double x
property double y
property double z
property uchar red
property uchar green
property uchar blue
end_header
482 667 207 116 87 53
452 646 228 70 41 30
457 646 233 111 69 59
331 886 310 142 111 88
451 651 229 71 46 36
451 656 229 65 44 34
454 651 231 90 57 47
429 846 180 64 54 54
456 656 233 104 71 58
461 646 234 135 94 81
461 651 235 134 96 81
461 656 235 131 94 77
456 591 279 123 26 47
450 661 229 59 44 34
419 829 136 109 78 56
453 662 232 75 52 39
456 661 233 98 68 55
453 666 232 71 50 36
456 666 234 98 68 53
452 671 232 67 47 35
461 661 235 131 92 75
460 671 237 124 87 70
481 646 233 190 139 115
461 581 279 66 30 35
476 651 233 187 136 111
481 651 232 188 138 112
471 661 234 177 128 104
466 666 235 159 115 93
466 671 236 157 115 90
431 546 295 53 29 33
471 671 235 169 124 99
388 778 286 81 63 56
478 662 231 173 125 100
481 671 229 174 127 98
443 726 285 38 30 34
476 671 233 171 124 98
450 679 207 84 70 55
460 921 284 66 53 47
451 681 204 84 70 57
451 676 209 80 67 53
281 776 300 167 122 92
457 676 205 86 71 55
455 676 208 84 70 54
456 686 200 86 72 56
461 681 203 88 73 57
516 501 266 38 32 34
446 916 307 65 54 48
476 816 263 66 52 41
457 683 201 85 72 58
451 692 196 79 65 52
290 760 301 172 126 98
319 690 296 45 26 28
451 697 194 75 63 51
456 692 193 80 67 53
390 692 302 63 24 31
456 696 194 77 64 52
462 694 197 83 71 57
512 858 265 85 79 75
378 830 205 58 50 49
466 676 204 95 77 55
471 676 205 105 82 55
426 909 310 46 41 38
471 681 205 107 84 55
481 871 265 116 90 70
370 917 307 66 53 47
466 686 203 97 77 55
387 973 264 67 60 59
391 566 301 160 0 49
471 686 203 111 85 54
467 688 201 101 79 54
475 676 206 111 85 56
474 682 206 116 88 55
273 571 291 85 59 43
477 676 207 114 87 55
277 681 275 139 99 66
476 681 207 119 90 56
514 581 229 191 128 103
481 676 209 129 93 59
481 686 209 133 95 62
479 687 206 121 89 55
281 606 278 117 78 55
467 696 197 99 79 56
313 680 291 58 37 36
465 697 196 87 71 55
321 771 303 99 77 67
469 692 201 108 83 53
471 691 203 114 87 55
472 696 202 114 86 54
472 701 198 107 82 54
446 931 294 83 70 59
442 837 234 73 56 50
476 691 205 120 89 56
478 691 207 123 90 58
478 695 207 124 89 59
474 701 201 107 82 54
338 712 317 105 37 50
476 701 204 113 86 54
480 696 210 139 97 65
438 780 141 77 58 47
450 681 230 54 37 27
491 905 294 102 82 68
452 681 233 71 47 34
455 676 235 92 63 50
390 949 313 76 64 61
406 946 289 64 54 50
449 685 231 53 35 26
364 891 184 68 60 57
451 686 234 67 40 33
455 686 236 98 63 53
441 916 308 66 55 47
267 586 295 145 106 75
461 676 237 128 90 72
296 746 302 183 129 102
463 675 236 140 99 79
461 686 238 129 89 72
451 691 237 82 37 36
454 689 236 95 59 49
458 768 156 47 41 40
456 691 237 111 69 58
457 696 237 118 72 62
454 697 236 98 56 49
452 701 236 105 38 43
457 701 238 120 71 61
412 772 281 85 65 56
461 691 238 133 91 73
461 696 238 137 91 74
422 871 194 68 58 56
465 677 237 148 107 83
466 681 237 149 106 83
471 676 235 164 121 94
346 771 299 86 68 60
470 686 237 159 116 89
346 807 286 74 60 54
472 686 236 163 120 92
476 676 233 168 123 94
481 686 229 171 119 89
476 686 234 167 120 91
470 696 237 165 118 92
472 691 236 167 121 94
472 696 236 170 123 96
472 701 236 170 121 94
377 876 285 146 112 86
476 696 234 172 123 94
526 749 210 110 82 62
479 691 232 170 120 90
479 696 232 174 123 92
486 646 209 105 79 51
486 651 208 99 77 51
491 646 209 116 88 55
494 645 211 130 97 61
496 646 214 156 109 77
328 878 251 129 102 72
491 651 209 125 93 58
492 656 214 168 117 86
493 652 212 151 107 74
326 536 316 144 22 49
494 654 216 179 125 94
495 651 219 195 135 107
495 651 223 199 138 109
366 946 323 66 61 61
493 657 219 198 138 107
494 654 219 197 136 108
387 810 176 55 47 45
492 652 225 199 139 111
482 661 207 103 80 52
486 661 208 128 94 60
487 671 214 171 117 86
487 666 224 188 135 106
473 876 274 71 59 49
486 816 254 78 61 51
481 746 204 125 87 59
490 661 214 174 122 90
297 830 254 146 99 87
489 666 219 190 132 101
317 701 298 45 28 30
489 665 223 191 134 106
541 505 246 38 28 27
497 646 219 189 130 101
551 486 250 137 21 45
496 646 224 198 137 108
449 805 164 70 59 56
486 646 232 192 141 114
486 651 230 190 142 114
484 649 232 190 140 113
491 646 229 194 139 109
490 651 228 195 140 111
406 626 295 78 30 39
489 654 227 195 144 115
273 781 250 179 121 89
487 661 226 188 135 108
484 675 211 147 101 71
485 661 228 180 132 105
569 484 239 115 40 50
396 546 299 161 13 50
484 666 227 183 132 105
484 670 227 181 130 100
488 658 226 190 142 111
476 551 269 62 21 28
483 681 212 151 103 73
485 676 214 167 114 83
484 681 214 165 113 82
391 956 234 79 72 72
485 676 224 179 124 93
484 686 223 170 116 85
384 876 282 151 121 96
351 860 294 119 96 70
483 691 213 156 108 75
456 861 280 54 44 37
483 696 214 159 109 76
484 691 215 165 115 80
483 696 219 165 111 80
484 691 219 167 115 82
484 691 223 170 116 83
484 694 219 165 112 80
479 827 262 75 59 49
484 694 223 168 114 81
489 564 263 53 28 34
482 701 214 158 108 77
483 701 219 163 110 79
483 701 224 169 115 83
483 676 226 178 127 94
483 681 226 175 121 91
481 691 229 174 120 88
463 712 131 97 68 46
463 708 133 86 62 41
463 716 131 77 54 41
462 716 134 78 61 47
463 720 131 76 54 42
308 951 279 97 83 78
462 721 134 68 50 41
463 713 139 93 77 62
462 716 139 93 80 68
415 905 224 75 65 64
463 713 144 72 61 51
461 716 144 75 65 57
460 721 139 71 56 44
459 720 143 76 62 51
461 716 149 68 57 46
368 878 205 50 47 49
459 719 149 70 54 43
394 969 259 79 75 76
461 718 153 82 71 62
456 732 131 84 62 52
452 736 134 75 59 48
456 737 133 92 66 50
451 731 144 60 50 43
450 736 139 65 55 51
452 732 139 56 46 40
456 726 144 66 53 44
460 726 138 65 49 42
459 724 142 63 50 39
460 729 137 82 59 45
452 727 150 52 40 38
452 723 151 77 58 56
452 723 158 74 56 49
450 726 154 61 49 42
450 724 160 72 56 49
448 733 145 49 41 38
381 795 282 110 89 80
452 728 145 66 54 48
449 730 153 46 39 37
444 922 289 83 70 58
462 731 159 61 51 42
463 734 160 62 49 40
467 707 130 107 73 56
466 707 134 95 68 52
455 931 313 79 65 52
471 711 129 90 65 48
456 931 309 77 63 49
471 711 134 73 56 42
310 676 293 91 63 56
470 712 139 73 60 45
409 941 294 68 56 52
466 716 129 91 60 45
470 715 130 84 63 47
511 742 206 113 85 61
471 716 139 75 62 50
471 711 148 67 53 42
494 784 221 84 61 46
466 716 150 70 60 52
465 718 153 74 66 58
338 969 307 66 60 60
442 823 177 70 57 53
466 721 154 65 55 47
469 720 152 66 52 40
466 723 133 88 63 45
466 726 135 92 66 48
471 726 144 69 53 43
465 730 136 105 76 56
466 731 139 77 61 49
481 536 283 59 31 34
466 731 144 70 57 46
465 736 144 69 54 43
362 871 224 66 56 50
421 751 288 65 32 40
340 646 301 175 16 56
468 728 144 72 59 48
464 722 157 62 52 43
466 726 154 62 49 41
464 726 157 56 48 40
467 731 149 66 53 40
422 906 259 56 50 55
411 806 163 53 43 39
274 677 288 151 105 75
465 736 149 66 54 42
465 731 154 62 48 37
464 732 157 62 48 40
404 949 277 53 46 43
424 889 216 73 61 58
371 651 304 170 18 55
464 736 159 59 46 38
431 819 134 129 94 60
451 707 175 65 54 43
450 712 171 61 46 40
451 710 172 63 50 40
456 711 175 74 57 43
268 561 323 167 119 95
451 716 169 66 51 43
502 546 259 154 21 50
452 720 168 71 53 43
453 716 172 70 54 47
311 741 297 86 19 33
456 716 174 74 58 45
450 705 178 66 55 46
457 705 177 72 58 46
460 706 180 78 60 44
459 710 176 83 64 48
460 711 179 80 60 44
458 712 177 80 60 46
463 710 182 82 61 43
361 940 211 86 78 80
275 721 295 164 112 86
461 721 189 63 52 42
451 724 162 68 51 46
463 725 168 54 45 40
408 933 296 79 62 49
463 724 172 52 43 37
437 786 145 75 58 48
463 729 167 65 57 50
463 734 162 60 48 39
463 727 186 64 56 52
450 845 215 92 78 79
466 711 184 83 63 46
421 586 298 187 13 59
467 706 189 77 61 46
470 708 191 77 62 47
464 712 181 87 65 43
274 677 295 180 123 96
466 717 180 71 56 44
467 715 183 72 57 45
467 721 179 63 51 42
470 716 185 66 54 42
466 716 191 65 53 42
492 797 243 96 74 57
469 713 186 72 58 43
470 716 189 70 56 44
470 719 188 67 54 43
265 596 299 153 112 81
464 722 175 54 44 38
465 727 170 52 44 38
466 726 174 53 44 39
465 736 164 58 47 40
468 730 174 55 46 39
469 733 171 60 51 44
469 737 170 65 53 42
271 781 254 185 124 93
466 726 184 58 47 39
322 866 269 139 113 88
469 722 181 64 52 40
469 724 181 63 51 40
469 724 182 62 49 41
468 735 180 64 52 41
469 732 177 60 48 40
466 736 190 70 57 46
451 740 134 75 57 46
457 741 134 86 64 47
374 796 188 62 51 47
449 739 137 64 52 38
460 740 136 91 70 52
461 742 138 95 69 52
463 738 137 96 73 54
461 747 134 92 68 46
461 746 139 96 71 50
451 760 130 91 68 48
450 762 132 90 66 49
451 766 133 98 72 51
453 764 131 93 69 50
375 826 271 169 126 103
300 815 297 184 133 106
457 766 130 95 69 49
470 743 138 86 65 46
469 743 144 82 65 49
462 768 162 57 45 44
469 744 134 102 76 53
466 744 138 95 70 51
324 782 212 74 60 51
472 744 140 77 58 39
472 744 144 70 53 38
476 742 134 65 47 35
481 741 134 81 59 44
431 837 164 93 73 60
476 743 138 67 54 37
472 752 134 75 58 47
481 747 134 105 81 60
479 749 136 104 80 57
406 897 297 39 36 36
476 744 140 69 52 40
324 521 317 159 18 49
476 745 144 63 46 39
476 751 139 93 71 53
480 746 143 102 77 54
480 749 139 111 84 60
306 936 284 182 139 117
361 851 284 143 116 89
477 752 144 101 76 54
466 741 149 62 50 41
469 743 148 59 47 36
446 772 158 60 48 46
469 743 155 70 51 38
471 743 159 66 52 41
467 791 178 88 65 52
468 744 151 72 60 50
472 744 158 65 52 39
476 746 149 68 53 40
476 751 149 100 76 54
432 873 283 38 34 31
479 749 148 99 76 54
496 842 260 83 63 46
470 861 264 81 66 54
476 746 154 58 43 34
510 886 278 99 79 74
476 746 159 58 46 35
274 691 279 144 100 69
476 751 154 88 67 49
452 797 154 81 64 58
475 751 159 67 55 44
471 756 134 69 54 44
421 651 280 90 27 40
469 766 134 64 51 39
467 762 140 64 50 39
467 762 144 76 60 49
467 766 139 59 47 36
401 536 298 50 30 31
469 765 137 56 43 33
468 768 134 60 47 37
473 753 137 79 62 51
474 754 140 82 63 49
464 765 153 53 44 42
341 801 209 78 62 54
465 764 160 59 42 46
471 760 154 64 51 41
442 711 284 115 22 41
471 762 159 73 57 47
306 806 299 179 135 104
475 756 149 86 66 48
356 697 313 138 11 43
473 758 147 70 56 45
475 760 159 98 74 55
463 737 188 65 56 51
467 740 163 62 50 40
422 793 157 59 45 38
471 740 169 67 55 44
472 740 174 67 52 43
476 742 174 65 51 41
341 786 208 74 60 53
481 741 174 66 53 42
374 581 307 162 13 50
472 752 163 67 57 50
281 771 243 122 91 55
480 750 166 66 52 41
471 741 189 75 61 50
440 861 259 43 40 40
411 606 293 95 30 41
472 746 184 71 59 53
481 742 177 57 44 37
473 744 181 71 56 46
366 596 308 165 17 53
476 746 180 67 52 43
476 751 184 71 55 45
478 750 181 68 53 43
441 591 283 145 12 44
481 751 179 66 52 42
473 744 188 66 55 45
304 666 297 159 116 96
475 746 189 79 60 46
476 751 189 90 66 50
400 702 302 65 31 35
306 526 322 175 13 54
472 756 164 74 59 47
411 860 250 32 29 28
466 767 163 59 46 43
476 756 168 62 51 44
341 830 273 122 86 68
474 762 164 94 71 54
417 926 244 70 61 60
451 581 280 145 13 44
478 753 167 62 51 43
476 761 169 68 53 44
481 756 170 67 53 45
447 822 183 79 62 58
479 759 171 68 53 47
332 877 251 121 96 68
477 766 173 85 64 51
478 762 172 76 58 51
406 561 299 160 12 50
481 761 173 79 60 46
481 766 175 89 68 53
477 755 185 70 53 44
479 757 183 80 61 50
314 771 217 68 56 48
477 756 189 90 65 50
479 757 190 103 75 55
323 931 312 188 146 126
479 761 189 103 74 55
447 926 284 82 69 59
478 763 189 101 73 55
478 763 186 87 64 54
480 766 184 81 59 48
443 842 259 34 30 28
478 765 189 106 76 56
479 767 189 105 75 56
356 606 308 95 27 41
482 738 132 86 67 46
485 738 132 86 61 42
272 626 285 155 113 77
502 763 217 99 72 57
486 741 134 99 75 54
561 471 229 134 112 92
485 742 138 110 85 61
484 744 130 97 79 63
485 745 138 115 86 57
484 742 174 65 53 43
485 747 170 69 54 42
401 865 255 50 38 35
485 751 169 73 57 44
483 745 176 64 49 38
485 746 174 73 57 42
486 751 174 74 58 46
484 748 177 63 50 35
483 757 174 75 57 43
401 920 315 42 38 37
351 886 314 159 125 95
484 755 174 76 58 45
484 762 176 81 60 47
484 755 177 83 64 48
484 762 178 80 60 49
468 706 192 80 66 53
470 706 194 89 72 54
300 675 268 88 56 40
469 711 194 84 67 48
472 711 198 94 74 49
466 716 193 77 63 49
313 569 312 163 20 51
470 716 195 90 70 49
472 716 198 95 74 50
470 721 195 95 73 48
472 720 198 98 75 50
474 706 200 101 78 52
477 711 204 109 83 52
485 810 262 72 57 46
480 706 209 136 97 63
478 711 207 124 91 58
416 606 291 110 25 41
475 716 200 101 78 51
304 646 259 108 21 38
475 721 200 102 77 50
477 716 204 112 83 53
479 716 206 122 89 57
381 591 306 172 14 54
477 721 204 118 87 56
479 721 206 127 90 60
480 721 209 133 93 61
471 726 195 95 73 50
471 731 194 95 73 52
381 895 169 78 67 64
471 736 193 93 71 49
442 872 239 59 50 57
473 725 197 102 77 51
433 945 273 81 66 57
346 960 317 85 79 78
476 726 199 108 80 52
478 726 203 120 87 55
476 731 199 113 82 54
346 671 304 120 25 43
477 736 198 120 86 57
530 829 241 82 65 51
478 730 202 120 87 56
479 731 204 128 90 60
480 736 200 128 89 60
453 704 236 113 46 47
452 711 240 128 23 41
456 716 239 125 48 52
453 716 240 136 19 44
461 711 239 138 88 71
414 822 157 64 53 50
438 704 285 136 13 43
461 716 239 141 91 73
328 721 312 162 16 51
449 707 243 145 10 46
450 876 254 69 57 57
439 854 250 48 42 37
273 784 251 184 124 91
450 711 244 139 8 41
448 709 246 135 6 41
277 796 298 176 127 100
448 709 249 137 5 41
449 712 249 149 5 45
448 710 254 143 9 42
449 712 254 152 10 46
452 721 244 152 10 48
450 716 254 150 11 46
456 726 239 119 47 51
456 916 299 73 59 53
375 897 298 108 83 59
461 726 240 143 93 74
439 703 283 136 9 42
454 723 251 146 14 46
454 726 250 153 17 48
454 726 254 152 13 46
281 821 289 203 142 114
453 731 248 105 25 43
453 736 244 69 29 36
454 731 254 160 20 51
461 736 241 140 96 74
466 711 238 155 107 83
514 575 232 188 131 104
302 800 231 76 60 54
336 621 304 58 30 35
470 706 237 166 117 91
470 711 237 167 117 92
466 716 238 157 108 83
466 721 238 161 111 86
472 716 236 173 122 95
470 721 237 170 119 92
297 651 301 178 131 108
481 706 229 175 121 90
478 707 231 176 123 95
351 746 314 184 22 61
478 711 231 177 124 95
476 706 234 174 123 95
276 546 259 170 4 47
480 716 229 174 118 88
480 721 228 171 115 84
475 721 233 175 122 94
479 736 228 152 103 73
472 726 235 174 123 96
466 731 238 163 114 88
466 736 239 163 113 88
469 731 237 172 121 95
471 571 275 109 30 44
471 731 236 173 122 95
471 736 236 173 121 93
263 545 317 169 119 96
469 736 237 171 120 94
480 726 228 166 112 81
360 974 292 68 63 61
436 606 284 181 5 57
476 726 233 174 120 92
515 576 219 149 107 70
362 949 216 87 81 82
479 731 228 159 108 78
308 900 294 188 139 122
426 831 244 48 39 36
478 731 231 165 113 83
431 721 296 177 6 56
480 731 224 148 99 69
478 736 230 158 108 80
476 731 233 171 119 90
297 626 259 38 31 36
480 756 224 119 84 57
476 736 233 167 116 88
395 866 263 147 114 92
478 740 197 126 89 58
480 741 199 135 94 61
479 743 196 129 89 58
477 746 193 110 80 54
350 848 227 166 112 86
480 747 195 127 90 61
436 853 242 45 41 38
481 751 194 121 87 60
479 741 224 141 96 66
439 681 257 99 28 42
479 746 219 133 90 61
478 746 221 138 95 65
478 746 224 139 95 64
479 751 224 133 92 62
346 716 320 151 19 49
481 756 194 124 88 62
478 763 192 118 84 60
480 761 194 127 92 64
480 761 199 138 97 67
446 901 284 65 57 55
433 893 259 51 44 47
321 876 303 147 92 104
322 827 280 62 52 48
479 766 194 133 95 66
456 741 241 94 56 47
455 741 243 95 40 44
453 740 245 91 24 39
453 741 249 95 28 42
288 637 311 180 129 103
453 738 254 133 22 46
453 740 254 129 21 43
401 871 260 35 30 30
341 781 209 71 59 51
456 746 244 123 79 63
454 746 249 101 44 48
457 750 245 129 89 66
453 747 256 139 22 45
453 751 255 129 15 41
454 751 253 136 38 51
462 740 241 143 98 75
461 746 242 139 95 72
435 866 269 37 32 30
463 746 241 151 104 78
496 794 255 71 55 43
456 756 249 144 104 75
453 756 255 134 52 57
454 756 253 150 102 80
451 586 281 155 14 47
456 761 249 146 106 76
452 567 280 168 10 52
453 761 256 142 111 87
454 766 253 160 116 87
454 894 297 54 46 40
461 756 244 140 96 71
294 771 233 109 80 56
461 761 244 142 99 72
331 726 314 175 18 56
457 766 245 124 82 56
461 766 244 143 103 74
315 901 259 155 117 92
341 805 287 76 62 57
470 741 237 172 120 93
481 846 264 93 80 68
472 741 236 171 119 92
466 746 240 163 113 87
479 741 228 147 100 70
427 838 168 91 71 60
478 751 230 144 101 71
475 746 234 159 111 83
472 746 236 167 116 90
475 751 234 157 111 81
437 801 144 101 86 79
275 591 273 129 47 43
473 751 236 164 114 87
261 516 334 188 131 109
486 760 219 105 76 53
466 756 240 162 115 87
450 601 278 115 37 49
471 756 238 162 115 86
471 761 239 159 113 85
480 761 229 118 86 61
478 760 231 136 98 67
316 896 310 173 128 109
476 756 234 152 109 78
474 757 237 158 112 83
409 934 236 70 61 60
475 766 238 148 106 77
477 766 235 130 94 66
479 762 233 131 94 67
464 757 242 157 111 83
464 761 242 157 111 82
418 963 245 153 135 126
262 520 333 185 128 107
483 706 219 160 107 75
482 706 224 169 113 81
482 711 219 157 105 72
482 716 214 144 98 67
481 721 214 139 94 63
296 561 313 151 22 49
275 546 289 71 27 38
482 716 219 153 102 69
452 876 259 71 58 55
481 716 224 165 111 77
314 957 264 87 81 79
481 721 224 162 109 76
480 726 209 134 93 61
480 731 209 132 91 59
507 883 268 89 80 77
480 736 209 134 92 59
480 741 209 137 95 62
486 752 196 129 91 63
486 751 199 138 96 67
480 746 209 132 92 61
481 751 209 130 91 61
484 748 200 146 100 68
321 911 306 134 97 82
486 751 204 122 85 60
491 752 199 131 95 72
458 833 224 171 114 93
496 751 199 120 90 70
468 861 275 67 55 46
480 741 214 134 91 61
480 746 214 130 89 61
415 811 263 52 44 41
480 751 214 124 87 57
480 751 219 126 89 58
482 757 199 136 96 66
485 754 196 127 90 62
485 755 199 134 94 65
483 758 202 137 94 66
421 832 245 53 43 39
287 611 269 146 12 39
486 756 204 133 93 65
486 756 209 133 95 66
430 636 273 186 18 59
485 759 205 134 93 64
486 761 209 137 97 67
405 920 316 44 40 39
483 762 207 139 97 67
483 766 208 137 95 65
490 754 201 138 96 67
482 756 215 119 84 57
485 757 214 126 89 62
488 759 214 123 90 64
481 756 219 113 81 54
487 767 212 125 89 67
491 760 213 118 85 61
492 758 215 108 78 56
340 774 206 74 59 51
496 756 214 101 75 55
491 759 219 90 69 52
492 758 218 89 70 54
494 759 221 79 63 48
496 760 224 76 58 42
489 764 211 134 101 74
501 751 200 122 84 55
505 747 201 121 86 59
511 746 204 117 88 62
507 747 208 105 82 67
502 751 211 107 81 60
432 951 274 87 69 55
404 898 154 85 85 85
501 752 218 79 63 48
367 731 311 184 3 59
506 750 214 91 69 48
326 966 304 65 59 57
317 871 274 155 120 93
506 752 219 87 69 51
460 875 266 90 72 60
501 756 212 104 76 59
501 761 214 101 74 56
502 755 211 107 79 57
501 755 220 75 58 42
527 536 222 155 110 76
501 757 224 79 61 44
499 764 216 98 72 54
296 716 304 181 127 102
501 766 219 91 65 50
503 766 223 90 65 50
507 755 210 107 79 56
506 760 214 98 71 53
314 913 301 182 142 122
511 756 209 103 74 53
356 930 315 58 47 44
511 758 214 107 78 58
422 906 244 65 57 60
505 754 221 82 64 47
510 756 222 94 71 50
510 759 222 94 71 51
504 765 220 94 67 51
505 766 224 92 68 51
483 761 238 141 102 74
546 463 231 53 39 39
487 757 235 120 85 60
527 511 254 49 23 28
485 757 237 138 97 69
484 761 237 124 88 63
521 481 260 175 9 55
486 766 229 82 62 45
482 766 240 102 78 60
493 753 231 104 77 57
426 876 203 75 62 59
496 753 229 92 71 54
347 889 316 153 119 90
496 761 227 78 60 43
492 753 233 115 84 63
314 925 252 78 70 67
491 766 229 75 56 41
491 768 232 73 55 40
265 556 309 166 120 94
499 753 226 77 63 49
501 765 229 77 59 43
270 516 264 66 29 35
270 521 259 43 29 32
270 521 264 95 21 37
271 516 269 112 20 40
272 526 269 168 0 45
388 884 281 114 91 74
271 516 274 113 21 39
272 516 279 104 24 40
271 516 289 65 27 30
289 608 262 114 28 39
272 521 284 114 20 37
410 780 278 85 66 58
380 861 193 46 42 44
270 526 284 83 21 31
272 531 259 144 10 42
271 531 279 111 13 33
269 531 283 101 13 31
332 777 301 76 61 55
373 796 194 62 51 47
415 676 288 85 21 36
274 524 337 166 116 93
268 530 288 165 17 53
270 532 290 154 17 47
427 796 260 80 63 56
267 561 300 134 101 71
272 536 289 120 19 43
397 661 296 144 29 52
272 541 275 111 4 32
272 516 284 125 20 42
273 526 274 169 2 48
461 902 294 76 62 56
265 561 304 157 116 86
273 535 264 125 16 42
274 532 270 168 1 46
341 974 289 71 68 68
367 716 311 150 3 47
280 566 279 106 28 43
273 534 267 172 0 45
274 536 269 165 1 46
274 541 259 124 18 41
275 541 264 169 3 47
273 531 275 151 6 42
274 536 273 147 6 41
274 541 272 128 9 37
274 543 286 122 24 47
267 516 295 59 33 33
267 521 294 66 32 36
351 816 283 159 119 99
269 515 293 58 29 26
266 516 299 80 32 38
376 626 304 147 30 54
265 521 304 99 40 45
268 522 290 43 30 32
363 864 291 135 108 77
288 556 316 91 57 51
268 525 294 91 31 40
433 573 296 61 27 33
269 527 295 93 28 41
268 525 300 70 29 36
319 951 305 87 64 59
320 842 244 70 62 61
366 671 304 173 4 55
266 526 304 89 45 46
260 516 314 172 122 102
259 518 318 204 150 126
326 786 213 75 60 52
260 521 319 181 131 110
261 521 314 155 113 92
262 526 310 124 92 71
436 726 294 189 7 61
261 526 314 153 114 91
451 895 297 51 44 40
271 531 294 82 25 36
430 791 158 64 49 39
266 531 304 71 49 42
390 826 268 155 115 95
267 536 304 88 64 50
270 536 299 74 33 39
272 536 294 87 27 37
268 536 301 71 42 40
511 840 256 87 69 54
445 706 274 69 26 37
272 541 295 84 28 36
453 797 159 72 57 54
262 531 310 141 103 82
262 536 309 150 110 85
262 536 319 184 129 108
263 541 310 160 116 92
263 541 314 177 126 103
263 541 319 172 121 98
264 531 308 110 83 63
429 774 272 91 71 63
371 796 285 86 71 66
264 536 307 124 94 70
264 542 320 167 116 94
286 531 319 58 39 35
272 546 279 158 4 44
272 562 271 168 11 47
272 561 272 165 15 49
395 905 200 70 62 61
276 546 264 167 1 46
460 883 292 55 48 42
276 551 259 142 9 43
466 860 260 102 79 61
275 546 269 139 4 38
277 556 259 100 20 38
278 555 264 136 10 39
278 561 259 152 10 43
371 957 315 69 62 59
279 558 261 151 9 43
279 560 264 131 7 34
411 661 289 129 23 46
279 553 268 135 10 42
279 556 269 131 4 39
277 561 268 139 3 40
273 546 274 122 3 34
356 651 304 177 3 56
274 547 273 124 2 36
276 551 274 134 3 39
276 551 284 167 5 48
275 551 289 124 17 41
278 556 274 143 8 41
417 966 249 132 113 107
278 559 274 147 12 43
316 571 312 149 27 52
279 561 274 140 13 44
279 562 279 58 28 36
278 559 280 59 29 36
276 556 289 65 28 34
278 562 264 125 7 35
278 566 259 85 22 34
272 565 270 172 15 51
279 566 269 152 3 43
453 920 301 68 54 48
278 571 260 125 10 35
277 571 264 150 3 41
279 576 258 138 4 37
278 576 260 142 2 37
277 576 264 176 5 49
370 741 308 125 24 46
277 571 269 170 5 48
277 576 268 174 5 49
273 576 269 167 17 48
279 570 270 168 3 49
279 577 270 174 2 51
280 566 274 114 19 40
366 615 307 51 26 30
275 571 289 61 39 38
275 576 288 98 48 41
279 571 282 51 33 33
342 911 214 57 51 49
280 576 279 92 25 39
277 576 284 85 27 36
272 551 294 104 33 43
270 551 299 106 73 55
272 561 294 121 56 49
263 546 310 171 123 98
263 550 310 173 124 99
453 736 259 162 18 50
264 551 309 168 121 95
344 862 243 179 122 91
264 548 315 170 121 97
335 871 253 109 80 47
264 546 319 167 118 95
265 561 309 163 118 91
376 901 299 105 82 60
265 556 314 164 118 92
265 556 319 166 119 94
265 561 314 164 118 91
266 561 319 167 118 95
568 481 233 81 62 51
267 566 299 140 105 72
411 636 289 87 32 41
269 565 297 126 96 63
271 571 294 118 87 58
546 476 215 128 100 69
267 571 299 145 109 75
266 576 299 150 110 78
337 844 231 175 119 93
265 576 304 157 113 83
265 566 309 160 116 88
265 566 314 164 117 92
267 566 319 167 119 95
265 576 309 160 116 88
481 802 263 60 47 35
416 881 199 73 64 62
266 571 314 165 117 91
267 571 318 168 120 96
426 956 269 73 60 49
266 576 314 165 117 91
405 775 282 84 65 57
317 926 308 168 135 115
371 836 213 141 101 76
268 576 317 168 119 94
270 572 320 170 120 96
270 576 320 168 119 94
274 546 292 65 29 35
346 596 308 170 18 54
274 556 292 102 23 39
274 560 292 143 24 43
560 467 234 90 71 57
287 546 319 96 66 56
287 556 319 145 97 81
287 561 319 159 107 89
386 801 278 189 133 111
272 576 290 107 77 52
460 914 303 74 56 49
296 526 320 48 27 28
376 946 320 62 53 48
291 531 318 56 25 28
296 531 318 67 23 31
317 882 260 142 113 85
292 537 316 65 21 31
297 535 317 98 16 33
296 537 316 98 12 34
312 961 270 82 78 79
356 801 287 58 48 46
291 541 316 67 25 33
296 541 316 115 7 37
301 531 320 148 18 51
436 611 283 188 12 60
301 536 318 165 16 55
300 542 316 146 15 46
405 870 261 33 30 30
301 540 317 162 16 50
321 516 318 157 15 50
319 870 301 130 50 63
316 521 319 169 5 52
321 521 318 159 12 48
316 526 319 179 5 56
321 526 318 165 14 52
306 536 319 177 9 56
366 921 194 85 75 73
311 531 320 176 5 54
421 925 304 60 52 46
311 541 318 167 9 50
316 531 318 184 7 57
321 531 317 163 18 53
316 540 317 169 12 53
321 946 229 78 72 73
316 542 316 170 12 53
320 540 317 164 18 52
290 545 317 54 37 35
288 552 316 77 49 45
296 546 316 131 11 41
401 581 301 163 9 51
296 551 315 145 15 46
291 561 314 105 54 52
303 813 296 183 134 106
296 556 314 151 19 49
306 531 321 175 11 54
301 546 316 144 14 45
274 792 253 180 122 90
301 551 314 140 13 43
397 781 174 55 46 43
300 560 312 139 11 43
288 565 316 154 105 88
295 566 312 149 31 53
446 816 174 70 57 53
296 571 310 143 33 53
297 567 311 153 18 49
293 576 311 94 68 59
296 576 310 67 39 40
290 571 314 131 87 74
288 572 316 163 113 92
319 860 295 177 130 113
288 576 316 164 116 93
398 922 218 70 63 64
294 569 312 130 47 54
316 886 259 143 114 86
301 566 309 132 15 41
303 572 306 128 16 39
306 546 316 176 15 58
311 547 316 173 10 54
311 551 316 176 12 55
306 556 313 161 14 52
370 867 288 145 115 85
306 560 312 161 16 52
316 551 316 161 7 48
321 546 315 174 14 55
316 561 315 176 13 56
321 561 314 162 12 51
531 821 239 91 75 61
306 562 310 154 17 49
441 841 199 73 59 58
306 566 309 95 22 37
309 563 311 162 20 54
312 566 312 166 19 53
306 572 306 86 26 37
447 882 258 66 56 54
363 742 311 35 28 32
306 576 305 106 23 39
311 571 309 70 26 35
309 573 306 38 26 28
310 576 306 72 29 35
316 566 313 173 18 55
315 572 311 82 24 35
316 576 310 59 30 34
321 571 313 95 29 41
318 574 312 71 31 37
562 496 244 167 115 95
475 841 259 88 72 61
260 521 324 181 127 106
353 908 196 64 59 59
259 517 330 194 135 112
261 521 329 185 129 107
300 828 248 69 56 55
258 514 333 193 132 110
259 513 335 192 136 113
262 526 328 175 122 101
441 927 299 87 73 60
264 523 331 175 118 97
271 526 336 174 120 98
262 515 338 182 130 107
331 856 284 94 75 55
266 516 339 182 128 107
426 860 245 34 30 29
267 520 337 184 128 107
451 851 234 63 52 50
271 516 340 189 135 111
526 501 263 56 30 34
271 521 338 184 128 106
269 523 336 182 124 104
272 524 337 178 122 100
262 531 324 169 118 96
263 536 323 174 122 101
265 531 329 168 117 95
264 533 326 170 118 97
264 537 325 171 120 98
268 762 287 165 117 88
271 531 334 169 118 97
271 536 333 169 118 97
369 871 207 52 47 51
413 651 286 49 31 34
264 541 324 168 118 95
270 541 331 169 119 98
272 541 332 169 118 97
355 964 313 71 65 65
283 521 329 150 104 88
286 516 324 104 27 41
428 723 296 184 13 59
284 516 328 122 71 64
334 962 237 76 73 75
284 521 327 141 87 77
281 521 334 173 124 102
429 839 170 84 63 57
283 526 329 152 109 90
284 526 324 120 78 68
279 520 337 188 137 111
422 897 233 63 55 57
276 526 336 164 116 92
278 523 336 174 126 99
430 829 140 141 107 72
276 531 335 170 121 99
280 536 333 178 125 105
276 541 333 175 123 101
274 671 294 178 123 96
279 540 332 178 126 104
278 543 331 174 122 99
291 816 298 198 144 118
281 541 329 172 121 98
441 911 308 55 47 42
283 530 326 155 112 92
283 531 329 160 113 94
281 676 304 173 123 99
282 536 329 169 118 98
442 767 266 95 75 67
284 536 324 147 104 86
284 535 327 156 110 92
266 551 324 166 117 94
271 551 328 171 121 98
267 556 324 166 118 94
269 552 326 165 118 94
269 557 326 168 120 98
481 771 204 143 99 68
271 556 327 172 121 99
271 561 325 172 121 100
268 565 322 169 120 97
271 566 324 173 121 99
371 936 325 57 53 53
276 547 331 175 123 101
380 766 292 85 66 59
276 544 332 173 122 100
434 666 262 77 25 36
281 546 329 173 119 98
276 560 327 173 121 99
273 586 264 166 24 48
280 556 327 174 120 97
427 956 258 130 105 104
299 833 270 190 133 103
281 561 325 174 120 96
283 546 326 167 113 93
283 551 325 170 115 93
285 546 324 159 110 90
416 896 214 77 66 63
285 551 323 162 111 90
456 906 304 58 49 42
284 556 323 166 114 92
391 821 268 159 114 94
276 562 326 173 120 98
438 898 272 58 49 51
276 566 325 173 119 98
421 886 209 79 66 63
281 566 324 174 119 95
273 575 322 170 118 95
276 576 323 171 118 94
284 566 322 171 117 93
283 572 321 173 121 94
526 520 248 109 47 50
283 577 321 171 120 92
291 516 324 53 24 28
457 772 151 65 49 43
291 521 321 53 25 28
371 596 308 56 29 34
296 516 325 51 26 29
381 871 283 147 115 88
296 521 323 51 28 29
272 726 260 127 97 64
295 522 321 43 28 25
301 526 322 108 22 39
300 527 321 89 23 37
291 676 266 114 83 49
306 516 324 173 11 54
306 521 323 174 11 54
471 955 265 126 96 79
280 711 300 169 118 92
310 516 322 171 9 52
310 521 322 177 5 56
311 526 321 180 4 56
401 706 302 38 31 32
408 603 296 66 28 33
336 741 314 62 29 37
309 524 322 178 7 52
272 597 278 117 76 55
361 561 307 46 28 32
272 606 284 137 102 67
272 582 261 186 16 49
272 582 263 183 19 52
279 581 259 145 11 42
411 906 219 71 62 61
381 546 302 162 7 50
276 580 264 182 14 51
278 580 261 171 3 44
346 855 284 89 71 50
273 589 265 147 27 46
280 586 259 102 27 43
276 587 265 156 33 48
467 816 204 160 106 81
282 591 264 78 32 38
275 585 267 167 28 52
456 950 279 90 75 65
278 721 297 168 116 90
273 588 271 136 29 40
275 590 271 136 46 44
282 591 259 56 30 38
283 590 267 94 30 40
284 587 270 151 22 49
284 591 269 95 27 39
331 646 298 171 18 55
280 581 279 76 28 38
443 704 275 138 18 45
282 691 265 122 92 57
277 581 284 110 36 39
278 580 281 55 35 35
375 852 282 164 129 101
279 582 282 94 23 35
491 790 249 85 72 61
276 587 273 132 30 39
499 904 286 92 79 73
338 805 211 79 61 52
280 591 279 108 32 39
276 586 285 110 60 45
274 586 287 115 80 57
441 806 251 89 69 57
271 591 289 132 99 65
273 592 286 123 93 63
276 591 284 101 72 50
422 587 296 189 10 59
280 586 279 110 21 39
279 585 282 105 33 43
278 590 281 67 41 36
281 581 274 159 4 45
282 586 274 149 5 41
281 596 264 116 36 47
278 596 266 123 51 51
380 955 313 69 61 59
280 598 270 113 34 37
280 602 270 133 38 40
429 919 270 65 56 56
285 596 264 91 30 40
286 601 259 75 30 37
285 596 269 111 24 41
285 601 269 153 8 41
288 605 259 70 31 37
287 606 264 149 22 48
273 593 277 106 54 50
272 598 276 121 75 56
283 661 271 136 100 69
282 601 274 131 40 43
410 931 235 75 64 63
272 600 281 125 92 63
280 596 279 97 49 44
277 601 281 120 87 59
280 601 279 113 66 50
381 626 303 88 30 38
282 596 275 129 23 38
284 596 272 130 12 37
284 607 273 135 34 42
371 917 189 84 75 72
270 581 293 131 99 66
266 581 299 151 110 78
265 581 304 154 112 80
266 766 259 174 117 89
269 586 293 138 102 71
476 541 284 74 30 38
269 590 292 141 105 71
265 586 304 157 113 83
266 591 299 153 112 80
367 736 310 185 12 59
265 581 309 159 114 86
364 736 312 189 13 61
266 581 314 166 118 92
268 580 317 167 118 92
271 581 319 166 117 92
533 532 228 169 114 85
267 591 313 164 119 90
456 811 179 65 52 48
267 596 294 152 113 79
269 595 292 145 107 75
268 601 291 151 113 78
475 847 268 85 69 55
281 671 304 175 125 101
266 601 304 160 116 85
268 606 290 151 112 77
266 606 299 155 111 80
448 833 197 83 67 62
266 606 304 163 117 88
296 591 309 135 100 82
266 596 309 163 117 90
267 601 313 165 117 92
270 601 315 165 118 93
288 776 236 146 100 66
266 606 309 165 116 91
268 605 312 165 117 92
271 606 315 165 119 93
276 591 320 170 120 95
450 936 289 79 67 56
313 957 292 49 42 43
285 581 318 169 118 92
271 711 284 149 100 72
336 556 312 92 28 39
288 581 316 164 116 90
281 591 319 172 122 96
281 586 320 172 121 94
285 586 318 170 119 92
409 954 256 77 72 71
288 586 316 166 116 91
286 591 318 169 119 91
273 601 317 168 119 94
281 596 319 171 123 96
281 601 318 170 123 95
273 604 317 165 116 92
386 816 180 59 51 50
285 596 318 169 120 91
348 847 272 147 110 87
285 601 317 172 122 92
288 597 316 167 118 91
287 601 316 169 120 90
287 606 316 169 121 92
269 611 287 149 109 76
552 481 217 79 57 39
494 518 277 137 15 44
272 611 285 142 105 70
270 616 288 152 111 77
270 621 288 158 113 80
270 626 289 161 115 81
277 611 280 131 98 63
317 786 216 76 60 52
438 628 266 190 10 59
277 616 280 136 101 66
274 616 282 137 102 67
462 926 284 73 58 49
281 621 278 132 99 63
277 621 280 137 101 64
390 816 178 56 48 47
283 622 276 128 96 63
476 907 294 94 71 60
432 827 246 62 51 47
286 621 275 114 84 55
280 631 277 131 99 64
274 631 283 149 108 73
272 631 285 158 112 79
510 837 257 77 61 50
277 636 280 138 100 69
279 641 277 132 97 63
274 636 283 163 116 86
273 636 285 165 115 83
273 641 285 171 116 88
282 631 276 135 101 65
397 791 170 52 43 43
286 631 274 129 97 62
282 636 275 128 96 61
281 641 275 120 91 59
286 636 274 133 99 65
371 541 304 161 14 50
286 641 273 110 81 49
268 616 290 158 114 80
267 616 294 157 111 80
389 860 178 49 45 46
266 611 299 157 113 82
267 616 299 161 116 83
516 536 240 116 78 67
267 621 294 159 113 80
267 621 304 167 119 92
267 611 309 165 116 91
267 616 309 166 118 93
271 611 314 164 118 92
271 616 314 165 118 92
268 621 308 167 118 92
426 555 296 68 24 31
269 622 311 167 120 94
268 624 291 162 115 81
268 626 294 161 113 81
269 628 292 163 116 82
391 646 299 76 31 39
269 632 293 166 117 84
344 933 207 94 82 79
268 626 299 166 118 87
268 626 304 164 116 88
269 636 294 165 115 84
269 641 294 161 112 80
268 634 299 163 115 85
286 766 301 168 123 95
269 636 304 162 115 86
370 964 302 62 56 55
269 641 299 156 111 77
478 773 183 95 69 55
268 626 308 165 118 92
269 626 310 167 121 94
270 631 309 168 121 95
272 631 313 167 120 95
270 636 309 171 122 98
272 636 312 170 120 97
274 611 316 165 118 92
281 611 317 171 124 97
403 763 286 81 65 55
277 615 317 168 120 94
336 897 230 131 97 64
281 621 316 171 124 96
280 619 317 170 123 95
284 611 317 173 124 97
286 616 315 174 124 96
472 516 281 126 26 46
278 650 280 174 116 90
286 621 315 176 126 97
276 626 315 167 121 94
276 631 315 172 124 98
284 654 272 146 103 75
281 631 315 177 129 102
334 914 222 65 52 48
273 639 312 176 124 101
276 641 313 181 128 103
281 636 314 182 131 105
281 641 313 184 133 107
286 631 313 180 129 101
286 636 313 180 129 102
545 515 220 195 129 101
285 641 312 183 133 105
289 608 259 61 27 32
405 951 245 72 65 64
290 581 314 160 114 92
296 586 308 114 73 65
293 591 311 157 116 91
291 586 313 158 114 91
300 581 308 120 28 46
300 586 307 97 36 44
302 586 306 55 29 32
301 591 306 56 35 37
301 606 304 120 88 75
315 876 269 150 119 91
296 596 309 150 111 90
290 596 314 166 118 92
403 938 227 79 70 68
290 601 313 169 120 94
296 606 308 164 122 99
290 606 313 169 122 95
301 596 305 100 54 53
298 596 306 118 87 72
298 601 306 147 110 91
298 604 306 154 115 95
307 941 289 193 145 124
311 586 304 80 30 37
495 529 274 51 27 31
311 591 303 100 31 43
306 581 305 81 24 34
311 581 305 106 30 44
314 959 296 48 43 45
333 849 240 193 130 102
316 581 308 100 30 41
537 527 240 209 147 122
314 582 306 103 30 41
320 578 311 34 29 31
321 581 310 32 28 30
437 918 293 63 53 44
276 816 269 195 131 103
321 586 309 47 28 31
311 596 303 61 30 36
306 601 303 37 29 31
311 601 303 95 32 41
306 606 302 64 39 39
316 596 304 60 31 35
386 921 203 71 65 65
321 606 303 57 29 34
321 596 305 83 31 39
326 636 298 69 26 34
290 611 259 106 30 43
290 611 264 161 15 49
292 616 259 53 30 37
292 616 264 57 31 35
324 691 301 91 24 38
289 613 268 145 14 39
291 616 269 107 22 37
305 811 233 80 62 54
294 618 258 43 32 33
322 901 250 125 99 73
293 619 260 52 35 39
517 486 229 89 21 30
293 620 270 53 30 36
429 602 287 156 5 46
294 621 269 70 33 39
290 617 273 76 36 39
294 623 272 64 25 29
297 631 269 77 38 39
293 638 271 121 89 59
296 641 271 118 80 55
297 626 264 44 31 37
299 628 257 48 27 35
298 629 260 40 28 34
298 630 264 43 33 38
301 636 264 125 33 50
303 640 260 62 29 35
299 633 267 79 35 39
300 641 268 96 41 40
291 626 273 99 72 51
294 626 272 94 49 50
294 631 272 90 65 48
291 640 272 125 94 61
294 634 272 110 81 55
472 908 292 89 67 54
421 601 290 166 15 52
301 611 304 142 103 86
303 612 301 101 62 58
433 685 271 141 6 43
300 621 303 161 119 99
303 621 301 143 103 88
351 756 310 83 48 51
292 617 310 170 124 99
290 611 313 170 124 96
290 616 313 171 123 97
292 621 310 173 125 101
290 621 313 175 126 99
298 617 306 165 123 102
297 621 306 169 125 103
302 631 300 159 116 96
405 866 159 95 78 71
296 636 305 179 126 105
299 775 227 65 54 51
299 636 302 174 124 104
478 772 192 133 93 67
281 751 298 167 120 92
296 641 304 178 127 105
299 641 302 176 125 103
302 636 300 166 118 100
301 641 300 168 119 100
331 956 234 70 66 68
291 626 310 179 127 103
291 631 310 180 128 104
486 861 264 106 84 64
295 626 308 177 127 103
295 631 307 179 127 103
289 625 312 179 127 100
289 630 312 179 129 102
288 633 311 179 127 102
473 798 197 143 94 68
291 641 308 177 127 104
306 609 302 79 36 38
306 616 299 104 52 51
311 609 302 159 24 55
326 936 313 182 138 116
311 616 299 73 31 38
306 621 298 85 56 52
316 616 300 49 28 32
403 838 160 66 55 49
321 611 302 89 30 40
320 617 301 53 29 31
471 831 265 61 49 40
307 631 295 96 67 59
311 631 294 108 47 50
305 626 298 107 75 65
306 636 294 136 92 79
437 586 281 144 12 43
306 641 294 154 108 92
311 641 291 128 49 52
316 631 295 153 31 54
308 955 279 68 61 60
321 626 299 113 26 46
409 775 158 52 45 43
318 629 297 91 37 47
280 822 269 212 142 114
320 632 296 144 26 51
346 791 292 82 65 56
316 636 294 162 32 55
316 640 292 157 30 53
386 776 287 82 63 57
350 896 317 169 125 98
321 636 295 172 22 56
461 861 280 58 47 39
276 580 322 171 119 94
275 582 321 170 118 94
449 894 276 64 55 50
280 580 322 174 123 95
276 586 320 171 121 95
326 516 315 49 26 32
326 521 316 111 22 41
337 516 311 145 22 49
331 516 313 72 24 34
335 521 312 60 27 33
336 526 313 94 30 40
324 531 317 97 19 38
326 531 316 90 22 38
326 541 315 119 22 43
331 536 315 66 26 36
336 531 313 47 29 33
336 536 313 36 29 32
338 969 240 82 79 82
331 541 315 119 25 45
336 541 313 131 25 47
337 521 311 98 30 40
338 526 311 106 30 45
346 521 308 105 29 44
338 882 246 97 78 57
351 516 307 122 27 45
448 904 288 79 68 62
351 521 307 49 29 32
346 526 309 92 28 40
351 526 307 86 27 37
408 937 237 71 62 61
341 531 311 78 31 38
342 536 311 58 28 34
339 528 312 134 28 50
340 536 312 47 30 34
342 541 311 67 33 39
346 536 310 104 29 42
351 536 308 108 29 43
351 541 308 54 31 34
326 546 314 98 25 42
312 830 240 85 67 60
326 551 314 168 17 54
326 556 313 161 15 51
326 561 313 158 19 50
331 551 313 111 24 43
331 556 313 98 23 40
379 904 189 92 80 82
331 560 312 113 31 46
403 768 171 53 44 40
326 571 312 108 24 41
326 576 312 51 30 34
326 941 220 82 73 72
328 566 311 122 24 41
331 566 311 91 22 38
407 892 199 67 60 60
335 563 311 76 22 38
336 566 311 150 22 51
328 576 311 82 35 40
306 837 264 55 50 50
336 571 310 165 20 53
336 576 310 122 24 45
513 518 265 114 31 44
329 572 312 137 22 48
343 546 311 34 30 31
343 551 311 33 30 31
311 706 296 43 30 29
340 546 312 33 30 31
341 551 312 43 29 31
340 561 312 134 30 49
360 929 315 38 34 35
346 546 310 39 31 31
340 886 243 115 92 66
351 551 309 74 33 39
346 556 310 44 29 31
271 651 304 178 126 101
351 556 309 61 32 35
351 561 309 75 28 35
316 811 224 75 59 52
341 566 311 98 28 42
472 836 265 65 54 45
341 571 310 77 23 36
489 795 230 91 69 55
346 566 310 113 26 42
325 622 301 127 26 47
351 566 309 116 29 45
320 701 300 48 28 31
346 576 309 171 16 53
316 786 300 181 131 100
351 571 309 128 22 46
351 576 309 164 17 53
436 830 243 45 39 38
413 699 296 96 10 27
366 521 304 59 26 33
397 962 248 80 73 73
366 526 303 152 24 53
356 516 306 54 29 32
356 521 306 65 31 35
418 793 266 85 65 57
361 516 305 75 30 37
361 521 305 90 30 40
354 522 307 68 33 36
354 526 307 48 27 30
361 526 305 108 27 42
449 712 259 152 16 47
366 531 304 74 28 34
420 939 270 63 56 54
357 536 306 59 29 33
277 701 298 168 115 91
361 531 305 42 28 31
361 536 305 84 29 38
355 541 307 57 26 32
512 531 259 58 28 33
335 721 316 166 18 53
366 541 304 161 15 51
446 871 244 76 64 68
438 822 139 119 91 64
371 516 302 45 27 31
378 883 166 98 80 63
371 521 302 58 28 34
420 816 152 66 52 47
377 516 301 157 15 49
375 521 302 148 21 50
371 526 302 69 27 35
376 526 302 118 27 43
460 860 259 70 55 47
371 531 303 84 31 38
378 529 301 85 16 31
380 532 302 138 22 47
382 536 301 161 14 51
382 541 301 161 11 49
356 551 307 105 28 43
304 656 297 166 119 99
358 545 306 70 21 34
534 504 253 53 24 27
361 546 306 140 18 47
441 821 245 98 75 62
356 561 308 115 29 45
366 546 305 162 12 50
366 551 305 159 16 50
362 556 306 36 28 30
362 559 306 36 30 33
513 478 232 82 29 33
366 561 306 39 29 33
361 571 308 57 29 33
361 576 308 62 28 34
366 576 307 160 15 50
281 716 257 117 90 57
376 546 303 162 10 51
371 551 304 162 11 50
381 551 302 162 10 50
486 541 266 82 15 29
376 556 304 162 10 50
488 776 217 77 56 44
381 556 303 162 10 51
376 561 304 162 9 50
371 556 305 158 16 49
371 561 305 126 20 45
381 566 303 162 2 49
381 571 303 163 2 49
371 566 306 95 22 38
371 571 306 142 17 46
396 741 298 102 40 50
369 572 307 161 16 49
370 576 307 162 11 50
376 571 305 160 11 50
406 844 151 113 84 67
331 581 311 49 30 34
336 581 310 50 29 32
336 586 310 70 31 36
322 595 307 71 28 35
326 596 308 43 29 32
379 808 187 66 56 53
325 602 306 93 29 41
431 835 239 43 36 33
327 600 307 53 27 31
508 877 262 92 82 78
331 596 309 38 28 32
331 601 308 131 27 49
301 676 300 160 119 94
336 601 308 173 22 57
330 607 306 100 31 43
516 531 240 100 51 48
332 605 307 117 28 46
369 879 198 46 44 45
341 581 309 126 26 46
346 586 308 163 17 52
313 964 271 90 86 88
323 808 291 48 42 41
341 606 308 40 27 31
310 709 296 35 25 25
346 601 308 152 19 50
351 596 309 176 14 55
351 601 308 169 19 55
305 656 259 73 29 38
346 606 308 41 29 31
477 872 278 62 49 39
351 606 308 57 27 33
324 618 301 54 28 32
331 616 304 93 32 41
331 621 302 61 32 37
509 782 235 96 69 51
326 626 300 68 26 35
388 892 178 79 68 61
283 658 271 141 105 74
323 634 297 152 24 53
330 627 301 81 31 39
471 781 240 90 67 48
332 625 302 57 28 33
331 631 300 80 28 37
336 626 303 52 31 34
337 630 302 63 22 30
331 641 298 117 20 43
336 636 300 76 29 36
341 611 307 46 31 32
341 612 306 50 31 33
346 611 307 37 29 32
346 616 306 75 29 37
352 615 307 180 21 59
351 621 305 184 18 59
567 476 234 72 52 45
451 842 213 94 76 73
341 631 302 147 28 51
340 636 301 71 28 35
342 636 302 105 33 44
340 641 301 142 17 48
342 641 302 158 18 51
536 493 211 99 84 69
346 626 304 135 25 50
346 631 303 69 29 37
351 631 304 48 29 32
351 636 304 51 26 30
459 884 276 98 80 64
351 641 304 167 16 53
477 806 262 64 51 39
351 626 305 93 22 39
355 863 298 125 100 72
356 581 309 132 21 46
509 876 274 91 81 78
356 591 308 175 6 54
478 833 260 77 62 51
361 586 309 164 14 51
501 846 256 94 75 59
366 591 309 163 14 52
476 836 259 82 66 56
366 971 294 71 68 68
356 596 309 176 11 55
361 601 309 146 21 50
361 606 308 90 32 42
449 736 268 171 12 53
366 601 308 153 24 53
323 897 251 132 104 75
371 581 307 162 12 51
411 871 179 75 65 63
377 581 306 163 10 50
371 586 308 160 16 51
371 591 308 93 28 40
424 864 190 62 53 54
376 586 307 159 15 50
376 591 307 107 23 42
381 581 305 164 4 51
381 586 305 167 8 52
378 589 306 170 17 51
371 601 308 85 27 38
422 931 264 66 59 58
376 596 307 82 28 40
375 605 307 58 25 31
377 606 306 42 29 32
381 596 306 158 22 53
375 816 199 68 55 50
390 571 302 162 0 50
381 606 305 36 30 33
356 611 307 143 28 52
356 616 307 151 20 52
306 916 269 146 121 98
361 616 307 103 28 43
361 618 306 89 40 46
361 621 306 136 24 48
356 626 305 136 20 48
356 631 304 58 28 33
361 631 305 95 32 41
361 636 304 115 23 42
361 641 305 176 14 56
456 955 257 107 93 82
366 626 305 122 31 47
366 636 305 121 22 45
366 641 305 147 20 52
326 876 254 127 102 74
371 611 307 139 30 52
369 614 307 47 22 27
376 616 305 62 29 34
371 621 305 98 33 44
381 611 305 92 31 41
381 616 304 85 29 39
336 869 306 166 133 106
376 631 304 90 28 39
406 536 298 98 28 39
381 631 303 58 31 35
376 636 304 116 28 45
371 626 305 116 27 44
391 936 217 70 63 65
355 711 318 145 11 45
371 631 304 69 31 36
371 636 305 128 22 47
270 716 279 140 98 65
371 641 304 70 23 34
288 643 271 99 73 41
286 656 270 131 92 62
281 646 274 131 98 65
276 646 284 176 119 92
272 645 290 169 115 86
279 651 278 168 115 86
277 651 284 164 108 82
278 656 281 155 106 78
416 841 240 30 27 27
277 656 284 138 94 66
275 656 288 118 84 52
284 646 272 111 84 55
284 651 272 144 99 74
286 661 270 129 92 60
286 671 268 124 91 55
275 661 288 122 88 53
449 852 228 87 79 83
277 661 284 132 92 62
309 963 284 69 67 71
278 666 280 145 101 73
280 671 274 134 95 65
277 671 279 147 103 73
279 669 277 142 99 72
413 784 156 63 51 47
278 672 276 142 99 70
313 878 279 159 117 97
276 666 284 135 95 62
274 665 287 135 96 62
361 842 277 157 121 97
274 671 288 149 104 73
282 661 274 135 96 68
270 646 299 153 109 76
270 646 304 174 125 98
271 656 294 138 100 65
422 842 168 92 70 60
271 656 299 173 122 94
272 656 303 181 128 103
557 483 216 133 105 73
272 646 308 179 128 102
272 661 294 157 112 81
321 961 249 85 81 81
272 661 299 179 126 100
430 575 297 125 26 46
341 671 303 38 30 31
273 657 290 118 87 53
274 642 311 179 127 103
436 851 239 46 41 37
276 646 310 182 129 104
295 651 303 173 127 105
277 645 312 182 130 104
439 899 275 56 46 46
277 656 307 186 134 108
536 525 244 211 152 132
307 676 295 154 109 91
286 646 310 180 132 106
318 779 302 179 129 97
284 644 312 185 134 107
286 656 308 178 134 110
273 660 302 184 128 103
338 774 206 73 58 52
273 671 289 157 108 78
273 671 293 176 122 93
351 956 320 79 75 76
273 666 299 181 125 102
443 856 217 68 59 59
274 667 301 182 125 102
276 666 303 183 129 104
474 518 282 77 31 37
273 669 298 182 127 103
275 671 299 180 124 100
277 671 303 179 124 100
288 656 306 167 129 106
287 661 306 179 133 109
286 671 305 173 128 103
281 681 269 126 93 58
278 686 271 130 95 61
281 686 269 125 93 57
282 676 270 128 93 59
351 973 295 70 66 65
284 680 267 126 93 56
286 681 266 121 90 55
283 686 266 124 93 56
274 676 284 140 99 67
273 676 290 161 109 80
274 681 289 157 106 79
276 686 274 137 97 65
278 691 270 130 96 61
280 691 268 122 92 57
281 696 264 119 91 57
346 941 214 80 73 75
277 696 269 131 96 63
278 698 266 121 94 60
286 696 262 117 89 55
282 702 261 116 89 57
286 698 261 115 88 55
275 691 274 140 98 67
273 696 279 147 102 70
274 695 278 146 102 69
274 690 284 146 100 71
274 691 289 157 106 78
433 883 222 61 52 54
273 696 284 147 101 70
273 696 289 156 106 77
274 701 273 144 101 71
381 971 239 87 81 83
272 701 284 147 101 70
273 676 294 179 124 94
273 679 290 164 110 84
377 851 199 58 52 54
275 676 299 179 123 99
274 686 294 169 115 89
403 958 254 68 63 64
440 761 273 87 71 64
279 686 301 172 120 96
281 686 303 173 121 96
382 752 296 89 69 61
274 691 294 166 113 88
274 695 291 161 109 82
277 691 298 169 116 91
280 696 301 170 119 93
273 698 292 163 112 84
447 757 265 76 48 50
457 516 286 73 31 36
273 701 292 164 112 84
437 777 266 90 72 64
280 701 300 169 117 92
282 696 303 171 119 95
282 701 302 171 120 95
286 701 305 171 120 95
286 691 305 172 121 97
291 651 269 126 83 53
291 656 269 120 76 48
407 940 299 75 62 54
296 651 270 131 85 56
303 646 261 100 24 35
302 646 264 105 28 37
434 946 278 83 67 57
301 656 269 107 71 52
303 656 266 96 40 38
465 952 264 118 93 74
317 906 254 160 120 96
296 666 268 103 69 40
296 671 268 102 69 41
300 661 268 101 66 48
303 661 265 90 45 42
302 666 265 96 47 40
300 671 268 93 57 40
305 651 259 74 26 35
384 944 216 74 67 68
304 652 263 85 29 34
304 656 263 59 35 35
305 661 259 63 32 35
304 661 263 66 36 37
305 666 259 50 31 34
296 646 303 178 127 106
321 970 294 62 57 55
291 651 305 167 121 101
291 656 304 159 119 97
295 656 302 158 122 98
299 644 302 179 130 107
298 648 301 179 130 108
297 656 301 162 126 101
301 656 299 174 131 106
290 646 308 172 124 101
323 877 256 130 106 80
292 646 306 172 122 101
289 650 307 170 125 102
370 963 227 87 82 87
288 653 306 164 126 102
291 661 304 160 123 98
297 661 301 166 128 101
294 661 302 159 120 94
291 666 304 166 126 100
297 666 301 166 127 98
294 666 302 163 122 96
291 671 304 166 126 99
295 671 302 163 123 96
301 666 299 164 124 99
