ply
format ascii 1.0
comment Created by Open3D
element vertex 2220
property double x
property double y
property double z
property uchar red
property uchar green
property uchar blue
end_header
229 492 179 142 8 38
413 680 169 67 51 42
395 902 213 65 57 55
228 497 179 142 9 39
402 904 246 45 42 41
304 72 189 112 55 52
270 657 220 145 92 82
430 868 218 82 71 68
411 417 214 89 55 28
287 25 201 136 41 42
430 927 296 51 45 40
401 425 92 163 8 10
445 442 93 80 35 39
313 90 257 94 31 31
286 917 250 171 135 111
273 582 230 140 11 45
275 667 219 38 28 26
227 493 185 87 28 37
231 502 169 72 32 37
368 574 137 148 0 39
250 477 234 138 10 44
417 638 286 177 122 97
228 512 174 91 37 43
239 747 178 136 98 67
387 602 269 138 81 72
400 422 154 68 28 28
234 502 164 56 38 41
395 797 113 95 77 60
315 652 153 140 0 32
319 902 198 63 55 51
253 724 226 176 124 101
431 517 259 184 8 57
236 347 299 124 95 65
233 501 167 76 38 42
265 347 268 86 71 54
408 491 205 85 16 33
232 508 166 56 38 40
507 820 232 117 94 65
287 142 297 108 88 67
343 101 188 115 43 48
234 512 164 45 37 41
414 547 230 118 10 33
308 87 179 115 52 48
245 487 224 103 1 31
232 547 179 132 24 46
232 512 166 60 38 42
346 974 240 59 56 55
432 809 248 141 91 65
425 687 198 58 43 31
215 452 202 78 31 33
315 137 201 127 94 69
462 705 221 65 49 34
330 442 312 100 28 42
259 357 209 111 89 62
237 512 161 41 36 39
360 447 314 102 25 40
287 466 104 135 0 36
392 627 197 38 32 38
411 437 193 107 5 34
227 498 181 127 8 37
337 739 152 136 16 40
270 242 274 102 85 67
441 727 254 141 101 68
307 263 293 121 92 60
385 522 116 96 17 36
277 667 171 135 14 40
227 502 180 121 17 39
283 597 138 114 17 38
355 937 305 53 50 49
281 232 203 116 93 68
288 216 206 115 91 65
228 502 178 147 12 39
299 912 219 65 58 58
235 352 319 163 109 94
495 907 225 95 81 67
375 487 304 148 13 44
240 312 304 121 97 71
316 62 170 132 34 45
460 732 218 65 52 42
388 683 270 136 91 79
212 476 209 106 19 40
300 552 273 186 15 59
227 507 180 64 28 36
438 414 272 56 11 33
301 22 186 122 22 30
215 477 199 60 34 37
317 242 162 112 88 61
300 152 174 112 93 73
365 537 123 158 3 34
417 720 208 60 38 34
233 498 228 82 15 32
302 132 197 110 88 64
286 307 165 116 90 61
295 672 158 81 30 34
225 512 184 52 34 36
206 452 209 119 19 41
210 457 249 129 5 40
320 757 246 66 56 51
444 872 229 154 145 152
350 517 104 147 2 35
370 852 149 98 76 59
310 867 229 116 85 56
207 456 218 56 27 32
555 949 287 94 78 64
436 877 232 65 58 54
271 421 308 148 20 51
287 409 126 90 75 60
310 767 242 67 56 51
326 867 210 128 95 71
396 687 282 170 124 99
234 327 325 118 89 66
300 107 262 98 28 36
420 452 319 66 22 31
310 412 314 114 91 66
425 918 244 34 32 32
207 460 210 43 32 37
411 408 194 127 60 34
244 567 163 121 34 46
302 111 296 95 47 43
292 937 230 58 55 57
260 462 139 109 19 33
435 727 239 91 69 50
199 452 248 110 46 43
395 492 105 52 36 38
300 816 165 92 71 62
207 460 214 37 30 34
545 912 254 96 79 65
445 424 114 106 23 36
216 454 201 50 35 38
332 45 178 120 102 85
350 57 155 101 33 24
255 272 289 122 99 74
330 107 249 105 27 30
314 49 281 104 79 62
406 592 239 153 14 48
375 587 143 186 10 40
320 782 153 76 60 51
340 62 199 113 37 48
208 458 207 49 34 37
310 452 310 123 24 45
409 414 164 59 26 29
340 413 109 115 84 70
323 327 194 109 87 63
248 492 226 101 3 33
408 415 244 55 23 23
212 458 201 58 39 39
425 562 184 194 15 51
447 899 236 65 55 48
334 411 208 89 73 58
294 783 231 76 63 56
212 462 201 80 37 38
250 567 159 71 33 41
300 257 313 126 99 67
220 457 201 50 37 38
420 406 249 51 21 23
288 471 91 140 0 41
225 452 203 74 34 35
529 857 219 99 77 60
293 300 291 100 71 48
253 301 287 109 89 67
243 373 304 164 114 94
310 29 181 101 49 28
348 818 157 60 49 44
361 432 97 133 5 28
320 637 255 123 32 49
289 18 244 150 88 74
224 455 202 84 31 31
311 489 77 127 26 47
296 17 190 124 37 29
355 712 284 158 19 51
410 422 179 102 20 35
287 495 98 143 0 40
220 462 199 45 36 38
420 426 88 167 19 31
305 907 289 120 93 77
364 414 199 68 55 48
292 937 273 195 144 124
325 62 218 116 77 63
247 542 216 83 3 30
310 182 203 118 91 63
320 952 295 56 52 52
285 347 319 125 96 65
225 462 198 50 37 36
437 426 277 96 26 32
289 416 94 79 27 36
549 889 227 76 63 50
210 457 220 70 22 32
300 854 255 117 97 77
321 400 158 98 83 68
398 663 200 111 34 37
220 477 224 73 23 30
346 902 286 142 104 81
217 481 248 72 28 34
443 453 275 131 18 41
275 782 158 166 114 80
208 453 221 153 2 43
208 459 216 42 30 36
244 457 239 124 15 42
214 462 224 63 23 32
264 252 278 108 89 69
276 737 160 41 35 39
348 888 148 99 87 83
346 954 295 72 67 66
406 432 174 89 27 38
306 960 244 89 82 82
265 667 224 166 120 100
421 432 124 97 20 34
383 745 277 71 55 52
210 467 209 55 32 36
285 437 114 73 28 36
227 453 201 77 32 31
408 418 149 66 33 30
239 358 320 162 109 91
211 472 204 70 32 38
343 884 148 102 87 83
282 550 106 170 8 45
274 557 235 57 29 33
395 737 134 45 35 33
216 477 244 100 11 35
336 838 173 63 49 47
300 287 163 99 80 59
191 451 273 90 32 37
212 476 205 116 28 44
259 642 227 174 118 100
274 227 316 114 94 73
385 682 168 62 49 45
218 471 197 81 32 36
285 77 270 102 48 36
226 467 195 64 34 33
220 477 195 60 36 38
271 462 68 128 7 40
276 767 156 145 104 67
216 471 217 98 10 29
445 767 225 65 49 39
297 849 273 118 98 78
248 321 287 113 93 71
333 880 197 46 42 47
242 552 161 145 7 38
217 477 196 75 34 37
247 551 220 93 4 29
292 232 316 125 99 69
225 477 193 88 26 33
338 88 258 92 25 33
214 472 215 122 2 38
284 462 285 173 13 54
212 466 218 140 1 40
266 267 275 104 85 63
240 797 214 175 127 98
258 257 288 122 100 75
389 596 160 171 21 48
235 502 229 79 18 32
462 470 308 108 88 69
215 477 213 70 19 32
372 880 116 97 78 67
218 469 220 42 25 28
358 804 251 196 144 123
260 312 329 127 99 67
301 622 248 112 26 42
426 548 159 51 34 37
218 469 224 50 26 31
507 942 274 101 84 67
223 478 220 97 16 34
223 479 222 90 9 35
331 157 189 123 99 73
237 637 206 155 109 76
306 82 194 91 55 45
196 452 250 103 57 51
305 826 214 86 57 44
423 506 226 95 29 39
260 457 140 111 16 32
193 456 253 107 45 42
272 347 227 126 86 67
315 421 322 193 19 64
240 472 230 116 6 36
256 413 288 69 38 36
455 742 202 92 72 54
395 827 174 48 44 47
194 462 248 101 71 51
300 642 153 161 4 37
197 459 246 99 57 43
271 622 218 34 25 26
270 32 303 155 113 102
332 438 62 165 0 37
372 542 282 137 12 42
241 307 314 109 90 70
308 364 265 101 84 70
234 342 325 155 110 92
380 418 164 76 35 38
206 452 254 141 8 43
205 457 254 142 2 45
190 447 274 102 16 37
272 460 272 168 3 56
246 506 218 75 11 28
455 462 294 77 22 28
354 858 257 141 111 83
359 591 272 153 18 49
200 467 239 88 56 35
485 937 299 69 56 47
395 420 259 51 24 22
324 237 165 116 93 68
436 494 287 110 53 50
194 477 238 139 101 80
382 838 125 93 71 60
196 477 236 139 98 81
258 568 152 162 6 39
332 87 280 97 31 39
493 819 246 84 73 62
341 92 194 119 66 60
326 742 253 73 58 52
272 667 176 91 24 33
251 342 280 104 83 60
316 347 177 94 80 67
386 457 101 54 31 34
200 481 233 71 49 38
306 357 220 122 93 71
395 421 264 53 24 23
355 412 209 70 56 49
335 662 258 159 16 51
293 10 214 117 77 64
435 752 189 58 44 41
204 466 237 89 54 28
210 472 233 59 30 29
338 115 263 141 8 54
305 257 289 122 94 59
458 469 291 102 50 36
299 32 187 106 75 57
205 477 234 47 34 33
199 466 243 79 21 32
324 427 50 127 36 41
366 762 139 60 48 41
368 865 152 99 82 70
205 467 255 120 32 48
365 837 145 87 69 61
211 452 229 150 6 41
474 920 262 55 48 44
279 483 68 52 36 37
273 337 172 117 92 64
371 892 255 71 60 49
517 927 263 103 86 72
209 452 234 138 8 39
298 142 196 110 90 69
297 137 193 111 91 71
455 908 209 77 67 66
285 411 124 85 69 54
208 457 237 67 31 35
307 312 216 123 89 64
275 287 273 96 76 51
213 459 227 91 17 32
327 599 137 189 8 36
290 937 269 196 148 128
267 505 242 147 3 45
278 415 128 37 36 41
321 202 162 122 97 67
285 67 295 109 83 63
214 462 229 54 27 31
354 828 247 158 127 95
247 415 277 152 31 56
253 290 321 115 93 69
458 700 213 92 70 48
295 412 319 153 113 84
245 452 244 145 11 46
435 427 89 123 28 30
341 959 296 72 65 64
351 892 172 59 53 53
210 462 234 62 28 28
221 452 240 75 14 29
322 62 291 111 22 39
224 452 238 65 19 29
283 370 257 86 68 45
475 932 254 95 73 57
310 112 258 101 31 34
281 183 280 105 89 72
254 463 250 100 22 40
255 362 326 157 111 86
337 62 206 111 20 39
430 818 184 69 59 57
305 237 156 125 96 60
295 62 269 96 33 26
340 842 254 154 122 94
220 457 240 95 10 33
435 502 274 178 17 55
251 386 308 167 116 97
448 908 232 60 50 41
224 457 238 79 11 29
190 452 269 112 20 42
375 426 279 70 56 48
220 462 239 100 9 32
334 969 261 66 61 61
275 301 276 81 64 43
425 527 198 44 26 30
204 477 257 44 24 25
231 632 215 165 115 82
330 623 261 156 30 56
308 187 297 123 97 66
320 414 81 100 83 65
412 578 173 54 34 39
335 437 314 39 27 31
223 461 237 91 15 35
238 358 302 144 100 76
317 116 251 114 10 42
220 467 239 129 4 43
361 903 188 62 57 60
388 702 116 85 61 44
318 77 167 112 33 39
225 462 235 71 17 28
297 960 272 54 50 50
424 434 302 54 21 26
320 377 199 114 91 67
360 497 109 147 4 35
210 452 249 120 5 37
239 612 203 131 96 65
250 807 179 174 117 84
215 452 244 54 21 26
344 490 86 45 36 38
222 505 216 135 8 40
300 267 280 97 75 47
302 192 272 100 78 49
380 879 247 42 38 37
305 572 262 187 9 59
427 467 222 114 14 35
245 352 285 109 85 60
360 413 189 69 58 50
279 297 220 108 81 58
212 452 246 88 11 32
335 902 160 80 66 64
302 227 306 122 96 66
281 372 232 96 71 50
444 934 278 88 69 58
290 837 204 53 43 43
290 352 163 94 82 70
254 822 183 201 137 106
306 367 299 117 93 64
276 277 170 124 96 64
301 757 242 76 62 55
208 457 252 137 6 42
268 312 199 119 90 58
386 913 292 41 38 38
330 117 251 118 32 37
413 484 187 80 30 35
237 347 296 118 93 65
210 462 249 137 3 41
208 463 252 137 4 40
218 452 242 77 20 33
218 457 242 79 7 27
217 462 241 100 4 30
278 623 226 135 22 47
270 447 279 145 14 49
348 743 270 74 57 53
315 157 201 121 92 65
243 577 174 73 29 35
279 344 271 89 73 56
210 467 234 92 48 43
426 552 164 76 37 41
340 528 102 152 8 37
298 192 307 122 97 69
305 9 205 92 70 58
274 677 173 108 23 37
235 772 184 170 116 85
323 241 166 113 92 67
282 441 302 178 18 56
345 42 159 86 46 35
328 152 192 119 96 70
213 464 232 66 24 32
486 879 205 106 86 79
410 642 289 202 143 115
290 362 233 121 90 70
415 567 249 64 31 37
433 481 235 145 13 37
310 52 220 113 73 64
284 312 167 117 90 63
273 454 57 76 35 27
214 467 232 63 27 28
319 227 160 125 98 64
415 852 233 47 42 40
214 471 232 54 31 33
387 662 273 163 117 101
293 464 296 171 16 51
395 421 164 83 28 35
223 496 217 94 7 30
265 747 174 94 69 45
270 312 219 116 86 60
334 451 66 170 0 37
211 474 231 43 26 27
223 509 201 153 0 44
281 562 248 36 28 30
199 503 259 207 140 123
240 647 235 184 132 107
435 837 217 127 116 113
210 477 229 65 32 32
335 412 109 113 90 73
238 316 308 109 90 68
312 227 157 127 97 61
295 7 234 110 38 46
440 872 234 63 56 51
391 476 101 54 38 36
335 837 184 103 70 59
311 91 207 113 30 45
216 478 226 56 30 29
221 497 208 109 6 34
310 875 286 127 75 76
273 252 188 116 93 68
295 227 271 97 79 58
290 767 235 79 65 58
292 547 268 153 14 47
424 503 188 53 30 33
208 476 232 30 30 32
325 413 94 103 86 69
248 453 250 148 9 47
295 787 155 64 54 52
326 97 165 111 53 45
218 469 227 54 25 35
429 746 216 68 54 54
203 442 264 71 20 32
218 472 227 57 24 34
357 922 192 71 65 67
259 407 294 143 97 82
231 492 230 80 19 32
261 327 276 89 74 58
256 607 165 176 8 45
276 637 217 82 21 33
411 412 229 60 16 23
444 782 244 114 77 52
219 472 239 132 4 41
225 467 234 114 6 37
263 487 132 107 19 32
345 97 160 121 60 55
278 726 162 121 14 31
222 464 236 80 0 20
429 817 179 64 54 53
362 415 102 94 33 48
237 324 327 112 87 62
413 635 292 190 130 101
287 174 190 113 94 75
290 591 252 109 26 45
485 796 257 79 65 53
221 552 239 172 119 97
219 477 239 104 7 36
430 847 230 50 44 41
300 47 209 123 31 45
315 81 262 78 45 38
365 557 279 130 9 40
235 562 199 140 0 37
239 562 169 164 10 45
323 242 197 130 103 75
480 947 274 92 73 57
243 709 221 172 119 93
225 477 235 128 6 41
481 944 275 75 61 45
320 402 149 94 79 64
221 477 236 127 5 41
310 373 250 96 76 58
216 467 244 135 1 41
250 352 327 163 113 88
245 412 264 75 29 31
350 596 272 184 10 58
414 698 225 107 18 37
217 480 241 56 31 26
243 772 216 169 125 96
330 966 225 85 82 85
310 102 174 128 60 54
216 502 225 90 21 33
217 527 231 158 115 92
437 476 262 161 15 46
215 472 249 129 9 40
211 466 250 135 4 44
243 803 182 173 116 83
307 122 296 121 21 46
373 435 270 76 64 55
279 112 279 106 58 46
378 664 257 40 23 25
377 675 172 45 34 34
209 467 253 132 24 52
212 470 251 131 7 43
245 302 319 109 89 69
465 918 269 44 40 38
285 187 194 111 92 72
316 287 174 113 90 65
314 435 51 57 35 38
325 507 294 148 23 52
229 452 199 67 33 31
320 812 165 84 65 55
272 737 237 58 31 37
298 334 227 112 81 60
320 412 104 99 83 66
238 315 312 102 85 69
319 312 180 101 86 70
300 767 150 61 51 49
490 876 209 97 80 67
214 473 252 119 42 48
214 482 204 99 29 42
244 732 178 125 95 60
241 671 227 186 134 109
437 768 224 71 51 41
393 511 297 87 6 31
215 477 253 118 70 60
428 555 176 54 26 37
447 787 202 80 62 54
326 17 224 112 30 45
310 412 94 96 76 62
217 466 241 134 2 48
217 472 244 133 5 41
315 247 160 109 86 60
455 915 221 70 63 63
425 477 328 68 29 35
365 693 278 136 11 42
278 607 235 65 27 34
218 472 242 136 4 36
217 474 241 129 4 37
405 702 164 45 37 34
215 482 199 64 34 36
374 419 258 69 51 45
254 458 255 46 27 29
440 912 245 36 33 33
215 487 199 98 30 39
304 383 223 110 87 68
397 691 106 96 68 48
312 144 273 117 80 59
311 117 202 118 89 67
324 152 166 123 98 66
440 817 214 77 61 54
329 570 121 41 31 35
233 527 252 169 116 97
302 19 186 81 44 15
300 157 271 96 79 59
460 437 128 113 19 38
214 482 209 79 28 39
353 59 177 73 34 18
222 500 207 114 0 37
321 832 238 158 122 99
272 476 262 87 31 42
257 404 250 49 38 30
303 450 56 168 4 31
215 487 204 102 27 41
281 197 275 98 82 65
409 421 174 105 19 37
216 487 209 53 27 33
325 432 53 79 32 37
332 50 167 127 106 85
400 692 284 176 127 101
216 492 204 86 26 39
345 97 184 113 72 60
219 483 254 109 62 54
276 217 275 104 87 68
217 482 196 71 36 38
304 152 298 117 93 65
220 482 194 63 33 36
390 912 293 42 39 38
430 465 146 51 22 27
325 387 174 106 89 73
399 627 290 184 138 113
401 712 282 180 129 103
334 798 241 182 127 108
416 510 196 132 5 43
295 43 310 130 24 51
307 82 296 113 69 59
416 472 164 117 9 36
291 483 67 87 27 34
266 367 261 84 68 51
397 628 235 166 16 46
263 286 278 106 84 58
220 487 193 75 32 36
224 486 192 115 29 38
258 583 157 156 2 34
217 492 196 78 33 37
443 485 286 39 29 29
430 482 229 94 16 33
415 917 243 41 38 38
354 62 179 103 35 38
279 445 51 57 29 33
420 752 284 166 119 83
464 437 99 182 19 47
281 482 120 47 33 33
219 492 193 53 35 38
309 222 207 126 98 67
340 862 164 58 50 47
425 402 239 56 30 26
219 497 194 51 33 36
430 422 114 60 18 27
324 136 273 137 15 49
217 496 196 71 33 34
287 264 212 122 95 66
458 446 100 102 24 37
285 387 244 78 63 46
305 97 296 116 40 49
205 513 249 203 138 118
300 892 291 171 126 106
412 414 258 33 26 25
292 931 278 185 138 118
217 496 203 75 31 38
369 965 262 67 61 59
218 494 206 77 37 31
229 522 208 57 29 32
392 584 152 128 11 41
275 302 174 117 92 64
510 842 214 54 47 44
216 482 212 49 27 32
331 122 189 124 98 71
220 482 214 44 24 31
244 302 314 114 94 73
374 531 282 152 18 50
395 852 236 44 40 38
315 412 99 96 79 64
247 555 221 93 6 30
293 172 178 111 92 73
320 137 168 118 95 68
219 488 211 39 29 33
346 87 180 101 55 52
324 617 261 40 30 31
267 405 312 176 123 103
320 47 294 114 27 44
200 482 259 95 61 55
291 942 249 80 71 69
224 483 216 58 25 32
368 424 324 76 56 49
284 428 311 180 18 57
350 707 154 106 21 30
320 414 84 100 83 66
420 547 289 147 106 71
225 487 214 51 26 33
224 482 219 52 25 30
490 808 249 87 73 59
344 87 184 112 70 60
258 247 294 120 99 76
242 547 229 100 50 46
305 382 309 123 96 65
300 182 305 120 95 65
206 480 256 56 30 24
415 696 181 69 47 41
442 506 165 138 3 42
330 657 155 127 8 30
394 883 247 40 36 35
334 122 264 146 6 54
220 482 224 67 25 31
308 520 91 174 2 38
199 508 244 208 142 124
309 167 275 110 86 56
410 452 315 146 17 47
274 242 194 117 94 69
339 56 157 91 66 47
345 642 160 123 11 30
335 974 239 70 66 65
395 847 123 115 90 69
397 584 157 45 36 37
268 316 200 123 91 60
223 482 222 58 23 32
248 573 232 132 83 72
198 451 273 96 15 33
223 486 222 45 31 28
314 565 116 131 32 44
338 430 61 167 0 42
246 592 185 55 32 33
317 524 286 139 33 54
411 481 186 30 27 32
295 247 157 116 91 61
330 467 73 172 3 36
282 127 288 116 96 74
224 497 210 119 0 36
327 91 161 104 31 30
225 522 214 165 8 46
410 907 253 37 34 33
412 427 135 109 5 34
216 492 225 57 29 30
380 507 297 46 26 28
333 111 277 135 13 51
225 507 260 172 123 103
344 467 79 101 18 36
250 337 330 141 101 72
438 756 196 62 48 43
216 497 225 87 22 35
394 682 281 166 123 101
310 36 299 101 48 46
221 493 220 66 26 30
220 497 219 100 13 30
324 858 208 162 113 84
445 467 335 103 18 36
315 56 222 119 63 61
446 915 216 71 65 64
226 487 235 55 19 26
218 497 223 122 19 39
280 322 229 120 81 65
458 464 303 101 34 40
224 492 218 75 20 31
307 257 292 128 98 61
250 357 326 156 107 86
425 919 260 33 32 35
222 489 221 40 26 27
298 221 271 97 79 59
264 477 249 90 20 35
218 498 199 117 23 46
219 502 199 154 11 47
282 677 166 88 23 34
425 422 94 110 31 31
415 407 239 54 20 22
254 602 233 150 103 84
193 498 255 189 124 108
328 407 293 109 89 66
314 428 46 132 36 43
232 334 306 110 86 58
220 502 204 135 2 41
435 772 199 63 50 45
315 403 139 94 78 61
279 257 205 116 89 63
317 288 177 114 91 66
224 502 209 118 1 34
220 507 199 162 2 46
280 742 244 76 28 39
579 903 229 104 83 61
301 228 156 124 96 61
290 409 126 92 76 59
221 507 194 161 4 45
229 482 233 91 14 33
465 931 249 76 60 50
432 904 247 57 50 46
455 467 139 111 20 40
222 512 194 172 3 49
310 368 255 106 84 64
210 483 257 104 65 57
271 267 189 120 95 66
248 802 221 183 136 110
224 487 239 68 15 31
222 511 198 166 2 48
413 716 111 98 73 57
311 232 206 127 96 66
224 512 199 155 2 45
324 446 312 43 28 29
267 323 204 117 88 56
338 79 252 99 43 36
310 257 160 105 84 59
410 921 249 36 35 37
285 437 308 180 18 57
250 317 329 127 98 70
275 362 325 142 106 73
295 417 74 94 67 50
267 372 227 112 83 61
276 522 125 62 29 36
428 511 235 35 31 34
221 506 203 141 7 41
505 917 225 79 66 59
350 67 184 108 43 47
227 536 206 45 30 35
300 632 150 179 7 41
335 86 156 147 13 39
224 508 205 129 0 37
300 47 204 122 95 75
225 497 214 110 3 34
320 502 299 168 16 52
324 382 174 107 89 73
240 479 226 106 5 36
380 567 133 131 18 40
288 212 168 112 93 73
356 538 117 94 27 38
368 905 191 63 59 60
224 502 214 110 3 30
319 317 180 99 84 69
258 564 152 158 6 41
298 867 281 155 69 88
260 327 330 143 102 72
219 502 223 124 13 36
300 568 112 87 33 42
327 113 196 133 100 77
262 258 318 116 95 72
297 379 237 86 68 52
314 672 250 162 20 55
250 282 304 115 95 74
248 529 152 117 11 33
290 29 224 153 32 58
222 499 216 97 5 29
285 917 254 160 129 111
275 435 46 180 4 34
222 502 216 119 3 32
285 232 270 96 79 60
316 712 252 47 25 30
433 520 136 105 16 33
198 477 262 100 67 63
302 135 296 121 96 67
223 507 214 129 7 37
248 337 283 111 90 65
408 596 190 75 34 40
343 404 258 93 79 64
377 809 157 50 39 43
497 874 206 107 77 63
339 105 188 120 80 63
392 839 137 79 62 58
340 502 90 79 31 36
224 512 209 96 17 37
285 127 293 110 91 71
320 415 78 99 82 64
266 262 275 104 85 62
443 760 227 69 50 40
415 431 304 58 21 23
319 257 165 108 88 65
280 587 244 153 13 47
395 885 118 88 70 57
223 512 214 68 25 32
299 410 118 92 77 60
252 762 222 178 131 103
440 832 231 66 56 49
247 324 286 111 90 68
222 505 219 116 13 41
374 912 205 64 59 60
297 139 185 111 93 74
220 507 224 70 30 36
224 537 223 127 67 58
352 87 169 135 12 48
387 885 119 74 61 53
425 492 110 63 36 36
223 508 223 131 24 39
312 106 291 103 80 55
573 953 289 88 79 70
430 505 318 206 138 111
318 30 232 133 23 55
224 512 219 126 7 32
315 187 203 121 95 65
378 424 312 67 57 49
320 492 299 139 13 43
390 547 125 111 26 37
201 483 230 107 83 61
245 327 330 125 97 70
292 945 231 68 65 65
200 487 230 128 98 76
312 840 212 176 124 95
344 409 184 69 60 51
246 462 239 146 11 46
306 557 108 71 30 41
196 487 235 85 62 51
200 497 229 139 101 80
430 522 244 151 18 45
284 462 118 48 30 31
278 247 172 112 91 68
194 492 238 147 114 89
295 614 142 81 36 42
231 467 230 119 8 37
414 914 275 33 33 36
272 35 302 133 98 74
288 322 167 109 87 64
315 39 176 85 52 30
335 48 174 118 99 81
196 492 234 109 80 61
270 372 228 110 80 59
272 633 216 40 25 24
298 43 204 136 104 79
265 452 269 119 16 42
418 940 246 87 76 76
309 42 307 116 27 46
274 477 264 48 30 34
195 497 234 124 95 73
193 497 239 145 108 86
198 491 232 139 108 86
238 653 213 166 110 81
416 552 300 181 121 98
185 477 264 131 94 77
271 257 194 116 92 66
409 576 165 82 34 42
335 111 164 143 61 55
306 302 216 122 90 63
205 482 229 109 80 54
445 448 303 108 8 31
205 487 228 132 80 73
313 25 237 130 39 55
455 732 205 97 78 62
440 440 91 50 37 39
262 347 190 115 91 63
203 480 232 66 54 40
302 70 197 116 41 47
205 492 229 99 56 52
295 557 269 170 16 54
267 213 290 116 95 73
310 317 215 126 91 67
205 497 228 99 56 45
280 227 271 100 83 64
192 492 241 164 120 100
404 909 287 35 34 35
297 142 184 111 93 75
192 496 241 159 116 94
343 889 287 156 117 91
283 386 158 88 77 67
275 277 325 130 101 67
324 392 194 99 81 62
308 14 191 102 86 70
200 502 228 150 108 89
252 278 295 122 100 76
340 106 184 116 72 59
464 924 245 68 56 48
315 82 294 122 29 49
285 652 229 157 13 48
392 524 117 167 0 32
194 502 239 186 129 113
271 362 169 117 93 67
422 671 264 131 94 59
426 911 221 82 76 74
200 507 230 197 136 124
278 424 311 178 18 59
328 19 210 102 35 40
329 476 76 128 27 42
196 506 234 215 147 134
305 122 198 111 88 63
290 167 304 111 91 68
277 322 326 134 99 67
330 142 189 123 98 71
433 505 317 198 132 107
432 445 242 62 28 35
320 846 254 96 77 57
242 508 216 28 23 24
411 456 155 87 22 34
306 897 219 158 113 92
199 508 234 222 151 137
267 456 268 47 25 31
268 647 187 98 31 37
223 502 262 168 118 97
418 515 312 196 131 102
199 508 239 211 142 127
330 412 290 97 80 62
313 394 156 97 82 68
318 382 202 115 92 68
265 552 225 103 19 38
427 518 237 148 21 45
205 513 234 223 155 137
322 324 187 111 91 69
201 511 239 210 145 124
383 627 264 156 100 90
245 427 264 108 15 39
341 574 128 178 10 42
245 307 294 115 94 73
440 933 249 54 46 44
286 12 244 127 37 51
286 507 269 158 13 49
276 477 74 86 21 35
193 499 244 160 109 91
315 137 169 115 95 72
329 112 194 130 97 74
194 502 244 200 135 120
231 482 230 57 16 26
330 112 168 116 83 51
400 878 204 58 51 50
237 682 210 149 103 74
429 806 200 66 53 49
194 502 249 207 139 121
296 766 238 81 66 57
294 877 239 152 115 87
292 178 176 109 91 71
425 501 289 112 57 53
405 462 314 108 4 32
428 485 216 119 7 38
244 327 289 116 94 70
355 526 287 74 25 35
195 502 254 209 138 120
318 358 175 95 82 68
266 362 223 118 87 65
199 488 267 141 99 84
498 882 196 109 79 60
233 509 249 123 75 69
323 62 289 102 24 34
360 925 296 38 37 38
326 197 168 114 93 68
196 506 249 215 147 126
375 482 303 135 11 40
268 317 184 123 97 66
426 436 125 44 26 28
320 157 199 120 92 66
199 508 249 208 142 122
440 433 293 108 5 34
305 21 244 143 100 81
210 487 229 80 44 45
292 350 231 124 86 67
544 897 232 98 82 66
445 507 149 167 17 46
197 505 252 217 148 123
385 602 265 108 33 41
200 507 254 205 141 120
432 450 327 86 38 38
340 108 179 114 78 61
360 439 316 89 18 36
325 92 209 121 34 48
305 322 168 89 76 64
202 510 249 204 140 119
202 510 252 203 139 118
272 234 317 114 93 71
325 847 189 123 84 67
385 482 309 162 19 53
216 482 226 76 46 44
294 17 193 95 49 39
441 457 264 117 22 40
214 487 227 55 37 32
429 692 259 132 96 62
459 747 219 70 55 43
210 492 231 47 32 31
214 492 228 52 31 29
245 612 198 116 69 53
300 327 166 88 76 64
353 53 163 101 25 36
282 112 293 106 41 46
525 882 219 89 81 75
213 497 228 64 31 34
210 492 232 48 33 31
355 871 143 70 58 54
341 885 150 88 71 69
305 167 299 118 94 65
335 802 163 66 52 46
220 482 239 74 16 27
464 442 109 180 16 47
237 460 232 58 13 26
410 567 253 44 28 32
316 317 210 129 98 74
395 852 127 125 95 69
315 377 294 114 91 63
430 920 259 33 32 35
354 57 160 100 28 34
290 317 166 111 87 62
343 416 282 87 75 62
221 481 236 110 7 38
433 510 241 32 33 34
321 213 162 123 98 67
440 766 197 52 42 38
436 770 222 72 53 44
280 452 55 68 35 40
281 17 219 130 87 84
291 152 275 106 87 65
306 67 185 103 35 36
291 947 244 72 68 69
557 950 285 94 79 65
420 462 100 164 4 37
309 237 207 128 99 68
282 501 75 49 32 35
425 532 254 168 18 53
186 482 264 184 128 118
223 484 237 89 2 29
312 120 256 106 32 32
238 337 298 112 89 63
222 486 240 97 10 39
216 481 244 62 25 33
337 604 142 151 23 41
504 829 240 66 56 45
299 627 245 66 24 30
450 482 288 57 34 33
216 481 255 122 82 66
218 483 249 63 20 31
274 257 179 114 91 65
381 679 166 51 44 47
375 762 128 61 48 38
232 542 201 72 29 36
221 486 249 41 25 23
250 617 194 86 44 42
341 832 174 58 50 49
224 488 254 84 39 40
335 414 94 107 88 72
350 37 159 88 43 34
315 832 179 87 66 59
448 779 227 60 46 42
242 317 296 116 93 67
403 570 151 186 18 48
439 935 268 75 64 57
223 489 243 60 13 27
364 414 219 66 54 46
225 492 244 96 11 37
350 82 179 126 17 46
271 547 234 32 28 29
383 424 304 65 51 45
314 126 202 123 91 68
440 437 284 96 17 29
281 552 129 90 28 37
292 30 196 127 34 45
237 802 208 179 129 101
226 492 249 79 18 30
300 467 65 132 22 41
327 177 196 122 97 69
275 382 323 161 117 86
232 350 314 157 107 88
229 487 233 43 21 25
213 502 227 77 39 34
445 431 125 107 23 37
331 42 209 97 60 53
279 82 279 117 95 71
237 337 300 110 87 61
450 777 219 59 47 40
236 327 327 118 86 66
213 507 227 117 75 59
415 921 249 35 33 35
331 82 279 99 50 43
260 517 230 46 24 28
436 493 118 178 18 39
320 267 169 113 90 65
400 913 269 33 34 36
215 507 226 94 56 46
288 434 91 142 0 38
214 513 227 170 118 104
434 500 121 175 17 38
231 452 194 72 34 37
252 293 322 115 93 69
422 452 213 107 17 36
447 798 208 83 65 58
370 467 304 114 20 44
402 589 172 54 23 27
470 942 303 62 52 45
230 457 194 62 36 35
316 174 161 123 97 66
228 451 202 72 35 33
356 912 188 66 61 63
233 348 308 134 94 70
325 842 254 122 99 75
227 463 196 52 36 34
317 494 82 178 5 37
404 806 114 111 86 60
441 462 264 141 19 41
263 427 142 96 25 37
443 811 219 84 65 57
229 462 194 47 35 35
232 342 306 123 93 62
227 449 236 26 24 26
307 127 175 113 93 72
380 872 245 40 36 35
365 878 125 107 80 65
227 452 236 48 20 23
405 617 253 97 70 47
386 425 304 63 45 41
424 432 214 115 12 35
290 172 306 111 90 68
320 137 199 123 92 68
293 903 279 170 120 105
227 457 236 50 19 25
286 207 203 112 90 67
310 522 289 106 22 42
278 33 306 122 89 65
248 297 293 109 91 72
260 717 228 145 93 78
381 943 223 73 66 68
332 494 301 50 24 27
230 452 235 87 18 32
331 677 262 108 28 42
340 112 254 128 26 43
230 457 233 66 20 28
424 399 219 101 22 35
231 463 231 96 8 32
429 912 244 50 44 41
304 282 299 128 95 62
338 92 250 110 32 37
365 425 293 76 66 57
294 67 268 84 47 30
290 67 269 92 70 48
330 477 305 57 28 33
320 92 168 133 45 50
229 462 233 96 17 36
293 29 304 97 47 41
305 167 272 102 79 48
391 802 162 54 49 49
355 412 134 100 57 50
293 181 201 112 89 64
405 712 120 86 67 51
235 452 234 129 13 42
302 133 296 123 98 69
235 457 232 69 20 32
435 932 249 61 51 51
307 56 217 110 71 58
320 387 229 91 74 56
262 352 189 113 90 63
239 453 236 123 10 39
316 68 296 112 74 66
302 46 185 125 102 80
430 711 224 102 64 53
440 492 269 179 11 54
318 16 237 89 32 43
240 457 234 97 18 37
289 187 200 110 90 68
466 793 255 91 71 56
414 407 229 53 22 25
239 463 231 136 17 46
330 667 259 84 20 34
400 727 280 181 130 104
278 44 296 135 103 76
326 182 168 124 98 67
228 467 232 119 7 35
375 442 315 122 28 46
358 757 148 59 47 42
323 107 282 115 44 51
329 98 162 139 31 40
409 602 214 127 33 48
417 481 180 58 27 33
485 915 290 47 42 38
229 472 233 122 7 38
404 687 204 117 24 40
286 378 251 85 68 48
231 477 230 116 7 38
292 167 180 113 94 74
399 722 280 180 129 104
305 367 219 127 97 78
508 876 201 112 83 64
305 272 161 101 82 59
314 54 276 101 73 58
295 907 234 142 108 88
327 385 264 95 79 62
229 477 233 125 7 38
255 347 274 95 78 58
428 499 172 74 17 26
340 103 189 120 56 54
235 467 229 120 8 37
355 707 155 100 24 34
288 291 322 137 99 69
300 152 199 111 88 63
330 410 119 100 83 67
286 447 303 99 17 38
387 680 272 140 94 82
323 13 228 98 40 40
300 597 130 199 11 40
395 823 250 57 47 43
392 884 203 68 61 58
235 472 228 116 6 36
240 467 230 133 11 42
285 343 232 121 87 68
421 447 213 62 28 33
312 242 206 129 99 68
288 187 272 99 81 60
253 359 326 157 108 87
463 745 205 84 63 53
240 362 299 140 98 76
273 472 69 145 14 42
229 592 213 138 101 69
342 405 261 96 81 65
246 372 289 126 91 68
277 486 77 47 27 29
315 702 149 46 37 40
426 496 327 188 131 109
245 342 330 153 104 84
324 13 224 96 40 42
292 117 266 94 34 37
236 474 226 114 6 34
386 737 120 65 47 36
315 853 283 154 125 97
242 456 237 66 19 29
270 282 189 118 93 64
330 541 106 166 10 39
300 402 139 93 78 62
320 142 269 105 42 49
358 67 169 120 35 46
360 817 245 175 132 108
237 319 306 108 89 67
243 453 240 118 14 42
199 443 273 112 17 41
263 242 310 115 94 72
300 592 255 109 22 41
288 447 99 137 0 41
243 459 236 39 24 24
235 577 243 170 118 94
247 452 249 146 10 46
246 457 244 148 10 46
325 97 250 97 22 30
430 501 169 124 7 37
419 473 159 108 7 32
247 460 242 149 11 43
308 49 276 98 76 56
277 470 272 156 5 51
380 457 309 161 23 55
345 53 174 90 67 51
330 37 214 107 23 39
237 322 304 107 88 67
246 826 204 224 162 134
250 452 254 132 10 44
409 421 223 59 28 26
327 390 233 75 62 49
315 197 204 121 94 66
249 462 244 124 11 40
251 297 323 110 89 66
248 463 241 144 10 48
281 627 155 39 32 39
352 474 306 178 14 55
421 710 196 46 37 31
325 17 204 98 72 57
313 857 234 122 94 71
326 612 262 34 29 32
286 442 109 84 20 34
395 482 309 88 26 38
439 737 269 162 111 78
251 461 248 144 13 45
319 192 202 123 96 67
390 844 125 104 81 69
284 507 118 82 19 34
415 897 224 75 70 68
252 460 252 133 24 49
338 72 202 127 107 87
367 415 139 83 40 36
313 173 283 121 95 65
369 465 307 132 23 47
340 111 169 124 79 64
321 127 280 105 61 53
391 797 104 91 73 54
288 448 108 135 0 38
256 461 253 42 25 29
297 40 208 139 18 45
244 503 220 84 6 29
271 217 280 110 92 74
356 564 132 96 21 35
418 817 189 72 58 54
430 856 231 48 43 40
264 457 138 119 10 30
295 423 54 97 70 49
515 882 224 77 62 48
480 893 222 42 37 35
349 42 163 86 44 36
430 935 251 55 48 48
515 862 210 90 72 62
294 24 236 130 88 67
318 327 180 96 81 66
243 469 231 136 11 43
257 484 136 126 27 38
340 410 129 102 77 62
235 497 224 94 9 33
299 132 194 111 90 68
243 472 231 126 8 40
287 647 232 167 13 54
242 466 232 113 14 42
290 132 275 107 85 59
241 502 220 71 12 27
437 446 254 41 29 31
495 944 294 86 73 62
425 426 290 61 14 25
245 467 234 134 10 43
325 406 134 93 78 63
247 467 238 150 11 47
279 337 323 132 99 71
324 382 179 85 72 60
330 413 99 107 90 73
291 212 164 114 94 71
354 537 115 67 28 34
288 147 277 105 85 64
247 470 238 150 11 50
365 782 259 73 60 57
243 479 226 103 0 31
249 352 283 106 85 60
246 476 232 125 8 38
348 97 173 124 11 44
255 262 304 116 96 74
328 652 256 46 23 31
248 467 240 149 11 46
250 472 239 136 11 44
309 912 203 67 50 49
244 567 238 142 93 76
435 424 118 103 18 36
251 417 284 122 18 46
321 893 200 57 50 48
435 730 230 72 42 40
365 427 97 144 2 31
460 703 222 72 56 42
248 473 235 149 11 47
269 297 189 119 93 63
345 53 179 92 72 56
442 522 169 95 28 41
246 567 234 134 85 72
426 503 294 186 129 105
243 326 293 119 97 72
315 127 201 124 91 69
425 402 234 58 30 26
294 696 246 140 13 42
300 419 64 93 72 52
344 825 246 156 126 99
230 537 252 173 122 102
246 567 161 46 32 34
248 478 231 114 6 35
285 287 275 86 68 47
330 507 90 134 14 37
308 38 226 121 16 42
254 473 240 49 21 29
305 802 161 90 69 61
442 437 288 102 17 32
417 837 197 75 61 59
295 37 209 141 21 50
295 222 271 97 79 58
255 477 240 116 14 40
409 812 176 65 58 57
253 479 236 144 10 48
408 902 227 70 65 63
330 127 269 141 5 52
336 882 154 84 71 64
273 277 177 121 94 62
252 470 243 152 11 45
320 802 236 184 134 110
255 472 244 117 20 44
388 647 276 184 135 116
375 416 164 79 40 39
305 157 201 115 90 64
268 557 226 67 21 29
278 231 183 111 92 72
416 829 192 79 64 58
270 507 128 82 31 38
227 492 214 99 10 37
251 356 327 160 111 87
271 282 184 117 92 63
415 707 104 85 67 53
230 332 319 127 98 72
427 763 187 68 53 48
420 408 254 45 24 22
385 697 148 69 47 41
340 958 209 96 91 93
403 664 231 40 25 27
232 347 310 137 95 71
240 487 223 106 7 33
348 524 286 74 32 39
236 487 225 107 11 36
415 692 283 171 113 84
363 669 166 46 38 38
424 920 246 32 30 31
275 372 231 104 74 55
255 292 324 115 91 66
235 492 224 62 17 29
254 277 289 120 97 72
240 492 222 106 9 33
393 607 286 171 123 103
409 412 184 103 49 37
310 137 170 116 97 76
352 579 137 172 5 32
333 404 160 105 88 70
380 827 134 99 76 60
349 92 174 121 14 43
450 915 283 35 35 36
240 493 221 111 7 34
282 157 297 112 91 67
433 488 236 133 12 36
240 497 222 105 6 33
393 420 244 54 26 25
298 80 267 83 46 28
225 512 204 129 6 39
343 50 157 75 49 34
246 362 284 106 83 58
315 10 213 92 54 49
282 547 253 165 12 50
330 857 194 78 63 58
238 502 223 62 18 27
268 519 236 91 20 36
283 710 246 152 13 48
321 67 165 120 64 57
322 248 167 112 91 67
290 435 46 184 10 47
302 539 97 177 6 41
435 423 283 64 34 29
240 507 219 25 24 25
508 949 291 87 72 57
407 507 201 133 15 42
249 442 260 48 26 29
389 868 242 43 39 38
405 457 94 92 32 40
273 300 177 119 94 65
238 507 223 32 23 27
340 407 174 86 73 60
239 512 219 74 17 28
290 411 119 89 74 59
226 592 215 147 106 76
285 62 294 110 89 67
238 512 224 59 24 28
288 422 99 97 25 41
266 826 180 219 153 125
309 227 280 110 87 59
245 497 224 99 1 32
269 737 173 76 37 36
444 908 240 61 51 45
505 892 214 92 72 55
243 499 221 101 3 35
320 242 164 112 90 64
413 424 133 110 4 31
241 512 216 84 11 29
245 512 215 85 9 29
290 257 271 98 77 52
497 874 217 84 73 64
408 474 316 37 27 28
331 407 290 108 88 65
312 366 167 93 81 69
331 52 214 117 25 46
300 167 271 99 81 60
443 480 277 141 15 47
248 512 216 87 9 28
253 508 225 89 7 28
294 157 195 109 90 69
325 757 151 119 24 36
455 937 299 58 49 43
309 327 171 86 75 64
387 924 217 62 56 56
474 707 218 83 67 53
254 512 224 65 14 27
385 442 99 126 12 35
286 162 280 103 86 68
348 28 162 81 49 35
324 197 165 119 96 68
212 520 248 205 140 119
231 487 230 77 17 31
310 667 249 172 15 56
232 497 230 72 22 33
280 312 168 115 90 62
377 618 172 67 28 30
409 721 105 83 62 45
263 240 287 118 98 78
230 582 240 170 120 96
265 367 326 158 112 84
227 492 235 86 18 34
317 347 205 117 91 67
330 692 150 80 31 33
227 495 236 118 7 46
402 532 302 171 127 107
226 496 240 100 7 34
403 876 205 56 51 51
229 492 233 98 11 36
380 423 304 67 55 48
315 357 205 116 90 67
358 970 244 75 69 70
255 762 223 179 130 102
285 687 164 93 30 39
295 922 284 186 144 125
302 112 261 85 41 32
242 535 221 92 10 31
233 482 227 78 14 31
410 422 134 101 11 33
240 482 224 109 6 33
227 495 247 95 8 36
442 488 287 70 44 38
313 373 166 101 87 74
317 124 286 114 81 68
254 312 283 101 83 64
274 282 174 123 96 65
420 562 289 152 107 72
314 312 175 95 81 67
385 443 316 37 27 29
241 307 304 116 94 70
290 167 184 116 97 76
226 491 254 99 49 49
320 65 217 117 88 70
250 612 194 79 31 39
277 414 130 42 35 45
309 332 170 85 75 65
397 572 292 172 125 104
555 886 215 88 73 60
433 429 260 40 28 33
228 494 254 114 69 63
440 502 129 185 20 45
427 547 200 106 19 40
229 497 254 121 78 71
237 792 209 176 126 97
260 677 227 168 123 98
229 498 239 104 12 32
270 350 267 84 70 53
247 381 299 160 111 93
248 444 256 39 26 23
232 501 235 49 26 29
416 420 115 91 36 26
239 342 294 113 90 63
322 337 194 107 85 60
233 337 326 134 98 76
305 37 224 125 19 47
406 543 132 48 27 37
319 212 161 123 97 65
231 502 239 56 24 30
320 603 137 186 7 39
437 474 262 159 15 42
270 322 276 86 75 63
320 27 189 108 91 74
232 500 231 67 30 18
249 296 319 113 92 70
264 508 235 145 6 45
234 503 234 56 18 27
356 773 145 61 48 41
269 362 226 116 84 64
236 507 229 79 22 31
338 110 177 127 93 69
476 884 206 88 73 59
320 47 289 112 74 58
311 67 213 117 36 50
237 506 226 51 21 23
238 512 227 53 24 25
266 362 175 115 92 66
328 157 192 121 96 69
297 134 191 109 90 70
315 222 205 129 101 72
233 507 239 51 26 27
443 763 236 118 84 57
270 409 149 106 63 45
340 587 135 102 22 37
296 951 229 81 76 78
330 227 184 122 97 68
236 512 234 31 25 26
286 421 317 129 18 46
234 512 239 50 34 31
255 652 194 117 79 46
401 607 249 52 33 34
459 457 119 169 19 48
232 507 249 120 72 67
232 507 244 90 42 44
320 571 121 186 11 39
455 929 242 87 70 66
311 327 172 86 75 64
267 313 198 118 90 58
233 508 244 79 38 39
286 232 164 117 95 71
310 867 285 156 91 94
301 137 198 111 88 65
257 359 205 112 90 63
237 329 301 104 82 58
297 217 311 123 98 69
284 162 300 109 89 67
233 513 253 145 98 88
244 482 225 105 0 32
277 417 126 40 35 37
342 67 195 112 29 42
442 915 282 35 35 36
265 401 230 67 52 37
247 494 227 98 5 33
353 71 182 124 26 47
247 309 327 115 89 66
248 487 226 103 0 33
250 487 229 105 2 33
312 296 211 122 94 63
405 612 295 175 125 95
228 524 196 130 20 44
446 456 293 77 8 28
285 92 293 105 83 66
262 413 146 80 39 43
254 483 235 136 9 42
315 9 224 80 44 38
334 77 208 125 18 45
319 102 288 111 25 42
373 746 127 69 54 44
505 937 274 106 92 78
350 53 169 82 48 34
256 481 238 146 9 46
417 695 197 52 40 34
314 52 172 122 26 28
252 486 232 114 4 35
299 949 223 78 73 76
325 67 159 127 37 37
321 317 205 127 99 74
253 342 278 100 81 59
256 492 233 56 20 27
299 511 80 169 0 31
271 327 175 122 96 65
248 503 226 94 3 30
402 686 198 88 31 36
317 175 201 120 93 64
347 84 181 118 31 49
397 465 96 57 39 37
505 913 244 72 61 53
517 899 230 81 78 74
436 455 313 64 39 30
444 908 243 53 46 41
285 272 213 120 90 64
251 505 227 91 3 28
305 282 213 125 93 67
439 507 134 187 21 47
301 122 189 110 91 72
255 507 229 97 6 30
451 493 309 181 119 100
288 66 296 101 62 46
228 494 257 126 74 70
256 282 285 116 94 69
390 722 144 56 43 39
365 432 98 144 0 29
256 287 285 115 93 69
447 741 203 100 83 67
300 956 234 90 85 86
256 257 294 124 102 78
340 962 214 96 92 94
451 461 331 94 36 40
302 636 247 87 35 45
340 717 275 165 23 58
256 262 289 124 101 76
385 827 166 57 51 51
295 697 155 130 8 30
260 497 134 48 35 38
300 442 53 171 6 37
349 87 178 125 21 47
404 512 310 168 129 111
254 262 299 120 99 76
254 277 314 120 97 72
310 872 228 114 82 53
331 57 214 107 50 50
319 857 213 175 122 95
256 267 289 122 100 76
315 382 204 115 92 69
290 237 209 118 92 64
254 267 294 125 102 77
325 22 199 103 87 70
329 147 170 123 97 66
413 772 176 49 42 43
253 271 298 122 99 75
258 607 228 143 98 83
256 552 150 161 5 40
309 127 173 116 96 74
252 273 299 121 99 76
253 276 293 123 100 76
410 430 304 59 22 24
410 707 199 52 32 33
337 50 173 115 95 77
255 267 309 117 96 73
510 830 222 100 73 46
299 147 178 108 90 71
238 550 197 123 15 39
188 447 270 125 14 42
400 797 169 59 49 51
325 697 149 72 34 36
424 412 209 70 29 32
271 742 169 86 69 52
290 142 299 111 90 67
328 57 217 110 26 44
381 553 286 86 21 34
454 472 124 179 17 47
300 947 219 77 72 74
437 736 271 163 112 78
362 720 157 76 33 35
373 956 225 83 76 76
256 267 314 117 95 72
320 362 199 115 90 67
280 207 194 112 92 71
330 397 224 85 70 55
308 72 182 98 80 61
415 832 231 42 35 34
252 287 291 117 96 73
314 387 303 123 97 66
300 437 49 188 8 38
346 410 185 69 60 51
300 192 160 119 97 72
252 282 291 121 99 75
430 867 230 57 50 47
311 832 213 175 128 106
309 232 156 126 97 60
361 873 150 76 62 55
266 257 275 104 85 64
404 672 219 61 32 33
415 592 219 117 29 45
326 395 222 92 75 58
391 662 278 170 128 105
404 735 125 80 59 47
395 797 110 81 65 50
249 287 299 116 96 76
280 812 222 52 45 43
324 120 251 117 20 35
247 288 304 116 95 74
285 427 114 46 30 35
459 464 319 89 74 58
436 753 192 55 43 38
256 426 284 122 14 43
262 339 195 118 93 65
275 327 275 87 74 60
312 110 256 103 23 35
252 277 309 119 97 75
573 894 216 119 92 67
411 408 189 123 57 34
325 107 249 109 23 28
245 367 319 168 115 98
419 452 143 33 29 28
400 423 209 74 46 31
332 57 211 113 99 84
277 542 247 126 30 51
253 275 310 121 99 75
334 57 209 107 82 68
256 272 318 117 95 71
285 287 323 134 100 65
354 590 141 103 26 34
256 277 319 117 94 69
353 67 182 118 28 46
250 282 309 117 96 73
408 637 251 99 76 51
249 287 309 117 95 73
273 767 226 53 44 42
310 202 279 109 87 59
336 786 248 162 122 104
249 292 294 113 93 72
245 411 259 45 32 28
277 282 171 124 97 65
313 94 206 107 80 62
380 746 278 69 56 52
324 382 184 92 76 59
304 97 194 115 64 57
280 277 324 130 101 64
304 922 204 66 61 63
405 677 214 48 31 32
252 282 314 119 96 71
380 417 129 64 31 26
345 732 153 81 31 35
235 327 304 97 81 64
404 677 239 55 26 34
298 887 232 153 114 84
270 401 244 59 47 36
252 287 318 112 91 68
253 281 315 122 97 70
380 727 279 170 15 53
423 517 231 54 31 36
375 852 145 85 69 59
252 284 317 119 96 72
310 242 158 117 91 59
254 292 288 114 93 69
282 447 120 111 4 31
340 972 254 59 56 56
575 897 219 119 95 76
280 297 169 117 89 59
280 322 169 114 90 62
510 928 244 114 96 82
431 472 229 76 26 33
265 31 299 200 148 158
254 297 287 111 91 67
331 907 296 153 121 93
427 558 184 191 16 53
382 868 187 57 53 54
409 443 322 112 36 48
265 342 184 121 95 65
250 302 289 109 90 71
403 664 219 41 32 32
273 277 204 114 90 63
252 304 286 106 88 68
360 884 268 95 72 49
277 183 298 104 85 67
330 461 70 172 0 36
299 372 313 126 99 67
403 605 191 37 32 36
246 317 289 115 94 72
507 822 246 75 60 46
249 312 288 111 91 70
360 414 229 69 60 51
251 312 285 107 89 68
262 368 180 113 90 64
254 307 283 102 84 63
312 263 162 104 83 60
284 192 189 112 93 73
376 599 152 49 34 39
315 132 289 122 53 56
248 316 287 113 93 71
327 30 192 108 92 75
343 452 311 164 15 49
254 317 283 102 84 65
417 665 257 121 91 58
239 317 304 118 95 69
340 425 323 167 26 59
240 317 299 118 95 69
267 449 136 118 4 29
275 408 144 90 71 58
310 647 153 153 1 35
239 312 309 114 93 70
273 423 137 93 28 31
418 632 279 120 86 50
433 443 245 33 31 33
301 47 213 120 44 51
302 480 297 184 17 56
239 312 314 104 86 68
296 36 214 117 41 47
304 247 279 105 83 55
434 450 96 87 21 27
237 314 314 100 84 68
237 517 230 37 24 24
237 314 318 104 88 72
371 698 160 85 44 44
323 317 186 112 92 70
247 289 301 114 95 74
370 703 154 86 53 42
266 31 303 168 120 118
285 602 245 120 28 47
449 436 91 96 37 40
310 87 174 119 30 39
246 292 304 116 96 75
399 697 124 74 61 50
348 75 151 131 24 31
374 621 170 74 33 38
268 317 213 119 87 58
306 62 209 114 82 67
277 682 171 55 34 37
190 442 264 47 26 25
338 399 259 92 78 62
245 297 299 118 98 76
268 302 199 126 93 61
417 690 182 91 53 44
325 403 215 98 80 62
278 226 187 113 93 73
360 957 214 79 74 76
436 472 254 161 13 50
427 745 218 67 52 51
325 45 172 124 106 88
279 587 239 155 12 48
252 370 322 167 115 99
281 607 145 81 31 37
445 458 314 61 21 23
244 297 304 117 96 75
315 107 254 107 16 35
304 162 271 98 78 56
335 563 271 130 21 47
323 877 212 101 80 61
193 446 257 96 37 41
423 485 326 125 99 82
243 301 304 114 93 71
300 182 164 115 95 73
242 303 304 114 93 70
355 692 279 123 13 39
418 461 211 93 24 35
251 297 290 111 92 71
267 591 151 49 28 34
313 257 161 106 85 60
287 177 194 113 94 75
449 806 224 80 62 53
248 302 292 109 91 73
286 447 89 139 0 40
246 292 309 117 96 73
239 522 224 51 20 24
310 202 158 124 98 67
279 477 270 54 23 28
375 928 299 41 39 39
247 294 313 117 96 72
329 172 170 125 99 69
246 297 314 116 94 72
281 212 199 115 94 71
315 212 158 123 96 63
345 674 267 81 18 29
269 207 294 112 92 71
187 474 267 127 92 77
238 794 187 178 121 89
275 24 304 134 30 55
365 632 259 140 18 47
187 477 267 135 93 81
329 212 194 127 102 74
291 762 151 135 98 64
404 527 305 175 131 111
294 167 178 110 92 72
370 861 149 92 79 69
242 304 313 114 94 72
247 298 318 113 92 71
196 481 265 123 78 70
248 291 310 116 95 71
249 292 314 116 95 72
403 667 234 53 30 35
427 407 223 53 31 33
457 454 107 178 19 45
363 414 227 66 56 46
400 451 313 74 26 34
305 132 199 114 87 63
301 52 199 135 20 45
264 577 220 44 25 28
432 517 254 183 7 57
250 292 319 114 93 69
249 592 183 62 29 34
291 332 289 85 69 50
288 567 260 153 14 47
249 387 299 157 106 91
332 108 191 130 93 72
419 617 284 156 107 74
248 295 316 116 95 73
235 352 304 133 95 70
244 312 294 118 96 73
424 547 204 149 16 47
336 415 302 78 67 55
289 10 219 125 83 71
257 404 268 57 48 40
456 440 131 71 23 31
302 93 261 106 30 31
434 827 215 73 62 55
320 462 308 74 29 34
247 308 291 111 92 72
300 352 294 97 79 59
248 803 177 170 115 79
260 337 273 91 75 58
247 312 290 114 93 71
296 156 301 113 92 68
408 486 201 107 2 28
242 304 300 113 92 69
325 102 249 105 28 26
389 757 138 47 37 34
334 49 170 123 103 84
289 122 268 102 27 31
465 477 309 176 126 106
242 307 300 114 92 68
255 652 228 174 122 105
260 477 244 102 24 40
286 328 166 107 87 64
334 52 209 108 41 46
413 847 147 75 66 60
241 312 299 118 95 69
290 377 233 82 65 48
345 477 83 105 30 40
243 310 297 122 98 73
305 182 161 117 96 71
261 377 179 112 90 66
244 317 294 116 94 69
241 307 309 115 93 70
251 652 231 173 126 104
300 37 284 115 65 49
295 147 273 102 82 60
231 342 323 152 107 90
406 667 248 80 65 48
436 790 210 81 66 60
416 437 203 123 9 32
205 507 259 206 140 121
398 692 120 85 64 46
242 308 319 103 86 68
413 492 321 135 110 95
348 910 176 76 69 68
307 222 301 125 98 67
312 854 246 100 81 60
329 227 174 120 96 67
240 317 324 107 86 63
398 622 244 82 29 36
485 916 269 37 36 36
300 672 156 100 23 35
241 313 323 106 87 65
310 742 149 89 26 37
237 318 323 108 88 66
380 852 234 39 35 33
458 461 134 159 16 47
386 573 138 187 13 40
384 657 180 82 29 28
338 418 289 84 72 60
254 296 326 115 88 64
280 612 149 98 30 39
300 49 306 133 46 65
205 442 259 48 24 25
315 772 149 75 58 49
342 405 253 88 75 62
250 302 325 111 89 65
404 552 301 180 130 106
270 367 259 84 69 52
252 303 327 123 96 70
300 362 160 90 79 69
192 468 267 144 95 86
285 257 210 119 90 62
324 130 256 108 37 35
402 682 191 75 72 68
297 231 311 126 101 73
256 298 327 122 92 66
301 242 310 122 96 66
353 431 85 62 40 44
288 927 269 193 147 126
254 383 315 171 118 100
240 527 224 63 18 24
244 537 158 96 20 37
244 312 325 110 87 64
309 182 275 103 81 54
246 312 327 118 91 67
270 412 309 167 120 100
415 602 294 174 120 92
191 486 267 180 124 114
428 737 222 74 54 54
243 315 326 114 89 66
268 297 199 122 91 61
315 222 158 126 97 62
425 502 285 88 29 41
247 328 285 111 90 67
252 386 285 126 90 68
246 332 285 115 93 68
305 502 289 164 15 50
345 67 189 116 62 61
340 457 73 164 0 34
307 372 215 125 96 79
405 482 194 128 9 38
251 387 289 138 97 76
312 375 296 115 92 66
245 332 289 120 96 69
316 922 184 84 74 71
249 327 283 108 88 66
223 517 189 115 28 45
282 22 219 121 52 51
252 327 281 106 87 65
252 332 281 108 87 65
406 573 158 190 19 48
432 422 234 58 28 31
243 368 315 166 112 96
345 637 158 114 22 35
251 337 280 105 85 62
313 383 207 114 89 68
390 712 134 74 55 46
245 342 289 115 91 66
300 927 209 63 59 62
356 517 112 147 0 32
244 347 288 113 89 64
418 488 183 36 28 29
420 697 190 56 45 37
266 252 275 105 86 66
256 342 275 94 77 58
249 342 284 109 87 62
305 142 174 113 94 74
380 662 256 73 24 32
307 950 216 73 68 70
344 561 121 130 25 44
274 467 269 162 5 51
238 668 226 190 135 110
404 612 214 59 33 36
302 67 199 129 38 49
286 122 294 113 93 73
334 821 176 67 51 46
250 352 279 103 83 59
251 792 170 172 117 82
300 142 270 96 76 51
305 64 301 123 69 64
295 207 271 97 79 59
398 794 166 64 53 52
252 353 276 98 80 59
445 757 244 134 95 65
240 337 294 117 93 65
277 762 156 139 102 66
272 25 307 138 35 60
232 328 310 103 86 68
308 121 177 113 94 73
300 37 219 130 16 46
277 67 288 103 27 39
300 742 149 140 6 35
234 627 209 157 111 77
305 232 156 125 96 61
250 607 199 87 45 44
231 327 319 120 95 68
231 332 309 113 90 65
418 658 260 134 97 65
230 337 309 120 91 61
319 82 167 120 56 50
402 948 254 92 82 85
275 267 270 102 81 57
357 66 163 103 31 36
280 227 318 119 98 74
279 712 246 152 14 47
422 450 322 130 28 54
228 337 314 136 101 72
229 337 319 135 98 76
295 157 273 102 84 63
380 492 305 110 24 43
320 138 274 110 35 45
310 187 204 116 89 62
192 457 264 129 30 46
320 67 294 113 25 44
370 416 204 68 49 44
434 450 136 62 23 31
234 326 308 94 80 67
322 113 201 132 100 77
508 899 227 91 80 71
283 459 286 174 13 48
234 322 314 100 84 67
347 55 180 89 70 52
