ply
format ascii 1.0
comment Created by Open3D
element vertex 2227
property double x
property double y
property double z
property uchar red
property uchar green
property uchar blue
end_header
369 749 390 100 82 63
364 747 395 99 81 63
364 745 400 98 81 62
369 747 395 101 83 64
365 746 398 98 81 63
370 746 400 105 85 63
354 742 405 95 78 60
359 742 405 97 80 61
354 738 415 98 81 63
359 740 411 98 81 62
318 888 359 147 96 86
359 739 415 98 81 63
359 741 409 98 80 62
364 743 405 99 81 62
362 740 412 100 82 62
362 740 415 99 82 62
342 872 177 72 58 56
401 818 193 81 65 56
365 742 415 103 83 61
368 745 401 101 82 62
352 760 388 154 112 89
354 763 390 168 119 99
376 751 388 109 86 59
380 752 390 123 96 64
379 753 400 130 97 65
371 746 405 109 87 63
374 748 405 121 94 62
354 783 435 189 132 106
376 752 405 131 99 65
400 753 260 79 31 35
304 925 309 31 29 30
371 746 410 114 91 64
373 749 415 130 100 66
376 752 415 137 103 68
376 751 401 127 95 66
382 754 391 131 101 67
382 758 395 137 101 67
424 533 275 163 12 52
381 758 397 138 101 65
381 758 400 137 99 64
370 783 174 81 64 51
385 763 390 149 105 71
407 576 290 173 7 50
383 763 395 152 105 72
381 762 397 148 103 70
381 763 400 150 104 72
382 765 398 159 109 77
380 758 405 136 99 65
379 758 410 137 99 66
379 758 415 139 100 66
381 768 405 177 119 89
382 766 405 167 111 83
380 768 415 182 121 94
354 736 425 101 85 68
426 544 300 58 30 35
359 738 420 100 83 65
354 736 430 104 87 70
349 878 185 62 54 55
384 868 273 43 36 35
376 874 223 65 57 55
304 853 274 154 116 90
363 739 420 103 84 64
363 739 425 105 86 65
333 947 226 79 71 71
365 742 420 107 88 66
363 740 430 105 85 64
354 737 435 106 88 70
354 739 439 108 90 70
359 739 435 107 88 69
414 788 241 52 45 45
358 740 438 108 88 70
355 741 442 111 92 71
299 888 300 119 88 67
358 744 443 127 101 74
359 748 444 141 109 80
363 744 439 124 99 73
361 826 177 97 78 70
369 748 435 137 104 73
364 748 441 138 107 75
283 871 238 105 73 40
363 753 443 166 119 94
354 758 445 189 140 122
389 912 275 68 57 52
421 534 280 83 25 38
359 758 444 186 132 109
354 762 443 194 138 121
363 758 443 185 130 106
368 758 439 181 127 99
364 763 441 184 126 100
370 763 435 165 115 86
380 779 400 206 137 105
367 766 438 179 121 96
363 762 443 188 130 106
272 816 172 187 126 97
371 746 420 121 95 64
374 748 420 131 101 67
373 749 425 135 103 69
376 752 420 138 101 69
375 753 425 142 104 70
372 750 429 142 105 72
376 758 425 143 103 70
375 768 425 183 124 96
378 763 420 162 112 82
378 768 420 183 124 94
377 768 423 183 123 95
372 754 433 155 111 80
372 758 433 151 108 75
354 832 279 43 34 33
416 514 287 90 21 31
416 517 287 89 21 31
319 888 175 83 69 64
389 518 305 47 25 30
389 528 304 51 24 29
279 858 250 113 83 45
396 518 308 56 23 28
338 928 221 74 66 68
394 528 306 51 25 30
399 909 310 70 55 49
397 524 307 55 25 28
399 523 309 57 23 29
387 532 302 62 22 30
389 533 303 49 25 29
385 539 302 99 5 34
389 536 303 85 16 32
389 539 301 85 14 30
399 533 300 66 24 30
399 538 296 46 25 26
393 543 298 93 12 33
397 536 298 61 22 27
394 543 310 46 26 28
369 794 179 71 57 50
343 863 176 92 73 61
396 539 311 78 15 32
397 537 310 82 14 30
396 540 315 47 27 30
395 539 320 33 28 30
371 770 177 75 56 43
393 543 315 38 28 29
398 537 315 64 20 28
397 536 320 47 25 27
405 528 295 69 25 32
411 520 292 83 22 30
413 518 290 86 22 31
279 851 275 100 78 52
412 517 295 82 22 30
411 520 298 77 23 31
324 933 210 77 71 72
414 518 299 80 23 32
410 523 291 80 23 31
389 713 270 131 14 43
416 525 294 82 24 33
414 523 300 74 23 32
413 528 299 67 24 31
404 518 310 75 15 29
402 527 311 83 15 32
408 522 316 89 10 28
408 522 320 82 9 28
293 833 250 158 117 90
393 528 349 46 26 29
406 525 320 91 5 31
411 514 313 59 20 29
340 873 365 171 116 85
412 517 320 52 23 30
414 528 320 174 0 54
405 532 292 64 28 34
406 530 292 71 24 32
356 884 218 60 53 53
409 532 295 56 25 31
424 748 266 71 57 44
334 948 290 69 62 61
404 533 304 56 25 27
409 533 300 52 27 29
404 538 295 48 26 29
403 538 304 60 23 29
329 948 295 67 59 57
405 538 300 54 25 30
400 544 300 85 16 32
402 541 297 74 16 33
402 541 300 76 19 31
338 884 339 135 95 80
423 832 150 95 86 80
402 541 303 79 17 30
402 531 316 88 9 26
408 542 319 164 9 50
404 543 320 164 9 50
367 778 341 132 99 80
410 534 321 167 4 50
413 532 319 173 2 55
415 533 316 185 5 59
415 539 311 92 21 38
359 843 181 74 61 58
410 543 316 121 18 45
412 536 318 176 6 57
394 568 316 100 25 40
415 548 280 67 29 38
414 553 280 100 27 41
410 558 285 79 29 37
412 556 285 75 25 37
416 563 259 167 11 42
414 568 260 171 8 46
415 568 265 193 13 53
369 873 210 62 56 56
415 568 270 196 13 57
334 903 344 120 73 65
259 813 172 186 126 93
411 574 260 173 7 47
412 572 260 171 6 47
412 573 265 189 10 54
413 573 270 194 12 57
409 568 280 182 9 56
289 848 265 96 77 56
409 573 280 181 5 57
290 918 192 82 72 68
412 563 278 134 18 46
412 572 274 187 8 57
389 548 299 67 22 30
389 552 301 32 29 30
387 556 302 37 20 30
498 870 249 93 83 77
394 546 297 95 5 30
392 551 304 39 30 27
397 546 300 83 9 29
408 783 205 62 52 45
391 545 312 31 30 28
390 548 310 31 28 30
294 814 178 144 103 78
386 550 315 30 28 31
386 554 311 54 23 30
388 548 320 35 28 29
391 545 316 31 30 30
399 558 316 148 16 49
388 567 318 56 24 30
396 865 238 66 60 61
391 565 317 104 20 40
389 573 316 40 27 30
393 562 318 109 28 43
394 563 317 103 22 40
399 573 310 170 20 57
416 550 288 114 28 44
384 826 324 181 126 100
411 559 289 118 31 46
403 548 319 111 19 41
402 552 318 88 25 38
408 558 309 47 26 30
404 558 314 171 13 55
413 552 308 106 17 39
412 546 313 29 27 30
410 559 307 63 28 34
414 558 306 113 18 41
410 563 290 163 15 46
410 568 290 171 9 46
411 569 295 153 14 45
414 563 295 161 12 43
412 567 295 167 13 46
412 567 300 167 22 53
409 573 295 155 13 46
403 568 309 110 27 43
418 876 316 51 41 35
409 563 306 75 26 35
374 888 241 60 53 53
406 565 307 62 28 32
405 568 306 91 22 36
402 562 313 172 16 58
402 571 308 163 16 52
405 808 330 189 127 97
401 574 307 140 15 47
325 803 181 49 42 42
430 520 272 176 7 54
429 528 271 174 4 55
430 519 280 121 20 42
428 523 280 169 13 50
371 806 354 176 119 93
427 526 273 177 6 54
428 528 286 94 25 39
430 523 285 109 28 44
430 534 259 154 13 41
431 535 264 184 10 48
429 533 271 171 7 53
385 618 290 99 20 40
426 538 258 154 12 39
427 542 261 110 19 37
428 543 265 68 27 36
429 538 270 103 20 41
422 532 280 83 21 37
421 535 277 141 23 51
421 535 283 44 30 32
424 533 285 48 28 34
419 538 280 87 30 41
392 531 368 183 11 58
420 543 276 89 31 42
420 538 284 46 31 34
422 541 287 42 31 33
386 703 275 97 21 39
426 529 272 175 4 57
337 856 383 193 126 104
427 542 273 35 30 32
439 518 260 64 29 36
438 518 265 77 27 36
434 518 270 166 12 52
436 524 260 53 32 35
435 528 265 169 16 52
436 523 265 117 23 45
434 523 269 172 10 53
396 746 270 73 42 37
433 528 269 174 7 54
349 868 266 43 37 36
432 516 280 71 28 36
433 518 285 97 30 39
419 518 290 89 22 32
399 533 325 69 16 29
284 962 226 85 82 85
362 839 167 78 60 48
422 516 291 90 22 33
422 517 295 88 22 34
344 848 264 149 107 84
419 518 300 77 23 34
431 525 288 46 32 27
430 528 289 59 27 34
379 820 193 86 66 55
421 520 317 184 1 60
422 516 319 178 3 55
424 523 310 97 21 39
402 798 338 177 120 89
420 528 311 170 12 55
423 528 309 55 22 29
418 522 319 180 0 57
415 524 321 176 0 55
417 526 318 178 0 54
422 522 314 180 8 59
333 799 296 64 53 50
426 519 311 145 17 51
365 799 175 78 62 52
428 522 308 125 14 42
269 818 173 194 131 105
429 528 307 44 23 28
424 543 291 39 31 37
426 534 288 78 33 41
429 538 295 80 30 38
427 542 300 44 30 37
389 914 284 94 78 70
419 533 310 159 11 50
422 532 308 92 17 33
417 541 308 90 20 32
281 796 253 71 55 50
370 895 319 35 32 30
425 530 307 33 23 28
430 531 308 85 30 36
435 519 289 125 22 41
438 517 291 166 22 50
394 608 275 73 30 38
433 527 291 45 30 35
437 521 292 86 40 42
437 527 296 61 28 30
439 523 305 100 29 42
437 527 304 132 28 50
446 514 300 136 26 46
432 518 307 136 9 42
273 815 222 63 51 47
433 523 307 136 13 43
433 528 308 95 24 35
438 522 308 93 16 35
442 517 308 162 12 54
433 532 296 75 27 35
436 530 300 132 36 50
418 808 225 77 63 57
386 554 340 45 29 32
434 533 300 81 32 39
420 553 260 101 23 38
422 546 257 150 11 37
424 548 260 136 20 37
422 552 261 109 29 38
339 883 180 63 53 52
425 548 265 113 28 42
423 553 265 61 32 35
425 548 270 94 30 41
423 553 270 73 28 35
417 556 257 152 15 44
418 558 260 83 23 34
416 559 258 141 15 43
421 554 271 116 37 48
404 838 270 52 41 34
426 545 263 149 23 46
427 546 269 108 44 52
417 547 278 73 32 40
376 770 326 102 76 53
422 552 273 98 26 38
416 545 281 53 35 39
418 558 274 155 21 52
418 563 265 191 14 51
417 566 266 202 16 53
417 566 268 202 16 55
419 548 290 80 29 38
419 553 295 67 29 37
421 549 293 131 25 45
422 551 296 52 30 38
424 548 300 137 26 48
366 864 204 60 54 57
328 823 389 135 103 82
422 551 300 44 31 36
319 913 355 161 112 104
419 548 306 152 16 49
419 553 305 154 23 52
416 544 307 107 15 34
400 518 350 58 21 28
397 527 344 77 12 25
395 524 351 45 24 26
401 815 202 62 53 49
398 522 349 63 23 30
388 542 335 71 19 31
390 540 336 77 18 32
396 535 326 42 26 29
341 771 438 181 131 109
399 544 326 181 7 57
400 540 331 190 7 59
391 535 342 52 23 28
390 538 340 54 22 29
322 837 384 157 122 100
388 537 345 41 27 29
388 542 339 49 24 29
387 536 348 40 26 25
393 532 345 58 20 30
400 534 340 152 12 48
393 537 339 88 16 34
395 543 340 74 25 36
399 538 340 189 10 59
398 538 345 178 12 55
328 789 301 67 54 50
397 541 339 179 19 60
393 542 350 171 14 53
408 522 325 89 5 31
413 788 273 71 51 40
406 524 325 94 3 29
401 525 336 87 1 28
411 515 326 91 8 29
414 518 325 151 6 49
415 519 330 195 7 62
279 778 174 102 81 55
411 529 325 186 5 59
414 523 325 183 4 57
410 528 330 168 15 56
403 518 345 56 21 28
400 514 351 60 18 32
401 519 347 61 19 26
403 522 340 84 2 29
356 920 320 124 86 79
407 527 344 64 27 30
408 522 350 65 28 32
414 518 340 155 16 50
412 521 344 53 27 29
408 533 325 184 2 58
290 843 245 148 109 83
405 533 335 105 20 42
403 542 324 176 5 54
407 536 324 177 3 56
413 799 235 55 45 40
403 538 330 190 6 60
411 530 322 171 2 53
404 533 340 134 20 46
402 536 338 151 11 47
387 526 358 34 27 29
299 839 210 191 135 99
386 524 362 60 23 30
393 518 359 63 19 30
328 814 178 61 51 46
395 519 356 59 25 32
397 516 358 64 20 35
392 526 354 45 23 26
397 521 353 65 20 35
399 528 360 53 28 32
396 525 367 42 28 29
399 523 365 70 27 36
309 848 273 167 128 101
374 858 205 61 55 56
400 519 366 140 19 50
389 518 379 182 10 57
390 523 376 187 10 60
386 525 377 188 10 59
396 519 372 135 27 50
394 523 370 107 22 42
327 892 353 115 74 58
393 522 374 189 12 59
285 884 232 108 81 51
397 522 369 28 28 32
391 535 362 180 12 55
386 544 357 189 9 59
388 542 359 190 8 60
389 538 360 189 10 59
391 539 356 185 11 57
329 893 368 179 127 106
388 537 364 191 9 60
393 532 364 139 19 48
369 883 230 66 58 57
339 889 274 37 34 34
396 530 361 39 24 31
394 538 355 132 17 45
407 784 288 142 100 68
392 536 359 158 18 53
392 541 354 191 10 60
388 532 370 192 11 60
407 517 359 190 12 58
370 910 269 68 61 59
314 928 320 38 33 34
406 520 356 92 21 35
402 527 354 69 28 34
402 521 363 189 22 63
394 893 295 58 48 41
411 515 352 153 18 48
402 516 368 190 11 59
388 548 325 31 29 31
416 905 300 57 47 42
390 553 325 124 25 47
389 547 330 43 28 32
389 553 330 63 26 35
410 828 152 82 72 63
387 556 333 32 28 34
288 853 245 99 76 54
395 549 326 167 14 54
398 547 324 170 10 52
395 554 321 48 26 31
390 549 340 76 30 39
389 548 350 108 28 44
392 547 340 46 28 33
392 546 345 45 27 32
276 961 303 69 63 61
401 545 322 165 9 47
341 785 407 139 107 84
387 546 354 166 22 54
421 515 322 179 3 58
399 588 285 117 20 43
400 598 265 146 25 49
400 598 270 101 25 40
398 603 265 96 30 42
395 609 265 71 30 36
397 606 265 59 26 30
397 606 268 103 28 37
391 609 286 167 16 51
399 598 275 36 29 33
395 598 285 55 30 33
397 596 283 42 30 29
404 828 275 79 50 40
345 898 330 133 93 89
396 599 281 113 31 43
395 603 280 124 29 46
393 608 280 116 28 45
394 603 285 88 28 39
319 848 273 167 126 101
392 607 284 120 29 46
407 583 260 176 9 47
358 783 317 146 109 88
406 585 260 177 9 46
405 588 265 194 14 54
406 585 265 193 13 54
402 593 270 190 15 55
405 588 270 196 13 55
408 578 280 180 3 56
409 578 275 184 5 56
344 867 159 97 74 64
405 578 285 180 5 55
269 957 231 72 68 70
407 576 285 182 6 55
291 843 240 152 112 86
403 588 280 176 12 54
402 592 275 125 19 43
402 592 278 68 22 33
289 943 211 91 84 86
402 586 283 183 10 56
297 855 278 126 95 70
402 596 264 161 22 54
401 595 266 192 13 53
336 915 352 211 155 141
401 594 276 35 28 33
399 588 290 164 12 47
398 592 295 158 13 48
355 879 210 56 49 49
400 588 295 162 11 47
395 589 302 150 12 46
392 592 304 164 8 51
394 593 300 161 10 49
395 583 305 111 24 42
399 588 300 157 15 51
391 584 312 148 20 53
388 593 309 138 17 49
403 803 335 185 125 94
391 590 307 179 8 55
390 593 305 180 7 57
387 587 313 52 28 31
386 590 312 36 26 30
395 579 311 61 27 34
393 583 310 77 25 35
399 578 305 79 24 35
398 577 309 61 25 31
393 578 314 56 31 36
392 586 309 169 16 57
391 595 302 159 8 48
391 604 296 165 13 51
391 605 292 148 25 46
383 795 182 79 62 55
390 608 290 165 15 49
258 825 178 193 123 91
389 608 295 165 9 51
413 827 250 54 45 40
395 598 290 41 29 32
319 883 371 189 149 133
394 598 295 74 26 37
396 595 296 145 15 47
392 606 288 157 24 53
387 596 308 177 16 63
486 900 242 89 75 63
405 578 290 174 7 50
406 579 295 168 11 49
407 576 295 170 11 47
403 582 299 129 24 46
407 576 299 175 23 55
401 585 289 174 9 47
402 586 295 154 12 44
324 823 274 156 114 95
391 619 265 111 32 43
388 623 260 92 33 40
390 618 270 114 33 44
388 623 270 66 31 34
329 802 293 62 51 48
393 613 260 136 26 47
393 613 265 148 22 48
393 613 270 136 31 49
452 900 277 109 85 68
392 616 265 155 25 48
390 613 280 84 29 38
391 610 282 175 24 53
387 622 275 39 29 34
387 622 280 33 29 35
386 624 280 70 31 36
387 621 284 40 29 33
385 628 260 113 25 41
394 887 310 44 35 29
385 629 265 117 27 43
372 857 202 62 55 57
387 626 265 110 36 47
387 612 294 166 10 49
385 614 296 163 11 51
385 698 265 122 18 44
386 702 260 87 19 35
344 833 380 137 85 64
386 703 270 95 27 39
496 916 290 105 84 63
369 909 321 63 52 45
385 698 275 42 28 33
387 704 257 60 28 30
387 708 261 68 28 36
388 708 265 71 27 38
387 714 284 144 0 45
390 718 275 142 2 44
392 724 265 79 32 40
392 725 262 84 27 42
392 728 261 69 32 34
393 728 265 70 27 34
313 836 202 126 82 61
392 728 270 125 21 44
393 733 260 92 32 40
394 733 265 72 28 34
391 723 275 143 4 44
391 726 275 144 7 46
259 893 296 156 116 99
391 727 281 149 6 46
339 869 165 103 86 77
392 728 275 144 9 46
334 908 359 193 135 119
392 729 280 148 6 46
425 759 261 83 61 44
393 733 275 141 13 46
393 733 280 142 11 45
392 733 285 134 14 42
385 713 290 146 2 45
387 719 289 146 0 45
385 718 295 147 3 45
390 728 290 150 9 47
386 726 297 151 10 47
391 733 290 131 16 42
392 734 288 137 16 43
394 738 265 85 29 38
395 743 260 54 28 32
394 738 270 67 30 35
396 746 260 62 32 35
398 748 260 56 31 32
396 746 265 92 27 38
397 749 265 81 28 35
420 773 249 72 52 41
398 753 270 115 83 59
395 743 280 139 102 74
394 743 285 153 113 79
396 748 280 140 103 70
397 749 275 128 93 65
398 753 275 131 95 66
398 753 280 137 99 68
395 748 285 151 112 78
396 752 286 150 111 77
393 778 191 72 54 45
400 758 275 132 93 66
400 758 280 138 98 68
414 753 260 48 38 30
402 754 259 70 37 35
404 758 260 59 36 32
402 759 264 87 43 41
404 763 265 63 46 37
406 761 262 42 30 26
409 761 262 41 34 28
401 761 267 94 66 46
403 763 270 110 78 55
410 767 267 46 37 31
411 753 258 56 46 36
416 753 264 50 39 31
414 758 261 51 39 33
314 783 181 60 51 48
415 767 266 67 57 50
403 768 280 138 97 69
402 765 283 146 102 71
402 768 285 147 103 73
391 738 290 160 111 85
390 748 296 163 122 89
388 749 299 164 125 91
389 753 300 163 125 90
393 748 290 158 116 82
395 758 295 159 119 84
395 753 290 156 116 81
387 754 303 163 127 93
388 759 303 161 122 88
390 758 301 162 124 89
327 826 388 140 108 88
390 762 302 161 123 88
397 755 289 154 114 80
397 759 294 156 115 81
364 818 305 173 122 97
392 754 298 163 123 89
294 878 300 116 89 67
392 758 299 161 122 87
400 768 295 152 114 81
491 898 288 97 73 56
392 765 303 149 115 82
429 748 261 93 75 58
389 768 310 100 78 53
384 768 315 85 66 44
444 730 259 95 71 51
386 870 228 63 53 50
444 734 263 86 64 42
449 729 259 101 76 56
449 733 260 102 75 53
447 734 263 101 71 53
421 740 259 77 65 55
424 738 260 69 57 46
405 786 210 61 51 44
421 744 264 54 41 31
422 741 262 56 44 33
343 869 345 142 98 77
364 897 281 37 34 34
424 743 266 65 51 39
425 740 263 66 49 37
423 752 260 85 69 57
326 877 272 142 105 88
429 737 261 84 69 56
427 746 257 86 69 53
429 748 265 86 69 54
429 753 261 94 70 54
326 823 391 154 118 96
429 753 270 74 58 44
418 764 260 98 74 61
418 767 260 102 82 69
419 904 300 63 52 44
424 763 259 81 59 43
422 765 257 85 65 49
424 768 255 100 72 52
294 940 208 91 85 85
464 907 293 90 77 65
421 765 269 87 75 66
425 758 265 94 79 65
429 758 260 85 57 45
269 888 236 135 96 65
426 755 268 89 75 61
425 766 258 104 77 50
430 769 270 71 54 42
424 764 274 65 50 38
422 766 272 62 47 37
424 768 275 69 52 41
432 741 257 92 75 58
434 743 259 95 73 54
291 863 232 135 101 72
439 739 259 100 76 57
439 738 265 85 65 48
434 743 266 79 63 50
339 903 300 37 34 33
439 743 267 82 62 45
374 863 271 41 35 33
435 744 268 77 58 44
438 744 268 78 58 42
434 753 262 90 64 45
439 753 265 80 58 47
432 747 267 80 64 49
359 833 165 68 55 47
438 753 270 79 59 46
447 736 257 96 67 52
447 737 260 94 67 46
444 738 265 86 64 46
447 736 263 103 78 52
443 743 264 86 64 48
442 748 265 80 58 47
441 749 265 77 54 45
435 758 264 78 59 48
314 798 181 58 50 47
436 754 263 82 61 47
504 909 249 103 84 64
437 757 266 78 60 50
432 763 262 68 51 41
433 763 265 72 54 44
384 917 314 62 50 42
435 759 271 78 59 47
279 857 291 132 105 78
432 766 270 74 56 43
434 758 273 73 57 44
389 768 325 108 86 60
387 765 335 107 86 61
390 767 335 123 97 67
391 766 345 134 103 68
386 761 350 112 88 60
389 763 350 126 98 65
391 766 350 138 104 69
393 769 345 141 105 70
386 761 355 116 90 60
389 763 355 129 99 65
391 766 353 138 104 68
385 761 365 123 93 61
391 766 361 141 102 66
393 768 360 143 102 69
385 888 270 56 47 40
387 760 371 132 99 66
322 850 273 165 124 100
389 763 370 139 101 68
388 763 375 140 101 67
262 894 297 176 130 112
389 768 370 149 102 70
388 768 375 152 104 72
387 760 378 134 99 66
387 763 380 142 101 70
386 761 381 139 102 66
386 762 385 144 102 68
387 764 385 150 104 74
388 768 380 156 106 76
388 768 385 160 110 78
450 725 262 101 74 61
452 724 264 99 77 67
299 853 275 140 105 81
386 766 387 155 107 77
386 768 390 166 113 82
387 768 388 166 114 82
259 773 175 90 76 61
259 783 171 104 82 54
429 884 285 75 62 53
259 789 167 114 86 50
264 790 167 113 86 52
264 793 167 117 87 50
259 788 174 114 87 51
333 866 378 199 137 111
256 798 167 136 95 55
339 878 335 142 91 88
264 798 168 130 93 52
269 793 167 116 88 51
304 980 255 62 57 57
270 791 168 113 87 51
270 799 168 129 94 52
274 773 176 95 78 59
279 773 176 100 80 57
276 780 172 101 80 55
273 783 174 105 82 54
275 784 171 106 83 54
279 783 171 107 83 53
289 773 176 111 86 54
284 778 174 108 84 53
344 813 389 125 78 58
281 781 173 106 82 52
289 778 174 114 88 53
289 783 174 116 88 52
274 793 167 116 87 51
354 878 195 61 54 54
274 787 169 112 87 55
279 788 170 114 88 54
274 797 167 121 90 51
259 918 301 146 122 106
318 857 369 132 105 84
274 799 168 126 93 52
256 956 293 49 45 46
280 798 168 123 90 49
386 838 211 65 53 51
287 789 172 119 89 52
289 788 173 120 89 51
288 794 172 125 91 51
289 798 171 130 92 54
294 818 180 130 93 74
259 803 170 151 102 63
264 803 168 144 99 60
269 813 171 173 117 83
264 823 174 201 132 102
269 816 172 188 126 97
269 823 175 197 130 102
260 826 177 194 123 92
264 827 180 183 117 80
259 828 190 170 117 85
264 829 190 175 118 86
269 829 185 177 112 76
269 830 190 176 118 85
275 805 167 139 96 59
279 803 167 134 95 56
279 802 168 131 94 55
276 815 173 183 124 94
279 812 171 162 109 76
284 803 169 133 94 56
284 808 170 143 98 62
289 803 171 133 94 55
261 859 288 155 112 95
284 813 174 169 114 82
305 873 210 51 48 48
379 838 185 59 48 47
289 812 176 163 110 77
373 781 410 177 107 81
356 930 296 83 68 57
289 815 178 177 120 89
274 827 180 186 113 83
276 825 178 192 122 95
339 958 255 67 63 64
331 955 282 70 61 58
274 828 185 179 107 73
278 826 180 187 117 90
282 821 177 187 123 93
324 908 195 71 63 64
285 818 178 185 123 94
284 828 185 173 111 80
289 827 186 103 68 58
349 873 180 65 56 56
284 829 190 139 85 61
289 829 189 56 45 47
294 773 175 65 56 49
299 773 176 50 47 46
299 783 174 47 45 46
304 773 177 54 48 47
304 778 176 55 48 46
294 793 174 122 90 54
364 788 169 95 72 51
322 861 358 138 114 91
294 798 173 126 91 56
299 793 174 59 51 47
306 770 177 55 49 47
307 773 177 56 50 46
319 773 184 55 46 43
407 790 229 54 45 40
354 778 316 49 42 42
339 783 180 50 43 41
317 775 182 58 49 46
320 778 184 52 45 42
320 783 184 53 46 44
308 793 177 60 52 49
310 793 178 59 51 47
489 893 245 94 80 69
308 798 177 60 52 49
369 853 195 59 52 54
310 798 178 59 51 47
314 793 181 60 51 47
294 918 305 81 63 51
276 889 308 147 108 90
318 788 182 58 49 47
320 788 183 54 47 45
319 793 184 55 47 45
293 803 172 133 94 55
295 803 173 129 92 56
292 806 172 134 94 57
351 935 248 73 67 67
294 808 175 134 95 61
349 783 435 184 132 107
298 807 176 75 60 52
294 812 177 147 103 73
299 813 180 62 53 52
303 813 182 69 57 52
294 822 182 96 67 60
293 878 229 109 84 60
294 829 190 71 58 56
299 818 181 60 51 51
299 823 185 70 58 56
302 817 182 75 61 56
304 828 190 70 57 54
429 882 290 73 60 51
307 802 177 60 51 49
309 803 179 59 51 48
307 811 182 65 55 51
310 810 184 61 52 49
338 887 186 58 50 49
311 814 188 64 54 50
409 808 210 68 56 49
314 809 184 59 51 48
318 802 182 54 47 46
319 803 183 54 47 45
316 804 183 57 49 47
319 808 185 56 48 45
307 822 186 70 56 54
309 823 190 67 55 52
310 819 189 66 54 51
314 818 190 63 51 47
313 822 192 62 51 48
259 783 240 65 54 50
258 774 246 79 64 58
498 891 240 95 80 65
256 771 248 80 65 59
262 769 256 83 67 61
256 776 243 76 63 58
259 778 245 75 61 56
261 782 243 72 59 54
261 776 248 78 63 57
264 778 250 80 64 58
265 777 254 80 63 57
268 779 256 80 63 56
266 782 249 78 62 56
267 780 252 77 61 54
268 783 250 74 59 53
260 787 238 65 55 50
258 794 231 116 89 76
348 792 398 117 76 57
265 792 239 69 56 51
264 799 231 52 44 44
268 794 241 74 60 53
267 795 237 70 56 52
268 799 236 70 57 52
270 797 239 72 58 52
262 785 242 70 58 53
348 774 173 70 53 43
265 787 244 76 61 55
267 785 247 76 60 55
267 790 242 77 63 56
273 783 255 77 60 54
330 954 230 81 73 74
272 790 247 70 57 51
273 794 246 70 56 51
272 785 252 74 59 53
275 787 254 75 59 53
275 792 249 73 57 52
279 793 255 72 57 51
272 795 242 68 53 49
277 794 251 74 58 52
256 801 223 170 122 97
258 804 221 170 124 98
261 806 223 170 127 101
314 834 200 118 82 62
264 807 224 75 60 57
259 813 215 158 119 93
269 813 220 52 43 45
267 810 222 42 34 42
267 815 217 121 94 77
259 824 200 168 126 103
264 827 200 169 128 106
340 910 216 62 56 58
263 825 202 170 128 107
269 830 195 172 120 92
269 827 204 167 128 105
259 818 210 157 114 88
358 784 390 156 101 81
268 825 206 163 120 97
261 816 213 155 115 90
265 817 214 152 113 87
265 822 209 155 112 86
269 823 210 145 106 83
467 880 282 94 77 60
270 821 213 95 73 61
270 816 218 48 39 41
279 829 200 119 80 68
274 828 205 138 106 90
283 830 194 104 64 54
284 832 200 56 53 54
285 831 196 49 48 50
289 831 192 58 51 49
282 830 205 56 50 47
284 832 205 59 54 57
322 809 183 49 43 42
273 820 217 48 40 40
274 824 211 66 52 50
277 819 221 67 54 50
274 826 209 77 60 56
277 825 212 50 39 42
283 824 225 62 50 51
283 829 210 60 49 47
286 831 213 68 55 51
287 830 216 63 51 51
288 829 220 60 47 52
261 801 228 91 71 62
349 878 345 156 106 84
265 802 229 50 43 43
268 804 231 65 54 50
270 807 229 69 56 51
267 800 232 61 50 48
324 863 354 130 96 78
270 802 234 73 60 55
273 804 236 67 54 50
387 856 212 68 57 56
275 803 239 69 56 51
275 808 235 69 56 51
354 848 259 82 56 45
276 806 238 70 56 53
275 812 230 67 54 50
310 773 299 79 63 56
277 814 231 70 57 55
276 811 234 70 57 54
277 810 236 71 57 53
305 783 289 81 63 56
279 813 235 70 57 53
309 833 268 157 118 97
282 808 246 52 43 44
304 965 228 95 92 97
281 802 248 70 55 51
286 807 253 99 78 66
287 804 256 96 74 66
281 812 243 50 42 44
284 813 245 103 78 68
287 815 247 172 118 99
287 810 252 171 121 101
434 878 245 98 82 69
288 813 250 173 119 100
283 819 236 70 53 52
299 893 190 66 61 61
287 820 237 171 122 100
288 819 241 172 117 97
403 783 320 145 108 69
288 825 231 165 123 101
290 828 230 179 130 106
285 816 244 168 122 100
289 818 245 175 119 99
294 831 192 73 58 52
345 948 250 55 51 50
294 832 195 71 56 51
299 831 192 71 57 52
302 831 192 70 58 56
372 825 181 65 51 50
328 957 231 82 74 75
304 832 195 66 54 53
305 830 193 70 56 55
309 832 196 61 50 48
319 823 193 53 45 44
359 858 185 60 51 52
312 826 192 59 46 48
314 828 195 65 52 48
404 788 220 58 46 41
313 831 197 96 72 58
320 833 195 72 55 49
318 834 199 89 62 51
290 812 254 177 122 102
293 813 256 180 122 103
293 833 225 189 136 109
293 833 230 179 128 101
291 826 234 180 128 104
415 803 265 55 44 37
406 786 300 141 102 65
292 829 235 179 129 103
303 894 298 108 79 59
372 783 176 70 56 48
293 833 240 166 121 95
292 823 245 177 127 103
320 777 303 72 57 52
290 817 249 178 121 101
294 818 255 177 122 101
293 823 250 175 124 100
353 937 275 72 65 64
293 828 245 170 125 99
300 783 284 81 63 57
284 948 216 93 86 88
293 833 245 163 119 94
294 828 250 165 120 94
334 868 165 113 89 73
295 828 255 163 122 95
320 848 185 63 55 52
316 854 190 52 48 47
316 855 186 54 50 48
315 858 185 50 46 45
315 863 180 60 53 51
358 920 236 74 66 64
317 856 183 54 49 48
312 863 190 46 42 43
304 883 185 71 63 63
305 878 190 49 45 46
303 888 185 73 65 65
302 892 184 81 72 72
304 893 180 88 77 76
341 849 386 202 139 112
310 878 176 85 73 70
315 868 176 66 57 57
314 873 175 74 64 63
318 867 174 63 54 55
389 836 285 84 55 40
316 873 172 83 69 61
316 877 172 93 74 67
319 878 170 97 78 73
349 828 400 202 137 108
310 873 180 65 59 59
308 873 185 53 48 49
311 865 186 46 43 42
299 977 265 68 65 66
310 868 190 45 41 43
308 872 190 47 44 44
308 878 180 74 66 65
390 788 189 79 61 47
307 876 184 57 53 53
306 879 182 73 65 64
311 875 177 73 64 64
306 875 190 46 43 44
313 868 180 63 56 55
405 773 220 44 37 36
336 788 423 184 135 115
276 952 308 53 49 49
305 888 181 81 69 69
307 888 178 81 68 66
307 892 178 86 72 70
289 833 200 60 52 51
289 834 205 57 53 56
264 858 255 118 91 61
261 860 256 130 104 79
265 864 247 118 87 47
386 784 380 201 129 106
269 863 246 116 83 41
269 857 255 120 88 51
285 863 240 108 80 49
274 862 245 117 81 35
279 864 242 110 77 37
274 856 254 118 87 47
274 861 248 119 82 33
284 854 255 86 69 49
257 872 286 167 143 135
287 852 255 82 65 47
287 852 250 83 66 46
284 858 245 97 74 46
283 861 244 106 79 41
323 951 222 73 67 70
399 837 274 47 39 35
329 968 260 61 56 55
286 859 241 99 77 51
287 856 244 93 73 50
278 892 224 155 113 85
342 853 375 193 132 108
279 893 221 137 96 64
283 894 222 91 62 32
284 893 225 90 65 35
289 893 225 87 69 46
264 868 245 125 93 58
263 873 244 132 97 66
433 901 284 71 58 48
260 873 246 135 99 72
327 829 401 197 146 127
258 873 249 141 106 80
259 878 245 142 102 76
344 818 174 87 65 52
262 877 243 138 100 71
257 876 248 145 105 80
269 867 244 116 85 45
266 870 242 129 94 58
263 893 239 140 99 72
267 882 238 138 98 67
306 907 177 81 68 66
269 883 237 135 96 66
266 888 237 140 100 69
258 893 243 148 102 78
260 893 241 145 101 77
272 876 238 127 92 58
279 878 236 97 71 42
374 831 294 126 83 63
284 868 239 109 79 46
284 873 236 108 78 47
286 868 237 111 83 52
275 865 242 114 80 36
275 893 230 112 85 60
260 957 240 83 77 78
272 893 234 114 85 59
284 888 230 102 77 46
284 882 233 97 72 43
281 885 232 90 67 41
283 890 227 94 70 39
290 889 227 91 73 52
360 919 310 56 48 45
294 834 200 68 55 49
291 836 207 48 48 51
348 874 336 142 99 87
293 835 204 58 50 49
304 835 199 54 47 51
299 837 205 92 78 70
300 836 202 47 41 48
304 839 205 165 115 86
291 836 209 82 72 66
292 835 212 92 78 68
364 789 400 143 85 65
292 834 216 138 107 89
294 837 210 153 121 99
293 834 220 191 141 111
295 838 225 183 130 101
298 839 215 189 134 100
298 839 220 188 134 101
301 841 211 186 126 93
304 842 210 165 113 84
303 844 215 163 113 84
497 904 254 100 82 67
298 848 225 166 119 87
303 848 219 156 112 82
299 853 225 156 112 83
309 837 201 146 101 75
309 839 205 140 94 73
314 838 204 110 75 58
317 838 203 88 64 54
308 849 214 104 76 59
311 860 196 49 45 47
311 863 195 49 45 46
310 863 200 51 48 49
348 770 317 66 55 49
315 853 195 52 49 49
314 853 200 55 51 51
313 853 205 60 53 52
310 853 215 86 68 56
308 853 219 111 82 62
307 862 215 79 64 55
369 878 273 37 33 32
309 858 215 79 64 56
308 858 219 102 77 62
307 861 218 94 71 58
294 838 230 174 124 97
295 843 230 167 119 91
295 848 230 162 116 88
290 848 240 139 103 78
292 841 238 160 117 91
292 838 245 157 116 90
291 840 254 152 115 91
295 812 259 178 121 103
290 843 250 148 111 86
290 843 255 132 100 78
289 848 250 112 85 63
289 848 255 95 75 55
294 853 230 151 108 80
358 860 162 89 71 60
290 853 236 136 100 74
290 858 235 130 96 69
292 858 233 138 100 73
296 851 227 163 115 86
297 858 228 146 106 77
300 863 226 124 92 68
354 892 277 37 32 34
298 863 228 132 99 71
304 878 200 48 45 46
303 878 205 47 45 47
303 877 210 54 51 50
301 879 215 62 57 54
299 873 225 94 74 57
299 888 195 56 52 52
298 888 200 52 49 50
302 881 195 52 49 50
300 883 205 51 49 51
298 888 205 56 53 54
301 880 206 51 49 50
353 812 414 198 133 107
296 890 207 58 55 57
296 889 215 66 59 55
501 912 235 110 89 68
294 893 215 64 56 52
299 883 210 58 56 56
299 883 220 63 56 54
380 896 298 51 44 39
297 883 224 70 59 51
297 886 223 66 58 52
307 872 195 49 46 46
337 773 188 48 41 38
389 832 305 149 98 75
307 872 200 51 48 48
309 868 200 50 47 48
308 868 205 49 45 46
305 873 205 49 45 47
306 874 195 48 46 46
306 874 200 51 48 49
306 869 211 52 49 48
306 868 215 70 60 53
306 868 220 81 64 55
304 868 224 99 77 60
291 868 232 134 101 72
293 873 229 122 93 68
295 878 226 91 72 54
299 868 226 112 84 61
296 870 227 118 91 66
291 884 227 95 75 52
294 883 226 84 67 51
292 881 228 101 79 57
329 778 190 42 38 39
326 783 188 44 39 39
279 967 235 87 84 86
334 798 175 51 44 42
336 799 172 56 48 46
328 786 188 42 39 40
324 798 182 47 41 41
294 965 228 93 89 93
330 793 181 47 43 41
329 798 180 51 45 41
331 790 182 46 42 41
333 787 184 45 42 41
334 788 181 45 41 40
336 785 182 46 42 40
334 793 180 45 41 40
331 944 223 76 68 67
330 785 187 43 40 41
330 800 177 53 45 41
323 799 292 64 53 50
344 773 175 66 51 43
349 783 174 71 54 44
285 901 218 84 55 36
337 782 183 48 43 42
343 778 179 62 49 43
343 782 178 59 48 43
344 783 176 62 49 44
344 793 170 65 51 45
340 794 172 60 50 45
350 795 167 76 58 48
338 792 178 48 43 42
329 803 176 56 48 44
333 803 174 57 48 44
330 813 176 58 48 43
322 804 183 48 43 43
327 802 178 51 44 42
323 813 185 50 43 43
334 818 175 57 48 46
324 818 185 53 47 47
329 818 180 58 49 44
325 823 185 53 45 46
326 823 182 56 46 41
321 822 191 49 41 44
323 823 190 54 46 47
325 828 185 52 45 43
326 828 182 54 46 41
325 833 185 58 49 44
329 832 181 60 50 46
326 832 182 55 47 42
323 833 190 61 52 49
331 817 177 53 45 41
333 828 179 61 50 47
323 884 278 135 105 86
336 833 176 62 52 50
338 802 172 59 49 44
339 804 174 55 46 42
344 808 169 66 52 44
342 806 173 61 49 42
422 906 285 82 69 62
339 813 170 60 50 46
344 813 170 86 66 50
346 808 167 72 54 44
390 855 213 76 63 59
348 807 167 86 67 50
349 803 169 70 54 45
346 800 173 60 46 41
269 964 245 90 85 87
350 813 173 88 66 49
339 818 171 69 56 48
317 894 359 151 98 91
336 816 172 59 50 48
407 868 256 79 67 61
389 889 320 47 38 33
339 823 174 80 63 52
338 821 172 65 53 46
343 816 171 90 69 52
339 833 174 86 66 52
344 828 176 76 58 49
344 833 175 75 59 50
349 818 175 78 59 48
351 830 168 77 61 52
349 823 177 70 56 49
488 898 281 94 74 63
349 827 177 72 57 50
350 829 179 68 55 50
349 832 179 74 59 55
354 773 173 71 54 45
359 775 172 68 54 46
356 778 172 71 54 44
360 776 173 69 55 45
359 783 171 77 59 48
363 773 176 76 58 45
364 777 174 82 62 45
364 783 170 85 64 46
360 790 167 93 69 47
354 788 175 74 56 48
359 788 170 86 66 50
357 787 173 76 57 46
372 788 176 68 55 48
326 940 218 76 69 72
354 798 166 89 67 49
360 799 169 89 68 51
368 788 171 79 62 49
368 793 171 75 61 51
363 797 171 82 64 51
369 793 175 72 58 50
368 798 176 77 62 52
374 778 179 71 56 48
379 783 181 79 60 52
379 877 230 64 57 55
375 788 179 69 55 48
374 793 179 72 56 51
400 873 249 77 69 68
372 799 177 77 62 55
384 788 184 80 61 51
293 788 271 78 61 56
380 796 183 76 60 51
383 798 181 76 59 53
385 798 184 75 59 51
364 831 160 69 56 46
364 831 157 76 60 43
365 830 160 71 59 50
294 969 295 66 61 60
354 803 169 95 72 51
334 783 410 154 118 94
375 822 325 184 129 101
354 808 174 90 66 49
358 802 171 92 70 51
393 816 338 194 130 101
360 803 174 81 61 47
505 905 236 105 86 70
354 813 175 76 57 47
350 828 390 183 122 97
364 808 176 76 62 54
365 814 179 67 56 54
370 809 179 61 50 46
369 813 180 60 52 49
354 832 165 71 58 49
353 830 168 74 59 46
363 818 176 68 55 50
360 822 177 74 60 54
364 823 176 78 63 59
366 828 163 79 61 52
367 831 162 64 50 45
455 901 299 81 67 56
368 832 166 62 51 45
364 833 165 63 53 44
352 826 177 69 57 53
359 828 180 83 66 60
368 817 182 62 52 49
502 889 234 85 72 61
384 898 254 64 56 53
365 822 179 82 70 69
370 822 183 64 54 51
365 826 177 87 71 67
322 856 364 130 103 84
361 832 183 89 70 66
369 829 178 78 63 57
371 805 178 68 54 48
373 807 181 57 47 44
384 848 272 40 36 34
374 809 184 57 46 42
379 803 180 74 59 53
377 886 242 59 52 51
379 806 182 76 60 53
384 803 181 76 60 53
384 806 182 80 63 54
384 813 185 81 65 56
374 868 210 63 57 57
370 829 169 69 53 49
374 773 325 97 71 49
374 832 169 78 61 49
373 828 180 69 55 49
374 834 175 83 64 48
379 818 190 72 55 47
383 823 189 90 66 55
379 828 185 79 60 53
384 828 189 80 60 53
358 788 317 165 119 94
382 829 187 74 57 51
349 863 160 92 71 59
334 848 174 69 60 60
323 838 185 72 59 51
329 838 181 69 56 48
321 839 191 62 52 50
322 842 184 73 61 55
321 844 186 65 56 54
322 846 183 70 59 54
328 847 178 70 55 48
333 838 179 60 52 49
335 838 177 60 51 47
330 844 177 64 52 51
329 851 174 69 54 50
326 863 167 59 49 49
323 863 169 59 50 50
330 858 162 65 55 54
321 850 182 70 57 52
339 838 174 83 65 54
339 843 174 87 72 64
339 848 174 89 75 68
525 923 248 98 81 67
344 843 174 91 73 62
343 848 173 98 77 62
351 834 164 71 58 50
349 838 174 75 62 56
414 877 315 55 44 36
349 843 174 83 67 58
345 848 172 93 72 57
349 845 172 82 66 59
339 852 173 85 69 61
339 858 171 82 64 56
336 862 168 93 74 65
344 858 174 96 73 58
347 851 172 89 68 54
346 864 165 103 82 70
350 860 165 96 75 64
351 860 162 92 70 58
349 862 168 99 83 74
320 902 364 198 146 137
345 864 178 84 69 59
347 861 177 86 68 64
350 858 179 89 70 64
339 873 152 103 80 69
339 873 155 104 82 71
339 869 160 95 71 61
334 868 269 138 101 85
336 873 152 112 89 80
340 876 156 101 84 77
343 876 157 99 82 75
344 878 159 93 80 73
348 873 157 94 78 70
350 873 160 90 77 69
348 876 157 92 79 72
325 869 167 86 70 58
329 868 166 103 83 67
324 878 169 105 86 82
421 780 248 54 43 37
333 873 164 110 88 77
336 873 170 88 73 62
333 878 164 98 80 74
324 883 171 83 69 65
325 887 172 87 71 65
329 890 174 78 66 62
334 883 165 89 74 69
376 785 396 200 128 98
334 887 167 88 74 70
321 895 184 66 58 57
280 934 308 46 39 38
329 891 180 69 59 57
334 889 185 63 55 55
332 891 186 65 57 56
336 870 162 100 74 67
339 873 166 93 83 74
342 906 311 36 33 33
338 868 170 97 80 68
338 874 169 88 75 63
339 873 175 77 63 59
348 873 163 88 75 69
342 868 177 85 68 62
344 873 179 68 57 56
349 868 180 77 65 63
336 881 162 93 78 73
355 783 380 179 124 102
339 884 164 90 76 71
339 887 170 84 72 68
262 945 218 80 74 75
340 883 175 78 68 66
364 792 390 167 112 89
336 885 177 83 72 67
272 928 208 70 61 63
340 884 185 59 51 50
343 882 185 59 51 50
341 885 190 57 51 50
356 832 160 77 64 57
356 840 170 112 101 96
356 840 166 72 57 47
359 842 169 90 73 61
366 835 175 80 62 51
368 838 170 80 63 50
362 843 173 83 67 58
316 865 362 122 83 68
363 847 173 86 69 56
359 838 180 80 66 62
356 848 178 96 75 60
359 848 180 78 64 58
363 842 182 73 62 58
353 860 162 96 75 62
354 860 164 100 81 71
354 863 165 99 84 76
358 861 162 88 70 58
366 848 167 87 69 56
343 792 399 116 81 62
355 853 179 94 74 65
354 858 181 83 68 60
408 832 250 56 45 40
358 857 181 77 64 58
355 864 191 56 50 52
363 852 185 61 52 54
366 850 188 56 51 53
370 849 190 58 52 52
403 898 333 75 57 44
362 856 192 61 54 54
374 837 175 77 60 47
381 837 167 84 71 60
384 838 167 90 73 61
379 835 174 78 62 51
379 838 170 80 64 53
383 839 175 76 66 58
343 828 382 125 78 57
382 841 173 77 62 48
374 840 185 56 48 47
375 843 190 60 50 49
373 847 190 61 53 51
379 837 180 61 50 48
383 839 180 64 52 49
379 839 189 61 50 49
352 868 161 92 77 67
309 943 211 91 85 87
327 813 406 186 141 122
359 868 184 64 57 58
356 870 183 63 57 57
359 872 185 62 54 55
359 868 189 59 51 53
353 876 186 68 58 57
362 868 188 60 53 54
359 913 325 72 54 48
362 871 186 61 53 53
330 895 193 63 55 54
335 894 195 61 54 54
345 884 194 59 52 51
344 888 195 58 51 51
339 892 195 63 56 56
336 895 198 61 56 56
341 895 203 58 50 52
347 886 197 59 52 52
346 889 200 57 51 51
348 888 205 61 56 56
351 884 205 60 52 53
347 892 206 63 56 56
351 884 209 62 56 54
342 779 312 71 58 54
351 889 214 57 53 54
348 893 210 62 56 57
374 892 246 60 54 54
346 895 208 61 57 57
351 894 220 60 54 55
268 877 297 127 97 79
351 895 223 62 59 59
354 863 195 58 52 55
362 861 197 59 53 55
364 863 200 60 54 57
279 778 266 79 63 55
264 963 290 62 57 55
365 859 198 61 54 56
367 856 197 58 51 53
369 858 200 59 52 55
369 863 205 61 56 57
376 845 195 57 50 51
374 848 200 59 52 52
348 903 350 189 126 104
384 838 200 58 49 50
379 843 200 58 50 50
377 846 201 59 50 50
381 840 195 56 48 49
383 848 207 74 61 59
287 912 204 58 51 53
374 892 315 38 33 30
373 853 201 59 51 53
371 860 204 63 57 57
373 863 207 64 57 56
379 853 207 62 54 54
382 852 207 70 58 56
380 854 208 64 56 56
384 853 209 71 60 57
378 862 211 66 58 57
379 864 215 65 57 55
383 857 211 70 59 58
383 862 216 66 57 54
308 779 292 80 63 57
384 864 220 65 56 53
352 868 195 60 52 55
394 828 200 68 57 54
355 865 198 63 57 58
359 874 200 62 56 55
360 869 204 59 53 56
371 854 268 36 32 31
358 874 196 62 56 57
359 878 200 63 57 57
358 878 204 60 54 53
364 868 205 62 55 57
362 875 200 60 53 54
359 877 210 58 52 52
356 880 213 56 50 47
359 879 215 56 49 47
399 843 270 50 41 36
366 870 208 60 55 57
367 876 211 64 58 58
360 789 398 132 77 58
368 877 216 63 56 56
360 880 219 55 46 44
369 878 220 65 57 57
352 881 197 56 51 51
354 882 205 57 50 51
357 881 204 57 51 52
354 883 215 58 52 52
352 886 212 58 52 53
353 888 216 55 51 53
359 883 220 57 50 50
357 887 221 60 53 53
352 892 217 57 52 53
354 892 220 57 52 52
364 884 225 62 54 53
367 881 222 66 58 56
368 882 225 68 59 58
371 870 214 63 57 57
375 869 215 64 57 58
371 874 218 66 59 57
374 878 225 66 57 56
377 866 212 63 57 54
378 867 216 66 58 56
383 866 222 63 55 53
359 895 230 69 60 58
366 889 228 68 60 57
362 892 227 68 59 57
368 893 235 63 57 58
366 894 234 63 56 55
325 950 296 66 58 56
374 879 230 65 58 56
375 879 235 65 58 58
383 871 227 63 54 52
384 873 229 66 56 54
379 879 240 63 56 54
371 884 234 64 55 55
371 889 239 63 56 56
372 882 235 63 55 54
374 883 240 62 56 55
370 895 253 59 53 53
379 882 242 62 54 52
379 888 245 69 58 54
280 972 255 90 86 87
380 890 248 85 69 58
384 889 249 72 60 55
383 895 253 58 50 47
257 909 176 156 120 122
259 913 175 183 135 133
295 908 191 78 72 73
302 896 183 83 74 76
303 903 180 87 75 74
299 903 185 87 77 77
301 903 182 93 81 80
296 904 191 71 66 67
299 913 186 83 71 69
297 908 188 84 77 78
298 914 188 86 73 72
294 918 191 84 72 70
304 914 190 83 72 71
309 898 176 81 67 64
310 904 188 79 72 72
307 908 177 83 70 67
308 911 186 78 69 67
314 899 185 79 71 72
314 903 186 77 69 69
319 898 185 70 61 60
314 904 188 74 66 64
381 890 307 37 33 32
319 902 187 72 62 62
258 965 270 66 60 59
319 903 188 73 64 64
314 908 186 78 69 67
315 909 188 82 73 71
314 913 190 86 76 74
319 908 190 77 68 68
270 908 225 82 61 51
271 910 222 80 59 49
270 913 220 69 54 47
263 923 224 58 51 53
263 928 220 65 59 60
270 918 216 62 54 54
268 918 220 66 58 58
266 919 221 62 55 56
406 814 214 57 47 45
268 927 214 72 65 67
269 923 215 64 58 60
271 924 212 64 59 61
284 913 205 58 52 51
289 908 205 62 55 55
417 798 246 59 49 48
286 910 206 59 52 49
274 903 225 99 68 54
279 904 217 129 81 59
277 901 223 114 71 59
319 823 272 168 123 104
396 875 262 67 57 49
276 904 221 106 71 59
278 912 213 90 57 45
405 833 271 48 37 32
274 908 220 98 69 55
406 828 272 51 40 33
404 823 215 74 62 59
272 911 219 88 63 49
276 905 217 139 96 77
288 902 215 78 62 49
282 900 217 111 71 52
284 907 215 79 54 44
317 858 375 174 139 121
281 910 212 60 43 41
409 894 265 77 65 58
290 904 210 62 55 51
288 907 209 61 53 50
287 906 213 73 61 52
279 928 200 78 68 64
287 916 199 68 62 63
283 917 204 59 54 54
289 913 200 64 58 60
469 897 295 88 69 55
399 893 270 75 63 54
286 915 202 61 53 55
405 819 321 191 125 96
283 923 199 75 67 65
284 928 199 88 75 72
362 796 423 197 131 103
285 923 196 78 68 66
289 926 197 92 80 77
281 920 202 68 61 59
273 917 214 76 55 50
262 901 238 143 101 79
349 943 265 57 50 48
263 913 230 80 67 71
259 908 240 129 94 75
260 913 235 64 55 53
397 858 268 51 39 35
261 904 237 122 85 71
261 909 236 85 66 59
268 902 233 108 78 60
271 900 232 116 81 54
268 907 229 86 66 59
271 905 227 97 70 54
257 903 243 156 108 88
262 917 229 59 53 57
257 917 239 68 56 52
259 923 230 54 49 52
256 920 237 52 46 48
256 914 242 134 100 78
271 934 207 80 70 68
262 932 218 85 74 74
260 938 220 78 72 74
258 943 225 78 71 73
267 932 213 78 69 71
339 883 365 179 121 95
266 934 212 77 70 70
269 938 209 87 76 75
359 908 239 65 59 59
266 941 212 88 78 76
268 944 213 84 77 77
259 948 225 75 70 71
263 950 224 75 69 70
269 947 216 79 74 74
265 952 226 73 68 68
351 883 345 148 103 81
269 951 221 76 71 73
269 953 225 72 67 68
279 933 201 90 77 74
371 784 415 178 112 82
278 935 203 95 83 80
279 938 205 95 84 82
289 933 200 90 79 76
289 937 206 91 83 82
273 940 208 88 78 77
279 943 210 91 82 83
274 946 212 81 74 75
279 948 215 89 81 84
274 952 221 78 73 76
276 951 217 83 78 79
273 954 224 73 68 71
275 956 226 73 69 71
279 956 222 83 78 81
281 945 213 91 84 86
289 953 219 92 87 89
284 959 224 85 81 84
289 959 224 94 90 94
257 933 229 53 47 48
256 933 232 53 47 49
257 943 228 74 67 68
258 949 229 75 70 71
264 953 230 71 67 69
257 950 233 75 70 71
261 956 236 80 75 76
263 959 240 81 76 77
269 959 234 75 72 74
439 878 315 58 47 36
256 956 242 82 75 74
274 958 230 73 70 72
295 903 195 63 58 60
296 899 196 56 53 55
294 903 200 62 57 59
291 909 200 67 60 59
290 914 195 75 67 68
294 908 195 67 62 64
292 902 209 60 55 54
291 914 192 86 76 75
291 921 192 82 72 68
294 923 195 90 79 75
341 883 362 172 117 93
298 926 197 91 82 81
464 877 285 88 73 59
300 921 192 98 86 84
304 922 195 94 83 82
305 925 198 93 83 83
446 874 248 103 91 80
309 918 195 88 77 77
310 920 198 89 79 80
309 928 201 96 86 87
314 915 194 87 77 77
314 919 199 88 79 80
318 926 197 89 79 81
318 928 200 87 79 80
314 928 201 89 80 81
318 922 202 91 81 83
319 928 204 87 78 79
295 934 204 89 82 82
299 932 202 88 80 81
304 931 202 96 87 89
304 937 206 95 87 89
299 943 211 93 86 89
292 951 217 97 90 93
299 945 213 94 88 91
304 948 215 93 88 91
299 953 219 96 90 93
299 959 224 97 91 95
304 956 222 94 89 93
304 959 224 94 90 94
309 933 204 98 90 91
310 930 203 95 86 86
315 932 202 85 77 78
314 937 206 94 87 88
337 956 242 83 75 76
362 772 438 184 125 95
309 939 208 94 87 89
314 944 213 93 87 90
288 773 276 78 63 56
320 939 209 86 79 81
306 950 218 92 87 90
309 953 220 92 87 90
314 953 220 94 88 91
299 933 315 40 38 39
314 956 222 93 88 91
402 812 334 195 132 98
314 959 224 90 85 88
318 956 222 84 77 81
265 961 241 80 76 77
264 962 245 86 80 81
264 962 250 89 83 83
269 964 250 94 88 89
268 964 254 81 75 77
271 966 250 87 80 81
272 960 233 75 71 73
339 813 416 197 140 115
276 966 237 82 79 82
275 966 240 91 87 89
354 932 245 76 69 68
281 961 227 75 72 74
284 964 229 83 81 84
281 966 232 84 80 83
289 968 235 85 83 86
284 969 240 91 87 89
272 965 243 94 90 91
279 968 245 100 93 93
335 772 421 166 129 104
274 968 255 85 81 83
279 969 250 85 79 80
278 970 254 86 83 84
283 893 308 133 97 78
288 970 243 97 91 92
281 971 252 86 82 84
282 970 248 88 82 83
284 972 250 87 83 84
284 973 255 85 80 81
289 974 250 83 79 81
288 975 255 78 74 74
294 967 231 86 83 87
294 969 235 83 81 84
294 969 240 90 87 89
339 948 235 80 72 72
299 967 230 90 88 91
299 968 235 89 86 89
304 968 235 95 92 95
298 970 239 97 93 94
304 973 236 81 77 80
303 975 238 74 70 71
299 978 245 63 59 59
386 839 223 75 63 59
304 979 245 65 61 61
330 920 318 36 33 33
299 980 250 69 64 62
299 979 255 64 59 59
309 965 228 92 87 89
308 969 233 89 85 89
309 975 238 88 85 88
314 965 228 82 79 82
314 967 231 80 78 81
319 962 227 78 74 77
315 878 370 188 146 134
319 968 235 86 81 83
314 974 240 86 81 84
317 971 237 86 83 84
316 975 244 84 79 81
320 975 250 80 72 76
309 979 255 56 53 52
313 976 241 86 82 85
314 977 245 79 75 76
317 976 246 87 83 85
318 976 255 77 74 75
324 898 190 65 58 58
322 902 187 72 63 63
379 893 300 41 35 33
324 903 190 72 63 64
323 907 191 75 67 67
357 785 398 118 66 50
329 898 194 61 54 55
326 899 193 63 56 57
325 903 194 69 62 63
328 907 196 67 60 61
330 908 199 72 64 66
329 912 201 72 65 66
331 903 198 67 61 61
335 899 199 63 57 58
323 917 201 76 69 71
326 915 203 73 65 68
330 914 204 72 65 66
328 918 206 75 67 68
324 923 205 83 75 77
323 928 206 82 73 75
327 922 207 77 69 71
325 928 209 77 70 72
326 925 208 78 72 74
328 928 211 67 60 63
331 918 208 67 59 61
334 918 211 71 64 64
330 929 214 74 67 69
333 922 211 73 66 66
335 923 215 78 71 71
333 927 216 78 71 72
335 928 219 79 71 73
343 898 205 61 54 55
337 907 207 60 55 55
341 904 208 60 55 56
345 899 210 64 59 60
340 908 209 62 57 58
345 903 215 67 62 62
344 908 215 66 61 63
339 913 215 68 62 63
343 911 212 68 61 64
344 908 220 66 61 63
342 912 221 70 64 67
347 897 211 63 59 60
348 898 215 63 57 59
346 900 213 64 59 60
300 867 292 126 93 67
349 898 220 65 61 62
346 905 224 74 69 70
344 913 225 73 67 69
341 918 223 78 71 73
342 916 222 75 68 71
343 918 225 76 69 70
339 923 220 78 70 71
336 924 218 82 73 73
347 907 226 72 68 70
350 905 228 73 68 68
288 789 266 75 60 54
344 928 225 67 59 59
348 918 231 70 61 60
260 850 276 104 85 65
349 923 230 77 66 63
347 927 227 76 67 64
367 809 326 180 124 96
350 929 234 76 65 62
327 931 212 67 59 63
326 934 213 71 65 67
329 933 215 75 68 70
323 937 211 80 74 76
323 942 216 78 72 74
330 939 219 72 65 67
332 932 217 79 71 72
334 933 220 74 66 68
332 941 222 74 67 68
322 946 217 83 76 78
349 939 280 71 62 61
324 948 220 76 69 71
326 950 223 79 72 72
394 863 225 72 62 61
321 955 223 74 69 72
325 969 245 82 78 82
337 933 222 66 59 61
339 938 225 75 67 67
333 952 231 81 73 74
334 953 235 79 72 72
331 960 238 82 75 76
336 954 239 79 71 73
333 957 236 80 73 74
345 933 230 79 71 70
341 939 229 79 70 71
342 936 227 81 73 73
340 944 234 81 73 73
407 875 252 131 124 125
344 943 240 81 73 72
346 935 233 78 69 69
345 939 239 78 69 68
351 934 245 81 71 69
347 942 242 82 73 72
348 943 245 74 67 66
349 938 245 77 68 67
349 943 250 56 50 50
337 952 236 77 70 70
331 788 412 167 128 104
340 949 239 77 69 69
338 953 240 81 73 74
340 954 245 82 74 75
343 953 250 58 54 55
338 957 245 83 77 78
345 843 385 200 136 110
338 958 250 63 58 60
341 954 249 60 55 58
407 836 248 65 55 49
342 956 256 67 63 62
346 949 255 58 53 51
352 908 218 67 60 62
354 898 226 69 63 62
356 898 228 72 63 62
353 902 227 74 68 69
355 903 229 73 66 66
359 898 230 69 62 60
337 961 255 71 67 68
359 903 235 67 62 61
324 878 373 196 147 124
353 908 231 76 69 68
356 907 238 66 60 60
359 908 237 68 61 61
359 913 240 69 62 62
356 821 293 59 48 44
362 898 232 67 60 58
365 903 240 62 57 59
367 896 237 61 57 56
368 898 245 66 61 62
368 898 250 65 60 61
366 903 250 68 64 65
