ply
format ascii 1.0
comment Created by Open3D
element vertex 2211
property double x
property double y
property double z
property uchar red
property uchar green
property uchar blue
end_header
302 236 353 117 94 68
320 515 162 150 0 34
248 468 383 111 37 47
290 180 254 113 91 65
320 959 309 87 81 81
268 310 271 86 72 56
307 570 179 140 0 32
250 230 285 94 79 63
242 216 251 112 92 69
364 445 235 146 12 42
346 844 181 140 118 106
421 835 305 109 93 85
242 620 187 146 101 65
349 125 350 127 94 65
355 500 212 126 4 30
255 290 311 108 87 62
270 950 285 77 72 72
250 510 380 136 90 79
243 214 253 111 91 71
242 399 308 128 90 74
321 55 220 107 57 54
245 220 245 112 91 67
318 408 188 51 34 28
370 410 365 57 28 28
336 265 351 142 100 76
381 720 200 59 42 37
242 407 221 100 57 46
247 216 242 114 92 68
255 240 234 146 106 70
237 520 218 76 16 33
225 290 315 105 86 65
247 220 242 112 92 69
222 282 290 117 93 66
377 801 219 51 43 39
330 235 362 132 97 62
362 616 332 58 30 32
329 428 385 87 19 28
285 155 214 138 108 72
246 225 241 116 95 72
320 394 235 96 79 61
294 665 190 97 75 52
287 109 202 125 98 70
236 412 209 100 21 38
275 635 180 132 99 63
308 840 239 162 123 95
227 460 210 92 18 35
304 175 335 106 86 66
389 800 325 140 95 67
354 918 367 42 38 37
351 393 288 104 90 77
352 901 233 66 62 63
274 295 280 89 72 54
250 500 309 39 27 27
222 538 196 181 125 101
237 378 313 138 99 79
324 445 195 67 24 30
243 219 248 112 91 68
253 715 245 123 12 42
416 445 371 44 29 30
296 60 191 96 58 46
323 451 198 52 28 32
221 415 294 142 12 47
305 385 353 126 98 69
242 220 251 113 92 69
390 775 320 146 100 71
404 520 315 35 31 33
286 430 354 118 90 65
248 213 272 99 84 69
241 265 246 146 104 71
323 371 353 135 103 76
258 880 290 185 132 116
216 475 310 84 20 32
320 270 358 142 102 71
389 678 267 48 38 30
226 350 314 141 99 79
217 466 195 126 96 76
300 445 376 85 36 32
290 938 241 82 76 77
235 505 214 41 28 30
250 310 319 118 89 61
248 486 287 94 14 43
227 335 318 139 95 78
261 555 330 148 16 50
222 459 308 82 22 32
310 220 356 111 90 67
326 770 335 132 90 68
237 225 265 106 89 71
235 475 225 124 3 38
382 556 273 140 17 33
276 255 286 85 71 56
367 530 230 85 21 33
299 65 189 130 33 38
231 505 245 161 2 43
240 220 255 111 91 71
241 225 250 113 92 69
272 462 353 82 64 51
293 215 242 145 109 75
237 260 252 126 99 67
259 212 278 93 79 65
225 482 315 122 11 36
350 540 210 130 9 31
411 461 366 75 27 34
250 417 325 57 21 29
234 428 314 69 20 27
230 405 300 135 99 80
273 641 281 95 22 37
230 320 324 130 91 72
330 150 326 119 95 68
399 534 315 122 29 45
250 195 260 103 88 73
243 224 248 112 91 68
294 100 193 127 35 42
358 904 237 66 59 59
241 422 320 63 16 28
224 424 202 108 6 37
278 268 257 153 105 79
245 509 379 124 79 68
297 953 338 67 62 60
228 425 249 103 20 29
460 830 307 99 80 61
254 605 240 50 28 36
328 101 357 109 27 43
260 540 200 123 9 26
341 855 196 58 50 48
253 485 190 55 39 42
251 417 322 60 18 29
239 225 255 112 92 70
415 445 316 126 3 31
351 630 230 80 27 33
351 80 334 134 26 44
230 480 365 59 11 23
254 490 191 64 24 31
252 590 250 169 1 47
376 895 285 64 58 59
391 866 264 70 61 60
241 425 220 78 23 35
248 209 243 117 94 68
390 820 230 60 50 48
298 36 232 112 20 42
333 34 307 112 63 49
277 301 316 84 65 45
250 224 281 95 80 65
284 120 209 131 103 70
279 124 236 104 87 69
315 250 314 101 83 63
225 470 255 85 33 41
374 500 379 174 13 55
350 75 374 124 20 48
383 711 305 68 26 32
288 55 210 115 68 58
248 213 243 116 93 67
324 25 225 111 33 42
301 280 349 126 96 68
282 451 353 97 72 60
250 240 239 131 101 66
320 255 361 137 100 71
235 516 386 199 137 119
222 505 187 156 111 78
295 90 237 100 60 51
300 310 349 127 98 72
231 365 313 139 98 80
240 560 215 159 3 47
290 611 372 162 116 89
235 400 250 108 88 67
331 855 216 51 44 45
380 675 261 56 36 26
240 230 250 113 92 68
243 526 262 114 23 43
353 100 337 94 63 42
347 235 340 126 97 63
243 218 272 104 87 71
305 398 194 95 76 57
217 504 204 158 115 89
294 325 297 76 65 55
400 840 260 60 52 54
250 236 288 93 78 63
260 489 369 136 13 44
233 398 253 113 91 67
291 70 200 135 28 46
317 207 317 111 90 65
238 230 255 114 93 70
320 935 360 57 53 52
372 796 208 67 57 56
245 260 244 148 105 71
403 520 320 50 28 34
390 666 263 61 46 33
237 235 256 114 93 70
318 90 346 106 87 70
336 809 353 178 128 102
270 505 191 72 23 30
250 477 182 107 89 67
410 420 386 146 16 46
347 230 340 125 97 62
246 250 241 136 103 67
323 817 178 78 64 59
320 105 325 122 96 66
275 345 265 95 82 69
235 390 255 111 90 65
405 465 370 178 17 56
325 393 255 95 82 69
240 410 210 79 33 41
300 445 186 76 29 31
227 431 323 141 3 45
386 431 397 33 27 29
357 455 212 54 26 29
235 445 199 73 55 41
398 804 217 59 52 51
224 395 296 144 105 83
233 335 268 112 90 65
256 206 274 95 80 66
230 290 319 110 90 67
318 368 294 93 81 70
220 431 194 157 7 44
239 240 250 114 92 68
309 780 295 74 59 55
236 240 255 114 92 68
415 475 315 47 30 34
351 937 307 54 47 47
238 239 253 114 92 67
219 400 280 138 103 73
339 330 310 114 92 69
236 475 380 76 8 27
401 491 356 180 16 56
295 610 372 167 120 92
236 245 255 115 92 67
340 155 330 120 96 69
317 431 177 45 38 37
242 437 203 111 14 27
275 430 190 49 37 40
280 505 185 68 30 35
270 530 343 53 19 27
324 30 215 115 54 48
237 242 252 113 90 65
347 436 195 54 38 27
361 881 324 35 33 33
237 246 252 113 91 67
344 635 221 103 16 30
255 250 294 91 77 62
277 256 248 156 108 77
360 825 200 69 57 55
230 505 212 102 64 66
372 596 326 72 30 35
375 495 380 177 14 55
228 322 322 133 94 75
235 250 255 114 91 66
280 270 270 127 94 70
290 404 194 92 36 33
266 710 215 95 29 41
233 260 258 120 94 65
295 355 346 124 97 70
325 115 185 171 21 57
284 596 327 156 4 49
297 373 268 93 79 62
248 452 337 123 0 39
219 460 200 64 30 35
312 20 296 141 76 65
280 826 190 205 136 104
237 250 252 115 93 68
485 821 290 84 68 52
325 384 275 99 86 73
352 880 205 55 44 46
211 469 325 71 9 24
306 19 204 77 67 58
431 440 350 49 28 33
393 449 388 153 23 51
365 925 290 62 56 53
305 425 189 126 15 29
242 211 260 104 87 71
239 250 249 119 96 70
278 115 225 109 92 75
363 789 363 179 120 88
275 469 373 117 14 42
316 131 205 147 16 49
403 760 278 52 44 37
305 350 350 130 101 75
237 254 252 120 96 69
320 710 361 176 121 97
259 570 182 123 96 65
326 374 352 133 101 73
291 160 246 112 90 65
250 315 320 117 87 61
241 472 182 122 100 77
241 215 260 105 88 71
220 479 320 106 11 30
290 665 185 107 84 56
290 865 257 120 92 61
387 450 283 60 37 39
239 255 249 125 99 67
313 519 192 116 4 35
249 230 239 120 96 68
305 685 195 56 33 34
225 285 310 104 86 66
313 884 219 60 54 57
283 19 209 109 69 63
265 650 184 112 78 44
334 525 386 71 21 32
252 230 236 122 96 66
257 210 232 120 97 70
347 135 352 129 96 66
254 230 234 127 99 65
352 871 200 63 52 45
260 280 255 154 103 75
253 530 276 99 24 39
288 571 352 45 30 33
235 479 178 107 89 68
326 880 200 61 57 58
252 235 236 127 99 66
284 645 301 39 32 33
267 147 238 105 89 74
350 424 390 60 31 26
325 490 399 111 14 40
226 427 188 132 18 43
241 230 279 103 86 69
400 408 355 63 50 43
400 730 275 53 42 33
282 628 356 183 129 102
334 31 344 90 77 63
254 235 234 135 102 66
225 385 300 144 104 81
404 780 250 68 55 50
240 272 308 106 87 66
217 428 192 143 0 23
284 414 193 54 35 26
268 541 198 111 11 24
317 565 198 125 23 33
395 408 355 62 48 41
216 490 205 136 103 77
240 500 211 52 26 29
340 845 200 56 50 49
335 100 324 142 75 65
272 547 343 122 8 41
264 434 337 85 43 35
216 495 200 166 122 100
266 156 244 102 87 71
349 392 235 57 35 30
285 390 235 104 90 77
300 635 335 135 70 64
212 465 312 88 26 35
238 451 196 70 57 48
375 920 410 77 60 47
240 435 215 46 26 30
262 467 192 52 33 42
295 45 230 103 72 55
383 828 308 33 29 29
300 491 371 162 15 52
242 227 247 114 92 68
242 372 252 105 88 69
336 389 279 102 88 75
315 310 351 127 95 67
287 65 210 114 29 41
244 230 244 116 95 71
246 230 241 120 98 74
253 374 248 105 88 70
250 260 300 98 82 64
263 625 260 149 20 51
229 289 317 105 87 67
291 280 340 124 94 65
338 230 317 120 98 74
243 478 327 65 4 25
304 27 314 128 77 61
219 430 201 121 1 36
407 500 340 180 2 57
233 485 233 138 8 41
404 820 260 55 50 52
403 509 339 181 6 56
245 375 251 105 88 70
351 834 310 46 37 32
275 359 253 101 88 76
383 405 207 135 17 30
388 510 271 143 10 37
244 235 244 118 97 73
345 412 359 64 54 44
355 410 180 59 27 27
230 275 265 125 96 64
397 866 338 42 37 35
365 780 364 180 122 91
250 375 248 103 87 70
251 459 388 71 19 27
282 241 243 156 111 79
330 81 190 111 84 64
287 113 202 115 54 38
367 892 253 69 60 59
295 960 305 67 64 65
356 422 203 40 41 39
346 709 194 98 32 28
240 412 207 57 40 47
275 565 374 169 122 93
340 795 360 180 128 103
285 394 229 104 90 77
241 240 246 118 96 71
312 789 294 70 56 52
413 883 328 81 68 60
285 782 158 167 113 78
410 815 280 87 79 72
290 151 213 142 109 72
245 256 298 102 85 66
269 536 341 106 17 36
361 655 320 72 24 33
319 319 298 94 81 68
218 426 281 84 23 36
379 505 251 54 33 33
232 412 203 78 34 39
307 679 355 189 132 106
371 870 239 74 65 65
413 844 319 39 34 30
244 240 243 121 98 72
228 355 269 116 93 68
305 845 305 133 102 75
317 670 331 109 34 41
235 440 235 70 29 32
231 545 203 147 99 83
269 680 178 112 85 49
233 423 187 163 1 24
320 826 185 83 65 58
370 870 315 32 30 32
271 285 295 75 63 51
232 436 208 106 12 36
374 435 202 138 10 34
372 557 352 183 16 57
234 575 190 163 111 81
255 380 314 96 67 51
290 942 249 76 69 70
395 925 410 90 70 54
245 475 379 147 11 47
381 825 234 61 52 53
413 480 312 131 12 35
216 495 205 153 112 88
289 325 335 126 92 65
345 450 404 174 10 56
328 806 178 66 52 48
234 273 307 94 79 64
312 50 193 127 104 80
246 235 242 122 99 72
285 655 181 122 93 60
302 116 232 132 97 73
394 729 278 51 33 30
364 90 369 136 26 56
225 425 186 101 24 33
238 460 326 121 0 38
246 240 241 126 100 68
395 770 215 59 49 44
240 225 275 103 87 70
297 23 334 112 38 45
495 825 300 100 82 68
249 245 239 138 104 68
420 408 345 67 47 39
222 315 281 135 102 70
240 420 305 133 3 44
228 454 207 128 9 41
280 600 371 168 119 93
225 503 213 140 98 93
235 470 185 92 79 67
315 495 164 74 28 31
202 467 333 67 23 33
255 245 235 152 108 73
261 670 204 153 113 94
232 255 261 114 91 66
215 490 195 170 121 98
290 790 245 62 51 47
261 419 332 71 21 27
238 507 327 132 18 48
244 492 336 40 25 27
366 455 230 142 8 44
301 510 176 74 29 31
241 430 220 84 23 35
221 310 319 135 96 76
260 760 185 159 115 82
262 180 231 123 98 70
301 739 169 130 102 73
248 583 217 104 18 39
370 615 300 111 28 42
217 476 187 128 93 64
240 350 321 138 98 80
340 949 305 63 59 57
355 390 325 89 74 57
347 210 330 121 97 69
264 175 229 124 98 69
244 520 326 136 27 47
249 490 181 132 87 78
403 429 388 87 22 37
250 250 239 146 106 71
225 275 280 113 91 66
390 413 391 55 43 34
250 255 240 153 108 74
263 570 297 147 0 43
255 660 199 165 121 102
330 105 180 144 33 47
284 365 340 122 94 67
242 216 269 104 88 71
300 80 237 106 23 38
255 345 256 99 85 71
217 489 213 157 110 98
363 712 342 120 87 64
318 179 357 113 91 66
223 395 268 121 95 65
374 920 360 58 48 53
315 750 334 78 32 38
317 724 348 182 126 100
320 925 224 91 81 79
340 465 403 79 25 36
245 445 200 55 36 28
351 100 335 113 52 44
310 225 356 114 92 68
369 680 315 60 27 32
255 250 236 156 109 75
363 397 247 61 27 30
308 594 191 49 36 37
221 295 314 112 89 66
264 160 245 102 87 71
294 70 195 119 89 66
366 714 326 136 0 41
240 415 230 129 9 39
296 165 220 155 111 79
350 408 180 66 28 27
283 312 296 77 63 47
291 60 196 127 49 49
345 450 159 166 17 37
331 907 350 41 36 36
333 108 186 148 16 40
255 255 239 159 109 76
385 405 340 63 44 40
315 790 300 67 53 49
268 670 256 149 0 43
237 448 198 60 50 45
312 500 193 43 23 29
367 475 232 56 17 32
245 408 218 94 80 66
392 770 311 142 100 72
250 425 210 64 38 38
227 291 318 109 89 66
312 170 327 115 93 68
357 659 229 89 27 32
386 810 320 134 91 65
387 447 392 67 26 29
245 305 320 115 85 60
320 16 300 141 70 59
370 416 404 90 26 35
260 485 369 131 8 42
272 818 177 219 153 122
264 400 311 79 56 42
414 740 255 69 54 46
392 755 219 64 51 44
224 465 255 113 25 42
243 245 243 124 98 67
335 250 315 118 96 71
221 355 305 143 100 79
296 838 289 95 75 51
217 445 201 54 31 35
320 445 169 62 36 34
262 942 303 50 47 48
411 500 325 111 14 37
330 95 321 133 20 36
392 786 296 59 47 39
352 452 176 115 3 38
275 160 251 102 85 66
236 484 349 74 11 27
335 410 175 79 35 28
240 414 205 81 28 35
255 415 325 81 18 30
241 245 246 120 97 70
233 465 233 118 11 38
300 429 361 78 63 45
235 385 255 111 90 66
363 918 325 62 55 56
395 870 285 65 56 55
230 465 304 73 12 29
370 910 305 61 54 52
241 236 284 101 84 67
310 430 185 69 34 32
349 685 355 140 102 70
282 779 239 75 60 54
298 580 178 128 20 32
231 490 265 95 29 42
233 434 308 76 21 31
320 115 349 113 93 71
246 245 241 130 100 66
265 700 210 141 94 82
230 525 184 139 105 70
331 925 225 87 79 78
495 815 285 96 74 53
355 109 345 130 65 60
255 495 340 79 14 31
282 406 348 123 95 71
402 862 289 84 68 62
243 250 244 129 99 65
450 820 290 64 47 40
341 205 323 117 96 75
290 565 355 28 25 26
237 544 213 165 0 51
324 662 202 70 27 28
345 715 366 161 111 80
227 436 247 47 31 34
254 605 235 110 31 45
233 475 233 126 9 40
305 320 351 131 101 75
256 364 253 109 91 71
216 519 375 197 130 118
300 40 189 124 28 30
257 555 279 149 0 44
338 836 194 63 54 51
325 75 195 118 102 83
234 394 254 112 90 65
305 680 321 131 0 40
295 615 372 164 118 90
361 896 333 38 35 36
232 488 268 33 31 33
290 445 385 80 25 32
374 535 364 34 28 33
325 680 365 157 109 81
241 255 246 130 100 65
272 665 269 157 2 47
261 460 305 56 22 28
229 491 389 109 61 54
282 121 238 104 85 66
320 100 350 110 70 59
355 440 404 167 13 52
260 245 290 91 77 62
291 405 353 113 90 64
244 255 244 137 102 66
355 470 400 88 23 36
385 535 270 107 23 40
235 460 188 112 94 75
247 510 387 168 116 100
246 255 242 144 105 71
367 524 227 44 26 24
233 456 287 135 11 43
220 415 265 119 18 38
300 250 351 118 93 65
371 75 365 121 21 46
245 335 260 105 87 67
348 435 211 58 35 30
335 625 350 53 26 30
413 839 307 65 60 57
250 466 375 66 25 29
221 365 276 118 93 65
270 630 280 81 35 42
394 445 295 66 28 32
331 70 359 100 16 35
224 460 265 100 28 40
330 13 315 95 62 48
321 440 171 42 35 40
310 14 225 91 58 48
275 190 220 144 109 70
242 629 198 172 122 100
250 360 253 106 88 70
295 510 184 86 26 31
342 540 208 58 29 33
320 45 309 124 33 38
262 618 226 150 24 52
252 191 259 103 88 73
233 239 275 109 90 69
310 175 351 114 93 71
238 415 215 130 3 42
305 315 351 129 100 74
256 505 339 52 25 30
358 588 353 132 28 51
412 841 308 66 61 57
330 46 359 88 28 32
258 326 318 118 85 65
319 879 214 58 54 55
256 186 259 100 85 70
288 746 280 78 61 55
230 465 275 168 1 49
272 170 222 125 100 71
371 910 275 67 59 58
303 958 319 59 55 54
255 560 370 175 123 98
255 240 289 92 77 63
287 650 183 128 97 63
340 330 315 116 93 68
294 935 341 42 40 41
253 188 257 103 88 74
262 939 276 61 58 59
405 879 339 91 74 64
333 145 327 119 96 68
357 496 392 169 14 53
235 310 326 128 91 71
335 730 366 170 116 92
231 485 365 142 7 45
231 325 324 129 91 73
305 12 240 105 53 50
220 470 200 68 48 45
250 460 340 121 0 39
358 938 284 54 49 46
335 540 204 105 20 33
353 904 183 73 59 48
255 190 260 101 86 71
225 460 206 86 19 33
343 613 353 181 16 53
350 416 405 93 26 33
320 393 240 94 79 62
348 365 315 98 83 68
250 270 305 104 85 64
248 560 245 106 23 39
361 415 182 39 26 31
235 412 205 76 34 40
355 408 352 63 54 43
398 494 359 135 13 45
364 885 176 97 80 68
323 87 177 113 26 22
282 477 182 86 36 42
219 484 205 77 57 44
354 595 220 172 20 45
300 885 329 174 127 108
239 220 260 106 88 71
367 782 193 63 51 47
386 496 372 44 28 29
330 220 362 126 97 62
292 678 183 111 90 64
341 620 219 147 11 36
264 493 364 47 28 23
329 805 310 70 56 54
235 420 190 96 12 33
221 455 191 115 92 67
293 707 172 116 93 65
290 700 320 135 3 41
220 420 199 70 24 32
241 215 265 105 88 71
308 200 352 116 94 70
297 723 173 126 98 69
255 600 178 136 103 64
255 445 305 85 17 34
395 788 216 76 60 57
222 335 281 124 98 66
374 695 314 54 25 30
386 740 209 49 39 34
428 444 327 74 18 31
245 220 275 99 84 68
377 678 266 96 26 39
238 225 260 109 90 71
458 823 300 95 76 60
227 318 323 132 92 75
392 515 279 150 16 39
313 89 228 125 104 87
261 915 305 178 136 113
231 555 187 149 105 72
238 223 265 106 89 71
219 489 352 152 17 49
238 224 271 104 88 71
225 395 265 119 94 65
209 455 315 84 15 30
375 715 320 136 3 41
364 52 352 111 95 77
309 549 171 171 0 37
395 770 220 54 45 42
220 400 285 142 104 77
246 201 260 104 88 72
298 200 340 115 94 71
330 850 291 128 96 73
308 520 168 58 25 32
386 545 275 160 21 47
365 886 190 89 74 64
252 594 260 170 0 46
254 464 383 42 26 29
346 125 339 122 98 70
268 595 306 52 33 35
470 801 285 78 63 49
244 205 260 104 88 72
384 788 212 60 49 44
356 75 339 131 92 79
294 439 366 57 47 36
324 525 196 146 0 37
234 480 230 131 1 40
300 50 189 103 31 30
341 190 356 125 96 61
285 125 240 110 88 64
229 255 280 109 89 67
295 260 320 102 84 65
262 160 235 107 90 73
331 750 359 177 123 97
280 180 218 142 107 69
245 250 295 101 84 66
349 855 283 42 32 26
270 365 249 99 86 74
376 867 159 105 96 88
250 650 199 170 123 101
346 210 350 122 95 62
400 860 340 47 41 38
219 460 195 130 89 75
342 828 315 41 31 31
234 280 259 149 104 75
240 460 189 85 70 55
335 650 211 69 30 31
325 510 176 43 27 28
247 202 263 102 87 72
315 435 404 100 26 38
250 401 235 105 92 79
471 785 246 99 88 78
339 790 361 182 130 103
234 336 322 132 92 77
319 770 325 74 58 51
275 380 325 119 81 59
315 590 201 66 30 36
436 851 320 92 74 61
243 542 366 191 130 105
295 21 195 109 74 50
255 375 246 105 89 72
245 535 265 70 28 36
276 955 270 83 78 79
313 124 334 110 89 66
224 455 270 72 27 35
364 690 190 81 61 45
292 550 358 44 22 25
325 470 180 74 15 31
235 431 194 161 10 41
315 963 303 71 65 63
295 625 371 166 119 92
249 420 206 76 37 39
295 640 369 170 122 95
246 206 264 103 87 71
349 635 226 106 20 32
310 325 351 133 101 72
246 488 344 128 9 43
303 190 347 115 94 72
237 416 237 118 15 34
270 246 288 85 71 57
218 511 382 170 121 100
325 60 355 108 18 40
266 415 201 47 38 37
509 823 282 126 103 82
300 450 400 129 16 44
232 256 289 109 89 68
247 207 268 101 86 71
231 435 295 58 24 31
223 474 202 46 39 39
312 680 337 136 87 72
228 268 292 108 88 66
248 199 261 104 88 72
242 268 247 150 106 74
232 412 202 77 35 38
292 274 343 125 96 66
222 290 285 123 97 67
420 455 360 103 25 40
259 770 185 159 116 83
305 50 189 122 82 56
355 411 160 162 18 19
250 200 265 101 86 71
361 932 355 69 60 65
230 414 200 60 35 35
494 821 285 85 66 49
268 144 235 104 89 74
240 525 380 197 139 114
237 437 232 50 31 35
529 821 260 104 85 67
221 305 290 124 96 63
418 868 322 104 83 68
251 273 247 164 110 77
450 849 330 98 75 57
254 288 257 153 101 74
252 196 263 101 87 72
320 660 364 135 93 61
376 495 249 61 34 31
360 105 350 132 19 43
360 876 175 103 86 71
280 915 330 164 125 105
393 505 282 147 12 39
337 299 337 125 97 67
310 744 174 111 87 59
244 224 276 100 84 68
387 410 288 53 25 30
292 245 343 119 95 67
338 667 358 145 100 70
233 371 312 141 100 82
325 205 362 119 94 65
253 193 262 102 87 72
401 403 326 64 48 44
258 694 234 51 34 38
306 26 242 134 18 51
227 373 308 140 101 79
258 717 191 167 113 85
238 430 212 59 30 32
247 524 268 83 22 38
315 920 215 91 81 80
255 195 265 98 83 69
257 709 198 169 117 92
245 290 315 114 90 63
267 665 250 151 1 43
282 530 348 30 25 26
360 510 386 133 23 49
223 390 297 146 105 82
253 484 187 80 44 49
293 174 222 152 110 79
230 470 185 106 89 71
285 940 335 49 47 47
250 275 249 165 109 79
218 370 290 139 103 74
378 677 277 43 34 30
345 931 325 61 53 56
242 293 317 111 88 61
231 440 325 128 2 40
276 235 282 84 70 57
219 495 189 158 111 87
370 917 382 54 47 43
224 446 302 58 22 25
331 800 345 177 130 103
245 456 195 78 66 53
256 191 263 98 83 69
303 666 349 166 122 102
355 860 200 56 47 44
407 511 315 90 30 36
270 270 295 76 64 52
219 330 295 125 96 65
392 745 281 83 25 33
238 502 382 95 54 42
290 555 189 74 27 34
222 305 281 131 102 68
367 58 367 95 27 35
326 57 313 141 101 75
311 886 221 59 55 57
315 400 355 108 87 63
254 199 267 97 82 68
366 625 315 137 21 45
292 798 243 56 44 43
255 201 269 95 81 66
350 500 211 113 1 23
260 200 271 94 80 65
250 246 293 94 78 63
297 749 158 133 103 68
240 430 215 78 24 33
249 204 266 101 86 70
255 395 239 107 92 77
251 445 203 44 31 35
324 16 339 88 76 64
311 120 220 121 31 48
311 580 195 79 28 33
250 279 252 166 109 79
210 475 340 59 10 21
240 440 201 82 23 31
373 858 232 63 56 58
238 425 212 86 18 30
242 628 187 160 109 77
219 425 285 123 17 42
340 500 398 169 15 54
326 407 358 97 79 60
305 401 191 117 28 27
292 560 187 70 33 36
363 793 192 64 53 48
252 202 268 99 84 70
228 260 275 113 91 66
245 480 307 74 23 30
316 156 327 117 93 65
335 596 362 178 12 57
295 11 320 95 38 39
284 206 268 92 77 62
233 492 266 80 26 40
279 720 305 58 29 35
254 204 271 96 82 67
285 449 389 67 24 33
232 265 261 125 97 64
354 860 190 97 82 68
287 272 332 113 83 56
234 505 235 150 0 41
315 760 169 124 94 58
393 778 308 117 84 61
360 880 174 98 80 65
239 229 276 104 87 70
395 401 305 74 34 39
389 795 300 55 45 38
310 21 205 92 81 71
378 553 257 141 18 52
369 425 246 97 5 27
272 645 214 93 63 63
339 960 275 79 73 74
237 488 338 85 0 36
267 619 284 143 23 52
444 875 394 101 84 68
220 440 197 115 22 38
220 484 360 96 37 39
325 705 365 169 117 92
252 207 273 97 82 67
225 452 192 98 80 58
278 615 360 186 130 103
277 243 282 85 71 56
234 415 301 140 9 44
225 455 189 118 94 67
255 350 254 102 86 70
268 542 373 148 104 86
316 460 186 96 0 34
210 460 315 89 22 35
294 190 230 151 111 79
370 407 350 61 41 38
271 665 220 95 27 40
332 947 317 58 53 53
335 365 300 98 86 74
243 208 260 104 88 72
244 209 265 104 88 72
380 445 396 70 24 33
320 460 183 92 1 34
241 375 252 107 88 69
250 335 321 125 90 69
218 421 286 151 3 46
375 416 400 89 21 30
308 892 328 127 95 75
425 880 325 98 81 69
334 565 207 78 28 34
242 211 264 106 89 72
329 780 345 176 129 101
239 536 370 193 135 107
245 395 245 105 89 71
252 610 208 146 103 85
252 428 213 52 25 33
325 470 404 70 23 31
230 265 265 123 96 64
292 217 262 121 96 68
355 845 195 63 55 54
384 923 400 91 74 56
269 335 316 75 53 33
244 430 337 116 5 37
315 105 340 113 93 71
260 550 376 184 132 108
250 215 275 97 82 66
321 28 302 145 55 56
265 945 285 74 69 69
320 13 310 125 72 58
376 886 188 91 68 58
238 388 253 110 89 67
270 660 225 144 12 44
340 419 408 90 22 36
295 405 355 110 87 62
410 890 385 74 61 51
280 115 215 119 96 70
365 445 401 138 17 48
243 213 267 105 88 72
290 410 354 115 90 65
238 430 233 105 21 36
320 954 315 73 69 69
330 115 355 115 91 67
397 726 218 77 60 47
260 515 311 63 28 31
337 504 203 94 25 27
221 375 299 144 103 82
330 845 290 144 108 85
338 822 321 133 98 78
261 195 230 118 96 72
246 211 269 102 86 70
230 310 325 131 94 74
350 915 365 40 37 36
221 405 265 104 85 63
298 170 230 130 100 67
255 335 319 122 87 66
328 605 207 57 31 35
314 785 167 151 106 70
230 295 321 110 88 64
383 697 293 140 14 41
244 215 270 103 87 71
305 575 359 64 25 30
217 440 200 92 20 37
400 822 240 56 50 50
352 70 333 141 29 42
253 535 192 68 50 32
232 499 254 72 24 35
237 504 328 137 23 47
239 473 183 107 90 73
223 483 376 93 76 57
219 365 295 143 105 77
291 397 220 104 90 76
216 411 285 121 37 44
305 680 196 57 34 35
255 520 194 66 32 37
229 390 260 115 92 66
251 216 278 95 80 65
455 830 315 63 47 39
328 95 357 111 76 60
375 395 300 91 47 43
310 36 237 120 32 50
242 221 274 102 86 70
319 120 209 130 15 49
319 56 313 140 62 54
325 410 358 92 75 56
227 396 261 118 94 66
246 222 278 97 82 67
280 890 321 114 86 73
242 555 259 84 24 40
265 305 314 90 73 54
230 410 250 77 26 34
420 825 315 50 42 34
334 84 322 126 29 41
231 380 309 141 100 82
293 817 222 74 61 57
372 510 244 114 4 36
245 225 280 97 82 66
407 860 303 105 87 85
347 155 345 122 95 62
313 712 342 141 97 73
239 425 191 73 34 34
369 843 309 46 39 33
370 677 202 100 68 44
319 45 230 119 40 52
232 287 318 110 89 67
373 689 200 64 51 42
310 16 300 150 89 71
214 470 315 109 12 32
250 320 320 118 87 62
299 655 317 117 14 43
399 892 362 80 65 57
320 84 178 101 60 36
313 699 335 109 39 43
225 505 365 113 72 58
240 365 255 108 89 69
250 395 241 100 88 75
280 215 230 150 108 72
480 783 244 79 68 58
324 118 187 178 22 52
408 759 261 67 54 43
220 295 300 111 88 61
265 256 293 83 69 55
335 393 235 86 67 54
422 456 356 148 24 53
218 446 198 47 33 34
230 265 295 103 85 66
370 610 280 68 27 34
240 515 312 78 27 36
251 211 274 97 82 67
255 275 306 98 80 61
255 210 275 95 80 65
345 595 360 175 13 56
279 700 300 86 25 37
220 489 386 112 88 68
321 871 216 54 49 49
205 480 350 79 1 24
261 540 289 82 21 35
252 481 184 139 92 78
295 590 185 135 7 31
233 466 281 163 1 47
385 665 255 53 41 32
322 41 215 87 48 42
310 345 351 135 104 76
255 270 304 95 78 61
470 820 305 84 65 52
254 213 277 95 80 65
305 15 210 69 60 54
325 906 329 35 34 36
255 215 279 94 79 64
368 728 182 79 61 49
335 941 360 80 72 69
248 219 277 97 82 67
256 730 230 139 14 46
335 470 160 153 16 35
320 12 315 104 72 59
434 830 304 61 48 43
256 396 312 99 70 52
260 775 195 167 124 92
254 247 293 92 77 62
435 430 340 120 20 37
255 260 240 161 108 76
340 450 210 47 38 32
305 105 184 146 14 40
322 76 348 89 65 52
250 475 184 100 84 66
368 88 364 138 20 55
228 265 270 118 93 65
247 543 183 134 104 70
250 220 280 94 80 65
336 570 208 37 35 35
313 852 308 133 100 73
255 223 282 93 79 64
327 799 315 65 52 50
220 485 311 148 12 38
294 346 288 77 66 56
226 426 203 111 9 38
266 584 183 124 96 66
239 235 281 104 87 69
230 300 270 126 96 64
225 510 186 160 113 83
224 460 311 85 16 33
231 480 236 133 9 40
314 85 335 112 93 72
348 135 349 125 94 63
400 725 275 52 41 34
291 45 224 91 47 40
227 300 272 127 99 66
241 284 256 159 107 78
373 921 366 66 56 62
320 125 350 111 91 70
228 404 297 141 104 82
244 343 323 133 95 77
237 226 261 108 90 72
245 370 317 133 96 77
239 450 215 78 23 33
360 842 290 34 28 24
256 272 248 166 109 79
450 820 324 86 66 52
340 908 335 32 31 34
349 938 363 89 85 85
310 45 330 116 88 68
322 86 353 93 37 37
290 824 176 216 142 114
236 489 177 171 119 94
405 924 411 84 67 56
325 500 196 46 36 32
346 394 341 100 81 60
237 230 260 111 92 71
288 600 332 159 5 51
322 789 319 66 52 48
415 475 350 133 25 49
237 231 257 113 93 72
340 790 170 64 52 49
240 240 285 101 84 66
249 595 225 78 32 37
298 127 199 145 30 49
298 203 340 117 95 73
225 480 180 155 113 80
240 370 254 108 89 69
281 585 373 169 123 93
333 787 352 177 130 102
305 75 185 78 44 29
343 370 302 98 88 76
268 158 247 100 84 68
301 335 348 132 101 76
306 719 183 66 33 34
355 735 367 167 115 85
264 620 270 122 28 46
304 766 310 81 64 59
385 864 311 39 35 33
310 355 290 86 75 64
238 228 258 112 93 72
224 445 250 111 13 34
215 475 190 123 93 66
397 823 287 31 30 30
450 814 320 69 56 42
243 302 263 126 93 63
236 230 265 107 88 70
334 495 174 48 24 34
236 230 270 105 87 69
226 445 246 106 11 31
352 640 228 115 15 33
317 64 193 110 95 79
270 560 197 51 32 35
365 874 296 35 33 33
358 56 341 80 34 20
237 523 236 53 37 40
237 226 269 105 88 70
315 695 360 178 122 98
232 246 266 112 91 68
385 871 170 106 89 72
233 475 230 128 3 41
236 235 260 111 91 69
246 440 338 119 1 38
300 410 356 106 85 61
329 39 307 136 21 40
314 465 169 133 8 30
255 441 338 110 5 33
234 235 265 107 88 69
262 462 370 76 37 33
333 580 207 146 10 37
372 605 305 79 26 35
245 565 220 142 0 41
241 295 262 143 99 73
335 320 340 129 97 70
390 865 260 62 55 56
235 240 260 112 92 70
340 335 315 114 92 69
238 425 233 47 28 34
270 570 325 144 14 43
335 565 373 53 26 29
290 456 386 88 19 34
219 315 310 141 97 73
276 490 186 132 4 29
234 240 265 110 90 69
235 430 210 72 22 31
325 510 196 58 27 33
321 65 349 87 35 37
233 240 270 109 89 69
266 254 292 84 70 55
322 121 200 142 11 49
360 70 340 127 34 40
235 240 280 107 89 69
336 95 195 123 17 45
307 524 188 76 13 28
339 320 330 121 95 65
299 120 234 128 96 72
250 244 292 93 78 63
295 320 345 128 97 72
300 735 171 128 99 72
354 640 231 118 12 35
232 250 265 113 91 67
332 72 318 131 102 75
235 416 196 104 23 21
239 490 224 131 5 40
264 546 362 138 82 71
345 250 330 124 98 68
237 236 279 106 88 70
325 505 196 54 34 29
331 810 320 55 48 48
238 417 197 113 11 21
224 430 253 105 16 31
395 665 245 84 58 46
280 845 305 157 116 98
321 755 173 123 93 57
396 445 299 93 24 32
243 465 291 77 22 36
338 315 335 127 97 68
238 238 282 103 86 69
412 727 257 53 42 33
256 415 315 85 16 31
246 488 351 54 21 29
219 345 295 129 98 66
231 255 265 113 91 66
265 185 264 95 81 66
244 590 206 147 103 84
251 458 343 119 0 39
334 70 170 120 61 63
368 883 242 65 60 64
231 250 270 111 90 67
281 700 305 114 15 40
342 38 335 79 56 43
278 704 302 68 21 32
245 455 296 88 14 34
370 914 280 58 52 49
248 473 359 51 26 23
311 881 230 48 45 47
245 480 181 97 82 66
222 290 290 125 96 66
248 574 217 43 33 31
223 419 258 111 21 28
234 370 259 112 91 68
262 940 285 75 69 68
236 415 210 127 4 40
245 489 360 69 21 31
239 249 291 100 83 64
230 255 270 113 91 66
325 170 359 114 92 68
315 715 183 99 25 26
392 531 341 178 20 59
388 440 286 114 18 31
385 402 325 62 51 44
234 245 260 113 92 68
378 589 295 77 35 38
249 460 297 108 8 34
349 460 165 126 14 36
271 392 231 104 91 77
383 455 265 60 30 32
233 507 238 153 0 40
374 403 326 64 52 44
390 795 325 143 99 70
273 315 316 79 58 43
344 70 325 130 87 71
292 442 368 55 45 33
233 245 265 112 91 68
256 371 247 104 88 71
360 910 250 66 59 58
294 386 246 108 94 80
345 255 335 128 99 65
277 275 285 94 75 54
255 226 283 93 78 63
232 241 271 109 89 68
314 100 335 114 93 70
254 460 307 52 23 35
225 440 306 75 21 25
326 956 306 72 69 69
415 700 255 63 51 39
268 561 320 93 25 38
383 414 211 150 15 48
233 250 260 114 92 67
230 490 180 157 110 83
418 454 363 147 21 51
262 748 244 65 24 35
296 630 340 142 93 75
279 371 247 100 87 75
345 155 335 119 96 69
305 50 237 103 30 40
210 470 335 61 6 24
307 210 353 116 94 70
255 470 307 37 31 29
227 369 308 141 100 80
288 172 253 110 89 66
340 45 355 94 84 73
313 26 202 117 97 75
247 443 203 50 34 31
255 610 178 140 101 62
237 446 232 83 22 34
300 859 317 140 111 82
398 533 296 174 18 45
288 18 203 104 53 39
245 521 313 103 23 35
233 249 263 113 92 67
360 885 190 96 78 66
226 490 181 161 112 83
285 460 183 132 4 31
335 70 179 132 51 55
431 425 329 126 7 30
267 670 235 42 36 38
307 13 225 88 57 48
233 255 259 116 92 66
300 14 205 60 53 48
435 825 325 68 54 43
232 252 262 113 91 66
235 415 200 89 24 35
231 245 275 109 89 68
345 370 340 118 93 66
320 50 310 130 17 40
352 947 280 57 52 49
284 415 351 122 95 70
249 418 324 50 22 27
314 125 214 121 17 44
232 246 279 109 89 68
255 360 319 120 86 69
313 833 282 107 85 63
250 535 375 180 128 104
235 445 209 95 19 37
307 610 194 58 36 42
221 430 203 120 0 35
229 375 264 115 92 66
234 485 379 142 26 47
275 393 228 103 90 77
365 31 363 86 36 32
317 957 312 87 83 83
309 428 362 63 54 44
229 255 275 110 89 66
316 521 177 72 10 33
252 490 189 47 28 30
239 430 230 104 22 39
340 384 294 102 89 78
232 251 284 108 88 67
232 241 274 109 90 68
298 156 238 121 97 71
375 675 300 135 12 43
385 410 280 134 7 37
267 930 261 60 57 58
325 74 317 134 20 38
254 361 252 106 89 71
367 806 357 171 117 89
270 445 341 109 73 55
233 243 277 109 89 68
386 490 270 145 10 40
281 640 300 63 31 37
321 565 368 155 16 49
312 60 335 104 66 55
290 15 249 122 80 64
250 430 210 59 33 34
374 670 265 52 31 31
403 868 297 85 66 63
257 720 230 163 3 46
260 375 314 88 62 44
328 65 356 107 40 48
293 13 209 80 62 59
240 485 176 125 97 72
295 24 320 133 20 49
308 584 182 41 34 36
320 440 404 54 27 29
313 109 219 119 75 61
365 861 180 110 91 73
233 244 281 109 89 69
285 475 183 124 14 31
250 530 270 94 25 39
220 495 214 162 116 108
235 245 285 105 87 68
295 838 285 93 73 50
235 335 266 112 90 65
250 300 261 132 94 65
315 395 215 97 64 52
298 174 239 127 100 69
234 415 244 104 17 34
274 640 215 119 56 57
222 352 277 116 92 64
314 500 164 142 10 34
400 405 335 64 50 45
244 502 386 102 51 48
225 495 310 156 11 33
239 375 254 108 89 68
308 757 327 93 44 47
216 470 195 126 96 74
335 235 316 118 96 71
267 700 216 84 28 38
333 642 353 135 96 70
255 370 248 105 89 71
313 516 192 107 9 33
238 244 286 101 84 66
317 64 344 101 56 51
305 40 236 109 38 45
245 360 255 105 88 70
388 505 271 144 10 40
367 602 332 72 30 38
359 706 341 119 83 61
238 363 258 109 89 68
233 491 385 111 55 57
370 550 360 132 21 46
320 275 309 103 88 72
236 330 266 115 92 64
240 440 215 65 26 34
285 431 187 85 28 33
240 525 220 127 3 38
332 738 363 176 119 97
225 460 245 123 14 36
257 215 232 123 97 66
401 800 255 66 53 52
273 253 242 154 105 75
234 410 244 97 20 30
309 380 280 86 74 61
375 923 405 65 54 46
234 249 286 105 86 65
236 499 384 86 69 51
233 253 287 107 87 66
230 490 375 53 18 27
330 398 205 91 31 31
237 247 288 100 82 63
375 900 341 49 43 42
348 463 174 35 22 29
242 227 278 101 85 68
367 895 254 73 65 63
296 55 191 130 31 36
269 655 265 130 15 45
341 485 209 91 6 27
221 445 255 137 12 40
245 481 366 128 2 40
352 887 323 35 33 34
244 229 281 98 82 66
363 458 398 172 9 61
292 535 358 107 10 36
238 410 238 117 21 28
273 632 287 105 41 52
246 231 284 96 80 64
251 226 283 95 80 64
350 375 305 94 83 71
289 381 246 107 93 80
286 40 205 120 42 47
304 670 355 191 134 110
254 398 313 102 73 55
255 495 192 89 12 28
405 480 360 163 14 52
348 125 341 120 96 69
286 451 374 96 34 37
254 471 187 76 64 51
315 45 234 120 21 46
420 825 305 80 69 60
307 561 178 143 3 32
370 855 225 71 63 64
255 230 285 92 78 63
226 275 295 112 90 66
206 491 375 110 92 72
229 470 270 108 23 41
288 586 373 160 116 84
202 470 331 72 32 34
217 426 198 72 22 30
291 225 265 121 96 68
287 640 355 184 129 101
224 310 321 130 93 73
289 25 236 121 93 69
374 869 300 35 32 32
277 392 338 124 92 66
250 234 287 92 78 63
247 386 247 102 87 71
340 40 350 93 81 68
322 23 219 109 50 47
255 234 287 91 77 63
370 815 349 170 114 87
415 921 415 83 67 53
307 160 336 107 88 66
330 466 182 73 13 30
342 241 352 133 97 68
403 454 378 100 32 43
240 245 289 100 83 65
273 448 342 115 78 61
238 420 234 114 16 36
220 470 306 54 27 31
348 840 177 145 111 91
328 397 207 91 32 30
221 430 256 111 18 36
318 16 238 90 49 42
412 705 249 57 47 40
349 370 315 94 81 67
286 40 210 108 48 46
370 515 240 130 6 31
293 21 325 119 40 50
379 575 320 97 23 40
287 148 212 137 107 72
236 251 289 102 83 63
290 135 210 138 106 71
305 245 355 117 92 65
391 480 284 89 22 34
240 360 319 137 97 80
257 613 235 93 15 31
362 399 207 80 33 25
290 255 340 120 95 65
353 558 373 185 18 63
299 545 179 131 11 33
281 100 215 90 63 47
248 473 378 162 15 51
331 100 179 141 22 43
293 725 166 122 95 63
298 555 178 41 33 31
219 420 190 84 32 37
289 883 253 99 77 50
254 600 250 129 9 42
234 254 291 105 86 66
411 435 381 103 21 40
386 790 229 78 60 53
225 440 199 91 16 29
308 40 325 123 12 42
240 390 310 129 92 75
248 576 260 65 32 38
241 251 294 102 85 67
375 394 275 73 31 25
315 435 385 87 32 31
290 460 183 129 12 28
291 440 364 62 49 34
300 26 241 131 28 53
261 579 184 126 95 63
240 264 301 107 88 68
240 255 295 103 86 68
353 646 227 103 18 28
313 706 350 182 127 102
315 424 398 103 21 36
334 315 305 112 93 73
295 285 344 124 95 66
233 497 261 159 21 53
286 679 178 119 90 57
252 643 203 159 115 94
314 45 196 116 96 74
296 170 245 119 95 67
323 22 230 106 30 42
310 721 181 49 35 37
245 240 289 97 81 64
221 435 255 104 22 34
264 415 204 40 40 42
421 856 343 54 43 35
258 237 288 92 78 64
247 237 288 95 80 64
266 790 205 164 126 96
258 672 183 162 112 75
241 402 242 97 84 70
328 509 173 70 8 33
292 231 338 116 93 68
258 720 228 154 2 43
245 404 235 102 88 74
223 450 270 141 11 43
241 330 262 109 88 64
255 263 242 161 106 76
320 832 199 81 63 58
335 70 318 137 111 83
263 720 262 169 0 53
368 559 359 75 17 31
235 495 179 160 112 85
332 653 208 102 30 29
250 295 315 114 90 63
378 889 280 72 64 63
250 240 290 93 78 63
374 500 210 132 18 38
221 330 310 136 96 70
380 867 315 37 33 33
248 507 382 134 84 83
255 236 288 92 78 63
305 435 403 62 19 28
302 653 342 160 104 85
217 500 205 155 113 88
285 165 251 110 90 67
407 457 372 175 18 52
255 355 253 104 87 70
425 885 395 85 70 55
222 350 308 144 102 81
268 272 298 73 62 50
217 504 200 156 114 86
400 795 245 69 55 49
245 245 291 99 83 65
291 900 333 113 97 87
363 512 208 138 10 38
465 801 285 59 48 39
282 96 215 86 53 40
245 247 293 99 82 65
287 12 305 140 44 61
276 280 270 129 93 69
227 342 272 120 95 67
277 623 303 41 30 35
219 350 285 119 93 63
320 490 195 85 17 37
300 30 190 125 73 44
295 485 376 163 17 53
245 411 210 84 53 45
290 344 279 76 65 54
245 605 204 152 109 86
289 320 335 125 92 64
240 410 220 125 27 42
229 365 311 140 100 80
345 680 355 142 101 68
325 210 317 115 93 67
221 440 255 56 31 34
233 387 307 140 101 81
245 254 297 102 84 67
254 705 245 73 24 36
482 818 287 61 45 26
230 421 187 132 11 30
235 445 235 76 27 33
225 430 290 71 26 34
333 530 202 99 26 36
366 912 269 66 57 54
445 851 330 99 77 62
347 868 287 26 24 24
229 435 206 123 2 37
325 140 327 123 95 64
297 397 202 93 79 66
370 909 340 71 62 58
371 556 356 175 18 56
244 487 349 49 19 29
255 245 291 91 77 62
407 451 377 61 31 34
243 425 197 106 27 35
355 65 374 102 35 41
306 384 275 82 71 61
250 345 256 102 86 70
319 851 300 119 88 66
293 209 241 137 104 70
409 505 325 113 29 44
244 296 318 110 86 58
325 710 365 171 118 94
330 390 270 101 87 74
349 365 325 110 89 66
280 605 351 154 106 83
250 355 254 105 88 69
216 455 306 66 20 31
228 274 301 98 82 65
398 524 334 167 26 54
250 250 294 94 79 63
368 625 275 78 21 34
244 486 177 119 92 63
206 470 325 87 27 34
230 502 212 70 51 52
294 555 185 53 32 35
225 415 200 62 28 34
310 375 280 86 75 64
276 320 320 109 72 54
339 250 354 137 98 69
325 920 354 37 34 34
246 351 257 108 89 69
307 917 338 39 38 39
327 463 183 78 10 29
274 925 249 69 65 68
215 485 200 136 104 81
281 436 395 44 28 31
238 517 322 110 43 58
250 285 255 161 105 77
240 474 370 45 29 22
220 455 309 69 11 27
298 341 286 79 68 58
256 248 292 91 77 62
240 345 322 136 96 78
256 415 215 67 45 41
316 534 373 161 16 52
235 265 255 129 100 66
388 720 295 136 11 44
341 340 330 115 92 65
335 435 165 62 34 31
239 265 250 138 102 67
264 170 229 119 96 69
224 285 280 119 95 68
296 375 286 80 68 56
413 853 298 72 60 61
224 284 305 108 87 64
283 118 237 103 85 66
385 398 310 61 47 43
366 876 324 36 34 33
299 817 231 114 70 59
459 819 291 100 78 57
220 335 285 124 97 65
232 487 374 90 4 30
224 440 250 35 31 34
310 660 368 160 115 86
325 955 251 87 82 85
341 404 352 71 59 47
232 426 242 86 22 33
385 500 265 146 11 41
237 265 252 132 100 66
474 759 245 72 58 48
264 880 305 160 116 98
290 406 191 76 38 30
334 415 174 92 30 27
353 47 349 97 87 78
299 850 260 107 87 68
223 315 278 134 103 71
245 265 245 152 107 73
218 506 200 164 118 92
337 403 190 84 32 28
235 270 255 137 102 69
238 450 229 92 24 36
440 817 319 60 49 38
231 282 313 100 83 65
399 479 369 172 16 54
228 465 217 132 77 77
267 944 266 74 68 68
250 600 178 136 102 62
227 388 303 142 103 82
220 390 275 131 100 68
375 710 195 67 51 38
313 75 330 112 27 40
252 263 242 161 109 77
229 415 250 101 20 31
255 419 210 72 60 56
258 521 375 154 113 100
338 885 188 119 102 89
309 115 229 121 34 50
423 868 338 93 71 63
240 270 250 148 105 73
384 449 393 55 29 30
245 380 249 104 88 70
354 800 180 62 50 44
241 425 225 55 29 32
358 419 157 148 19 43
312 130 340 109 89 67
241 435 225 32 29 31
252 594 255 168 0 47
400 805 250 63 52 49
296 55 234 103 78 62
308 22 201 97 85 73
296 555 180 41 34 36
273 683 277 77 29 37
304 900 230 59 55 57
215 510 380 154 106 89
237 270 252 142 102 69
263 680 207 155 112 94
225 484 340 82 21 36
219 395 285 144 105 78
365 682 196 91 65 44
312 654 331 106 40 47
231 435 241 81 26 34
336 214 318 121 99 74
257 235 232 140 104 68
207 458 312 92 21 38
333 17 328 81 71 61
291 81 233 102 85 65
289 610 343 133 82 65
439 799 271 88 72 62
230 500 311 145 9 39
296 402 192 74 24 36
275 650 280 91 30 40
352 936 259 84 75 75
350 735 191 51 39 37
308 775 162 149 106 68
235 275 255 145 103 73
353 938 300 58 53 50
300 21 196 106 91 77
348 47 332 85 36 35
240 275 251 154 106 75
282 560 192 43 36 38
418 864 343 86 68 51
272 292 274 110 83 59
272 262 248 156 105 75
238 276 253 153 105 76
275 250 286 84 70 55
264 869 290 115 93 70
320 375 353 136 103 77
226 325 275 124 98 68
236 279 256 152 105 76
219 400 275 130 99 69
308 822 235 181 133 111
310 140 340 110 90 68
345 840 179 141 114 94
316 469 195 93 6 32
324 25 220 114 34 41
229 470 239 128 11 36
420 845 305 102 86 76
355 685 210 49 43 43
315 670 367 171 121 94
240 535 260 47 29 33
240 485 350 91 18 34
393 485 287 141 10 36
240 280 254 158 106 78
221 499 319 109 26 42
241 260 246 138 103 67
327 95 207 114 17 43
306 485 171 132 10 32
232 446 237 66 24 31
264 695 260 146 1 43
368 657 252 56 36 35
247 259 242 151 106 73
221 320 315 137 93 74
293 45 193 100 80 62
321 55 350 105 26 39
344 407 195 81 41 38
236 289 262 152 105 76
230 476 181 108 88 67
400 775 285 45 39 35
245 270 246 157 107 77
247 555 235 99 16 38
257 171 245 106 90 75
277 549 192 85 22 30
350 903 190 65 53 44
312 505 193 38 30 33
274 875 264 156 118 88
225 455 205 107 12 35
255 265 244 163 107 77
286 847 272 104 81 54
353 943 267 80 72 74
283 741 289 85 47 48
320 14 305 137 72 59
361 932 365 76 71 70
290 500 183 94 27 32
377 575 269 171 13 51
383 923 397 95 79 64
231 480 270 57 30 35
244 272 248 157 108 76
338 63 175 139 46 47
220 476 330 76 7 28
330 90 176 138 15 34
258 364 253 103 88 72
250 260 241 158 109 75
260 260 241 163 108 77
269 690 275 59 29 34
248 262 243 156 108 73
261 262 243 163 109 77
303 757 322 78 53 52
225 484 381 103 88 72
279 314 304 89 74 60
221 465 204 76 26 37
421 470 325 84 28 37
359 396 240 46 22 20
470 830 310 94 77 63
361 415 160 100 25 32
334 90 200 118 27 44
231 462 187 108 89 71
249 379 248 102 86 70
280 530 189 64 28 34
250 265 244 161 108 76
314 445 190 73 16 30
227 504 388 181 130 112
235 476 181 100 86 71
250 270 246 163 109 77
313 65 325 120 38 47
272 940 323 46 43 45
236 477 393 152 109 99
323 56 210 109 30 41
404 721 232 51 40 36
232 305 267 121 94 63
322 759 173 128 95 58
433 438 349 58 30 32
254 398 238 107 92 77
273 612 302 40 31 34
275 824 185 219 145 111
253 501 286 140 7 45
362 430 207 92 22 34
285 958 280 68 63 62
245 279 252 164 109 78
310 45 335 123 95 76
266 650 209 162 116 100
302 180 340 112 92 70
343 855 193 63 54 48
391 795 295 56 46 39
256 455 308 67 21 33
315 550 195 40 35 36
420 810 275 65 50 46
237 421 236 103 21 34
285 620 320 105 31 44
410 500 310 121 17 36
245 281 253 163 109 78
300 395 353 115 90 64
225 335 315 142 97 79
333 458 188 69 22 28
300 965 295 71 66 66
337 403 198 85 36 32
245 285 255 162 108 78
293 320 342 127 96 69
386 690 271 61 34 30
222 452 192 98 79 57
246 303 262 125 92 62
221 471 187 109 88 66
403 510 297 47 34 38
252 457 385 57 32 27
330 464 183 77 11 30
263 945 294 68 64 65
240 480 309 58 22 28
271 645 225 116 14 39
302 842 252 151 118 91
310 905 329 91 75 60
222 476 214 117 88 65
245 335 323 128 92 71
363 88 352 143 13 45
340 495 399 113 12 38
312 45 317 128 99 70
255 285 256 156 102 74
300 397 200 93 79 65
490 825 304 94 78 64
235 510 183 162 119 87
365 70 344 134 19 40
240 528 378 194 135 111
276 231 233 154 109 75
237 485 211 72 24 33
304 785 280 63 50 49
422 466 345 49 29 34
312 99 177 150 21 42
233 425 207 34 29 30
266 625 215 122 60 59
239 258 297 103 86 68
244 490 280 92 30 41
255 275 249 164 108 79
392 498 283 131 6 35
256 397 236 106 92 79
479 770 240 82 69 63
312 120 217 113 32 43
400 680 244 64 49 35
237 479 220 91 18 33
225 435 250 53 31 33
384 530 265 108 29 39
325 550 374 64 27 34
255 555 275 150 0 44
259 350 318 111 80 62
340 400 351 88 72 56
228 467 312 60 21 21
270 545 365 130 89 75
370 910 310 64 56 52
226 431 320 117 2 37
266 735 259 145 15 50
255 281 253 159 105 77
238 434 233 87 22 31
236 575 186 147 102 67
391 750 310 111 15 38
219 425 189 82 26 36
363 732 363 160 114 81
220 486 355 106 35 42
250 350 255 105 88 69
369 85 365 134 21 53
373 603 295 98 21 37
244 570 216 66 24 34
250 440 204 52 29 31
405 854 310 60 54 49
232 490 236 116 16 38
315 185 356 114 92 69
341 704 194 98 30 29
285 675 300 89 19 35
234 479 321 81 11 27
225 420 255 104 22 30
341 946 254 79 72 73
236 370 256 110 90 68
275 401 205 72 61 58
344 140 336 122 99 73
376 535 361 34 28 31
311 440 195 75 22 28
327 808 178 70 54 48
249 461 191 84 70 55
235 530 375 195 136 113
275 725 164 114 89 56
373 905 290 67 59 61
320 273 358 143 101 72
244 350 258 109 90 68
261 165 235 109 91 73
236 375 256 111 90 68
334 501 397 122 15 42
222 478 330 78 9 25
409 719 265 53 43 37
327 864 302 119 89 69
355 780 366 184 131 104
295 160 216 158 113 81
411 476 355 42 26 29
234 455 234 70 24 33
369 884 166 144 117 96
300 869 326 148 111 88
318 432 198 65 25 36
258 607 272 80 20 31
239 380 254 110 90 67
386 675 264 49 38 28
397 877 315 67 59 57
238 461 228 87 25 32
240 487 341 60 18 28
345 419 376 60 27 28
375 395 215 89 23 36
378 520 251 75 29 34
300 370 350 126 97 69
311 60 189 123 103 81
503 857 276 99 86 74
238 385 253 109 90 68
324 645 363 161 113 83
291 951 265 66 62 65
274 130 225 106 90 74
343 841 189 86 73 65
341 785 363 178 125 98
240 520 384 197 139 114
245 465 305 72 24 28
326 271 357 144 98 70
360 540 207 147 12 33
237 463 188 109 92 77
411 500 320 163 18 49
405 435 385 105 19 38
295 445 400 95 19 36
300 610 372 160 114 83
296 135 236 117 92 63
241 380 252 108 89 69
310 400 355 106 85 62
306 495 171 79 28 31
226 455 275 143 10 45
375 869 320 34 32 33
333 475 202 92 14 28
248 415 202 70 62 52
352 902 333 35 33 33
398 779 242 61 47 41
265 195 225 124 99 68
324 410 184 74 36 31
244 385 312 123 87 71
247 382 247 102 88 73
230 481 344 96 15 33
240 385 251 108 89 68
386 412 388 57 35 32
245 365 254 105 88 70
315 310 298 91 78 66
255 360 253 106 89 71
269 795 206 161 125 96
246 415 202 73 56 41
228 446 287 53 27 30
354 51 340 74 60 49
265 500 300 107 0 35
379 445 206 113 13 33
261 905 281 167 131 106
250 404 230 104 91 79
345 900 185 94 82 74
242 438 203 95 16 31
275 410 196 64 36 34
250 365 250 105 88 71
336 90 190 106 29 37
276 515 343 75 10 24
260 460 380 146 18 48
292 255 343 122 96 66
240 475 285 40 28 32
275 145 220 119 96 70
392 470 288 73 26 32
485 822 295 88 70 49
341 225 356 126 96 61
344 135 336 123 99 73
410 876 325 88 73 65
255 365 250 107 89 71
257 549 321 141 38 54
235 535 183 152 109 78
317 464 186 96 0 34
244 369 253 106 89 71
220 483 343 146 20 48
402 782 270 48 41 36
409 886 338 78 65 59
348 125 353 127 90 65
233 484 313 76 23 25
312 18 214 91 73 63
332 498 398 47 15 24
338 454 189 56 26 31
230 445 240 96 19 31
226 435 203 122 2 37
228 435 292 58 29 33
263 715 261 157 0 49
309 61 187 125 106 85
303 17 297 150 95 88
293 305 342 128 96 69
235 490 270 36 29 33
260 770 190 162 118 87
415 819 295 33 29 27
260 430 335 102 8 33
359 933 345 60 52 52
382 495 258 74 35 33
282 134 212 135 106 72
245 370 251 104 88 70
245 385 249 105 88 70
295 600 340 61 24 35
315 35 200 121 101 81
256 564 369 178 123 99
256 320 317 115 85 63
370 923 395 62 53 45
285 325 291 67 56 45
250 370 249 104 88 71
377 879 272 65 59 60
289 13 219 127 95 95
404 410 311 56 34 38
305 396 200 93 77 62
295 640 200 88 36 36
430 847 343 58 47 37
251 381 247 102 87 72
314 160 352 112 91 68
225 460 188 120 96 73
222 427 203 119 3 33
315 954 320 74 70 69
281 435 187 80 32 33
226 495 370 85 69 65
370 901 364 42 38 36
323 887 318 123 92 72
340 165 356 119 92 59
401 786 249 72 57 51
220 525 200 159 113 88
252 376 247 104 89 72
261 499 344 62 22 29
237 422 329 65 17 24
255 380 245 103 87 72
295 389 240 107 93 78
295 480 377 137 12 44
252 476 367 144 11 43
318 595 202 108 24 39
320 245 314 104 85 63
335 943 358 77 69 70
337 343 308 102 87 71
254 385 244 102 87 72
217 425 192 128 13 40
333 85 177 142 19 33
367 560 230 155 17 45
310 700 190 98 21 27
221 420 187 100 32 36
230 530 365 206 143 116
237 366 257 110 90 69
225 495 365 99 31 41
310 580 359 46 27 29
363 69 342 134 29 38
225 420 186 131 23 33
248 545 267 145 0 44
383 563 277 170 19 46
366 90 365 140 24 54
239 540 250 74 29 36
381 565 325 165 17 53
299 18 248 145 105 89
233 510 252 145 4 43
421 866 330 83 64 55
295 100 239 105 46 47
217 433 197 137 0 35
304 445 184 95 28 28
397 796 287 44 36 33
329 295 348 128 93 66
285 15 240 130 70 72
365 450 399 174 14 55
221 417 191 72 30 40
371 826 335 122 75 56
390 402 325 62 51 44
219 455 200 69 30 38
296 560 180 108 29 33
