ply
format ascii 1.0
comment Created by Open3D
element vertex 2230
property double x
property double y
property double z
property uchar red
property uchar green
property uchar blue
end_header
236 818 305 207 145 117
310 273 209 107 88 66
263 883 321 124 88 79
386 458 123 145 3 36
401 764 305 51 39 32
290 10 244 151 84 79
295 9 244 155 95 88
366 223 234 125 97 64
400 458 139 100 23 37
357 322 217 108 87 65
294 592 179 190 4 36
363 188 229 119 93 63
344 93 359 126 13 46
298 138 326 120 96 69
295 9 249 127 71 65
365 409 339 95 34 39
355 54 253 77 36 32
238 697 306 135 98 70
418 492 277 138 26 48
257 480 170 63 47 43
269 873 325 153 112 96
326 97 248 123 47 57
279 606 195 193 3 38
290 10 254 112 53 51
334 867 229 71 63 60
300 9 254 103 62 51
366 228 224 120 94 63
417 804 224 165 109 79
294 24 229 131 76 61
232 704 298 148 103 75
290 23 234 161 110 85
341 918 340 59 54 52
296 26 229 164 17 55
245 528 244 97 17 36
295 955 262 88 84 88
292 26 239 151 117 94
292 26 236 126 94 73
475 833 374 104 84 65
284 328 282 122 96 65
359 373 205 89 79 70
322 33 302 115 92 71
271 572 150 72 27 36
295 26 239 150 39 56
301 26 225 160 55 62
405 408 259 87 49 44
300 27 229 163 20 53
238 706 311 139 102 73
300 28 234 148 34 54
300 28 239 146 79 69
345 48 220 134 35 31
242 756 281 164 115 81
245 753 280 161 112 80
303 30 234 158 22 53
281 455 176 70 60 51
338 29 220 84 48 34
280 774 252 86 66 57
305 333 209 94 77 57
247 918 322 170 128 108
305 33 234 132 38 51
380 68 225 131 41 35
292 26 244 148 105 82
290 168 320 114 92 68
345 173 247 106 85 62
287 169 317 116 94 69
343 797 312 85 67 58
295 27 254 153 20 55
360 158 239 121 95 65
340 437 169 95 80 65
298 40 312 136 18 43
358 344 242 117 92 64
265 573 320 160 14 51
300 28 244 155 102 84
302 32 253 139 62 65
250 598 279 36 30 34
285 840 315 51 40 36
280 453 179 70 60 50
342 455 105 84 69 54
310 10 239 106 71 67
355 123 243 119 91 63
317 970 289 84 80 82
319 477 93 56 32 25
360 118 228 109 89 65
320 11 229 88 50 47
295 168 285 104 86 67
440 813 279 88 68 59
262 244 261 107 90 71
317 11 233 85 53 49
270 878 328 147 107 92
272 961 312 62 58 58
318 10 236 79 59 51
280 283 235 96 81 66
319 10 239 78 62 52
295 487 99 71 43 36
330 869 229 63 57 53
295 10 299 143 56 64
257 444 317 121 9 38
310 10 244 104 70 60
270 583 159 91 28 39
303 471 122 73 62 56
325 947 328 53 48 47
297 113 329 116 79 63
320 633 209 68 30 36
335 108 221 123 100 75
246 803 337 169 118 93
307 413 200 78 69 60
365 108 249 114 40 49
315 10 244 90 67 52
285 333 282 120 94 64
316 11 251 95 66 50
429 503 249 88 28 39
355 102 253 104 27 41
291 413 319 62 28 33
320 11 249 89 68 52
384 853 259 61 51 50
371 109 245 129 26 50
417 488 259 129 18 42
320 12 254 96 67 50
353 40 234 94 84 74
328 55 337 107 91 71
411 543 204 87 27 38
301 560 108 44 33 38
326 293 252 119 93 68
300 363 285 112 89 62
317 36 221 149 12 33
299 293 240 82 70 57
297 103 332 113 19 43
375 648 213 93 24 32
424 449 187 123 95 82
320 38 221 151 17 43
435 829 324 64 51 42
352 288 207 113 90 64
412 454 296 159 17 48
320 43 224 138 101 76
440 498 174 186 126 101
277 915 246 89 75 62
309 378 283 107 85 61
305 38 244 145 23 49
340 893 234 73 65 65
308 380 288 106 85 62
304 38 249 135 34 52
308 34 228 151 34 50
378 679 208 96 70 50
296 14 289 164 84 80
424 812 271 74 58 51
310 38 229 156 18 49
275 388 226 83 68 51
312 36 226 147 34 49
276 778 255 85 65 59
340 868 309 33 30 31
280 483 119 81 70 62
309 38 234 141 23 45
255 688 308 136 106 78
308 43 239 130 97 72
311 48 235 138 28 43
316 42 226 140 96 72
275 513 75 81 26 38
417 558 201 147 105 85
319 876 306 89 76 63
405 438 309 156 2 48
418 718 264 64 49 40
315 48 229 127 61 51
362 51 245 100 89 79
350 203 206 119 97 72
318 48 227 134 55 54
313 49 233 143 15 44
308 289 236 61 53 44
310 338 259 105 73 53
308 39 255 127 22 46
335 103 248 139 98 82
411 748 294 49 39 32
250 544 183 190 124 100
327 483 336 138 5 42
239 734 277 172 115 82
307 42 244 133 86 66
307 43 249 127 69 62
310 323 207 91 75 57
300 98 309 107 43 42
332 113 339 124 15 42
333 20 221 104 48 43
291 617 220 97 32 41
235 703 304 144 102 73
301 413 209 66 58 49
308 44 243 138 105 79
238 640 242 175 117 84
332 170 242 90 76 63
336 72 349 93 81 68
307 264 228 71 65 59
309 48 244 133 100 76
318 198 230 94 78 62
280 783 343 178 126 99
310 903 359 60 54 54
254 539 178 133 61 60
321 57 346 86 74 64
322 766 216 82 66 58
343 496 80 129 19 37
310 43 254 121 36 51
280 548 84 238 8 57
358 406 326 70 24 29
313 45 256 130 96 80
271 507 130 139 7 39
276 225 261 104 90 74
285 213 315 135 101 73
304 203 276 109 90 69
262 946 266 69 63 64
340 63 222 121 51 44
268 543 99 96 31 40
314 48 255 122 81 73
350 449 109 93 76 58
455 790 304 86 76 66
365 588 170 86 38 42
336 188 248 92 75 58
388 418 352 119 34 48
375 78 223 149 18 41
311 53 239 127 53 51
355 43 239 99 87 75
350 258 200 130 100 64
336 508 89 146 20 42
363 144 230 121 96 67
440 463 184 125 97 75
316 53 230 139 43 52
325 308 202 102 84 65
314 53 234 133 45 49
368 907 295 74 66 66
297 73 324 120 40 50
387 489 316 86 24 39
339 897 234 70 62 62
312 52 236 144 18 46
308 62 351 97 22 39
413 652 218 160 112 80
267 263 297 143 102 79
313 55 237 136 21 49
431 428 256 116 20 42
319 58 229 132 102 74
280 648 244 43 34 41
311 543 124 76 30 39
320 63 229 125 81 59
398 518 155 99 26 38
275 233 308 128 97 69
340 283 249 134 101 74
245 679 262 159 110 78
343 29 238 97 83 69
373 522 323 176 17 57
298 496 82 122 30 37
312 57 241 140 25 46
385 773 305 54 44 35
365 103 226 130 27 33
451 839 343 85 71 58
346 401 294 61 54 46
316 63 235 121 80 61
389 638 244 75 26 37
430 412 239 76 36 29
305 123 334 117 86 68
314 63 239 140 29 50
284 886 350 42 38 36
310 53 244 124 87 70
327 128 237 119 92 70
412 649 194 168 118 86
242 549 277 131 11 39
243 529 295 68 28 36
311 58 244 136 29 49
399 838 249 106 78 61
245 693 265 148 100 67
372 387 245 95 79 62
310 23 294 152 35 49
340 183 248 96 78 57
291 528 64 55 29 34
258 895 267 166 123 97
315 53 255 123 28 48
360 118 241 117 83 57
250 668 258 145 103 79
292 26 301 142 44 47
366 473 344 43 28 30
318 54 256 125 34 54
348 807 307 80 61 54
285 282 237 88 74 61
261 522 156 74 31 36
505 818 388 101 85 69
290 452 174 72 63 54
304 698 213 42 33 38
297 876 321 75 64 53
365 63 221 123 45 36
312 62 244 141 30 51
314 59 250 131 92 78
363 183 224 121 96 65
320 903 224 65 57 55
359 72 221 118 41 40
332 203 247 87 73 57
364 118 239 128 95 68
345 908 254 68 60 60
429 415 258 38 29 32
320 63 254 114 84 68
333 784 217 80 64 57
519 806 373 102 87 76
426 411 244 46 26 23
360 442 114 96 80 62
290 499 84 107 29 34
360 73 254 109 59 59
333 956 281 88 81 82
321 68 229 135 38 46
322 417 326 101 15 32
315 68 239 133 51 55
263 589 316 32 28 33
382 498 316 175 17 55
327 53 309 114 43 46
330 453 134 90 75 59
318 68 233 133 32 45
331 934 253 82 74 76
431 503 244 55 30 33
330 123 240 120 92 70
382 503 315 170 17 52
318 74 237 122 96 68
288 615 222 43 36 42
317 71 236 128 74 63
317 77 240 122 96 68
229 793 314 174 121 92
345 475 71 83 57 37
232 618 240 160 112 78
315 68 244 133 29 50
305 518 343 33 30 31
436 462 186 126 89 77
315 173 314 133 100 70
346 425 181 98 85 72
379 562 160 180 8 40
410 568 209 88 52 48
310 248 224 80 69 56
341 64 256 111 57 55
436 834 348 64 53 44
316 68 248 124 41 52
365 563 154 185 8 40
405 578 179 144 91 64
315 203 224 97 81 63
319 68 250 120 61 60
385 553 159 161 15 42
334 773 323 83 64 56
327 263 247 89 70 48
340 53 256 109 32 43
354 608 308 105 30 44
296 278 243 97 82 65
318 74 246 112 86 69
287 27 328 117 21 44
365 113 239 123 88 66
371 398 208 103 89 75
452 829 329 71 55 51
305 508 343 95 34 42
313 182 313 136 101 71
317 77 243 115 91 66
242 778 286 156 112 76
445 837 354 86 72 60
327 169 237 92 78 63
360 283 229 127 94 67
318 79 244 112 74 61
366 590 172 124 30 42
356 238 203 128 100 66
266 507 135 154 4 42
320 78 249 123 28 48
309 78 354 102 55 53
280 723 227 109 29 38
320 88 234 119 44 45
319 88 239 135 22 47
375 887 270 72 62 60
399 458 312 153 15 48
264 825 292 106 81 67
356 46 228 88 78 66
325 14 221 94 45 39
313 110 351 131 25 50
315 59 302 133 85 62
325 13 224 90 50 44
300 288 233 76 66 56
360 388 258 83 70 58
355 168 243 120 95 65
248 558 294 153 5 46
242 522 297 106 27 43
432 428 180 53 27 33
260 863 309 118 65 63
365 884 364 65 55 49
465 833 354 96 81 67
237 583 215 175 119 87
428 468 230 86 28 33
325 22 217 124 24 26
325 29 217 130 45 43
372 749 201 103 64 41
415 453 159 53 33 38
325 33 218 145 40 46
470 753 289 78 65 52
330 18 219 114 40 34
335 346 202 85 75 65
385 407 264 65 59 46
336 22 224 89 58 47
253 881 267 148 116 87
472 794 302 87 67 51
306 228 269 103 85 63
330 28 218 108 72 54
335 28 219 96 52 30
296 113 309 109 91 71
321 218 206 120 98 72
335 33 218 112 52 39
330 793 223 85 68 61
330 98 249 128 58 64
337 26 222 75 47 32
315 298 248 73 59 43
335 248 249 99 78 55
270 563 129 202 8 54
400 833 249 103 75 59
340 33 220 92 36 27
357 754 197 145 15 37
410 583 239 73 14 26
318 192 219 114 95 75
342 32 223 69 53 37
314 213 299 128 100 68
362 418 337 120 16 39
308 297 207 99 82 62
340 458 325 39 26 28
270 798 342 184 134 108
415 483 163 90 64 47
335 489 60 91 56 38
355 49 248 85 47 38
408 431 146 136 23 36
325 12 239 73 62 53
378 398 244 70 62 55
330 14 229 81 62 53
450 768 288 55 44 34
333 15 234 79 67 58
372 874 372 49 43 41
315 288 244 71 57 41
278 208 311 120 96 68
273 579 326 164 15 53
392 544 296 146 33 55
290 173 284 106 90 73
255 863 284 141 68 79
244 543 284 137 13 45
260 653 293 98 69 55
296 343 215 110 82 51
325 12 244 76 64 53
377 634 275 158 7 49
393 847 249 80 61 53
399 837 265 71 57 54
310 143 299 123 97 65
325 12 249 84 68 54
363 158 230 121 95 66
258 631 241 155 100 80
255 543 214 80 9 30
325 13 254 93 72 55
328 15 252 94 79 62
410 688 224 150 103 74
315 208 299 125 98 67
384 63 248 96 29 34
326 875 314 32 30 30
480 793 304 93 72 53
363 253 214 126 96 61
328 46 310 103 29 31
345 869 324 30 29 29
264 903 263 155 115 90
370 393 209 103 89 76
505 742 271 121 94 66
332 16 228 84 65 55
344 947 304 56 52 51
264 267 243 99 86 74
335 18 234 83 72 62
335 18 239 85 74 63
387 594 275 178 3 56
370 412 194 102 88 74
331 17 249 88 73 59
407 438 147 125 15 34
345 68 255 112 89 76
317 116 352 137 20 51
340 348 254 129 98 71
332 16 240 79 69 61
257 333 221 130 95 62
334 18 244 84 72 59
340 59 257 127 23 48
337 22 245 98 84 68
292 518 54 163 8 42
270 253 249 102 88 73
332 417 321 75 26 33
330 28 254 74 41 38
325 313 202 102 85 67
320 38 260 132 29 52
366 855 341 44 38 34
297 373 216 105 79 48
336 28 249 90 29 34
280 583 144 186 16 46
408 453 151 106 25 35
333 28 252 92 31 37
315 57 301 129 56 49
240 518 205 72 50 44
337 21 228 92 78 67
364 431 158 97 83 69
325 223 204 119 96 70
339 23 229 95 83 72
376 698 204 98 71 50
391 882 383 73 63 57
342 390 262 71 60 48
271 588 323 146 21 50
316 198 219 112 93 74
339 23 234 94 82 69
453 736 256 88 75 63
310 43 345 110 87 72
300 537 64 96 36 42
330 293 201 95 81 67
420 473 279 55 27 33
360 512 136 86 32 39
415 513 162 179 125 101
365 98 251 98 41 42
344 34 225 89 74 58
264 482 144 71 51 47
295 223 264 100 84 66
340 53 220 135 55 50
290 448 339 62 28 33
282 173 312 116 94 69
326 168 215 117 97 75
315 323 205 99 80 59
485 852 382 100 89 79
343 29 229 99 87 76
235 648 269 149 103 76
272 475 332 115 10 32
273 508 119 74 27 31
343 29 234 92 79 67
322 282 201 102 83 63
340 28 244 95 73 59
309 228 303 143 105 78
337 26 246 78 45 22
269 713 233 121 15 33
286 13 304 138 66 71
330 338 256 127 95 71
234 548 204 156 110 79
338 29 247 91 34 43
524 832 372 104 90 76
374 98 248 123 7 43
410 418 169 83 33 32
408 826 263 79 62 57
386 83 239 137 24 51
256 898 328 94 84 76
345 218 251 112 88 60
263 609 311 119 20 42
391 503 143 157 10 39
345 358 202 87 77 68
345 608 184 156 28 47
341 32 245 92 51 43
323 44 222 146 35 45
290 589 164 215 12 50
330 43 220 136 97 78
385 68 249 112 24 41
330 47 221 132 69 54
408 757 298 47 39 33
410 708 259 67 51 41
335 48 220 147 40 47
314 873 247 99 84 70
353 318 211 98 81 64
330 49 222 151 18 43
316 44 302 122 36 43
424 467 162 141 107 89
315 878 360 43 38 34
357 708 311 60 24 31
275 508 84 134 28 30
304 298 254 100 76 53
397 859 369 96 85 78
334 53 222 144 66 60
250 593 299 129 9 41
330 58 224 115 65 49
310 12 299 121 68 61
345 243 200 123 98 68
375 503 334 70 29 36
340 38 219 122 34 30
340 43 220 116 59 44
505 728 274 95 80 68
355 844 369 50 43 38
311 617 201 173 30 55
409 558 209 83 24 35
284 471 143 77 66 56
340 48 219 145 28 39
265 348 283 122 96 69
359 303 229 124 95 65
301 53 310 126 33 42
379 417 357 159 26 54
259 482 164 56 46 40
304 178 322 141 100 72
360 773 200 152 111 74
344 43 221 102 78 55
310 478 343 154 11 48
329 917 353 54 48 48
346 43 222 103 55 32
349 49 252 95 22 37
347 48 222 130 31 28
499 823 354 102 83 64
298 227 312 145 103 71
244 923 294 181 140 117
309 887 239 55 53 55
305 813 255 153 107 81
360 153 219 109 91 72
252 582 270 42 31 33
345 103 219 135 83 63
304 876 356 43 39 37
403 798 191 150 104 66
326 28 324 109 26 41
310 494 74 68 34 31
355 67 222 108 48 33
350 43 224 92 52 32
370 93 225 145 24 41
337 56 221 154 16 46
335 123 219 115 96 75
335 38 254 102 27 38
302 255 296 151 108 85
325 63 225 142 29 42
420 868 379 95 78 66
354 452 94 89 73 55
315 833 247 136 111 86
269 372 291 122 97 69
251 665 297 132 97 71
302 353 211 106 82 54
396 613 250 99 25 39
274 503 114 99 23 39
356 924 314 56 48 44
322 62 226 129 47 37
320 308 253 113 87 64
315 878 244 59 54 53
292 47 325 133 46 51
299 34 308 155 21 52
380 733 299 68 41 33
350 38 229 101 91 80
355 844 238 100 77 65
381 406 269 65 57 45
310 58 351 93 56 48
350 38 234 95 83 72
415 406 269 114 34 42
340 48 255 115 28 44
419 508 204 71 25 35
383 76 226 143 21 43
284 492 103 75 48 43
325 398 191 87 77 67
356 238 245 129 100 70
417 464 252 75 22 35
345 48 253 84 26 33
351 42 245 100 86 71
304 108 302 113 91 66
310 399 309 70 60 51
350 363 255 125 99 71
415 463 250 76 23 33
325 397 192 87 77 67
347 46 251 68 29 25
415 793 249 108 74 60
475 839 363 109 86 65
295 623 322 117 30 47
408 817 210 194 131 101
340 879 362 49 45 44
248 871 311 114 90 68
351 48 250 91 29 36
360 498 129 169 14 39
330 573 163 114 37 46
330 753 330 138 18 47
345 53 254 82 40 37
370 53 244 92 84 76
245 570 202 184 117 92
303 378 208 103 82 57
341 57 256 113 33 45
320 127 347 134 27 52
263 778 267 74 60 54
324 138 229 120 95 66
380 33 235 86 24 37
339 74 349 86 57 42
355 48 225 94 53 32
355 58 221 135 31 33
335 587 170 167 22 47
287 31 319 146 16 52
285 428 204 63 55 47
345 93 218 119 72 51
395 679 274 67 44 34
235 534 174 217 148 121
276 728 328 128 14 41
360 59 221 130 34 34
308 551 122 105 14 38
457 815 312 88 69 60
310 469 119 62 48 42
376 885 326 43 38 40
360 62 221 126 74 60
389 628 258 82 25 38
416 819 273 71 58 53
260 443 318 116 10 36
365 58 224 108 42 26
330 73 319 116 54 53
370 58 225 99 42 23
313 526 50 210 14 46
366 61 222 124 40 31
395 513 303 167 7 52
326 244 201 121 96 66
380 43 234 92 42 40
312 122 347 132 20 50
355 44 229 95 84 72
360 48 229 86 77 68
358 45 230 93 83 73
300 477 113 58 42 36
416 859 304 74 63 63
375 406 319 61 52 43
237 567 205 168 115 83
355 42 234 96 85 75
340 484 64 91 58 41
403 886 385 78 67 60
312 433 341 101 23 38
266 528 104 87 24 36
354 103 221 138 34 42
342 771 206 85 68 59
305 423 204 73 63 54
238 515 157 193 119 105
334 587 322 172 24 58
383 724 192 139 98 62
327 628 316 87 38 45
353 40 237 95 82 70
354 828 300 39 34 31
299 88 314 105 80 58
360 47 234 94 84 74
420 832 301 60 50 41
411 738 239 64 42 40
436 830 343 40 36 33
359 49 226 65 47 35
307 540 73 206 13 48
365 52 228 83 69 58
280 253 248 102 88 74
292 138 319 112 91 68
235 788 329 169 118 90
364 50 239 95 85 76
464 720 264 86 71 57
390 633 249 99 29 42
360 53 249 85 57 47
335 173 244 91 76 61
298 88 324 113 18 41
352 51 251 88 29 33
380 83 248 124 6 45
350 63 256 110 27 41
356 483 328 40 26 28
414 468 160 60 39 40
315 233 209 116 94 70
455 849 364 103 84 67
360 63 254 99 63 54
346 318 250 131 101 72
307 283 211 98 82 66
262 260 251 102 86 70
343 492 109 104 22 36
365 54 248 89 75 62
362 56 251 70 25 25
370 59 252 84 36 31
324 548 136 118 16 33
365 59 253 89 38 37
330 278 200 102 83 60
294 568 129 123 12 35
380 38 235 88 31 35
438 506 192 188 134 113
318 715 332 148 18 46
300 28 343 99 56 50
290 263 244 97 82 67
377 40 237 83 37 37
323 108 306 117 73 59
350 764 202 72 59 54
251 573 269 87 27 38
380 38 238 86 28 34
392 554 167 88 32 40
377 44 235 85 56 52
265 853 304 130 70 70
326 93 314 111 31 41
310 253 229 74 64 55
280 708 323 137 14 43
417 867 376 92 74 59
353 308 211 100 83 64
288 365 292 120 94 64
425 878 390 92 78 65
377 40 236 83 40 38
450 727 259 91 75 59
380 43 240 79 26 31
276 783 259 90 69 60
296 512 59 101 39 43
265 353 221 110 85 57
376 48 234 101 88 83
275 487 118 78 63 56
338 506 98 177 11 37
260 313 218 128 95 63
320 558 138 128 29 43
380 47 241 72 23 28
256 593 259 68 21 31
325 313 256 135 101 78
275 338 217 97 78 56
454 817 310 79 61 55
381 49 242 84 24 28
375 53 229 129 122 119
374 51 239 93 83 77
310 33 259 128 66 67
328 777 327 83 65 56
298 92 324 99 30 39
255 558 189 55 31 31
375 63 225 118 40 33
333 942 327 56 55 58
378 50 231 92 73 63
299 634 223 72 33 41
384 53 234 91 36 27
270 328 282 121 95 68
375 409 344 56 42 35
329 243 246 85 68 50
276 208 309 117 95 69
380 58 229 88 44 25
319 803 328 80 62 52
411 824 259 93 72 57
359 438 329 96 19 34
326 238 243 78 65 51
310 188 314 141 105 77
381 62 228 91 49 25
383 58 231 82 46 21
454 797 311 77 66 56
267 532 89 71 34 41
392 835 214 231 151 126
420 798 294 45 37 31
289 491 98 78 44 34
310 588 174 102 32 41
384 63 230 95 43 30
261 299 221 106 87 65
270 868 324 138 101 80
375 53 244 84 71 61
365 857 374 60 49 42
383 456 342 75 20 32
323 121 321 133 97 74
358 353 210 99 86 73
425 488 205 135 14 43
375 63 253 94 32 36
312 357 261 97 67 49
285 193 275 106 90 73
383 50 242 96 33 39
380 57 246 86 30 31
324 208 207 120 97 72
380 59 248 88 32 33
285 489 104 70 47 38
272 633 312 114 25 42
384 58 244 100 28 37
263 248 295 123 98 68
362 177 236 125 99 68
383 60 247 94 29 33
368 557 312 151 19 50
291 133 314 112 91 70
425 753 245 57 46 42
258 282 238 111 91 70
294 11 297 145 54 61
334 68 222 117 48 40
335 73 222 121 54 47
336 78 221 115 39 37
336 88 252 100 67 57
270 448 323 105 9 32
387 500 311 128 43 55
334 83 222 120 52 42
370 802 310 45 35 31
336 83 221 126 46 43
365 615 192 177 33 52
333 92 222 102 77 55
315 143 304 108 86 60
296 358 286 114 90 62
336 88 221 116 95 70
387 79 239 124 28 48
315 158 304 117 92 64
340 68 223 121 92 67
276 957 266 75 72 74
311 11 304 94 54 50
293 648 232 92 37 43
408 502 287 133 20 46
360 833 219 72 63 61
285 444 185 70 61 51
346 74 221 90 47 30
319 522 49 202 12 48
451 813 298 88 69 59
345 618 195 77 36 41
345 78 220 108 43 33
305 12 326 45 46 47
487 750 283 90 73 53
350 69 221 122 18 29
290 962 319 66 62 62
300 148 294 106 86 62
345 133 244 107 85 58
270 403 227 81 67 53
350 73 220 97 31 25
350 78 219 113 39 33
335 113 244 128 94 74
340 83 219 123 37 32
398 826 200 220 150 123
320 492 69 87 31 27
340 88 219 121 64 49
345 83 218 123 29 31
305 9 323 48 49 51
290 388 223 63 52 41
259 558 169 82 24 33
302 73 343 116 20 41
312 464 341 34 27 31
353 230 201 124 99 69
256 743 254 90 31 43
287 148 313 112 91 68
280 815 336 184 130 102
350 83 219 114 56 43
350 88 218 129 39 36
366 817 307 38 32 28
464 846 365 99 79 63
360 148 239 120 94 65
324 73 227 138 23 40
350 93 219 131 102 73
338 931 261 79 72 73
333 507 119 182 3 42
435 508 174 185 125 101
307 306 251 76 56 40
323 69 227 141 19 39
365 605 182 80 42 44
277 198 308 114 93 68
321 78 230 125 33 41
346 450 114 94 77 59
426 519 168 172 115 90
324 78 228 125 66 53
330 68 256 118 90 73
301 248 259 100 82 61
290 903 244 91 73 58
443 464 178 108 78 61
316 773 225 80 64 57
296 863 250 149 122 97
300 623 214 150 16 45
315 518 342 78 34 39
325 68 254 120 33 47
233 763 293 156 111 76
322 72 252 129 15 45
309 123 301 119 90 56
314 10 309 54 42 42
382 406 274 66 57 46
410 859 375 87 73 64
422 493 209 102 24 39
325 73 253 122 55 57
264 638 255 109 64 52
330 73 255 121 85 72
298 511 62 101 29 37
395 568 189 93 23 36
280 198 274 106 92 78
320 78 304 111 47 40
306 268 224 79 68 57
377 894 303 63 54 53
335 78 254 130 31 49
322 88 231 107 77 57
327 83 226 100 77 48
325 708 198 118 12 30
417 800 234 175 115 90
301 383 209 102 80 55
343 97 350 129 4 46
308 769 233 84 66 57
348 821 302 65 50 43
327 88 226 117 61 41
419 438 264 72 24 33
322 93 231 129 37 45
405 597 241 55 27 31
313 228 224 89 75 60
250 613 289 101 28 40
326 93 226 134 26 37
381 889 299 66 58 57
310 973 299 56 53 53
242 521 161 186 122 99
370 108 230 143 23 41
337 604 316 42 29 29
321 93 234 130 55 54
239 824 309 215 143 115
321 93 239 125 62 58
350 400 269 65 55 46
320 53 257 130 22 50
406 803 194 158 108 74
360 778 305 73 57 46
344 333 253 131 99 73
325 83 250 128 98 78
301 323 269 119 90 62
322 86 247 127 96 76
355 193 208 123 99 73
257 792 281 129 95 70
315 63 353 101 87 71
325 88 248 117 91 70
267 229 265 104 89 75
246 639 283 121 95 65
422 494 205 79 24 34
316 658 216 77 24 33
323 94 245 125 34 52
329 84 251 111 65 56
330 88 251 114 38 47
335 83 253 123 27 47
494 848 384 102 90 79
250 663 255 162 116 91
332 86 252 116 23 43
259 473 179 57 40 37
307 143 297 115 90 58
364 228 238 127 100 68
407 611 221 140 97 79
245 943 304 55 52 52
335 618 195 63 37 42
316 533 129 108 22 41
282 502 342 158 18 50
330 93 251 124 23 45
268 517 101 128 14 43
304 159 291 107 86 62
340 168 246 96 78 58
295 163 323 118 93 66
403 766 302 49 40 35
252 609 275 127 0 38
327 708 196 118 16 28
258 288 276 137 102 73
332 94 252 123 32 47
340 73 255 117 91 75
345 693 199 57 36 38
330 168 213 122 100 76
383 886 322 52 45 45
341 68 256 111 77 66
295 58 334 121 46 53
349 487 120 136 10 38
289 28 334 111 26 45
345 73 255 113 83 72
308 296 241 64 53 42
340 78 254 115 82 68
350 73 255 125 24 48
247 938 290 75 69 68
328 18 314 101 54 48
350 78 255 126 22 47
248 938 288 68 63 63
325 964 304 54 50 49
312 228 219 100 83 67
253 711 262 64 38 41
295 14 329 49 45 41
301 293 244 81 70 58
334 68 256 110 50 51
335 503 64 96 21 35
340 83 253 123 28 49
378 101 239 117 82 75
326 143 220 114 95 74
294 492 93 91 42 36
431 518 179 178 121 98
404 773 191 131 96 57
298 291 231 83 70 57
231 748 294 164 112 79
340 88 253 101 63 54
350 442 139 96 80 62
320 823 319 61 49 42
349 409 191 97 85 73
257 543 175 111 26 41
392 438 334 170 12 51
345 83 254 121 21 45
296 20 337 87 64 51
341 498 79 149 23 44
345 88 255 112 21 42
255 898 270 172 123 101
260 493 124 74 34 37
390 423 349 92 31 42
340 93 254 105 53 48
295 458 349 69 28 34
361 445 100 95 79 61
424 413 269 112 28 42
345 93 254 108 35 45
330 188 243 88 75 62
283 157 304 113 92 70
320 823 244 160 121 95
446 843 344 85 69 58
350 83 254 108 38 46
306 208 310 138 102 71
245 582 210 190 119 92
455 843 372 92 75 60
379 467 121 62 33 39
350 88 254 109 26 41
270 299 221 101 86 70
276 204 271 108 94 79
311 875 357 48 44 42
235 588 239 141 107 75
350 93 254 100 69 55
285 188 278 106 91 76
330 98 223 127 73 55
357 342 212 103 87 72
394 628 244 85 32 42
385 407 269 66 58 45
307 121 342 114 38 46
290 148 319 116 93 67
236 613 230 172 116 81
330 213 205 119 97 71
330 103 224 125 101 74
406 503 289 90 25 36
363 144 233 122 96 66
290 198 273 103 86 68
341 499 123 185 3 44
250 568 269 97 19 36
411 453 254 54 26 33
375 840 222 69 58 64
333 99 222 129 79 58
308 263 229 74 66 59
418 763 234 106 75 54
336 103 221 125 98 66
285 908 243 125 88 68
323 481 82 62 40 32
285 238 310 149 108 77
303 40 307 148 15 45
372 840 366 38 34 33
275 343 218 96 77 56
430 749 269 96 84 72
329 113 223 121 99 76
233 704 277 169 114 83
304 348 273 115 90 61
345 223 251 113 89 60
333 107 222 126 103 77
340 143 214 117 97 74
341 454 109 87 71 54
335 392 260 63 53 43
280 218 265 104 89 74
332 110 221 121 99 74
245 933 294 97 80 73
332 113 221 119 97 73
331 233 247 88 71 51
264 949 268 70 66 67
335 113 220 118 97 75
373 486 342 33 27 32
326 123 225 120 97 72
312 234 211 112 92 71
409 623 181 144 100 61
387 608 266 136 19 46
420 853 309 73 62 61
329 118 223 119 97 73
329 123 222 118 97 74
331 123 221 119 98 75
326 768 330 80 62 52
330 128 220 120 99 75
421 412 219 131 31 45
298 16 331 40 37 36
442 825 329 41 36 31
248 933 288 91 75 70
305 253 294 148 108 82
335 128 219 116 96 74
333 130 241 117 91 68
405 698 234 130 94 69
335 372 197 90 80 71
330 403 319 95 41 42
340 103 219 130 95 65
340 108 220 124 99 70
292 470 136 84 73 64
305 469 124 75 64 59
355 558 150 201 11 41
350 624 197 75 35 42
340 113 220 119 98 74
345 108 220 126 100 70
320 347 256 91 66 47
281 946 338 61 56 55
345 113 220 121 98 72
390 673 254 82 26 35
355 228 203 125 99 68
350 103 220 133 64 52
395 708 190 135 95 56
346 494 123 177 5 40
335 253 200 121 96 65
333 138 241 109 87 64
502 823 358 102 87 72
300 273 249 94 79 63
350 113 220 128 103 74
419 415 181 101 40 46
340 118 220 116 96 74
345 118 219 118 96 73
376 713 199 118 80 53
273 565 133 165 0 38
314 882 234 59 56 57
345 123 219 119 98 74
279 512 77 151 8 31
345 128 218 121 99 74
325 454 139 90 76 62
350 118 220 125 101 74
360 333 224 117 93 66
506 723 274 98 81 68
237 592 220 175 120 83
350 128 219 122 99 73
322 96 231 116 84 59
249 949 314 68 62 61
344 841 301 38 33 32
366 368 214 95 83 72
325 103 229 124 101 74
342 811 221 77 64 59
284 462 164 74 63 53
327 98 226 127 81 60
305 11 260 102 58 50
310 213 279 104 85 64
350 838 234 103 82 74
415 415 180 101 41 46
345 173 210 119 97 73
318 495 342 156 12 49
380 593 178 98 34 42
286 203 317 134 101 71
322 97 235 126 100 72
297 24 342 89 39 40
422 442 186 123 18 41
323 99 233 128 103 75
293 263 246 97 81 64
405 417 174 82 36 33
293 138 321 116 93 68
325 203 208 119 97 71
322 97 238 127 100 71
232 747 290 171 117 83
323 99 240 130 100 75
401 608 245 59 25 32
323 103 234 124 99 72
363 173 229 122 95 63
361 585 167 80 33 33
269 738 325 117 40 48
493 774 305 115 63 58
422 413 263 77 28 34
252 608 298 169 4 50
340 513 133 89 22 37
325 108 229 123 98 71
318 252 236 73 63 53
419 852 378 88 72 61
327 109 226 121 98 72
405 723 194 133 92 54
300 452 168 74 65 57
365 378 209 91 81 72
325 113 229 125 100 71
294 561 106 84 34 40
325 48 259 125 38 52
327 113 226 123 99 73
236 542 190 197 134 102
300 593 330 113 35 47
285 238 255 99 85 69
292 433 334 81 29 37
295 723 335 37 29 31
324 108 234 123 97 70
340 457 104 80 66 53
326 113 239 129 96 74
274 584 148 138 28 47
410 858 359 88 70 61
340 483 329 73 23 33
355 113 224 117 92 63
295 478 348 111 21 42
325 98 244 130 93 75
402 463 143 55 34 37
328 100 246 132 100 81
258 575 182 106 60 67
332 126 242 117 91 68
369 462 115 135 13 38
331 102 247 140 102 84
380 863 314 33 31 31
315 223 289 124 97 66
334 99 251 127 68 67
403 427 318 106 24 41
301 63 309 118 84 61
332 96 252 127 14 44
345 882 219 88 75 70
335 98 252 124 25 47
335 108 344 130 13 45
330 923 348 58 53 51
261 468 179 57 42 40
330 108 244 127 96 76
271 213 299 114 91 67
374 73 221 148 23 40
312 540 83 80 24 34
416 518 259 80 29 39
320 133 319 120 93 62
328 110 241 125 94 71
350 621 196 88 33 40
260 853 274 157 124 95
329 773 328 81 62 53
273 691 242 55 29 30
250 579 208 124 65 55
330 113 243 128 98 76
334 105 246 138 99 81
260 832 323 174 113 88
290 333 218 68 55 42
410 863 349 92 69 61
325 118 229 124 99 71
359 238 243 128 101 71
426 508 197 125 87 78
348 461 87 58 34 29
327 118 225 122 99 73
342 420 322 30 26 25
407 825 268 68 54 55
350 464 80 86 59 43
295 23 339 95 41 41
362 233 241 128 101 69
325 118 234 125 97 71
388 653 198 140 101 78
326 118 238 127 95 74
285 837 318 48 39 35
236 532 254 152 2 41
363 886 357 61 53 49
324 123 229 119 96 70
327 122 237 123 94 72
299 303 214 100 81 61
318 461 128 68 53 45
309 292 240 65 55 44
250 703 265 133 88 63
325 128 234 120 94 69
329 118 240 124 94 72
419 410 259 77 46 43
350 158 212 116 96 72
364 213 214 120 95 66
330 128 239 118 91 69
265 593 214 86 24 36
402 555 187 103 18 30
331 117 242 123 94 73
363 128 230 115 92 65
421 853 329 78 62 58
415 463 289 108 27 40
335 118 243 123 93 72
247 580 242 107 82 60
312 353 261 98 69 49
260 503 134 193 1 43
280 523 69 73 24 36
335 123 243 119 92 69
363 183 234 122 95 63
340 103 249 138 97 80
355 88 220 131 36 40
366 811 312 49 41 35
306 53 305 125 97 64
427 835 313 96 81 68
435 842 318 90 72 61
334 92 367 117 30 44
293 133 321 112 92 70
241 658 284 137 97 68
345 98 255 108 29 41
346 753 320 146 9 46
355 843 305 36 32 32
300 599 194 224 16 44
341 869 215 125 100 86
396 423 334 157 21 50
410 824 264 68 54 53
345 102 253 117 60 57
325 63 348 83 74 66
340 107 247 133 95 73
357 323 236 125 97 68
390 844 244 100 75 61
330 628 315 69 33 39
340 109 246 128 93 70
345 107 247 131 92 69
357 298 217 112 91 66
345 110 246 126 88 68
309 547 94 139 25 44
350 98 254 107 56 49
249 676 261 147 104 77
322 250 201 123 96 64
350 102 253 107 39 46
350 113 245 111 79 55
252 728 264 78 27 40
340 123 244 117 91 65
333 446 153 93 77 60
340 128 243 111 87 63
345 128 244 109 86 59
241 568 279 110 20 39
442 805 287 73 57 51
359 283 214 120 92 62
271 668 259 104 15 32
358 856 311 34 32 32
350 118 244 110 82 56
445 738 253 92 72 48
285 411 222 85 78 72
521 798 383 109 94 81
330 173 211 122 100 77
295 947 255 84 77 80
398 496 307 46 32 31
355 69 221 133 23 35
312 530 57 142 18 42
367 418 353 132 19 44
290 908 357 62 55 54
355 73 221 97 39 33
494 763 298 93 77 63
291 363 220 68 55 41
324 764 213 83 66 58
425 468 254 61 26 32
320 333 254 94 66 49
388 71 231 119 37 42
360 68 221 126 37 35
353 892 358 61 54 51
430 791 291 50 41 34
415 417 169 89 35 35
362 173 219 117 95 69
355 78 220 120 37 34
228 530 179 197 134 107
285 868 256 131 107 84
320 43 303 124 55 54
402 509 295 117 27 45
430 488 203 118 47 54
335 103 339 132 19 42
403 483 151 85 37 41
360 73 222 104 57 48
342 472 326 33 28 29
360 78 221 121 42 36
314 60 352 106 91 76
420 793 290 56 46 38
323 247 202 124 97 65
361 77 222 87 52 40
331 148 238 104 85 64
365 68 221 128 34 34
417 625 192 170 120 87
340 88 364 110 32 45
423 738 267 52 43 32
263 912 345 46 43 43
366 72 221 138 32 37
475 784 299 99 75 59
364 74 222 117 61 51
279 168 299 114 94 73
246 535 212 109 70 62
292 433 343 75 25 34
340 198 207 118 96 70
245 578 294 79 25 35
366 648 207 110 21 39
308 272 231 74 67 61
240 773 333 167 118 91
359 88 221 113 57 49
409 406 273 100 38 37
310 944 253 94 87 89
325 43 259 128 24 51
321 128 324 116 86 58
388 77 239 113 33 45
355 93 220 133 66 55
325 233 203 120 97 69
357 94 222 126 67 57
354 333 243 123 96 67
321 965 278 89 85 88
370 73 221 146 23 40
321 203 210 118 97 74
460 832 359 92 81 70
291 383 221 67 54 42
365 88 224 104 52 44
320 958 264 84 79 80
371 67 222 138 33 34
370 404 319 63 54 44
376 73 222 147 22 40
302 341 271 116 89 61
262 253 255 103 87 69
371 80 222 144 17 36
280 238 310 142 103 76
432 515 179 175 120 96
374 77 221 149 21 42
426 824 302 71 60 50
329 127 339 142 22 50
330 513 119 182 2 43
257 258 273 121 95 64
345 913 339 55 48 44
380 73 224 144 24 42
384 87 235 146 26 49
370 83 223 146 22 39
236 638 269 151 109 80
290 753 234 83 64 57
389 558 294 120 24 45
268 254 301 142 105 78
289 888 252 135 112 88
355 68 255 114 39 48
360 68 254 106 47 49
432 795 272 63 51 41
385 409 219 73 65 57
485 783 301 95 73 52
524 797 385 110 95 82
275 553 99 85 37 41
360 78 253 105 49 51
280 543 335 171 18 55
446 823 304 85 68 60
236 778 290 153 110 74
285 966 271 84 81 83
365 403 304 58 50 42
360 138 239 118 92 63
355 203 206 121 98 71
252 747 271 105 35 46
339 78 339 102 31 38
465 813 344 53 43 32
413 552 219 175 17 48
263 609 222 143 10 41
365 68 255 103 29 40
332 75 327 121 31 40
296 186 322 134 101 72
365 73 254 109 29 44
337 560 147 168 20 50
360 83 252 102 38 45
324 133 229 120 95 68
232 688 276 163 112 80
305 818 330 72 56 48
315 318 205 99 80 58
304 394 298 92 76 58
361 88 251 102 64 55
249 903 279 146 115 91
315 118 305 124 93 62
319 718 332 106 20 40
355 93 253 96 51 46
254 573 264 84 23 37
360 93 252 101 39 44
290 213 315 140 104 72
288 466 152 76 65 54
365 83 252 109 26 43
343 355 201 87 77 67
402 875 298 83 72 70
362 793 201 156 117 80
385 78 229 137 21 41
414 858 294 75 62 60
270 417 311 73 20 29
359 323 229 123 95 66
361 85 251 93 63 52
441 473 184 137 101 88
365 88 251 100 42 44
366 86 252 119 26 49
351 604 311 60 25 34
290 243 254 99 83 67
371 84 251 125 6 44
251 928 279 88 74 67
258 263 279 123 96 64
313 375 277 105 83 58
346 483 68 135 37 42
350 143 216 119 97 73
283 851 262 124 102 81
259 508 326 61 24 31
368 86 252 125 12 47
252 928 329 63 51 50
362 93 251 105 27 41
385 68 229 110 39 39
256 623 299 131 25 48
352 328 245 126 98 67
315 48 301 123 21 37
245 723 324 143 108 79
383 73 226 134 26 39
370 778 195 129 100 65
310 38 344 109 83 68
285 822 275 71 49 47
386 73 229 126 26 41
331 678 321 47 28 30
300 183 322 139 102 73
358 183 242 119 94 64
280 348 288 122 97 68
375 858 234 96 77 63
370 68 255 112 25 43
375 68 253 111 18 40
257 559 179 76 23 33
295 38 314 123 41 43
335 900 361 66 57 54
409 823 219 193 126 96
376 79 251 125 6 44
233 643 249 167 116 81
298 324 212 104 77 50
374 77 252 124 8 45
305 168 324 139 99 73
300 17 334 47 43 40
441 825 334 53 44 36
280 468 334 43 27 29
469 763 295 76 63 49
378 68 252 117 21 44
410 528 269 179 16 53
293 127 308 112 93 73
380 73 251 123 13 45
355 143 243 112 88 60
279 764 248 83 64 56
351 708 315 148 18 47
295 663 322 157 20 51
329 178 240 90 77 64
356 728 197 144 2 35
317 404 191 86 75 65
378 72 252 122 20 45
377 75 251 122 8 42
447 733 250 98 77 57
396 443 319 156 19 51
406 847 381 75 60 49
374 87 226 149 18 43
295 177 282 105 87 68
371 94 227 145 21 43
325 128 344 152 115 115
429 420 169 69 37 38
395 848 383 76 62 51
373 91 226 148 23 45
407 810 202 182 124 94
370 587 170 109 32 42
381 83 228 149 18 43
345 473 74 83 54 38
312 328 256 92 64 47
377 85 227 150 17 42
310 29 298 147 37 45
313 481 92 53 36 37
452 730 268 90 80 70
379 88 230 143 17 40
343 97 358 128 6 44
388 512 307 162 5 51
384 82 230 145 19 42
381 89 233 144 22 45
335 582 165 164 29 47
350 401 294 64 57 51
305 482 99 66 38 33
423 415 190 102 30 44
378 92 231 141 17 43
380 93 234 139 31 47
379 439 105 119 58 54
257 936 337 58 54 54
354 872 215 96 78 65
245 663 293 135 99 72
384 88 239 146 23 55
330 53 258 121 43 54
316 875 335 32 32 34
325 23 258 114 19 43
370 88 250 120 11 43
368 436 128 96 81 65
360 773 305 77 59 48
437 850 356 93 74 59
375 83 250 125 3 44
370 763 198 113 81 50
432 488 245 143 20 46
375 93 248 123 9 43
370 93 250 115 10 40
301 400 341 136 17 44
311 253 210 111 90 67
378 88 247 126 4 44
383 81 247 125 7 44
309 333 208 91 76 60
410 847 279 53 44 42
318 722 202 151 0 41
275 273 238 100 86 71
382 84 245 125 6 44
233 683 274 164 112 81
296 9 323 49 45 44
300 508 343 96 29 40
279 618 320 62 31 36
325 103 362 150 21 58
383 86 242 129 16 43
342 77 360 108 25 39
455 812 334 57 47 39
301 184 321 142 104 74
348 303 206 102 85 68
379 93 244 130 16 48
417 534 222 173 17 48
314 267 235 72 63 54
353 233 247 125 97 67
428 447 257 145 4 45
344 83 354 105 28 41
344 668 312 48 28 29
294 658 321 132 23 46
295 748 339 59 29 33
378 92 247 126 7 44
236 533 259 160 2 46
335 58 257 114 61 56
377 94 246 125 9 44
288 658 237 60 29 37
310 508 343 66 31 36
356 98 222 102 54 43
352 479 89 102 30 40
299 267 293 150 108 84
345 493 94 94 28 40
360 103 224 142 31 44
443 881 400 100 85 72
280 283 290 159 109 89
316 713 205 128 3 37
353 106 221 125 93 67
240 530 167 189 124 100
449 758 280 64 54 45
410 488 289 95 24 40
264 648 299 96 31 41
367 803 196 149 117 82
352 110 222 129 103 72
279 668 316 126 24 46
354 133 220 118 97 74
352 112 222 129 103 73
353 115 221 123 98 69
295 118 314 115 95 74
360 458 85 87 52 44
353 118 221 121 97 70
374 887 328 54 48 50
297 31 306 135 58 46
325 452 144 91 77 63
322 317 201 102 85 65
363 193 215 121 97 70
355 118 224 118 94 68
353 123 221 121 98 72
263 702 247 108 16 30
391 493 138 55 32 39
356 123 223 118 96 72
428 802 301 48 41 35
325 413 188 86 75 65
292 51 329 123 22 39
354 128 221 119 98 75
442 493 190 153 112 93
310 684 327 55 31 35
352 841 236 141 114 94
424 428 219 99 28 38
317 163 309 127 99 65
297 41 342 52 35 29
360 107 226 129 58 53
423 418 219 92 32 36
358 253 206 125 97 64
296 118 305 102 85 66
357 112 227 107 83 53
255 948 274 75 69 69
360 109 227 116 78 56
285 552 94 80 30 38
360 113 228 106 81 53
345 293 204 108 87 64
261 578 249 42 27 30
365 98 226 128 39 41
300 53 344 87 31 36
365 109 228 142 37 47
425 813 272 63 53 49
244 888 284 193 139 122
364 112 230 117 81 55
303 463 347 104 26 41
389 563 169 172 6 41
307 48 306 128 98 65
360 703 309 129 21 45
270 248 303 138 103 76
367 105 227 139 23 35
285 163 290 104 89 75
355 98 253 105 66 53
340 401 316 70 62 53
359 98 252 98 66 50
279 492 108 82 63 56
361 855 226 110 82 65
360 103 252 106 27 42
313 770 227 78 62 56
250 653 292 128 95 69
355 106 248 112 77 56
355 109 245 120 82 59
379 892 318 62 55 55
309 363 269 107 83 56
400 421 159 81 28 37
267 301 282 133 98 74
355 113 244 117 83 58
262 920 261 68 63 64
393 526 151 121 26 44
495 738 274 95 85 77
285 173 285 105 91 76
418 841 314 89 76 63
305 673 325 153 18 49
320 123 349 139 23 53
360 109 245 117 82 63
267 210 281 117 97 75
330 843 304 73 55 41
290 251 252 98 83 68
418 613 212 162 117 88
360 107 249 103 64 51
360 113 243 119 85 60
354 778 307 79 60 49
245 623 273 125 94 67
340 153 213 119 97 73
337 88 366 109 32 44
361 103 251 105 42 47
365 913 314 59 52 50
365 103 251 105 30 42
319 263 240 73 61 48
280 873 328 115 90 69
317 119 307 121 92 67
365 111 243 109 72 55
325 373 196 87 77 67
385 418 355 88 33 40
365 110 245 105 63 52
358 636 201 34 35 37
363 693 206 44 35 38
413 458 156 44 38 41
363 148 234 122 96 65
327 519 114 173 4 39
358 119 226 111 89 65
293 40 317 126 17 29
325 503 340 47 29 32
306 373 284 111 88 62
315 938 249 97 88 90
362 128 228 110 90 68
393 881 294 69 59 58
405 873 299 85 73 72
310 19 334 59 54 51
364 123 234 122 95 65
240 683 299 131 97 67
364 123 238 129 100 71
285 253 249 99 85 70
355 458 84 79 61 47
360 123 240 116 85 56
245 748 279 165 113 83
345 943 284 77 70 68
355 118 243 118 87 62
345 493 89 109 28 41
265 343 218 124 93 60
328 65 348 87 77 68
258 539 243 89 10 34
240 543 215 118 86 69
303 272 283 144 105 79
380 854 313 34 32 33
358 117 242 120 88 62
357 124 241 120 92 61
361 114 241 116 79 55
313 88 361 126 35 52
371 98 228 142 21 40
258 564 192 112 31 51
259 243 274 118 94 67
358 473 330 42 27 28
295 933 349 74 67 64
330 198 244 85 72 59
300 858 248 147 120 94
370 103 228 139 21 39
297 58 342 119 20 44
350 423 322 69 20 29
299 297 235 79 67 54
290 358 289 118 93 63
374 103 231 137 21 41
270 398 300 96 79 60
388 73 234 119 34 44
291 505 75 98 29 27
420 744 246 64 46 39
275 423 214 60 52 47
312 448 341 133 14 42
377 99 233 137 23 42
275 868 257 116 97 76
290 243 308 151 104 76
308 481 97 68 33 33
249 588 299 153 2 47
233 598 239 146 106 73
346 660 206 113 13 26
322 164 221 117 96 73
415 853 374 87 71 60
277 966 304 74 69 67
273 585 152 94 50 48
376 103 234 121 38 43
368 111 231 140 42 46
272 509 104 124 26 46
233 603 239 146 105 73
373 107 231 135 26 39
345 573 160 178 5 38
432 433 237 41 31 33
370 111 234 137 59 57
311 208 283 110 89 66
323 162 224 116 94 71
331 490 61 86 49 36
405 668 190 169 114 83
370 111 239 120 60 57
411 448 153 143 15 37
347 465 81 82 49 38
410 856 363 88 70 59
418 493 259 140 17 46
317 42 341 91 79 65
424 483 161 131 98 71
289 138 309 110 91 70
233 603 244 145 106 75
392 564 285 137 21 48
378 657 212 49 38 34
375 108 234 121 49 50
410 463 154 85 32 41
330 71 356 86 72 57
390 837 219 226 150 121
373 111 235 137 78 84
375 108 239 115 77 74
421 498 214 105 22 41
305 8 314 61 50 52
456 804 297 87 68 56
245 768 282 156 111 76
378 97 235 124 47 51
290 613 325 124 28 47
378 101 236 109 65 53
377 104 239 121 72 71
306 915 232 82 72 70
374 103 248 124 14 45
251 948 284 75 69 69
311 413 339 127 8 39
500 832 382 103 86 70
319 818 243 177 126 102
370 98 250 120 13 44
370 103 250 120 15 44
342 440 160 95 81 66
296 129 301 105 88 69
268 228 299 113 92 68
257 578 261 63 29 36
422 573 184 159 112 81
274 226 262 106 91 77
385 724 298 64 42 32
281 787 256 85 65 58
370 107 248 120 19 45
335 593 320 108 23 44
418 572 176 165 109 79
370 111 243 121 40 50
270 449 186 56 49 42
315 38 260 128 27 49
449 732 264 74 62 48
267 547 105 122 21 39
285 432 199 65 56 48
373 106 247 121 22 45
378 97 243 134 23 51
338 921 342 57 51 50
391 603 259 173 12 54
334 481 73 87 41 30
275 477 139 73 60 53
325 853 246 114 94 73
310 108 301 120 91 57
239 693 268 157 106 71
377 100 241 135 28 51
380 409 329 66 56 45
321 198 210 118 97 75
360 808 204 151 121 91
320 183 219 115 95 73
359 503 335 144 17 46
320 178 219 115 94 73
315 92 302 113 90 61
295 293 279 130 93 70
383 752 192 137 99 62
319 183 224 109 89 67
284 412 311 98 10 30
320 188 214 113 94 75
362 508 337 133 16 43
260 423 229 79 68 56
351 778 310 80 61 52
294 328 277 119 92 61
319 188 219 113 94 73
360 203 209 122 98 72
319 188 224 107 88 68
405 488 154 59 37 39
406 548 179 123 67 54
318 192 224 105 87 67
371 852 382 85 68 55
266 244 255 108 92 76
295 48 319 132 95 71
365 503 338 133 21 45
270 868 258 124 103 80
270 243 254 107 92 76
267 238 302 118 94 66
253 877 267 141 113 84
271 249 250 106 90 73
291 337 281 116 90 60
373 723 202 90 52 41
401 468 144 110 25 38
285 253 305 155 106 80
269 247 252 106 91 74
270 255 246 100 87 73
455 848 373 99 83 68
365 403 319 64 55 46
330 43 258 104 51 51
315 488 79 64 35 29
444 823 319 69 57 48
357 168 241 124 98 69
377 570 301 173 15 54
266 253 250 101 87 73
382 864 377 57 47 41
354 658 303 128 18 43
384 53 239 109 30 41
235 553 214 160 116 88
281 234 256 103 88 72
319 23 262 123 23 46
326 113 324 127 54 53
284 234 256 101 85 69
275 245 251 106 90 74
318 98 301 114 32 28
305 302 244 63 52 40
280 243 253 103 88 71
349 513 332 144 10 45
279 245 251 104 89 73
280 248 250 103 88 72
379 426 162 97 72 59
273 218 306 117 94 69
402 815 198 185 126 98
275 255 246 102 88 73
325 703 328 159 19 51
263 707 243 114 11 31
358 349 243 116 92 65
306 243 268 108 85 58
285 243 253 99 84 69
265 553 324 167 14 53
280 623 239 161 17 45
282 246 252 101 86 71
278 218 311 129 99 70
319 198 213 113 95 75
431 839 303 80 65 58
317 194 224 104 86 67
415 633 214 164 117 85
430 419 174 76 34 36
366 233 234 126 98 64
358 144 221 114 95 75
256 669 262 141 93 70
317 203 215 114 95 75
412 653 204 160 106 80
320 208 210 119 97 74
376 862 372 52 43 37
444 736 264 83 71 59
405 428 144 149 23 32
345 743 196 99 29 42
319 207 212 114 94 72
315 208 224 97 80 64
262 318 277 126 96 69
318 223 207 120 98 72
370 453 350 96 29 40
389 886 309 73 62 59
381 498 319 153 16 49
315 43 343 94 75 63
412 538 204 77 30 40
320 668 322 105 29 43
343 725 322 95 37 46
315 213 214 113 94 73
422 518 228 149 17 39
417 598 182 152 107 71
316 213 210 115 95 74
430 861 375 95 77 64
320 213 208 120 98 74
331 464 100 65 50 43
314 213 219 106 89 70
390 793 303 53 46 41
315 213 224 97 81 64
325 593 324 117 25 45
380 848 244 97 73 63
316 218 210 116 95 73
278 501 98 73 54 50
312 55 301 137 14 44
337 504 109 164 10 44
314 218 214 112 93 72
385 848 259 71 55 53
419 453 284 104 27 41
313 223 214 110 91 72
254 548 314 79 27 37
305 648 322 160 19 51
314 218 224 95 79 62
314 223 224 93 77 61
393 603 192 118 78 55
310 153 328 140 101 74
377 855 252 70 58 55
317 195 227 97 81 64
388 68 239 114 35 45
320 198 234 90 75 60
297 402 216 57 49 42
301 293 214 95 79 63
296 523 44 186 19 53
302 308 266 122 93 65
371 638 208 163 6 37
235 608 254 139 103 73
330 228 203 120 97 71
317 208 228 91 76 60
357 304 217 112 89 63
269 407 227 78 66 53
320 533 109 81 27 38
363 180 216 118 95 70
332 68 324 103 54 50
293 864 317 94 78 62
297 284 225 92 77 62
320 203 234 89 75 60
265 238 260 105 90 75
305 18 265 120 43 50
375 842 225 78 69 66
233 678 274 160 111 81
319 208 234 88 74 60
295 928 350 69 62 58
270 343 217 111 86 58
264 499 123 83 34 39
317 214 232 87 73 58
358 288 215 117 91 61
315 223 229 86 72 58
410 593 179 150 101 66
288 481 118 84 75 68
317 223 233 81 69 57
321 223 238 78 68 58
239 538 269 120 10 40
350 283 205 114 90 63
320 228 205 122 98 71
315 228 209 115 95 72
335 872 319 31 29 30
310 243 219 94 79 63
341 493 64 190 13 46
385 743 191 138 99 61
320 233 205 122 98 69
425 428 154 67 40 41
352 831 226 82 67 62
354 218 247 122 96 67
285 373 224 75 62 47
330 318 201 94 80 65
318 231 207 121 98 70
314 238 208 116 94 69
331 205 206 120 97 70
354 189 247 113 89 63
290 198 319 136 100 72
365 414 189 100 87 73
253 718 253 94 34 44
325 218 205 120 97 71
317 234 206 121 97 69
430 483 234 87 27 37
498 737 271 95 80 68
286 448 328 75 25 33
231 533 189 186 127 99
317 238 206 121 97 69
250 658 253 171 118 95
312 233 219 98 82 65
312 233 223 89 75 60
312 233 214 107 89 70
257 858 280 169 132 105
390 849 339 44 40 39
312 239 210 111 92 70
391 568 284 164 17 53
311 238 219 96 80 64
345 488 69 174 15 46
294 897 248 92 80 69
439 498 169 189 125 102
307 177 287 112 92 69
309 609 197 123 27 44
375 503 134 79 31 37
261 338 278 122 95 69
312 228 214 107 89 70
260 278 284 143 102 77
260 403 229 106 83 55
313 424 193 82 71 61
290 898 359 54 49 48
462 877 406 85 85 85
268 216 291 117 94 69
383 671 202 114 86 56
371 573 162 188 9 41
385 803 186 140 104 66
313 227 213 110 91 71
313 232 212 112 93 73
335 328 256 137 100 77
340 268 249 128 99 72
313 227 220 98 82 66
312 229 223 92 77 62
339 933 264 81 73 74
260 248 284 116 92 64
485 774 309 66 55 43
416 558 228 152 17 42
314 243 208 119 96 70
344 391 197 95 84 73
340 213 204 115 93 69
246 517 229 156 1 45
395 718 190 137 95 56
293 126 314 116 96 74
345 338 253 131 99 71
314 248 208 119 96 68
317 243 206 124 99 70
443 496 184 168 114 97
320 243 204 125 98 67
366 243 224 123 94 59
353 648 302 122 16 42
357 895 258 61 53 54
331 123 344 137 21 48
316 248 206 124 99 69
313 253 207 118 95 67
240 660 252 203 139 108
316 253 206 122 97 67
257 497 126 114 34 42
430 788 244 121 82 63
258 248 274 119 95 67
285 893 355 42 39 38
252 523 318 126 17 43
314 428 338 128 14 40
323 805 233 168 122 97
320 253 203 124 97 66
266 543 114 60 30 31
230 748 309 166 115 84
312 243 210 112 92 70
305 12 294 150 81 80
275 863 259 112 93 73
414 478 254 50 26 30
311 243 214 105 87 68
290 508 59 133 31 38
429 523 239 93 23 35
344 788 313 85 66 58
311 248 210 111 91 68
370 405 329 64 54 46
310 248 214 103 85 66
232 728 314 154 108 79
265 333 218 123 92 58
418 797 215 167 109 84
245 698 265 150 102 67
309 248 219 91 77 62
344 923 264 80 71 71
257 348 277 124 97 70
295 513 343 98 27 41
309 253 214 101 83 65
230 743 299 164 111 81
303 25 342 103 86 71
416 743 230 116 81 63
270 443 320 61 25 28
383 410 206 98 86 75
416 728 253 64 50 41
296 103 319 107 31 41
420 872 384 98 81 66
269 933 248 74 67 66
309 253 224 79 68 57
361 343 234 118 94 66
246 893 294 80 64 63
232 713 304 146 102 72
290 239 255 99 83 67
290 248 252 99 83 67
246 899 304 108 85 64
293 240 256 98 82 65
298 252 302 153 107 80
432 490 161 133 98 70
299 78 314 123 22 42
516 763 323 96 82 69
309 301 246 61 49 34
500 832 379 103 84 68
295 243 255 100 83 64
460 748 258 99 79 62
299 244 256 103 85 64
330 478 79 73 34 28
389 493 136 52 34 35
363 163 234 121 95 64
314 228 229 83 71 57
314 233 229 80 69 57
455 799 293 90 71 63
288 841 263 113 94 76
320 233 238 75 65 56
387 648 239 132 19 45
310 378 200 99 82 63
314 238 229 77 66 55
312 240 227 80 68 55
435 478 165 97 73 48
316 238 234 75 65 55
325 368 197 88 79 69
341 494 114 178 6 44
319 239 235 75 66 57
312 254 232 72 64 56
290 588 331 53 28 32
326 294 201 95 81 66
312 244 228 75 64 54
249 677 301 130 97 69
274 382 296 120 95 68
336 98 338 125 18 40
255 663 258 143 95 75
233 648 253 168 117 84
313 248 231 73 63 54
431 830 329 35 30 28
425 413 224 128 28 40
315 243 233 74 65 56
285 724 227 105 28 39
350 213 249 118 92 62
279 332 216 83 68 54
292 527 60 69 24 31
307 312 256 101 74 51
286 292 232 90 75 60
320 243 235 74 64 55
275 218 308 122 97 68
315 253 235 72 63 54
233 778 292 156 110 76
384 408 224 70 62 55
282 500 91 71 37 38
250 585 247 88 66 50
321 248 238 73 62 51
439 458 179 100 72 58
281 193 313 117 95 71
295 747 231 76 59 53
320 253 239 73 62 51
460 848 370 104 87 72
387 880 282 75 63 59
250 673 260 146 101 76
317 255 237 73 63 53
314 258 236 72 63 53
385 887 319 59 52 52
440 850 368 97 78 63
296 192 277 101 84 65
279 965 310 69 65 64
312 154 326 142 102 78
300 11 260 101 61 50
280 303 283 141 103 76
375 778 308 67 53 45
326 133 224 118 96 71
327 138 220 116 96 74
295 383 298 120 93 63
435 754 250 75 60 51
