ply
format ascii 1.0
comment Created by Open3D
element vertex 2241
property double x
property double y
property double z
property uchar red
property uchar green
property uchar blue
end_header
404 829 252 37 34 36
394 841 145 89 71 56
409 946 279 60 50 44
259 491 228 82 4 27
429 831 135 84 70 59
264 491 229 61 15 26
264 496 228 86 6 29
269 486 234 44 25 29
375 556 282 152 12 46
344 911 180 72 64 63
458 706 232 67 52 37
267 488 231 38 23 25
308 818 231 150 104 88
401 891 235 103 101 100
267 492 231 57 20 29
400 626 229 108 24 41
388 690 164 54 42 39
456 939 236 70 60 54
268 496 231 105 10 32
270 491 233 60 22 32
270 496 232 131 9 42
389 586 265 91 22 35
241 696 195 136 99 66
264 501 229 87 3 28
424 731 129 69 54 40
349 496 293 49 26 31
264 506 229 87 5 28
262 508 226 76 6 24
288 876 265 154 111 97
461 488 289 209 139 128
263 511 225 45 19 24
257 509 235 75 33 34
257 510 237 89 43 43
267 285 288 114 94 73
270 501 232 130 6 41
254 546 150 158 4 38
269 511 230 116 9 37
342 392 282 119 95 68
271 509 232 137 7 43
273 491 235 94 22 38
273 496 234 139 7 44
367 692 166 103 17 26
433 880 230 87 78 77
276 496 238 126 13 40
541 887 225 77 66 58
434 490 160 125 10 42
276 484 242 112 33 42
432 483 157 131 19 46
293 611 245 80 30 38
278 486 244 52 27 32
277 488 241 48 22 28
398 791 174 59 51 50
455 960 284 84 68 57
296 610 247 92 29 40
374 781 144 75 58 49
280 486 249 41 29 31
411 737 176 55 43 42
280 491 249 63 26 35
451 763 229 59 45 38
274 511 234 129 9 42
277 496 240 78 18 33
283 736 157 42 35 38
274 301 274 93 77 61
281 486 253 87 25 36
519 951 244 96 78 65
282 486 255 65 29 36
282 496 251 69 28 36
276 620 222 88 26 37
272 512 231 139 7 42
274 506 234 141 7 44
283 401 305 170 121 101
276 506 237 133 9 44
344 949 206 90 84 86
279 501 244 142 9 44
280 511 244 120 15 41
369 911 284 47 38 36
254 546 224 88 3 28
283 501 254 101 20 40
305 896 298 189 140 124
394 712 134 72 54 39
409 421 284 67 48 43
281 506 247 130 15 44
326 855 204 90 63 54
281 510 247 54 21 31
419 417 234 56 25 26
283 511 249 107 21 41
282 506 250 146 11 47
284 506 254 161 6 50
359 811 254 188 138 114
284 511 254 153 13 49
329 411 134 94 79 63
324 409 139 94 79 63
322 408 141 94 79 63
323 408 145 94 78 63
504 877 198 85 73 62
325 409 143 94 79 63
504 940 248 68 56 46
329 410 139 94 79 63
282 719 162 110 17 31
354 521 288 126 23 45
329 409 144 94 79 63
334 411 134 95 79 63
313 346 274 92 77 60
334 410 144 96 80 64
279 785 161 175 120 86
469 726 210 112 86 61
324 407 149 94 79 63
404 611 199 120 30 44
439 501 164 134 5 41
324 408 153 96 80 64
454 426 119 117 23 36
327 408 146 94 79 63
324 410 159 100 84 67
330 409 149 96 81 65
334 409 154 103 86 69
266 711 233 131 36 45
334 408 159 105 88 70
361 618 152 133 39 55
344 413 134 97 81 64
339 411 144 99 83 67
395 830 178 46 40 44
419 423 279 64 39 37
436 412 192 126 7 37
344 413 139 99 83 66
391 701 277 134 90 76
344 412 144 102 86 69
346 414 133 97 81 64
289 276 265 99 77 52
546 856 234 73 56 44
349 414 134 99 82 65
425 495 317 188 138 120
283 921 269 139 120 111
347 413 136 99 83 66
469 954 292 75 61 47
351 414 142 105 87 70
371 533 281 154 19 53
373 930 210 68 61 61
344 411 149 104 87 69
338 408 160 106 88 70
344 410 159 106 88 69
349 412 149 106 89 70
349 411 159 104 86 67
321 391 167 113 95 77
323 391 170 129 108 89
328 386 175 101 84 68
238 816 214 202 143 117
326 391 172 111 93 76
329 391 174 101 84 66
323 396 169 123 104 88
324 401 169 122 103 85
351 463 307 87 28 35
326 396 172 107 90 74
349 416 307 89 30 39
452 787 219 77 58 49
329 396 174 103 86 67
328 402 171 109 91 73
330 401 173 107 90 73
319 440 307 82 20 35
328 386 189 93 77 60
299 344 257 87 70 53
326 384 189 95 78 60
298 736 152 139 11 36
373 530 283 141 20 49
441 730 254 135 99 67
347 393 233 68 59 50
330 386 179 94 79 64
331 390 177 99 82 65
299 613 137 207 13 45
332 386 183 82 70 57
333 391 184 82 70 57
239 691 209 142 100 69
404 671 189 117 74 50
330 390 186 87 72 58
334 396 179 96 81 65
252 828 216 217 151 125
335 401 178 96 81 64
422 458 152 81 29 38
334 401 184 80 68 56
426 716 281 164 107 77
332 400 187 83 70 56
329 407 164 107 89 71
254 551 229 106 49 50
325 411 163 103 87 70
334 407 164 107 89 70
334 406 169 105 87 68
241 541 161 136 27 44
334 405 174 101 85 66
374 811 260 72 60 55
335 405 178 93 78 62
449 481 320 145 93 83
241 641 204 165 116 87
331 411 184 81 69 56
289 436 289 115 22 44
331 412 181 82 69 57
356 881 160 85 71 61
336 379 264 101 84 65
331 415 181 83 70 56
346 807 166 62 53 53
263 301 314 104 85 65
417 431 149 69 26 34
449 456 234 111 23 42
549 886 220 86 73 61
331 411 189 82 70 57
454 721 233 66 52 41
324 446 306 51 26 32
334 761 258 75 60 54
337 398 182 90 76 62
337 401 182 84 71 58
358 969 239 90 84 85
339 406 174 95 80 63
329 666 259 86 18 34
344 408 174 90 75 60
316 489 287 183 14 58
341 409 162 105 88 69
417 436 159 95 16 36
343 408 165 103 86 67
349 410 164 97 81 64
406 694 167 61 43 38
449 443 297 93 17 28
345 409 168 95 79 62
429 430 84 96 19 40
403 700 132 82 60 40
339 405 179 88 74 59
339 406 183 83 70 57
344 407 179 85 71 57
344 408 184 83 71 57
235 516 164 67 30 36
337 416 181 83 70 57
320 631 257 83 27 36
328 478 296 43 23 29
352 398 233 71 62 54
427 545 253 142 23 48
331 873 183 41 35 39
339 411 189 85 72 58
337 414 188 83 70 57
310 930 195 89 77 74
350 661 162 110 19 30
343 409 186 84 71 57
451 451 229 48 28 31
288 871 264 170 133 106
343 409 189 86 72 58
345 408 189 86 72 58
549 966 274 100 85 72
347 408 179 84 71 57
348 408 184 86 72 58
305 321 309 133 99 71
350 409 184 85 72 58
349 408 189 85 71 58
331 419 182 83 70 56
461 726 224 95 82 71
334 419 181 83 70 56
246 756 222 172 127 99
283 516 249 73 29 36
321 360 296 122 96 67
334 419 183 84 70 56
354 415 134 101 83 66
280 776 239 62 52 47
359 416 134 104 78 63
431 551 199 153 16 47
354 414 139 104 87 69
354 414 144 107 89 70
359 415 139 106 87 69
352 413 145 106 89 70
353 413 149 107 89 70
380 700 276 82 20 33
355 414 148 107 89 70
272 533 132 157 1 40
359 414 149 106 88 69
354 861 156 53 48 49
354 412 159 100 83 65
359 413 159 95 79 62
299 816 233 80 57 54
364 414 159 92 76 60
369 416 159 86 67 54
354 411 169 86 72 58
384 495 303 47 28 30
359 413 164 89 74 59
354 411 174 84 71 57
430 445 136 106 21 37
359 412 174 84 71 57
361 414 162 89 75 59
364 414 164 86 71 57
402 709 134 83 64 48
363 413 169 84 70 57
437 786 249 126 84 56
365 414 169 83 69 56
314 266 269 89 70 46
369 415 169 82 66 54
334 937 197 90 81 82
399 646 229 101 24 39
427 531 284 158 109 78
369 415 174 80 63 52
276 550 232 30 27 27
459 926 211 71 60 59
379 416 279 76 66 57
276 616 223 44 26 30
408 746 174 55 44 43
354 410 179 85 72 57
359 412 179 85 71 57
319 901 189 54 49 50
372 641 257 96 20 37
461 462 104 181 12 47
293 566 108 107 30 41
389 731 143 72 54 41
359 411 184 82 69 55
361 641 167 88 29 35
301 693 252 169 19 53
352 408 191 83 70 56
367 413 180 80 65 53
231 571 220 157 112 82
366 414 177 81 66 53
369 414 179 77 61 50
430 418 258 55 24 26
241 692 196 132 94 63
294 736 152 137 8 33
461 964 259 111 92 80
374 415 179 71 52 44
370 414 189 71 57 47
316 346 300 123 95 61
451 446 224 55 28 32
364 846 160 60 53 52
322 904 177 70 64 60
379 416 189 68 48 42
369 418 134 101 47 39
259 601 160 150 1 35
347 909 181 66 60 61
369 417 144 101 68 56
369 417 149 96 70 57
371 419 132 100 43 36
374 419 134 100 41 36
262 311 288 116 94 68
424 726 119 61 46 32
372 418 136 100 44 37
375 572 271 100 22 38
373 418 139 101 47 42
441 463 82 175 12 29
373 418 144 98 50 45
444 506 249 179 12 52
375 419 143 96 43 41
443 736 254 138 101 68
424 546 139 193 18 47
379 420 139 99 30 36
438 904 213 85 72 71
379 419 144 93 32 35
241 717 186 127 95 63
379 581 269 57 27 32
542 928 226 90 76 63
384 421 139 98 22 34
388 807 270 39 34 36
384 420 144 94 22 33
414 424 184 80 27 35
259 832 214 216 151 125
374 417 159 80 52 45
376 419 147 91 40 38
381 603 153 52 35 38
269 766 164 137 101 65
367 418 255 82 71 60
379 419 149 85 30 32
377 418 150 83 36 34
345 526 282 100 30 43
329 426 308 71 26 33
422 581 209 174 12 49
384 420 149 86 23 30
378 418 154 78 34 34
387 930 226 63 60 61
449 927 249 68 54 43
378 418 159 76 36 36
380 419 158 75 30 34
227 516 190 104 21 41
384 420 154 80 24 30
393 475 305 77 14 29
374 417 164 77 57 48
382 418 166 74 30 35
350 471 307 53 28 32
383 418 170 68 29 35
385 419 169 69 27 35
388 492 102 125 24 38
359 806 258 190 143 122
339 972 264 58 53 51
383 418 174 65 29 33
379 417 179 67 40 37
384 418 179 65 31 33
384 418 184 67 35 35
384 417 189 68 40 37
325 386 194 99 81 61
323 391 199 97 80 61
397 741 281 176 127 103
325 391 195 96 79 61
448 426 210 125 9 29
256 834 208 209 135 108
327 391 192 93 77 60
426 540 206 103 25 40
389 486 99 130 15 35
417 590 199 69 32 40
321 390 200 100 81 62
283 476 259 46 29 33
322 392 203 98 80 61
329 826 248 142 113 89
445 461 219 38 31 31
317 830 241 158 122 97
328 396 193 89 74 58
392 478 97 142 16 35
329 401 194 87 72 57
325 401 200 90 75 59
418 426 174 74 22 34
542 862 211 87 69 50
321 396 205 96 79 61
323 401 204 92 76 59
328 401 207 96 79 62
360 766 156 63 50 48
318 351 299 121 94 62
544 880 215 79 66 53
329 391 298 125 98 66
273 711 174 112 22 37
329 396 209 96 80 62
409 921 230 45 41 45
266 374 281 132 95 73
409 846 195 58 51 52
330 402 206 95 79 62
446 501 254 173 10 53
417 521 210 46 25 32
247 828 198 238 165 142
334 401 204 94 78 62
329 386 214 95 79 61
326 392 211 97 80 62
411 506 303 158 118 104
261 360 285 127 91 66
324 401 210 96 80 62
317 356 302 122 96 66
325 396 210 97 80 62
425 681 274 147 100 67
364 614 262 178 14 57
334 386 214 92 77 61
394 501 98 68 34 40
334 391 210 93 77 62
334 385 219 88 74 60
336 384 223 85 72 59
327 402 198 88 74 58
328 406 198 89 74 58
450 731 224 82 67 53
324 406 204 92 76 59
305 514 66 182 11 32
294 601 248 53 25 31
309 416 311 154 31 52
324 406 209 94 78 61
329 406 204 92 77 60
327 404 207 95 79 62
330 410 200 90 75 59
326 409 203 91 75 59
334 406 203 93 77 60
335 407 201 92 76 60
456 473 109 191 13 50
387 636 270 172 125 109
331 410 194 86 72 58
334 412 194 87 73 58
429 931 239 75 63 59
436 806 212 80 63 53
334 410 199 90 76 60
418 581 223 61 22 33
332 409 202 92 76 60
339 392 209 89 75 61
429 423 111 96 43 29
329 771 155 82 60 51
412 687 161 59 48 41
369 651 258 41 25 29
339 401 203 90 76 61
339 397 205 89 75 61
271 286 281 108 90 71
433 834 109 96 82 68
342 398 206 86 73 59
339 391 214 88 74 61
339 386 224 83 70 57
454 926 213 78 64 65
340 453 301 108 41 48
341 389 222 81 68 56
456 456 279 138 14 41
341 394 212 86 73 60
324 396 303 126 97 65
344 396 214 81 70 58
281 561 238 94 25 37
346 399 212 80 68 57
286 272 266 102 80 54
349 400 214 76 65 55
345 395 219 78 67 55
382 604 156 47 36 41
393 691 280 149 108 88
346 394 223 75 64 54
348 397 219 75 64 54
280 416 293 161 18 53
351 399 223 71 62 53
339 406 199 90 75 59
376 853 187 48 44 48
256 520 141 156 3 38
358 656 166 108 21 31
344 407 194 86 73 58
341 408 195 87 73 58
418 581 184 92 27 41
344 405 198 86 72 58
339 410 194 88 74 59
425 542 265 182 15 56
337 410 197 90 75 59
460 456 89 89 29 38
342 409 192 86 73 58
304 816 234 172 122 100
258 351 289 126 93 66
349 407 194 84 70 57
319 616 258 52 28 32
349 405 199 81 69 56
241 564 177 169 7 52
280 896 273 191 136 120
455 441 244 44 32 34
348 403 205 79 68 56
299 486 283 123 22 44
571 905 212 92 79 66
350 404 204 78 67 56
242 665 208 115 81 49
329 526 88 189 10 40
351 404 208 76 66 55
340 385 228 76 65 53
345 390 229 71 61 51
341 385 240 62 53 44
345 391 234 68 58 49
251 800 176 174 119 83
384 417 199 68 51 44
343 856 168 58 48 48
428 428 293 62 40 36
347 393 226 72 62 53
324 466 300 100 29 43
349 396 234 68 60 51
370 670 261 133 15 42
372 959 240 83 76 77
340 386 249 88 76 63
342 388 242 60 52 43
414 425 164 63 27 35
344 391 249 88 76 64
343 386 254 94 80 64
345 390 254 93 79 64
273 536 132 122 15 37
416 562 255 58 29 34
347 392 254 93 79 64
404 425 154 72 25 28
345 395 244 83 73 63
281 661 223 32 26 29
346 395 248 87 75 64
350 399 249 87 75 63
404 915 269 33 34 36
444 501 160 138 5 43
349 396 254 92 78 63
248 621 197 129 93 63
454 441 295 84 13 29
351 399 254 92 78 62
353 408 194 80 67 55
274 291 318 117 92 67
427 836 204 58 50 48
354 407 199 78 65 54
400 481 91 61 37 38
334 771 159 82 61 51
358 408 204 73 62 52
358 407 209 71 62 52
319 912 302 133 111 91
355 409 193 80 66 54
296 896 235 135 105 77
356 409 198 77 64 52
359 409 199 74 62 51
360 409 204 72 60 50
322 519 76 166 0 43
309 446 304 121 21 44
284 921 254 172 135 111
253 521 143 154 3 37
364 411 194 73 60 49
369 413 194 70 57 47
304 271 315 131 99 65
369 412 199 69 57 47
418 661 283 178 119 92
352 886 167 69 60 59
364 410 204 70 59 49
406 858 202 67 62 62
389 566 268 54 24 29
369 412 204 68 57 47
369 412 209 68 57 48
338 676 156 121 13 29
352 403 210 75 65 55
353 403 214 73 63 54
299 586 255 164 13 50
426 711 281 162 107 77
355 405 214 72 62 53
445 429 97 76 33 36
353 401 224 70 61 52
356 404 219 71 62 53
274 756 234 62 50 47
359 407 219 70 61 52
469 431 114 145 15 43
427 451 142 33 27 27
358 407 224 69 60 52
298 700 251 129 12 42
364 410 214 69 60 51
369 412 214 68 59 50
310 575 262 152 12 45
361 409 219 69 60 52
486 932 226 79 68 56
364 410 219 68 59 51
361 409 224 69 60 51
446 459 141 53 31 32
412 902 228 64 55 47
364 411 224 68 59 51
369 413 224 67 59 51
371 414 193 69 56 46
375 414 204 67 56 46
437 933 233 75 63 58
267 611 223 108 80 68
373 413 214 68 58 48
372 413 219 68 59 50
375 414 219 68 59 50
434 430 294 60 40 36
379 415 214 67 56 47
379 415 219 67 57 47
379 415 224 68 58 49
354 401 229 70 61 52
444 446 74 56 38 40
353 402 239 73 64 55
356 404 229 69 60 51
332 939 301 39 37 39
463 413 259 47 29 31
405 706 128 88 63 47
297 515 95 136 0 39
358 407 229 68 60 51
404 505 96 49 39 40
356 404 234 68 59 51
355 405 240 77 68 59
418 641 288 187 128 101
357 407 239 75 66 58
389 831 149 75 59 47
248 593 196 93 31 37
360 411 239 77 67 58
439 491 321 166 116 90
419 882 117 103 85 69
364 412 229 68 59 51
366 414 229 67 59 51
367 413 232 68 60 51
357 408 244 82 72 62
431 700 253 120 91 59
358 407 249 86 74 62
304 371 314 141 105 73
355 405 254 89 76 61
360 410 254 85 73 61
387 656 264 130 83 74
363 416 244 79 69 59
327 529 277 156 36 61
362 413 246 81 70 60
439 721 259 137 99 65
363 416 249 82 71 60
563 884 227 102 87 73
334 922 187 87 78 78
362 413 254 84 73 62
388 527 290 87 23 36
365 416 254 83 72 61
374 414 229 69 59 50
374 416 239 74 65 57
399 696 284 170 124 99
254 711 182 117 89 58
384 417 194 68 45 40
384 416 204 67 55 46
285 491 263 80 27 38
454 430 99 78 37 33
322 689 261 78 19 29
384 416 209 67 56 46
384 416 224 69 59 49
369 417 244 78 68 59
499 916 214 100 82 67
365 419 245 79 69 59
366 419 252 81 71 61
383 536 280 59 20 27
437 510 230 117 19 38
369 420 254 80 70 60
498 916 222 93 76 59
313 321 284 90 71 49
384 416 239 74 65 56
374 416 244 75 67 58
375 418 253 77 66 57
449 925 259 49 42 36
394 955 279 65 58 54
324 361 274 99 82 63
299 651 155 160 1 36
519 895 214 69 58 48
384 417 244 75 66 58
463 470 327 93 25 40
290 779 237 73 61 54
386 428 86 83 10 51
333 460 302 77 26 33
439 423 273 59 19 25
400 485 91 55 36 37
389 428 86 106 33 34
394 428 86 109 21 23
314 396 310 139 104 71
265 316 279 111 91 70
399 431 85 121 19 29
337 864 177 48 42 42
280 390 308 167 118 99
400 429 88 111 26 22
479 906 206 67 58 59
242 568 175 163 6 48
394 426 94 100 34 31
399 428 94 105 30 29
368 791 148 64 52 45
241 516 156 67 32 37
394 801 279 174 133 108
389 436 85 92 28 39
388 438 87 159 1 28
389 441 87 141 7 34
355 845 256 152 122 93
419 417 214 78 27 25
389 446 89 100 26 37
394 436 84 72 34 38
399 436 84 78 33 36
399 441 86 78 30 32
394 442 87 88 31 36
408 580 160 114 32 43
400 446 86 89 21 30
409 430 89 105 28 32
404 429 93 109 26 27
437 818 127 88 71 56
409 429 94 108 24 28
419 422 274 64 35 36
414 429 94 105 21 32
404 546 289 149 105 90
409 436 79 140 15 22
409 433 80 123 24 16
411 438 76 124 18 26
414 436 78 145 9 18
414 446 75 153 0 30
404 436 83 129 13 29
403 441 83 129 9 30
406 436 81 129 9 30
406 441 81 135 3 29
416 418 178 91 32 37
387 423 110 99 42 39
237 710 210 153 105 76
389 425 99 96 40 37
385 424 104 99 40 39
306 670 247 172 13 55
406 928 231 46 41 45
430 511 289 170 116 90
389 425 104 98 35 35
251 773 227 167 128 97
403 756 165 48 43 41
399 950 269 67 59 54
334 451 303 57 29 33
244 591 194 66 27 35
278 571 138 108 25 38
371 722 155 56 44 38
386 424 108 100 37 36
389 424 109 98 33 33
374 481 295 147 12 44
399 426 104 98 27 29
394 425 109 97 29 30
363 506 291 43 25 28
399 426 109 96 27 30
269 621 160 63 33 39
388 423 114 99 42 38
415 591 194 135 35 49
454 921 211 76 67 66
389 423 119 98 40 37
389 423 129 96 27 31
390 424 114 98 37 35
454 421 219 49 32 35
438 408 205 110 36 30
428 766 195 61 48 43
406 799 287 184 135 109
391 424 119 97 38 37
393 423 129 94 23 31
394 735 142 73 56 47
304 326 270 81 69 57
394 424 119 97 30 34
334 577 123 188 13 46
450 909 231 48 42 38
299 521 268 166 13 52
399 425 114 95 26 32
273 521 128 78 25 35
276 738 161 42 37 41
399 425 119 96 24 33
399 531 289 96 29 39
394 424 124 97 27 33
395 424 129 94 22 31
399 425 124 98 20 32
399 425 129 96 16 31
349 891 284 142 108 77
404 427 99 105 25 26
406 690 131 81 60 44
409 428 99 110 21 25
409 427 109 102 28 29
395 792 163 60 50 47
414 428 99 123 18 28
416 428 96 117 19 31
409 701 164 49 42 36
369 420 264 80 70 60
414 426 109 112 28 29
404 426 114 95 27 33
299 706 154 118 14 29
404 426 119 94 21 35
399 576 284 160 115 96
409 427 119 93 21 36
404 426 124 97 15 33
328 886 174 56 50 50
404 426 129 99 12 30
421 538 127 138 14 43
446 421 203 70 25 30
414 426 114 92 31 33
419 469 81 56 39 34
344 536 100 116 19 37
373 897 274 102 71 59
414 427 119 90 26 37
409 616 294 174 126 96
415 427 124 95 16 38
419 431 84 104 13 35
420 428 86 94 16 34
384 571 269 70 29 35
424 427 89 116 17 35
418 461 174 105 15 37
424 430 83 102 13 34
424 428 86 104 14 36
417 429 93 103 17 34
417 511 209 64 22 34
424 427 94 127 20 31
429 432 79 107 16 33
429 428 86 100 24 41
445 408 229 43 25 23
429 428 89 98 25 38
420 437 75 148 13 29
424 436 74 138 10 30
424 441 73 160 3 32
439 459 141 41 26 25
419 446 74 154 0 29
424 446 74 160 0 33
431 440 71 186 13 37
472 441 100 197 14 54
429 436 74 138 11 30
348 701 156 123 13 29
429 551 204 160 12 47
321 283 287 123 88 55
429 441 73 165 7 32
344 631 261 72 29 35
431 434 77 119 30 33
434 432 80 97 21 31
242 621 202 140 101 66
434 430 84 92 21 34
228 521 239 177 123 101
432 428 86 91 21 35
435 429 87 89 19 34
439 431 84 93 19 35
439 429 89 88 18 37
455 423 278 63 10 22
439 428 94 83 26 33
440 429 93 83 24 36
444 430 89 84 26 33
449 432 89 84 33 36
236 640 216 160 111 79
444 429 94 78 31 36
326 391 301 127 97 63
442 428 96 79 30 36
264 781 230 157 117 84
338 836 188 79 61 55
409 847 242 53 47 44
434 441 71 158 21 36
436 846 223 122 116 117
439 441 71 109 27 35
399 936 238 57 52 53
434 437 74 157 7 30
434 441 72 166 19 42
439 433 80 90 26 31
404 746 285 178 131 102
439 441 72 115 31 39
325 646 257 121 28 47
370 646 172 59 28 33
434 446 73 75 29 34
450 930 244 81 65 50
413 767 181 49 44 41
440 438 71 107 33 39
445 503 304 186 120 98
443 433 80 89 20 38
454 461 254 49 29 34
444 437 75 105 18 26
449 445 309 69 56 48
444 435 78 93 19 36
435 736 275 164 113 79
444 441 73 114 33 35
249 611 184 140 26 47
339 751 263 78 62 56
394 420 184 67 26 32
449 436 79 89 22 36
448 438 76 98 24 19
424 576 199 174 10 49
449 441 74 138 25 38
442 440 71 157 35 42
314 566 264 163 12 49
449 446 75 82 35 36
448 433 85 89 23 37
284 341 320 150 104 74
450 434 83 93 19 40
287 580 245 139 12 43
419 427 99 145 21 28
235 636 224 151 106 76
419 426 104 136 25 28
305 336 310 128 98 67
424 427 99 134 23 29
424 426 104 135 30 28
354 886 164 71 60 59
309 805 166 90 70 59
567 936 224 121 105 94
429 425 104 111 35 27
471 910 206 67 59 60
429 424 108 108 40 28
419 422 119 86 35 35
424 422 119 84 39 33
329 413 307 82 51 36
379 859 246 41 37 37
419 420 129 99 23 38
416 423 126 94 18 39
429 407 194 117 46 29
423 422 129 104 21 34
453 480 114 189 13 48
290 581 119 95 30 41
422 424 112 106 38 31
319 576 264 169 15 55
429 422 114 86 41 29
429 422 119 83 40 30
428 423 123 91 33 28
232 568 231 165 118 95
426 424 126 112 11 29
267 382 294 152 102 87
268 381 299 161 112 93
426 425 130 113 8 32
293 626 240 61 28 33
429 431 129 102 17 33
431 424 121 82 39 16
289 866 264 170 131 105
489 961 284 89 73 59
429 429 126 107 18 38
434 424 109 89 39 28
462 460 109 185 12 52
444 428 99 79 32 34
321 277 282 115 83 55
425 486 184 41 27 30
444 427 104 85 33 31
449 428 104 84 32 34
424 496 213 45 29 30
332 875 194 42 39 41
448 428 100 79 33 35
432 861 221 118 106 102
478 703 219 86 66 50
434 423 114 85 40 29
339 962 219 91 88 90
424 425 284 62 32 34
433 423 118 87 41 29
334 786 253 148 113 97
237 558 202 160 0 47
437 423 116 87 40 29
435 424 120 99 32 31
439 424 114 91 36 29
425 481 179 68 22 32
514 925 220 95 83 73
226 519 234 191 137 114
426 487 212 94 15 35
444 425 114 97 31 30
288 710 251 155 10 49
389 861 247 43 39 36
444 426 119 114 22 34
389 859 246 43 39 38
339 436 305 66 29 33
449 426 119 118 21 35
438 433 127 96 24 40
434 436 129 44 25 29
439 436 128 81 27 36
444 437 128 58 29 31
449 434 126 108 27 38
389 456 92 152 3 33
353 401 264 98 81 63
260 326 322 130 95 74
413 581 254 100 26 38
389 461 93 148 4 36
399 451 88 125 9 31
394 451 89 132 16 38
263 356 279 114 89 61
421 474 181 113 15 34
399 456 88 82 23 34
396 461 91 91 31 40
274 536 229 73 27 34
399 461 89 68 28 34
332 373 261 96 80 63
440 522 138 79 31 37
389 466 95 103 18 34
461 463 118 167 15 42
413 691 164 53 44 38
389 591 264 101 16 34
394 466 93 92 26 33
394 471 94 121 13 33
424 496 189 90 17 35
456 748 213 81 61 50
396 464 91 36 36 35
399 466 90 78 28 33
444 906 210 84 75 74
397 467 92 66 29 36
384 881 254 40 36 35
359 967 270 72 65 62
399 471 89 114 22 33
394 476 94 121 12 34
394 481 95 112 13 32
397 477 92 76 34 35
468 485 284 208 143 131
417 569 231 126 9 41
339 451 302 58 27 31
409 451 80 147 0 30
413 451 77 149 0 30
410 461 80 147 3 31
414 461 79 160 0 32
294 616 140 120 33 45
344 746 269 77 62 55
274 391 269 115 84 61
269 646 179 146 7 38
404 456 85 120 8 28
406 450 81 146 0 34
349 766 163 65 47 44
309 791 161 85 65 57
424 422 274 61 30 35
407 452 82 154 1 44
407 456 82 117 8 30
404 461 85 88 26 31
402 461 87 132 10 33
410 691 286 175 119 87
408 461 83 89 27 35
387 661 261 99 61 53
275 731 248 79 29 38
402 466 87 89 26 32
324 627 147 182 5 38
405 466 85 72 32 34
405 471 86 76 33 37
409 466 83 115 20 36
409 471 84 95 29 36
405 475 86 70 38 38
456 431 249 91 27 39
409 476 85 74 33 37
404 481 89 76 31 35
334 466 301 84 27 36
370 896 264 87 71 58
408 482 87 142 15 36
416 469 81 102 30 44
414 476 84 123 26 39
414 481 86 50 33 40
388 472 97 148 3 38
438 501 109 188 17 46
389 476 97 126 12 32
389 481 98 124 15 34
398 486 93 49 35 38
296 936 215 78 72 74
436 497 222 123 10 33
395 491 95 93 25 34
354 671 163 74 31 35
306 334 267 83 72 61
294 741 152 139 9 36
270 346 270 102 81 59
399 491 93 49 34 37
399 496 94 67 33 37
400 500 95 48 35 36
420 486 190 116 15 41
409 486 88 145 11 35
399 460 303 54 24 29
403 492 92 49 35 38
409 491 90 106 29 40
406 494 91 51 33 37
409 494 91 62 31 34
412 483 87 142 25 37
414 486 87 73 29 39
422 554 146 150 32 54
414 491 90 82 31 38
414 494 91 51 35 36
283 471 259 86 30 39
246 566 160 110 41 50
446 483 102 195 16 47
414 496 93 46 34 40
419 701 200 54 42 37
418 916 248 32 30 32
292 854 281 153 122 99
404 501 94 55 34 37
430 512 304 189 123 96
409 501 94 54 36 39
358 736 162 107 23 31
339 381 274 109 88 65
409 505 96 47 37 40
299 271 262 92 73 49
414 501 94 77 37 39
311 645 252 149 31 52
390 491 100 132 10 32
283 684 235 120 9 37
388 496 103 58 26 35
391 496 101 48 32 34
393 496 98 71 31 35
392 486 97 116 19 33
315 522 72 180 9 41
392 491 97 140 12 35
389 511 104 142 3 32
354 668 262 135 9 40
354 858 156 47 43 45
391 509 101 161 6 30
396 499 96 81 27 33
394 506 100 67 28 37
392 512 102 159 1 35
404 511 99 86 28 37
419 451 75 156 0 33
417 453 77 154 0 35
231 566 220 157 113 83
419 454 76 158 0 34
424 451 75 164 0 32
403 911 225 64 61 62
424 457 77 168 1 35
322 284 290 126 87 57
424 461 79 128 13 30
234 531 244 167 117 95
429 454 76 169 4 30
286 936 254 141 110 96
423 896 247 49 41 38
429 456 78 168 5 34
334 811 174 69 54 49
429 461 79 131 10 31
346 541 282 106 25 41
235 546 169 104 29 40
449 942 254 93 77 67
349 965 279 78 73 72
419 466 80 80 29 36
424 466 80 47 36 39
321 513 72 136 20 57
323 550 100 49 31 37
417 419 213 71 23 26
449 411 244 38 29 23
419 471 82 56 36 38
342 798 251 194 141 123
349 641 260 94 29 40
453 445 76 68 40 40
422 469 81 42 33 46
419 756 288 165 117 83
436 746 276 163 111 79
405 891 224 62 59 60
424 471 83 68 31 39
261 589 226 110 73 64
345 915 291 85 73 62
419 476 84 81 32 40
397 687 172 75 51 35
352 873 267 139 111 80
277 437 270 171 4 53
419 481 86 41 36 42
424 476 85 109 25 38
320 460 302 48 27 31
429 466 80 108 23 34
424 516 220 59 26 33
429 468 82 144 16 34
364 691 164 98 19 26
271 394 293 157 108 89
429 471 83 162 12 36
434 451 75 104 20 36
434 457 77 166 7 32
439 454 76 171 9 35
431 803 207 64 50 44
453 496 139 169 18 47
428 726 190 57 46 41
434 461 79 161 7 34
297 515 98 134 0 33
296 640 242 157 10 50
444 451 76 132 20 38
294 521 109 111 7 33
509 951 254 100 79 66
445 452 77 164 13 44
250 586 179 65 28 35
444 456 78 133 18 35
312 261 265 89 69 45
444 751 249 127 91 61
449 451 78 84 29 36
564 942 229 105 85 65
339 931 298 42 40 39
444 460 80 99 25 38
404 815 274 167 117 94
448 459 81 63 39 33
434 465 81 164 9 32
403 580 154 143 22 45
434 471 83 171 10 34
438 465 81 170 10 39
349 431 307 43 30 33
309 701 256 34 28 31
453 437 80 91 26 44
439 471 84 172 13 34
389 852 146 93 71 56
434 476 85 155 15 37
424 415 234 56 25 23
433 479 86 90 33 45
394 851 194 61 56 57
460 961 264 124 104 89
436 478 87 141 13 39
404 611 293 171 126 98
279 836 209 47 38 41
480 927 224 93 78 64
272 386 273 122 90 67
322 638 256 47 26 29
449 466 327 144 16 47
374 651 175 62 29 33
263 636 188 104 36 40
422 732 216 63 44 42
439 480 90 99 27 37
444 466 84 133 19 38
443 470 85 170 14 40
448 465 85 75 35 37
445 472 88 176 15 41
450 467 88 64 36 40
408 686 230 65 37 37
448 471 89 127 23 41
441 473 87 174 15 38
445 477 93 175 16 43
441 511 238 101 27 40
447 479 96 183 16 50
254 616 179 123 27 44
364 626 160 87 34 43
529 950 282 100 83 65
448 480 99 190 16 47
418 484 86 47 38 42
403 423 174 66 28 37
419 486 88 46 38 40
421 483 87 40 36 45
423 576 204 168 10 48
419 511 199 136 6 42
424 486 88 77 37 42
379 816 259 67 55 51
419 491 90 89 33 39
232 537 174 42 32 35
419 411 179 92 43 36
419 494 91 57 35 43
419 496 93 62 35 37
429 482 87 129 26 42
404 421 289 67 51 45
427 933 286 58 50 44
429 486 89 116 28 39
429 490 90 91 33 39
483 956 287 83 69 58
463 462 323 49 30 30
249 586 174 112 24 42
430 492 92 164 23 48
294 292 267 86 67 41
429 496 94 118 27 39
419 501 95 117 29 41
385 646 259 95 57 50
434 486 90 62 35 38
435 487 92 48 36 40
241 559 182 54 22 32
440 482 93 142 27 43
307 568 261 180 10 57
324 959 216 86 83 86
529 951 244 101 84 69
469 726 230 74 59 45
432 489 91 90 33 43
446 476 239 145 16 42
339 701 153 82 32 36
434 491 94 120 23 38
433 495 96 175 16 38
238 781 183 172 116 86
438 490 96 46 32 35
442 484 96 78 22 36
425 502 97 61 31 36
340 970 226 79 74 74
314 881 224 126 99 76
419 505 96 42 34 39
329 891 300 173 128 104
419 511 100 123 27 40
424 506 99 55 33 38
366 689 276 132 6 40
431 503 102 90 39 45
411 607 229 58 26 33
359 521 99 158 5 38
428 505 100 103 35 44
425 512 103 115 25 40
428 510 105 114 25 40
359 716 287 36 28 30
447 500 268 184 5 57
430 511 109 189 19 47
363 945 210 75 69 70
434 496 99 124 22 40
326 375 296 125 98 67
417 720 168 58 48 43
436 493 97 177 19 47
439 491 99 144 19 46
438 495 100 184 19 44
439 496 104 185 18 45
446 482 98 187 16 47
319 271 279 105 79 47
448 481 104 195 15 49
395 617 193 85 33 40
446 487 109 195 16 48
447 485 109 194 15 49
441 492 103 189 17 48
442 489 101 171 15 51
285 571 129 72 29 36
443 490 104 190 17 46
358 568 127 136 21 43
286 626 233 71 21 31
440 496 109 191 18 46
442 495 110 189 17 47
253 621 184 81 41 43
288 586 124 123 21 43
445 491 114 185 15 47
424 441 139 67 25 34
443 496 114 184 17 45
448 491 119 184 15 46
446 492 118 186 15 44
445 496 119 187 17 47
350 894 163 67 56 51
385 927 223 64 59 58
450 491 124 137 24 43
544 927 212 95 82 70
284 261 313 114 92 67
447 494 121 183 19 46
369 871 184 55 46 48
405 914 246 46 43 41
444 471 148 71 29 34
435 501 104 92 31 40
352 599 136 85 36 42
436 503 108 187 17 43
434 506 109 164 17 45
275 761 160 140 102 66
437 504 111 185 15 46
437 510 120 186 17 44
324 605 136 192 9 40
317 387 307 128 96 66
440 506 124 187 17 46
292 881 242 154 116 88
449 951 295 68 57 48
418 591 209 146 26 48
442 499 116 188 17 48
443 501 120 186 18 47
399 611 289 171 126 101
441 502 118 190 17 49
401 782 169 55 46 44
446 502 128 184 15 47
493 925 265 58 48 42
442 505 125 188 16 47
334 601 135 110 22 38
444 506 129 187 16 48
236 791 190 177 120 88
441 508 127 188 18 51
454 431 94 81 36 34
459 442 80 87 39 43
380 941 228 70 63 64
454 436 84 87 26 34
455 434 88 96 22 37
394 831 165 69 58 56
459 436 89 84 19 38
456 439 82 61 31 41
458 438 85 84 29 40
235 561 214 131 87 65
396 798 178 60 50 50
462 438 86 92 8 20
464 437 89 100 21 28
339 943 202 78 71 71
458 433 95 84 33 33
467 449 95 188 13 48
460 434 93 83 25 36
281 702 247 135 9 42
401 618 246 58 27 28
464 436 94 94 21 34
463 442 81 191 18 36
463 445 81 131 26 48
464 446 84 104 31 43
229 516 194 141 9 43
467 438 91 124 7 29
470 441 94 189 14 42
467 442 86 214 20 45
529 941 254 53 44 37
344 431 306 108 29 42
276 415 287 147 17 52
466 447 88 114 18 37
468 446 89 169 16 45
455 429 104 83 35 34
444 506 244 174 15 50
404 436 312 134 20 44
233 606 224 160 114 86
354 968 270 79 73 71
459 431 99 78 40 33
459 430 104 83 36 35
464 432 104 75 40 38
464 430 109 96 34 37
462 428 111 98 31 37
454 426 114 104 29 38
383 561 274 45 26 28
459 428 114 109 26 37
256 616 175 121 21 37
459 427 119 123 19 36
463 428 114 117 23 39
428 462 148 69 27 33
464 431 123 105 18 36
458 905 204 139 113 122
463 433 99 77 33 34
465 434 98 89 29 29
397 589 156 56 28 35
464 436 125 68 24 32
462 438 127 42 25 30
463 442 127 65 27 31
250 616 195 102 69 53
469 431 119 134 12 40
468 433 105 108 34 41
466 434 102 83 38 31
411 587 239 135 15 42
309 781 244 64 53 47
470 436 104 167 22 44
471 441 99 196 15 49
308 911 204 63 51 49
470 441 109 174 14 49
469 446 99 188 13 50
468 446 109 180 13 51
390 852 193 61 57 58
419 416 219 75 22 24
472 438 106 182 21 53
359 801 260 133 103 90
437 800 264 164 107 78
361 749 277 81 65 60
431 489 161 125 7 34
319 806 241 188 135 114
336 877 161 71 61 57
471 436 114 152 14 46
470 436 119 138 14 44
467 441 123 138 14 44
467 446 119 144 14 42
408 691 287 176 122 91
313 866 224 174 128 100
246 590 197 86 29 39
403 908 292 42 40 40
467 445 123 132 14 39
464 446 129 97 25 39
349 701 283 146 11 46
454 451 79 48 37 39
467 449 112 181 13 50
261 520 136 110 14 38
453 455 81 49 38 37
280 530 126 67 26 34
389 416 294 70 52 46
456 453 82 90 35 41
404 681 224 48 32 33
451 458 82 63 43 43
458 450 81 81 37 38
343 408 292 96 79 61
462 450 85 49 29 37
465 452 94 136 20 42
463 456 94 132 27 47
258 311 299 108 89 68
239 576 210 118 82 57
246 688 191 125 93 58
456 458 87 92 24 37
459 461 94 168 16 45
462 459 96 144 11 36
450 472 93 165 17 44
451 457 243 102 27 40
453 470 94 165 18 44
283 571 133 65 30 36
457 465 95 186 15 46
291 576 253 146 11 44
460 462 99 182 14 45
461 462 109 182 12 51
462 460 114 163 17 48
441 706 221 96 75 55
464 456 119 110 29 44
319 886 302 164 123 100
462 461 119 120 30 48
444 416 259 55 23 22
303 461 295 168 15 52
462 461 124 94 29 41
464 456 129 74 27 36
454 471 99 183 14 44
323 507 291 130 19 44
315 681 253 82 27 35
456 468 98 182 15 44
327 398 302 123 97 66
455 472 104 192 14 49
451 478 104 195 15 49
452 474 96 182 16 47
453 475 104 194 14 49
248 771 172 154 108 72
277 447 260 116 14 38
280 364 317 163 117 86
458 466 99 183 14 45
399 911 254 37 34 35
252 551 233 128 77 68
330 837 188 105 71 59
341 880 156 101 84 77
356 886 161 74 63 57
459 466 104 187 13 49
356 446 307 142 12 43
414 830 134 106 79 64
457 469 101 186 13 44
384 845 184 60 53 53
459 466 109 183 12 49
385 847 188 61 54 55
456 477 119 181 13 48
453 481 119 141 19 44
354 726 160 127 13 30
456 477 123 125 23 44
455 481 124 52 32 37
428 766 287 169 116 82
356 409 261 87 74 62
430 556 199 163 9 46
328 835 186 99 73 60
460 466 119 176 17 51
534 906 219 92 83 77
461 466 124 171 15 48
434 459 315 68 16 24
324 779 156 76 59 50
459 471 124 180 13 49
384 791 149 89 66 53
414 436 313 127 31 47
460 471 129 167 15 46
461 466 129 163 16 48
457 475 120 181 13 49
316 837 243 164 126 102
457 475 124 145 18 44
458 476 129 76 26 38
240 666 224 183 126 104
317 963 227 88 86 88
456 478 128 33 33 40
447 499 254 171 10 53
450 461 244 54 28 33
467 450 99 183 13 49
420 446 145 71 24 32
252 521 227 53 18 21
456 446 258 52 32 31
466 452 99 170 15 45
374 716 282 123 22 45
466 452 104 183 12 50
340 533 97 191 9 43
232 518 196 134 15 42
415 726 174 62 49 44
466 451 114 176 14 49
351 400 266 101 83 65
387 661 264 122 78 68
466 448 116 164 15 45
465 451 119 118 22 39
465 451 124 47 31 34
464 451 129 58 29 34
450 482 114 192 14 49
276 444 262 161 10 54
450 486 119 150 17 44
452 485 121 88 24 39
454 486 129 68 35 39
452 491 129 47 35 37
389 422 139 96 20 34
393 423 134 92 18 31
296 346 316 141 105 74
394 423 139 93 18 32
394 423 144 96 20 34
344 501 291 98 27 40
399 424 134 92 14 30
263 701 231 115 68 56
396 424 138 90 17 31
308 544 86 200 12 39
399 424 139 89 19 32
399 424 144 87 21 32
389 421 149 89 21 31
394 423 149 93 19 32
398 423 149 91 20 31
456 756 218 79 58 47
453 466 254 152 17 45
454 927 254 62 51 44
394 422 154 85 21 30
400 424 154 84 23 30
349 581 130 175 5 35
333 909 175 114 105 103
409 427 134 101 12 33
284 321 265 87 72 54
369 920 291 42 40 41
404 425 144 84 22 32
409 426 139 94 18 33
354 506 290 65 31 35
416 421 139 114 10 37
327 884 194 36 33 36
380 847 178 45 39 44
337 383 287 119 95 68
404 425 159 74 25 30
394 420 189 72 28 34
369 536 113 168 2 32
416 423 150 75 23 35
424 541 274 118 75 57
377 609 156 57 37 40
416 421 154 62 29 34
414 426 148 82 24 35
414 425 159 53 29 32
256 354 300 147 102 78
399 446 312 106 30 43
304 456 298 159 16 51
424 441 194 124 8 32
388 585 140 202 17 48
310 836 224 169 121 99
389 420 169 68 26 35
397 721 281 168 119 97
293 346 317 141 104 73
385 419 174 65 27 33
259 766 227 168 124 95
389 420 174 64 26 33
394 422 164 71 26 36
365 681 168 86 23 31
394 421 169 67 27 37
398 423 164 70 27 36
399 422 174 64 26 35
386 419 178 64 28 32
387 418 181 65 30 33
388 418 189 68 34 34
399 491 301 61 23 30
399 422 179 64 25 32
400 626 239 94 23 38
399 421 189 77 25 34
244 586 239 167 118 93
396 631 203 91 31 39
402 423 170 69 29 39
239 561 174 132 18 45
259 731 178 115 86 56
424 709 222 69 45 41
372 772 271 69 58 54
401 424 168 69 28 38
404 425 169 71 27 38
409 425 169 70 25 35
405 424 174 67 29 38
234 626 224 159 112 84
380 781 273 71 59 54
416 416 164 65 27 35
444 409 234 39 23 22
416 416 169 74 26 36
414 425 169 66 25 33
414 425 174 66 24 33
404 423 179 66 24 33
299 706 253 146 7 45
349 955 210 85 79 82
272 331 268 96 78 57
404 422 184 73 24 34
386 646 267 157 110 97
430 466 323 40 27 29
408 423 181 71 24 34
408 423 184 76 25 34
399 418 224 67 52 45
409 425 179 69 26 35
428 486 174 99 18 36
415 906 224 65 58 54
428 436 133 101 22 37
411 424 189 83 29 35
333 711 151 117 20 32
416 441 174 46 28 30
248 621 237 168 121 94
349 791 164 54 45 43
414 446 174 69 24 34
309 610 136 202 11 42
286 500 262 159 15 50
349 771 163 58 46 42
272 690 231 37 29 30
416 442 179 49 26 32
309 612 138 200 11 41
415 446 179 56 25 33
418 416 159 52 32 34
464 930 249 69 60 53
419 416 164 59 31 32
401 623 234 34 31 35
418 413 166 75 27 38
419 411 174 83 35 37
254 832 199 230 152 127
423 412 175 88 34 36
356 410 269 83 73 62
410 871 219 60 57 57
524 948 256 74 59 45
423 416 175 86 23 39
419 411 184 103 45 34
442 889 240 56 46 44
424 411 179 97 40 35
424 408 181 118 43 31
365 866 174 56 49 47
422 409 184 112 44 34
420 412 189 108 49 32
294 311 319 137 100 68
418 416 189 106 47 31
373 757 276 71 60 55
317 696 261 31 27 30
421 408 184 113 44 34
422 409 189 109 50 34
280 745 248 55 27 33
428 408 185 121 41 33
430 411 184 114 28 35
424 416 179 42 29 34
428 416 184 105 20 35
373 570 273 62 27 32
444 926 254 50 41 34
532 948 276 86 71 57
426 519 278 105 40 43
433 408 190 129 40 28
432 411 186 141 19 36
280 556 239 63 30 34
291 872 246 139 108 81
369 781 144 68 54 46
539 887 214 92 77 63
247 582 174 107 23 41
432 408 186 145 23 29
395 690 158 63 48 41
364 880 255 50 42 37
433 415 190 129 10 32
291 509 268 163 11 48
421 456 197 120 7 32
420 538 301 182 122 95
416 423 144 104 7 34
284 746 155 109 18 30
417 423 144 109 11 39
467 463 296 78 22 28
417 445 164 57 27 33
269 346 319 156 108 84
420 430 135 117 8 36
424 426 132 110 6 34
233 791 209 171 120 90
424 431 134 117 7 36
418 426 139 116 8 35
471 948 263 92 70 51
364 421 307 156 15 50
435 736 193 69 54 45
464 683 223 80 60 44
423 596 289 168 117 86
417 426 144 102 15 33
426 430 130 113 10 36
417 422 150 79 24 34
419 421 159 41 32 33
402 679 165 66 50 41
418 426 154 65 26 35
494 970 249 104 85 68
417 431 154 75 24 37
379 696 275 80 25 34
418 436 144 80 22 34
422 433 137 122 8 35
425 436 135 89 15 33
420 902 245 55 48 43
379 512 295 79 31 38
300 550 91 194 14 43
329 741 259 72 59 52
422 443 142 45 26 26
273 311 273 94 78 61
427 433 132 114 9 38
429 441 134 55 26 28
494 925 269 58 49 44
430 435 130 48 24 28
540 878 206 84 70 61
399 419 274 65 49 44
411 424 194 87 30 33
309 569 106 140 30 44
428 447 138 94 22 36
417 436 149 79 22 33
409 897 225 68 63 60
416 434 151 130 14 43
418 441 149 80 21 33
227 516 178 76 32 37
236 550 242 170 121 98
416 433 152 129 12 47
416 436 153 109 14 35
309 261 263 91 71 45
417 441 153 93 33 44
452 765 215 77 58 49
352 555 116 46 34 37
315 331 284 90 73 55
450 776 229 60 46 39
417 441 160 85 19 37
419 446 149 62 26 33
233 746 199 158 108 77
417 446 154 44 28 30
442 752 267 168 118 83
416 446 159 55 24 33
431 525 196 128 13 39
417 446 159 64 22 32
432 438 132 49 26 28
423 692 244 79 56 43
433 447 137 111 22 40
444 440 130 58 27 36
449 440 130 70 28 31
444 446 134 50 28 29
374 436 310 136 14 42
449 442 132 59 28 27
413 681 245 76 62 47
418 421 164 47 30 31
416 419 168 76 25 36
400 500 302 50 27 30
418 421 169 83 22 35
419 421 174 99 19 37
418 431 169 42 28 29
374 666 174 42 35 36
427 530 125 66 23 32
399 418 244 63 45 39
273 661 174 67 32 36
416 419 176 96 29 37
419 421 178 98 20 38
423 706 194 56 40 36
289 866 269 178 138 112
422 419 176 66 27 34
418 421 189 98 43 33
394 418 244 71 58 50
420 426 179 66 24 32
429 430 299 67 44 40
424 426 184 71 25 33
404 917 254 34 32 34
274 346 319 158 111 86
421 431 182 37 29 34
423 431 185 48 29 34
539 889 227 69 59 50
297 909 228 72 62 59
417 424 189 91 38 35
426 417 182 62 24 34
429 421 189 113 16 35
413 811 189 70 57 54
304 960 239 89 84 85
429 426 189 85 22 33
384 418 264 79 69 60
425 432 189 85 22 33
427 429 189 86 22 34
377 769 152 72 55 46
417 436 164 72 27 35
234 576 214 138 101 69
417 436 169 42 28 28
349 591 133 120 21 38
417 441 164 60 26 32
312 336 302 124 95 63
443 916 238 37 34 34
434 938 264 76 61 52
416 443 166 44 28 33
433 918 287 49 44 42
416 447 164 97 22 40
418 436 179 61 25 33
359 681 164 105 19 27
446 446 299 93 27 32
253 551 153 159 3 39
417 440 179 63 27 35
297 326 317 140 104 74
423 436 189 104 13 35
431 504 186 57 30 34
231 536 179 57 34 38
315 341 279 100 74 54
421 438 187 110 9 38
291 466 277 112 13 37
416 443 182 67 20 37
386 672 262 72 47 43
417 446 185 50 24 31
412 678 246 77 62 46
417 800 190 58 48 47
419 446 189 63 21 32
389 418 199 69 45 41
391 419 193 70 34 35
398 631 244 80 29 34
414 796 290 191 142 114
389 417 209 67 56 46
444 456 214 54 28 31
463 426 283 126 20 42
370 841 155 69 57 54
459 941 274 75 60 48
394 419 199 74 36 37
410 631 253 101 77 50
321 356 295 119 94 65
393 418 204 70 49 43
472 735 219 83 60 46
396 419 209 68 51 44
395 815 165 73 54 51
399 420 204 75 38 39
451 503 149 162 13 44
389 417 214 67 57 47
367 815 156 71 59 55
389 417 219 68 58 48
389 417 224 70 59 50
394 418 214 68 56 47
396 419 212 67 53 45
397 418 215 67 54 46
444 701 224 92 75 60
394 418 219 68 57 48
394 418 224 69 58 49
400 419 219 65 50 44
408 511 294 106 65 62
439 481 154 53 26 32
404 422 194 83 27 36
317 904 193 50 46 47
450 726 217 81 63 51
438 505 295 188 120 95
404 421 199 84 28 35
360 809 257 192 140 117
519 904 217 61 51 43
418 526 220 35 27 32
454 926 284 56 47 40
240 555 183 140 9 44
409 423 199 87 30 33
404 421 204 79 31 35
413 423 205 84 30 29
414 421 209 75 27 28
433 409 219 82 21 23
327 783 251 31 31 38
414 424 194 93 38 33
419 501 209 85 17 32
414 424 199 95 39 31
329 876 189 40 35 38
269 361 315 159 108 91
415 424 203 91 34 28
299 696 251 142 13 45
469 486 309 198 131 114
404 420 214 64 41 39
449 461 143 41 27 29
409 420 214 64 29 30
404 418 225 64 43 38
328 867 292 153 122 88
405 419 223 64 42 38
304 531 78 82 31 37
409 419 219 63 31 30
409 419 223 63 32 31
414 420 214 67 24 26
459 741 210 83 62 46
409 418 225 62 30 29
401 568 137 199 17 46
548 860 233 71 56 43
282 356 257 87 70 50
413 419 219 64 24 25
396 788 175 62 52 54
415 418 220 66 23 24
324 861 289 147 119 89
230 561 224 162 117 90
388 448 311 75 22 30
389 417 229 71 61 51
389 417 239 73 63 54
373 827 246 161 135 111
432 912 217 90 76 72
294 366 316 148 107 76
399 418 229 66 50 43
394 417 239 70 58 49
277 432 275 48 27 31
389 417 244 74 65 56
394 418 249 71 59 51
301 917 210 69 59 59
399 418 249 64 43 39
399 418 254 65 45 41
404 418 229 62 38 35
305 844 208 190 132 102
409 418 229 60 29 29
319 506 289 144 11 43
409 418 234 58 28 30
414 418 229 57 26 26
451 451 242 38 32 30
379 621 260 133 27 46
414 418 239 57 25 28
404 418 244 60 33 32
348 634 156 99 40 48
404 418 249 61 31 32
409 418 244 58 25 29
404 418 254 62 31 33
297 901 232 118 94 72
335 386 290 120 96 67
405 419 255 62 29 33
251 594 170 36 30 34
409 418 252 60 23 29
409 419 254 61 23 29
342 748 266 77 62 55
456 722 224 101 79 62
344 471 303 71 24 32
529 925 211 98 85 72
414 418 244 57 25 28
347 398 273 111 90 68
414 418 252 59 23 28
419 416 194 110 52 30
419 416 199 107 53 31
423 410 194 105 52 31
415 726 169 59 48 43
281 465 258 94 25 37
420 412 199 103 51 31
423 410 199 104 48 31
361 886 149 80 71 66
398 808 276 177 130 108
389 521 293 98 28 42
458 451 269 53 31 35
421 412 204 100 46 31
360 493 291 48 26 34
424 410 204 100 42 31
344 821 250 159 125 98
424 411 209 92 32 27
424 511 308 193 131 105
324 729 151 110 22 36
420 416 204 101 49 30
420 416 209 89 37 27
425 695 244 80 50 40
425 408 198 106 47 31
427 409 201 105 44 31
420 531 205 42 26 30
239 571 210 117 75 57
429 409 204 101 38 29
429 409 209 94 29 27
418 531 219 31 26 31
430 408 202 103 40 29
423 414 219 81 23 23
244 576 184 54 31 31
364 646 169 92 25 32
436 828 236 63 53 48
429 410 214 94 26 23
434 407 199 113 41 27
416 716 171 55 46 39
304 824 223 107 76 59
449 491 323 152 112 94
438 407 195 107 37 26
423 561 294 176 121 92
449 511 159 148 5 44
248 736 177 125 94 60
434 408 204 105 38 28
435 416 193 118 10 31
438 416 195 119 11 32
436 412 200 108 40 30
439 411 200 107 30 33
303 864 243 110 85 55
440 416 199 108 17 34
434 410 204 99 33 28
439 408 209 106 28 29
410 678 171 72 51 42
439 416 203 100 23 35
336 379 268 107 87 66
443 408 200 95 34 36
336 379 259 95 80 64
444 407 209 115 24 32
415 823 254 142 86 64
422 512 197 137 4 43
493 904 216 51 43 36
448 408 204 120 24 34
441 500 161 134 5 40
442 411 196 105 31 32
419 491 208 84 18 34
443 411 199 90 28 34
445 416 202 79 24 32
228 516 174 92 31 39
442 504 300 186 119 91
449 411 204 121 21 34
433 409 214 93 21 23
294 861 254 129 106 84
439 408 214 91 19 25
324 706 150 85 29 35
470 487 314 197 129 112
434 410 224 67 23 24
439 408 224 56 26 25
313 371 308 132 101 67
325 386 300 126 98 65
438 409 225 57 26 26
449 406 214 109 24 31
408 745 286 176 129 96
526 938 240 77 62 53
444 407 224 53 27 24
242 807 187 175 117 85
449 407 224 66 28 27
364 531 108 168 4 33
428 414 229 62 24 22
420 566 268 118 86 59
429 414 234 58 24 22
429 415 239 56 24 22
431 413 233 58 23 22
401 901 222 66 61 60
422 696 282 163 108 78
429 416 244 54 25 22
396 581 274 139 96 85
434 411 229 59 23 24
435 413 238 56 23 22
433 414 240 56 23 21
449 407 234 47 29 27
494 922 228 90 75 63
439 411 234 49 23 23
449 407 229 55 29 27
419 836 203 75 60 55
248 626 197 132 98 65
445 408 233 44 28 22
435 546 164 81 35 41
449 409 240 37 28 23
434 416 249 54 24 22
408 605 199 106 34 45
433 771 283 172 118 87
317 290 286 115 83 50
440 413 243 60 20 23
445 413 248 46 23 22
347 392 264 103 85 64
319 651 255 65 26 35
449 413 249 42 25 23
444 415 254 47 24 22
446 413 253 43 26 23
418 421 204 102 50 30
448 413 252 41 26 22
370 819 252 115 90 78
418 420 209 87 37 28
451 443 222 93 36 38
417 424 194 100 46 33
417 424 199 105 51 32
471 722 210 130 101 75
452 459 246 108 33 47
431 421 192 109 16 28
435 499 317 194 135 111
405 606 244 54 28 34
448 448 317 65 27 30
426 432 193 114 14 36
230 521 214 106 29 41
443 827 104 97 77 58
428 431 194 117 9 31
431 431 197 121 7 32
416 418 216 68 23 25
541 869 222 77 68 59
423 446 195 125 8 32
264 591 155 89 29 37
415 581 225 117 18 43
291 579 116 98 20 38
374 861 188 48 42 45
428 436 196 122 7 35
421 716 222 72 43 33
426 443 197 124 7 33
407 879 224 62 59 60
259 521 222 82 6 27
429 446 200 121 7 31
431 442 202 122 6 35
453 485 321 112 78 67
432 731 277 164 110 79
539 940 239 89 71 55
431 446 202 119 6 36
439 421 198 85 27 32
392 850 191 64 58 61
434 427 198 119 10 30
427 487 183 41 26 29
439 426 200 107 9 29
398 555 120 131 27 43
438 430 201 118 6 34
393 596 274 158 113 97
442 812 215 78 63 54
440 431 203 122 7 33
354 781 262 67 58 55
256 515 221 76 4 25
446 423 207 115 12 40
439 934 234 80 67 60
442 424 201 79 27 39
284 296 268 88 71 51
366 958 227 81 75 77
274 836 204 132 92 78
444 426 204 111 11 34
469 924 263 55 48 43
443 430 205 123 7 32
319 970 244 90 85 86
445 431 208 123 7 30
427 526 294 153 102 72
468 928 281 64 51 42
405 675 174 79 54 41
447 430 210 125 8 32
434 436 199 123 7 33
434 441 203 123 7 35
437 444 206 94 13 32
436 448 207 89 18 33
443 441 210 73 19 27
404 836 144 90 71 54
386 848 242 40 36 35
428 515 303 182 118 92
449 431 214 129 10 36
446 436 212 119 10 26
449 436 214 122 8 29
294 316 319 141 102 71
309 345 259 95 78 64
408 888 257 44 38 36
446 442 212 80 28 34
461 488 293 176 117 104
452 917 233 38 35 34
449 441 214 89 18 31
274 827 183 212 151 121
445 446 212 56 32 32
383 820 165 64 50 43
419 417 239 55 26 26
459 945 250 96 74 61
419 417 244 56 25 27
419 418 249 57 25 27
424 417 244 55 26 25
424 418 254 56 25 26
441 537 174 124 33 47
429 418 254 54 25 26
414 451 174 123 10 37
424 826 124 118 91 70
501 939 229 90 76 66
416 454 170 110 14 37
414 451 179 80 22 34
398 556 270 50 24 28
415 456 179 111 13 36
415 456 184 103 13 36
268 411 259 117 10 40
415 461 184 128 8 38
416 466 184 133 9 39
426 449 141 44 23 27
355 483 296 126 39 54
420 450 149 45 29 31
236 603 206 140 102 69
422 452 148 75 25 32
419 717 214 64 38 33
339 811 175 59 49 46
345 391 270 108 88 66
423 456 149 75 26 34
302 341 312 131 102 69
227 521 229 167 123 102
419 451 154 52 27 30
359 690 280 126 11 41
465 722 215 115 89 67
417 451 159 122 10 39
425 461 150 73 22 33
420 461 159 113 16 38
449 916 235 39 36 35
421 460 155 100 15 36
425 455 145 43 26 27
235 626 214 161 114 81
425 466 154 123 8 38
374 510 297 97 33 43
423 466 159 104 12 35
426 464 151 77 15 28
418 501 199 86 20 36
430 470 151 75 24 31
449 476 148 39 28 29
428 472 153 107 14 37
355 473 306 168 16 53
426 476 159 114 11 36
427 477 158 116 12 37
426 568 187 190 12 51
429 481 159 127 10 39
518 929 221 93 80 70
252 618 183 98 31 42
354 906 189 63 56 58
439 449 136 99 22 36
360 898 193 57 51 53
495 970 254 101 82 65
434 451 138 85 21 35
416 458 187 112 4 35
434 456 140 49 26 29
439 452 137 79 25 32
376 492 298 123 13 39
439 456 140 76 28 34
434 461 144 94 25 38
439 461 143 55 26 32
299 587 118 156 27 46
269 591 149 61 30 38
248 776 172 159 110 75
444 450 136 67 27 31
254 591 234 155 104 82
444 452 137 68 30 34
449 452 137 82 27 36
449 456 139 89 30 37
444 916 279 38 36 37
434 464 146 85 26 33
468 725 213 116 93 70
434 471 149 43 28 30
345 865 270 138 106 77
439 465 146 70 26 31
432 726 277 163 109 77
