ply
format ascii 1.0
comment Created by Open3D
element vertex 2214
property double x
property double y
property double z
property uchar red
property uchar green
property uchar blue
end_header
207 503 191 171 1 35
170 523 303 132 12 44
241 86 217 143 16 47
333 499 214 56 34 34
268 39 284 120 25 47
308 679 211 43 37 40
238 418 179 87 32 28
315 295 318 117 85 61
320 895 381 50 42 39
366 754 263 78 62 53
227 164 243 108 89 68
317 288 315 126 89 64
190 492 186 158 9 35
206 580 238 194 13 50
303 455 325 58 32 30
370 566 237 65 28 31
234 439 346 87 22 35
202 359 284 120 94 65
363 605 319 160 26 55
251 174 277 101 80 58
292 219 282 125 91 51
250 111 232 145 97 73
247 39 264 105 32 40
196 434 252 56 32 31
303 199 319 107 90 72
347 433 230 79 35 39
238 154 238 125 98 63
228 184 239 125 98 63
242 124 270 105 88 71
242 90 218 136 16 43
218 449 164 181 14 43
198 399 259 109 88 65
190 420 261 102 28 30
243 94 219 115 54 56
220 637 271 187 7 52
338 458 317 63 49 34
213 439 229 71 27 31
238 174 238 130 100 65
333 419 319 130 97 69
251 58 266 101 41 47
240 92 221 139 9 39
252 433 171 182 8 37
330 796 191 62 54 51
302 395 255 110 93 74
254 99 272 116 95 74
326 394 289 110 91 70
308 544 198 101 28 37
327 124 269 126 100 72
225 160 249 107 91 73
330 776 286 65 50 42
237 89 234 114 29 42
161 480 273 81 32 37
203 609 269 197 10 54
207 239 254 121 95 63
211 795 282 182 124 92
330 62 237 110 96 80
273 589 213 150 10 39
221 177 261 108 89 70
256 148 246 117 91 60
223 519 343 50 28 31
437 491 318 37 23 28
302 261 292 112 83 53
231 147 266 108 89 70
203 439 243 82 30 25
358 685 228 94 59 57
315 319 329 119 92 60
201 472 205 95 17 34
241 95 222 140 13 46
467 500 324 99 22 37
359 865 334 61 54 53
245 500 192 167 3 35
249 474 340 54 24 28
337 434 309 120 91 63
250 29 274 103 34 42
206 436 196 104 18 36
353 454 379 89 38 43
248 459 380 99 69 60
202 789 335 180 124 94
344 714 195 133 97 70
422 590 312 91 33 41
208 329 264 120 94 65
478 535 271 68 27 28
340 434 260 79 63 44
428 515 264 90 34 28
248 214 284 87 70 52
478 514 304 71 23 26
316 507 377 195 7 60
174 474 308 84 24 36
268 429 325 58 44 31
252 504 342 57 18 29
410 757 166 68 51 37
418 478 314 50 32 24
261 127 251 131 89 67
248 92 216 146 28 47
248 49 264 115 18 41
293 947 311 88 83 85
287 483 320 42 24 25
198 429 184 63 30 35
204 339 274 113 90 64
372 564 239 85 24 31
300 95 277 104 84 63
194 604 294 103 34 45
354 635 190 129 98 67
237 79 239 114 21 42
304 21 289 117 51 54
329 389 304 111 91 70
333 458 328 67 42 32
204 460 224 85 21 30
328 424 324 132 97 73
260 366 322 100 74 56
243 709 330 84 24 38
248 94 218 137 60 60
287 39 282 124 20 46
259 154 259 108 83 58
261 763 332 59 46 42
233 420 155 198 8 32
173 484 244 58 32 33
204 349 284 118 92 64
450 492 304 61 17 23
334 885 254 79 70 69
229 214 288 109 89 68
293 554 199 69 28 38
254 24 284 103 22 39
227 664 311 80 16 28
236 225 292 105 86 65
226 756 252 62 56 50
258 924 289 85 76 72
239 479 383 117 78 70
238 384 252 94 79 64
251 82 211 151 9 41
320 441 207 46 36 37
235 324 307 107 82 57
423 514 259 95 37 25
423 485 279 80 27 32
228 254 239 133 100 63
223 493 191 150 9 37
203 674 305 120 81 57
423 445 269 125 20 36
355 790 261 55 46 41
335 460 402 80 13 32
336 15 292 129 33 49
206 422 172 65 29 33
327 259 314 126 98 67
174 435 270 67 32 31
315 284 346 126 98 64
276 238 311 113 91 67
243 249 240 137 106 69
240 509 192 161 2 33
209 444 338 54 29 33
280 924 274 95 85 84
344 506 361 44 23 27
243 164 237 132 102 66
347 559 220 163 6 39
254 81 212 153 10 44
376 684 222 150 102 75
318 279 339 128 97 63
238 364 318 119 90 64
338 529 212 56 32 35
272 344 360 150 108 88
243 504 394 174 121 103
206 383 306 121 95 66
178 415 284 74 54 48
238 114 249 100 83 65
315 301 322 108 82 58
227 154 254 106 90 74
385 592 296 123 20 38
270 506 345 36 26 23
175 489 312 41 29 31
412 528 317 165 27 60
234 134 245 106 88 69
463 504 328 51 30 33
194 464 174 151 1 39
246 49 261 103 21 37
258 454 181 81 33 41
347 809 263 33 29 27
407 456 282 100 2 30
217 189 249 113 93 71
418 584 254 112 85 59
338 814 173 78 64 57
268 474 192 143 12 34
208 449 163 150 19 40
303 513 378 104 24 41
254 91 218 152 5 39
213 319 293 119 94 69
252 194 241 123 98 68
186 494 199 62 29 34
202 659 342 163 118 91
348 458 329 63 43 29
213 519 339 72 27 35
213 199 259 110 90 68
206 264 257 125 95 61
253 373 316 79 55 37
316 365 300 114 93 70
373 849 289 76 64 63
234 69 229 119 27 44
406 487 352 187 22 63
203 579 364 162 114 90
250 899 296 193 130 103
305 20 261 135 72 52
211 354 257 107 87 66
288 429 330 125 91 75
321 132 244 164 26 56
302 124 258 123 82 62
245 59 258 108 15 38
439 474 275 126 17 39
217 189 259 110 90 69
234 69 234 110 29 40
338 49 242 138 114 87
223 334 250 103 82 59
359 590 280 96 23 41
393 774 204 66 51 40
238 254 293 91 73 51
298 289 364 119 93 66
238 99 244 113 35 43
233 294 248 94 76 57
483 564 309 113 33 47
290 24 262 98 20 24
239 691 322 99 23 38
405 747 147 79 63 47
331 112 254 141 29 50
425 454 278 87 28 33
188 429 304 60 29 33
223 480 187 74 36 40
386 811 381 75 60 50
235 65 237 99 34 38
212 329 258 111 88 62
413 574 302 62 26 32
205 334 274 113 90 64
256 254 256 121 95 66
229 613 245 78 31 40
236 153 276 106 87 68
198 704 339 168 115 89
273 499 188 51 35 37
235 69 237 105 27 40
251 512 376 122 87 80
251 289 251 105 89 72
324 541 331 39 27 30
340 846 303 34 31 30
238 304 304 106 82 56
235 79 233 117 19 41
238 259 240 138 104 67
281 356 361 158 109 93
366 732 277 41 29 31
413 484 289 70 28 30
242 110 234 127 63 53
348 474 238 71 31 30
303 654 216 43 36 37
373 854 379 52 46 43
377 857 368 75 66 62
234 74 229 126 16 43
212 364 305 117 92 65
393 559 305 65 23 33
208 364 299 119 94 65
258 159 269 105 82 58
233 529 196 77 34 39
205 264 269 122 94 64
235 79 229 127 9 43
235 74 233 118 21 42
230 360 317 118 92 64
200 376 292 118 93 66
381 823 319 35 32 30
316 862 392 41 36 37
291 497 381 54 21 26
236 74 236 98 47 44
228 509 344 82 19 33
194 439 179 80 28 37
238 74 239 102 68 60
356 748 187 116 90 62
301 121 257 110 49 38
253 769 328 94 71 56
211 680 306 115 77 58
236 79 235 113 23 39
368 674 223 125 77 63
318 885 243 85 81 84
251 414 161 78 39 38
240 69 249 100 20 37
512 584 270 172 116 98
202 458 233 50 31 30
215 721 271 151 11 42
175 504 236 40 31 34
348 834 284 31 29 29
307 928 372 59 55 55
297 537 348 186 12 59
433 811 226 86 65 49
238 74 244 98 53 49
176 545 304 73 25 37
329 409 279 102 86 68
223 609 328 74 25 32
243 374 320 124 89 65
238 74 249 96 35 41
295 704 336 142 3 45
237 79 244 111 29 41
379 734 230 158 109 80
254 374 258 87 74 61
158 454 292 129 6 39
258 89 273 104 28 41
410 518 237 156 7 38
427 574 264 108 75 47
226 766 257 71 57 52
228 624 254 172 6 44
240 74 254 97 28 36
457 525 274 82 32 34
307 334 359 137 99 70
388 619 204 102 87 70
222 384 321 120 95 68
362 547 317 188 4 59
285 422 332 132 94 80
207 284 259 118 90 57
438 489 340 147 26 52
398 498 347 78 34 38
213 421 169 74 36 29
251 174 241 132 102 66
191 615 351 160 116 89
255 894 377 128 96 82
317 614 308 106 27 43
238 624 244 46 35 39
248 154 238 130 99 61
238 79 254 96 42 42
339 909 339 63 57 56
238 369 320 122 91 65
243 396 251 97 83 68
333 554 211 150 1 34
214 254 283 113 90 64
268 489 326 38 25 26
236 81 228 131 13 46
164 499 264 149 1 39
434 791 278 46 37 29
198 510 193 108 25 38
260 130 252 127 88 66
240 634 246 60 31 35
313 104 213 142 34 44
281 929 276 93 84 83
425 541 257 40 33 36
186 560 248 63 35 38
208 434 155 72 32 39
373 485 365 195 13 63
227 714 254 131 7 38
324 106 217 160 23 45
242 94 265 105 27 41
278 690 337 109 29 43
393 460 359 110 38 49
198 504 334 79 27 35
280 373 352 156 111 95
340 811 266 29 27 27
237 89 229 132 16 47
207 259 274 119 92 64
303 914 274 93 85 85
268 14 264 92 79 65
237 639 249 107 17 35
356 842 236 58 48 44
217 494 384 164 116 101
231 143 248 106 90 74
198 640 351 178 125 100
356 873 339 62 53 49
215 254 245 126 95 57
195 446 322 134 5 40
237 84 234 116 31 46
218 459 345 63 46 39
268 534 192 107 20 35
271 332 307 94 77 60
198 444 164 138 13 40
261 128 267 112 82 61
313 239 338 114 93 69
233 144 244 103 86 69
389 849 364 60 51 48
195 768 332 176 122 92
398 452 275 99 0 32
238 84 239 104 69 58
271 888 279 56 51 52
261 87 221 146 1 32
353 789 149 99 75 56
247 391 255 97 82 67
323 219 319 123 99 71
301 39 271 89 56 48
338 693 213 102 12 28
243 139 276 109 89 68
393 498 259 73 34 35
212 344 258 106 87 66
268 49 281 117 20 44
238 89 239 117 28 43
300 43 268 86 15 35
170 484 303 68 25 32
337 429 308 124 95 66
221 178 247 111 92 71
168 449 294 124 1 38
175 469 308 82 22 32
326 194 294 120 96 68
198 699 340 168 116 91
228 454 348 47 27 30
230 505 348 116 12 36
273 359 290 83 69 55
263 12 284 85 43 42
316 813 208 57 51 51
363 789 144 102 77 61
403 828 314 92 72 62
238 94 234 126 22 46
251 248 246 134 105 72
225 753 251 136 21 40
226 158 248 105 88 72
325 874 228 103 83 72
278 35 286 132 20 48
244 401 246 95 79 62
233 129 254 104 88 71
300 49 264 87 24 36
223 420 174 79 39 28
386 553 251 112 10 29
283 704 343 130 21 44
213 334 295 121 96 68
252 28 258 84 66 48
239 94 239 108 50 51
326 194 299 122 98 71
184 509 214 54 29 32
298 336 301 98 84 69
243 129 236 131 99 61
238 439 168 154 11 39
200 466 198 116 0 31
392 815 387 81 64 50
298 154 284 103 83 60
248 410 234 82 70 56
325 819 186 75 61 55
210 445 214 100 7 34
226 238 291 111 89 66
169 460 298 128 1 39
248 144 277 110 89 65
233 479 187 69 36 41
175 446 297 103 18 31
373 780 135 102 73 55
418 440 268 137 20 38
237 84 244 104 61 53
340 414 217 62 38 39
348 458 403 186 22 61
265 820 319 140 107 88
278 549 344 191 6 60
228 474 374 103 71 57
260 520 362 48 23 24
162 489 294 110 14 39
255 885 299 170 117 93
354 486 371 192 21 61
243 234 290 89 72 53
334 799 179 68 56 50
237 84 249 107 38 44
374 825 244 70 58 53
300 65 251 91 34 35
255 158 271 105 82 59
197 444 184 64 27 35
411 522 322 85 32 34
244 292 301 80 64 45
238 84 254 104 27 40
171 504 242 143 6 38
368 584 259 100 23 41
369 684 226 128 80 65
253 499 194 152 0 33
238 89 254 105 81 62
229 239 292 109 88 66
228 214 238 123 97 65
210 244 250 121 93 59
335 516 217 100 20 27
243 159 237 131 101 65
240 94 244 95 70 56
325 138 280 119 95 69
237 94 254 107 56 51
341 21 271 108 72 70
283 879 384 71 59 50
305 267 351 116 94 68
241 67 251 106 11 36
223 624 259 177 9 45
173 464 255 43 35 36
214 224 274 109 88 66
403 524 235 92 27 38
242 69 254 95 39 40
375 736 178 82 62 43
222 254 290 111 89 65
311 485 206 117 13 27
298 149 274 105 85 62
240 70 252 96 18 33
288 349 289 95 80 64
253 849 344 120 90 69
357 768 268 77 61 53
241 73 256 92 29 35
294 214 281 128 93 54
352 489 234 115 20 29
210 445 230 84 25 25
383 508 239 49 37 38
459 523 278 59 32 34
210 211 256 113 91 67
200 360 274 116 93 67
347 799 267 44 38 34
338 474 230 96 28 28
215 299 251 108 86 59
443 489 284 60 29 33
242 99 223 129 25 45
391 832 360 55 45 40
213 424 199 48 29 31
394 511 336 195 16 60
483 529 315 166 20 54
293 474 318 63 19 27
209 437 156 79 30 33
228 174 240 125 97 62
251 279 251 113 92 70
268 939 354 72 68 68
293 169 284 99 81 60
378 588 295 136 19 38
392 832 335 53 45 38
245 204 286 99 81 60
233 259 294 98 79 57
244 98 221 102 74 66
310 11 270 61 54 49
187 524 325 102 23 39
253 559 203 140 16 39
465 508 293 77 14 26
222 194 274 109 90 69
408 591 236 106 88 66
326 179 284 121 96 67
373 508 348 193 14 60
449 811 227 99 77 61
300 471 332 94 15 33
191 479 182 126 14 40
351 847 306 31 29 30
238 139 239 118 94 64
493 544 309 79 31 38
244 515 368 114 80 71
371 517 342 136 36 52
429 477 295 72 34 39
225 294 297 115 88 62
180 659 314 168 112 89
278 539 194 73 28 37
419 475 356 186 19 60
254 840 314 138 103 79
243 104 224 119 37 48
328 54 239 104 89 72
347 884 324 54 47 44
246 247 241 137 106 69
258 794 324 55 46 41
248 455 384 100 74 63
248 104 223 120 77 69
250 846 329 103 78 57
268 749 223 143 6 37
248 109 224 140 89 89
206 239 264 115 91 65
217 239 243 125 95 58
350 601 281 184 17 55
257 108 226 145 12 39
343 444 255 70 37 29
249 709 333 146 22 50
192 464 325 132 7 40
237 168 281 111 91 71
342 629 230 163 24 36
257 264 274 96 77 55
344 39 269 124 56 58
263 314 339 125 98 72
223 474 185 70 34 41
368 734 269 74 31 36
175 499 236 78 33 33
252 98 221 149 18 40
243 148 236 129 100 64
349 749 190 134 103 72
386 469 261 78 29 27
235 140 241 107 89 69
326 117 231 174 25 57
305 197 271 139 100 60
253 674 326 45 26 31
283 504 189 93 31 35
208 454 209 110 3 34
270 295 348 114 92 67
268 574 339 136 27 49
360 466 386 199 16 64
253 104 223 140 20 36
291 668 217 48 34 36
193 394 279 105 85 64
240 99 225 134 9 41
228 304 299 118 88 61
378 822 219 86 70 64
233 464 183 144 19 40
239 99 229 128 13 42
272 12 277 92 65 54
273 359 354 149 108 90
278 319 374 149 107 87
371 658 186 142 98 63
230 280 297 103 82 58
287 250 293 95 72 44
344 839 293 32 30 30
249 30 260 69 34 29
218 259 243 127 96 59
337 79 235 116 53 48
329 104 265 102 68 55
198 574 244 179 11 49
293 389 349 163 117 99
206 276 271 127 95 68
245 145 237 132 100 63
469 586 300 112 27 46
382 780 135 91 69 55
468 504 319 69 16 24
240 104 229 127 12 41
478 524 317 178 11 56
408 809 294 76 62 48
283 364 358 159 110 94
228 264 294 104 83 60
161 490 289 167 0 46
222 514 341 55 25 29
195 568 317 159 5 49
422 505 271 56 35 34
226 173 242 119 95 64
288 903 393 68 64 64
353 495 365 54 28 33
370 856 314 60 52 51
253 19 284 102 22 38
261 642 232 109 18 29
312 423 196 126 34 46
252 199 240 126 100 67
342 59 249 127 27 42
334 22 263 95 89 86
204 485 182 171 9 39
238 99 234 122 17 43
389 784 214 93 69 51
353 449 239 145 6 35
317 685 317 35 27 29
250 210 281 86 69 51
298 179 272 127 91 54
230 156 272 107 89 71
353 832 276 29 28 28
230 145 250 107 91 74
300 348 293 99 86 72
233 369 321 122 93 66
252 489 337 38 23 24
428 587 286 124 26 42
358 729 185 136 102 66
454 819 326 97 81 73
303 704 329 156 12 50
299 114 249 113 48 46
192 599 284 157 18 49
229 235 292 107 87 64
257 304 255 101 86 71
212 334 258 109 86 60
305 692 326 147 16 49
338 684 304 58 26 31
230 582 221 190 8 44
362 632 193 103 86 67
390 784 219 117 87 62
282 424 180 157 2 36
238 99 239 101 44 42
308 198 271 143 104 64
254 144 243 121 92 60
277 229 304 108 87 63
382 699 199 132 94 63
240 471 382 114 75 70
199 369 284 118 92 64
377 764 243 149 109 77
239 104 234 128 13 43
252 244 283 92 74 54
323 446 340 69 46 36
257 229 249 126 98 67
318 411 239 88 41 24
413 473 338 108 39 42
252 864 309 178 131 103
352 532 332 170 26 58
327 399 284 107 89 70
239 104 239 124 24 44
261 318 269 84 69 54
279 258 301 114 89 66
322 129 240 163 24 51
348 594 294 153 18 49
440 482 291 93 2 29
224 269 293 111 87 63
333 69 235 111 96 80
208 449 229 84 22 27
228 209 238 119 96 67
240 109 239 107 69 54
316 309 344 135 101 69
297 695 332 137 9 43
308 64 244 69 43 30
211 228 270 113 92 69
382 602 310 60 30 32
364 440 242 61 37 39
186 473 321 30 29 29
257 417 180 90 28 32
401 634 210 179 122 89
212 462 171 101 25 37
238 144 274 106 88 69
193 449 174 125 14 40
294 169 289 102 83 62
211 601 252 193 13 52
238 99 249 122 21 41
464 498 275 126 19 41
194 593 314 125 27 45
258 844 349 144 102 85
193 499 188 69 31 38
444 498 316 52 20 24
328 709 310 73 29 35
181 452 257 43 35 32
239 104 244 111 44 49
275 310 372 127 98 72
178 416 292 65 39 34
241 106 227 130 19 40
263 539 365 179 24 60
190 479 184 95 26 38
342 839 194 104 85 72
232 347 311 105 83 58
248 104 269 112 94 76
443 500 330 89 30 40
221 679 319 99 70 56
303 729 324 108 25 42
238 104 249 102 73 56
253 344 309 75 51 32
237 99 254 112 50 51
238 104 254 111 91 68
469 503 275 131 22 42
291 507 356 46 26 26
303 793 211 86 67 58
211 630 299 42 32 35
268 13 300 109 65 62
256 306 302 62 51 39
218 334 299 112 90 64
412 508 333 177 21 58
239 109 244 93 73 53
313 659 216 95 25 29
334 454 314 71 56 40
232 179 280 110 91 72
253 234 244 134 103 68
331 415 264 81 70 60
267 443 181 161 2 34
262 46 230 115 99 83
368 602 310 74 24 33
170 456 261 52 37 35
392 764 198 58 45 34
300 521 371 195 21 64
388 834 294 73 61 56
221 198 242 122 98 68
315 494 207 112 14 24
228 494 190 100 26 39
254 199 243 125 99 68
333 458 326 65 43 31
291 223 326 109 90 71
362 587 282 90 19 38
350 871 269 71 60 58
238 109 254 111 92 72
308 898 234 84 69 64
198 414 309 114 92 67
231 168 276 110 92 74
239 119 239 110 90 69
250 65 267 88 45 38
423 509 269 78 36 29
274 505 339 35 25 24
383 749 149 73 56 46
329 94 218 118 39 37
337 608 293 69 27 35
205 259 269 119 93 63
453 775 264 70 56 42
209 439 204 124 1 39
239 124 239 108 88 66
288 836 348 82 68 53
264 11 289 88 49 48
239 129 239 110 89 65
319 510 370 196 0 62
357 419 231 116 26 36
199 454 239 48 32 31
260 130 266 114 81 61
327 477 313 60 41 33
222 264 291 114 90 65
225 164 246 106 88 70
318 229 283 143 106 66
319 208 320 118 96 71
322 863 383 42 37 37
386 612 235 126 73 67
433 794 264 68 56 45
234 149 240 112 91 67
238 114 244 99 81 62
260 194 264 102 82 60
238 119 244 104 87 69
228 484 344 129 18 43
345 654 208 81 53 45
292 688 212 63 35 37
349 694 190 149 109 77
246 214 287 90 74 55
232 425 347 113 25 42
229 229 236 127 98 62
260 370 263 86 73 59
236 373 251 94 80 65
378 744 154 69 52 41
201 786 297 189 131 98
237 119 249 101 85 68
333 79 264 119 26 46
238 249 239 137 105 67
234 129 249 107 90 73
233 159 240 122 96 65
285 946 312 94 89 90
263 414 189 137 22 26
288 244 289 100 73 43
228 609 330 81 29 37
211 633 347 173 116 92
208 429 154 134 25 40
196 586 257 49 29 38
262 829 319 162 119 97
329 479 223 108 21 27
391 761 218 139 101 68
327 831 282 50 44 39
193 469 234 63 32 33
314 500 381 195 9 61
412 587 280 77 28 37
211 274 281 119 92 65
243 808 255 82 64 56
263 84 274 100 50 45
237 124 244 107 90 73
269 105 259 131 90 73
257 189 245 124 99 70
223 433 156 191 8 38
316 457 355 91 25 37
458 499 314 50 22 23
198 500 188 108 26 40
236 124 249 105 89 73
164 504 279 154 0 41
301 94 239 105 24 40
350 639 254 119 23 44
236 129 244 106 88 70
329 456 362 56 27 25
238 139 273 105 87 69
216 203 266 109 89 69
388 730 173 61 47 33
332 94 254 111 63 57
315 70 230 105 91 77
454 796 287 97 78 63
303 435 331 107 77 62
236 127 247 107 91 74
328 614 299 110 25 43
217 489 384 152 109 93
191 448 316 126 0 38
373 529 223 91 32 42
332 574 215 142 3 34
493 564 262 115 88 58
193 544 324 163 8 50
413 579 269 106 32 38
317 253 290 137 101 65
235 121 256 106 89 71
272 878 381 128 103 81
400 826 358 58 45 31
228 709 254 94 31 44
217 704 293 99 21 39
378 833 358 75 65 57
170 494 245 107 17 33
185 564 308 110 16 40
243 418 179 86 29 31
220 180 262 108 89 68
261 772 327 70 55 47
294 179 299 106 87 66
398 576 268 67 18 29
371 654 186 151 105 68
278 664 326 157 21 50
322 264 334 128 98 63
235 124 254 104 88 71
298 273 356 109 90 69
249 284 295 73 61 48
181 644 330 170 114 89
243 613 235 39 34 40
244 416 164 163 23 31
180 674 317 162 109 85
322 434 205 139 19 41
205 334 279 117 92 63
312 897 234 93 80 73
300 756 311 71 56 46
273 29 253 66 46 39
247 64 264 87 40 38
422 511 265 88 35 31
235 125 250 104 88 72
328 24 288 125 91 68
248 424 164 99 25 40
221 354 252 102 85 66
191 495 187 93 32 38
308 684 210 67 31 36
290 190 302 108 89 69
250 147 276 109 87 62
243 264 243 138 105 71
290 875 250 61 55 57
240 102 226 131 11 43
346 694 193 150 110 81
269 74 224 130 21 37
158 429 294 100 19 36
255 160 247 114 90 62
343 849 379 45 40 36
222 179 264 109 89 69
238 469 400 138 98 86
242 338 311 105 80 55
255 213 276 93 75 54
220 249 240 129 98 59
307 44 276 102 7 35
243 109 229 144 38 53
211 213 253 114 92 67
243 499 191 156 1 30
283 354 363 160 111 94
240 107 230 135 14 40
243 149 278 110 90 68
230 214 236 125 97 64
463 587 289 185 123 110
255 480 187 45 36 40
307 30 280 111 45 50
295 100 269 83 61 49
248 111 229 143 85 72
253 224 243 131 103 70
298 269 354 112 92 71
223 324 299 104 82 57
172 453 262 46 36 35
208 249 274 116 92 65
433 474 279 109 12 31
267 894 390 39 36 37
368 450 274 71 14 26
240 108 234 137 14 47
273 402 233 94 75 59
284 388 348 155 110 93
194 484 220 61 30 30
223 224 238 125 98 64
164 469 264 45 35 38
254 94 272 108 74 61
428 549 269 46 31 35
257 279 279 89 70 49
241 110 238 108 84 58
253 110 229 139 86 66
193 554 229 175 18 50
323 869 224 118 93 76
235 126 262 107 89 70
288 189 289 97 79 59
222 570 217 130 20 41
210 216 262 110 89 66
299 719 206 110 25 32
210 230 251 116 92 63
225 201 282 110 90 69
293 269 353 107 89 71
269 938 359 61 56 56
254 111 233 144 97 73
453 504 280 61 26 29
223 174 264 108 89 68
183 714 319 166 113 86
333 847 318 40 36 34
385 821 285 44 37 32
255 111 237 140 94 69
304 194 271 137 100 61
204 374 259 109 88 66
214 494 370 126 101 80
212 719 284 81 25 36
262 114 269 117 87 67
258 804 320 56 45 39
341 670 221 58 36 32
245 112 231 139 96 61
300 124 249 107 32 40
368 523 338 54 29 33
215 330 297 116 93 67
243 114 234 125 96 64
238 614 331 75 29 37
205 506 192 174 1 40
368 744 264 68 52 47
214 444 342 74 26 32
185 739 322 180 121 96
243 239 239 136 104 68
303 489 389 138 16 45
332 109 259 123 30 47
241 114 238 111 90 65
186 609 345 158 114 88
257 274 264 114 90 63
332 877 240 73 66 67
298 794 299 133 95 77
333 499 373 190 16 61
323 74 214 148 42 30
282 412 204 161 21 23
193 484 199 52 30 34
308 694 325 132 19 44
312 913 275 85 76 75
378 448 274 85 2 28
326 204 304 121 96 68
200 750 291 124 92 59
172 449 296 123 4 37
234 534 374 158 105 90
248 164 239 134 103 65
182 473 243 47 33 31
308 213 276 140 102 62
218 309 251 106 85 61
209 224 254 116 93 66
333 885 374 56 50 50
237 149 275 107 88 69
437 585 250 141 105 67
367 859 289 62 53 49
241 119 237 114 93 69
209 279 255 114 87 55
303 809 218 82 65 57
323 279 324 130 97 65
249 492 336 49 44 44
223 764 258 72 58 52
189 564 313 159 5 48
318 612 320 70 29 41
207 304 274 120 93 65
463 501 313 51 22 22
223 219 239 123 96 63
293 469 194 75 31 39
248 164 279 109 87 63
403 458 285 99 0 33
287 208 310 111 93 74
308 254 345 115 93 68
389 434 263 86 8 29
268 359 293 126 96 81
191 463 242 73 31 29
324 224 319 124 99 71
467 515 290 74 24 25
248 119 235 140 100 66
234 149 273 106 88 69
218 339 253 105 85 61
453 529 316 188 15 59
322 507 373 196 0 61
448 583 306 34 30 33
264 834 334 139 112 110
258 224 269 103 82 58
287 282 361 102 86 70
240 416 191 70 19 24
323 473 397 55 29 32
243 124 235 128 96 58
358 714 299 168 12 55
198 674 303 122 87 57
226 167 266 108 89 69
228 284 245 105 83 59
212 644 324 139 93 76
241 129 237 121 95 61
181 508 227 71 29 30
182 458 310 120 11 38
223 417 194 68 17 26
426 541 306 84 27 38
254 169 244 122 96 66
229 654 313 33 26 27
326 917 362 47 41 41
247 124 235 139 99 64
195 481 221 60 28 32
243 334 311 100 77 52
343 684 219 60 43 47
248 129 235 136 99 61
323 10 279 80 49 52
418 599 259 163 111 100
448 788 289 97 81 67
407 813 259 72 55 41
251 228 241 134 104 68
262 349 334 131 99 76
204 799 333 186 128 99
313 189 269 144 106 68
234 309 303 109 82 56
283 819 333 145 115 90
373 459 349 71 43 35
252 113 235 141 94 69
213 744 269 101 22 34
257 464 332 30 24 24
252 457 396 91 66 47
352 649 188 139 102 68
237 119 259 107 89 71
248 184 240 126 99 65
290 184 294 103 84 62
328 569 319 179 10 57
172 443 268 99 29 32
294 484 344 53 22 26
200 556 351 121 93 65
183 415 274 84 47 43
318 509 203 85 31 34
251 320 307 79 57 38
287 769 213 73 60 53
218 349 253 101 84 65
175 549 274 183 0 48
254 114 238 134 92 66
218 179 254 109 91 71
330 800 186 66 57 51
355 875 339 61 54 51
298 354 362 158 108 85
165 509 284 154 0 41
218 414 243 99 80 58
318 159 263 141 106 69
308 699 207 112 21 29
316 67 232 103 91 77
188 609 349 160 115 89
253 119 239 134 95 67
320 56 236 115 80 57
433 570 265 108 78 43
250 120 237 135 94 63
248 834 274 194 138 108
423 598 263 169 116 102
190 496 214 60 31 31
255 168 247 116 92 65
233 828 304 51 40 42
391 801 216 127 90 70
233 417 209 67 27 29
216 591 237 194 12 51
253 124 240 131 95 63
197 589 259 44 33 37
194 444 169 142 3 37
268 384 274 75 63 51
398 734 173 62 50 37
250 129 237 129 92 57
233 379 250 96 80 64
283 24 259 99 31 29
265 861 367 120 98 75
268 12 269 91 75 63
292 861 372 77 68 61
278 309 374 122 95 70
253 129 240 128 94 60
255 121 242 132 94 63
258 109 273 115 92 69
315 324 339 125 98 65
314 388 273 107 92 76
187 484 228 46 34 33
262 334 339 126 96 71
319 189 272 139 106 66
192 404 284 105 85 64
413 594 299 115 19 38
378 779 245 148 112 85
274 952 334 74 68 69
313 884 399 58 53 52
255 124 242 130 93 61
269 79 229 104 33 34
328 484 220 100 24 26
248 264 289 85 69 50
328 846 348 32 31 33
208 784 279 170 115 82
212 244 248 121 93 58
263 409 322 65 45 35
220 171 251 111 93 75
208 324 264 123 96 66
338 84 239 114 28 39
380 611 228 99 60 50
222 169 249 108 91 72
223 164 254 107 90 71
232 539 374 158 105 89
233 423 344 69 38 32
269 314 315 111 89 64
221 168 254 109 90 72
378 544 239 103 22 36
411 736 168 77 61 46
247 244 288 86 68 48
267 294 339 116 94 70
228 649 314 35 25 27
396 813 234 99 78 68
220 170 254 109 91 71
243 299 304 88 69 48
304 133 244 137 37 53
311 356 296 105 89 73
222 184 244 117 93 66
228 219 288 109 89 68
343 634 274 150 17 47
315 127 286 108 87 63
315 861 395 38 35 33
219 204 244 117 94 67
239 418 331 117 88 64
247 835 279 186 136 106
219 480 383 119 90 72
393 591 293 142 21 34
297 494 385 70 22 32
224 169 245 108 89 69
510 587 297 183 20 60
236 276 297 98 80 60
273 558 201 174 0 36
248 415 194 67 21 26
418 478 292 81 39 40
243 329 249 90 76 62
422 497 337 194 15 62
258 434 173 159 16 43
173 484 309 76 30 37
224 174 244 112 91 67
263 509 333 44 25 27
242 79 260 101 26 37
357 867 299 62 53 50
349 884 334 49 42 42
288 574 205 59 37 41
253 484 378 90 61 50
220 174 250 111 92 72
241 427 161 163 15 39
218 309 294 111 89 65
401 827 269 82 65 58
219 174 254 110 91 72
342 24 283 119 43 55
336 793 183 54 46 45
214 376 251 103 85 66
283 49 254 107 36 32
326 113 225 174 24 56
211 684 306 115 78 60
238 464 344 89 23 35
228 419 229 77 66 58
254 284 290 81 68 54
368 674 186 131 95 57
453 794 259 85 65 54
214 204 264 110 90 68
351 634 244 118 22 44
392 575 246 45 31 30
219 179 249 110 91 71
243 214 237 130 100 65
418 473 339 117 35 42
223 418 184 69 23 27
304 139 289 106 87 66
260 179 254 108 85 58
348 839 214 79 65 61
195 444 182 73 30 37
408 540 253 173 0 40
223 669 304 73 31 33
332 835 283 35 32 32
223 179 244 115 93 68
388 824 374 85 68 56
202 349 279 117 92 64
225 822 290 58 49 52
245 74 263 98 66 54
344 457 299 76 61 44
352 878 379 62 55 52
220 184 246 111 91 68
248 463 401 110 87 67
284 751 326 75 60 53
324 79 275 114 65 56
252 89 271 105 18 37
280 61 276 108 81 66
243 284 298 74 60 46
228 619 250 177 7 44
377 624 230 106 57 51
383 653 218 149 97 75
218 184 249 110 91 70
217 224 243 120 94 62
283 439 323 88 64 51
243 644 322 74 28 37
238 274 295 89 72 53
358 634 218 72 39 28
199 465 229 57 30 32
312 458 349 49 31 24
261 129 264 121 85 65
238 399 327 131 98 69
253 179 243 130 102 70
250 846 325 118 89 66
472 773 246 105 86 66
231 709 247 147 4 42
266 360 270 81 71 60
217 184 254 110 91 71
207 289 279 119 92 66
298 329 305 94 81 67
184 719 305 161 111 83
302 39 263 110 61 53
222 204 242 119 95 68
248 754 234 89 42 45
210 234 250 117 92 62
281 507 376 61 45 43
255 38 277 126 19 47
216 188 254 111 92 72
400 628 207 138 102 63
514 562 293 61 38 31
323 934 344 53 47 44
179 533 229 171 13 51
213 419 184 64 22 26
255 340 262 80 69 58
348 453 339 58 38 28
238 149 238 126 99 65
206 249 269 117 93 66
403 593 234 107 87 64
408 440 268 117 21 36
322 369 309 122 99 73
318 59 278 114 74 60
293 304 310 80 66 52
383 585 288 122 24 37
238 134 239 112 89 61
336 808 177 61 51 47
182 619 329 141 105 71
299 258 291 110 81 50
186 509 326 40 29 29
243 724 233 106 25 37
192 539 325 166 9 51
468 769 254 112 90 68
215 215 246 114 92 65
378 464 324 61 48 34
245 64 258 104 75 63
192 579 354 150 110 82
164 504 264 150 0 40
286 869 269 76 59 54
227 581 222 190 7 42
237 144 238 121 96 65
195 436 251 47 35 32
283 823 335 126 101 75
231 139 254 108 91 74
212 815 304 214 143 111
253 444 335 62 25 32
254 139 242 122 92 59
227 174 274 111 91 72
388 594 299 118 18 39
393 744 139 93 67 47
230 144 254 107 90 73
326 153 271 132 102 68
248 134 275 111 90 67
404 774 184 89 66 54
221 194 242 121 96 67
231 142 254 108 90 73
321 195 312 116 93 69
329 394 304 111 92 70
225 161 262 105 87 68
252 204 279 87 70 50
290 438 327 112 82 68
344 481 381 89 15 35
336 737 302 67 54 50
181 442 262 39 34 38
236 133 242 106 87 67
170 524 254 61 31 37
326 375 319 115 93 69
326 438 211 61 35 34
309 85 220 84 35 20
197 434 163 91 28 40
232 134 254 106 89 72
234 139 244 105 87 70
244 488 346 94 18 33
235 145 240 109 90 68
354 457 333 60 44 30
315 848 211 84 68 63
307 94 218 114 28 34
257 84 215 149 3 40
228 324 248 105 85 62
313 769 198 73 59 51
383 464 379 175 23 58
236 137 242 106 87 66
303 99 224 127 11 42
320 530 202 44 34 38
162 448 273 72 34 33
254 370 257 87 74 60
255 67 272 107 87 71
355 828 161 100 82 71
248 289 250 102 86 70
216 666 327 132 94 72
200 364 270 116 93 67
273 925 375 58 53 53
281 219 292 112 89 63
233 154 240 116 93 66
238 294 248 94 80 65
408 455 279 101 1 31
263 30 250 105 90 74
316 429 332 126 90 72
271 846 267 190 130 104
301 352 362 154 106 81
238 159 237 126 98 64
195 384 279 112 89 65
218 443 160 190 8 40
192 504 330 81 24 35
298 24 269 109 21 27
330 98 260 111 73 60
252 154 240 125 96 61
218 429 229 54 38 36
353 875 364 59 53 53
254 149 244 119 92 60
286 498 374 34 27 27
282 649 222 135 9 30
174 479 309 89 26 37
364 719 243 76 29 38
232 149 243 103 86 67
238 219 290 106 87 66
238 189 238 117 94 67
288 849 363 140 104 88
269 18 302 109 57 48
228 204 239 117 95 69
228 149 254 107 90 73
232 694 248 54 37 40
220 234 241 123 95 59
388 463 344 79 45 38
326 423 206 68 36 37
221 576 222 190 8 45
223 423 229 75 64 58
327 11 293 136 30 55
418 819 309 100 76 63
433 504 278 53 33 34
430 812 229 80 58 42
247 489 398 157 103 95
351 694 187 145 106 71
229 154 244 102 86 69
231 153 242 104 86 66
252 149 240 125 96 60
214 529 377 150 111 87
218 289 248 109 85 59
363 458 304 66 50 37
230 159 241 112 91 66
362 599 249 129 18 48
282 13 306 141 86 75
210 221 251 114 91 64
293 454 193 66 36 39
404 526 321 186 21 61
422 482 287 84 36 40
238 179 238 128 99 63
285 486 323 43 24 25
277 503 329 49 22 26
248 204 238 131 102 69
423 610 249 194 125 101
209 429 240 54 31 32
358 515 225 83 27 29
190 485 226 47 34 32
225 159 254 106 89 72
349 485 375 194 14 61
356 437 236 53 36 38
232 199 286 108 89 68
502 577 266 179 126 103
182 434 263 54 31 32
443 519 318 99 25 41
285 402 342 143 103 86
363 585 284 127 18 44
259 174 269 97 78 57
383 434 255 127 21 37
417 592 295 99 19 34
225 617 251 180 8 44
216 229 280 113 91 68
509 559 289 75 37 36
351 449 256 78 12 27
243 134 236 130 99 61
179 529 224 149 17 44
209 289 283 116 92 67
278 874 380 117 96 76
253 928 304 76 69 69
450 796 253 94 72 58
359 494 243 69 29 29
216 254 286 113 90 65
224 194 240 123 97 65
347 654 230 37 26 34
344 687 217 78 42 48
270 329 363 135 100 78
259 174 264 101 81 60
241 134 237 125 95 56
423 479 284 80 23 28
287 59 264 102 42 39
316 355 305 117 95 71
247 134 236 133 98 61
247 848 329 127 95 73
253 566 207 179 1 37
298 739 324 66 40 38
309 39 277 114 78 65
365 732 240 113 84 64
224 460 177 112 38 49
243 139 236 131 100 64
238 184 284 111 91 71
258 484 380 96 64 52
233 189 284 109 90 69
263 749 225 136 13 38
454 786 285 93 77 65
313 509 200 42 36 39
240 144 236 129 100 64
329 14 290 126 29 49
344 539 212 112 23 35
218 359 253 101 85 66
407 459 270 139 15 31
283 409 214 120 48 28
254 456 397 117 98 83
380 506 346 190 13 61
181 674 319 165 113 85
243 458 181 45 37 41
183 544 314 154 10 49
326 375 315 116 95 71
188 499 209 44 28 29
250 449 336 87 18 34
253 399 249 94 79 63
355 836 370 67 59 53
249 134 237 129 95 57
354 456 289 75 40 35
240 109 263 109 91 72
333 459 374 54 31 26
213 364 254 100 84 67
392 559 256 33 29 33
350 870 258 80 67 63
432 813 354 98 77 60
238 200 236 124 97 65
370 846 277 75 62 54
222 398 326 123 96 69
321 628 221 37 31 34
156 454 291 137 5 42
392 804 219 141 100 80
207 229 259 115 92 67
443 484 283 72 24 31
252 134 240 126 93 59
238 279 246 119 93 64
252 139 240 125 93 59
248 415 161 107 36 38
252 144 240 124 93 57
324 699 316 33 28 31
373 462 324 60 47 33
223 284 294 109 86 62
208 479 180 115 30 41
232 232 236 130 100 63
188 504 194 115 21 39
357 608 268 177 18 57
404 531 316 196 14 63
329 114 269 118 26 44
260 483 382 110 67 61
255 130 242 126 93 61
270 347 357 147 105 85
343 554 320 100 29 42
306 859 227 72 65 64
248 149 238 129 98 60
156 439 283 128 2 32
275 84 244 119 25 29
365 866 364 62 55 52
337 468 398 69 26 37
315 460 212 110 40 51
298 279 360 112 91 67
353 514 224 82 29 28
238 129 269 104 86 69
371 452 251 82 33 40
188 684 303 137 101 68
243 154 237 129 99 63
255 19 288 99 36 43
224 564 359 160 101 82
271 350 356 147 106 87
268 379 278 70 58 47
337 419 215 95 33 38
255 817 251 86 65 59
254 154 244 119 93 62
228 379 250 97 81 65
178 469 249 47 35 33
428 594 304 77 29 36
244 764 240 70 56 50
254 159 244 119 93 62
252 483 186 71 35 40
275 408 332 131 94 78
203 564 344 101 75 50
351 645 246 31 25 32
322 831 293 71 60 50
369 485 366 187 20 60
203 449 163 114 25 39
344 49 259 131 32 51
306 704 327 160 15 51
228 469 184 54 37 40
229 169 240 122 96 63
263 104 248 153 100 77
327 229 304 120 95 67
243 416 199 67 23 26
238 239 238 134 103 66
177 479 243 52 34 32
226 549 355 80 50 42
288 874 254 62 56 59
258 519 339 41 24 28
318 606 327 106 16 36
248 189 239 119 94 64
252 916 370 53 49 48
299 901 391 52 49 49
272 395 335 131 94 78
233 174 238 128 99 63
314 398 263 110 95 76
339 27 258 105 91 79
233 164 239 125 97 62
295 109 255 108 53 48
350 648 243 36 28 32
205 245 260 119 94 65
204 264 264 123 95 63
238 169 238 130 100 64
193 439 253 52 34 33
215 421 199 71 23 30
254 244 249 132 102 69
177 417 273 129 13 29
227 169 243 114 92 67
368 564 309 51 28 31
227 500 192 144 12 35
328 609 327 178 18 58
281 214 299 105 86 64
249 184 280 102 82 60
378 799 248 103 80 63
247 689 233 130 5 33
339 434 264 85 68 49
293 28 289 151 28 57
248 407 242 92 76 59
175 486 241 60 30 29
222 744 337 164 116 85
249 499 373 116 79 71
316 304 325 110 84 58
247 779 242 74 60 51
201 358 280 117 93 66
229 164 241 119 94 65
308 10 284 82 36 38
294 219 280 129 95 54
428 579 304 57 27 33
245 71 262 96 78 65
312 12 291 89 37 38
233 239 292 104 85 64
278 940 303 88 82 82
273 539 364 50 27 30
233 179 238 128 99 62
228 234 237 131 100 61
373 831 322 34 31 30
281 287 361 108 89 69
344 899 309 46 39 35
219 269 245 126 95 60
226 178 242 123 97 66
319 505 376 196 0 61
228 194 239 121 96 64
194 439 169 141 2 38
207 304 269 120 93 65
253 749 230 84 36 41
225 184 241 124 97 64
306 868 227 83 72 71
207 369 300 120 94 64
404 535 247 181 1 42
220 244 241 128 97 58
213 421 343 85 35 33
213 329 294 120 95 69
320 220 282 141 103 66
243 169 237 133 102 66
224 164 259 105 87 68
475 512 303 68 20 24
234 129 259 105 87 69
193 449 179 91 27 38
243 169 282 110 89 66
383 489 260 53 33 31
394 754 195 52 39 30
187 434 304 50 29 32
238 159 279 109 90 70
223 364 314 116 93 67
273 815 319 82 64 50
344 884 299 59 52 51
246 437 171 163 5 39
393 554 306 159 20 53
240 120 267 105 88 70
315 833 301 93 76 60
256 499 383 138 98 87
396 501 256 68 44 44
256 207 246 121 96 68
243 174 238 131 101 64
278 379 269 94 79 62
388 818 294 41 36 32
316 104 282 98 50 46
326 139 269 119 94 65
329 434 320 119 88 64
338 420 229 64 18 25
241 209 236 130 101 67
328 524 209 141 10 34
220 206 277 108 88 66
207 339 264 114 91 65
249 612 231 177 10 46
383 479 259 47 31 30
297 724 333 165 15 54
248 174 239 134 103 65
308 10 279 77 44 40
241 84 261 97 29 36
436 451 271 74 24 29
365 591 244 148 8 43
267 514 365 49 25 25
166 505 300 76 23 34
228 288 246 97 78 57
358 868 279 67 57 57
251 164 241 129 101 67
464 548 312 159 27 55
266 45 281 109 63 54
230 232 236 129 98 60
252 34 275 119 24 44
323 889 244 88 78 76
268 500 329 46 25 28
368 749 169 58 48 42
233 329 248 101 83 63
349 415 233 80 9 29
237 203 237 124 98 68
273 619 224 61 34 38
241 825 273 84 67 61
242 508 393 181 126 109
268 673 326 34 28 29
233 194 238 118 95 67
382 714 223 155 107 77
251 169 241 130 101 66
353 489 370 136 20 47
243 184 238 123 96 64
374 815 194 93 72 61
248 179 240 133 102 65
226 706 327 129 86 68
337 498 372 196 16 62
195 450 246 54 32 27
180 529 317 140 10 46
303 898 249 73 63 59
218 499 384 160 114 95
343 789 174 52 46 45
220 528 201 144 11 37
348 510 355 133 32 48
398 759 140 103 77 57
202 444 242 79 30 26
196 764 293 152 104 73
224 674 269 113 16 38
243 189 238 115 92 65
164 440 275 97 23 23
253 119 273 113 91 67
449 817 215 109 86 66
303 819 224 85 66 59
254 189 243 127 101 70
205 380 303 121 95 66
293 953 324 79 77 79
393 510 239 77 31 31
243 484 374 101 67 62
229 724 250 110 17 39
330 392 308 111 91 70
215 195 250 114 94 72
443 524 259 93 38 33
470 507 317 70 22 24
219 194 269 108 89 68
306 850 223 71 64 65
262 501 332 46 26 29
218 419 240 86 71 57
422 441 265 141 21 37
248 219 239 133 103 68
443 504 280 37 34 37
387 454 261 138 14 32
270 506 353 38 26 24
183 709 319 168 115 88
315 324 344 133 101 69
298 79 269 95 67 54
428 608 249 205 136 109
213 199 254 113 93 71
170 490 246 81 24 29
194 394 284 107 87 64
283 870 378 112 93 74
192 409 264 96 80 62
326 159 279 118 93 64
238 114 259 108 90 71
372 542 317 189 6 59
327 119 269 123 77 65
208 456 167 102 20 36
212 204 254 113 92 68
424 586 283 92 38 46
211 209 254 114 92 67
189 629 310 114 91 65
185 579 289 102 23 40
393 439 261 102 21 33
243 349 250 86 74 62
330 452 356 44 31 25
214 204 250 112 91 66
293 954 334 68 65 66
215 194 258 110 90 70
282 234 292 111 85 59
393 784 200 83 61 50
288 423 333 134 96 81
208 559 369 161 115 92
306 303 311 99 80 57
255 55 272 99 29 36
224 484 393 128 96 74
308 599 213 42 36 40
334 104 239 114 76 65
283 329 305 86 72 58
248 324 309 88 64 44
273 49 239 81 35 28
243 460 182 45 39 43
219 194 245 115 93 68
203 409 314 123 97 69
276 259 330 118 97 74
361 603 264 144 21 51
161 474 269 54 34 36
216 199 248 113 92 69
223 495 192 155 4 34
339 899 299 69 62 59
168 416 293 69 30 30
243 413 229 77 65 53
318 865 384 42 37 37
167 479 254 61 33 34
249 114 272 112 91 70
211 443 210 110 4 36
352 690 298 130 5 40
299 245 342 111 92 72
211 209 259 112 91 67
290 261 347 108 90 72
216 203 247 112 90 67
223 818 284 71 56 55
241 919 324 69 64 64
223 299 295 114 87 62
189 499 328 77 29 36
246 68 260 108 84 70
305 348 297 102 88 74
232 418 224 73 55 50
273 374 279 83 69 54
179 539 313 159 3 48
161 484 274 73 30 36
344 596 294 147 17 46
285 199 289 100 81 60
255 194 276 87 70 52
214 234 246 122 94 60
217 244 243 126 96 58
218 209 244 116 93 66
300 849 250 69 55 55
283 405 184 195 6 10
165 507 289 158 0 41
238 754 328 119 83 56
256 19 290 100 44 48
248 469 403 130 94 79
228 569 215 179 7 41
194 384 274 115 92 66
403 744 144 87 69 53
303 384 267 110 94 77
221 208 242 118 95 68
343 688 214 87 25 35
239 567 211 185 6 44
213 264 249 126 95 58
244 109 267 107 91 75
254 511 347 45 25 29
230 674 260 43 37 39
233 494 189 49 38 42
296 178 300 106 87 66
252 194 278 87 70 51
356 592 289 149 17 47
273 789 228 80 63 56
259 319 279 76 62 47
212 234 248 118 93 62
186 438 306 70 30 35
332 908 295 78 68 67
294 114 264 104 43 45
217 800 341 183 130 104
284 673 326 94 15 36
293 896 249 84 73 70
172 474 304 124 9 38
302 386 266 109 93 76
233 420 164 166 14 21
242 523 374 150 104 91
205 273 260 123 94 61
216 209 247 111 90 66
232 417 214 68 35 34
298 585 207 86 36 42
262 349 329 124 94 71
393 818 384 98 81 67
223 209 241 118 94 67
226 646 268 192 7 51
227 229 237 126 98 62
435 522 253 96 35 28
349 679 190 143 106 74
210 229 268 114 92 67
270 686 221 125 12 30
338 429 279 100 82 61
220 219 241 122 96 64
491 533 312 57 30 33
223 489 344 100 27 40
315 921 371 58 55 55
170 509 307 120 22 42
243 204 237 129 100 67
195 504 332 141 20 47
162 424 278 140 3 34
219 224 240 121 95 62
249 623 236 103 29 42
203 459 229 68 30 30
370 814 187 100 77 62
183 464 249 55 34 32
160 474 274 50 31 35
312 782 297 113 85 72
413 478 292 82 38 39
213 344 299 119 94 66
288 400 239 107 90 69
266 117 256 143 96 74
403 764 149 91 69 54
188 509 328 59 27 32
313 918 279 82 74 73
213 214 249 112 90 65
191 760 326 181 124 97
367 739 269 106 27 41
383 444 269 75 8 25
233 364 319 120 93 65
389 794 214 99 71 54
329 896 267 77 69 69
212 234 274 111 90 66
208 319 284 124 95 67
307 21 286 94 47 44
169 529 274 52 32 35
303 574 204 93 31 37
212 219 249 114 91 64
325 936 334 57 49 47
273 74 273 112 88 64
197 439 249 67 33 27
244 864 339 160 113 96
413 564 264 45 32 37
254 85 272 104 81 63
256 249 255 122 97 67
305 299 361 127 94 62
333 405 218 85 30 31
238 359 251 91 78 65
243 479 185 74 38 41
215 219 246 115 91 64
391 799 237 108 84 67
339 485 380 108 20 40
390 793 229 101 79 55
342 444 269 84 66 46
317 144 292 109 88 65
394 775 200 63 49 38
190 599 352 157 115 89
238 219 236 131 101 66
356 833 219 80 61 54
254 15 274 87 44 42
211 427 200 41 28 32
384 649 193 160 110 76
212 224 249 115 91 63
300 74 272 94 25 40
243 719 234 140 2 36
215 224 246 117 92 61
254 284 254 111 92 70
344 770 281 72 55 48
228 359 250 96 81 65
161 479 269 47 33 34
234 200 287 110 90 69
379 568 247 38 29 33
210 284 256 112 86 56
210 219 254 113 92 67
331 841 292 32 30 30
260 313 301 63 53 43
338 844 329 32 30 31
254 224 280 93 75 54
387 507 342 195 15 61
203 804 324 195 134 107
275 790 311 76 60 54
207 294 264 123 91 63
218 429 214 92 18 33
324 78 219 105 50 36
278 224 304 109 88 65
211 218 252 115 93 67
291 48 265 114 72 61
226 158 260 104 86 68
340 841 193 114 93 78
235 160 277 108 90 71
421 817 295 91 70 63
237 283 246 108 86 61
351 670 274 134 7 40
205 264 260 125 95 62
248 229 240 134 104 68
250 234 242 136 105 69
256 219 246 127 99 68
196 579 316 164 13 52
216 378 316 118 94 68
218 214 244 119 94 65
313 35 281 120 34 48
266 12 294 106 72 67
214 659 314 146 102 90
388 574 305 49 25 29
329 833 280 39 35 34
257 174 272 94 76 56
284 937 367 88 85 88
310 324 356 137 99 69
199 394 299 119 94 66
358 455 279 77 25 30
223 214 240 119 95 64
269 299 349 116 94 70
214 389 251 104 84 63
412 569 260 41 30 35
253 39 274 118 27 46
208 514 338 138 18 46
403 592 294 83 29 36
208 447 161 131 20 37
368 849 349 82 77 76
185 512 201 96 26 38
221 214 242 120 95 65
377 743 163 61 48 37
208 234 254 118 94 64
210 735 280 101 17 32
383 451 282 87 1 28
283 409 194 185 6 11
239 84 259 99 23 37
178 494 234 108 18 32
207 249 254 122 94 59
267 65 276 117 28 46
223 229 239 123 96 62
176 545 258 80 29 37
315 829 201 74 66 64
224 309 297 106 82 56
223 239 239 130 98 58
247 508 388 173 115 97
212 229 248 116 91 62
373 821 209 91 72 64
287 469 191 74 30 35
233 374 251 95 81 65
331 81 226 112 97 81
368 834 360 76 65 57
362 868 360 56 50 49
213 464 173 171 16 44
159 469 293 139 2 43
326 209 299 119 95 66
243 634 244 80 24 34
214 229 245 121 94 61
375 436 257 67 14 23
233 279 297 101 81 60
288 204 309 111 92 72
296 492 380 50 23 27
206 248 258 122 96 64
338 420 239 70 18 26
326 102 216 151 28 47
374 496 356 176 20 60
248 334 310 88 66 44
380 683 197 133 96 61
238 349 250 89 76 63
328 719 203 55 35 36
242 502 397 179 125 109
412 478 357 194 9 62
298 664 319 170 11 54
453 574 299 147 14 46
212 239 248 120 93 60
403 739 179 67 53 39
207 384 309 122 97 68
298 200 318 107 89 71
228 474 186 55 35 38
214 240 245 124 95 59
213 359 255 102 85 67
343 439 229 83 34 39
272 103 254 142 91 77
417 473 358 174 22 59
235 130 264 105 88 70
250 326 252 83 72 61
249 933 339 61 59 62
248 474 185 95 31 40
210 239 251 119 93 61
318 559 205 133 8 32
303 943 304 91 85 87
323 852 206 110 83 68
208 229 264 114 91 67
218 229 243 121 94 60
186 453 252 40 34 33
390 467 327 61 47 29
220 228 241 120 94 61
433 529 248 170 2 38
368 839 334 33 32 33
418 484 279 76 39 37
338 429 219 112 22 36
202 349 274 117 93 66
326 887 244 87 77 75
233 828 294 72 60 59
220 239 241 127 97 59
252 749 331 136 76 71
164 504 274 152 0 40
160 479 275 109 25 40
420 481 351 194 6 62
260 134 254 125 88 64
294 876 394 33 31 32
161 445 291 128 0 40
230 145 263 105 87 68
318 394 339 135 100 74
245 207 286 97 79 59
223 449 348 108 26 42
296 116 266 120 87 70
223 249 239 131 98 60
194 779 314 191 130 104
217 805 278 61 51 52
398 439 268 104 4 32
419 506 331 102 24 40
448 504 284 54 31 33
320 146 262 138 106 69
170 528 298 165 0 46
176 492 237 114 16 34
243 209 237 130 101 66
205 644 307 123 72 57
378 535 320 192 14 60
235 429 346 78 26 32
325 534 207 77 26 36
258 504 335 47 26 27
214 244 245 124 94 58
258 46 230 117 101 85
180 558 260 48 33 37
273 14 303 140 102 94
228 279 295 104 82 58
500 547 287 69 20 25
313 866 384 37 34 35
181 514 321 99 30 42
438 478 274 131 7 34
212 249 248 124 94 56
353 608 319 175 21 55
277 817 331 149 115 96
326 199 307 123 98 70
326 258 305 133 101 67
196 445 167 145 0 36
229 618 327 88 27 39
214 249 246 126 95 57
320 136 257 136 99 67
229 703 320 37 28 25
351 624 236 158 23 43
210 249 250 123 94 58
318 10 279 70 48 48
191 505 192 162 14 43
453 794 269 84 65 53
212 254 248 126 95 58
210 254 251 124 94 57
213 354 255 104 86 66
437 494 280 40 33 36
253 19 264 93 58 51
260 304 289 83 66 47
376 852 345 69 61 59
188 489 199 42 33 33
377 639 190 128 95 57
218 254 243 126 95 57
340 809 171 68 56 50
244 254 291 85 68 47
382 783 135 88 71 59
193 434 254 67 32 30
163 474 295 133 5 41
379 440 262 81 12 29
342 903 309 48 41 37
220 254 241 129 96 58
298 368 357 158 108 87
225 421 229 77 67 60
295 113 268 109 71 61
233 204 237 119 96 68
231 208 237 121 97 68
211 472 176 148 14 39
238 194 238 117 94 68
465 786 269 87 66 57
326 135 277 121 97 70
358 458 329 59 45 31
232 417 229 76 64 57
213 639 324 139 92 76
233 424 155 179 7 40
228 484 188 56 38 42
428 479 279 90 19 29
233 209 236 124 99 67
167 439 273 89 26 26
348 629 264 169 18 52
353 679 289 121 11 38
297 235 282 133 95 56
350 659 190 140 105 72
233 724 244 101 25 41
234 206 236 123 98 69
211 759 267 41 41 45
306 145 257 132 89 56
365 781 136 116 85 58
229 719 250 124 10 40
238 204 236 126 99 66
252 494 374 107 72 64
312 79 224 108 93 77
238 460 394 90 75 60
176 509 315 58 29 34
377 532 226 111 21 40
254 299 253 100 87 73
238 209 236 129 101 67
412 476 326 58 40 28
233 269 242 139 103 70
233 214 236 127 99 65
233 474 398 147 108 92
341 509 221 75 27 29
250 21 269 98 22 35
195 429 169 62 32 36
448 493 324 110 21 41
293 459 193 76 34 37
180 542 241 154 17 46
226 224 237 127 99 62
257 859 350 121 87 74
252 274 250 119 96 71
169 469 255 64 34 35
282 625 222 121 25 42
418 584 259 108 74 56
286 261 297 85 66 41
228 224 236 129 99 63
233 219 236 130 100 65
298 79 264 85 59 48
233 224 236 130 101 64
292 198 310 108 89 69
238 214 236 130 101 66
291 202 311 110 91 71
221 505 386 157 112 93
355 875 344 60 53 51
243 194 237 119 95 67
343 614 279 119 24 45
212 469 340 107 24 41
211 274 252 119 91 58
212 512 196 131 24 42
248 199 238 125 98 65
248 209 239 132 103 68
279 249 329 116 95 73
252 204 240 129 100 67
233 403 248 93 78 62
204 384 255 110 89 64
228 825 309 190 131 103
318 84 212 147 24 32
377 461 339 63 45 31
253 449 179 93 23 37
379 811 253 56 47 39
228 309 249 95 79 61
280 243 296 111 87 63
191 590 268 156 17 49
308 424 195 56 37 38
439 814 344 95 79 65
308 704 206 104 24 30
279 784 311 76 58 50
348 455 374 79 39 40
394 600 225 106 87 66
252 209 241 130 101 68
338 544 210 143 6 33
243 269 244 137 105 71
344 779 276 64 50 44
336 88 248 135 19 49
356 676 250 82 27 39
238 494 188 91 25 38
214 283 251 113 88 59
173 489 309 41 29 31
214 374 313 118 94 68
309 39 255 67 41 31
221 645 294 155 19 48
228 499 394 169 119 99
240 215 237 128 100 65
443 540 310 75 28 35
233 455 178 127 34 45
285 507 356 46 25 26
249 269 248 129 102 72
275 94 249 113 34 35
458 504 328 61 29 32
209 329 289 124 96 68
383 853 355 62 54 52
269 53 233 72 44 25
229 149 264 106 88 68
248 214 239 133 104 69
218 209 274 107 87 65
308 11 289 88 34 39
273 59 234 93 42 29
313 99 282 105 29 42
170 504 307 133 18 43
300 754 201 126 26 37
274 339 363 148 105 86
240 219 237 131 102 67
391 772 224 138 102 72
356 832 215 93 74 66
223 304 248 96 80 62
263 434 174 95 31 38
215 215 273 107 87 65
223 435 158 192 9 41
282 63 273 108 77 63
243 219 237 132 102 66
240 225 237 133 102 66
373 456 374 116 45 48
201 392 257 109 88 64
262 124 254 138 94 71
383 848 349 76 66 59
246 699 232 136 6 32
293 830 338 124 101 76
249 174 280 107 86 62
243 224 238 133 103 66
231 580 336 75 28 34
331 391 314 114 92 68
255 254 253 124 98 69
298 149 279 102 82 59
244 754 236 76 43 43
248 224 240 134 105 69
323 509 205 100 23 29
298 824 230 83 65 59
296 431 331 123 89 73
239 416 199 68 21 24
352 695 302 141 12 44
