ply
format ascii 1.0
comment Created by Open3D
element vertex 2211
property double x
property double y
property double z
property uchar red
property uchar green
property uchar blue
end_header
360 441 142 96 80 64
358 440 150 96 81 65
334 515 90 112 21 41
422 544 180 151 109 81
358 439 155 96 81 66
331 517 98 99 25 35
358 437 160 96 82 67
429 509 170 181 122 98
354 441 151 96 81 64
389 876 345 68 54 53
363 438 150 96 81 65
248 609 266 120 87 65
289 853 312 88 71 55
234 639 246 167 115 80
367 437 149 95 80 65
363 769 200 136 102 65
252 714 264 62 37 38
363 435 160 97 83 68
362 437 155 96 82 66
364 436 156 97 82 67
413 859 295 72 61 60
360 436 161 97 82 67
361 437 158 97 82 67
412 734 201 125 92 58
410 445 312 154 2 49
368 435 155 97 80 66
384 431 145 101 40 38
383 430 150 104 45 42
239 560 223 139 104 77
325 905 238 70 63 63
378 430 160 105 72 60
383 428 160 105 60 51
373 438 130 93 77 61
363 774 305 75 58 47
253 948 325 61 56 56
373 437 135 94 76 61
375 436 136 94 73 58
374 436 140 94 72 58
287 639 238 51 37 39
373 435 145 95 71 58
244 704 267 154 105 70
371 437 143 94 75 61
379 436 130 92 71 56
378 435 135 94 67 54
383 434 130 93 62 51
383 433 135 97 54 46
513 754 259 111 89 68
378 434 140 97 62 51
414 459 160 55 36 36
378 433 145 97 57 49
383 432 140 101 46 42
372 432 159 101 80 66
245 928 287 124 96 82
418 409 255 79 43 42
378 432 150 100 59 51
323 530 129 145 11 39
493 862 384 101 89 77
403 845 345 35 32 31
381 432 148 101 50 44
241 756 283 163 115 81
307 822 328 67 54 44
249 566 198 185 120 93
377 432 154 102 66 55
404 846 341 34 32 31
362 418 194 97 84 71
369 431 166 100 84 69
252 874 269 136 110 83
444 830 296 84 66 59
421 797 222 165 109 83
368 430 170 100 85 69
276 524 120 41 30 35
358 424 190 99 85 70
358 428 184 100 85 70
403 519 161 148 52 51
358 430 180 99 85 70
353 425 191 99 85 70
252 934 270 65 60 62
270 262 303 147 103 81
280 536 77 78 11 36
359 425 186 100 86 71
417 759 285 45 37 32
349 919 275 76 68 68
360 421 191 98 85 71
362 422 188 100 86 70
365 416 191 99 86 73
457 814 305 72 60 53
368 418 189 101 87 72
368 420 187 101 86 71
233 624 245 156 110 76
416 509 206 37 27 31
363 428 180 101 86 70
414 534 250 154 20 50
362 427 183 101 86 71
280 573 135 158 8 39
352 878 225 78 67 64
269 927 348 63 57 56
297 419 335 90 25 37
355 436 167 96 82 67
358 435 165 97 83 68
256 791 283 141 105 74
356 437 164 96 82 67
367 432 165 99 84 69
363 432 170 99 85 69
274 549 165 59 27 35
395 560 286 182 16 58
329 499 342 53 24 31
366 432 168 100 85 69
373 430 165 101 82 68
374 426 176 101 86 70
407 534 280 43 27 32
423 846 375 83 65 48
245 625 273 125 94 66
383 423 175 99 75 61
478 804 296 84 63 47
382 427 165 103 66 56
403 814 200 184 126 98
384 426 166 102 64 54
378 427 169 102 81 66
288 609 328 121 34 48
306 512 53 101 30 28
379 426 171 102 80 66
328 764 331 99 45 49
338 779 320 86 68 58
378 425 175 101 84 69
383 425 170 100 72 59
373 424 180 101 86 70
402 699 192 140 97 63
373 422 184 101 86 71
373 418 190 101 86 72
378 420 185 102 87 70
376 422 183 101 86 70
343 854 244 61 52 50
379 421 182 102 86 70
383 421 181 100 78 64
383 419 185 101 82 66
378 418 190 102 87 71
250 557 267 34 30 33
403 410 245 71 55 48
358 582 162 206 12 44
328 389 195 87 77 68
328 394 194 88 78 68
398 409 265 74 59 50
318 868 345 33 31 33
333 389 194 89 79 69
333 394 194 88 78 68
323 403 193 86 76 66
451 762 278 83 66 54
278 294 289 149 106 81
324 405 192 87 76 66
324 408 192 86 76 66
340 503 337 140 14 44
252 564 269 63 28 36
328 404 193 86 76 66
249 522 231 156 0 42
299 294 275 126 89 67
328 409 193 86 76 66
338 389 195 94 82 72
418 779 255 64 51 47
254 709 260 80 27 36
343 389 197 94 82 71
344 390 198 94 82 70
318 359 264 92 67 47
293 849 255 155 127 101
338 394 194 91 81 72
383 734 191 138 98 60
303 459 352 68 31 38
338 399 194 91 81 71
343 394 195 94 84 74
343 399 194 94 83 73
370 393 252 78 68 59
348 389 196 91 79 67
346 390 198 94 81 71
352 389 197 89 78 67
352 393 197 88 78 68
350 399 198 91 80 70
418 410 230 106 34 34
338 403 193 90 80 70
348 404 195 93 82 72
308 574 150 94 33 41
453 855 365 100 80 63
345 409 193 93 82 71
268 849 304 135 102 80
352 405 196 94 82 71
353 403 199 93 81 70
353 409 195 96 84 72
256 464 322 89 14 31
423 865 389 92 74 57
321 417 193 85 75 65
237 804 331 166 117 91
293 489 349 160 18 51
353 424 194 99 85 71
355 779 202 152 113 78
350 425 193 98 84 70
392 464 116 156 6 36
358 394 200 90 79 68
392 849 266 60 50 50
317 464 343 149 20 49
360 387 203 90 80 70
306 852 247 130 106 83
366 390 207 97 85 71
343 839 299 46 37 32
277 918 243 129 93 72
294 548 81 211 18 49
361 395 201 95 83 71
364 398 204 94 83 72
368 399 205 98 86 74
358 403 198 93 81 69
358 409 195 97 84 71
358 414 195 98 85 72
313 949 256 97 89 92
363 404 199 97 84 70
309 516 47 76 40 34
363 409 196 98 85 71
364 408 198 99 85 70
365 458 343 41 24 28
283 283 294 157 107 85
534 838 404 97 85 75
263 459 326 115 16 39
243 784 336 171 122 94
267 884 327 91 64 55
369 404 204 99 86 73
404 411 205 100 37 39
368 413 195 100 86 73
409 579 224 155 18 44
464 825 315 87 67 57
374 388 214 102 88 74
307 888 230 72 64 63
375 387 218 88 76 61
370 398 209 100 87 74
388 674 235 106 26 40
372 399 210 101 86 74
451 827 330 63 51 40
308 509 347 97 34 44
375 394 213 103 90 78
272 719 321 130 15 42
376 386 220 87 76 64
377 389 220 81 71 61
272 804 274 68 56 54
378 394 220 76 68 61
266 539 220 53 25 29
380 398 220 72 65 58
381 400 220 71 64 58
371 401 207 98 86 73
372 404 206 99 86 75
370 408 203 103 88 72
403 830 255 109 82 62
372 416 192 101 88 73
373 413 199 102 88 74
372 410 201 102 88 73
503 830 354 105 89 73
410 535 204 65 34 39
314 544 90 136 28 45
276 836 298 30 26 38
378 410 205 101 89 77
304 274 285 141 102 78
378 413 200 104 89 75
313 354 266 98 70 50
383 416 195 100 86 72
312 825 248 141 110 82
374 404 209 100 87 75
328 934 340 64 57 54
379 408 210 99 88 76
403 407 305 53 43 39
383 409 215 88 77 66
288 664 240 82 25 38
309 784 337 77 61 51
408 733 297 51 39 30
368 408 335 63 41 36
391 676 258 84 28 32
443 784 283 65 49 39
384 408 220 72 64 56
364 389 256 86 72 58
366 386 253 94 78 61
501 826 352 83 67 49
367 389 254 85 72 59
369 388 251 89 75 61
368 394 255 75 65 56
375 387 226 85 74 62
438 853 355 87 70 55
375 387 228 87 75 63
409 549 255 100 29 41
375 389 236 85 72 60
255 553 313 134 13 43
375 393 236 76 67 57
261 693 259 98 20 31
374 394 240 75 66 57
334 464 331 128 7 40
376 386 231 91 77 63
313 409 340 115 13 37
279 967 275 89 86 89
323 839 245 145 119 94
376 386 233 91 77 63
376 396 240 72 63 55
379 399 235 70 62 55
371 386 248 97 80 62
373 394 245 75 66 57
314 873 307 80 67 57
300 696 217 40 36 43
347 887 226 75 66 67
368 399 256 70 61 53
371 400 253 70 62 54
393 684 191 133 95 59
382 404 230 69 61 54
384 408 230 68 60 52
368 850 313 36 34 34
311 814 248 150 107 81
382 404 235 69 61 54
316 440 343 130 12 40
478 803 312 81 63 48
384 409 235 67 60 53
409 489 300 61 29 33
383 409 240 67 60 52
443 784 264 59 43 36
373 404 255 68 59 51
313 539 342 48 30 33
380 403 245 68 60 53
381 405 245 68 60 51
397 695 250 70 29 34
383 409 245 69 60 51
377 405 255 69 60 51
273 534 115 59 28 37
421 479 280 69 29 35
268 594 210 76 26 34
380 407 256 67 60 52
359 579 321 102 24 41
383 409 250 68 59 49
253 525 235 73 26 35
303 929 349 58 52 49
485 731 249 94 71 54
377 859 256 59 49 49
354 419 194 98 85 71
358 419 194 97 85 72
377 417 194 102 87 72
368 847 312 37 34 34
322 462 129 77 64 54
278 529 150 138 2 35
328 459 130 85 70 56
323 458 140 91 77 63
232 774 295 156 110 76
322 457 144 91 77 63
519 781 308 94 82 73
330 456 136 91 76 60
333 453 140 92 77 61
332 452 145 92 77 62
261 567 193 99 34 41
332 457 129 88 73 57
331 457 133 89 74 59
323 455 150 91 77 62
322 452 159 91 77 62
386 422 353 88 37 39
325 451 157 92 77 61
378 569 304 147 20 50
289 343 287 115 91 63
325 946 263 79 72 73
324 451 161 91 77 61
328 450 160 92 77 61
327 452 154 92 77 61
330 451 152 92 77 61
401 412 213 93 44 41
323 859 301 77 61 45
333 450 150 92 77 61
333 449 155 92 77 61
338 454 130 92 76 59
344 451 130 95 79 61
408 846 303 51 44 38
418 421 165 75 41 36
387 554 303 73 28 36
342 452 130 94 78 60
256 599 265 73 23 32
423 744 260 63 46 35
384 846 352 41 36 33
338 450 145 93 78 61
423 794 260 56 48 43
337 452 139 93 77 60
348 864 310 36 33 33
258 364 285 125 98 71
343 449 140 94 78 61
291 438 327 56 25 28
348 449 130 95 79 61
320 451 162 91 77 62
354 511 128 52 29 26
362 567 152 202 11 45
312 878 235 59 55 57
396 509 146 154 8 38
408 564 210 73 24 34
358 511 128 104 24 39
435 490 164 181 114 96
373 510 128 111 24 36
384 505 128 110 28 41
348 504 332 131 9 40
258 955 305 68 63 67
378 509 129 80 32 38
380 506 128 59 36 35
463 853 365 105 84 69
241 924 305 186 142 119
252 544 310 97 31 43
383 509 130 100 27 39
388 439 105 93 44 44
388 438 110 89 56 47
270 585 176 39 33 38
395 515 307 161 4 51
418 406 285 102 34 36
392 440 106 107 39 44
364 469 335 77 25 36
265 686 257 97 16 30
388 444 100 114 31 45
483 747 245 91 66 54
388 441 102 101 48 42
289 868 322 83 69 57
391 447 107 108 28 39
342 819 224 77 63 58
388 436 116 91 47 42
385 436 117 88 64 51
393 436 116 104 30 29
393 434 120 117 22 25
393 437 114 92 32 39
397 419 344 50 30 33
411 624 218 162 117 91
335 951 284 80 71 72
388 433 125 97 43 39
411 804 244 130 87 69
255 579 267 37 29 32
414 719 210 129 94 63
393 433 125 119 15 23
396 436 116 108 34 37
423 444 175 95 25 38
397 439 115 104 31 39
412 719 205 132 94 63
399 439 120 124 19 36
250 802 287 151 112 80
406 437 318 168 11 47
389 825 302 37 32 32
398 410 255 74 59 50
514 750 261 106 86 68
278 965 310 67 63 63
398 434 125 126 26 32
400 439 125 132 10 35
396 444 116 122 18 37
354 809 210 68 58 55
309 384 291 106 85 61
262 547 217 105 1 33
397 449 120 146 2 37
473 820 330 91 73 56
399 444 125 130 4 36
438 429 240 101 32 41
430 836 325 37 29 28
399 449 125 133 7 36
303 402 345 139 17 44
401 436 127 133 10 44
401 438 127 139 4 39
430 836 320 85 69 53
406 574 215 72 26 38
385 451 103 136 25 42
388 754 302 50 37 31
387 453 106 167 6 41
390 450 108 159 10 40
385 460 108 157 0 33
268 759 249 94 72 64
288 880 340 39 36 36
245 742 277 159 105 77
388 459 110 156 0 36
256 294 276 133 100 71
437 814 270 88 66 59
387 464 111 161 0 33
242 929 305 173 132 111
391 458 112 156 0 40
390 460 113 158 0 35
394 454 115 156 3 39
395 456 118 91 16 24
298 854 309 83 68 52
235 634 264 149 106 76
329 315 258 138 104 78
396 452 117 160 4 35
376 503 338 56 27 32
399 454 125 116 18 37
412 454 156 69 31 38
397 464 125 66 31 37
386 468 112 123 14 42
240 544 270 40 28 33
385 470 113 26 33 43
422 449 271 122 24 43
391 468 117 59 31 40
323 630 209 159 22 46
347 879 220 92 77 70
360 855 313 35 34 35
393 469 120 54 29 36
387 478 116 39 36 42
272 554 175 63 26 32
393 479 125 104 28 40
395 466 123 141 28 48
395 470 124 60 30 39
348 879 225 81 69 65
396 469 126 94 26 39
440 831 316 79 64 48
290 807 262 167 120 89
394 474 125 57 29 38
396 473 127 77 29 38
308 719 335 116 23 43
426 518 175 178 121 96
393 411 240 70 60 51
388 484 121 79 30 40
298 601 200 223 10 46
390 481 123 150 30 47
231 531 175 205 140 112
390 485 123 90 32 37
392 484 126 95 33 41
236 708 311 143 103 74
258 524 215 93 20 37
478 809 319 84 68 53
339 561 143 77 29 37
398 415 190 88 48 46
330 846 302 74 55 42
399 416 186 84 46 43
403 414 190 85 39 42
249 799 287 153 112 78
308 829 248 135 107 80
298 400 310 81 68 52
408 413 190 85 34 43
420 589 195 147 107 74
361 820 208 195 149 119
412 416 181 86 38 45
392 419 349 96 30 43
413 415 190 93 33 44
389 431 135 104 34 35
385 431 140 104 39 37
388 430 140 105 30 33
245 646 288 118 88 64
299 798 251 181 126 101
388 430 145 105 31 33
393 429 140 112 23 29
393 428 145 109 28 31
397 431 131 116 27 30
328 554 337 166 21 55
411 459 308 118 37 49
398 429 135 109 30 32
333 794 221 76 62 57
398 428 140 112 33 36
397 427 145 104 29 33
250 519 314 159 5 49
399 426 145 99 33 31
402 509 304 171 18 55
364 909 300 66 58 58
297 344 284 113 88 59
338 799 219 89 72 64
388 428 155 107 39 37
387 427 159 104 46 42
340 930 331 64 58 55
379 730 192 142 100 63
421 502 253 80 26 31
268 529 165 76 33 40
364 569 320 179 15 56
389 426 160 100 43 39
398 426 151 90 29 33
255 584 308 163 6 50
397 427 149 95 26 32
323 834 245 149 121 96
237 574 220 149 109 74
398 424 160 85 35 35
404 804 195 161 110 76
313 573 155 85 33 43
388 432 130 98 46 42
387 432 134 100 46 41
337 862 368 68 55 48
386 432 138 102 41 39
275 518 145 136 0 36
338 944 315 55 52 51
400 426 141 115 38 36
402 426 142 177 23 12
403 426 145 154 18 22
433 785 282 67 55 45
402 427 144 137 27 27
343 749 198 76 35 39
407 430 141 155 25 35
403 425 150 95 22 31
408 424 150 149 16 20
322 484 343 152 4 47
342 857 349 43 37 34
408 423 155 79 33 25
413 424 150 149 29 31
413 422 159 78 36 34
323 873 315 31 29 30
401 434 131 135 22 32
400 432 133 123 33 35
400 439 128 130 11 34
401 439 130 130 11 33
403 439 135 133 13 36
298 689 225 55 30 33
303 554 339 93 34 43
237 584 220 159 113 77
406 434 141 146 22 39
409 434 145 77 33 38
255 739 260 117 25 45
405 439 139 139 16 35
407 439 145 77 28 33
258 556 223 87 12 31
413 474 158 112 69 56
400 444 128 128 7 36
239 684 299 133 97 67
269 664 309 50 27 32
428 413 256 40 27 26
401 444 131 124 7 34
400 479 140 114 21 37
402 444 135 134 10 36
400 449 128 131 6 32
408 499 158 146 90 74
404 444 140 138 16 38
353 403 290 64 57 50
407 444 145 113 25 37
282 674 244 96 14 30
420 554 179 160 113 85
407 449 145 135 15 39
413 434 150 94 35 40
417 759 201 141 99 66
412 439 151 78 33 38
414 440 153 55 34 38
413 444 155 55 30 35
411 447 152 112 20 34
313 854 248 123 102 81
265 554 231 103 3 31
410 556 213 111 22 46
261 570 258 35 29 30
414 450 158 134 21 42
490 811 310 96 76 62
231 729 285 170 114 82
388 424 170 94 58 48
495 754 256 101 83 65
388 422 175 94 61 51
393 421 175 85 45 40
392 422 174 87 47 41
253 809 288 149 111 80
388 425 165 98 53 45
393 769 304 53 43 36
405 871 299 76 65 65
395 421 172 81 40 36
415 425 192 95 31 42
397 422 169 81 35 34
333 859 369 57 48 41
398 420 175 78 38 35
388 419 185 100 62 52
393 419 180 88 50 43
393 409 265 68 60 50
381 494 330 169 15 53
268 689 250 81 26 33
234 729 320 152 109 81
393 418 185 89 53 47
419 759 275 65 51 43
389 421 177 93 56 48
388 851 313 37 34 33
344 719 322 100 30 42
388 417 190 101 67 56
273 884 257 155 122 92
250 866 304 144 106 88
246 821 332 190 131 110
408 409 250 75 47 43
229 518 156 185 121 103
398 418 180 80 43 39
398 417 184 83 47 43
412 464 260 79 24 35
404 421 166 81 29 31
405 421 162 83 27 25
408 421 162 82 31 27
300 299 271 124 91 64
408 421 165 80 33 29
382 699 194 127 93 57
398 584 260 60 25 33
406 422 163 81 30 26
346 456 323 58 26 31
244 570 233 119 91 67
403 419 175 76 37 36
472 803 291 88 67 48
408 418 175 78 37 39
452 819 295 79 67 64
413 421 161 79 39 34
278 953 330 66 61 60
428 444 257 142 8 44
403 417 180 78 39 40
407 417 179 80 38 43
268 474 331 88 21 36
420 424 214 67 31 34
239 674 261 181 123 92
414 417 179 80 37 44
414 434 191 112 24 43
411 423 319 161 24 52
415 531 247 86 23 34
414 439 190 89 23 35
415 449 187 65 33 37
413 449 190 93 23 39
352 439 322 109 9 34
418 423 160 79 36 39
248 622 232 184 123 91
417 429 151 85 35 41
262 588 251 45 27 31
394 604 186 139 92 63
419 429 154 62 34 39
323 569 334 134 22 48
397 872 349 83 63 59
422 425 160 71 41 41
417 433 152 66 33 35
421 438 157 70 38 37
378 885 321 46 40 41
416 485 260 119 22 42
422 439 160 74 32 38
419 445 159 54 33 38
418 449 160 126 27 42
333 879 362 52 48 46
420 422 163 70 36 35
421 421 166 77 35 40
415 480 292 60 29 34
428 429 260 111 23 40
293 535 342 95 28 39
400 826 208 210 141 112
447 848 335 83 64 52
418 418 175 70 38 36
422 420 170 78 32 36
392 415 349 87 42 38
424 424 170 77 31 35
424 424 175 64 31 33
333 886 202 78 74 72
424 429 165 90 30 37
257 652 292 113 85 63
415 424 205 85 27 39
424 429 175 81 28 37
268 894 335 97 82 71
388 837 220 221 146 117
419 417 185 96 30 42
423 419 180 100 32 41
419 419 190 101 28 43
398 469 130 87 32 37
318 924 240 83 73 72
447 877 406 90 73 59
422 424 185 91 30 38
421 423 188 79 31 35
416 439 207 37 31 32
424 429 180 54 28 33
238 624 235 174 116 83
341 711 192 86 42 49
424 424 180 76 30 34
423 434 165 74 30 36
339 793 217 90 72 64
423 439 165 68 30 35
424 434 170 77 30 37
302 524 45 195 19 52
255 660 258 147 97 77
247 520 207 47 29 31
422 444 165 61 31 39
331 937 257 73 66 68
421 448 162 106 35 43
378 889 285 71 61 57
386 862 323 49 43 39
422 449 165 75 30 34
389 684 245 65 29 36
406 493 304 98 31 42
423 444 170 101 30 39
238 674 290 136 96 66
323 429 330 122 8 37
424 449 169 78 44 39
258 429 317 91 24 34
283 585 155 185 11 44
368 884 355 63 54 51
423 434 180 107 28 42
268 729 324 113 18 38
405 466 148 125 19 44
421 433 183 111 27 43
418 434 185 109 30 45
420 440 181 35 28 32
324 871 325 30 29 30
421 437 183 40 22 27
267 898 340 46 40 39
357 568 328 189 11 60
403 854 384 73 58 47
417 444 184 98 36 41
234 609 240 147 106 72
420 444 181 50 25 28
262 529 230 49 26 31
301 360 288 112 89 62
384 689 281 50 33 29
390 600 267 173 6 54
424 449 180 79 35 34
418 449 185 118 88 78
348 859 225 120 93 66
422 450 184 110 87 70
254 953 290 68 63 63
324 622 202 95 25 37
331 817 313 68 52 44
388 415 195 100 73 61
269 635 258 90 21 33
388 408 275 66 58 48
388 414 200 100 81 67
393 415 195 96 61 54
273 874 329 124 93 75
445 870 396 88 72 58
338 339 256 132 97 73
393 414 200 98 65 58
280 461 333 89 26 40
388 413 205 99 85 73
278 519 120 80 25 36
432 424 259 48 28 33
393 413 205 94 71 62
301 287 278 131 93 70
393 815 189 169 115 81
381 568 303 133 24 46
398 413 200 96 51 52
288 729 336 91 27 39
402 444 319 126 13 42
398 413 205 91 52 50
389 412 215 82 69 60
260 512 157 70 37 39
405 606 233 58 25 36
228 799 310 172 118 90
390 412 219 74 61 53
348 824 299 59 46 40
398 413 210 90 52 48
398 412 215 89 52 44
398 411 225 76 53 46
458 740 249 108 87 66
398 412 220 83 51 43
403 412 195 91 36 41
370 569 311 175 14 55
348 904 340 52 46 45
378 409 330 67 57 46
443 809 299 61 52 44
403 412 200 96 37 41
307 644 224 97 28 37
333 401 300 65 56 48
408 412 199 101 30 40
408 411 201 105 30 40
414 413 200 100 27 40
249 832 311 193 125 99
412 411 205 112 30 40
353 549 140 171 1 36
416 447 258 52 23 30
407 674 196 168 111 81
300 681 328 153 18 49
376 478 343 149 18 47
403 411 210 99 39 39
403 411 215 96 38 37
320 438 337 125 4 40
317 829 319 52 42 36
401 412 210 93 43 41
533 827 391 103 90 78
423 544 230 148 16 42
338 764 325 83 49 48
334 818 227 48 43 50
408 410 210 107 31 36
228 519 190 176 125 104
408 410 215 100 32 33
403 411 220 91 39 38
408 410 225 95 37 38
412 411 210 107 31 37
244 934 315 88 66 60
413 410 215 103 31 35
413 410 220 100 34 36
413 410 225 101 35 38
328 339 257 113 84 63
388 410 230 68 60 52
323 339 257 99 73 53
393 411 230 70 58 50
412 534 265 169 18 52
305 890 230 71 64 64
388 411 235 68 60 52
384 412 238 68 60 52
393 411 235 70 59 51
398 784 300 50 39 32
304 686 222 55 35 35
411 642 187 162 112 80
398 411 230 77 55 48
398 411 235 75 57 49
431 454 231 58 29 33
393 411 245 70 60 50
388 411 250 68 60 50
306 682 223 83 23 30
385 412 250 68 59 50
393 410 250 69 60 51
393 410 255 69 60 50
234 614 250 142 104 71
263 828 329 193 138 116
398 410 245 71 59 51
403 411 230 88 48 44
364 813 308 38 31 28
408 410 230 95 41 40
403 410 235 81 52 46
300 309 272 120 91 63
408 410 235 85 44 41
408 410 240 69 45 40
241 776 288 155 111 76
413 410 230 102 35 36
413 409 240 68 38 35
408 409 245 68 47 43
438 840 300 93 73 61
403 409 250 75 55 48
415 534 245 109 21 38
403 409 255 82 53 47
307 635 219 103 40 47
408 409 255 87 44 43
413 409 245 63 40 37
413 409 250 72 42 40
381 602 288 178 9 58
424 845 378 80 62 48
242 514 300 42 30 32
413 408 255 85 42 41
246 513 151 171 91 85
414 564 224 152 17 42
294 772 242 77 60 54
257 324 276 129 99 72
415 419 196 126 25 45
414 424 195 96 27 41
358 799 306 43 35 31
414 424 200 77 28 38
398 408 285 77 52 41
415 419 205 79 24 35
414 429 195 113 21 41
415 424 208 110 23 43
467 794 281 101 76 62
240 661 283 131 93 64
253 624 280 116 45 47
413 434 195 134 20 45
415 439 204 51 27 31
412 449 195 124 19 41
414 444 204 81 28 37
413 440 251 77 22 28
325 462 337 130 8 39
410 441 251 67 21 30
323 699 330 120 24 44
409 444 250 64 23 29
410 444 253 49 22 26
269 845 303 129 96 79
301 278 288 143 104 79
293 639 322 58 29 34
410 441 253 53 20 26
389 837 368 54 46 39
413 444 255 58 24 28
276 908 253 104 81 64
252 941 332 69 64 63
410 447 251 63 30 35
413 449 251 65 23 29
349 851 357 53 45 40
401 479 313 113 22 42
417 414 211 97 32 38
247 589 290 157 4 43
394 559 174 130 11 31
468 769 280 76 63 52
418 410 225 111 35 38
412 789 200 164 113 81
404 844 274 55 47 46
251 609 285 137 6 40
422 411 225 118 33 37
263 289 285 148 104 81
421 415 217 89 28 37
246 553 286 71 17 29
391 508 136 165 9 38
267 569 231 65 24 31
413 409 320 86 32 40
424 413 224 129 30 39
420 459 291 100 26 40
423 411 230 113 33 32
423 525 247 47 26 28
289 884 252 145 119 94
423 410 235 94 34 28
275 516 108 83 27 35
423 410 240 64 31 27
426 411 231 113 34 31
429 413 230 125 30 32
245 523 304 82 32 41
378 764 191 137 103 63
432 415 231 128 31 34
333 479 335 130 9 40
427 411 235 96 33 26
311 780 233 82 65 57
429 412 234 100 33 27
318 534 60 211 15 49
409 859 290 76 63 60
433 414 235 109 32 34
312 350 264 100 70 50
430 412 238 80 28 26
418 409 245 59 36 34
258 524 325 94 20 38
423 410 245 54 32 29
277 520 150 132 1 36
253 919 335 70 54 52
423 410 250 59 38 36
236 794 293 159 114 79
428 411 245 51 28 25
332 618 318 47 30 33
378 415 354 86 34 35
435 424 234 62 31 35
357 864 220 94 78 67
292 386 303 122 95 66
431 411 242 65 23 25
427 411 254 53 31 31
417 509 270 145 20 47
431 411 248 38 27 25
433 412 250 37 23 26
258 775 343 168 122 91
245 576 238 115 89 64
433 414 255 48 27 30
436 415 236 107 25 35
434 412 245 50 21 25
298 972 304 59 54 54
363 619 299 41 30 35
379 575 302 175 11 54
338 864 220 115 91 74
250 591 253 101 77 59
438 414 245 115 22 41
438 414 250 104 20 36
239 629 270 139 106 73
416 416 194 103 35 48
417 419 194 112 26 43
418 843 310 87 77 69
416 422 193 119 26 45
393 829 301 37 34 33
416 419 207 70 28 34
416 424 207 107 23 42
261 588 254 49 25 29
411 634 218 161 115 85
419 729 220 128 96 66
417 419 210 74 29 34
416 629 205 159 111 80
393 408 280 67 57 46
421 419 216 115 28 40
383 859 330 53 47 43
290 899 356 55 50 49
459 797 292 85 74 65
308 459 349 44 26 31
424 419 220 91 35 38
298 932 242 87 78 79
261 269 292 135 100 72
421 862 343 96 74 63
241 733 327 149 110 81
421 424 216 103 31 39
424 424 220 109 24 36
335 805 316 83 65 56
420 429 213 51 36 33
320 535 85 67 31 37
337 829 304 48 39 36
435 449 238 146 19 42
424 429 220 96 29 37
294 444 340 47 29 30
268 319 284 124 94 69
273 423 317 65 26 30
426 416 222 99 34 30
428 424 225 125 25 37
336 641 208 96 22 31
428 429 225 116 25 37
338 774 321 86 67 58
416 445 207 74 27 34
416 449 207 72 28 35
256 698 263 87 35 34
418 439 210 38 31 32
370 747 302 78 39 39
318 914 354 65 58 55
420 434 213 64 34 34
324 529 90 166 17 46
308 934 245 90 82 83
422 434 216 67 32 35
431 504 170 181 122 99
420 439 213 39 31 33
288 349 289 118 93 64
422 439 215 64 32 36
270 542 172 71 13 32
251 908 327 161 124 103
424 434 220 120 28 42
328 400 280 57 49 40
424 439 220 87 33 39
418 444 210 65 33 35
426 767 272 66 56 50
230 729 290 162 109 79
418 449 210 62 32 34
422 444 216 86 32 40
285 485 343 130 15 41
353 864 219 101 84 73
424 444 220 48 31 34
426 433 222 135 27 42
427 434 225 90 27 36
430 877 394 94 77 60
427 439 225 82 32 39
249 525 163 184 116 97
427 444 225 87 32 39
267 581 195 66 29 34
256 268 265 120 94 64
426 446 222 41 32 36
363 845 360 45 39 34
427 449 225 61 32 34
342 855 297 39 34 33
313 564 139 113 29 42
409 669 220 146 101 70
432 419 230 123 26 34
264 909 261 98 82 75
432 424 230 97 30 37
430 429 228 88 30 38
275 537 162 36 31 32
432 429 231 58 32 35
437 494 185 158 115 95
429 434 229 61 30 34
344 929 325 54 48 46
431 434 231 46 31 31
358 635 203 70 35 41
429 439 230 63 31 34
385 640 261 161 18 50
431 444 232 82 30 36
430 449 229 74 30 34
418 439 255 79 16 29
403 639 226 154 113 87
418 436 256 67 21 28
416 441 252 84 22 28
436 492 166 184 119 102
416 443 252 88 16 29
423 444 255 133 12 41
436 419 236 99 31 37
356 892 355 63 54 53
512 838 361 104 87 69
233 522 157 197 134 120
436 424 236 91 37 42
438 424 240 95 32 39
434 429 235 53 33 33
358 883 245 75 65 63
248 544 260 136 1 37
436 429 237 82 35 36
439 419 245 119 25 41
394 689 250 46 30 35
439 419 250 141 22 47
438 419 255 85 27 38
428 864 385 75 59 47
437 424 254 75 28 38
470 754 252 90 60 44
439 429 245 114 29 42
342 914 256 64 54 55
434 429 256 112 22 42
283 649 245 43 34 41
311 543 125 134 24 46
434 504 185 173 119 100
437 429 254 132 21 46
434 434 235 45 32 33
334 489 337 134 10 41
435 440 238 81 31 34
438 434 240 137 24 43
283 734 336 115 19 40
426 419 263 62 28 30
436 437 237 71 32 35
269 543 176 74 30 37
347 799 214 79 66 60
411 814 235 149 96 72
437 439 240 139 22 41
435 444 238 107 26 38
436 449 240 154 18 44
309 930 243 88 79 80
284 573 125 200 19 49
439 434 245 153 18 46
438 439 245 165 15 50
426 419 288 85 30 37
434 434 255 155 14 48
433 439 255 155 7 49
264 635 254 116 69 57
435 438 252 162 8 51
436 433 253 162 15 48
437 439 250 167 10 52
416 518 207 89 28 40
308 583 171 47 35 42
438 444 245 167 11 51
433 449 254 157 3 49
340 402 286 57 49 42
344 654 311 81 26 36
262 284 286 148 105 81
412 599 240 68 28 36
358 574 325 181 12 57
405 406 307 50 41 39
278 625 244 97 28 39
435 449 252 165 4 54
437 444 250 165 5 53
400 459 130 139 15 39
258 729 326 150 112 85
399 464 130 105 26 40
400 469 134 78 29 37
351 898 358 55 48 46
253 764 340 158 117 86
395 480 129 79 31 37
397 474 130 118 28 41
277 888 351 45 41 40
379 574 164 181 9 40
399 474 135 74 29 35
333 829 306 48 39 35
397 479 131 70 35 37
338 474 331 96 20 37
313 559 136 84 31 38
401 454 131 137 13 38
402 454 135 143 12 38
404 454 140 143 13 39
405 451 143 144 12 42
238 784 289 152 111 73
419 408 296 132 19 45
406 454 145 125 20 37
256 756 338 154 116 86
402 459 135 132 18 40
413 809 220 149 98 74
400 464 134 51 32 36
402 464 140 61 33 37
406 459 146 65 33 35
297 638 322 117 28 47
408 459 150 43 35 38
283 289 291 153 107 82
406 463 147 41 33 37
293 409 316 108 14 35
408 464 150 63 36 41
414 454 159 73 32 36
410 459 153 46 38 38
412 459 155 43 34 37
412 464 156 83 63 58
414 464 160 81 52 47
289 675 237 65 34 39
353 869 220 94 78 68
239 644 275 151 107 82
368 849 231 106 83 66
402 469 140 112 20 38
288 570 120 175 22 48
268 434 321 40 30 29
400 475 139 63 36 39
304 868 312 57 49 42
238 634 270 145 107 76
401 474 140 77 31 38
278 946 253 81 74 75
333 519 55 194 14 49
405 469 149 147 12 38
421 543 227 150 17 40
407 469 151 124 20 37
404 474 149 140 14 38
404 479 150 104 23 37
365 684 208 78 34 40
406 478 152 91 24 32
276 634 253 71 30 35
407 479 155 61 37 37
413 469 159 102 69 62
413 475 157 117 68 57
410 474 158 104 59 53
409 479 158 96 57 51
411 554 215 165 19 49
412 479 158 113 70 59
331 812 318 83 64 56
306 314 263 114 86 58
275 545 129 83 26 36
414 479 157 131 87 68
296 292 283 129 92 71
298 739 230 70 52 48
414 453 190 63 27 32
378 553 151 184 8 39
428 804 264 69 55 47
390 491 128 142 20 51
273 844 280 102 83 63
389 495 129 56 31 36
268 589 210 70 28 36
392 494 131 53 32 36
295 644 323 164 25 55
293 889 360 45 41 40
358 904 275 75 65 63
426 410 288 147 24 51
394 484 130 76 33 37
293 604 210 82 35 44
395 486 133 66 21 28
396 489 136 112 32 41
429 474 230 88 31 38
398 489 140 67 34 35
307 837 318 43 37 33
426 434 284 151 15 46
368 854 235 98 77 62
400 484 144 97 24 35
403 629 181 146 101 64
394 494 135 72 35 39
396 493 137 57 27 34
397 494 140 55 34 36
244 548 186 205 137 106
399 494 145 66 33 37
393 499 135 90 28 40
400 871 345 80 63 57
254 536 173 191 120 102
312 795 235 147 108 89
409 780 292 48 37 30
399 489 312 120 23 43
390 505 133 147 20 39
253 894 320 101 79 60
360 674 302 114 22 41
386 508 132 162 13 42
393 509 140 159 8 38
335 788 217 74 61 55
395 500 138 157 12 40
248 539 175 199 124 100
394 504 140 136 12 37
398 499 145 144 14 40
465 755 261 95 74 62
397 504 145 153 8 37
323 629 320 80 27 39
400 499 149 127 14 37
335 941 268 74 68 70
419 504 220 146 21 44
399 504 150 153 8 37
358 403 275 66 57 47
398 509 150 154 10 38
421 837 282 83 68 62
288 564 110 142 32 46
400 509 154 155 13 38
403 484 150 57 34 35
240 827 319 208 144 118
393 629 250 94 27 41
401 489 147 62 38 39
405 481 153 45 37 37
406 484 156 54 42 40
267 564 235 37 28 30
408 484 159 85 58 48
237 665 258 194 133 102
299 664 231 122 18 39
260 454 323 38 30 30
405 489 154 53 40 40
407 489 156 81 58 48
273 755 245 91 70 63
298 674 326 146 19 47
400 495 148 67 33 36
303 709 216 39 33 38
304 551 88 227 17 52
400 876 300 82 70 69
402 494 150 55 34 37
404 494 154 82 37 41
453 774 280 65 50 40
323 399 295 68 58 48
424 524 180 162 115 92
270 584 185 78 27 36
342 474 328 36 28 30
408 494 156 127 79 66
398 829 210 222 147 119
378 407 290 64 55 46
413 489 156 117 85 60
431 842 297 92 76 69
411 487 158 107 79 58
274 529 85 155 14 45
401 499 151 137 15 39
342 739 324 64 28 32
397 818 195 189 129 102
403 499 155 145 27 41
402 504 155 150 23 39
405 500 158 127 53 47
342 943 281 83 74 74
296 437 346 77 28 34
285 908 260 91 71 55
263 580 240 51 26 29
404 505 158 137 56 50
403 669 190 170 113 83
408 504 158 154 99 81
400 505 153 154 10 37
299 404 325 137 15 43
412 505 158 165 111 88
420 466 156 148 119 98
419 465 160 79 52 40
419 469 157 167 128 115
422 465 157 138 112 94
406 689 197 149 100 70
288 603 205 158 9 41
422 469 157 167 129 116
386 644 198 152 104 83
370 891 273 77 65 61
417 479 157 137 95 73
419 479 158 136 96 73
258 424 316 83 25 36
423 474 160 112 77 60
385 480 326 176 13 56
419 454 163 67 31 33
423 454 166 78 39 39
439 788 263 57 41 38
422 459 166 70 48 41
424 464 164 66 51 40
323 714 200 130 5 35
273 529 105 93 26 40
427 455 167 103 53 47
427 450 175 117 78 71
425 452 168 74 42 34
368 850 388 65 52 42
407 489 305 75 32 38
324 484 342 146 4 45
428 464 166 80 53 41
352 674 309 68 26 33
428 504 196 145 101 92
433 464 166 115 79 58
278 429 319 46 27 29
424 460 168 90 59 52
425 462 168 74 54 42
434 458 170 116 94 72
334 515 124 198 0 43
417 455 189 51 24 28
419 458 190 52 31 29
408 592 177 152 102 66
424 459 186 75 36 38
421 456 188 60 20 28
411 797 257 80 59 50
426 451 179 67 32 31
425 452 182 103 82 59
436 485 188 154 118 96
352 838 302 40 34 32
431 456 179 90 67 48
467 844 352 83 68 54
253 669 300 126 95 69
432 459 180 113 92 69
348 611 189 176 18 49
488 834 345 98 84 69
317 572 157 74 38 41
245 948 300 70 65 65
430 457 182 125 102 76
428 459 184 126 89 77
260 734 242 157 0 42
357 675 207 78 32 38
263 419 316 91 21 34
432 460 183 133 103 84
428 464 185 78 45 45
425 462 190 64 47 40
312 744 338 40 28 31
427 465 190 69 51 41
432 464 184 130 95 80
395 785 302 52 43 35
380 679 202 110 82 55
425 469 163 65 38 34
433 469 164 106 73 48
425 473 163 76 44 39
428 480 162 96 67 44
253 859 285 147 95 85
428 478 163 88 61 42
432 473 163 114 81 59
278 603 190 216 6 47
337 899 240 71 62 61
316 410 333 120 13 37
434 475 162 125 92 68
433 479 161 122 93 66
430 467 186 51 25 27
348 584 323 198 4 62
432 470 190 113 87 65
377 519 325 176 16 56
405 520 292 166 15 51
383 444 346 160 21 52
437 465 166 112 87 64
435 462 176 92 65 51
463 779 280 79 67 57
436 460 170 130 105 84
436 461 173 126 92 80
379 619 280 171 13 54
436 465 179 126 95 74
268 934 344 67 61 60
236 672 282 133 93 62
393 878 290 73 62 61
438 469 165 145 100 82
462 778 266 88 66 53
438 469 175 120 80 68
250 542 308 70 37 43
438 474 165 162 109 92
247 597 257 111 85 63
436 479 162 147 104 82
437 479 170 156 112 96
435 469 182 153 117 99
285 700 227 46 34 37
426 449 280 88 32 39
434 474 185 115 78 67
343 829 300 42 35 34
437 474 180 156 117 98
436 479 179 156 117 99
434 479 190 156 112 94
328 866 340 34 32 33
416 484 157 130 96 69
418 484 158 125 89 65
243 593 217 195 127 96
417 490 157 115 87 59
419 489 158 105 76 53
238 554 205 159 113 82
423 484 160 95 57 41
423 489 159 105 77 54
418 494 156 126 93 65
421 494 157 116 85 59
249 944 280 71 66 67
423 494 158 130 96 69
428 484 160 112 81 57
423 819 266 66 56 53
428 489 159 136 98 72
433 484 160 136 100 75
433 489 160 153 102 79
246 897 305 112 87 64
428 494 159 165 113 90
256 816 337 187 131 103
236 759 288 157 111 76
418 805 293 56 46 37
432 494 161 193 128 108
418 499 157 154 105 79
424 499 158 167 118 93
422 502 157 175 119 95
419 505 158 178 120 96
428 499 160 181 123 99
391 502 313 127 27 48
417 749 295 46 37 31
427 503 161 181 122 99
341 937 319 57 52 49
424 510 164 177 120 96
432 499 165 184 120 96
328 564 334 184 10 59
448 795 290 65 54 43
328 573 160 54 35 40
431 502 167 183 126 100
241 576 208 184 122 94
338 514 340 81 20 34
427 509 166 178 122 97
248 645 289 108 81 59
430 505 169 181 122 99
380 446 347 129 28 50
432 504 175 174 120 97
430 510 175 173 117 95
430 510 180 172 118 96
430 510 190 183 129 114
436 484 165 162 111 91
437 489 170 143 99 74
438 489 175 149 104 79
376 744 193 139 96 62
434 494 165 194 125 105
393 837 369 51 44 38
355 635 302 93 25 39
243 939 295 82 73 69
436 493 170 171 114 89
432 754 242 80 61 50
437 494 175 181 124 102
276 617 227 129 28 43
435 483 181 147 112 95
503 804 315 99 79 65
436 484 180 150 112 91
418 860 385 79 63 50
437 489 180 147 108 86
437 489 185 139 105 79
299 819 261 160 116 86
247 549 290 134 17 45
434 484 191 154 113 99
270 361 293 120 94 67
434 489 191 141 102 89
435 494 191 131 97 75
418 819 295 46 39 35
434 500 175 179 123 100
436 498 176 179 122 100
435 500 180 170 119 94
433 504 180 171 116 95
326 601 188 179 3 37
358 494 329 121 16 39
435 501 185 180 122 104
436 499 190 155 109 89
413 454 195 109 64 59
308 774 338 75 60 51
415 454 204 50 27 31
364 795 308 48 39 34
414 464 200 125 19 41
415 459 204 95 30 40
414 464 205 116 20 41
414 469 205 137 33 48
383 854 260 61 50 48
415 469 209 132 22 45
265 539 328 47 31 33
415 477 209 113 16 34
412 456 247 84 19 33
252 614 295 89 27 39
375 407 295 61 51 42
419 504 255 128 24 45
409 455 250 63 26 35
448 839 315 84 67 61
410 455 254 49 26 31
252 569 270 84 26 36
411 454 256 49 26 30
378 841 225 106 66 63
410 459 247 87 22 35
410 462 247 52 21 30
250 773 282 132 91 63
458 749 270 85 71 58
413 464 250 47 26 28
410 462 253 51 23 29
411 464 255 67 28 34
414 469 251 37 26 29
310 363 270 104 79 54
259 294 279 137 101 75
414 474 251 77 26 34
433 839 340 50 42 36
414 479 255 54 26 30
502 725 250 94 74 61
415 509 196 79 29 37
356 744 313 108 18 39
241 909 289 140 118 104
410 809 237 162 108 84
416 454 206 50 28 30
473 822 342 75 60 45
386 468 334 137 28 50
422 461 194 113 86 65
416 459 206 90 27 39
416 462 207 72 17 28
438 869 385 92 73 58
418 454 210 65 31 34
420 454 213 67 28 33
424 454 220 72 33 35
418 774 285 56 45 36
256 284 276 124 97 66
264 534 329 92 23 40
420 459 214 131 21 39
417 464 210 68 25 35
502 754 260 100 82 65
268 519 334 159 16 50
233 734 320 156 112 83
298 905 228 88 78 77
424 459 220 110 28 40
421 464 217 111 26 39
423 464 220 112 26 40
361 856 212 98 75 58
425 454 223 85 26 31
328 369 264 90 68 49
360 575 322 126 31 50
412 549 215 154 20 48
427 454 225 91 30 36
425 459 223 124 22 42
358 464 325 41 26 28
427 459 225 105 27 39
425 464 223 102 27 39
388 874 365 75 62 59
283 612 222 122 30 48
419 468 197 79 20 34
416 466 198 112 17 39
423 469 196 99 55 55
422 475 199 92 51 43
418 479 205 139 28 50
533 828 384 108 93 79
421 480 203 135 65 67
426 465 194 123 99 76
273 874 256 134 110 86
431 470 193 128 90 74
324 866 346 33 32 33
428 474 195 113 67 65
270 891 333 104 87 70
425 477 197 64 17 23
325 739 332 153 25 53
427 480 199 110 76 61
303 829 250 139 112 86
358 883 360 63 53 47
431 474 193 146 102 90
332 943 266 75 69 72
432 479 193 144 102 89
417 469 211 107 25 40
421 468 217 95 26 40
423 469 220 94 25 38
354 689 311 136 15 44
418 474 215 86 25 38
378 434 352 109 22 41
420 474 218 133 23 45
425 469 223 136 21 41
430 454 229 105 30 38
431 459 231 81 33 39
354 845 383 53 45 38
421 459 252 132 16 41
423 459 253 134 16 42
421 464 252 103 24 39
423 464 253 107 21 39
365 689 302 139 11 44
384 869 378 67 58 53
428 454 256 144 11 44
433 454 254 159 7 50
288 828 329 60 49 46
419 504 260 159 18 52
428 464 255 88 22 34
338 884 220 93 80 77
432 459 254 155 13 49
309 354 270 110 83 57
289 708 222 41 37 39
373 524 136 117 21 39
433 464 235 61 31 37
432 469 235 94 28 37
427 474 226 126 21 37
323 350 258 97 72 50
429 479 230 146 19 42
431 474 232 72 24 30
421 469 252 54 32 32
296 587 167 188 3 43
423 469 254 62 30 33
418 479 250 55 27 32
248 819 335 185 126 102
422 475 252 47 28 34
424 474 253 54 26 32
397 589 260 162 21 53
443 794 265 71 53 42
255 589 308 162 7 50
432 469 254 119 24 43
351 664 308 88 30 37
273 544 115 100 19 35
424 479 253 45 27 28
432 473 253 94 24 37
431 478 253 76 25 36
458 853 360 104 82 64
433 454 235 100 27 37
415 530 250 120 23 42
435 454 238 162 18 48
263 884 325 74 57 56
433 459 235 93 31 38
395 411 333 54 36 32
365 636 292 33 28 32
435 459 239 159 19 45
412 867 344 91 70 63
360 414 328 98 19 35
435 464 240 116 23 40
436 459 241 163 17 45
400 570 266 117 34 50
290 849 257 154 126 99
435 454 251 166 6 53
435 460 247 168 12 51
436 459 245 167 14 49
436 462 244 165 17 49
300 314 272 119 92 61
324 814 236 189 135 112
435 464 250 156 14 49
434 474 240 161 17 45
248 814 291 165 118 89
434 479 240 160 16 46
434 474 245 164 14 49
283 824 280 52 45 47
292 833 264 132 107 83
239 512 147 173 73 83
326 806 228 98 74 61
434 479 245 166 14 50
434 474 250 135 19 45
261 257 258 106 88 67
396 572 278 139 16 45
498 836 364 105 85 63
420 490 206 143 17 46
391 864 312 52 43 37
473 813 294 99 74 54
423 494 200 107 14 36
363 855 214 99 77 60
424 490 202 113 20 38
364 410 335 108 24 37
428 484 200 134 91 79
363 514 335 144 17 45
430 484 196 98 59 51
423 534 245 109 17 36
431 484 194 103 58 54
432 489 195 131 94 75
277 524 140 140 0 39
306 339 268 116 89 59
430 487 197 136 101 77
304 524 42 172 23 49
428 494 199 115 56 60
431 494 198 152 108 94
374 846 383 61 50 41
408 843 365 42 36 35
418 484 210 152 14 48
297 419 340 89 27 37
418 484 215 152 17 46
419 489 210 150 15 48
254 859 300 155 134 130
420 484 219 146 19 42
483 793 300 86 66 52
419 489 220 149 17 44
282 578 141 203 9 42
422 484 221 139 18 42
424 484 224 126 19 41
283 947 256 76 70 72
421 489 222 141 18 43
424 489 224 126 24 42
419 494 210 112 23 42
418 494 215 153 17 48
311 489 348 164 8 50
421 494 222 146 18 43
373 894 285 69 59 56
273 940 249 95 85 85
260 309 278 128 97 71
417 504 200 124 21 43
363 614 301 32 28 32
418 504 196 73 26 33
387 882 372 79 67 60
362 469 330 72 28 35
423 499 197 71 16 29
382 439 349 143 25 51
417 499 205 50 27 32
298 795 249 142 106 88
417 504 205 55 27 33
230 774 324 168 117 88
424 496 197 74 16 30
270 560 161 98 24 34
378 884 275 80 67 63
426 496 197 81 28 37
433 504 195 167 115 105
273 404 310 78 32 32
419 499 210 54 30 33
419 504 215 90 30 40
291 556 98 46 41 40
419 499 220 152 19 43
515 841 378 100 83 66
421 499 222 135 19 40
423 499 225 61 26 34
302 887 245 65 60 57
418 509 210 34 29 32
333 769 210 86 69 60
419 509 215 36 30 33
380 789 187 135 102 64
419 509 220 88 28 38
236 598 246 141 106 74
422 509 225 137 19 40
414 504 285 153 21 49
420 510 223 140 19 40
433 494 195 142 104 84
240 564 201 169 116 84
436 499 193 148 104 86
346 366 258 121 95 71
283 584 333 67 24 34
288 963 270 86 82 87
380 464 342 153 21 51
426 484 227 112 23 38
295 449 348 87 25 36
353 714 196 122 12 29
232 529 190 176 123 97
432 489 235 67 31 37
426 494 227 82 28 37
328 524 65 196 15 50
251 924 332 76 56 55
430 495 233 124 33 45
400 610 229 132 19 44
263 819 289 78 63 58
270 475 333 49 25 30
417 485 254 102 24 39
418 489 255 127 19 43
423 484 253 47 26 28
248 548 186 193 124 94
235 537 180 208 143 110
423 489 253 67 26 34
419 494 255 127 21 43
423 494 253 64 28 33
430 484 252 129 26 48
433 484 250 153 18 49
365 740 203 126 11 24
403 514 160 154 62 60
424 514 165 166 115 87
503 839 370 106 85 63
235 674 266 180 121 91
432 489 250 119 22 42
425 490 252 45 27 29
432 494 249 106 28 43
425 496 228 55 30 34
383 744 298 61 39 32
304 628 216 111 29 42
442 840 301 89 72 62
430 499 233 145 21 41
432 499 236 105 27 38
350 891 248 81 70 68
308 549 125 113 20 39
430 504 233 100 32 42
482 802 312 83 66 48
425 509 228 122 22 41
260 494 328 49 30 30
430 509 233 46 31 33
410 654 200 160 107 79
431 509 236 57 33 34
395 550 169 71 36 36
259 841 290 150 111 87
343 789 315 85 67 58
420 505 252 90 25 37
428 499 251 66 28 35
432 499 249 102 29 42
375 705 202 110 78 52
308 919 236 89 78 76
283 629 240 120 20 35
240 512 285 43 31 32
432 509 245 98 30 40
428 509 249 71 27 35
280 547 92 238 12 64
434 489 240 133 25 45
324 488 342 149 7 46
335 866 217 135 107 83
419 860 334 81 64 58
433 494 240 75 32 38
304 314 266 116 89 60
326 607 323 50 24 29
432 504 240 58 30 34
238 754 331 163 121 91
417 434 305 155 0 48
432 509 240 72 31 36
297 893 244 64 58 56
433 499 245 66 26 34
259 259 260 111 89 65
258 259 265 118 94 66
257 264 265 119 94 64
257 259 270 119 95 65
405 490 307 123 35 52
257 269 260 116 92 63
256 269 270 122 95 63
258 259 280 121 95 64
389 866 315 52 45 39
256 274 260 116 92 64
256 274 263 118 94 66
363 524 134 54 31 36
246 890 296 139 95 86
399 789 189 141 99 60
256 274 270 124 96 63
256 279 271 128 99 67
395 530 154 54 33 36
256 274 275 125 97 65
274 519 85 178 6 48
317 800 235 170 119 94
257 274 280 125 95 64
326 470 338 132 8 40
256 279 275 125 97 65
441 732 244 90 70 53
258 274 285 127 96 66
259 279 285 135 98 71
256 282 272 125 98 66
297 563 130 160 1 38
428 871 385 95 76 57
310 550 110 125 27 42
258 284 280 131 97 68
258 289 280 136 101 73
254 874 266 143 116 87
343 599 319 34 28 31
260 284 284 141 101 76
260 264 290 124 95 65
261 259 292 119 92 61
245 539 290 112 19 42
373 674 213 52 36 37
262 259 295 127 96 67
261 264 292 127 96 66
357 804 205 154 120 87
260 269 289 130 98 67
326 431 328 123 11 38
264 269 295 140 101 77
268 264 300 144 103 80
288 694 326 34 28 29
434 878 390 100 85 70
269 258 303 145 104 80
283 259 306 159 111 85
403 719 194 134 93 55
273 259 305 149 106 82
273 263 303 152 108 83
405 406 310 50 40 38
273 265 302 151 106 83
451 847 342 80 67 57
263 831 326 172 114 91
268 269 299 150 106 82
339 402 290 58 50 43
264 284 289 152 106 83
263 549 220 107 2 32
414 407 305 54 37 36
477 824 327 84 66 56
268 274 296 153 108 84
265 277 293 151 106 83
239 513 235 155 2 41
268 279 294 154 107 84
416 740 294 46 37 27
353 539 334 84 26 36
238 534 265 154 4 44
267 280 292 154 107 85
422 714 270 55 41 33
273 279 295 156 109 85
269 272 298 153 107 83
467 823 310 83 61 57
316 801 238 167 118 91
448 874 408 88 73 61
325 345 258 102 77 54
273 273 298 155 106 84
273 275 297 155 106 84
338 629 204 123 25 42
268 284 291 152 104 83
303 941 342 60 55 53
265 288 288 152 104 83
251 610 290 135 13 42
268 289 289 148 103 82
305 294 260 110 82 57
266 574 243 50 25 29
233 749 325 164 118 90
270 282 293 153 105 84
262 469 327 133 6 42
273 283 293 154 106 84
250 529 313 106 29 46
357 857 343 44 38 35
278 264 304 160 112 87
278 269 301 162 113 90
298 560 104 103 40 45
283 264 304 162 112 86
381 607 187 44 29 30
288 266 302 159 106 81
288 269 300 157 106 81
317 384 275 82 66 48
343 859 230 76 65 56
363 444 335 68 22 31
278 259 305 155 110 85
248 570 234 108 82 61
278 279 296 163 114 93
278 274 299 163 114 92
278 276 297 164 115 93
283 279 296 159 108 87
329 449 331 128 4 41
468 779 285 64 51 40
283 274 299 160 109 87
283 276 297 159 107 87
404 699 194 139 97 62
300 830 252 122 100 77
278 329 286 124 97 67
288 273 298 154 104 79
288 289 290 149 104 77
288 285 292 152 104 78
261 290 282 142 102 78
252 609 280 131 2 39
261 295 282 139 102 79
257 299 276 134 100 74
257 304 276 132 99 74
262 299 281 133 97 75
229 734 300 164 110 80
266 290 287 149 103 82
373 883 355 62 53 51
268 299 286 136 99 78
437 798 260 60 47 39
242 554 280 98 24 38
265 304 283 131 96 74
314 409 335 115 13 36
383 879 365 79 66 60
271 296 287 136 99 77
260 314 278 127 96 70
257 319 276 128 97 72
259 319 279 127 97 70
262 319 281 126 96 69
373 454 348 113 28 43
384 499 320 162 16 51
458 800 280 84 67 56
528 779 312 99 83 66
265 309 283 128 95 71
268 309 284 130 96 73
265 314 283 125 94 68
454 760 270 85 67 54
278 300 287 140 104 77
244 572 202 196 133 104
288 299 286 134 95 69
278 309 286 143 105 78
336 562 142 114 38 51
415 491 287 168 16 51
278 314 285 138 102 75
316 596 188 211 12 49
342 724 323 76 28 37
476 746 263 72 56 42
363 409 330 101 25 37
278 319 285 133 100 72
283 309 286 141 101 73
408 589 225 127 23 44
235 594 235 145 106 71
325 800 327 83 66 56
458 840 354 95 81 67
283 319 285 130 97 67
288 314 284 130 93 65
268 429 319 60 29 31
288 319 284 128 93 64
269 293 288 143 101 80
273 294 288 144 102 79
265 504 333 67 35 36
274 297 288 141 103 79
283 294 289 145 104 77
286 297 288 140 99 72
298 719 224 75 31 40
300 258 258 102 84 65
276 595 327 87 25 38
302 259 265 107 83 57
301 261 257 97 81 64
287 956 327 51 48 49
301 265 257 92 77 61
371 607 182 57 33 40
278 659 316 72 30 36
303 494 349 142 19 48
301 264 260 94 77 58
338 608 186 192 17 50
264 952 329 63 58 56
302 264 265 112 86 60
301 269 260 97 78 56
394 589 265 83 24 39
348 789 311 82 63 54
301 767 343 69 58 50
300 268 262 107 83 57
421 459 272 99 31 43
303 274 260 100 79 57
299 899 225 85 76 75
304 279 260 101 79 57
252 642 287 114 90 63
304 284 270 129 93 67
388 869 379 70 61 54
294 290 286 136 98 73
411 721 272 63 48 41
302 279 285 138 99 75
304 279 280 137 98 73
300 280 286 138 99 76
302 284 280 134 94 72
256 934 263 70 66 68
298 284 285 138 97 75
250 611 287 123 18 40
440 845 370 92 71 51
297 289 284 136 97 72
301 282 284 137 96 73
283 594 331 119 26 46
306 259 272 123 93 65
306 269 272 127 93 66
254 529 207 69 19 29
410 414 326 72 32 36
307 264 275 130 97 69
327 962 300 63 57 55
309 259 280 133 99 70
306 867 247 110 92 74
316 538 109 117 29 44
309 259 285 138 102 73
388 854 313 40 35 33
254 832 307 171 106 81
307 269 275 131 95 69
305 266 287 143 106 78
305 270 286 143 106 78
306 273 272 128 94 67
356 407 322 88 35 39
281 518 133 136 10 41
384 425 352 59 30 34
304 284 260 104 79 57
305 289 260 107 81 57
304 289 265 120 88 64
378 867 312 38 34 33
305 275 275 131 94 67
315 926 347 61 53 49
318 539 85 67 32 38
305 275 280 138 99 74
304 279 275 134 95 70
385 854 313 37 33 33
242 884 290 181 133 115
261 540 244 132 5 40
243 544 215 116 84 67
306 272 283 141 102 76
293 259 304 156 105 79
293 265 301 154 105 80
396 609 183 141 95 64
295 261 302 152 104 77
314 539 115 113 26 43
259 874 262 146 117 87
293 269 299 153 104 79
263 784 343 176 127 99
294 271 297 151 104 77
302 264 295 149 110 84
268 830 294 38 34 38
403 850 330 40 36 35
297 258 303 155 107 78
352 897 256 66 58 58
299 259 301 153 107 82
298 269 295 151 107 82
305 265 291 144 106 80
286 907 255 89 65 48
300 270 292 147 107 81
297 268 298 154 107 81
462 817 321 91 81 71
293 274 296 148 102 76
300 916 233 88 78 76
247 869 300 136 99 82
292 894 249 95 82 71
296 424 330 66 27 35
293 279 294 147 101 75
370 809 192 145 111 77
530 832 403 98 86 76
327 474 339 138 9 42
294 280 292 145 100 76
498 754 260 94 77 62
292 282 293 151 103 77
288 874 254 141 115 89
397 454 319 163 9 50
293 284 290 145 100 76
420 439 296 146 0 44
327 631 208 89 22 34
415 728 209 122 91 59
439 770 279 76 67 59
298 279 290 145 103 79
254 888 266 164 121 95
296 277 293 146 102 79
302 273 289 146 105 79
296 283 288 142 100 78
388 831 204 234 154 128
306 258 293 144 107 78
378 534 140 100 26 40
306 263 289 142 105 78
305 261 292 142 107 76
353 857 344 44 38 34
403 834 270 60 49 48
303 299 265 121 89 64
301 299 269 123 91 65
292 911 342 50 46 47
303 304 265 120 91 63
242 879 285 158 117 95
433 866 390 77 61 47
302 304 269 121 91 63
300 304 271 121 89 61
348 414 319 49 27 29
293 294 284 132 95 71
313 878 362 55 46 40
425 889 393 98 85 72
294 299 281 122 93 66
404 569 176 149 91 67
291 304 283 129 95 68
300 290 276 129 90 68
297 294 280 125 89 66
298 304 275 119 87 61
305 951 332 67 62 61
358 615 193 73 38 37
338 349 256 123 94 69
296 304 278 121 90 61
302 309 269 120 93 64
302 319 270 118 91 61
370 606 297 146 46 62
338 539 134 157 0 31
299 529 55 125 23 42
293 309 281 125 92 65
291 308 283 130 93 66
293 319 281 121 90 60
248 603 262 115 86 64
331 421 323 65 30 34
290 318 282 126 94 65
321 756 208 83 65 57
257 509 326 116 19 41
298 309 275 118 87 60
296 314 278 118 89 63
404 878 383 85 72 62
296 319 278 119 89 60
300 317 272 119 92 62
