ply
format ascii 1.0
comment Created by Open3D
element vertex 2221
property double x
property double y
property double z
property uchar red
property uchar green
property uchar blue
end_header
302 689 193 94 24 29
313 530 193 143 2 33
266 185 224 120 98 73
292 20 320 113 34 44
269 180 221 120 97 73
422 410 360 60 41 36
271 185 219 121 97 70
268 185 221 118 97 74
305 168 338 112 92 70
268 190 221 118 96 71
363 740 184 58 46 41
332 235 312 112 91 69
357 395 200 101 39 35
252 535 330 75 27 34
397 890 325 74 65 64
276 218 222 152 110 73
384 561 320 179 13 53
271 190 219 125 99 69
274 165 217 125 100 70
257 720 205 173 118 99
284 166 212 128 100 65
305 816 241 187 135 111
303 441 162 45 37 37
365 630 256 72 29 32
293 770 264 73 58 52
285 164 213 128 100 65
354 383 305 88 76 64
287 174 212 143 108 69
282 180 214 142 107 68
331 95 357 106 78 63
282 185 215 149 110 71
287 185 215 156 112 75
346 455 403 146 17 45
393 771 215 53 44 41
287 190 217 158 112 77
331 790 170 65 53 50
406 810 245 62 52 50
262 165 235 107 90 74
261 175 230 115 94 72
296 220 340 117 94 70
327 909 202 88 75 70
397 460 280 101 20 27
307 444 385 82 30 30
359 464 221 141 9 40
259 172 239 107 92 76
274 700 285 67 33 39
258 175 240 107 92 76
369 81 354 144 11 46
357 480 397 119 20 43
265 164 228 111 92 73
277 240 231 154 108 74
292 809 166 176 122 89
327 35 305 129 37 43
259 176 244 105 89 74
358 620 240 114 28 41
263 170 245 102 86 71
338 374 298 106 93 80
290 173 212 150 109 72
261 174 246 103 87 71
387 403 330 65 52 46
265 163 242 103 87 72
309 855 237 166 124 95
414 481 320 89 19 33
288 810 225 72 58 54
267 165 245 100 84 68
347 235 340 127 97 62
272 400 215 102 88 73
398 495 274 122 3 30
367 570 245 68 26 34
347 150 345 123 94 63
387 405 280 54 39 40
331 450 201 62 34 34
346 665 350 145 101 72
271 265 288 79 66 53
271 164 247 100 83 66
243 560 250 70 28 38
318 200 358 114 92 68
269 167 248 99 83 66
272 166 248 100 83 66
266 169 247 100 85 69
272 173 252 97 82 66
337 676 201 41 39 40
259 181 232 115 95 74
347 895 180 121 106 95
263 185 226 122 98 69
351 634 333 56 27 32
258 180 235 112 94 76
241 550 240 63 26 34
307 15 300 147 82 72
259 190 231 118 95 69
422 830 290 120 105 99
263 190 226 120 97 72
432 795 260 58 48 40
261 190 229 121 96 68
291 195 221 156 111 76
456 774 245 72 56 44
363 20 359 94 29 36
274 867 308 157 120 100
260 178 247 102 87 72
451 835 290 105 81 66
405 499 291 93 24 35
261 180 251 101 86 71
258 186 254 101 86 71
308 380 283 85 73 62
267 180 255 95 81 66
364 921 315 58 51 51
353 465 196 52 29 34
291 160 243 112 90 66
278 608 198 79 25 35
272 180 256 94 79 64
327 421 193 51 38 28
277 163 247 103 85 66
354 420 228 126 2 33
360 900 191 90 79 70
227 520 215 79 30 38
337 625 215 140 9 34
284 505 172 44 33 35
277 165 249 102 85 66
256 535 336 81 19 33
248 585 270 171 3 50
327 180 358 118 95 69
392 917 399 53 43 35
277 170 251 101 84 65
307 185 349 114 93 71
402 409 365 58 36 33
277 174 252 101 84 65
326 645 207 109 18 26
277 176 253 99 82 65
401 454 383 157 11 52
395 728 222 52 43 39
283 164 247 109 89 67
237 605 185 144 102 65
277 455 171 41 36 42
281 166 248 107 87 66
262 715 215 133 49 53
363 510 230 128 6 33
337 660 356 151 103 73
342 665 355 143 98 68
285 167 248 110 90 68
339 33 335 90 77 65
327 725 350 184 126 101
288 168 247 111 90 67
282 170 250 106 87 67
404 501 289 60 28 36
270 431 319 48 25 27
288 179 252 110 90 68
281 440 172 82 33 32
367 855 215 66 56 59
317 890 205 66 61 64
382 855 239 69 59 60
277 310 285 77 66 55
286 181 253 109 89 68
376 455 255 43 34 38
292 430 172 106 24 29
272 675 179 116 87 52
287 831 190 199 130 101
353 90 335 130 38 45
292 130 205 135 103 70
351 684 182 70 51 39
290 746 161 130 100 68
346 205 330 121 97 70
354 846 277 75 48 38
270 403 310 69 45 36
315 52 342 98 33 35
292 135 205 136 105 72
297 130 204 135 101 67
297 135 204 132 101 65
261 620 270 141 26 51
366 30 360 91 35 34
283 574 344 53 27 32
413 413 377 48 15 29
312 13 308 142 77 66
261 267 293 81 69 57
317 835 280 109 86 63
324 426 156 47 38 37
289 140 207 135 107 75
314 414 177 94 5 27
247 585 255 170 0 47
289 145 207 134 105 73
293 452 390 82 26 35
297 145 206 138 105 68
326 105 352 118 95 72
301 595 373 162 117 86
302 130 201 133 96 61
302 755 166 97 77 55
305 148 223 127 100 73
234 560 218 158 0 48
299 130 202 130 96 61
301 144 206 155 109 74
407 495 340 181 10 55
429 436 314 84 24 37
323 185 358 115 93 68
292 150 207 137 106 70
319 837 283 110 84 62
277 475 374 148 10 46
297 150 207 144 107 71
307 520 366 149 13 46
291 245 255 141 105 75
294 153 207 139 106 68
302 460 179 97 0 34
360 934 280 60 54 51
418 735 260 66 51 38
300 148 207 158 112 78
332 949 315 59 53 51
290 152 208 136 106 70
292 155 208 138 105 67
329 57 313 130 100 71
353 399 192 85 32 32
327 555 200 108 22 34
315 89 342 96 27 34
292 160 210 143 107 71
397 520 280 171 17 47
371 410 256 101 15 27
252 565 189 101 77 52
297 155 209 152 108 72
284 555 181 48 35 33
337 941 239 71 65 67
336 372 297 104 91 77
297 160 210 158 113 80
301 155 211 158 111 81
259 686 244 85 27 38
294 19 329 105 40 45
337 393 230 70 40 34
304 150 215 136 103 72
400 761 286 49 41 37
357 455 194 93 22 30
314 19 292 139 61 55
361 696 350 142 106 72
317 895 320 139 101 78
286 350 266 92 81 69
362 510 220 153 11 46
303 155 215 144 107 77
317 128 204 142 44 57
300 675 312 145 0 44
397 425 394 57 30 33
304 155 220 127 99 67
303 160 220 132 102 69
383 465 265 45 34 36
364 812 208 59 51 53
341 435 203 80 19 29
318 140 326 118 92 61
322 870 310 145 108 85
247 595 181 136 103 66
272 305 290 76 65 54
259 700 226 126 9 38
394 476 382 170 12 51
308 129 195 134 69 61
246 585 250 154 6 46
374 516 382 165 25 59
312 131 195 171 110 99
267 655 215 116 79 72
331 465 150 145 10 39
312 130 200 151 91 76
284 281 325 107 85 59
305 134 202 157 110 75
308 135 210 137 102 73
245 580 250 170 0 47
304 732 177 99 79 55
308 130 215 127 96 66
345 120 337 118 94 65
309 131 211 132 96 70
305 130 224 122 97 69
408 440 381 83 21 34
440 411 335 128 10 43
255 670 207 153 113 96
302 745 170 103 81 54
340 697 189 58 47 41
305 135 224 123 98 71
306 140 215 130 99 69
317 35 351 94 29 37
257 680 181 127 91 54
387 540 270 164 21 47
305 144 211 148 107 76
305 140 224 125 99 70
338 385 346 122 95 69
262 430 322 68 17 28
298 933 227 85 76 75
280 316 281 79 68 57
304 147 213 142 106 74
304 150 225 125 99 71
291 136 238 113 90 63
342 674 205 43 41 45
296 130 233 116 92 64
415 479 335 68 33 36
307 966 260 84 80 81
293 140 237 115 91 65
462 885 385 93 80 67
297 140 234 115 91 63
369 566 357 137 10 47
297 145 235 114 91 63
298 130 231 119 94 65
337 145 329 121 97 70
268 700 270 148 18 52
342 270 325 127 99 68
399 525 295 80 23 36
318 85 322 124 24 39
299 135 232 117 92 63
298 935 338 42 40 41
303 130 226 119 93 63
291 725 171 125 98 67
327 50 310 132 25 37
265 640 225 158 12 49
302 140 230 118 93 63
273 280 290 77 65 53
336 47 358 80 58 41
302 145 230 120 95 67
299 140 232 114 90 60
313 720 333 111 25 43
299 144 232 115 92 65
293 196 224 152 110 76
306 651 367 175 123 99
357 850 195 56 49 53
359 90 343 109 41 41
343 432 149 177 14 41
360 700 330 93 42 41
269 504 177 61 27 25
265 524 292 84 16 31
292 150 240 113 90 63
388 846 238 70 57 55
297 150 236 114 90 63
373 911 351 41 37 36
295 150 238 112 88 62
359 698 188 64 43 44
302 155 230 124 100 72
291 680 306 40 30 33
310 801 261 175 118 99
303 160 230 125 99 70
304 907 222 63 58 61
286 377 242 108 93 77
298 155 236 116 91 64
297 160 240 113 91 65
302 895 235 82 68 58
279 424 343 116 83 62
262 380 306 89 62 44
290 157 243 113 91 68
293 159 242 112 90 65
240 556 254 47 32 37
304 145 226 123 98 71
316 660 322 100 14 41
292 165 211 150 110 74
388 780 345 179 123 92
296 165 212 157 114 80
282 505 174 61 31 33
418 445 299 143 11 32
372 730 355 158 112 80
403 870 289 72 59 58
292 170 212 151 110 74
293 171 213 153 111 76
302 824 181 203 138 108
311 905 210 73 67 66
297 170 215 154 112 78
316 376 286 90 79 67
323 456 172 78 0 33
267 530 320 51 30 30
246 590 245 45 30 34
300 165 216 151 111 78
303 165 225 126 98 66
299 171 219 150 110 77
302 380 270 78 66 54
290 325 336 126 93 67
350 123 348 129 96 67
312 450 176 78 12 29
269 479 309 102 0 35
302 765 164 115 89 56
298 175 220 150 111 78
350 641 227 113 14 32
299 176 223 150 113 77
292 180 216 156 113 76
401 836 257 67 56 52
382 745 205 57 44 37
319 703 348 182 128 102
311 920 209 89 78 77
287 490 165 61 29 33
340 250 317 121 98 71
360 862 130 99 89 82
295 179 217 154 111 78
259 760 167 153 107 72
335 140 327 121 97 69
265 760 207 151 103 81
297 180 220 153 111 78
288 191 218 159 113 78
395 853 247 66 55 55
427 445 345 99 23 40
290 188 217 157 110 74
362 755 361 182 129 101
357 425 408 64 25 35
262 256 233 159 107 74
357 625 240 72 28 35
295 188 222 156 113 79
313 201 317 107 88 66
294 192 223 156 113 80
372 669 250 63 35 33
299 181 224 152 115 79
357 840 285 91 66 51
280 347 257 93 82 70
345 434 160 115 17 43
322 700 355 181 125 100
396 869 261 70 60 58
302 165 230 124 99 69
357 900 328 38 35 36
301 165 235 123 99 70
297 398 215 102 82 68
300 167 238 122 97 71
292 435 171 68 36 27
302 170 230 126 100 69
298 170 240 118 94 67
278 569 344 87 24 39
260 591 182 124 95 62
358 690 189 69 49 39
300 170 238 121 97 70
480 877 404 95 83 73
301 175 235 125 100 70
354 800 184 55 48 47
267 402 210 104 89 75
292 165 244 111 89 65
295 166 243 113 90 63
240 555 261 100 29 43
243 645 186 144 102 63
292 170 246 111 89 66
295 171 244 114 91 65
311 25 347 86 35 37
293 174 247 113 90 65
239 587 182 137 101 63
344 796 168 81 63 44
386 869 310 34 30 31
296 175 244 117 93 67
290 172 248 110 89 65
381 879 250 64 55 56
291 175 249 111 90 66
281 459 380 123 30 45
300 183 227 140 108 72
379 679 270 37 29 31
300 185 230 131 102 68
312 275 305 98 82 66
342 590 360 172 18 55
269 315 258 85 73 61
300 180 235 126 99 69
327 180 320 115 93 68
300 180 239 125 99 70
305 630 331 111 29 42
252 710 200 171 118 93
300 185 240 125 100 71
256 581 186 118 91 60
299 186 229 137 105 71
268 277 248 158 106 79
284 734 279 132 27 51
299 191 234 130 102 69
270 665 266 160 2 48
276 285 260 121 89 65
349 887 177 152 129 115
298 250 316 99 82 64
287 630 310 153 14 50
368 605 330 83 29 38
342 430 400 101 15 35
299 190 240 127 101 71
273 468 172 147 0 33
232 521 391 193 134 114
300 189 236 129 101 67
288 384 238 106 92 78
300 189 239 127 101 71
444 812 316 86 68 50
297 180 245 120 95 68
397 665 255 60 47 35
404 830 264 59 53 51
293 185 251 114 91 65
291 186 253 111 90 65
267 945 310 51 48 50
314 905 206 76 68 68
291 770 260 72 57 51
295 181 248 116 92 66
357 435 195 130 3 27
296 185 249 118 94 66
394 806 301 95 65 49
386 690 275 82 26 34
417 470 340 152 23 50
293 210 230 145 106 72
338 300 325 108 87 63
287 190 256 107 88 67
292 190 254 114 91 65
299 179 241 123 97 69
262 200 225 116 96 73
237 580 184 136 102 62
336 712 187 91 32 30
261 205 225 118 96 70
261 660 211 152 116 100
332 404 352 98 80 60
322 245 311 101 83 63
267 195 220 122 97 68
299 500 157 140 5 34
270 195 218 131 102 68
267 205 219 135 105 70
337 945 315 57 50 50
428 435 310 108 20 34
277 400 220 102 88 73
263 210 221 131 102 66
318 905 201 90 78 77
290 381 241 105 92 79
261 215 224 126 98 65
263 215 222 135 104 67
261 220 224 132 102 66
347 85 329 128 27 37
263 220 222 137 104 65
262 225 223 137 103 64
264 224 222 138 103 63
262 480 373 143 11 43
305 376 282 85 72 58
295 212 258 121 96 69
267 210 219 142 109 70
329 257 357 141 99 70
272 215 220 150 111 73
292 575 174 167 0 37
395 535 315 92 32 41
267 220 221 143 106 66
270 223 222 149 109 71
290 337 282 69 57 45
412 410 294 59 35 36
278 201 218 155 113 75
365 57 346 98 63 42
274 308 287 74 63 51
277 205 219 156 114 75
381 884 260 64 55 52
282 195 217 158 114 78
345 250 340 134 99 66
311 641 334 143 75 69
241 575 221 63 26 32
337 485 204 98 13 28
290 923 228 66 59 59
377 535 250 51 35 39
321 595 202 151 7 36
360 877 164 169 149 140
283 196 218 158 113 77
367 396 265 81 46 34
280 198 217 158 114 78
272 380 305 87 57 42
285 899 244 106 74 61
267 250 232 158 108 75
282 200 219 156 112 77
372 465 245 69 28 34
287 195 219 158 112 76
337 230 315 116 95 72
332 170 322 116 94 69
287 200 221 155 110 75
285 730 281 163 5 53
341 406 191 169 15 10
327 704 188 77 31 32
282 205 220 155 112 76
288 205 224 149 107 73
277 210 220 154 113 75
332 411 165 71 29 29
277 215 221 152 112 74
283 215 224 146 105 69
258 200 230 118 96 70
260 195 229 119 97 71
422 816 285 48 40 35
277 186 258 94 79 64
317 865 236 119 92 71
259 211 227 117 96 71
258 220 226 126 98 66
287 215 226 146 106 70
265 646 256 174 0 52
266 409 184 66 43 34
374 410 200 146 13 41
365 716 358 152 104 75
286 220 227 147 108 72
289 588 335 139 17 48
278 360 325 128 91 67
364 525 204 124 16 33
285 223 227 149 107 72
447 830 281 96 73 60
287 225 230 151 109 74
267 230 224 153 109 72
360 936 337 59 53 57
258 230 226 131 100 64
361 736 363 170 117 87
258 239 227 149 106 71
262 239 227 154 108 75
363 500 230 74 14 30
272 230 225 155 110 74
267 235 226 156 110 73
274 421 172 110 25 37
394 764 233 61 51 45
269 237 228 156 108 73
297 420 355 106 83 59
332 110 354 117 89 66
271 680 270 80 18 35
345 42 336 72 46 37
255 617 225 52 26 37
322 130 326 123 95 64
272 236 228 156 108 74
377 485 250 90 27 35
329 890 187 102 85 78
262 241 228 155 108 75
321 309 297 100 85 70
336 90 362 118 23 45
261 254 232 157 107 74
312 480 170 36 27 32
267 245 230 156 107 74
383 480 260 115 18 34
297 710 185 78 38 35
369 532 377 106 17 36
268 251 233 158 107 73
377 670 250 57 36 31
362 415 370 59 46 37
265 253 232 159 108 72
327 40 306 136 51 51
337 875 294 109 84 66
282 497 362 35 26 27
267 255 234 159 106 74
319 665 332 136 82 70
271 249 232 157 108 76
346 160 335 120 96 67
272 255 236 157 106 75
278 232 228 154 108 75
284 226 228 151 108 73
249 643 208 154 110 92
392 667 242 94 71 61
280 229 227 152 107 73
282 230 229 152 107 73
307 400 195 92 41 33
282 235 231 155 110 75
259 563 369 189 130 107
281 239 232 155 110 74
284 236 233 158 111 76
318 75 320 117 92 64
237 535 260 56 28 32
432 900 385 82 67 53
337 468 208 117 1 20
368 50 360 94 27 33
271 541 347 135 9 42
310 253 313 98 82 65
264 545 322 40 29 31
286 239 236 157 112 78
290 480 163 144 0 34
276 244 232 155 107 73
282 810 166 169 116 81
326 890 313 135 101 80
278 246 233 156 108 76
369 587 342 85 12 28
318 175 322 113 91 67
384 887 294 70 60 61
260 428 338 93 14 30
474 813 275 77 66 53
365 520 232 125 5 34
343 55 324 116 32 37
277 250 235 156 107 75
307 805 255 173 119 100
276 254 237 156 107 76
278 256 239 157 108 77
367 440 210 136 4 41
277 398 223 102 88 74
251 536 362 204 136 121
392 930 405 85 67 51
265 429 178 98 38 37
279 252 238 156 107 75
393 775 335 163 113 76
282 245 235 155 108 77
267 510 316 68 24 34
255 537 323 49 33 30
285 243 237 157 111 79
332 418 192 82 31 30
287 245 240 158 112 79
281 249 237 155 107 76
332 505 372 46 19 27
285 605 189 136 8 31
282 250 239 158 110 78
283 305 301 85 70 54
339 33 325 91 33 35
307 430 188 78 19 29
273 685 275 39 28 31
281 255 241 158 108 79
283 256 244 159 110 82
253 550 275 148 0 44
285 249 241 160 113 81
287 250 245 159 113 82
286 254 246 160 113 83
298 463 383 77 17 29
312 65 330 112 87 66
252 520 318 43 25 31
398 736 229 52 42 38
287 255 250 155 111 82
303 290 349 127 97 69
343 890 302 96 71 56
289 251 249 150 109 79
288 255 255 149 109 80
252 520 375 125 86 75
290 198 222 153 109 72
414 461 362 170 15 55
295 198 227 143 105 68
294 201 228 141 106 68
315 945 347 57 51 49
415 434 374 123 21 45
275 330 303 66 49 33
295 205 231 139 104 68
297 205 235 134 104 69
391 820 300 35 32 34
327 230 360 126 98 63
299 195 235 128 100 67
304 33 327 125 25 50
347 555 371 134 19 47
279 445 344 116 80 60
299 195 240 125 99 70
362 770 361 181 129 101
299 200 240 123 97 67
313 135 330 106 85 60
429 437 342 53 28 35
292 195 255 117 94 68
297 195 250 125 100 72
362 889 166 92 75 61
338 398 269 100 86 72
294 235 250 137 103 72
295 195 253 123 98 70
230 580 188 146 102 68
296 225 240 144 108 76
270 439 319 50 24 29
293 200 256 119 95 68
342 260 320 129 102 71
260 424 183 56 38 39
296 205 255 123 98 71
332 215 315 113 93 71
299 200 245 124 98 69
306 500 367 157 13 49
297 200 250 124 99 71
327 110 324 132 101 70
363 555 215 122 26 45
298 205 250 124 99 70
297 450 375 69 43 33
485 821 298 94 73 57
373 535 244 71 29 31
347 840 175 111 88 73
291 209 227 146 106 71
419 462 309 73 34 44
346 624 344 125 29 51
359 442 221 139 3 40
290 214 227 147 107 71
289 216 228 147 108 72
364 419 249 89 17 29
265 408 188 75 33 46
268 645 270 166 10 52
295 210 232 146 109 74
294 216 233 149 111 77
291 220 231 148 110 75
357 51 345 98 87 77
320 690 333 132 79 67
411 445 375 58 29 30
347 481 397 57 26 30
295 220 236 151 113 77
342 260 345 141 100 75
350 52 332 91 33 26
291 200 258 113 91 66
295 224 237 154 114 79
332 230 359 128 96 61
352 940 255 85 75 75
295 225 255 130 101 69
279 343 263 92 80 69
298 210 245 126 99 69
362 407 345 61 52 44
298 210 250 125 99 69
299 260 348 122 94 65
296 210 255 124 98 70
253 690 185 146 99 68
322 225 314 106 87 64
380 560 267 169 19 46
297 215 250 127 99 69
305 235 318 102 84 65
278 359 249 102 90 77
336 460 160 133 10 44
297 220 245 132 101 69
235 514 221 104 14 34
350 939 246 79 70 71
296 225 245 133 101 70
402 415 290 44 40 41
299 250 348 119 94 66
297 220 250 130 101 70
296 220 255 127 100 69
394 541 300 57 29 33
294 227 238 151 112 79
295 229 241 143 108 74
335 145 327 121 97 69
379 873 122 105 86 69
282 494 365 97 19 38
287 865 256 124 97 67
362 85 345 143 14 42
272 445 339 106 66 51
294 230 255 131 101 70
294 232 251 134 102 71
322 255 359 138 100 70
293 235 245 146 109 77
295 233 246 139 104 71
262 695 175 123 90 50
293 240 250 141 105 73
390 745 212 72 54 43
292 415 173 66 32 30
292 240 255 137 104 72
249 536 198 36 34 36
289 247 248 152 112 82
320 128 196 154 28 54
320 128 200 143 13 47
320 128 204 135 12 41
243 575 245 134 8 42
304 29 339 112 47 50
276 269 246 156 105 79
341 845 283 147 111 86
288 13 302 147 31 56
337 110 354 109 79 60
313 595 360 129 92 72
252 515 275 144 4 45
280 247 278 85 72 58
292 420 353 112 86 63
288 11 310 134 45 59
294 15 296 143 74 68
294 16 292 158 101 86
339 80 323 127 32 40
324 876 206 55 51 53
401 834 291 34 29 27
331 816 290 99 69 55
296 16 291 161 105 91
295 561 172 168 0 37
336 695 194 57 36 34
292 12 301 136 54 65
292 15 300 144 64 70
292 16 305 151 98 94
270 557 377 180 131 106
302 401 175 86 70 54
322 450 175 38 23 29
297 14 299 145 85 89
290 490 163 97 20 31
319 453 403 166 16 51
302 16 296 151 95 89
327 450 144 158 14 37
327 176 358 118 96 70
377 686 211 56 46 39
302 12 305 133 65 69
303 13 303 137 72 73
327 780 173 80 61 48
292 10 310 129 52 60
297 11 310 126 55 61
413 850 305 50 45 41
347 421 370 66 57 46
289 12 315 118 41 49
315 876 318 147 110 88
369 570 248 144 17 38
343 674 357 145 99 67
282 796 163 167 114 78
292 11 315 117 45 52
417 410 365 64 35 32
340 846 189 72 63 58
292 11 320 102 39 44
289 14 315 111 28 39
252 650 186 118 85 45
299 749 319 191 0 59
348 210 345 121 95 63
298 650 314 87 30 39
331 470 155 35 29 29
290 15 320 100 33 41
366 721 358 154 107 75
297 11 320 102 39 45
374 659 291 66 26 35
389 816 326 140 96 68
302 11 310 128 59 64
302 365 281 85 72 59
296 18 291 168 113 97
308 155 345 114 93 70
252 580 184 126 96 63
448 829 302 68 53 41
382 425 404 44 27 31
315 709 332 41 31 30
297 19 295 175 124 104
342 430 406 123 16 42
294 18 305 137 94 75
299 23 302 132 92 67
262 650 211 157 112 97
301 22 298 135 91 67
413 403 300 99 27 34
266 575 365 186 128 104
342 375 300 107 94 81
302 24 300 113 72 54
344 373 303 106 93 82
296 365 270 75 64 54
302 25 305 126 56 54
367 896 328 41 36 35
308 831 264 137 104 82
293 20 310 134 92 71
295 22 309 127 91 69
333 435 142 152 16 33
292 20 315 115 78 62
306 464 153 126 21 35
294 23 315 112 73 56
294 23 320 121 34 46
302 26 310 135 42 51
356 609 344 182 13 58
274 308 289 78 66 55
354 677 202 95 60 37
302 26 315 133 47 52
300 27 320 133 28 50
312 930 344 42 39 40
312 15 300 147 84 67
362 400 320 65 51 43
312 13 305 146 79 66
317 15 300 144 78 63
306 12 306 138 71 68
352 109 341 135 87 70
317 160 325 112 90 64
312 11 320 107 59 55
352 70 373 116 33 47
317 13 309 135 75 62
317 12 311 128 74 63
329 932 228 78 75 75
268 495 299 112 0 36
312 855 235 167 124 97
303 185 330 104 86 67
284 936 328 42 39 41
347 860 181 120 97 81
312 20 295 141 51 56
306 17 297 152 92 81
293 425 172 130 16 32
312 25 300 147 25 46
260 626 224 47 28 33
442 842 294 102 82 65
242 515 265 144 13 46
260 460 178 49 38 36
307 26 305 136 56 57
335 435 168 34 24 24
310 27 303 142 54 58
287 570 350 52 31 34
335 25 312 109 41 42
330 370 348 128 99 69
324 180 358 116 93 68
317 20 295 141 44 48
356 560 206 153 17 41
272 620 295 112 31 46
377 404 335 64 51 45
314 23 297 152 6 43
337 940 356 50 45 43
317 23 297 147 10 38
316 796 285 112 83 73
283 335 329 123 89 64
317 26 300 151 82 70
304 305 348 126 96 69
314 28 302 143 37 47
418 812 278 36 32 30
317 31 304 141 84 70
306 27 310 147 90 71
362 725 361 160 110 77
308 30 310 119 85 64
423 430 365 105 28 42
323 420 172 70 15 30
311 32 308 140 32 55
265 658 247 123 10 36
238 590 182 138 102 63
314 55 316 117 57 48
339 892 202 60 49 51
284 930 328 53 48 48
340 278 322 127 99 69
305 27 313 136 102 77
314 870 237 108 85 65
305 31 320 111 54 52
309 34 312 118 30 40
312 35 310 130 14 41
374 736 198 66 52 44
308 35 315 127 11 42
415 463 358 168 21 55
345 827 300 47 36 33
410 489 305 190 15 51
368 495 205 154 14 41
310 36 314 135 12 48
354 836 193 68 56 55
303 337 287 83 71 58
309 38 317 124 28 43
309 40 320 110 42 43
266 567 372 178 125 101
345 205 326 116 94 70
343 265 330 127 99 65
310 41 319 117 93 70
310 45 319 111 80 58
265 651 183 144 97 61
314 34 307 127 33 43
262 520 345 127 8 41
317 35 306 128 45 49
302 15 340 83 37 37
271 900 265 156 117 94
313 460 394 38 26 29
313 40 311 125 47 48
338 320 315 114 92 67
315 37 308 131 4 40
265 616 286 90 28 40
427 406 330 63 37 32
316 40 309 124 45 47
342 220 319 118 96 71
327 170 357 116 94 69
319 43 307 129 6 38
311 50 320 113 43 45
369 713 334 117 60 51
365 397 257 85 60 46
347 130 350 128 94 65
316 155 351 113 91 67
396 795 236 62 50 46
289 451 393 58 26 33
369 668 244 84 35 34
312 55 320 118 20 40
287 849 269 103 81 56
318 55 311 133 41 44
362 565 364 187 11 60
315 85 341 94 33 38
313 50 315 117 91 66
286 894 322 64 53 50
371 615 285 79 30 38
315 55 314 129 25 45
349 805 353 181 132 105
411 490 315 189 15 50
307 525 165 113 1 34
317 60 315 131 55 54
313 60 320 122 41 46
314 65 321 124 19 42
265 540 296 68 24 34
366 875 149 97 75 60
302 275 350 126 95 67
296 609 187 72 28 37
398 864 125 90 86 83
316 65 319 126 27 42
271 469 369 93 34 34
307 240 316 99 82 64
288 755 269 75 60 53
292 15 325 97 59 51
259 775 167 152 104 70
294 15 329 87 37 35
296 14 331 84 34 34
298 15 335 80 37 35
321 494 164 31 28 28
302 11 330 85 34 36
302 12 335 84 35 36
335 425 168 59 18 29
345 628 343 73 30 30
264 564 373 177 123 100
305 541 362 88 16 32
393 683 267 55 43 34
304 12 338 83 38 38
297 25 325 129 55 58
295 22 327 128 11 48
317 415 175 88 8 26
268 520 181 49 33 39
254 734 194 170 117 90
349 126 345 116 90 59
295 21 331 114 16 42
327 590 204 150 7 35
353 55 334 86 37 31
297 20 335 105 29 43
277 575 335 131 21 47
247 515 270 132 9 43
298 25 330 122 26 45
342 665 210 43 40 39
428 435 355 143 17 45
298 24 335 115 55 56
363 610 335 118 24 44
300 27 325 120 70 59
303 30 325 110 49 48
264 455 318 45 28 38
322 795 174 99 71 48
300 190 340 114 94 72
313 388 260 89 76 63
300 27 330 123 26 43
301 26 335 123 66 66
327 899 191 75 60 56
302 30 330 123 31 47
357 100 340 95 59 45
233 540 220 136 0 41
307 11 325 93 43 43
307 12 335 83 41 40
368 425 250 97 18 34
302 965 260 91 87 89
312 11 330 85 56 51
324 868 307 142 106 81
312 12 335 84 54 49
277 585 194 37 36 37
391 535 275 128 24 43
317 11 325 87 66 57
265 557 329 135 27 50
317 12 330 84 65 57
317 12 335 84 65 57
391 550 295 59 27 35
307 12 339 83 43 41
291 365 288 80 68 55
307 14 341 80 41 40
298 833 196 53 46 50
308 16 344 81 35 36
316 12 338 84 63 56
319 13 337 85 67 59
305 32 323 94 69 49
304 17 343 51 40 33
322 715 345 179 125 101
307 305 296 84 71 58
307 25 345 96 39 43
351 890 215 60 52 57
352 380 310 82 71 60
305 31 341 119 85 72
237 540 186 127 99 70
307 30 345 114 45 53
374 844 283 30 27 26
317 200 317 108 89 68
337 195 320 121 99 77
327 660 203 45 33 35
272 790 161 167 111 75
311 30 347 88 50 42
374 480 248 78 22 29
341 949 250 80 73 74
303 840 270 82 67 52
317 25 349 86 31 35
247 605 182 139 103 64
393 485 273 113 3 28
318 23 347 91 42 37
289 540 171 141 10 34
312 440 361 71 58 44
317 30 350 83 35 37
364 862 218 61 56 58
304 34 330 112 32 42
367 880 234 63 58 62
266 695 265 153 4 49
429 425 308 147 11 38
308 40 325 121 15 41
272 360 245 98 86 74
346 200 330 118 96 71
340 356 338 118 94 65
349 791 173 56 44 40
308 40 335 128 59 59
320 494 155 71 30 42
309 45 321 107 36 39
279 599 324 177 0 54
410 468 363 174 15 54
309 44 330 116 91 69
309 43 334 130 102 80
427 808 271 48 41 34
392 408 352 64 53 45
369 81 366 122 21 48
290 946 332 53 49 49
298 490 156 148 2 34
310 45 335 119 93 75
342 400 345 91 75 57
442 788 256 74 61 52
299 505 157 148 0 35
303 175 340 112 92 70
294 638 359 185 128 102
385 508 378 152 14 50
310 46 331 117 90 70
406 819 255 57 54 54
308 40 340 117 29 45
422 840 315 52 44 36
309 39 344 120 15 45
312 40 345 103 41 47
311 45 340 115 29 45
338 265 314 121 98 71
313 39 349 110 43 53
315 46 346 113 75 66
364 490 216 100 17 36
287 625 194 82 32 38
316 45 350 109 48 52
309 49 325 121 12 41
272 665 270 161 4 49
310 50 330 117 18 40
330 284 348 135 95 71
311 50 335 116 19 41
332 435 395 100 14 35
310 55 330 117 85 63
281 435 172 90 30 33
407 905 355 76 63 58
347 51 360 88 79 71
311 55 335 104 62 53
286 740 290 133 30 52
311 60 330 121 98 73
284 351 333 119 90 63
324 99 353 110 20 41
312 65 335 117 27 45
341 145 353 118 91 59
282 876 318 135 98 81
260 435 307 107 8 34
375 722 341 139 106 71
312 65 325 117 50 51
320 17 343 93 81 69
402 416 389 79 27 33
305 813 172 183 127 95
357 465 195 53 29 34
316 55 341 95 68 56
382 875 320 39 36 35
319 53 348 106 42 48
315 60 342 104 23 41
352 930 360 41 37 36
384 753 335 129 95 64
365 465 213 95 13 31
314 65 339 106 42 46
244 659 195 184 133 106
315 65 341 107 70 62
332 420 359 75 57 45
379 689 301 134 14 44
360 868 217 58 54 58
441 806 273 60 46 39
397 820 290 32 30 29
270 482 307 104 0 34
397 863 129 90 87 84
318 65 345 94 49 45
348 130 340 116 93 66
354 885 223 56 51 54
276 279 256 145 103 76
319 36 353 96 22 36
405 494 349 177 15 54
297 360 275 78 67 56
362 396 275 95 56 46
319 40 353 96 25 37
346 245 340 130 98 64
316 440 192 42 37 32
319 44 353 109 19 40
356 812 352 186 132 107
380 421 267 110 8 31
319 69 317 126 23 38
291 425 173 136 8 31
312 925 210 98 87 85
281 269 275 96 78 58
313 70 325 113 42 46
282 468 378 171 16 58
341 959 265 87 82 85
314 68 322 115 66 51
337 429 408 123 22 43
312 70 330 113 24 40
272 720 166 112 86 55
415 894 352 84 69 62
339 275 319 133 103 72
313 70 335 106 33 41
366 50 364 97 27 36
341 455 204 48 28 29
316 75 324 115 94 68
314 80 326 110 34 41
347 200 340 119 94 65
353 470 196 116 15 31
346 175 345 124 96 62
318 80 321 116 61 48
314 80 335 105 77 58
314 70 338 103 86 68
316 70 340 109 76 66
318 70 344 96 44 43
332 427 408 140 28 55
318 80 345 102 19 38
283 380 339 126 96 69
324 952 316 75 70 69
316 85 324 122 23 41
336 785 165 70 57 45
314 85 326 113 29 40
342 115 353 112 82 59
342 898 311 42 36 34
313 85 335 112 93 73
313 90 335 106 57 50
450 829 286 89 69 52
315 96 328 110 87 62
313 95 335 108 49 48
305 462 178 98 0 37
347 735 175 51 42 37
397 914 351 87 73 67
314 85 339 96 65 53
319 86 348 103 86 68
266 337 252 96 83 71
276 275 251 153 104 77
314 95 339 106 25 41
282 310 300 88 71 55
406 790 265 52 45 40
363 35 360 88 34 32
267 215 271 92 77 63
411 750 255 63 49 39
362 454 192 85 19 33
234 550 218 147 0 44
377 805 215 62 51 48
315 95 342 103 19 38
252 665 204 157 118 100
319 90 348 107 88 70
302 910 225 59 55 57
319 95 348 104 37 43
367 864 120 97 83 71
365 70 342 131 21 39
318 100 325 119 95 69
270 560 310 83 25 37
389 431 397 123 5 40
322 393 255 95 84 72
301 215 347 119 96 73
364 631 316 81 25 36
319 789 299 67 53 50
413 475 350 130 25 47
244 573 264 50 31 32
314 100 335 114 93 70
315 105 328 116 94 69
343 601 213 63 22 34
400 736 213 64 53 43
369 59 354 80 34 27
318 110 326 117 93 64
315 110 329 114 91 66
314 110 335 112 91 68
358 420 235 95 11 30
314 100 339 113 92 70
263 520 186 45 35 39
317 105 345 114 94 72
319 99 348 102 38 43
390 548 320 133 23 45
317 110 345 113 93 72
337 845 285 151 113 87
340 944 314 58 49 50
312 410 180 97 1 35
339 525 203 129 2 32
262 355 246 96 83 71
400 484 373 134 13 43
278 700 294 85 27 37
312 125 335 110 89 65
318 115 326 118 93 64
362 695 325 68 28 35
315 115 329 112 89 63
304 300 348 126 95 68
314 115 331 113 91 65
377 735 350 159 114 81
378 740 205 56 42 37
313 115 335 112 90 66
297 745 315 176 2 55
386 890 305 64 55 53
313 125 331 109 87 63
406 735 240 64 50 41
273 330 314 86 58 42
314 115 340 112 91 70
367 715 355 150 106 75
317 115 345 113 93 72
313 120 340 112 92 69
378 675 270 50 33 31
319 120 348 113 94 73
403 510 320 157 18 48
262 555 375 177 124 99
313 125 340 112 91 69
222 545 206 151 103 86
314 125 344 112 92 70
267 795 210 162 124 95
327 411 160 125 12 19
319 126 348 111 91 70
262 890 285 180 128 110
322 16 300 139 63 55
327 16 305 123 48 46
289 373 287 80 67 55
322 12 320 89 70 58
352 54 365 93 83 73
382 830 219 62 53 52
312 698 188 87 28 29
293 240 340 118 94 68
272 955 295 69 63 62
270 182 258 93 78 64
324 13 313 108 64 52
365 496 232 94 21 34
327 13 315 97 64 50
401 515 325 74 26 36
389 495 263 123 0 33
386 460 393 69 24 32
326 12 320 89 70 57
331 16 306 115 40 41
332 15 310 101 47 41
389 476 387 160 14 51
332 14 320 91 68 53
321 20 296 142 33 48
318 156 353 113 91 67
324 20 298 143 36 43
275 909 254 64 58 58
356 897 189 95 83 75
321 23 297 140 11 34
327 20 300 140 33 45
334 791 161 67 55 45
322 31 303 140 41 47
344 354 332 114 92 66
322 220 314 107 87 65
334 760 340 175 125 99
327 30 303 134 83 65
382 750 330 132 91 66
317 280 354 143 101 73
332 20 305 130 28 43
330 24 302 128 30 37
402 820 255 58 53 55
352 950 270 63 58 57
332 25 305 123 32 42
374 502 387 172 13 56
280 673 287 123 18 48
329 27 303 130 64 54
331 30 306 125 38 46
392 685 269 54 42 33
335 20 312 108 25 36
407 406 340 63 53 46
335 20 315 118 27 42
336 20 320 104 25 40
334 30 309 115 100 82
266 630 275 109 31 44
392 406 340 65 55 47
337 30 320 61 48 39
317 410 175 87 18 30
337 450 164 98 0 35
328 42 308 137 98 73
327 205 360 122 96 65
330 38 307 138 25 44
333 168 323 116 94 69
336 35 311 112 47 39
335 39 312 123 21 39
390 544 281 119 36 46
282 560 185 55 32 34
474 769 245 86 70 58
332 45 311 126 93 70
362 55 345 99 79 58
408 840 299 49 43 38
384 714 306 142 9 43
335 45 312 122 35 39
271 635 182 131 100 64
322 55 311 143 89 68
387 805 340 171 116 90
365 560 236 163 17 46
327 60 313 131 98 70
327 65 314 124 79 57
323 815 279 153 108 83
331 53 312 130 37 43
378 440 260 65 30 36
332 55 313 124 36 41
280 464 352 108 82 67
293 360 344 123 97 68
380 840 287 28 26 25
364 866 224 66 60 64
268 244 282 89 75 61
337 50 315 127 22 39
257 516 381 123 83 73
269 953 304 68 62 61
332 60 313 125 40 43
375 595 315 77 27 38
345 98 327 133 32 37
353 60 334 120 32 31
336 60 316 125 35 38
361 56 368 86 34 31
382 404 335 64 51 45
370 716 330 134 45 48
336 65 316 127 54 50
338 35 315 110 28 35
296 310 341 127 97 70
316 841 224 188 136 104
296 385 285 80 68 56
340 36 321 97 34 31
340 40 320 108 35 43
338 387 282 101 89 77
339 41 319 96 60 51
339 50 318 113 35 38
351 397 240 61 26 31
264 940 271 62 58 60
341 50 321 116 30 36
309 840 236 164 123 96
340 55 321 111 63 50
336 710 362 171 119 93
346 190 340 122 95 63
316 263 358 128 95 68
338 60 319 119 52 46
351 630 230 99 20 35
291 270 340 124 94 65
322 12 325 85 69 58
377 515 380 112 24 42
337 392 225 79 53 41
373 571 346 181 10 56
327 13 325 85 71 58
322 12 330 84 69 59
347 394 280 102 88 74
273 304 293 75 64 54
322 13 335 84 70 60
401 515 330 167 20 52
327 14 330 84 69 58
357 396 270 92 71 57
331 406 353 97 79 60
271 469 378 172 12 56
317 145 326 117 93 64
350 933 314 61 55 53
352 395 200 90 41 31
327 15 335 86 71 61
342 50 360 91 80 69
366 913 355 38 35 34
366 25 360 93 34 33
309 150 344 112 92 69
376 780 205 46 41 41
421 435 365 81 24 35
335 17 323 94 78 58
256 515 394 182 129 107
323 895 195 91 78 75
370 878 296 34 31 34
336 20 325 95 45 40
280 377 237 109 94 79
317 550 196 91 25 31
334 19 326 89 76 61
373 926 345 75 68 67
419 413 372 54 13 22
442 886 381 91 72 54
350 103 332 138 27 44
281 335 326 124 88 65
291 365 261 106 92 78
330 17 334 88 70 60
272 415 331 77 52 38
332 20 335 95 76 65
334 23 336 98 83 71
336 25 335 101 88 73
408 760 270 39 33 29
322 20 345 94 81 67
252 720 190 164 111 82
324 18 342 93 80 68
278 685 285 97 24 40
326 21 343 97 83 69
346 190 345 127 97 61
332 435 356 65 54 43
327 25 345 98 84 70
311 190 352 116 93 69
323 25 346 98 82 67
305 945 342 56 51 51
375 550 251 107 31 41
324 28 347 99 85 71
265 535 188 82 23 34
343 105 363 119 20 45
370 614 271 94 23 38
328 29 346 99 85 71
326 31 349 97 82 67
321 90 351 102 55 50
476 766 248 88 72 58
467 885 381 93 78 65
247 590 181 133 101 64
290 506 357 112 5 32
332 25 340 94 80 67
300 811 242 174 121 100
329 23 342 95 81 68
312 961 305 59 53 50
334 28 342 90 78 65
307 401 190 86 49 43
356 685 345 135 102 67
337 30 340 99 84 72
399 484 278 117 10 26
307 403 173 96 42 36
274 325 263 83 72 62
337 25 325 95 26 37
308 785 280 71 55 51
407 402 315 70 49 43
338 30 325 88 32 34
393 490 270 109 6 25
341 850 284 143 106 84
275 351 317 113 73 54
338 30 330 74 44 34
396 860 251 70 60 56
352 49 350 100 90 81
307 620 371 166 118 88
431 818 322 60 51 41
385 494 383 178 11 57
322 34 352 79 31 29
446 817 303 70 56 44
327 335 344 119 93 61
342 576 367 174 17 55
327 34 351 86 66 51
373 912 358 39 36 34
333 34 346 98 84 72
401 720 230 56 43 37
307 919 331 43 37 36
314 942 238 90 82 85
332 36 350 99 86 74
263 349 248 97 84 72
333 38 352 101 88 76
335 37 348 99 87 75
392 925 375 73 61 55
337 40 350 100 87 76
320 56 347 104 44 45
288 365 259 109 95 80
320 60 347 104 17 38
322 60 350 107 17 39
362 885 169 99 80 67
320 65 347 87 36 37
341 36 330 68 34 29
343 40 330 87 29 35
387 865 245 63 55 56
343 45 324 100 38 39
341 36 340 98 86 74
338 38 346 93 78 65
319 810 274 173 123 99
341 41 349 91 79 65
348 45 340 94 84 73
321 785 171 134 96 58
242 550 245 98 24 42
302 650 365 183 130 104
347 45 345 94 84 73
305 656 317 160 1 47
303 180 335 109 90 69
350 47 349 97 87 78
341 60 321 122 30 41
343 60 324 128 21 38
322 165 355 114 92 67
436 815 280 74 60 47
344 65 323 116 31 37
346 50 326 106 30 34
252 535 199 75 26 36
346 65 326 119 72 61
351 60 331 123 30 37
348 60 329 121 30 39
262 435 337 97 11 30
351 65 332 127 30 39
326 625 360 150 109 76
287 330 285 67 58 49
350 670 340 123 90 61
352 49 345 97 88 79
349 48 352 97 88 81
322 40 354 85 33 35
236 531 240 66 29 36
332 325 340 126 93 68
277 497 361 47 23 28
277 215 269 90 77 64
322 45 355 90 40 41
302 332 292 80 69 58
327 45 357 86 35 36
291 260 340 122 95 64
322 50 355 106 29 43
353 485 197 130 3 28
328 50 358 101 23 37
276 645 285 74 27 35
322 844 286 111 87 61
351 375 325 111 89 65
268 824 181 226 158 131
326 55 356 104 69 63
307 260 354 122 93 65
358 740 179 77 60 51
328 55 359 110 17 40
393 730 290 102 21 39
328 60 358 110 12 39
326 66 352 108 86 70
258 675 209 153 113 95
354 398 243 68 28 32
328 65 355 106 45 51
281 507 352 76 23 29
332 50 360 81 36 35
233 520 235 39 28 34
332 55 361 79 31 34
364 86 349 148 13 45
336 54 362 81 32 37
266 675 216 102 63 59
337 425 141 100 22 31
337 55 364 82 30 34
312 365 349 136 105 74
329 64 358 114 16 40
364 616 254 86 33 39
335 62 362 84 54 46
440 414 334 188 12 58
320 96 323 120 96 66
342 55 365 76 42 33
290 453 379 71 39 34
253 534 334 79 26 37
387 890 332 53 45 40
337 65 365 93 61 54
352 49 355 102 93 85
283 685 295 64 31 36
296 245 346 119 93 66
287 379 255 108 95 82
347 52 363 91 81 71
414 481 315 187 16 52
339 65 368 97 27 37
272 485 315 92 12 30
299 764 285 79 62 55
342 65 370 102 24 39
336 426 356 66 49 40
347 65 372 102 33 40
273 465 172 145 1 33
352 57 368 75 34 25
472 804 270 101 82 64
362 760 361 182 129 101
352 64 372 98 36 41
367 395 290 115 64 53
337 155 355 118 93 61
271 595 310 59 33 36
364 12 359 96 29 36
365 12 359 96 29 36
280 305 271 84 72 60
322 261 357 139 99 71
366 15 360 95 32 34
321 591 357 52 24 27
329 356 303 89 79 70
366 20 359 94 33 34
289 500 166 42 31 38
303 445 176 66 16 30
364 25 357 93 34 33
344 422 368 64 56 43
355 56 336 67 31 24
343 80 369 118 16 43
385 672 231 82 65 50
356 60 336 115 37 31
353 65 334 116 38 34
386 555 325 181 9 54
277 875 260 154 117 87
357 65 336 84 60 43
260 595 182 128 98 64
354 53 338 56 32 26
304 175 344 113 92 69
311 825 260 155 119 95
357 55 340 64 36 28
359 59 339 104 37 24
360 57 342 83 37 23
302 850 250 138 108 81
344 255 341 135 99 70
246 665 190 181 121 94
362 60 341 104 31 24
364 59 343 94 35 18
323 90 354 102 29 40
367 65 345 114 26 37
392 665 255 66 52 39
387 710 295 75 26 35
370 65 351 103 31 31
293 270 316 100 82 63
322 393 250 93 80 69
390 878 327 39 36 34
366 35 360 88 33 32
330 747 337 162 105 86
366 40 360 90 34 33
235 545 221 134 0 40
369 856 218 71 61 63
364 36 363 88 34 32
364 40 363 88 36 35
366 40 363 89 33 33
357 780 360 181 130 101
415 478 338 62 40 42
420 465 335 48 31 31
362 45 360 89 66 53
363 46 357 99 73 57
261 331 313 101 75 55
305 806 252 178 122 102
229 565 187 145 102 67
307 355 285 83 72 62
337 825 169 114 85 65
363 45 364 84 35 34
393 741 220 59 49 41
357 50 355 103 89 76
297 384 250 107 93 80
322 150 354 114 91 65
357 50 360 95 84 73
353 52 363 108 101 96
273 655 275 41 30 34
312 190 321 107 87 66
291 245 335 115 92 64
382 419 400 70 20 30
358 51 364 82 68 60
343 210 352 122 95 61
405 858 302 54 49 43
362 520 200 103 19 33
357 54 366 81 55 46
280 302 271 86 73 60
297 398 190 92 75 57
270 476 372 155 14 48
360 48 360 93 79 65
298 780 264 76 59 53
406 500 330 181 10 54
370 470 208 131 17 45
351 649 328 70 17 29
299 510 156 149 1 36
366 50 356 85 58 46
303 633 325 100 26 42
368 55 355 78 45 33
367 55 365 97 27 36
357 490 394 108 17 40
322 365 349 135 103 73
275 301 296 83 71 61
345 255 339 133 97 67
357 56 368 79 35 29
402 460 284 119 15 27
357 60 370 85 34 32
371 405 191 134 11 32
389 505 263 137 9 35
357 64 372 91 30 35
262 465 385 101 23 38
367 402 330 64 48 42
362 65 371 89 30 35
262 700 260 140 1 43
369 55 360 97 25 34
401 864 125 89 85 82
370 62 352 85 31 26
372 65 355 100 33 36
462 815 309 65 51 41
363 91 367 137 29 57
223 535 187 158 112 81
370 57 361 104 27 39
370 61 364 102 27 37
236 595 207 154 109 87
370 65 365 101 36 40
322 395 215 93 53 24
345 255 330 124 97 66
369 64 367 98 30 38
497 825 285 95 75 58
367 880 166 120 99 85
348 215 340 124 96 63
322 70 316 129 22 38
377 420 265 108 10 31
279 354 253 102 89 77
389 790 341 176 119 91
337 675 360 147 102 72
327 70 315 130 21 36
297 345 285 78 67 57
323 75 317 127 35 39
267 754 250 81 47 49
278 925 241 66 61 63
277 876 318 168 123 105
374 510 243 52 32 32
327 75 317 138 16 40
252 720 245 116 16 41
260 408 307 65 42 37
322 130 351 112 91 70
280 326 270 80 70 60
327 80 318 126 86 62
307 575 358 44 25 26
332 70 316 129 78 61
355 420 219 93 12 31
278 370 330 127 93 68
331 74 317 134 48 50
393 720 215 61 49 40
287 960 270 73 69 69
288 285 311 96 81 67
390 534 271 65 30 36
285 260 270 106 85 62
333 75 318 133 47 50
347 805 351 180 133 104
337 75 320 136 42 51
436 812 279 73 57 44
322 85 320 118 70 52
307 770 164 136 99 63
279 660 183 122 92 55
327 85 320 123 97 67
322 125 350 111 91 70
262 196 264 95 81 66
327 90 320 118 63 49
327 95 320 129 30 40
338 150 329 121 97 70
318 366 299 94 82 70
321 71 346 85 44 40
323 70 349 106 82 66
346 175 350 126 98 64
321 75 346 86 53 43
320 79 347 99 27 40
412 860 334 55 46 42
362 495 393 171 13 53
316 392 246 90 77 62
356 831 315 112 76 57
322 80 350 95 40 42
394 920 385 77 65 59
332 90 321 121 30 35
321 85 350 94 45 43
401 510 335 183 14 54
341 70 321 131 21 40
335 244 312 116 95 72
347 170 345 123 95 61
308 830 260 152 116 92
267 218 272 91 77 63
318 135 349 110 90 69
277 425 171 65 36 36
340 74 322 129 32 37
345 185 331 124 98 68
312 450 155 62 34 30
343 75 325 134 106 84
348 70 329 120 74 64
303 437 402 94 19 35
287 404 173 116 33 20
271 510 306 108 0 36
345 78 327 117 93 71
402 495 360 59 28 33
347 75 329 122 53 49
415 828 281 85 67 54
335 635 350 145 104 75
351 75 332 132 30 39
260 515 389 160 121 103
329 848 287 134 102 76
353 75 334 124 73 63
332 110 326 131 101 71
342 85 326 125 38 44
424 797 259 47 39 35
322 476 385 98 18 38
338 95 323 122 68 55
322 435 405 118 19 40
342 90 326 113 62 49
342 95 326 126 37 40
270 684 271 34 28 30
286 535 174 52 29 36
350 85 332 115 63 52
274 857 285 161 126 100
332 525 200 129 4 30
321 874 220 53 49 51
342 165 330 118 95 68
343 571 208 154 13 38
347 90 329 127 32 39
336 750 171 63 46 42
347 95 329 113 68 48
350 95 332 107 76 57
327 80 355 95 24 36
266 530 295 80 22 36
287 470 376 51 26 30
332 70 360 98 19 35
329 819 172 79 62 54
335 70 362 98 22 36
329 76 358 103 31 39
452 807 278 50 36 31
329 80 358 94 34 38
332 80 360 103 24 39
326 445 174 79 3 27
335 80 362 106 22 41
351 890 220 61 54 58
372 867 116 101 84 69
330 276 307 115 94 72
324 82 353 97 20 35
437 415 345 170 18 53
295 449 163 76 37 36
322 245 360 132 100 67
329 85 358 101 31 40
312 170 326 110 90 67
332 85 360 93 44 43
302 495 154 47 33 38
312 215 355 114 92 67
329 89 358 112 28 45
314 869 317 149 113 90
344 450 202 45 26 32
357 90 369 142 2 52
330 92 357 108 76 65
358 398 248 80 39 35
382 829 305 43 28 26
313 165 326 110 90 66
338 819 299 63 50 45
362 465 235 95 14 31
333 95 358 97 67 54
372 421 405 120 17 37
339 70 368 105 24 40
320 439 154 60 35 31
342 70 370 114 28 45
282 400 185 87 73 58
339 73 368 105 28 44
342 815 335 177 127 102
342 75 370 118 24 47
270 207 268 91 77 63
357 886 310 32 31 32
380 837 287 27 25 24
346 70 372 116 32 47
287 640 305 56 32 35
278 315 324 119 85 62
282 406 172 88 31 30
283 399 224 104 89 74
357 870 215 62 58 61
348 70 373 117 33 48
272 455 172 90 29 37
253 705 245 42 32 36
349 67 373 110 35 46
397 921 359 83 73 67
334 446 203 73 32 31
387 918 379 57 47 43
303 930 338 43 41 42
347 75 372 122 19 47
348 73 373 121 26 47
347 80 371 124 14 47
394 536 289 94 22 33
366 401 251 113 10 28
351 76 372 131 17 50
277 829 190 206 134 102
297 360 284 81 69 57
322 398 208 110 12 18
352 80 371 136 15 52
341 85 366 99 39 46
373 735 356 161 114 81
339 93 363 120 18 46
292 395 349 118 92 65
346 170 335 122 96 66
342 90 365 108 35 46
278 935 324 46 41 42
352 396 250 77 40 35
347 660 335 83 62 47
342 95 364 114 27 44
308 165 331 100 83 63
394 734 216 65 52 44
340 96 362 102 56 52
351 92 367 132 12 49
358 400 311 68 59 51
343 85 368 119 20 45
288 455 166 123 18 35
276 340 260 90 79 67
399 755 290 70 31 37
347 85 369 129 19 49
345 633 338 151 18 53
344 88 368 127 20 50
267 655 260 165 1 48
394 418 283 127 12 28
357 80 372 140 15 54
420 454 355 143 24 49
322 105 323 126 98 67
339 281 324 122 94 65
263 634 220 130 45 55
383 855 289 34 30 30
327 100 321 138 100 74
322 110 324 128 98 66
419 427 372 139 13 43
332 105 324 138 104 76
249 670 187 167 111 80
289 528 167 153 0 46
423 852 298 95 74 61
335 99 322 137 18 41
387 681 265 47 36 28
338 110 329 133 102 70
320 102 347 113 91 68
324 479 384 59 20 28
320 105 347 115 93 71
291 828 182 209 138 105
377 397 290 127 29 30
336 279 344 138 98 74
356 545 202 92 20 35
323 105 349 117 95 71
250 564 272 65 20 30
354 794 358 181 126 99
380 559 349 181 11 57
322 115 325 127 97 65
286 280 330 116 89 61
327 120 326 126 97 66
322 125 326 124 95 63
354 890 171 101 80 69
327 125 326 125 96 66
331 120 327 125 97 66
337 120 329 126 98 67
333 125 328 124 97 65
337 125 330 124 97 67
347 921 358 45 41 40
322 115 349 114 93 71
274 686 278 65 28 34
392 402 320 67 54 48
322 120 350 113 93 72
236 550 221 136 0 41
326 115 352 113 93 72
343 110 335 126 95 67
377 669 230 89 58 41
282 725 164 118 92 61
357 605 345 161 18 54
350 99 332 102 62 43
336 915 215 87 77 76
277 245 279 82 70 57
255 736 196 171 118 92
353 585 214 112 17 38
352 105 335 133 37 46
348 107 338 138 94 69
293 320 298 75 63 50
345 110 337 131 97 69
365 510 232 120 1 36
367 395 295 103 69 58
353 106 338 131 43 49
270 772 227 64 52 48
279 325 323 126 87 66
270 610 187 124 93 62
392 520 360 161 15 49
353 111 345 126 85 66
343 120 334 119 95 67
379 738 338 138 106 69
337 879 296 95 73 57
345 116 337 112 88 58
326 360 348 130 100 67
348 120 340 114 90 63
263 390 306 86 61 44
332 250 311 114 93 69
415 425 378 145 14 47
307 325 296 80 69 58
351 115 345 122 90 64
290 741 301 149 15 49
350 118 342 112 88 58
268 284 297 71 61 52
332 245 311 113 93 69
341 240 316 120 98 72
291 265 340 123 95 64
317 215 315 106 87 66
350 120 345 115 88 59
347 120 351 127 92 65
264 187 258 98 83 68
332 660 205 64 36 34
350 120 349 132 97 70
312 635 202 132 14 33
350 124 345 117 90 60
307 402 353 107 85 62
347 125 350 127 92 65
284 570 182 64 31 32
370 397 265 83 36 29
327 100 355 110 26 43
302 185 335 110 91 71
326 880 309 138 103 81
265 655 247 156 2 45
227 520 186 134 106 76
328 104 354 118 87 68
280 326 274 77 68 58
328 110 353 118 95 70
375 904 290 59 49 50
330 100 357 110 24 43
336 107 356 94 66 53
334 510 373 78 27 37
270 435 316 67 17 31
326 120 352 112 92 70
327 125 353 115 91 65
307 959 315 60 55 54
322 510 370 162 5 50
332 120 354 114 91 66
298 210 344 118 96 73
337 115 353 113 85 61
345 216 322 116 94 70
337 125 353 115 91 63
263 445 177 49 37 41
412 815 280 31 28 28
447 837 288 101 77 65
343 100 364 111 26 43
341 106 361 108 34 45
256 765 180 155 110 76
342 625 346 50 27 31
342 110 355 108 77 61
282 525 350 60 15 26
280 460 351 115 83 70
303 506 188 48 32 35
343 109 360 104 64 56
300 967 275 85 81 83
327 160 356 115 93 68
347 100 365 123 13 45
327 402 201 103 5 29
282 515 349 76 8 24
352 100 366 129 15 47
352 925 359 43 40 39
347 111 360 103 61 54
386 869 300 37 34 33
352 110 364 126 26 49
278 896 318 117 93 72
352 112 360 121 55 59
283 250 276 90 75 59
392 410 370 59 30 29
342 125 353 114 90 60
327 425 356 83 67 50
347 115 353 119 86 63
345 124 353 115 90 59
353 70 334 137 31 41
282 400 200 99 86 71
307 835 240 164 125 99
297 397 225 103 88 73
356 75 336 130 70 65
262 229 277 90 77 63
273 194 262 91 77 63
359 70 338 112 48 39
360 662 232 77 33 36
355 79 337 129 46 49
322 250 310 102 84 64
242 584 183 134 100 61
405 780 279 52 46 43
362 70 340 126 31 38
365 66 342 126 27 37
368 674 215 78 50 35
361 80 341 131 33 45
259 292 253 146 100 71
337 185 321 120 97 72
415 475 305 61 27 35
367 75 345 141 13 43
364 81 344 142 13 40
356 882 194 69 55 48
366 80 346 145 13 43
341 165 354 120 92 59
297 935 230 86 78 77
354 86 338 106 77 58
286 610 327 173 3 54
354 88 338 112 69 58
335 438 142 166 16 39
267 645 225 142 14 49
362 880 290 31 29 30
357 90 340 111 64 54
359 95 343 120 29 37
360 84 342 133 23 41
377 935 365 79 72 69
265 903 307 85 76 70
262 200 265 94 80 65
361 90 345 137 19 45
383 470 264 60 40 40
322 405 352 105 85 62
292 468 378 43 26 29
361 95 345 125 18 37
234 534 246 122 29 47
371 70 350 131 20 43
370 75 350 140 15 44
357 70 374 117 33 47
370 863 162 108 90 73
460 813 277 81 59 41
317 436 178 81 14 30
281 655 290 34 30 34
357 75 373 130 15 48
263 440 308 65 16 28
265 655 235 151 2 42
277 440 340 102 68 52
293 225 261 123 98 69
357 78 373 134 8 48
361 70 373 113 22 42
352 396 255 85 54 43
289 450 167 95 34 31
341 815 175 87 67 53
307 265 354 125 95 66
364 69 372 105 26 40
364 76 372 122 15 45
332 780 171 61 50 46
367 80 370 122 22 46
357 95 367 136 9 50
292 550 357 64 16 26
253 615 240 82 32 39
368 85 355 142 10 47
397 865 320 39 35 35
368 85 365 131 19 51
299 788 263 39 36 42
362 95 355 133 11 45
229 588 203 164 114 90
391 545 320 156 22 51
366 89 356 137 8 45
322 550 369 160 16 51
278 184 257 96 81 65
366 90 360 138 18 50
362 95 365 127 49 62
344 952 258 81 74 75
354 93 368 136 2 47
317 195 319 110 90 67
311 135 340 110 90 68
345 792 352 181 132 104
362 85 370 138 11 51
335 765 340 175 126 99
397 865 315 37 33 33
366 85 369 129 31 55
360 93 368 137 6 50
292 952 264 67 62 66
423 414 371 128 12 40
346 360 310 100 85 69
371 75 355 133 9 46
371 80 360 133 17 50
272 520 348 73 8 29
317 375 349 135 104 76
371 75 365 118 32 48
370 80 365 123 24 49
238 595 182 138 103 64
