ply
format ascii 1.0
comment Created by Open3D
element vertex 2218
property double x
property double y
property double z
property uchar red
property uchar green
property uchar blue
end_header
315 42 304 119 51 57
397 862 126 100 80 65
315 47 302 126 51 59
314 382 210 110 87 66
260 677 227 166 122 96
495 917 220 87 75 65
262 421 279 155 11 49
274 232 280 118 98 76
369 652 172 68 28 34
318 41 303 119 18 45
390 464 302 97 17 36
320 47 300 116 62 58
228 572 225 161 116 88
271 292 180 120 95 67
310 38 307 126 19 47
298 268 318 130 97 62
330 462 64 166 4 37
309 36 308 119 34 51
310 52 299 112 42 49
498 916 220 95 81 70
261 507 230 95 9 30
277 214 287 117 96 74
320 602 136 191 8 40
310 62 296 131 108 85
415 425 296 66 41 39
315 52 300 124 29 50
443 747 240 93 69 50
498 824 260 89 73 59
315 57 298 131 15 50
285 362 161 96 83 71
315 59 297 123 51 54
402 609 247 44 26 31
435 918 244 32 30 32
315 62 297 124 90 75
293 311 318 134 99 66
425 408 235 50 23 23
321 58 297 130 11 48
391 622 190 56 33 37
315 477 61 141 16 41
375 467 102 151 0 31
320 62 296 119 31 48
291 857 275 185 136 118
291 67 270 113 26 34
330 487 75 113 28 42
260 833 195 227 151 122
291 72 271 104 63 48
291 77 270 104 59 49
295 77 266 102 39 31
295 551 96 170 15 40
294 682 158 97 29 37
268 322 215 123 88 62
293 76 268 98 13 34
279 331 168 119 93 61
380 837 151 69 55 46
435 415 270 62 17 26
300 67 265 98 36 25
305 67 264 91 33 28
311 362 300 120 95 65
441 498 119 186 18 44
305 73 262 91 39 27
413 425 210 88 44 29
301 78 262 96 47 40
269 347 174 119 94 65
311 357 169 90 79 69
289 67 275 112 22 38
305 588 124 66 32 38
262 383 223 117 88 64
271 689 228 49 30 29
288 67 280 106 21 38
298 374 157 96 83 70
384 419 120 97 35 32
289 72 275 109 83 60
380 807 261 64 53 48
263 502 232 108 1 32
460 707 209 85 62 45
390 458 306 113 25 45
293 882 239 158 118 90
519 846 225 70 50 32
270 237 295 115 94 72
406 532 300 169 125 105
429 797 284 186 129 102
395 418 210 67 34 32
247 810 182 177 119 86
290 67 285 109 45 49
290 72 285 109 32 43
290 77 275 117 94 69
293 78 287 117 13 41
279 267 206 114 88 64
292 542 263 162 14 50
363 430 87 61 42 40
274 247 311 113 93 71
448 815 232 78 58 51
291 87 271 98 49 42
320 410 125 92 77 60
349 848 258 158 127 98
293 83 268 100 40 34
345 782 160 60 48 43
306 137 266 100 79 54
275 627 219 85 26 36
394 710 130 82 61 45
323 331 199 114 87 64
244 797 180 172 115 83
296 87 266 103 82 60
309 297 213 121 91 62
324 674 152 49 34 38
340 817 244 147 112 89
294 87 269 106 88 70
296 92 266 108 51 39
312 373 169 98 85 71
253 568 224 76 37 37
286 303 273 77 60 40
294 92 269 105 66 51
294 97 269 105 24 34
305 82 260 95 25 33
299 92 263 106 30 36
319 337 180 95 80 64
305 92 258 101 85 69
275 307 221 108 80 58
232 547 202 40 32 36
335 573 123 180 18 44
359 409 224 68 57 49
267 727 233 140 28 46
314 82 293 124 19 47
455 443 298 69 23 29
406 768 160 53 43 39
305 97 259 94 65 50
405 897 119 89 80 73
365 717 284 53 31 33
301 97 261 102 85 68
320 407 145 93 78 63
365 822 246 165 127 104
289 82 275 111 81 61
292 87 284 105 65 53
330 462 304 69 28 34
291 462 110 126 0 35
293 83 287 108 56 51
290 348 262 89 72 55
273 312 173 119 95 66
281 820 172 161 119 95
294 87 286 108 90 69
289 882 245 164 123 96
290 92 280 102 35 43
314 457 51 77 33 36
290 97 275 109 69 53
289 97 280 103 30 40
439 737 270 163 111 79
413 829 182 62 52 51
278 512 123 48 35 37
291 452 110 130 0 34
291 97 285 104 45 46
322 297 201 121 97 71
454 458 286 78 5 29
294 92 286 107 89 69
303 361 223 124 94 75
411 602 215 96 31 40
293 96 287 102 80 61
310 872 229 117 85 57
262 297 282 101 84 65
277 590 142 129 20 48
330 972 245 75 71 70
310 66 263 91 29 29
433 787 197 64 51 49
282 322 167 118 93 62
405 447 85 146 0 30
293 186 302 109 90 68
310 69 262 87 28 26
426 524 124 139 22 44
315 68 262 82 37 28
515 931 230 72 60 55
320 66 263 90 66 48
320 72 260 80 41 31
384 632 265 162 110 99
322 282 195 125 99 70
259 367 215 119 92 64
450 797 215 79 61 55
437 942 293 56 47 41
315 77 258 68 27 30
286 197 275 106 89 70
311 83 257 92 35 23
289 599 247 100 29 42
308 86 258 88 58 48
307 88 257 90 78 64
287 936 264 188 145 125
287 459 64 132 0 39
307 92 257 95 70 54
387 622 270 163 115 98
273 717 173 128 7 33
310 142 294 118 94 69
417 806 87 99 77 56
292 67 288 110 87 65
295 67 290 110 58 53
355 937 199 77 70 74
292 72 288 112 35 42
415 677 284 169 114 81
295 72 290 108 27 43
324 42 299 113 32 47
295 77 289 112 36 46
425 674 192 74 54 41
298 67 292 116 18 44
231 567 239 173 121 100
410 722 125 93 76 63
332 112 277 120 56 56
374 841 239 135 99 72
354 409 229 68 59 50
300 72 292 109 72 59
301 71 293 110 72 59
468 434 101 191 19 39
375 414 180 71 45 39
368 544 277 157 18 49
305 72 294 115 80 64
303 74 292 117 95 71
295 467 290 122 15 41
304 77 292 123 100 77
427 496 181 42 27 30
285 782 157 173 119 83
295 82 289 108 26 44
334 388 275 109 89 67
296 92 289 105 86 67
400 727 135 77 63 55
445 742 235 77 59 44
396 467 92 104 23 37
295 97 289 104 56 50
319 332 205 122 91 70
300 82 291 109 55 52
324 907 170 89 77 75
300 87 291 106 30 45
304 82 292 112 85 66
300 97 291 106 28 43
450 423 284 70 20 28
305 92 292 120 21 44
254 602 170 125 25 46
277 218 299 113 92 70
462 454 120 116 32 47
350 767 261 72 59 54
316 297 175 99 81 63
310 67 295 123 43 54
310 72 294 115 50 53
306 77 293 121 98 76
294 167 279 110 91 72
385 872 247 42 38 36
317 207 278 113 89 59
249 662 194 132 97 65
340 606 268 120 26 45
310 77 294 104 68 56
315 72 294 129 15 49
320 67 294 125 43 55
319 71 293 127 15 46
431 431 301 61 37 35
287 482 117 79 30 40
443 747 260 163 118 82
315 77 293 111 21 42
291 457 111 128 0 36
317 78 292 110 61 53
261 537 141 157 1 38
384 556 280 49 25 27
321 73 292 122 47 57
269 297 190 120 93 63
404 667 235 56 30 34
410 457 190 121 7 36
464 451 105 183 15 47
304 911 292 120 94 76
298 106 263 89 48 44
314 367 299 121 94 62
320 77 291 124 98 80
445 497 125 129 20 42
444 407 230 101 18 41
307 86 293 127 17 51
345 413 120 113 79 67
310 82 294 125 30 51
290 707 249 146 11 45
405 817 185 60 52 52
298 944 218 78 73 75
464 463 310 115 93 75
310 86 293 121 26 50
500 908 221 92 75 59
295 477 100 130 1 36
310 92 291 115 61 56
355 597 140 71 31 36
412 498 210 75 16 32
435 777 280 175 120 90
310 97 291 120 27 48
320 825 177 83 66 57
390 419 140 90 25 29
316 82 292 118 25 45
435 482 325 147 109 88
375 632 175 100 25 37
391 708 134 70 54 39
260 347 275 101 82 61
313 85 293 108 44 43
300 367 314 132 103 70
348 404 265 94 79 63
419 422 185 90 20 35
385 859 148 86 71 62
331 71 263 94 75 62
237 560 174 102 26 39
365 707 284 58 29 34
340 416 80 99 82 65
293 496 105 112 6 31
320 82 290 117 20 43
414 867 216 65 60 58
315 97 290 126 20 47
320 92 289 116 44 54
281 442 285 71 27 34
296 102 266 99 31 33
345 777 161 61 49 44
322 380 197 107 86 62
293 102 269 104 23 37
419 577 294 171 118 90
434 417 205 77 26 37
243 662 208 121 83 54
375 881 128 88 67 52
291 107 271 100 29 36
291 112 270 100 35 32
383 806 166 46 40 42
293 107 268 90 42 38
270 302 324 129 100 71
275 282 210 105 84 62
299 102 264 91 39 31
374 474 297 162 15 45
301 107 261 91 31 31
370 442 94 137 2 31
305 112 258 91 37 39
387 657 273 169 123 106
283 313 272 72 59 42
290 102 275 111 90 67
289 102 280 106 81 62
290 102 285 102 28 41
270 367 320 164 115 92
289 107 280 104 51 50
435 911 236 50 45 42
420 852 234 46 40 38
290 112 275 113 28 40
291 112 284 109 81 63
246 547 157 140 10 37
294 112 286 105 85 63
364 557 276 132 9 40
409 461 306 109 8 35
305 117 259 82 57 42
325 482 298 143 17 49
301 117 261 88 36 33
298 119 268 105 64 53
443 506 131 190 19 49
414 432 160 34 27 31
309 347 171 87 77 68
400 717 151 53 42 38
302 126 266 105 80 58
270 782 228 151 113 82
306 126 262 102 57 47
304 128 264 97 71 47
240 552 245 167 113 92
317 652 253 30 28 30
300 127 270 109 86 60
303 358 223 124 92 75
308 430 43 92 69 56
345 961 215 91 86 90
535 933 245 118 93 74
546 856 234 84 72 65
350 762 161 82 41 40
292 117 284 114 93 71
292 121 276 117 94 70
490 952 285 91 71 56
240 562 243 168 115 94
295 127 275 114 92 68
324 826 241 147 115 91
292 127 280 114 93 70
380 847 141 99 77 64
292 122 284 116 95 73
294 122 286 114 94 72
345 822 165 57 49 48
292 127 284 116 95 72
440 412 260 52 21 24
264 332 195 119 94 64
308 102 258 102 16 37
395 732 125 73 54 40
339 393 274 107 88 66
307 107 257 89 33 30
264 762 170 92 70 45
435 802 210 71 56 49
432 509 118 185 17 42
270 787 162 169 116 81
425 423 110 84 36 28
515 858 201 85 73 62
307 110 257 94 31 35
435 442 309 75 50 45
304 369 232 88 68 52
550 927 255 91 73 55
310 112 257 95 34 42
308 113 258 96 29 42
430 752 190 67 51 45
298 354 162 92 81 71
295 177 301 108 89 68
411 422 155 66 26 31
311 116 257 96 42 36
330 410 302 79 65 52
292 157 282 118 97 74
291 472 75 70 22 34
310 118 258 85 54 41
329 917 298 158 122 97
446 427 265 55 32 35
310 122 259 87 54 35
485 936 255 85 68 53
267 396 304 162 111 95
310 127 260 100 46 40
370 412 240 72 62 53
412 522 210 33 26 30
257 383 218 116 91 64
395 557 125 140 25 42
314 128 258 96 39 36
295 102 289 106 28 40
440 727 223 167 145 132
321 342 185 105 86 65
300 102 291 100 70 53
530 862 225 74 62 51
267 314 182 124 98 68
422 404 200 115 46 35
307 237 268 98 77 49
305 102 291 110 91 69
300 107 292 106 39 46
426 507 223 74 23 31
300 112 291 103 55 52
242 577 187 66 27 31
305 107 292 101 69 52
350 727 156 128 16 31
453 486 148 67 21 30
305 109 293 108 38 40
525 945 271 112 95 78
303 252 267 97 75 48
270 247 305 115 93 70
490 923 275 52 45 40
435 797 275 184 124 99
345 413 125 109 73 61
325 742 251 71 58 51
371 414 271 80 70 60
302 112 293 108 23 43
480 911 225 49 41 36
450 452 270 98 30 42
305 112 293 113 26 44
296 117 288 113 93 72
315 737 151 144 5 35
300 252 315 126 99 66
290 267 159 119 91 58
434 439 316 73 54 49
403 669 205 107 33 43
296 122 289 110 91 70
391 748 149 51 42 36
304 114 292 111 70 59
323 266 194 130 103 73
424 522 295 147 97 66
355 457 312 117 18 40
485 955 287 90 73 58
440 918 289 43 40 39
278 226 278 116 98 79
305 117 292 114 90 68
297 424 65 102 43 38
450 482 150 64 28 34
300 122 291 114 93 70
300 127 291 110 90 68
241 677 224 179 123 100
392 637 194 55 30 32
305 127 293 116 94 70
310 317 171 88 76 64
310 102 291 99 49 45
425 918 270 35 34 37
310 107 292 99 33 41
308 109 293 111 21 43
431 920 246 32 29 32
310 112 293 113 29 43
357 442 313 159 14 49
315 102 290 111 20 42
315 597 259 94 29 41
319 102 288 109 28 43
315 107 290 97 70 53
440 712 226 60 50 45
315 112 291 103 79 60
320 107 289 103 58 49
432 890 237 65 56 50
290 610 137 201 15 38
399 491 302 64 24 31
315 142 291 119 94 66
326 856 205 118 81 65
368 415 273 79 69 60
320 112 290 110 51 51
286 447 59 140 1 40
361 881 136 87 72 60
307 115 293 113 56 56
325 742 151 94 30 38
310 116 293 112 35 48
310 118 292 113 82 62
321 152 270 114 87 55
306 507 284 159 14 48
310 122 292 118 94 68
412 450 157 128 9 37
315 767 245 66 56 51
308 124 293 119 95 69
275 607 225 35 28 28
308 127 293 121 97 71
407 588 240 152 13 43
452 494 298 194 125 106
313 114 293 114 31 48
300 272 160 108 84 57
316 448 48 167 1 33
430 502 180 49 28 30
367 722 155 63 42 38
315 117 292 114 27 45
285 327 166 116 91 64
384 871 191 51 48 51
313 116 293 113 20 43
320 117 290 123 24 47
315 122 291 120 82 65
270 617 217 44 23 26
277 482 254 88 31 39
295 374 157 92 81 70
291 527 95 78 26 35
285 392 317 167 120 94
343 804 168 57 47 45
325 38 285 104 62 54
303 337 285 92 76 56
325 42 280 108 82 67
445 492 275 180 16 53
325 47 276 107 71 55
302 131 267 107 84 58
328 39 286 107 65 54
295 362 160 91 81 70
323 272 190 123 99 72
330 42 285 111 77 61
275 407 305 170 120 100
332 46 285 117 82 67
325 53 271 117 35 35
379 884 119 88 71 55
324 59 267 109 52 41
316 187 296 123 97 66
437 430 291 57 26 28
326 60 268 105 55 54
459 927 219 78 66 65
310 819 227 155 111 95
329 58 271 123 49 34
320 217 290 123 96 65
322 50 273 117 17 20
435 488 158 77 20 32
315 134 263 97 72 48
326 51 273 126 41 36
328 54 272 135 32 30
431 904 231 74 68 63
311 402 311 129 98 67
333 54 277 117 99 80
430 930 232 76 67 64
225 527 225 134 91 70
275 517 125 56 34 36
258 588 228 123 81 69
333 57 285 102 23 37
266 417 289 165 12 52
335 62 275 112 96 81
335 62 280 104 52 43
414 417 180 95 27 38
360 627 259 160 18 52
334 62 285 109 23 42
569 918 244 100 81 62
386 783 150 71 58 49
325 36 290 102 47 46
338 460 67 171 0 36
323 34 292 101 48 47
335 612 265 112 30 46
323 34 298 103 49 48
324 37 299 93 41 45
231 617 215 158 111 80
326 42 296 118 23 46
329 38 290 105 46 45
328 38 294 116 28 48
305 152 297 113 91 67
331 42 290 112 32 46
331 47 290 96 37 42
370 602 266 66 27 33
294 327 314 132 98 68
328 47 294 95 35 40
290 355 258 88 72 54
296 429 47 109 12 18
323 882 213 70 58 49
430 712 215 117 87 74
325 57 295 120 28 50
323 52 298 120 52 55
259 502 134 73 35 36
430 812 234 48 36 30
325 62 294 117 61 61
400 917 296 49 45 44
229 597 220 157 113 83
408 503 307 149 114 99
326 63 292 116 74 68
330 52 290 79 39 39
455 482 284 69 34 33
330 57 290 106 35 42
273 732 241 74 28 38
309 202 267 97 78 56
312 474 58 145 2 36
330 877 175 44 40 39
333 57 288 115 23 39
460 712 211 84 61 46
330 62 290 115 24 45
423 572 280 150 108 73
389 808 156 70 55 50
369 517 111 118 20 38
325 72 260 84 58 44
425 727 235 80 34 39
330 67 265 95 76 62
393 955 247 89 81 81
354 409 185 76 65 53
375 692 274 32 27 28
330 72 261 91 68 55
332 65 268 102 82 68
333 68 267 100 84 70
278 220 302 112 92 71
296 482 95 142 1 40
335 67 270 108 89 71
335 72 265 96 81 68
460 462 325 80 54 49
238 553 186 157 2 46
336 71 269 106 85 68
315 523 286 79 24 36
300 207 309 120 96 70
292 492 84 100 17 36
330 792 161 73 59 51
335 76 260 94 69 55
312 538 93 180 8 40
435 752 195 57 44 40
268 327 209 114 87 56
336 75 264 95 78 64
335 72 285 115 26 44
291 492 280 92 25 38
380 757 275 67 57 53
331 77 286 122 90 78
319 132 288 125 97 70
334 77 284 114 52 56
321 97 287 108 87 66
283 417 123 47 38 40
241 802 219 176 129 101
337 77 282 121 21 45
412 419 130 85 18 39
292 507 95 144 0 39
330 82 286 125 40 56
238 534 163 46 35 38
415 582 265 111 84 56
262 476 238 118 13 38
334 82 284 126 29 54
520 848 240 67 54 43
284 432 124 133 7 35
286 432 121 112 18 37
336 82 282 126 11 43
340 411 135 94 78 62
341 897 173 60 53 52
336 87 281 118 31 51
308 904 292 139 102 90
385 732 136 76 59 47
269 814 173 197 136 106
335 92 280 123 30 53
311 507 288 145 12 44
334 97 279 109 42 50
305 502 65 164 7 36
365 657 258 148 15 47
329 91 283 121 79 69
331 92 282 130 22 50
389 881 201 64 59 58
235 519 202 75 21 34
329 97 283 111 23 44
335 933 190 89 81 81
331 97 282 113 26 41
339 73 270 105 87 69
246 577 180 64 28 34
338 74 267 100 83 69
278 378 253 78 64 49
414 642 260 131 97 66
395 519 108 145 7 35
343 79 266 100 82 64
343 79 269 101 78 56
339 392 260 96 80 63
338 69 272 110 95 78
333 130 273 127 29 50
338 72 279 105 25 38
266 272 314 116 94 69
337 72 282 114 26 42
512 945 275 95 78 60
335 416 75 99 83 64
339 77 279 97 36 42
315 374 234 87 68 52
342 80 260 93 65 48
408 731 157 62 44 39
345 83 260 104 77 61
385 452 312 92 28 39
345 82 265 97 72 50
294 289 218 111 88 61
461 898 206 99 85 88
438 477 240 110 16 38
420 447 200 113 9 34
344 82 270 99 48 39
347 85 256 78 10 16
347 85 266 94 37 34
349 87 260 95 17 36
349 88 265 102 32 39
315 612 141 191 9 40
496 892 202 108 91 83
316 147 292 118 93 65
218 514 247 201 138 117
351 92 260 107 32 41
450 936 231 78 66 61
549 856 226 86 79 73
323 154 278 126 100 70
440 492 325 145 102 82
453 486 140 112 31 45
404 740 135 66 49 41
283 744 247 61 17 25
351 92 265 116 33 47
333 878 293 163 127 100
349 92 269 120 25 46
351 97 265 128 33 52
386 847 136 85 70 59
390 861 141 116 91 72
338 86 279 112 35 46
341 87 276 106 48 51
317 323 178 88 76 64
314 292 209 122 95 65
410 913 280 33 34 36
263 346 273 99 80 59
341 82 276 94 33 38
299 882 233 148 111 81
268 256 306 116 96 74
414 422 200 96 47 33
331 970 264 69 67 68
343 83 274 105 29 41
405 492 310 77 27 34
325 382 230 75 61 48
308 716 253 157 12 48
340 92 275 109 65 60
267 531 228 32 26 28
340 97 275 109 32 43
326 67 292 114 81 66
405 742 284 181 132 102
441 782 255 141 92 62
325 72 291 125 18 47
360 697 283 57 30 33
325 77 289 121 41 54
303 787 237 64 53 47
365 538 281 53 27 33
258 472 138 130 11 33
330 67 290 116 28 47
446 452 255 109 23 38
330 72 289 125 12 45
410 476 92 51 33 43
426 682 265 136 97 61
333 67 288 91 38 39
232 556 211 119 35 41
329 76 288 117 37 51
300 475 52 93 23 32
460 922 215 81 72 75
324 86 288 107 29 42
328 80 288 123 62 61
259 302 285 105 88 69
235 547 247 174 123 101
321 102 287 105 54 49
392 642 278 182 133 115
322 106 287 105 20 39
325 107 286 110 25 40
359 876 154 74 61 57
575 925 248 91 75 56
266 317 272 88 73 57
330 102 284 113 24 44
260 692 186 112 85 54
276 672 171 119 17 36
332 102 282 120 32 46
331 107 280 111 52 53
330 112 280 123 34 48
277 456 269 164 4 51
257 388 181 112 90 65
371 756 141 59 45 37
335 107 276 110 41 47
333 106 278 111 35 42
288 187 279 111 93 74
322 158 275 122 96 65
335 112 274 114 60 57
420 724 124 83 66 50
328 107 283 104 41 45
295 482 56 79 30 36
422 486 182 39 25 28
314 849 275 103 83 61
321 128 287 127 96 72
385 700 153 68 42 42
272 349 262 88 71 53
325 127 285 123 54 57
420 747 180 59 48 42
378 922 207 63 58 59
330 117 280 120 52 54
340 462 70 169 0 35
332 118 277 118 39 49
405 727 124 82 62 47
416 414 230 56 21 24
335 968 280 60 56 54
331 122 276 113 69 58
328 122 280 119 70 63
384 866 187 58 54 54
331 127 276 120 37 49
280 362 322 148 107 76
234 757 185 160 109 79
299 332 309 123 93 62
385 421 100 99 35 33
328 127 279 122 21 46
334 127 273 112 36 46
426 809 277 192 128 103
340 408 290 87 73 59
328 120 283 114 83 63
417 492 318 140 116 100
344 111 269 139 5 52
262 309 277 95 79 63
345 112 265 144 5 54
450 711 227 67 54 42
415 497 316 162 128 111
305 416 85 89 70 56
348 110 263 144 0 57
270 737 235 85 24 37
347 108 266 141 6 54
318 308 177 97 83 71
375 807 154 97 68 52
432 517 187 40 28 32
450 487 284 82 53 45
345 107 270 136 4 50
300 422 314 168 18 54
340 102 274 104 64 59
280 372 320 158 110 83
344 102 273 125 30 51
340 107 274 120 36 52
470 907 207 95 79 79
308 252 272 95 74 48
340 111 273 113 31 47
343 107 273 130 21 55
344 954 208 94 89 92
341 113 271 124 26 50
402 820 263 163 118 96
344 117 260 145 4 53
387 794 164 53 44 45
340 117 270 133 18 51
325 377 175 112 94 75
230 602 225 161 116 87
243 736 178 126 96 60
343 115 268 144 3 58
411 477 195 120 6 36
410 672 195 69 56 44
295 227 313 123 99 72
315 562 111 143 20 41
453 757 228 73 59 48
343 120 259 144 4 52
338 126 269 139 7 54
337 114 272 90 50 45
267 317 185 123 97 67
337 115 272 99 49 45
281 432 126 131 2 35
335 437 55 152 11 42
323 122 288 122 24 47
436 882 235 73 64 59
442 434 234 156 15 44
353 97 260 122 33 48
303 504 282 178 15 56
274 396 159 88 78 68
386 689 161 59 43 40
353 94 260 114 35 45
345 497 294 93 28 41
385 552 285 111 22 40
291 461 47 47 35 33
353 100 258 128 39 52
310 307 170 97 82 66
264 422 281 149 9 47
245 597 238 165 118 91
287 183 282 115 96 77
410 542 125 160 13 38
286 182 285 115 95 75
420 424 95 149 19 37
421 803 198 70 57 53
429 882 221 107 94 104
287 187 281 115 95 75
342 740 268 76 61 56
350 503 292 78 27 37
287 193 276 108 90 72
285 187 285 115 96 75
284 192 285 115 95 75
397 581 288 168 123 102
287 178 289 106 88 68
379 873 134 103 84 69
287 179 293 101 83 63
402 751 163 50 41 39
286 182 290 106 87 67
286 187 295 111 91 70
312 211 302 125 99 68
284 192 290 112 92 72
300 137 270 105 85 62
274 492 245 57 29 33
303 138 268 104 84 60
466 482 328 153 104 92
590 923 230 111 90 68
301 142 271 106 86 64
304 142 269 104 84 61
435 479 153 56 27 33
355 827 160 70 58 54
293 132 278 115 93 68
322 273 190 122 98 71
228 532 215 135 38 45
293 137 279 113 92 69
296 947 275 147 104 89
292 132 284 116 94 71
267 322 185 126 99 67
293 132 287 114 93 70
292 137 281 117 94 69
335 627 150 50 35 39
229 523 220 75 36 36
293 137 287 114 93 70
276 272 170 127 98 63
400 737 139 53 44 37
296 142 276 103 83 63
295 548 94 191 13 38
316 647 253 32 29 32
313 852 240 140 107 84
335 832 184 78 59 53
405 467 90 86 31 36
298 132 273 110 89 65
281 257 267 101 81 57
298 138 273 102 84 64
301 152 270 105 86 65
378 896 201 60 55 55
465 908 209 84 73 70
304 147 268 102 83 62
294 187 269 100 82 62
328 575 122 158 16 47
300 157 270 105 87 67
330 482 300 139 18 46
430 432 81 152 19 34
310 502 70 173 5 39
448 795 212 79 63 53
590 919 239 108 88 67
304 157 268 104 86 65
355 682 161 107 17 26
291 152 285 116 94 71
375 872 140 101 82 68
291 157 285 116 94 71
299 147 274 104 85 64
365 612 151 164 21 46
405 437 84 141 0 32
297 147 277 103 84 63
297 152 276 102 84 64
310 133 264 96 72 49
400 742 281 181 131 105
273 356 168 117 94 66
310 137 265 96 76 52
308 520 77 179 7 38
315 137 264 94 72 46
361 420 268 80 71 61
317 130 257 93 26 30
320 136 260 95 68 52
310 147 266 99 80 57
310 157 266 98 80 58
394 861 133 110 86 63
295 748 246 69 54 50
320 457 55 140 15 37
384 932 221 66 60 62
442 493 114 183 18 45
315 147 266 99 77 47
404 861 197 58 54 53
320 418 70 94 78 61
450 919 288 44 40 39
315 152 266 99 76 48
311 846 210 188 130 100
470 922 229 53 45 39
318 146 267 104 76 44
513 853 206 74 64 56
318 152 267 105 80 46
339 955 207 96 90 92
339 926 187 87 77 78
315 157 266 100 78 50
285 232 266 102 83 61
318 156 267 106 82 49
300 492 286 182 15 56
435 427 90 85 28 36
440 457 320 126 12 41
324 887 185 44 42 42
320 157 270 113 88 57
297 756 243 77 64 57
360 537 284 68 30 36
271 452 131 116 12 32
372 709 152 77 55 49
295 137 290 109 89 67
296 437 95 140 3 34
299 282 275 85 66 42
400 519 108 171 0 33
236 582 239 167 117 93
356 886 131 101 78 69
292 142 288 112 92 70
299 132 292 110 89 67
480 928 260 54 47 42
298 317 223 112 78 57
300 496 62 54 34 37
465 737 220 72 57 43
298 137 292 108 88 66
280 262 165 121 95 63
464 481 286 173 116 101
305 137 294 114 92 69
389 617 275 169 122 104
297 142 293 109 89 66
502 965 288 85 72 57
300 142 294 110 89 66
289 252 318 125 99 68
559 967 278 92 81 71
464 447 125 59 28 34
292 147 288 111 89 65
256 497 136 103 25 36
294 147 291 111 90 67
296 147 293 109 89 68
439 867 225 129 120 119
292 152 289 112 90 66
331 663 258 139 12 45
310 677 153 56 35 37
295 482 90 123 8 38
295 152 294 109 89 67
279 777 158 163 113 77
280 332 267 86 72 57
259 457 139 99 19 33
347 531 283 65 19 30
370 861 242 35 30 29
295 157 295 109 88 66
347 760 263 75 60 54
254 814 222 190 140 113
421 477 175 123 11 37
300 560 102 122 26 40
280 747 244 79 32 40
300 147 295 110 89 67
300 152 296 109 88 66
443 431 231 90 20 33
485 946 290 95 79 65
305 147 296 114 93 69
405 897 250 44 38 35
430 424 115 80 36 29
302 154 298 110 89 67
332 449 307 37 29 29
295 277 269 89 71 48
278 278 168 126 97 64
318 265 292 123 93 61
305 157 298 114 92 67
293 323 277 77 65 53
309 137 293 119 96 69
312 137 292 120 95 67
315 132 290 122 96 66
445 877 226 104 93 91
279 423 301 178 16 56
315 137 290 121 95 66
319 137 288 118 94 66
539 931 245 108 85 63
280 820 223 43 36 36
392 500 102 42 36 37
271 262 190 119 94 66
319 142 289 116 92 64
326 892 175 57 51 50
310 152 296 115 92 66
421 597 290 170 119 89
420 503 316 205 146 125
285 312 227 115 83 63
308 291 304 139 98 67
314 152 294 117 93 66
269 317 210 119 87 58
297 902 232 120 94 74
279 732 159 77 30 36
319 147 289 117 92 64
437 727 232 74 37 39
319 152 289 122 96 65
403 659 239 37 31 31
317 157 292 117 93 66
319 157 289 123 94 64
300 167 270 102 84 65
303 161 268 103 85 65
321 347 200 114 89 65
305 167 267 101 82 59
300 172 269 101 83 62
243 752 217 168 121 93
345 417 317 122 27 45
296 177 271 101 84 65
282 587 136 152 4 38
342 479 78 41 37 35
410 419 270 65 44 40
299 177 269 101 82 60
301 392 226 89 72 56
275 332 226 116 81 62
418 946 278 64 52 43
334 968 229 94 88 89
305 172 266 99 81 59
305 177 266 100 81 60
514 836 254 84 68 53
314 316 213 130 95 72
296 162 275 104 87 69
314 446 47 169 0 32
296 167 275 104 87 69
293 376 233 76 63 49
292 304 162 119 91 60
291 162 285 114 94 71
290 167 285 114 95 74
460 908 209 76 67 63
273 236 302 115 94 73
400 667 284 168 125 99
292 177 276 107 90 72
430 487 325 173 129 112
308 357 167 91 80 70
385 415 235 70 50 42
246 567 161 92 35 43
265 835 204 209 144 117
295 839 206 46 37 40
290 177 280 112 93 73
385 818 256 63 51 48
294 482 100 125 1 35
289 172 285 114 95 74
309 758 247 68 58 51
446 480 152 70 28 31
350 677 270 98 20 36
317 407 212 97 80 62
288 176 284 114 94 73
298 166 273 101 85 69
292 187 271 100 83 65
291 192 271 98 82 65
351 878 140 127 104 94
300 182 267 99 80 58
322 300 202 121 98 72
359 409 215 69 56 48
297 188 267 100 81 59
262 388 172 109 89 67
345 947 304 66 60 60
291 182 275 104 87 70
385 537 285 73 22 32
419 874 223 94 80 75
289 182 279 111 93 74
409 602 234 160 13 47
410 472 315 39 27 29
293 181 273 102 85 68
272 367 167 112 91 66
315 414 95 93 72 60
301 362 312 129 101 67
405 462 305 97 9 34
288 190 278 109 91 72
310 162 266 101 81 57
305 628 148 164 8 37
310 167 266 101 80 55
288 436 61 138 0 42
405 897 217 67 62 61
295 440 37 167 3 29
420 721 211 69 42 39
310 172 266 100 80 56
310 177 266 100 80 55
304 949 219 75 70 72
314 272 204 126 96 68
259 357 200 112 90 64
379 667 176 68 31 32
314 162 267 101 79 51
315 786 157 81 63 53
282 546 253 165 12 52
314 167 267 102 79 50
300 307 220 114 81 58
317 167 269 102 79 51
307 590 258 73 14 26
269 432 281 73 32 37
391 732 130 76 58 45
385 557 275 37 25 25
277 636 162 92 29 38
319 172 270 107 84 57
321 162 275 120 95 65
400 512 295 96 20 35
291 487 80 95 23 37
275 817 224 150 115 93
318 175 272 108 84 55
473 735 214 80 59 45
414 835 186 64 55 53
310 187 266 99 78 52
310 192 266 98 78 53
402 701 176 47 37 34
441 512 135 180 19 46
435 887 234 67 59 54
325 383 226 79 65 51
412 728 170 64 51 46
313 182 267 98 77 51
318 183 272 105 82 52
315 192 270 100 78 52
278 216 301 114 93 71
333 394 217 85 71 56
365 792 260 68 58 55
318 187 271 104 82 54
365 883 130 104 84 73
322 375 243 74 59 45
305 626 147 190 8 42
295 512 275 178 13 55
318 191 272 103 81 53
293 442 109 70 20 34
365 813 251 146 105 89
321 307 206 125 100 73
342 832 172 51 45 45
292 447 73 139 0 41
338 389 269 103 85 66
440 937 293 55 46 39
306 342 300 111 88 61
317 180 273 105 82 51
320 182 275 114 90 60
290 292 221 114 91 65
266 342 180 124 97 65
291 378 247 79 64 46
305 582 120 134 24 40
320 187 275 113 88 58
323 756 152 108 23 36
292 467 107 132 0 35
332 922 297 163 126 102
291 162 290 112 91 67
290 167 290 113 93 71
317 230 297 124 98 66
291 167 294 109 89 67
295 162 296 109 89 67
362 749 152 58 48 46
448 500 306 193 127 103
330 387 225 75 63 51
296 167 299 109 89 67
289 172 290 111 91 70
291 172 295 105 86 65
296 506 279 179 14 55
334 392 245 71 61 52
241 802 185 174 116 85
293 170 297 107 88 68
426 903 241 61 55 51
295 172 299 108 89 68
375 851 236 36 29 28
385 701 150 68 45 42
284 512 119 80 21 34
290 443 38 168 1 33
350 797 160 51 45 44
405 423 305 64 33 33
389 419 135 90 27 29
297 163 298 109 89 66
314 491 66 97 31 39
317 327 178 88 76 64
392 663 278 167 126 103
414 591 195 145 31 49
300 162 299 111 90 67
303 343 223 119 86 64
300 167 300 110 89 67
465 937 230 84 72 66
232 542 202 49 31 34
411 476 313 32 27 28
360 572 131 158 4 33
305 167 300 115 93 68
300 178 303 111 90 68
387 933 224 66 60 61
305 172 301 116 93 68
250 627 236 171 121 94
290 182 300 109 90 70
275 382 231 102 71 54
290 372 158 92 81 70
294 182 302 109 89 69
323 863 213 141 100 75
269 292 195 123 95 65
296 182 303 110 90 69
290 187 301 109 90 70
288 192 302 107 88 69
315 612 256 92 30 41
438 919 224 77 77 81
290 393 317 162 116 87
291 192 304 108 89 69
405 424 100 103 28 28
295 187 304 111 91 70
300 182 304 113 91 68
445 416 266 67 18 25
300 192 306 116 94 70
305 187 304 120 96 69
309 163 298 116 92 65
280 322 270 91 78 65
310 167 299 117 93 66
358 747 159 56 36 35
449 500 315 201 135 109
310 172 299 119 95 68
299 937 210 78 71 72
255 797 227 181 136 107
285 287 164 123 92 59
315 167 295 119 94 64
306 444 43 174 3 37
300 332 224 111 80 57
305 482 56 119 27 38
331 794 163 73 59 51
317 161 292 119 95 66
406 607 200 107 33 44
319 167 290 122 95 64
315 172 295 122 96 64
441 799 213 80 65 59
318 172 293 124 96 62
305 414 95 90 68 59
400 676 133 88 63 40
351 934 303 40 37 37
318 178 293 123 96 65
524 853 211 94 71 44
285 307 166 123 93 62
384 692 160 62 43 40
313 168 298 118 93 65
313 177 298 120 95 66
294 347 229 121 84 65
307 181 302 118 94 66
360 697 160 77 26 33
417 424 92 122 20 40
243 668 227 184 136 111
308 187 303 121 96 67
308 192 303 122 97 68
454 733 228 60 48 39
416 442 195 114 6 33
242 743 177 129 97 62
320 182 290 123 97 65
271 441 274 171 5 53
320 192 290 125 98 67
465 912 211 80 71 70
318 192 294 123 98 69
445 427 120 116 17 34
287 202 272 100 84 66
432 548 191 161 16 47
286 207 271 102 85 67
290 307 163 121 92 61
270 777 161 156 108 73
539 844 237 87 69 58
335 457 64 173 1 37
280 207 280 117 98 77
284 197 280 115 96 76
462 894 208 99 90 91
413 471 197 102 1 36
419 818 200 59 49 49
281 197 285 117 97 76
471 898 219 61 54 48
287 502 117 37 30 30
425 447 315 74 27 35
228 548 242 168 120 96
281 202 280 117 98 78
396 613 190 122 33 47
395 452 311 66 27 34
323 141 280 119 94 64
283 200 279 116 97 77
541 981 289 86 70 57
283 336 323 144 104 72
370 418 105 105 34 38
434 470 147 42 28 25
282 204 277 114 96 78
295 402 316 160 114 85
300 888 293 133 102 80
284 207 274 105 88 71
296 272 268 91 72 48
281 207 276 111 93 74
285 212 270 104 87 69
227 570 225 161 116 88
261 397 170 104 87 68
297 424 70 117 29 36
244 823 211 215 154 129
285 217 269 103 86 68
360 676 267 131 5 40
281 222 271 105 88 69
280 217 275 110 92 72
380 626 258 121 39 45
355 683 274 125 9 37
278 212 285 118 98 76
306 257 311 127 99 67
300 287 215 116 87 58
374 586 137 165 14 41
355 966 269 81 76 75
278 216 284 120 99 79
490 917 215 95 75 62
276 218 285 119 99 77
276 222 281 119 100 79
340 930 297 40 38 38
277 219 281 120 100 80
305 372 233 86 67 51
323 297 195 115 94 71
467 698 209 103 78 58
317 247 301 126 99 68
283 211 273 106 89 71
445 447 305 94 18 31
282 214 272 106 88 69
320 957 215 78 74 77
338 389 262 98 82 65
425 882 220 116 105 102
280 202 290 110 91 70
360 417 105 111 73 63
317 212 296 124 98 67
271 806 167 182 127 93
315 427 45 95 72 53
278 207 290 111 91 70
318 374 203 114 89 67
269 467 251 78 26 37
247 546 231 114 66 61
445 502 160 140 4 44
281 202 295 110 91 70
300 337 225 115 82 59
371 578 272 94 29 39
279 207 295 109 89 68
283 195 292 112 93 72
269 793 163 168 116 81
373 490 297 88 10 36
322 147 275 122 95 63
299 517 276 165 14 51
294 292 318 136 97 68
335 813 174 66 52 46
285 197 300 110 91 70
447 512 155 165 14 47
344 431 57 157 8 38
287 198 303 108 89 70
495 926 280 73 60 50
282 203 299 113 93 72
258 417 271 140 12 46
438 472 230 76 23 33
283 202 301 111 92 72
285 207 305 109 90 70
303 286 313 138 100 70
470 712 209 111 88 67
335 682 266 47 27 29
286 202 304 109 90 71
278 210 290 112 91 70
277 213 294 110 91 70
278 211 296 111 91 70
276 217 295 111 91 70
364 730 154 68 39 35
279 212 300 113 93 71
274 222 290 113 94 73
251 617 190 69 28 36
560 927 246 104 86 68
440 433 82 142 26 37
266 332 200 116 91 61
275 222 295 110 91 70
277 223 304 113 93 72
390 762 277 111 80 60
396 420 306 67 43 38
279 222 306 110 91 71
284 211 306 108 90 70
283 216 307 110 92 72
285 217 309 111 91 71
403 532 295 143 100 86
282 219 308 108 90 71
296 863 246 121 98 74
400 421 125 85 19 34
296 437 85 138 0 37
285 222 311 114 94 73
325 409 140 93 78 63
419 571 175 196 15 50
258 366 212 117 92 62
414 415 230 54 23 24
271 232 285 120 99 77
293 333 272 80 70 59
271 272 275 109 88 65
260 312 325 126 98 70
271 237 285 119 99 76
436 532 150 38 34 37
272 238 281 117 96 73
276 373 161 103 86 68
433 714 273 153 105 71
270 322 220 125 85 65
271 242 280 118 97 75
271 247 280 119 97 75
268 247 284 124 102 78
271 257 276 111 91 69
480 926 265 49 44 41
310 432 40 113 64 46
267 257 282 122 100 77
274 302 174 118 93 64
280 237 270 103 85 65
277 237 272 104 87 68
321 762 248 69 58 51
283 232 268 102 84 63
286 227 267 102 84 64
282 238 267 102 83 61
310 373 231 91 71 54
401 767 284 176 132 103
277 718 167 111 16 28
410 548 130 129 18 42
328 500 298 141 28 52
345 415 105 112 92 75
278 227 275 110 92 74
305 430 43 115 64 46
276 232 275 111 93 74
278 231 273 107 89 71
440 416 270 65 22 28
273 227 285 119 100 79
427 554 164 66 35 33
365 442 314 76 28 35
466 447 110 180 14 49
420 813 276 187 121 95
273 232 283 119 98 76
321 292 200 123 99 72
277 242 272 103 86 68
395 732 150 51 42 39
303 372 223 102 80 62
305 412 315 139 106 79
298 710 153 63 31 28
279 247 269 101 82 62
285 642 230 166 13 52
276 257 270 103 84 61
285 247 266 100 81 60
297 419 95 75 41 31
370 870 150 93 73 61
314 312 213 130 97 72
348 878 278 144 108 82
281 252 267 101 81 58
318 379 227 92 74 56
318 213 276 108 86 59
285 252 266 101 81 58
274 242 275 109 91 72
274 247 275 109 90 69
265 477 240 115 14 39
375 637 256 133 13 42
375 856 241 36 31 29
271 232 290 117 96 75
375 632 256 129 10 40
272 233 299 114 94 72
397 692 283 168 123 99
450 437 129 60 30 31
277 416 304 67 19 31
271 237 300 113 93 71
420 762 184 63 50 44
437 744 193 63 49 41
467 466 314 97 74 54
266 387 309 169 115 98
267 248 295 118 97 74
269 242 290 119 98 75
293 492 109 77 23 30
269 242 295 118 97 75
268 246 295 118 97 75
441 915 217 78 68 65
271 242 305 115 94 72
438 716 212 83 60 46
265 257 295 119 98 75
267 249 298 117 96 74
401 702 99 86 86 86
297 424 75 120 15 35
267 252 300 117 96 74
323 185 282 122 97 67
266 257 300 116 95 73
323 327 187 107 87 66
364 966 235 90 85 87
509 864 196 76 65 54
268 251 301 117 97 75
315 678 152 44 36 37
355 422 316 173 15 55
423 732 283 168 113 80
269 252 305 118 97 74
264 557 221 72 20 30
415 692 284 171 113 84
272 248 309 114 93 71
269 257 310 117 95 72
304 377 229 88 69 52
268 733 231 138 21 43
520 937 255 105 89 75
315 717 149 82 30 36
396 856 144 114 92 75
271 257 314 115 93 70
345 547 110 159 16 41
273 226 290 113 94 73
273 227 295 112 92 71
250 682 190 126 93 57
290 821 224 63 55 52
426 452 209 58 23 34
414 473 184 131 9 42
282 451 50 113 22 40
312 837 220 170 121 98
272 229 294 113 92 70
275 227 300 112 91 68
275 232 305 114 93 72
370 875 135 92 76 66
436 797 199 62 49 47
280 227 310 111 92 72
346 406 275 89 77 64
310 422 60 89 72 54
546 955 284 92 82 74
277 229 308 112 92 72
373 525 288 135 30 51
300 222 311 123 98 68
277 232 309 112 93 72
280 232 311 112 92 72
337 846 181 61 48 47
432 511 181 37 25 28
450 747 230 61 49 40
430 504 317 207 142 115
436 517 130 184 20 46
276 237 310 113 93 72
278 236 312 110 91 71
290 382 318 150 107 79
386 765 132 62 47 39
333 706 272 34 28 32
385 902 205 64 56 55
382 415 230 71 51 43
284 226 312 113 93 70
285 232 314 115 94 70
260 402 255 50 39 29
355 782 260 67 57 54
287 224 313 117 96 73
421 553 149 104 39 49
282 233 313 113 92 70
273 241 306 114 93 71
405 417 245 62 22 28
272 244 308 114 93 71
403 704 152 57 49 44
276 247 314 113 93 72
280 242 315 113 92 69
272 733 167 75 35 39
340 552 276 76 27 37
278 439 282 85 30 39
327 387 185 91 76 60
272 463 127 31 35 40
293 874 269 132 97 98
273 250 312 114 94 73
275 252 315 115 94 71
390 597 270 138 91 80
274 257 316 115 93 70
435 424 105 82 29 29
464 726 208 87 63 41
279 251 317 116 94 69
297 927 216 58 54 57
232 545 175 84 29 36
295 828 179 101 78 69
281 252 318 117 94 69
280 257 319 117 94 69
386 699 138 73 58 54
410 887 250 46 39 35
274 452 129 117 14 29
285 242 316 118 96 71
285 246 317 120 97 71
285 248 318 120 97 71
282 249 318 117 95 70
298 537 271 134 16 45
250 597 196 52 27 32
290 342 165 96 82 69
325 442 50 155 14 40
293 197 268 99 81 61
306 473 53 114 23 38
315 507 291 143 12 43
291 207 267 101 82 61
382 420 113 94 38 39
295 202 266 98 80 60
232 617 229 162 114 88
395 954 250 88 78 75
441 532 170 110 25 43
292 203 267 98 80 60
235 527 251 165 114 92
278 628 222 133 28 50
344 403 250 87 74 62
295 207 266 99 80 58
312 280 207 123 95 68
290 262 211 125 96 68
275 807 226 126 102 82
409 882 215 64 58 55
428 416 197 83 27 31
260 732 177 114 86 56
300 202 266 98 80 60
240 587 205 105 72 53
300 207 266 98 80 61
412 642 254 120 92 64
415 417 175 92 22 37
305 202 266 98 80 59
305 207 266 98 79 56
291 212 267 100 82 61
289 211 268 101 83 65
441 736 235 79 61 48
530 867 225 75 63 53
290 217 267 100 82 63
412 487 199 110 6 35
398 489 98 67 27 24
295 217 266 97 80 60
271 502 126 102 34 40
295 222 266 97 80 61
334 482 302 59 19 29
300 217 266 96 79 61
290 232 266 99 82 62
305 212 266 97 78 56
456 488 290 215 146 129
416 567 216 152 8 46
503 829 256 116 88 63
305 222 266 97 78 55
363 955 217 81 76 78
309 207 267 98 77 52
346 415 109 113 90 74
312 198 268 99 78 52
322 182 285 122 96 64
315 202 270 100 79 53
318 197 272 105 83 57
320 197 275 111 88 60
252 571 232 131 82 70
251 707 228 174 122 100
319 202 275 112 88 59
321 322 184 104 86 67
425 425 290 61 34 31
319 207 281 118 92 61
435 920 265 35 34 36
320 207 285 122 95 64
311 212 268 98 78 53
308 222 267 96 77 56
310 222 269 96 77 56
395 829 246 49 42 40
314 212 271 99 78 53
413 560 260 53 27 31
314 222 271 97 78 55
329 897 164 88 75 72
316 212 274 104 82 55
315 797 161 85 67 57
319 277 171 119 94 68
286 382 156 88 77 66
302 424 57 94 76 55
395 419 160 95 23 34
355 551 274 136 26 51
510 937 284 103 82 61
314 227 275 103 82 57
317 210 278 111 87 58
319 217 280 116 90 58
435 404 240 49 29 24
320 212 285 121 94 62
317 223 279 113 89 60
319 222 281 117 91 60
468 697 210 99 75 53
315 377 205 112 88 66
288 195 302 107 88 69
360 842 250 150 118 91
390 472 305 96 4 29
296 199 308 115 94 72
380 547 286 132 10 39
290 202 306 110 91 71
307 294 293 119 85 59
292 203 308 113 93 73
290 207 309 113 93 72
393 622 196 55 34 39
235 527 165 81 34 39
310 886 220 104 74 42
295 202 308 115 94 72
244 567 181 134 17 45
266 377 171 114 93 69
300 197 307 116 94 71
433 886 238 68 59 54
305 197 305 120 97 71
402 430 318 140 26 44
415 920 251 33 32 35
415 487 190 143 11 44
284 462 119 36 32 34
301 201 307 117 95 70
303 204 308 121 98 70
401 690 131 71 56 42
296 462 294 167 15 52
304 207 308 124 98 69
295 217 311 120 97 72
410 467 190 79 22 35
278 711 168 102 19 30
394 427 318 65 29 32
290 223 313 118 96 73
265 437 270 155 6 50
376 547 283 125 8 37
296 221 312 121 97 71
313 495 67 109 11 39
300 317 165 91 76 61
239 777 179 168 113 83
294 223 313 121 98 72
300 212 310 122 98 70
300 217 310 123 99 71
460 706 227 66 52 37
292 914 283 143 111 87
304 212 308 124 98 67
311 197 301 124 98 69
333 135 268 131 28 49
426 903 217 85 73 65
311 202 302 124 99 69
338 410 198 86 72 57
309 207 304 123 98 71
408 429 317 95 47 22
316 197 296 124 97 66
290 312 275 72 57 41
411 442 180 74 28 40
320 197 290 125 99 69
319 202 294 127 100 70
418 473 179 96 11 32
391 942 296 47 41 39
319 207 294 126 100 70
320 207 290 124 97 66
394 462 94 90 28 35
373 712 140 62 48 40
317 202 297 123 97 67
383 536 282 56 21 27
438 470 227 87 14 34
309 212 304 123 98 69
237 717 210 159 109 80
420 687 201 54 39 28
297 424 62 95 61 42
310 217 304 122 96 66
380 461 309 133 23 46
415 712 284 174 116 84
367 770 268 82 67 61
265 292 321 114 88 64
291 447 70 141 0 40
310 222 304 123 97 67
318 212 294 125 99 69
367 787 141 58 46 41
390 932 296 46 41 40
318 217 294 124 97 65
310 342 171 85 75 66
430 847 230 55 48 45
426 498 103 138 32 48
314 217 300 123 97 66
312 217 302 122 96 65
319 222 295 125 98 66
315 222 300 123 97 66
312 222 302 121 96 66
317 222 296 125 99 68
271 342 266 89 72 54
337 400 237 64 56 47
229 547 219 136 90 69
307 212 307 123 97 69
269 512 129 97 33 41
307 217 307 123 98 68
345 752 264 77 62 55
313 471 56 158 8 33
307 222 307 124 98 69
295 702 155 121 11 28
435 502 115 182 18 43
280 652 165 97 20 39
295 227 266 96 79 59
290 237 265 97 80 62
456 899 210 79 70 63
295 237 265 96 78 58
300 227 265 96 79 60
300 232 265 97 78 57
322 357 180 101 85 66
273 357 227 119 82 63
247 556 236 138 87 72
342 639 158 141 11 32
305 227 266 98 79 56
305 232 266 98 78 53
393 708 144 62 47 37
301 824 222 75 49 43
273 362 227 115 82 61
290 242 266 98 80 58
441 732 250 134 100 66
383 642 182 55 31 33
288 938 255 123 97 87
295 247 265 96 76 53
319 435 42 81 30 33
225 527 245 174 119 99
290 252 265 99 79 54
290 257 265 98 78 53
425 932 235 73 63 60
293 460 108 130 0 37
292 942 230 65 62 63
479 930 232 74 65 60
304 373 161 94 82 71
269 592 221 29 25 26
289 447 295 35 25 29
295 252 265 97 76 52
291 413 111 97 52 49
413 622 257 109 84 58
388 617 271 164 114 98
295 257 266 96 76 51
395 881 206 64 56 53
300 247 266 96 76 51
460 717 228 71 56 44
481 893 211 70 60 52
308 449 307 35 23 28
384 839 137 99 77 62
268 449 262 154 17 53
304 242 267 96 76 51
270 833 210 207 148 123
291 452 70 137 0 38
300 257 266 95 75 50
296 436 308 176 17 55
306 252 269 95 74 49
310 807 165 89 70 60
330 812 171 73 58 51
407 691 224 94 25 37
400 747 281 180 131 105
305 257 270 95 74 47
255 517 141 147 6 38
305 823 221 104 75 58
310 227 269 97 78 56
447 482 274 155 18 45
310 232 270 98 79 55
377 880 111 102 81 65
315 327 210 124 92 69
412 682 168 61 47 38
307 234 268 98 78 52
250 811 223 182 134 109
330 412 120 95 79 62
310 237 270 98 78 54
348 404 229 69 59 51
313 232 272 100 79 54
314 232 275 104 82 56
438 505 313 198 128 105
316 232 279 112 89 60
309 252 309 125 98 66
410 421 285 68 50 44
318 232 282 120 93 60
314 516 81 142 11 40
248 547 229 103 50 48
318 237 282 120 93 61
340 963 220 96 92 93
305 424 56 91 72 52
525 882 224 51 41 35
306 242 269 97 76 48
308 256 272 94 73 47
285 727 251 169 15 54
312 253 279 108 84 54
273 278 273 104 83 60
274 722 169 83 25 33
359 828 159 70 59 54
312 257 279 104 81 51
365 427 315 182 7 56
245 812 185 180 122 90
416 514 108 181 11 38
313 242 272 99 78 54
459 939 289 72 60 50
270 282 195 119 92 63
233 534 192 39 29 32
314 242 275 105 83 55
323 270 193 127 102 76
430 414 264 60 19 26
316 242 280 112 88 58
318 242 282 119 92 60
305 952 225 75 70 72
363 496 97 54 35 37
320 247 285 123 96 62
393 731 129 75 56 46
390 737 277 109 35 42
297 419 91 80 36 29
313 250 277 106 83 53
316 252 284 121 93 59
252 527 146 109 18 36
319 252 286 126 97 61
405 478 93 155 9 35
318 256 287 128 98 59
290 227 314 119 97 73
363 414 141 109 62 54
415 432 79 160 7 33
290 232 314 121 98 73
450 447 136 46 28 29
268 311 196 118 91 59
295 237 314 126 100 71
305 227 309 126 100 69
264 337 200 113 89 61
295 762 150 81 32 38
305 232 309 125 99 69
299 232 313 126 100 69
305 237 310 122 97 67
340 392 265 100 82 64
300 237 313 126 100 69
290 247 317 124 99 71
276 692 171 89 26 34
293 436 71 136 0 41
295 242 315 126 100 69
292 862 278 161 120 98
248 538 154 140 8 40
276 277 209 107 85 62
393 607 282 170 123 103
295 247 316 125 98 68
288 248 318 123 99 71
238 547 194 92 28 36
295 257 317 127 98 65
449 437 280 139 16 42
343 580 267 157 14 49
300 242 314 125 99 67
272 662 177 60 33 34
303 248 313 122 95 63
415 912 229 64 58 55
280 387 159 88 78 68
300 257 316 127 99 65
395 909 289 38 37 37
348 409 279 83 72 61
310 542 95 179 8 39
272 308 219 111 84 58
304 252 313 124 96 63
298 420 88 65 17 21
416 717 210 59 36 36
304 257 313 126 97 64
310 227 305 122 96 66
252 596 170 35 31 36
295 271 212 125 95 65
320 227 290 123 96 64
318 227 295 125 98 66
268 567 143 156 0 34
340 397 250 87 74 62
326 377 250 78 61 45
265 832 190 230 154 123
447 494 128 33 32 37
369 482 102 140 0 28
315 227 300 125 99 68
257 403 171 100 80 61
264 633 175 185 3 47
282 448 122 112 7 24
324 372 176 111 92 73
455 496 320 198 124 109
313 229 303 123 97 66
345 932 194 78 70 70
375 413 235 69 55 46
310 232 305 121 96 67
296 437 80 136 0 40
311 965 284 69 64 62
313 232 303 123 98 69
315 282 205 124 96 68
318 233 298 127 99 65
250 742 224 182 130 106
259 617 229 155 108 89
428 800 283 189 129 100
291 296 222 119 92 66
305 552 99 160 15 43
314 242 304 123 98 68
316 242 301 127 99 68
318 247 299 127 99 66
446 414 264 60 19 23
319 252 295 124 96 63
430 452 86 163 4 31
320 252 290 119 92 58
394 813 266 106 77 65
319 257 290 123 94 58
325 947 298 55 52 52
268 352 174 119 94 66
314 252 304 127 99 65
461 457 125 84 33 40
383 629 257 108 50 46
316 252 301 127 98 65
270 332 325 138 103 68
377 509 297 69 33 41
322 893 190 46 42 43
313 440 42 182 9 37
316 257 300 128 98 64
370 467 305 183 13 58
318 255 298 129 99 65
395 417 255 68 50 44
322 272 195 125 99 72
307 366 307 125 99 68
313 358 285 104 86 65
316 287 205 122 96 67
311 247 306 124 97 65
306 252 311 123 96 63
290 807 164 65 55 55
318 287 176 114 91 66
396 671 188 132 49 30
257 466 238 147 9 46
292 699 248 138 11 43
309 257 309 129 101 67
329 552 271 87 26 37
327 134 267 89 52 45
425 692 250 107 84 57
325 138 260 104 60 51
320 412 110 92 77 61
306 414 90 89 70 57
258 427 143 49 36 39
441 803 214 78 63 56
322 139 268 119 79 57
450 496 324 201 130 118
447 441 264 52 32 34
336 132 260 130 34 50
330 133 270 109 42 45
296 442 85 138 0 36
334 132 270 136 17 50
457 456 294 93 6 33
325 388 221 89 73 57
395 542 116 75 29 37
278 502 123 63 34 38
276 359 257 87 70 51
499 891 217 63 55 49
336 132 265 139 17 52
376 842 165 43 37 41
380 415 260 80 70 60
278 487 123 56 38 40
395 706 125 78 58 40
330 138 260 124 76 70
235 537 249 173 121 101
280 377 231 95 68 49
390 417 215 66 41 36
326 133 275 124 84 66
435 512 125 185 19 45
408 798 182 64 52 50
435 428 290 56 26 27
325 132 280 117 82 62
322 287 195 122 98 70
339 707 277 50 27 33
322 396 302 122 96 66
324 137 275 119 87 64
280 757 156 139 104 66
430 917 223 68 62 62
324 132 284 127 97 69
266 466 249 69 26 31
530 842 225 86 69 55
321 137 286 120 93 66
323 137 284 123 93 63
322 142 285 123 95 68
265 492 235 72 21 33
268 463 252 118 22 40
330 131 275 119 42 49
328 130 278 113 48 52
322 147 280 121 95 66
348 550 278 41 26 30
375 829 242 167 134 107
460 428 124 115 15 36
443 501 126 186 18 45
244 652 200 165 117 85
485 929 287 73 58 48
322 152 280 123 97 65
459 745 207 82 61 50
437 726 218 74 57 41
450 498 305 194 124 103
390 771 140 73 57 49
323 156 275 124 97 67
268 643 180 157 5 41
338 130 260 141 34 56
305 367 165 93 81 70
338 130 263 140 25 54
269 332 268 88 73 56
555 922 254 89 72 57
440 447 134 59 26 30
296 882 236 153 114 84
322 162 280 123 96 64
322 166 281 124 97 66
323 171 277 123 98 70
380 468 301 160 18 53
321 172 285 123 97 67
295 492 60 103 25 40
447 431 269 75 29 32
441 905 227 77 65 55
323 172 283 122 97 67
412 729 174 63 47 42
453 761 228 66 50 40
321 177 285 123 97 66
323 176 283 121 95 66
323 182 281 122 96 63
265 327 195 124 96 64
295 282 319 134 99 66
322 187 285 122 96 64
352 549 277 38 26 30
443 432 245 47 27 31
321 192 285 123 96 64
322 197 280 119 93 63
331 458 63 172 4 39
250 587 165 130 22 46
322 197 285 121 94 62
505 879 215 62 57 54
328 379 250 65 53 39
241 572 190 113 14 33
423 587 289 162 113 78
321 217 285 119 92 59
320 232 290 123 96 62
315 727 252 123 23 45
321 237 290 123 95 63
321 242 290 122 95 63
262 268 295 119 98 76
271 267 185 119 93 64
309 382 161 96 83 69
280 817 224 42 37 37
445 437 83 89 38 39
272 277 180 118 92 61
342 938 303 49 47 47
271 277 185 119 93 63
271 277 190 119 94 64
328 885 194 38 35 38
272 282 180 117 93 64
271 282 185 118 93 64
275 262 175 122 95 62
280 272 165 125 96 62
395 502 102 44 36 39
276 267 171 124 96 62
369 626 166 60 35 39
414 422 205 95 51 32
288 430 55 111 16 34
396 693 134 76 62 53
308 347 299 114 91 64
390 418 160 94 24 33
274 272 175 123 95 61
420 692 185 77 49 38
278 267 168 123 96 63
400 419 185 68 24 32
283 261 163 121 94 61
290 662 161 149 4 34
337 474 73 163 5 32
390 757 156 52 47 45
455 727 225 68 54 43
285 262 161 121 94 61
295 297 221 116 88 60
273 261 183 116 92 65
370 877 131 96 76 65
413 448 154 67 28 32
272 264 182 117 93 64
276 277 170 127 97 65
298 293 218 110 84 53
444 450 87 51 38 39
276 282 171 125 98 65
234 617 210 153 109 77
348 782 257 63 52 49
449 452 285 87 15 31
274 287 175 120 95 67
316 458 53 115 24 40
279 282 169 126 97 65
320 477 299 154 16 50
308 337 218 116 86 61
363 730 158 71 33 34
283 278 163 125 94 60
286 282 162 121 91 57
272 273 177 120 92 60
272 281 177 120 94 64
273 288 178 121 96 69
227 556 235 169 121 96
294 447 95 137 2 38
275 802 226 113 91 74
270 292 185 118 94 66
293 604 247 83 35 40
271 297 180 122 97 68
396 662 195 73 37 34
323 772 247 72 59 53
269 292 190 122 96 65
281 427 125 122 11 34
270 302 180 123 97 67
300 347 225 121 87 66
273 347 227 124 85 65
300 358 256 95 76 59
375 951 285 46 42 40
300 355 258 91 75 60
313 304 213 122 94 64
272 302 177 121 95 66
506 878 206 94 82 75
269 302 185 123 97 68
278 419 302 159 14 54
271 317 176 123 96 65
282 482 264 38 30 31
315 420 65 91 75 58
428 542 245 61 30 35
272 307 176 120 95 66
270 307 180 123 97 68
