ply
format ascii 1.0
comment Created by Open3D
element vertex 2200
property double x
property double y
property double z
property uchar red
property uchar green
property uchar blue
end_header
223 773 193 148 99 63
278 888 192 85 72 69
414 444 303 108 12 38
415 488 303 135 12 43
407 438 312 112 0 32
28 783 222 118 83 71
407 438 317 119 4 36
408 448 306 108 4 33
415 439 307 148 7 49
199 773 231 163 124 96
181 740 218 198 136 110
412 448 308 95 12 33
412 443 312 137 9 43
409 441 316 124 8 41
308 909 327 35 34 35
429 415 266 81 26 28
405 456 364 103 44 44
432 415 267 91 28 31
436 415 275 103 33 34
442 415 280 104 36 42
296 890 310 137 100 73
90 750 224 165 117 100
429 415 298 89 21 30
426 496 259 148 14 43
417 415 306 99 17 39
311 872 192 73 69 69
441 447 301 51 28 31
421 415 307 108 12 35
323 610 210 177 9 41
430 415 305 88 22 31
438 415 298 89 30 37
379 769 421 140 112 89
441 415 299 89 31 37
437 415 305 77 30 33
412 798 287 146 102 69
418 418 262 73 30 33
422 416 262 77 25 30
428 417 272 91 27 29
423 419 277 76 27 30
261 876 324 128 98 73
410 500 307 158 12 47
418 422 287 81 23 29
423 419 287 88 20 29
420 420 287 85 21 29
358 698 202 69 54 41
428 417 277 93 24 28
293 813 281 187 139 118
433 416 277 101 30 31
428 418 282 93 23 28
433 418 282 109 26 31
431 448 259 131 11 38
433 448 262 123 9 34
438 423 267 103 20 33
316 608 344 61 26 34
436 424 264 117 20 34
150 664 184 105 85 61
390 569 289 52 32 42
435 428 265 65 34 32
435 433 265 96 17 34
438 428 267 83 26 35
351 848 437 186 134 111
440 433 271 87 26 34
317 867 159 85 72 70
248 934 231 85 75 74
273 703 322 149 17 49
442 428 273 46 32 36
438 417 282 115 33 38
274 888 197 90 78 74
443 417 277 74 33 36
223 728 272 68 29 38
447 418 278 78 28 34
303 953 317 52 46 45
245 523 203 142 4 35
443 416 287 111 36 44
103 718 222 164 124 107
445 433 280 98 27 39
113 713 198 161 109 78
424 759 330 164 110 82
447 433 287 70 30 34
433 438 262 123 9 33
435 438 265 118 7 30
437 443 267 120 7 32
446 437 283 74 29 33
442 443 273 128 13 34
441 448 273 132 15 38
443 448 277 75 24 34
391 508 309 97 10 31
293 798 178 81 61 46
445 443 282 69 28 36
445 440 287 127 19 38
397 597 247 132 24 46
369 901 244 76 69 70
287 615 220 147 9 42
352 762 315 69 57 51
418 422 292 90 15 31
408 728 352 115 90 60
423 418 297 91 15 29
420 420 290 93 16 30
421 421 295 93 14 30
418 418 302 91 16 32
391 516 179 140 6 38
348 853 213 60 50 49
412 498 392 49 25 33
423 416 302 96 15 31
324 865 275 45 40 38
359 897 247 42 34 34
428 416 297 90 19 30
229 913 307 161 129 111
428 416 302 92 20 30
418 423 308 129 9 41
416 421 311 110 17 41
423 418 307 109 9 34
124 701 194 158 107 76
423 423 308 82 14 29
428 418 307 104 9 34
433 417 308 87 15 31
418 463 302 122 11 39
433 423 309 50 23 27
520 858 278 117 92 68
328 898 237 64 60 61
428 428 308 32 26 27
433 428 308 50 24 27
341 916 269 63 59 60
342 572 309 107 0 33
418 438 303 128 13 41
422 438 304 79 18 33
55 750 218 104 91 78
418 443 302 78 19 33
302 764 183 57 47 43
273 693 321 144 14 45
232 583 242 147 19 45
418 448 302 50 28 29
237 713 231 68 29 31
416 434 310 151 8 44
417 437 306 141 8 43
251 565 210 102 30 39
416 436 310 148 7 42
406 891 211 78 62 55
371 777 417 142 111 88
424 437 305 51 24 27
373 673 287 49 28 32
276 840 230 150 100 76
433 438 307 38 26 27
24 783 217 154 108 100
403 743 317 92 75 55
425 447 305 55 29 32
230 792 260 181 139 112
428 448 305 60 23 31
336 675 189 93 63 49
432 416 300 86 23 31
439 416 303 80 31 35
443 416 297 99 33 40
420 518 243 63 23 33
448 418 302 118 28 43
447 428 297 139 24 46
449 423 302 94 28 41
250 797 270 75 62 58
447 428 302 76 28 34
267 830 220 97 75 70
446 432 301 115 19 42
401 501 319 64 17 29
434 419 310 60 22 24
438 424 309 36 28 27
438 433 307 63 23 30
441 420 310 33 28 28
443 423 308 49 26 30
447 423 306 92 29 38
443 428 306 114 22 41
442 433 305 55 24 30
446 426 305 100 37 42
351 571 314 103 8 32
292 936 234 93 89 91
446 437 297 177 16 54
443 438 302 110 25 42
313 814 183 53 47 47
445 443 292 169 15 49
219 753 252 140 109 77
442 443 301 115 22 43
438 438 306 37 28 28
441 436 305 40 26 28
407 424 332 76 20 33
338 683 323 132 11 41
408 428 322 63 21 32
408 428 332 137 10 42
408 425 337 88 14 30
419 463 347 100 27 39
409 427 337 126 12 42
411 425 321 43 31 30
243 733 216 86 43 33
413 433 322 122 15 41
412 430 326 107 16 37
392 452 310 67 5 22
301 913 212 87 81 81
413 432 327 149 14 49
133 688 219 158 120 102
413 432 332 154 15 49
412 428 338 142 13 48
323 893 232 57 53 55
410 424 340 113 13 39
412 424 342 116 14 39
409 426 340 117 15 44
413 428 341 128 11 43
414 433 342 153 14 48
413 425 347 109 20 38
414 427 348 86 22 35
415 429 352 108 21 39
348 944 348 78 66 56
409 438 322 132 11 40
242 749 298 122 35 51
84 718 212 106 90 74
414 438 332 147 14 46
413 443 322 140 11 42
278 633 226 103 18 31
415 443 338 155 15 53
415 439 349 130 6 35
409 448 352 115 2 31
409 444 353 117 4 35
410 449 348 108 0 28
243 824 222 56 48 50
276 882 195 85 73 69
414 429 357 101 22 36
397 528 347 187 10 58
413 430 361 107 22 39
405 444 368 45 25 29
308 565 185 126 30 41
406 442 366 43 24 28
387 773 338 185 132 113
406 448 362 63 18 29
241 563 294 91 25 37
405 448 364 49 22 28
409 439 362 79 5 23
412 437 362 106 8 35
413 436 367 74 12 30
426 546 229 188 21 63
180 722 225 168 122 102
268 788 192 56 47 42
408 439 372 51 14 23
228 723 292 174 2 53
193 758 207 196 132 100
360 920 302 52 43 42
234 943 307 62 47 45
408 439 377 56 10 22
402 443 377 82 11 28
412 467 322 61 18 27
213 729 230 105 80 57
404 443 372 60 21 29
406 441 370 45 26 24
240 961 305 62 57 54
272 868 245 113 89 68
405 440 377 54 14 20
303 802 291 191 139 117
403 443 382 98 8 30
400 784 412 200 133 108
422 448 387 167 13 47
401 448 382 119 5 36
409 440 382 62 6 24
407 441 383 53 19 19
413 434 377 66 14 29
319 886 431 199 141 132
236 687 245 108 21 36
342 713 187 69 53 43
420 433 336 154 14 47
417 428 342 134 10 44
294 807 285 195 143 125
141 661 196 89 80 71
421 430 344 148 15 48
422 433 342 151 14 49
293 703 187 65 47 38
418 433 347 159 15 51
417 433 352 166 15 51
417 434 327 148 14 45
435 723 404 163 114 87
418 448 327 134 10 42
419 442 332 151 15 46
420 473 392 66 28 35
418 448 332 140 11 44
421 434 338 150 14 48
244 663 248 57 35 36
418 438 347 164 14 49
327 773 201 46 38 37
181 729 224 172 122 100
418 448 342 154 14 46
303 942 346 77 68 64
418 453 347 65 25 32
417 443 347 159 14 46
418 448 347 116 11 35
417 433 357 130 12 42
322 873 214 60 56 56
423 429 356 95 9 43
239 693 237 104 21 33
360 534 306 98 13 34
416 434 362 80 17 33
312 957 287 83 78 83
417 438 357 157 15 46
416 434 366 83 22 36
368 743 200 66 51 43
417 438 362 114 17 39
400 891 185 92 78 71
392 563 297 120 28 46
416 438 367 74 29 33
423 763 392 204 133 103
403 904 242 82 71 72
417 448 357 158 13 46
416 448 362 158 13 47
360 688 236 44 36 34
313 958 282 83 78 82
417 434 377 70 26 31
380 716 244 59 48 41
419 438 377 85 26 38
319 712 197 59 41 40
371 815 299 160 117 94
68 765 209 126 91 58
412 498 367 96 31 39
417 443 372 103 31 40
250 951 325 54 51 51
418 443 377 92 27 35
417 448 372 141 14 43
400 455 389 69 29 29
421 442 383 73 29 34
398 458 303 50 13 24
398 463 302 45 16 23
265 913 203 84 75 73
388 453 313 70 6 22
386 452 315 75 8 23
87 732 224 162 125 109
288 745 309 74 60 53
391 457 310 67 3 24
393 458 307 65 1 22
232 883 307 160 115 95
392 463 306 66 1 20
389 464 308 67 0 21
398 453 306 67 5 22
398 473 304 67 11 28
389 468 307 67 1 22
390 468 304 67 0 23
391 468 305 66 1 22
392 473 305 46 16 24
385 474 309 66 0 23
388 478 307 39 21 23
394 473 304 53 15 24
253 908 328 97 82 73
293 598 313 109 2 33
396 476 304 40 18 22
398 478 306 64 16 27
265 858 253 147 111 81
299 931 184 60 54 52
413 453 302 80 18 33
307 883 207 76 72 74
366 804 299 157 116 91
414 458 302 147 13 44
452 858 128 86 79 73
414 462 301 138 11 47
413 498 342 142 18 47
356 710 212 69 52 41
403 449 305 88 3 28
403 453 305 88 4 29
404 463 307 67 12 26
192 678 212 68 55 41
406 458 308 70 10 29
264 617 228 155 1 37
407 463 312 80 4 28
268 878 327 152 114 90
195 777 212 198 138 106
352 847 269 39 35 34
412 453 312 147 13 45
410 453 316 95 3 31
371 890 280 65 58 56
323 904 322 35 32 33
238 803 257 62 53 50
288 613 218 150 6 36
38 764 202 106 90 74
412 453 317 120 16 41
478 873 297 72 56 42
241 565 220 68 44 41
415 457 307 140 10 42
414 458 312 149 13 49
278 608 310 32 26 29
59 800 212 171 103 102
357 694 218 51 41 37
381 719 273 148 5 46
410 458 316 79 12 29
426 858 166 95 82 70
413 458 317 84 15 33
404 468 307 68 16 28
403 473 307 43 22 25
407 468 312 58 17 29
274 771 295 76 63 56
369 579 338 177 13 57
405 474 311 26 25 25
402 478 308 32 24 24
264 836 237 196 138 105
405 480 315 32 30 27
406 476 314 44 22 30
424 760 368 198 127 101
407 478 317 48 23 27
415 468 317 141 11 47
415 473 317 116 10 39
415 479 308 131 15 45
385 483 309 62 5 25
230 518 261 132 14 41
393 488 306 26 25 26
385 493 309 59 20 23
225 578 267 168 4 47
408 468 357 88 17 34
395 564 305 62 30 33
393 493 307 41 22 27
398 483 307 54 18 28
397 493 308 39 22 28
400 489 310 68 18 31
399 493 311 52 23 28
343 873 276 37 34 33
385 498 309 29 25 26
398 885 219 90 76 66
363 548 178 74 34 42
388 504 310 50 22 26
389 508 309 88 12 29
388 508 310 88 16 29
388 513 312 98 11 32
398 498 312 61 21 28
393 898 332 72 58 49
399 503 317 57 21 31
394 513 317 95 9 31
396 506 313 73 17 30
263 802 204 62 51 46
396 511 318 101 3 33
268 863 317 148 118 87
362 528 307 109 17 38
415 491 303 127 12 40
405 484 316 32 24 24
161 694 209 150 98 81
320 885 285 37 32 32
243 877 318 117 87 71
412 488 307 116 23 42
383 783 426 174 130 104
413 483 312 70 23 34
414 488 317 83 26 37
211 741 234 120 92 68
258 698 320 145 13 46
228 903 297 83 71 66
412 493 312 140 16 44
404 513 302 57 24 32
373 964 302 102 83 67
407 512 301 136 19 48
410 500 304 166 8 52
414 500 303 151 5 47
251 545 200 54 36 38
413 503 301 147 7 44
348 892 297 48 45 44
415 504 299 131 7 38
414 508 297 132 7 40
412 513 296 128 4 38
408 513 298 136 12 43
410 510 299 149 8 46
323 618 216 56 32 38
401 496 314 70 21 34
408 503 307 143 14 48
407 508 307 68 22 34
364 955 304 95 74 48
407 513 308 47 30 32
412 498 312 156 14 47
410 503 312 121 15 40
409 563 278 100 28 43
328 633 223 61 28 32
410 500 310 158 13 49
413 498 317 130 17 41
409 508 312 64 28 34
410 513 316 56 30 30
221 743 267 166 129 101
388 807 228 60 47 44
411 513 318 61 28 35
433 453 262 86 20 32
432 468 262 103 16 33
337 695 330 123 12 38
283 863 202 36 32 33
278 598 213 175 3 38
259 612 228 149 4 37
343 548 299 52 25 29
398 753 421 156 121 93
430 473 261 117 15 39
295 576 194 192 7 41
388 738 241 59 49 42
424 717 376 105 88 70
303 788 298 69 55 53
347 577 337 36 29 32
432 473 263 77 23 32
431 478 263 90 22 33
433 478 267 89 22 33
52 773 218 141 99 91
435 453 265 74 28 34
437 453 268 89 20 35
437 458 267 73 31 33
435 728 404 179 125 104
439 463 287 97 28 39
440 463 282 56 27 33
213 814 227 201 142 111
442 453 277 88 28 37
442 453 287 167 15 47
441 458 277 54 30 32
372 607 311 135 21 49
441 457 286 130 19 42
440 460 284 81 33 36
434 468 266 56 28 33
287 852 230 68 57 52
434 473 266 51 29 32
438 468 272 73 29 37
435 479 270 83 32 35
436 476 269 54 31 30
436 478 272 73 26 34
325 602 350 109 44 56
439 468 277 91 29 39
438 473 277 58 28 33
438 468 282 103 27 41
457 726 240 95 71 53
437 468 287 115 29 42
437 478 277 115 29 43
318 618 216 99 24 36
242 643 287 47 27 32
435 474 288 98 29 40
433 478 287 97 27 39
418 453 302 48 25 29
398 768 423 177 125 97
423 453 304 39 31 34
423 458 303 34 28 31
423 463 303 93 13 35
433 458 302 32 26 28
417 463 307 146 8 45
433 888 292 78 62 47
428 452 305 48 25 26
407 468 347 74 15 30
433 453 304 41 26 28
235 700 305 138 7 41
253 798 271 75 61 56
184 668 197 91 73 52
423 468 303 49 25 30
423 473 302 106 12 36
420 473 304 130 8 42
201 770 200 171 115 78
419 478 303 133 6 41
292 649 225 124 13 31
368 553 332 51 28 34
428 473 301 120 13 39
432 473 297 88 22 36
424 479 299 138 5 41
454 878 314 78 60 46
427 477 300 145 10 46
350 853 438 185 129 108
420 468 304 130 9 42
418 468 307 148 7 46
222 723 208 90 71 50
418 473 307 149 6 44
416 470 318 148 13 45
416 472 318 133 11 45
48 760 203 110 93 76
402 758 247 95 71 53
439 458 292 93 26 38
268 883 242 77 66 57
435 460 299 34 28 30
338 887 283 35 32 33
435 463 298 49 26 29
441 452 297 53 27 31
385 799 423 201 141 112
441 451 300 37 27 29
436 467 292 109 28 39
320 857 409 145 94 81
144 668 188 97 81 64
436 466 296 91 32 43
235 883 320 177 132 116
429 488 262 118 12 35
396 562 304 58 27 28
429 483 262 63 22 29
433 483 267 107 16 35
426 492 258 146 13 40
432 482 286 141 20 46
430 484 288 162 17 49
278 960 313 66 61 61
349 935 342 60 49 44
432 488 282 144 18 47
429 488 287 147 16 47
239 918 252 55 52 54
503 857 305 91 70 48
433 483 282 111 24 41
248 533 298 116 20 44
431 487 285 168 15 52
428 747 243 83 64 49
431 493 281 167 17 52
430 490 284 168 16 50
424 513 262 48 29 33
364 821 290 143 105 82
425 500 260 154 16 40
430 498 266 137 11 34
395 515 347 71 23 29
431 498 268 148 14 37
432 498 272 155 18 43
395 514 322 91 14 32
358 822 286 113 85 67
43 764 198 111 91 69
429 503 267 100 18 34
431 501 272 162 15 41
428 508 267 68 28 35
271 544 185 163 9 35
426 513 264 37 30 33
429 508 272 156 18 45
342 679 218 46 42 40
415 493 362 90 28 38
233 783 196 149 99 61
428 513 272 92 25 36
348 878 226 61 50 48
420 510 288 162 18 54
421 508 287 117 19 42
424 504 284 165 13 52
338 628 322 99 31 42
161 698 208 154 99 81
352 848 427 193 131 105
431 498 277 109 23 41
388 718 237 62 49 38
390 772 424 176 127 102
431 501 275 172 16 46
292 883 311 145 108 83
429 503 277 173 15 50
428 498 282 163 16 51
427 503 281 167 13 51
431 496 280 159 21 58
428 508 277 161 15 48
259 781 184 50 44 40
425 514 279 170 13 52
427 513 277 131 20 44
348 836 265 40 33 32
125 709 194 183 122 91
426 507 281 167 13 51
358 953 317 89 72 60
325 900 315 35 34 34
434 488 272 111 24 39
436 482 273 140 20 42
433 493 272 80 25 36
433 902 281 82 69 57
436 482 276 153 22 44
301 909 213 87 81 81
418 488 301 125 5 37
421 486 300 123 3 40
240 622 285 125 23 49
418 893 332 80 63 47
422 493 296 152 7 47
303 812 286 180 131 110
424 493 293 167 12 52
235 602 248 42 32 37
427 482 296 163 9 51
192 753 207 197 133 101
413 883 323 77 60 45
429 483 292 169 14 54
218 739 235 101 74 50
330 777 198 53 42 39
382 757 407 143 109 86
427 488 292 159 14 50
408 882 182 101 76 59
418 503 297 106 14 36
362 700 214 75 45 37
419 498 298 138 9 43
422 497 296 152 11 47
423 498 292 138 19 48
416 501 300 131 6 43
294 868 302 138 100 75
416 507 295 106 12 39
416 512 291 157 11 50
421 506 290 51 26 31
413 453 322 82 20 34
253 803 204 60 52 51
40 765 199 113 93 73
410 454 325 52 28 27
413 453 327 108 10 37
246 646 294 36 29 32
414 453 332 124 6 38
414 453 337 120 5 33
218 728 197 116 85 52
413 458 322 66 19 30
79 756 209 145 97 70
378 793 312 162 115 91
248 668 242 61 34 35
414 458 332 91 9 31
318 943 252 77 69 69
412 463 337 112 0 35
231 524 263 149 2 42
419 478 357 82 26 36
407 463 352 118 7 38
411 452 345 108 0 32
299 899 206 77 72 73
410 453 348 115 2 34
418 767 361 205 133 106
408 453 352 126 8 40
234 957 297 87 83 84
409 463 342 116 2 34
411 462 340 108 0 31
387 527 352 48 27 32
140 684 219 148 110 92
410 468 327 29 26 29
369 723 202 60 46 40
410 469 322 41 21 26
411 468 332 79 13 33
411 473 329 103 5 36
410 474 332 119 2 34
212 804 211 209 136 104
222 815 238 186 137 111
418 725 354 120 97 69
408 478 332 122 4 37
408 478 337 125 5 38
408 473 342 120 5 37
213 803 242 179 135 108
409 468 342 122 5 36
323 619 338 64 34 39
373 887 324 43 37 34
407 453 357 116 7 35
273 837 227 167 110 85
62 752 210 109 90 68
392 755 272 132 101 71
403 453 367 65 23 29
406 458 362 80 18 35
338 584 347 80 7 29
407 463 362 72 19 30
406 463 366 67 17 27
402 458 372 71 20 28
373 842 269 39 32 30
276 531 299 87 15 30
404 463 372 38 26 30
333 838 263 121 88 69
401 458 382 86 14 33
407 473 357 70 21 31
407 468 362 99 12 34
422 773 332 189 123 96
405 468 368 46 23 30
406 473 367 92 14 35
402 468 377 54 22 30
405 473 369 70 24 34
402 468 382 76 17 32
412 763 271 74 57 43
358 769 203 61 48 44
145 665 215 123 101 78
229 923 277 128 103 85
400 504 322 52 24 29
398 508 322 55 25 30
77 768 230 160 122 106
398 508 327 65 21 32
371 781 209 67 52 45
230 703 292 37 29 34
396 512 322 65 19 30
399 508 332 80 15 33
347 693 214 74 59 47
399 508 337 83 17 33
429 753 397 192 129 102
396 512 332 117 2 35
406 488 322 68 18 31
408 483 327 119 4 37
374 544 362 81 16 32
493 872 282 97 76 53
407 483 337 128 4 37
237 623 267 153 5 46
297 833 187 76 65 61
428 873 170 81 68 55
143 693 213 150 108 90
298 743 182 63 50 42
408 508 347 187 10 55
406 488 332 98 10 37
388 913 262 73 62 54
405 493 327 37 28 29
405 493 332 59 23 30
406 491 332 63 22 32
406 491 337 51 18 30
415 488 320 107 27 39
338 893 302 39 35 36
415 493 321 70 25 31
415 495 325 161 20 51
238 888 320 177 133 115
340 825 430 124 97 72
407 483 342 118 6 35
309 877 437 181 129 124
407 483 347 109 11 37
384 519 175 41 33 39
406 488 347 124 6 37
315 945 250 83 74 74
406 491 342 40 26 29
129 673 197 89 79 69
405 490 347 123 5 37
304 679 197 81 42 39
405 493 347 101 9 35
415 495 338 184 13 55
360 668 240 124 21 35
415 494 342 106 23 41
415 493 347 60 28 35
401 502 323 76 17 37
401 502 327 83 18 34
404 498 337 61 21 31
401 503 337 39 25 30
228 698 277 86 28 41
265 853 253 160 117 89
400 505 327 50 25 28
400 505 337 37 27 29
414 498 322 101 21 37
446 876 139 100 85 70
414 503 327 169 15 48
415 498 332 180 15 48
103 713 221 160 122 106
413 503 332 153 15 46
245 961 283 73 69 68
278 783 291 79 64 58
308 663 224 65 34 35
411 513 327 63 29 34
413 508 327 156 19 47
410 508 337 156 19 47
321 705 197 63 40 34
410 510 334 28 24 31
409 513 337 124 24 45
402 503 342 89 15 35
206 778 239 168 127 99
403 498 347 118 5 36
401 502 352 126 6 37
406 512 347 188 8 57
187 749 211 215 146 114
259 663 311 120 17 42
411 502 347 188 13 54
411 502 352 182 18 54
413 498 347 139 21 46
88 723 221 150 117 100
402 732 347 112 89 65
423 758 372 199 127 98
436 747 391 184 124 94
410 505 339 183 15 57
399 514 357 61 24 31
398 513 367 75 22 31
248 962 287 66 60 61
400 509 373 123 15 38
138 677 219 143 112 90
399 509 377 109 7 34
246 930 324 181 140 123
397 513 382 96 5 29
405 483 367 103 10 33
405 488 362 100 12 37
252 697 319 113 13 38
405 488 367 85 20 36
406 491 354 127 6 33
406 491 356 128 7 37
242 548 212 44 35 38
405 490 359 129 7 37
278 738 192 49 40 37
414 493 367 86 27 37
302 848 285 154 116 91
225 719 244 104 30 39
182 663 207 70 57 43
302 931 182 60 54 52
458 865 300 55 45 33
405 483 372 108 13 36
256 704 225 78 28 28
278 965 256 88 85 89
405 488 382 109 7 34
334 904 242 71 64 64
405 493 372 129 10 42
325 693 186 65 45 37
262 868 256 126 97 66
208 758 194 149 102 63
173 683 186 154 101 67
404 493 382 133 9 41
263 845 302 108 85 60
415 489 377 72 30 37
415 490 380 62 27 41
414 493 382 68 35 40
369 733 308 91 13 32
244 797 266 73 61 57
403 503 362 124 10 39
408 502 367 106 27 40
404 502 366 130 12 43
402 508 357 135 13 43
311 763 189 53 45 42
280 938 340 63 57 55
402 513 356 150 20 49
235 874 302 156 114 99
407 508 357 177 21 56
401 514 364 62 27 33
402 513 367 77 28 36
402 510 368 107 28 38
269 795 201 64 51 44
407 506 361 110 31 44
411 501 357 56 30 36
416 487 372 121 30 45
413 498 357 87 30 42
428 870 304 82 67 50
403 503 377 123 9 37
405 498 372 134 9 42
404 498 377 134 10 41
404 503 373 124 13 40
478 874 292 74 58 45
404 498 382 126 7 38
402 503 382 125 9 38
400 510 369 115 23 37
208 698 207 84 68 51
328 813 206 61 51 51
323 723 193 57 45 42
406 507 374 112 37 48
298 688 323 72 25 33
323 853 408 141 97 84
158 653 188 103 87 70
404 513 377 140 25 47
138 683 220 148 115 95
401 740 369 167 117 96
435 716 398 140 109 77
406 512 382 80 27 37
412 498 377 112 29 45
413 498 382 86 33 41
411 502 382 141 26 52
317 696 329 62 26 28
305 945 334 55 49 45
418 452 332 142 12 43
421 454 329 157 12 49
388 832 282 140 93 69
418 458 327 149 14 45
416 463 323 37 28 30
234 523 222 97 32 41
315 955 282 83 79 82
303 943 342 72 65 62
419 453 342 149 15 47
418 453 352 133 17 44
419 458 347 60 23 30
420 463 352 73 29 35
48 773 197 111 88 62
420 473 337 91 23 36
416 478 322 40 29 31
418 478 327 49 30 33
370 763 205 70 53 44
419 478 332 35 27 35
375 610 304 186 12 59
268 759 299 78 64 56
420 468 342 65 28 33
367 572 346 186 5 59
420 468 347 133 19 44
420 473 347 144 19 44
417 453 362 152 13 43
404 758 388 136 79 64
418 458 362 120 22 41
338 563 182 104 32 40
418 458 367 111 16 35
372 818 412 212 140 116
419 463 362 76 30 35
419 453 381 167 15 45
244 747 301 137 35 53
196 688 198 106 81 50
421 450 384 164 14 49
418 458 372 147 15 44
419 458 382 164 15 45
419 463 382 82 29 35
419 473 357 137 20 42
419 468 367 78 25 35
419 473 367 62 32 34
218 783 252 181 136 109
419 473 362 74 28 36
237 955 271 78 73 73
419 478 367 36 31 33
418 473 382 71 27 34
365 678 245 109 22 33
419 478 372 32 30 34
345 580 327 99 2 31
430 869 169 84 71 59
418 478 377 141 20 45
338 677 204 69 52 38
342 923 278 63 57 58
70 735 213 111 95 79
418 483 327 52 29 32
416 488 323 102 28 41
419 483 332 67 30 38
47 758 217 148 113 102
418 488 332 88 24 37
234 868 282 150 118 87
416 493 332 138 18 46
416 493 337 181 14 51
418 483 342 123 21 41
418 483 347 119 24 41
186 750 218 198 137 109
387 900 226 75 62 58
308 942 346 75 67 63
416 488 352 77 26 34
416 491 346 75 36 37
416 496 332 176 17 56
416 496 335 180 16 48
244 703 316 43 28 31
418 483 362 43 30 34
233 743 292 185 7 59
417 483 377 89 29 39
418 483 382 89 29 39
451 419 292 157 25 50
218 748 235 110 82 54
449 423 292 151 24 48
449 423 297 142 26 48
451 421 294 177 22 57
225 743 280 144 5 39
403 443 387 83 8 28
296 848 204 48 43 43
403 443 392 84 14 31
337 857 443 145 102 91
143 663 192 94 81 69
348 623 221 116 25 40
402 448 397 100 14 35
410 440 397 34 22 22
409 444 406 122 13 41
249 523 296 72 24 32
409 448 406 138 14 46
413 441 403 48 19 23
413 443 406 85 20 31
393 754 262 97 74 52
418 438 387 58 23 29
423 439 392 95 25 38
418 439 397 56 20 24
399 895 201 90 77 70
422 443 387 129 17 40
323 903 236 61 57 58
188 723 196 176 114 81
420 445 385 139 18 52
483 864 299 84 64 48
383 543 187 173 8 40
423 448 392 173 14 51
371 714 300 136 8 42
398 749 307 88 70 51
343 803 293 66 54 50
424 443 397 146 17 46
418 440 402 58 17 25
418 443 406 72 25 31
421 440 401 51 30 29
421 444 405 128 29 45
118 703 197 151 104 70
400 455 390 81 26 33
400 458 390 83 22 35
401 458 392 94 11 35
400 462 391 93 12 30
248 958 262 77 73 74
406 464 399 121 12 43
393 773 424 180 127 99
405 452 401 80 22 31
310 881 435 181 125 116
407 453 403 78 20 30
408 458 402 58 22 29
403 523 302 45 25 32
409 452 405 118 18 40
413 459 404 93 17 34
298 648 321 113 26 43
413 457 405 145 16 45
333 548 173 116 28 41
225 708 257 80 30 39
385 787 326 186 130 107
413 463 403 95 15 34
401 468 392 63 23 27
429 712 387 103 86 69
402 473 392 92 12 34
406 469 399 143 12 44
403 478 392 101 9 34
404 478 396 123 8 38
369 783 413 136 102 79
413 478 398 172 12 54
413 472 400 166 15 52
399 513 386 103 15 34
373 643 257 63 30 34
405 488 395 135 11 40
264 894 227 50 44 45
408 488 396 157 14 48
403 493 387 128 9 40
349 850 270 39 35 35
379 887 273 62 52 49
405 493 395 142 15 45
303 828 282 162 117 92
415 489 394 146 17 52
240 573 295 111 23 40
403 498 387 118 8 36
208 748 236 140 108 82
402 503 387 130 11 40
380 774 320 166 122 102
405 497 395 87 22 35
408 503 392 90 27 39
222 742 257 141 112 81
404 508 391 117 22 42
224 563 272 124 18 44
407 512 387 118 32 46
120 720 200 206 130 104
404 512 390 59 26 33
407 508 391 116 32 46
406 511 390 51 30 30
353 668 236 72 31 33
411 502 387 66 27 34
382 724 203 70 54 43
288 788 293 58 47 47
410 505 387 109 30 48
420 455 385 166 14 41
420 459 386 159 16 47
420 463 387 63 24 33
118 703 220 169 127 111
421 458 388 163 15 44
394 876 220 76 59 54
422 458 392 165 15 48
421 462 389 80 25 36
235 529 281 64 26 31
422 463 397 160 15 50
273 713 322 174 16 56
420 454 404 73 16 28
422 453 402 152 18 48
417 457 405 149 15 52
422 458 402 149 13 49
115 685 207 111 92 73
437 743 392 181 123 92
393 903 252 79 72 73
379 814 231 63 52 49
418 878 172 94 75 66
421 462 401 172 13 55
131 672 195 93 81 70
420 468 387 51 30 36
420 469 391 44 28 31
419 469 398 164 15 51
371 940 349 106 92 81
418 478 387 42 28 30
248 818 252 73 59 55
419 478 392 84 23 36
417 467 401 171 13 55
418 483 392 130 23 48
417 488 392 57 24 33
405 798 267 93 67 46
417 482 396 181 12 59
33 768 202 102 86 70
35 765 206 113 92 73
230 544 276 110 23 41
248 844 307 125 103 82
38 763 207 121 95 78
48 758 207 103 91 79
43 762 202 103 89 76
33 793 229 153 111 105
42 761 207 113 94 77
45 760 204 102 89 78
153 673 217 133 102 81
366 909 265 58 48 47
48 761 201 114 94 72
38 768 210 140 97 90
323 828 178 69 58 54
44 759 212 130 106 89
45 763 215 168 118 115
205 703 200 108 82 50
374 559 191 48 36 38
45 766 215 163 112 109
308 926 344 42 39 39
48 768 217 159 108 104
317 932 238 75 67 69
367 838 223 58 47 45
47 763 218 175 122 118
63 743 222 114 97 81
227 754 194 123 87 51
58 752 212 102 90 78
63 748 212 108 89 69
394 768 424 174 125 100
298 518 173 134 6 30
61 747 216 102 89 78
58 748 222 108 90 73
350 848 439 186 135 114
398 771 266 94 69 49
266 764 178 74 60 51
60 745 219 106 91 78
357 647 238 88 23 35
60 745 222 107 92 77
323 863 273 44 39 37
53 757 207 106 92 79
264 817 265 178 127 107
51 768 199 101 82 64
54 768 202 104 84 61
401 764 283 83 69 53
383 773 332 180 131 111
57 759 204 106 88 69
294 970 283 60 58 59
63 758 208 103 84 63
183 683 188 131 91 54
339 853 202 59 53 52
58 769 204 106 84 59
403 728 362 130 100 77
64 768 206 116 88 57
372 948 367 82 68 56
53 754 212 103 91 80
333 879 417 212 146 129
49 758 221 167 120 113
294 837 218 54 50 50
353 943 337 94 79 68
302 961 253 84 79 83
388 778 337 188 133 111
49 762 220 179 124 120
50 766 220 170 116 110
63 753 209 109 88 63
55 750 225 129 99 81
377 713 208 73 51 42
63 748 227 133 109 91
374 703 257 68 29 35
400 820 256 68 55 47
55 762 225 188 130 125
48 793 221 121 79 72
359 739 318 127 13 42
240 612 248 38 33 37
56 768 224 153 106 99
348 614 216 81 33 37
320 600 342 40 29 26
128 693 191 137 97 59
325 756 320 78 62 58
290 840 198 55 47 47
358 794 206 60 50 49
126 673 207 105 89 73
108 689 207 107 89 71
217 713 203 94 74 52
113 688 212 122 101 81
98 703 207 103 86 68
113 693 197 106 86 62
263 698 222 61 34 33
107 693 202 97 81 65
106 691 206 105 88 71
367 557 184 167 27 51
109 689 202 97 82 68
350 691 319 120 2 35
109 698 198 108 85 59
106 702 200 110 87 62
360 560 185 192 9 41
104 693 212 118 98 78
102 697 213 120 100 79
332 863 442 145 99 90
426 522 268 109 33 43
104 699 216 128 105 83
422 553 232 147 25 52
103 703 217 137 110 88
196 734 195 170 108 74
435 750 381 191 123 94
112 691 214 132 108 86
108 698 217 139 111 91
107 702 219 149 117 97
253 553 298 108 1 31
230 903 278 155 120 96
113 698 218 154 120 102
110 700 220 155 122 103
119 684 199 97 82 65
125 672 204 98 85 72
323 802 295 51 42 43
271 888 202 78 69 65
125 673 205 99 85 72
122 687 196 109 87 60
127 682 196 99 82 63
125 680 199 91 78 64
125 685 194 106 85 61
118 684 212 121 100 81
123 682 212 125 103 82
427 762 362 198 126 99
121 686 214 134 109 89
253 964 292 67 61 59
124 684 215 137 110 89
46 769 214 148 100 95
128 683 217 143 114 94
117 692 195 112 88 61
117 699 195 130 95 61
119 697 194 131 96 59
123 693 193 123 92 56
120 690 194 112 88 59
310 753 191 53 42 43
122 700 195 148 102 67
128 698 193 159 105 71
430 750 365 188 120 92
118 699 220 167 126 110
127 694 219 166 125 109
121 700 220 170 127 110
323 805 294 49 39 41
124 703 219 169 125 107
172 703 218 157 113 93
283 573 307 102 16 36
128 698 219 168 125 106
242 573 221 143 10 40
381 726 245 47 37 32
318 902 312 39 34 33
72 733 212 108 92 77
67 788 203 159 106 86
183 699 192 149 98 63
70 735 217 118 99 80
73 733 221 132 109 90
410 518 206 139 6 35
79 724 212 107 91 74
390 610 260 73 20 36
79 724 217 121 101 83
80 725 220 129 108 88
235 660 266 75 30 36
78 728 221 136 111 92
74 729 213 110 93 76
74 729 217 121 101 82
88 718 206 101 84 66
95 710 204 103 84 63
88 714 216 120 100 81
88 719 220 140 112 93
232 523 267 147 7 42
333 629 323 164 32 58
195 761 204 182 122 87
91 711 212 108 90 73
94 709 216 122 101 80
92 717 219 139 111 92
93 719 220 151 118 101
249 928 228 83 72 70
83 723 207 102 86 69
83 728 206 121 93 65
87 723 205 118 92 63
88 728 205 139 101 69
212 793 243 170 134 107
90 728 204 144 102 72
93 728 203 151 105 75
90 733 204 153 107 78
197 758 201 172 114 78
81 721 218 122 103 84
326 853 158 100 86 78
80 725 209 102 87 72
83 728 222 150 119 101
88 728 223 159 123 107
84 735 225 159 124 108
88 734 225 163 126 109
94 733 224 164 122 105
411 572 241 184 11 53
68 743 208 115 92 69
376 698 286 115 23 42
73 743 207 138 101 74
354 811 290 40 35 34
78 743 206 151 105 79
225 710 275 36 27 35
78 748 208 158 108 82
68 738 212 107 92 78
65 740 217 116 99 83
353 568 362 51 27 30
67 737 217 116 98 82
68 738 222 123 103 85
67 742 224 124 105 87
369 790 409 124 89 67
362 553 309 63 21 31
73 738 223 137 112 94
68 748 209 147 106 81
384 743 252 57 41 41
243 668 247 45 35 36
427 728 362 113 89 61
393 878 306 61 54 54
72 752 209 156 106 81
322 928 242 80 71 70
78 737 224 149 119 101
233 821 218 194 125 91
78 753 209 153 103 77
365 697 241 83 34 34
369 648 292 89 23 38
68 758 210 110 84 53
65 762 210 110 87 58
336 932 287 78 71 70
68 763 210 120 89 58
338 673 191 92 63 46
231 717 235 52 33 43
78 763 211 174 113 89
77 768 213 174 112 89
80 765 217 200 129 110
373 603 217 95 32 41
80 764 222 193 133 113
83 738 205 152 106 78
88 743 205 157 106 78
431 752 257 79 61 47
89 739 204 154 104 77
93 738 204 157 105 78
374 818 226 65 53 50
93 743 223 167 119 102
90 750 211 203 132 115
93 748 217 198 131 110
317 602 322 92 1 28
95 745 211 206 134 112
91 751 218 201 132 113
93 748 222 169 118 101
188 678 215 85 69 52
354 932 316 74 51 60
89 753 222 174 121 103
83 758 212 186 118 95
85 755 210 180 112 89
301 916 339 46 42 41
84 758 222 189 132 116
81 762 213 197 124 103
68 744 226 133 110 91
68 753 229 157 127 113
73 748 228 150 122 105
319 718 335 38 27 31
74 740 225 141 114 96
323 668 222 69 39 43
79 739 225 150 120 103
153 678 181 121 91 53
78 743 226 149 120 103
203 743 235 146 114 90
358 879 226 51 43 41
78 748 228 155 124 106
65 758 230 159 121 110
289 970 288 61 56 55
378 898 222 80 68 66
202 758 196 157 106 66
203 728 193 145 96 62
313 676 208 79 42 39
73 754 230 158 125 109
64 763 230 159 118 106
384 897 222 80 68 62
385 610 289 95 41 54
68 763 231 153 119 105
188 738 203 199 128 98
68 768 231 151 119 106
73 763 232 160 126 111
375 867 251 50 39 40
73 768 232 158 124 111
83 738 225 156 122 106
283 578 308 77 25 36
83 743 226 157 123 106
83 748 227 160 123 104
323 578 311 99 6 33
88 748 226 162 118 101
90 739 224 164 122 106
90 741 224 164 121 104
318 790 199 51 45 43
91 744 225 164 120 101
333 658 227 45 36 37
270 889 204 68 61 59
365 961 315 102 85 73
86 756 225 168 120 103
395 515 337 94 6 37
104 708 199 124 93 57
96 707 205 100 83 65
102 708 201 116 90 59
103 713 200 135 98 64
317 785 304 73 60 57
384 778 398 128 79 61
103 718 200 153 104 73
108 708 198 136 98 62
113 708 197 156 106 72
390 535 362 75 27 36
109 720 199 176 115 87
114 718 199 180 117 90
108 714 200 162 108 78
237 518 282 63 25 30
98 713 220 151 117 100
104 709 220 153 119 101
303 883 192 83 80 82
98 718 222 160 123 106
105 705 220 151 118 97
108 708 221 161 124 107
108 713 221 164 123 107
326 850 160 105 90 78
508 859 282 118 92 65
113 708 221 167 126 109
269 787 187 54 46 43
356 930 318 59 45 46
113 713 220 165 123 106
112 718 220 165 119 102
130 710 214 173 119 100
342 747 326 61 30 33
419 778 327 192 124 98
98 723 202 151 104 74
373 623 297 188 5 59
371 944 373 81 68 57
98 733 203 164 110 82
104 735 207 204 129 109
105 723 199 167 111 82
113 723 199 191 123 98
389 583 292 111 29 46
285 699 198 64 34 38
112 727 202 199 125 103
367 954 377 91 77 64
113 728 207 207 131 107
103 728 222 167 120 102
274 803 281 175 128 110
98 733 223 165 118 101
103 733 221 168 119 101
110 725 219 170 119 101
108 733 212 187 120 99
247 895 319 146 106 91
110 730 212 180 115 95
118 713 196 173 116 86
118 718 197 193 124 98
123 708 196 172 116 82
123 713 195 196 128 100
237 573 227 158 10 41
128 708 193 189 124 95
123 717 197 207 130 107
211 772 244 162 124 94
128 713 197 210 131 103
126 716 198 210 128 103
127 717 202 210 133 109
353 823 201 61 51 47
124 719 207 188 122 96
379 514 170 165 4 35
158 673 181 120 89 53
127 717 207 183 121 97
118 708 220 167 124 108
381 963 385 99 85 73
118 713 218 170 121 104
117 712 220 165 121 105
114 718 219 170 119 102
386 527 347 63 24 30
127 711 216 171 118 100
123 708 218 171 124 104
403 728 407 126 103 79
121 706 220 170 125 107
298 773 303 81 64 58
128 708 216 169 119 100
123 718 212 170 115 95
273 578 202 184 6 41
385 609 293 113 24 44
226 913 287 164 131 112
121 716 215 166 115 96
126 716 211 167 114 92
118 723 202 204 129 105
121 721 203 211 133 108
121 721 207 196 127 104
121 721 211 171 114 92
278 758 188 56 46 42
369 614 308 186 10 58
97 738 204 171 112 87
97 742 207 192 126 106
101 736 204 184 117 96
220 816 235 189 139 112
102 737 207 202 130 112
270 917 329 148 115 94
97 743 212 206 133 114
378 598 312 134 21 48
100 740 212 207 131 115
228 898 292 125 90 80
103 738 212 204 130 111
290 762 184 62 47 41
253 844 297 98 79 58
100 740 219 172 116 98
102 737 220 169 118 101
96 746 218 186 122 104
201 685 207 77 64 50
298 688 172 74 57 49
337 587 337 75 12 28
253 518 187 153 6 39
251 523 190 156 8 39
333 597 204 68 31 37
252 528 191 144 12 40
140 686 189 131 94 55
254 523 188 157 5 39
402 538 327 166 17 51
254 527 189 148 6 39
224 563 252 134 5 36
468 877 297 80 62 51
224 563 257 131 15 42
372 673 262 50 31 35
178 658 202 85 71 56
234 903 272 160 120 95
224 568 252 127 9 37
138 693 217 155 114 96
239 518 212 146 7 36
236 518 216 137 13 38
225 752 276 186 146 122
237 523 217 69 26 35
318 849 167 113 89 82
239 528 212 122 15 35
237 528 217 34 33 36
234 528 222 53 34 38
239 533 212 110 17 34
239 538 213 124 25 42
238 543 217 71 36 40
235 543 223 57 35 38
244 742 305 67 31 37
363 883 277 44 41 41
247 518 197 57 26 33
247 523 197 143 9 38
244 528 203 146 4 36
415 554 220 43 30 38
428 734 243 89 66 50
382 847 252 74 56 50
246 523 200 143 6 33
246 528 200 148 5 38
369 808 301 157 116 91
235 663 262 91 25 39
250 527 193 151 13 42
241 514 210 144 6 37
241 516 210 142 3 34
313 878 427 93 65 52
240 527 209 149 8 41
268 963 252 80 77 81
408 892 197 108 84 68
247 628 246 145 10 39
249 533 197 123 17 39
246 544 205 109 28 41
251 534 195 38 28 33
213 743 193 134 93 58
253 543 197 76 29 37
254 538 193 108 32 41
379 763 407 142 106 85
241 534 210 151 7 41
273 653 227 85 29 32
241 538 210 69 22 33
230 518 228 142 10 36
234 879 307 124 86 71
228 518 237 104 15 34
232 523 226 61 30 35
258 953 327 64 59 58
229 523 232 39 31 36
230 523 228 58 31 37
227 518 247 142 1 38
328 588 198 165 15 41
232 878 298 131 98 77
227 518 252 153 0 43
268 723 320 180 14 58
228 518 257 150 3 44
239 613 286 73 31 37
246 706 225 81 31 32
227 523 247 140 0 37
259 772 177 48 42 42
228 528 242 145 0 38
68 788 212 192 129 114
228 523 252 147 0 41
229 523 257 148 2 42
229 533 232 111 19 37
228 533 237 152 1 41
400 530 300 165 11 51
391 568 297 64 28 36
255 632 239 133 5 34
390 535 370 94 23 30
229 538 232 119 19 39
238 743 297 74 29 39
141 680 220 146 112 92
231 539 230 123 34 49
231 543 230 59 31 36
253 932 228 83 72 73
66 791 203 182 119 107
228 538 237 128 9 38
228 543 237 91 22 36
227 533 247 141 0 38
229 533 257 148 1 43
235 553 224 81 32 37
313 570 310 31 25 28
236 558 284 35 26 28
293 688 197 69 44 41
236 548 221 41 35 40
388 748 243 52 44 37
239 553 217 39 35 40
237 553 222 63 32 37
240 558 218 78 29 39
239 568 223 60 29 36
247 548 206 99 29 36
254 548 198 58 31 33
249 548 203 51 33 37
252 548 201 51 34 38
250 552 204 58 31 31
253 553 202 72 34 38
215 773 251 184 136 109
240 548 214 46 35 40
378 538 347 67 26 34
245 552 209 86 33 40
330 914 245 68 58 58
244 558 213 90 34 42
242 558 216 59 27 37
248 563 212 44 33 38
244 568 217 122 18 41
138 663 197 91 80 70
249 568 213 38 33 37
389 578 292 68 27 36
246 569 215 30 32 38
240 562 219 117 18 40
356 694 315 117 9 37
267 580 205 153 8 37
247 573 216 58 27 35
319 606 209 132 29 44
372 723 302 134 11 42
244 573 218 156 5 41
252 569 210 71 26 34
253 573 212 86 24 38
228 548 237 142 9 40
229 553 237 73 25 34
231 555 235 134 31 47
236 558 225 53 33 29
225 553 252 136 2 37
228 558 242 134 5 33
272 618 309 66 20 29
225 558 256 136 13 42
233 563 232 159 11 41
230 563 238 146 6 36
281 701 211 75 30 32
237 568 226 142 12 41
323 553 303 53 25 27
358 813 211 71 56 51
234 573 232 158 9 42
236 574 230 163 9 39
368 823 422 197 134 108
227 568 247 152 5 37
229 563 242 143 6 35
225 562 249 137 4 34
317 863 177 82 78 79
231 574 240 36 33 37
228 573 247 124 21 41
298 763 306 81 65 58
225 573 253 117 19 40
226 574 251 112 20 38
243 578 222 148 9 39
244 582 223 155 8 40
325 849 409 133 96 79
248 578 217 124 12 36
229 893 297 166 114 100
247 584 221 152 4 37
372 582 203 142 26 44
293 928 182 60 54 52
398 891 291 66 59 56
253 578 213 144 10 38
309 886 302 103 75 55
253 583 217 161 4 40
249 582 218 160 3 38
523 860 272 124 97 68
250 592 224 165 5 40
253 593 222 164 4 39
255 591 219 165 3 37
239 578 227 78 23 34
393 813 228 63 50 43
442 871 133 92 81 70
238 618 277 138 13 45
233 578 237 41 32 35
236 585 235 54 28 32
238 593 237 72 28 35
376 848 270 49 42 38
240 592 234 91 36 42
231 578 242 56 29 36
379 594 313 122 28 46
230 577 244 33 31 36
225 577 257 157 7 45
298 932 185 64 58 57
228 583 252 63 33 37
226 583 257 129 15 43
232 588 247 53 31 36
229 588 253 119 17 40
231 589 250 111 34 48
371 733 305 78 18 29
336 858 432 145 103 90
233 593 247 60 31 35
239 598 238 94 30 38
405 579 232 199 14 52
230 597 258 154 2 41
235 596 244 38 29 32
429 533 232 170 16 54
303 963 297 66 61 60
306 754 314 77 62 56
236 599 245 105 36 47
329 834 269 141 105 83
237 603 246 70 33 38
291 715 174 82 60 52
238 608 247 41 33 37
333 848 422 160 114 105
234 603 252 43 31 36
423 757 377 189 120 93
232 603 257 91 26 39
235 607 253 47 31 35
389 519 316 117 1 33
240 576 224 154 9 42
401 762 275 110 85 59
241 579 225 161 8 44
308 598 206 109 27 40
242 583 226 163 9 42
386 752 413 140 111 87
243 588 227 96 25 39
241 589 230 72 32 37
245 592 228 116 31 47
255 717 214 119 20 32
244 898 258 110 87 67
374 564 343 182 9 58
247 589 225 65 25 33
353 843 213 65 53 51
248 593 227 147 11 40
203 698 218 85 68 50
249 597 228 105 23 37
240 699 310 113 20 41
318 911 338 44 40 39
198 768 202 180 121 86
313 723 331 84 24 36
247 599 231 122 26 43
198 709 226 112 89 69
242 599 236 90 32 41
323 543 298 35 26 27
243 603 237 89 32 40
244 607 238 44 31 36
260 596 219 169 3 37
248 603 232 115 25 40
246 604 235 122 27 43
343 833 437 160 117 102
248 608 236 42 32 37
253 598 226 100 26 39
253 608 232 60 32 37
171 720 205 210 136 111
255 606 229 48 33 35
192 674 202 83 68 52
321 850 166 101 89 86
489 868 283 94 72 49
249 607 234 87 31 39
242 608 242 89 32 41
235 612 258 66 34 39
229 693 252 72 29 37
238 613 252 38 32 37
239 618 253 43 32 35
325 880 225 49 45 46
237 618 257 45 30 35
413 518 292 135 10 42
437 718 392 132 104 74
238 623 257 96 28 40
240 622 254 103 35 43
396 537 335 180 9 56
249 613 238 48 28 37
250 617 239 147 20 45
245 893 259 118 92 65
254 623 238 94 23 38
277 893 325 154 109 88
248 618 242 123 19 39
273 523 178 165 3 39
262 688 225 73 32 33
296 663 224 77 29 31
318 736 330 157 15 52
244 623 248 122 23 43
356 685 228 42 34 36
249 623 243 40 31 37
242 623 252 107 27 41
251 620 240 51 25 31
252 623 241 41 29 35
255 628 238 145 7 39
288 518 173 146 3 32
283 758 302 76 62 55
248 633 247 134 9 39
248 748 302 77 32 40
218 718 202 101 77 53
243 628 252 56 28 34
267 765 294 80 65 58
241 625 255 97 34 45
241 629 256 59 29 34
245 632 249 71 19 33
318 873 442 117 83 70
248 638 247 142 4 37
218 808 207 202 132 102
252 628 241 140 10 39
243 814 210 189 131 104
397 828 257 69 55 49
253 633 241 139 4 36
258 848 282 95 75 53
250 633 244 142 5 41
253 638 242 141 2 36
138 668 192 94 82 69
356 837 418 193 130 104
138 673 191 96 81 66
149 654 193 98 84 70
154 650 193 105 90 74
401 778 420 188 129 103
294 941 345 68 61 56
158 649 192 106 91 75
403 728 372 151 110 90
159 650 189 105 91 78
258 658 308 50 24 32
308 797 296 136 109 92
147 657 191 95 82 69
319 703 197 58 38 33
148 663 187 100 83 66
393 754 292 85 68 51
246 886 260 141 108 76
149 659 188 101 85 67
153 658 187 104 86 66
152 662 185 104 85 64
368 848 272 45 39 35
243 806 204 161 106 73
153 664 183 109 86 57
318 677 211 77 43 40
149 668 184 110 85 55
153 673 181 117 89 53
158 659 183 113 89 58
157 657 185 105 86 64
223 568 262 113 18 38
374 704 208 82 61 50
158 668 181 123 91 54
206 772 239 151 118 89
138 683 190 118 89 54
413 803 297 166 112 80
208 803 212 214 142 110
312 654 224 52 33 32
144 688 189 143 98 61
133 693 191 152 102 64
53 793 223 139 96 88
138 693 191 162 107 73
512 863 292 98 79 60
144 693 189 166 110 78
418 733 413 159 117 88
138 703 191 199 128 97
273 553 186 166 4 39
140 701 189 198 127 97
143 702 189 206 131 100
143 704 192 210 128 98
321 832 170 92 73 63
148 678 183 116 88 53
146 676 185 111 86 55
153 683 182 134 95 56
261 554 195 70 35 40
273 847 297 113 89 62
158 683 182 144 97 60
158 688 184 167 109 74
317 596 314 108 0 32
148 693 187 172 113 80
348 891 324 48 41 39
148 701 189 208 128 100
152 701 193 207 127 96
318 873 451 149 109 99
156 690 185 177 116 83
259 678 228 43 34 37
158 693 185 195 125 97
224 713 252 111 23 42
158 698 192 204 125 99
162 654 188 103 87 71
348 528 167 116 17 36
307 759 313 78 63 57
167 649 193 108 90 72
168 655 189 106 87 66
172 655 193 98 82 64
279 830 280 148 114 88
163 658 183 121 93 59
163 663 181 131 95 59
164 656 186 108 88 64
163 673 181 119 90 53
168 668 181 122 90 55
329 845 409 130 95 79
173 668 182 125 92 55
358 943 328 89 71 56
396 741 414 130 106 81
176 660 193 99 80 58
176 660 189 104 82 54
309 959 297 69 59 57
176 668 184 123 92 55
177 673 184 122 90 51
179 673 186 122 89 52
279 738 188 53 43 38
184 673 192 111 84 51
236 917 261 52 48 50
168 679 185 145 97 63
33 798 206 157 109 95
161 688 184 176 114 83
204 697 200 102 79 49
164 688 185 174 111 81
168 683 186 158 101 68
161 691 184 187 121 93
166 691 188 177 113 82
168 693 191 176 109 81
173 698 190 174 110 78
389 752 262 98 75 54
284 793 182 70 55 43
169 703 193 184 117 86
173 703 192 175 111 79
174 696 189 171 110 74
208 778 242 169 128 99
349 814 426 134 111 90
179 678 186 130 92 53
291 921 208 105 97 97
178 683 186 142 96 60
188 678 192 112 84 47
385 780 221 67 55 50
380 858 262 65 53 54
190 687 190 123 88 54
192 684 193 110 82 49
308 588 311 99 8 33
178 693 188 160 102 69
236 593 287 121 26 45
192 693 192 122 89 52
222 737 233 86 65 45
187 696 189 139 94 61
188 698 192 137 94 58
135 665 199 89 79 68
333 604 348 187 15 61
244 762 183 80 62 43
134 665 202 94 81 68
232 533 262 144 2 41
143 658 197 95 82 70
353 813 412 118 91 65
140 660 202 98 83 68
143 659 207 108 91 74
293 684 212 83 36 33
136 666 196 92 82 71
133 672 213 124 102 80
139 664 211 112 94 76
143 663 212 115 95 76
137 671 214 127 105 82
142 667 214 123 101 79
152 652 203 107 89 71
238 943 312 57 45 44
315 891 297 60 46 40
153 653 206 112 93 74
158 647 197 103 88 72
248 813 208 108 80 68
307 702 329 37 26 28
155 650 205 109 92 74
318 868 275 42 34 32
39 777 198 143 101 83
146 656 196 99 85 73
146 656 203 106 90 74
386 547 341 168 15 54
152 657 209 114 94 75
403 789 332 205 137 106
153 662 214 122 100 77
404 558 216 93 31 38
223 728 227 93 73 60
158 668 215 129 100 78
373 748 203 75 56 47
134 674 215 130 106 83
231 923 309 180 135 116
133 678 217 138 111 89
254 893 242 170 117 89
134 683 220 151 119 98
368 543 177 156 9 37
344 644 230 55 32 30
143 678 219 144 110 90
132 692 220 165 123 105
392 713 232 64 47 39
133 703 216 164 118 99
135 704 214 166 115 96
140 695 214 152 111 91
148 678 218 142 107 87
148 687 216 141 103 83
238 752 292 91 77 71
152 686 215 139 98 79
429 872 164 81 66 50
158 678 216 134 95 77
157 682 215 133 92 75
148 703 197 199 123 97
336 551 174 43 35 40
432 748 397 188 128 97
149 699 208 164 111 92
199 763 198 169 114 75
310 675 202 81 46 35
153 697 207 164 110 91
395 830 252 67 53 49
153 699 202 171 113 93
158 694 208 149 100 82
374 614 303 179 12 56
389 884 224 84 73 65
154 700 197 183 119 93
158 698 202 161 106 87
203 778 202 183 122 87
159 697 206 153 101 83
144 690 214 147 106 88
153 692 211 147 98 81
147 697 211 157 107 89
323 733 332 172 17 57
151 696 210 156 104 87
158 692 210 141 93 76
163 647 197 104 89 73
309 612 214 56 27 34
230 950 289 66 62 62
163 649 207 104 86 69
217 714 221 72 56 40
344 749 323 45 27 29
418 778 322 187 121 93
168 649 202 92 78 64
168 650 207 91 76 62
171 650 199 98 82 66
162 651 209 108 89 70
168 654 211 106 87 68
163 658 213 115 93 71
161 661 214 120 97 75
163 663 215 123 97 74
169 662 214 115 91 69
163 668 215 129 97 77
368 962 312 97 80 66
173 658 212 100 80 60
175 656 209 78 62 44
258 633 237 139 4 36
173 665 215 114 92 70
173 673 217 130 103 81
427 878 171 89 70 54
176 655 202 84 70 55
182 664 193 96 76 54
181 660 202 82 68 54
183 663 202 83 70 56
187 668 202 83 68 53
345 840 200 62 51 53
298 553 176 63 36 39
187 668 207 70 58 44
230 695 249 113 21 37
178 663 213 87 70 53
180 661 209 68 54 36
394 768 394 135 84 64
436 517 227 68 32 35
177 668 215 107 86 64
258 850 278 101 81 58
183 668 212 78 63 47
332 877 447 179 126 112
188 674 211 73 59 43
168 678 217 145 109 89
168 683 217 152 112 92
253 724 319 185 12 59
173 678 218 138 107 86
174 688 220 146 111 89
163 703 198 191 118 92
283 603 311 100 11 34
395 550 200 141 29 45
337 876 436 205 141 126
166 698 214 158 110 88
299 964 256 86 82 86
168 698 216 157 111 90
364 862 226 63 53 52
166 703 214 160 110 89
306 536 170 65 25 27
172 698 218 154 112 93
174 703 220 155 114 95
235 588 276 62 28 34
306 792 184 61 50 48
191 680 194 105 80 52
177 684 220 135 105 85
298 554 305 59 22 28
371 678 254 52 30 34
188 683 217 98 80 61
191 680 215 78 64 47
177 703 194 163 105 70
178 703 195 160 104 70
188 703 193 142 95 61
411 782 262 66 50 40
186 704 195 153 98 64
193 703 193 132 93 56
277 626 314 90 17 35
183 689 220 128 102 81
353 693 188 77 55 39
178 698 222 144 109 89
387 836 271 115 73 58
183 698 222 133 104 83
189 693 219 115 92 72
186 690 220 120 95 76
317 688 177 66 49 41
193 693 218 101 81 62
230 757 280 34 30 37
188 698 221 121 96 77
183 703 224 138 107 87
134 710 195 212 129 103
133 712 207 175 117 94
135 710 208 170 117 95
130 715 208 176 117 94
328 735 195 69 53 45
370 915 294 56 47 44
138 709 197 212 131 104
363 609 216 67 32 36
142 707 197 208 129 99
195 688 196 110 83 51
138 708 207 168 116 93
136 711 202 199 128 99
141 706 206 168 113 91
132 707 215 169 118 99
140 705 209 167 115 96
272 533 180 51 29 35
304 543 169 69 35 36
145 705 197 206 126 102
165 707 198 196 124 96
169 712 198 196 124 95
164 708 207 175 116 93
165 711 203 196 128 102
166 710 201 200 126 101
165 711 207 177 117 92
359 866 214 84 72 70
169 717 203 205 134 105
173 718 202 203 130 103
169 713 216 169 117 95
377 787 218 53 43 39
364 829 217 60 52 49
175 707 220 159 116 96
169 718 212 178 120 98
303 743 182 85 64 48
172 718 218 172 121 98
286 577 309 136 10 41
175 726 204 215 140 114
170 721 212 190 128 105
403 782 342 210 141 113
174 728 212 206 139 111
174 728 217 184 126 104
175 731 209 222 149 118
67 792 217 187 125 110
410 568 247 132 19 45
175 731 212 214 145 114
178 708 194 166 106 71
178 713 196 175 114 80
398 558 312 40 29 34
184 713 194 162 105 70
179 717 198 187 122 90
374 558 357 191 10 57
280 786 290 78 62 58
183 718 196 178 115 82
178 719 201 196 127 95
188 713 193 154 100 65
389 758 312 115 86 68
246 633 293 156 11 48
193 713 193 145 96 62
309 757 315 77 62 56
238 623 277 153 6 47
322 947 258 83 74 73
326 901 319 33 31 32
184 716 194 167 108 73
189 717 194 160 105 69
178 708 222 156 116 96
178 713 222 160 118 99
258 758 297 83 67 60
183 723 198 187 121 89
176 726 204 213 138 111
179 725 205 208 134 107
182 723 202 197 129 96
382 548 367 87 29 40
183 728 202 202 128 100
227 913 282 165 128 105
343 853 198 57 52 50
422 734 342 104 85 63
264 868 253 141 110 81
178 733 207 220 145 115
183 733 203 207 133 103
181 734 205 214 140 109
258 783 197 48 44 45
190 722 194 166 109 73
191 725 195 171 109 75
192 728 195 176 112 79
