ply
format ascii 1.0
comment Created by Open3D
element vertex 2229
property double x
property double y
property double z
property uchar red
property uchar green
property uchar blue
end_header
354 338 285 124 93 60
264 805 181 178 117 85
358 338 282 121 93 59
422 478 278 108 10 33
359 347 285 112 89 61
357 348 287 113 89 60
343 718 157 96 74 57
207 609 308 125 93 78
363 338 278 120 94 62
313 548 153 176 9 40
369 343 274 126 100 69
284 413 285 91 67 48
362 344 281 114 90 61
368 348 278 123 97 66
363 348 283 115 91 63
364 353 284 117 93 65
362 354 287 116 92 64
372 577 199 190 14 46
268 953 303 178 137 120
366 350 281 120 95 65
308 928 309 56 51 50
422 483 278 83 23 32
369 353 279 124 98 67
410 920 296 78 65 60
375 323 258 125 97 64
348 763 335 54 48 47
374 323 263 127 97 65
374 328 263 127 98 65
372 323 267 128 100 67
303 388 279 84 59 41
516 866 264 98 78 63
370 333 270 130 103 71
377 921 274 63 58 60
376 334 262 128 99 64
257 433 280 132 100 75
373 338 268 130 102 69
371 339 271 128 100 69
375 338 265 130 101 66
375 342 265 129 102 69
308 544 358 107 57 53
373 787 219 65 54 51
374 348 269 128 101 70
372 348 273 128 101 70
311 892 209 41 38 41
373 353 273 128 101 69
418 812 258 66 54 48
240 705 255 111 13 39
370 367 285 118 93 63
341 510 300 90 26 37
225 656 205 195 130 103
376 338 258 122 96 64
232 558 233 161 1 49
376 338 262 128 100 66
407 674 303 131 84 65
377 343 258 123 97 66
377 343 263 127 99 67
265 603 277 104 20 36
378 348 258 123 97 65
379 353 258 124 98 66
376 349 266 127 100 69
377 353 267 128 100 68
308 423 299 62 30 33
378 723 216 60 46 41
354 352 290 117 91 60
365 357 285 119 94 64
390 830 285 45 34 30
366 359 286 119 93 63
364 363 289 118 93 63
390 498 364 167 1 52
271 491 279 38 24 25
374 358 273 127 99 67
380 358 258 125 98 65
379 358 263 126 98 63
303 563 162 158 16 40
378 358 268 127 99 67
376 359 271 128 101 67
381 364 258 124 98 66
428 648 280 110 89 65
288 468 291 59 20 28
322 425 301 86 26 32
319 488 286 47 26 29
267 808 249 70 58 54
381 368 262 125 98 65
380 368 264 126 98 65
377 363 272 125 98 64
393 438 383 144 18 48
318 427 301 117 14 39
377 368 273 123 97 65
372 358 278 123 97 67
377 578 352 95 26 40
397 593 263 126 25 44
393 488 358 161 4 51
371 364 282 119 93 63
372 368 283 120 94 64
275 445 280 75 24 35
383 373 258 123 97 65
389 608 253 60 33 37
382 373 263 125 97 64
380 373 268 124 97 65
298 567 338 98 49 47
381 374 266 124 97 64
383 378 258 124 98 66
383 378 263 125 98 65
384 383 263 125 99 68
248 808 184 189 126 94
379 378 273 120 95 65
297 733 329 125 26 48
381 378 268 123 97 65
343 443 307 115 4 34
365 585 201 36 37 36
380 378 270 123 97 65
382 383 268 122 96 65
405 446 262 69 26 29
380 381 270 121 95 65
375 373 279 119 94 63
375 377 279 119 94 64
341 536 300 112 0 32
358 847 287 36 32 31
375 382 283 119 93 63
327 888 287 130 102 84
356 355 291 119 94 64
277 835 217 64 56 55
359 357 290 118 93 64
323 813 183 73 59 50
283 598 293 124 5 39
408 733 317 163 116 85
355 366 295 124 97 64
358 363 293 121 95 64
357 369 296 126 98 65
422 640 290 108 90 71
363 368 292 120 94 63
362 858 177 92 76 64
418 948 322 93 78 63
365 367 290 119 94 64
338 803 162 101 78 62
230 671 183 195 129 103
358 373 297 126 98 64
375 508 379 171 10 54
254 693 282 123 1 37
358 573 373 119 27 45
358 378 298 128 98 64
326 435 300 124 4 35
363 373 294 122 95 62
366 370 291 119 93 63
249 767 165 172 115 79
361 374 296 123 96 63
298 643 313 40 29 31
368 383 293 120 94 63
380 538 359 178 9 57
363 383 297 125 97 63
394 906 270 87 75 75
370 377 289 118 93 63
406 826 281 57 42 34
370 381 290 119 94 63
238 728 258 171 0 50
359 683 218 71 43 37
261 948 246 67 61 60
371 384 291 119 93 62
258 388 288 139 103 79
323 554 157 134 18 41
303 748 188 91 23 31
258 393 288 139 101 78
463 848 282 78 64 49
382 443 392 164 9 52
258 398 287 138 101 79
256 399 285 138 102 78
233 543 213 127 15 39
422 423 274 125 9 34
326 942 215 77 72 74
256 403 285 138 103 79
274 773 282 80 64 58
259 408 286 138 101 79
303 708 198 62 29 34
263 403 288 133 97 77
258 413 284 139 102 79
263 413 286 133 96 75
259 827 223 107 71 65
296 911 216 58 53 51
358 498 398 40 27 31
268 413 287 125 90 70
493 868 278 90 75 59
273 413 287 118 84 65
248 783 172 179 119 84
400 578 243 150 21 48
288 393 287 95 70 51
287 398 286 90 69 48
388 533 179 59 35 40
289 398 285 84 65 44
367 863 219 63 60 62
381 469 310 90 10 32
342 607 204 85 28 37
278 408 288 110 81 61
338 878 282 43 38 36
385 434 356 86 15 31
278 413 286 109 80 60
282 408 286 98 73 53
423 693 248 98 73 50
288 403 284 83 64 44
286 401 286 90 68 48
251 663 243 69 33 39
285 408 285 91 67 49
251 920 290 184 133 117
288 408 284 83 63 44
282 413 286 98 73 54
261 385 290 141 102 80
261 388 290 139 101 79
262 393 290 139 100 79
349 638 227 72 29 34
415 777 246 70 55 47
268 388 293 139 99 79
273 388 293 135 96 76
273 397 291 124 90 71
313 628 203 165 0 37
303 579 306 115 0 36
338 683 326 118 14 39
379 463 388 157 13 51
273 399 290 120 87 68
327 868 182 64 54 52
268 403 289 126 92 72
349 883 163 97 78 71
226 622 291 129 86 75
273 403 289 118 85 67
278 388 292 126 90 72
279 394 290 113 82 64
276 396 291 118 86 67
278 398 290 112 82 62
282 387 291 116 84 65
363 453 434 143 16 49
283 393 289 105 76 58
308 573 168 77 37 42
438 884 308 74 60 47
282 391 291 114 82 64
258 418 283 137 101 79
399 478 308 48 26 33
258 423 282 137 100 79
256 424 280 139 100 79
232 783 193 167 120 87
248 518 253 57 28 32
264 417 286 131 93 73
263 423 284 131 94 74
259 428 282 136 99 77
259 433 281 133 98 75
263 433 282 127 93 71
268 418 286 124 90 69
268 423 285 123 88 68
250 756 271 76 25 33
274 419 285 114 83 63
273 423 285 114 82 61
353 738 197 51 43 42
268 428 284 121 88 66
268 433 283 119 87 65
429 763 303 177 118 86
273 428 284 112 80 59
331 715 179 70 51 48
382 388 273 119 94 66
418 688 268 102 68 62
257 438 280 77 53 44
258 448 279 87 22 37
262 445 280 53 26 28
273 713 308 77 24 38
287 768 295 83 66 60
268 443 281 33 28 27
268 449 280 32 27 28
268 446 281 31 27 27
273 443 281 47 34 30
383 888 278 59 54 51
345 965 270 68 62 63
363 503 311 33 26 27
333 468 298 132 5 42
308 853 227 96 71 58
273 446 281 46 28 32
433 904 283 91 75 65
273 448 280 49 29 31
404 473 298 131 17 45
388 643 325 189 130 100
280 836 227 53 42 51
278 419 285 105 75 56
278 423 284 104 75 56
394 583 293 160 9 48
278 428 283 102 74 53
283 418 285 92 68 48
289 418 286 78 58 40
369 900 243 64 57 59
286 423 285 74 55 38
289 423 287 81 52 38
409 538 213 181 18 49
386 499 320 93 14 33
283 428 284 86 63 44
368 443 423 139 14 44
257 908 300 153 112 94
289 583 343 165 108 100
286 428 285 72 52 37
288 428 288 88 43 37
345 743 177 59 45 41
286 431 285 78 49 37
278 443 280 68 38 33
278 448 280 48 26 29
402 813 238 67 54 50
254 593 263 41 29 31
280 447 281 66 19 30
339 728 183 64 51 42
283 438 283 82 55 40
295 628 311 55 27 31
211 622 276 134 110 85
394 448 357 41 30 32
273 496 286 132 0 40
257 474 270 38 28 29
285 434 286 85 48 39
282 443 280 76 45 37
283 448 283 85 20 32
368 883 289 41 38 37
286 442 280 80 40 39
413 802 248 69 56 49
388 463 304 105 5 37
416 536 274 158 11 41
373 909 293 34 31 32
286 442 283 75 27 33
239 653 148 126 96 65
355 875 152 108 80 66
387 804 220 67 54 51
285 444 287 71 27 33
360 458 404 107 5 33
284 448 288 49 28 31
288 443 293 107 16 37
303 658 317 90 21 35
285 445 291 87 18 30
285 449 292 58 29 31
288 448 294 95 18 34
292 387 286 98 71 53
293 393 284 83 62 42
366 488 417 81 22 35
303 398 278 67 49 29
203 619 333 121 85 72
298 398 282 69 51 32
501 838 238 80 75 75
207 620 322 103 74 59
339 488 302 132 1 41
300 396 280 71 51 32
362 546 315 49 25 30
293 403 282 71 55 36
313 753 332 125 27 50
294 413 286 70 53 35
358 558 178 78 32 39
307 832 210 48 41 42
294 410 286 69 54 35
298 543 283 35 27 27
298 403 282 65 48 30
298 408 283 62 48 30
303 403 281 64 47 28
256 721 200 82 55 45
303 408 283 61 46 28
302 411 285 60 46 29
303 413 288 61 48 32
270 493 283 108 16 39
310 392 259 59 48 36
309 388 273 66 48 31
427 428 283 101 25 38
290 557 165 136 13 37
310 392 269 62 46 31
382 906 290 33 29 31
311 393 268 62 46 32
313 493 282 72 23 32
312 398 268 61 46 32
319 388 258 94 66 51
343 798 322 71 62 59
319 388 263 96 67 52
320 398 268 102 70 57
319 393 263 99 68 55
319 388 268 101 68 55
383 935 326 48 42 38
320 388 273 105 69 57
253 792 243 77 61 55
320 398 258 93 66 54
319 398 263 99 68 56
254 643 213 93 56 46
388 433 338 122 11 37
419 523 278 82 28 39
307 388 276 76 54 37
307 393 276 69 49 32
310 397 274 66 46 31
428 689 263 111 80 50
315 402 258 59 49 40
318 403 258 71 56 48
200 626 304 172 117 97
319 407 258 70 56 48
418 427 296 38 29 28
363 513 378 79 20 31
319 403 263 85 62 51
319 407 263 72 55 46
312 403 273 62 46 30
338 968 278 69 62 62
200 641 315 208 137 119
314 408 273 61 45 31
343 969 263 70 65 66
319 408 268 75 55 45
303 898 303 157 119 91
318 410 272 74 53 42
232 523 213 65 31 38
422 644 311 134 101 63
242 523 188 68 28 38
311 403 276 63 48 29
328 723 163 62 47 40
364 903 238 62 56 60
310 406 279 65 48 29
308 408 283 61 46 28
280 673 301 154 5 48
384 433 353 86 16 32
311 409 282 61 45 29
270 938 230 67 62 65
391 454 329 79 27 38
318 412 274 58 44 35
292 638 310 60 29 34
318 413 278 55 43 32
317 415 287 53 40 29
375 728 315 99 23 38
303 415 291 63 49 34
277 902 241 113 90 64
375 925 281 60 54 54
412 415 269 118 22 31
319 965 315 64 57 55
307 415 291 60 47 32
273 928 228 67 62 64
225 632 313 129 89 80
311 415 291 58 44 29
358 388 300 132 101 68
293 418 288 69 51 34
255 648 266 161 4 49
358 613 343 173 122 94
318 417 288 50 39 28
290 428 291 117 25 39
339 803 160 88 66 49
353 878 158 108 85 73
291 426 290 106 30 37
231 631 282 125 82 70
289 433 292 110 23 38
294 433 296 94 15 33
380 448 333 106 46 48
296 421 295 100 29 36
303 417 294 62 48 35
299 420 296 68 43 31
260 646 163 96 78 58
430 660 270 109 85 56
298 433 297 83 16 30
283 658 304 60 28 33
260 942 301 193 147 128
303 428 298 109 9 34
251 730 221 79 33 38
291 437 295 82 21 30
294 438 296 66 22 30
292 444 295 86 19 33
374 518 359 109 0 36
293 443 296 81 21 32
413 798 243 72 57 49
294 446 296 56 22 29
198 632 342 171 118 106
399 873 254 71 64 61
303 438 297 110 4 35
295 822 276 187 137 120
253 628 263 58 28 32
246 521 250 81 22 34
298 445 295 104 11 34
298 448 294 92 17 33
278 728 163 134 96 71
348 928 309 39 36 37
303 442 296 111 6 35
308 419 297 61 46 34
298 873 239 120 92 65
313 420 296 60 46 32
324 909 196 82 72 71
304 878 294 143 108 79
377 483 378 125 9 40
308 428 299 102 14 35
308 433 298 111 5 35
407 706 258 80 59 45
313 428 300 101 16 35
372 658 263 80 22 32
318 419 293 51 39 29
317 420 296 54 42 27
274 742 301 60 32 37
318 423 298 55 37 29
287 518 156 135 16 36
320 425 301 88 23 28
318 433 299 116 5 36
365 739 212 65 51 45
298 649 206 159 1 39
313 438 297 93 15 34
249 647 247 123 21 44
308 448 294 67 18 29
254 826 213 199 133 103
363 643 318 137 31 48
249 543 184 157 6 39
288 558 287 39 25 26
374 658 288 63 40 36
318 438 298 97 16 35
318 443 296 94 15 33
258 453 277 77 27 36
263 453 278 52 27 29
258 458 276 58 29 32
263 458 277 42 28 29
243 608 243 81 27 35
263 464 275 38 27 29
260 461 276 63 22 31
263 461 276 34 27 28
268 458 277 37 27 27
268 464 275 32 27 28
268 462 276 30 26 28
273 533 267 87 13 31
273 458 277 59 26 31
352 517 149 129 20 39
395 508 318 54 27 33
273 463 277 32 26 27
345 903 216 65 58 61
258 473 271 69 23 33
263 473 272 73 25 34
417 708 234 87 65 47
442 881 299 50 40 32
268 478 273 48 26 30
356 847 193 45 40 43
374 453 399 157 9 51
384 873 285 44 39 36
263 468 273 87 21 35
400 478 305 68 22 35
273 473 278 66 24 32
374 772 197 56 45 43
254 673 185 83 60 46
351 788 169 91 71 52
272 478 278 61 25 32
278 453 279 43 24 27
281 454 280 94 17 32
299 553 365 137 95 82
281 461 283 59 22 28
224 646 248 197 134 111
277 468 279 62 28 33
276 472 280 59 24 32
277 473 283 54 24 29
275 479 283 66 22 30
337 537 150 181 10 41
275 480 286 99 14 34
284 458 292 85 20 33
288 458 293 84 20 32
305 622 316 159 20 49
296 970 236 77 75 78
280 469 291 56 24 29
354 783 206 69 54 50
365 499 414 94 25 36
333 557 338 48 28 30
283 473 291 59 23 29
283 478 290 89 14 33
343 793 159 74 58 48
288 478 288 107 9 34
369 646 318 87 43 42
258 483 267 54 26 31
398 588 273 130 18 43
348 850 280 104 68 52
257 489 265 55 29 33
379 864 237 59 53 50
399 819 288 105 67 50
253 558 183 145 8 37
259 487 266 49 30 32
251 558 186 152 0 36
208 608 303 124 100 83
263 483 269 76 28 37
263 488 268 47 27 30
257 493 264 47 26 30
260 493 266 52 25 30
265 488 271 76 29 37
266 486 270 44 28 29
267 488 273 82 26 38
270 484 276 72 26 33
196 613 339 135 94 82
341 952 234 73 67 68
272 483 278 66 25 32
340 890 197 63 55 56
443 905 283 99 81 63
428 887 308 64 52 42
324 616 333 160 92 83
336 621 210 40 33 45
270 493 278 40 24 27
305 892 300 149 111 85
272 488 283 81 18 33
259 503 267 124 13 40
367 463 427 172 9 55
257 508 264 124 10 41
378 678 273 87 24 34
259 513 267 93 21 35
262 508 269 53 24 30
225 649 213 183 125 98
309 833 286 173 133 111
463 929 307 100 83 74
261 513 269 66 22 31
264 508 273 46 26 28
265 498 271 84 27 37
265 504 273 44 23 27
264 508 278 118 18 41
255 653 263 153 0 45
267 498 274 59 23 30
231 518 218 38 34 38
265 504 278 110 15 38
268 503 282 141 2 43
273 499 285 129 1 39
244 718 233 74 30 38
268 513 279 126 6 40
237 584 220 108 23 42
378 821 331 219 169 149
274 483 283 65 21 30
275 483 286 118 10 38
278 483 288 124 4 38
278 488 288 121 3 38
282 488 286 109 5 34
287 482 286 109 5 35
338 743 338 157 20 51
251 677 237 71 36 39
417 523 238 83 30 37
288 484 285 109 8 35
285 485 285 109 0 35
349 874 178 80 64 56
413 483 291 107 20 39
288 488 283 109 7 35
281 492 286 108 5 35
402 822 248 67 56 50
361 526 406 179 9 58
288 492 282 111 6 35
289 494 280 111 4 32
222 615 292 112 87 69
279 504 279 114 4 36
276 496 286 122 1 39
385 437 338 121 10 36
278 513 274 126 2 40
343 793 188 45 39 40
422 428 274 74 25 34
280 510 275 123 2 39
288 498 279 107 12 37
277 511 276 120 2 39
353 566 382 146 22 51
418 503 273 124 1 32
275 505 280 114 4 36
284 499 279 115 5 37
406 639 321 151 107 72
283 503 278 107 12 37
278 528 162 48 32 38
282 497 282 114 2 37
327 548 300 99 6 32
286 496 281 119 5 43
402 410 274 94 51 44
288 508 274 113 7 38
288 513 272 125 1 39
247 688 258 56 31 35
213 613 303 129 95 81
293 478 286 89 12 32
293 480 285 108 13 37
323 793 180 65 49 43
298 473 287 105 9 34
298 477 286 57 24 30
413 473 263 114 20 39
265 928 306 147 119 99
298 479 285 44 25 28
254 618 258 44 27 29
399 563 289 163 6 51
308 473 287 35 26 27
358 448 433 104 20 38
379 883 253 60 57 58
308 476 286 54 23 30
313 473 288 45 24 30
464 881 281 109 90 70
318 478 287 82 20 34
333 908 303 64 46 40
293 453 294 65 24 31
293 458 292 72 18 31
293 463 291 97 12 31
291 774 295 83 65 59
390 438 305 145 6 44
377 786 186 58 47 41
303 453 292 30 24 27
298 459 290 110 6 33
303 459 290 114 6 36
291 467 291 96 9 31
293 468 290 101 8 31
290 470 290 99 9 34
349 870 170 115 91 74
396 508 316 68 28 35
374 683 213 60 43 37
359 529 405 178 8 58
313 453 293 44 23 29
308 457 291 79 14 31
389 493 368 165 1 51
308 463 290 101 8 34
232 788 203 166 124 93
282 574 363 160 105 96
311 460 290 116 0 36
318 453 293 108 8 35
199 613 299 150 112 90
218 641 293 201 139 117
318 458 292 100 8 33
328 426 300 78 32 27
372 752 219 66 50 46
496 876 254 109 87 66
308 468 288 32 25 28
313 468 289 68 20 32
316 465 290 118 5 36
318 468 290 91 20 35
245 734 201 144 102 78
293 483 284 107 9 35
293 488 282 68 19 31
376 840 225 62 58 59
441 723 284 169 113 85
293 493 280 119 10 38
269 548 170 42 34 38
298 483 284 105 17 38
338 723 183 69 54 42
284 573 291 46 26 28
298 488 282 62 24 30
408 413 268 102 38 36
298 493 279 92 20 35
293 508 273 119 7 38
298 498 278 63 24 31
308 918 188 83 73 71
298 513 274 112 7 37
413 453 292 117 14 40
301 505 275 34 28 28
220 635 239 156 114 87
302 508 275 111 17 40
339 653 222 94 19 31
408 893 293 42 36 33
302 513 275 68 18 30
308 488 282 66 24 31
307 494 280 58 24 29
317 489 285 36 27 28
317 493 284 86 25 36
244 698 149 170 112 78
320 492 286 76 24 35
266 678 290 155 2 49
384 428 353 92 19 35
288 723 192 107 12 25
308 503 279 38 25 29
310 496 281 53 30 33
317 946 215 86 81 81
311 503 280 42 29 31
392 458 338 53 26 31
308 513 278 100 16 37
353 928 233 61 54 57
398 428 300 111 15 39
309 893 203 43 41 44
312 513 280 87 18 36
356 498 401 56 22 29
318 498 284 66 27 36
252 764 264 82 67 61
454 819 263 85 70 59
318 503 284 44 27 29
399 523 295 162 8 50
314 508 281 107 18 40
318 508 284 43 25 29
333 958 228 70 66 69
383 757 208 65 49 46
320 393 273 106 71 58
320 398 272 107 72 60
264 592 185 101 18 33
320 388 276 109 72 59
267 883 305 174 137 110
322 388 278 115 77 64
322 393 278 116 79 65
353 794 325 137 100 83
323 393 283 124 86 70
213 641 308 186 129 110
328 388 289 131 93 74
425 723 253 116 78 54
240 563 251 137 2 46
328 393 288 125 89 70
303 833 209 56 46 46
408 493 292 150 12 48
312 607 190 185 6 40
321 397 274 109 73 61
368 949 325 74 62 53
373 831 208 50 47 49
313 878 291 170 132 106
324 398 283 121 83 68
402 517 179 149 18 43
389 528 338 120 17 39
326 395 285 124 88 71
321 404 258 81 61 51
321 404 261 86 62 52
320 402 273 106 71 60
227 625 253 117 98 82
321 404 268 99 68 56
256 959 263 96 84 79
321 404 273 105 71 59
321 407 269 94 66 53
368 910 296 35 32 32
400 584 258 40 34 38
322 408 273 97 67 55
322 403 278 112 76 64
313 962 225 91 86 89
324 408 283 109 75 60
303 943 314 36 34 35
293 579 171 81 31 38
326 403 285 119 83 67
328 408 288 117 83 66
323 413 283 72 53 40
325 414 286 75 56 40
254 728 213 104 26 41
376 709 307 141 7 45
325 410 286 109 76 60
285 578 343 162 108 105
328 413 288 104 75 59
257 878 263 144 118 93
330 388 291 129 93 73
300 580 325 84 40 33
330 396 291 119 85 65
333 398 293 119 87 66
341 518 300 111 11 36
331 406 290 116 84 65
253 718 198 98 66 54
338 893 198 62 55 56
333 408 293 117 86 66
288 623 194 66 34 38
333 413 293 115 84 65
330 414 291 112 82 64
337 388 295 127 94 70
241 614 240 78 22 36
231 528 223 88 27 38
337 393 295 122 90 67
339 388 296 128 94 70
339 393 297 122 91 67
338 398 297 119 88 66
343 398 299 120 91 66
393 657 317 173 115 91
275 934 225 64 59 60
323 658 214 116 19 28
243 608 208 128 14 37
348 393 300 128 96 70
318 913 193 94 84 83
239 788 179 172 115 79
353 388 300 132 101 71
308 978 303 73 67 64
353 393 301 131 99 73
374 879 242 65 60 62
345 400 301 115 88 62
346 397 300 121 92 66
304 574 324 79 21 29
301 529 151 61 27 33
348 398 301 117 90 64
353 398 302 124 95 69
429 758 273 70 52 43
336 402 295 118 87 66
324 426 300 91 24 32
338 403 297 117 87 66
408 743 318 165 117 85
230 648 178 115 89 57
342 403 299 116 88 64
342 413 300 115 88 64
344 413 301 113 86 62
242 738 163 169 111 77
367 683 311 44 26 29
338 938 222 71 65 68
348 403 302 110 84 60
348 413 302 110 84 60
198 603 318 133 98 83
348 658 229 74 29 31
353 413 303 106 82 57
485 876 280 106 85 70
278 718 163 113 84 61
282 784 284 81 65 58
322 416 285 61 46 34
377 683 288 75 26 33
365 806 207 62 54 55
320 421 295 52 43 34
251 644 253 124 18 43
327 416 289 77 58 41
346 946 235 71 64 66
433 708 308 170 113 83
234 518 238 153 3 47
368 528 312 116 1 37
290 960 231 87 83 86
322 434 300 118 9 39
324 432 301 102 17 35
328 428 301 106 18 37
386 617 277 70 29 37
332 421 295 92 69 50
334 418 297 113 84 65
333 433 303 102 19 38
358 448 310 106 4 32
329 437 301 125 4 39
321 445 295 118 6 37
423 412 283 116 19 35
323 443 297 121 5 38
352 493 408 33 30 32
324 448 296 97 14 35
378 643 303 112 73 71
328 443 299 122 8 38
290 920 215 54 49 49
330 441 301 117 18 43
418 433 295 40 28 27
359 831 311 48 38 40
333 443 302 76 20 32
360 701 210 62 38 35
393 518 174 145 18 40
388 763 323 156 117 87
331 444 300 110 18 38
333 448 302 41 27 28
338 418 298 114 86 64
356 658 316 54 29 32
289 718 323 63 31 36
339 424 301 108 84 62
341 422 300 114 88 63
364 648 243 55 34 36
338 428 303 84 49 38
275 744 166 146 102 72
343 428 304 100 73 52
348 418 303 109 83 58
273 573 282 83 23 33
384 423 305 129 19 39
341 431 305 110 10 37
383 423 308 123 19 38
343 433 307 118 10 37
348 433 307 98 31 35
318 548 153 111 22 39
353 428 306 105 79 56
353 433 307 95 53 43
337 443 304 118 9 39
340 443 306 118 3 36
395 533 299 86 28 39
236 639 241 83 42 34
340 448 306 57 22 30
232 647 248 137 85 71
348 438 308 107 15 36
369 458 423 176 6 55
283 723 192 82 21 28
353 438 309 104 9 34
348 443 308 83 19 32
283 974 253 85 78 79
379 415 309 93 31 34
353 443 310 91 16 32
353 448 310 102 10 34
300 699 326 102 17 36
383 388 268 123 97 67
262 663 283 152 1 47
383 398 273 108 87 63
271 629 201 37 31 33
379 388 278 118 93 65
380 393 279 118 94 65
381 390 276 120 95 65
283 577 362 149 90 83
250 746 281 193 0 60
388 608 248 103 41 47
381 394 277 116 92 65
378 393 283 118 93 64
376 393 287 119 94 64
378 783 188 56 46 42
379 398 283 115 92 64
383 403 278 92 77 60
257 658 187 103 72 57
399 848 243 62 58 58
361 665 240 61 32 35
380 401 285 107 85 62
381 404 286 95 78 58
380 406 289 90 73 56
467 864 291 77 60 46
369 388 294 120 94 63
367 388 297 123 96 64
355 773 188 48 43 43
362 395 301 132 101 72
365 554 181 131 31 44
229 663 192 193 133 106
368 398 298 120 95 66
365 398 300 126 99 69
358 403 302 108 86 62
363 403 302 107 85 61
354 909 227 62 57 59
363 408 302 93 74 52
375 650 288 56 36 38
368 403 299 108 85 61
367 408 301 87 69 48
369 408 299 93 72 53
411 921 288 75 65 64
397 458 368 53 29 34
372 393 293 119 94 64
294 568 297 97 12 30
360 509 389 62 23 32
264 653 215 130 21 31
366 755 190 51 43 41
374 403 294 105 83 58
373 413 299 72 54 39
234 656 227 149 100 81
378 408 293 86 69 52
240 522 190 157 16 45
255 713 291 145 0 45
382 410 292 71 59 48
396 493 329 133 4 36
349 628 222 92 27 40
383 413 293 98 47 43
384 411 290 68 60 47
378 413 297 89 48 42
350 650 231 100 29 44
380 412 303 101 36 38
383 412 303 104 35 40
380 412 318 85 24 39
368 423 303 81 53 33
359 426 305 98 73 49
353 952 289 79 71 75
358 433 307 90 61 43
363 428 305 91 62 41
363 431 305 93 59 41
374 793 221 58 52 52
368 429 306 80 43 32
328 736 341 43 31 33
368 433 307 79 32 31
363 438 309 67 29 30
403 513 293 158 8 50
368 438 308 75 21 27
423 653 314 155 108 75
363 443 309 82 14 29
423 678 310 190 123 91
363 448 309 101 5 32
368 448 308 101 7 31
379 548 358 173 8 56
373 418 302 69 48 29
375 605 330 137 14 41
249 689 268 41 31 33
260 527 170 151 1 34
378 418 298 97 40 38
240 705 258 133 6 40
361 843 210 55 51 56
376 424 301 80 37 27
382 419 296 116 34 43
382 423 297 121 26 43
373 673 298 80 22 35
378 429 302 91 27 31
348 868 198 68 63 65
383 427 298 126 23 44
433 653 308 144 104 68
384 429 303 126 16 40
371 430 306 76 26 27
373 433 307 78 15 27
378 418 309 96 30 34
378 418 313 88 26 32
379 423 309 102 24 34
234 653 158 118 91 59
383 418 308 124 23 41
235 759 180 159 113 78
384 419 305 118 24 39
383 418 313 118 22 39
240 753 243 158 15 48
368 628 238 90 27 40
383 423 313 120 20 39
251 663 248 47 31 35
380 418 319 105 17 34
382 418 318 103 21 39
378 428 313 105 15 33
313 918 305 112 86 70
319 873 188 59 50 51
255 704 215 47 31 32
379 428 309 105 18 33
378 433 308 102 10 34
383 428 307 121 14 38
350 923 231 70 62 66
213 628 268 173 124 102
403 943 334 61 50 43
383 428 313 114 18 39
383 428 318 124 14 43
384 433 313 132 8 39
388 738 228 50 40 38
383 433 318 131 5 40
391 680 239 73 53 47
390 452 318 111 15 37
372 437 310 78 12 25
374 438 311 88 7 28
409 518 290 146 12 48
373 448 308 90 10 31
374 442 311 87 6 29
377 438 314 107 1 31
364 543 388 159 14 52
338 513 298 92 23 37
380 434 316 124 4 34
340 520 141 106 21 36
411 521 195 174 15 42
377 449 309 93 8 30
376 581 205 191 16 43
380 443 316 119 0 36
380 448 316 118 5 37
381 443 315 118 0 34
380 880 251 58 57 59
433 748 298 177 116 86
379 414 328 113 12 38
381 414 322 99 16 34
381 415 335 67 20 34
288 814 191 68 56 53
266 805 250 70 58 54
380 414 342 97 21 40
291 713 325 111 25 44
402 463 302 146 6 44
353 528 408 163 12 53
381 415 344 97 21 38
343 638 323 174 13 55
380 415 346 103 20 37
324 950 221 76 73 76
382 415 346 97 25 39
380 418 323 127 8 40
380 422 322 117 11 35
382 419 328 133 7 42
368 878 158 94 77 65
382 423 323 122 7 37
256 785 250 71 59 53
253 763 268 82 66 61
380 423 328 128 8 38
383 423 332 133 6 42
218 643 263 198 135 112
380 427 328 136 7 41
413 793 283 94 63 46
383 428 323 132 4 38
356 933 243 67 59 59
336 792 172 95 73 56
384 426 328 133 6 42
375 830 209 47 42 44
379 417 338 90 23 39
380 417 342 99 21 42
273 578 176 68 26 36
384 423 338 118 12 38
384 423 343 119 13 38
380 416 346 103 22 36
391 546 190 84 28 34
385 418 352 103 18 37
384 423 352 114 12 36
384 427 338 116 10 35
383 438 323 131 1 40
384 433 333 133 5 40
222 645 253 200 137 111
385 438 327 137 4 42
268 867 278 117 89 53
384 437 333 134 8 39
311 573 308 105 0 33
384 444 323 127 4 39
251 682 264 50 29 34
382 448 328 114 4 36
380 445 334 121 47 50
343 554 353 63 44 39
384 444 328 135 5 42
403 950 317 131 111 98
381 447 331 111 14 36
277 723 309 64 27 35
225 634 224 124 97 66
417 463 274 56 29 30
302 789 300 82 65 59
380 445 338 105 24 39
333 633 324 176 19 57
378 448 338 115 93 86
379 448 348 71 17 30
260 515 273 51 28 28
379 448 353 66 20 28
380 445 352 61 24 27
384 784 331 168 127 94
376 747 220 51 42 41
381 446 354 71 23 32
389 900 267 93 84 85
383 448 363 77 19 28
377 733 312 117 17 40
378 448 383 91 7 30
228 642 278 185 122 107
380 444 384 98 2 34
322 453 295 123 4 37
249 654 140 128 98 63
323 458 294 126 2 39
308 623 198 170 2 38
238 688 153 175 114 84
326 460 295 133 0 39
329 463 297 137 0 43
332 458 300 140 1 42
266 750 290 79 60 55
375 924 278 63 58 58
332 463 299 133 4 41
258 728 153 171 112 79
335 463 301 85 20 35
321 470 290 75 28 33
298 603 322 76 30 37
416 680 264 121 81 73
208 613 313 133 92 79
328 468 294 130 4 40
328 473 294 95 14 35
406 816 312 180 117 88
351 956 254 74 68 72
389 443 348 140 9 42
405 568 253 69 27 35
322 478 289 65 27 34
268 928 308 150 123 104
328 923 310 47 43 43
337 784 325 76 64 60
324 478 291 79 19 33
330 467 296 139 0 43
369 439 403 62 22 31
335 466 301 71 18 26
433 718 308 173 116 86
366 820 325 192 143 120
338 453 304 48 26 28
338 458 304 47 25 28
345 889 207 66 62 64
340 453 306 41 26 29
348 453 308 61 24 30
358 457 311 106 1 33
249 654 213 114 76 57
348 458 308 46 26 28
348 463 308 54 26 30
408 888 273 70 60 53
353 458 310 60 20 28
338 468 302 64 26 32
406 929 282 87 67 64
336 473 300 89 15 36
338 473 302 53 24 29
358 488 310 110 3 32
330 892 285 75 58 49
336 478 300 134 2 42
342 478 304 70 20 32
379 463 333 111 9 37
308 553 365 135 91 87
342 468 305 47 26 28
308 583 308 113 0 35
348 468 308 63 24 31
348 473 308 61 27 32
353 468 310 99 12 34
395 565 216 193 17 51
355 939 247 67 60 61
353 473 310 42 24 28
345 478 306 47 25 27
348 478 308 37 27 28
226 620 291 133 91 76
323 493 288 66 24 32
315 852 220 67 52 47
320 498 286 45 27 30
320 508 286 32 24 27
323 508 287 33 27 28
185 618 343 146 107 89
250 621 210 88 33 39
326 488 290 128 8 39
247 638 248 109 29 41
326 493 290 66 24 31
453 858 268 98 70 53
331 484 295 135 1 42
332 493 294 133 5 42
380 495 360 88 22 35
334 493 297 122 7 40
393 705 296 65 33 30
368 603 338 157 14 52
326 498 290 44 26 29
327 508 289 33 26 29
400 662 294 155 99 91
328 513 290 61 26 31
257 948 253 113 91 79
332 503 294 55 27 31
414 478 268 39 31 36
335 498 296 41 26 29
286 738 315 169 8 52
330 508 291 31 26 28
348 913 223 64 58 60
278 918 312 176 131 113
387 868 248 68 59 54
273 788 273 76 61 55
415 493 259 142 15 44
333 508 294 55 27 31
330 513 291 60 24 30
335 508 296 51 25 28
454 883 308 80 61 48
335 511 296 81 27 34
399 493 308 140 13 44
337 483 300 133 0 40
339 483 302 129 1 38
343 488 304 128 1 39
408 923 288 90 75 73
303 853 288 168 135 110
337 493 299 100 14 36
339 493 301 94 13 35
343 493 304 104 13 37
344 864 281 44 38 35
345 483 306 121 11 40
373 642 327 197 131 107
428 733 248 92 65 51
331 637 215 119 24 36
348 483 308 67 21 32
364 487 310 103 7 32
380 716 305 142 8 45
345 488 306 124 2 37
394 421 289 106 36 43
353 488 309 111 5 35
416 533 273 152 12 40
391 697 233 60 46 40
293 553 368 141 101 85
345 493 306 111 7 37
410 550 241 30 29 35
338 503 299 87 21 35
340 503 301 73 26 36
341 514 300 84 19 33
430 726 245 105 77 57
393 962 328 81 69 59
344 513 302 80 22 34
373 922 314 39 36 35
345 498 306 78 22 34
348 503 307 101 13 35
398 433 363 102 25 37
278 803 183 168 112 77
413 503 290 55 25 28
346 504 305 64 22 29
353 498 309 111 4 33
384 619 258 100 32 44
267 693 294 118 11 38
353 503 309 99 11 32
246 638 243 101 37 41
349 508 307 63 22 30
204 606 308 131 102 85
378 919 312 39 36 35
391 452 381 121 20 46
353 513 308 61 21 29
307 687 325 42 26 29
355 464 311 105 1 33
381 502 356 130 4 40
339 648 221 114 12 31
258 558 258 151 3 47
453 888 303 80 62 49
358 458 310 104 3 33
358 464 311 105 2 32
316 753 183 52 41 37
196 633 316 207 134 116
363 453 310 104 1 31
236 563 208 145 10 40
363 463 310 103 1 32
385 433 343 101 16 34
370 448 418 163 8 51
262 643 283 146 10 48
368 458 308 100 3 30
356 470 310 75 17 28
354 712 208 59 39 43
357 473 310 47 23 27
344 579 186 190 10 43
358 473 311 51 22 28
358 479 310 98 13 35
376 848 162 123 101 82
323 682 198 79 45 35
392 959 322 91 74 57
364 467 310 103 2 32
248 533 183 156 7 39
359 610 216 150 18 43
341 961 240 81 75 77
363 468 311 103 1 33
264 943 239 64 59 61
463 859 291 68 55 43
231 659 177 154 105 74
364 474 310 102 3 33
368 473 309 101 3 32
408 548 287 53 28 33
363 478 310 102 5 33
373 453 307 94 9 31
373 458 307 95 5 31
448 723 243 95 70 53
373 463 308 94 4 31
297 663 314 34 27 30
380 452 312 103 8 32
378 458 309 94 4 31
282 763 294 82 66 60
378 463 309 89 7 32
343 715 195 55 47 41
333 544 301 109 1 33
382 458 313 97 7 34
382 463 313 89 11 32
278 613 293 92 19 36
380 464 311 98 5 33
373 468 309 94 3 33
380 466 311 98 5 32
365 523 398 76 21 35
368 804 218 65 55 55
388 893 263 69 62 60
260 761 276 85 67 60
451 655 280 130 104 74
213 640 313 179 125 109
383 468 313 82 17 30
415 518 268 158 11 40
234 803 193 187 129 98
383 472 308 87 15 31
362 928 258 66 59 61
380 474 305 69 19 25
298 863 239 150 108 79
304 778 307 84 68 62
378 478 307 72 21 29
385 675 257 80 70 65
384 478 308 68 20 28
298 553 159 82 34 40
358 483 310 102 7 34
359 489 311 109 1 32
303 873 238 97 75 57
229 634 208 102 83 63
328 738 340 67 30 37
363 483 310 99 7 32
368 483 310 88 12 32
368 493 311 55 24 31
251 915 261 190 136 116
357 502 310 76 16 31
356 506 310 59 18 29
423 940 328 84 68 54
358 513 312 103 9 31
303 683 203 37 32 37
363 498 311 86 15 32
368 498 311 50 24 29
285 933 209 70 64 65
373 498 311 37 27 27
438 683 304 168 112 81
363 513 312 104 2 32
323 943 319 39 37 37
373 483 309 74 19 31
248 763 258 82 67 61
336 630 330 167 39 60
373 488 310 84 17 33
246 820 214 189 134 106
247 688 253 43 32 35
374 493 310 40 27 29
397 838 268 47 39 35
263 683 144 156 106 73
378 483 308 49 25 29
378 488 309 60 25 31
248 913 268 189 134 117
266 688 177 88 68 51
262 668 283 154 0 48
413 488 291 35 27 29
249 883 283 143 100 83
383 483 308 56 23 30
383 488 308 56 24 31
378 493 309 41 27 30
373 828 323 200 147 124
230 640 273 154 94 85
383 493 309 39 27 28
373 503 311 60 27 33
256 686 280 129 9 43
241 763 238 183 137 109
378 498 309 32 28 28
375 750 221 55 45 44
419 429 295 42 29 28
383 503 308 47 26 29
384 498 318 84 17 30
358 933 317 39 36 35
240 748 238 123 35 47
379 512 310 49 27 29
383 508 308 43 26 28
390 656 300 151 98 84
247 618 213 67 32 32
383 513 309 44 26 28
381 453 328 90 18 32
338 698 142 93 77 60
379 453 333 100 40 44
257 614 202 92 27 32
380 453 330 93 35 38
426 763 277 74 54 42
382 458 328 116 2 37
404 559 228 83 37 44
382 463 328 116 3 37
241 810 220 176 132 106
379 458 333 120 7 39
380 458 330 121 2 38
358 883 149 93 73 69
377 453 338 78 40 45
376 892 286 40 37 36
377 453 353 87 19 35
377 523 353 107 5 36
476 886 230 80 66 61
229 668 188 196 133 105
376 458 343 38 26 29
384 627 296 60 42 36
428 453 283 91 25 38
377 463 348 63 25 32
299 816 195 67 54 49
384 468 323 103 5 33
380 468 334 111 6 37
382 468 332 117 1 36
374 544 181 170 11 40
392 488 353 147 6 44
414 909 315 61 48 38
384 473 328 114 1 35
269 898 245 134 104 71
450 847 270 59 44 34
380 473 339 48 24 29
302 947 315 37 35 36
379 473 343 76 22 34
377 468 348 80 20 34
378 468 353 85 27 38
388 433 389 145 16 49
378 473 348 70 23 34
378 473 353 38 26 28
381 474 337 43 22 30
388 879 263 71 64 59
238 665 204 154 104 80
379 478 348 43 24 28
378 453 358 128 8 41
264 633 283 72 22 33
381 451 368 132 9 43
335 801 316 77 64 59
380 458 368 73 21 33
238 533 238 102 25 40
381 512 345 124 0 37
375 458 384 61 24 30
375 463 383 62 21 30
379 453 378 90 18 34
380 458 373 85 20 34
355 453 414 74 29 34
380 463 373 97 13 35
378 458 378 77 21 33
376 458 382 67 21 32
377 463 378 83 20 33
311 746 191 78 29 32
380 468 363 61 27 32
462 838 268 102 81 66
380 468 368 91 19 36
298 978 308 62 56 53
430 905 283 82 68 61
318 723 344 68 24 34
235 663 154 147 103 71
379 473 368 59 25 32
379 478 358 60 24 32
379 478 368 68 23 33
380 478 363 75 23 33
343 952 326 58 52 49
388 703 228 65 52 47
375 474 380 107 7 38
375 478 380 105 8 35
372 478 383 105 3 35
236 575 224 40 26 30
378 473 373 80 18 34
403 697 285 76 63 51
377 468 382 101 21 39
383 468 383 151 14 49
288 898 312 171 129 104
389 677 242 85 64 54
381 480 341 106 18 41
381 483 343 105 14 38
381 488 343 94 16 34
381 483 348 90 20 36
230 576 218 46 33 30
381 488 353 100 11 33
381 493 338 117 6 36
381 493 343 79 17 32
380 495 340 122 8 37
360 803 326 176 137 112
380 495 342 114 11 34
381 493 348 107 9 35
237 653 153 119 93 63
381 493 353 105 13 35
384 503 333 105 6 36
380 498 339 123 2 37
249 583 189 143 0 35
380 503 339 124 0 37
381 538 357 175 6 56
380 503 343 125 3 39
252 643 208 91 63 52
271 693 154 127 96 65
381 498 348 80 20 34
401 721 310 138 96 74
381 498 353 80 20 33
380 500 346 83 20 35
380 502 346 106 13 37
381 508 338 122 4 37
386 848 286 47 41 40
376 462 392 170 9 55
268 978 273 78 71 69
381 508 343 127 0 38
341 891 191 52 42 42
381 512 337 120 7 37
363 543 314 60 21 29
368 783 329 190 141 110
380 513 339 123 3 38
194 623 313 172 118 99
255 683 224 106 30 45
380 513 343 123 1 37
368 948 308 91 76 67
381 505 345 124 0 38
352 643 229 68 31 33
381 508 353 101 14 34
381 511 347 125 0 39
381 511 352 120 1 35
433 908 274 85 70 62
390 457 327 54 29 33
398 920 283 65 56 52
368 493 383 90 5 31
365 499 384 47 24 30
294 544 281 36 28 27
333 556 348 50 27 28
369 499 379 94 9 36
372 497 377 92 7 29
367 512 372 95 8 34
305 802 296 191 140 121
288 938 207 79 69 67
364 509 379 67 20 30
365 504 380 82 20 34
381 485 357 65 24 30
380 487 359 72 22 33
379 483 363 69 24 33
378 483 368 85 21 35
378 493 368 74 20 31
268 693 208 60 30 34
375 488 375 94 10 33
364 712 320 136 0 41
398 433 354 118 13 36
372 483 382 103 3 35
374 483 379 100 9 34
373 493 378 100 4 33
268 938 233 65 60 63
370 495 380 97 5 35
377 483 373 88 13 34
304 907 305 151 113 84
319 868 203 49 45 47
308 683 202 42 37 39
377 488 373 88 14 33
377 488 383 138 16 47
313 697 334 117 9 36
408 634 294 109 88 63
380 488 379 159 11 52
353 678 229 61 35 35
383 483 378 170 5 54
284 554 281 32 27 27
383 493 372 171 8 55
313 937 210 85 78 79
379 493 378 115 21 42
377 492 382 72 25 33
442 650 279 105 87 68
381 491 376 171 13 57
306 894 301 151 114 88
237 773 178 165 114 78
375 504 368 100 2 34
373 508 368 97 1 32
375 505 365 107 0 31
381 498 357 75 18 32
323 983 263 68 63 64
423 638 298 96 79 59
377 498 368 100 7 34
237 538 243 108 24 40
293 597 180 174 2 37
378 950 321 99 88 78
377 503 363 115 1 36
383 713 218 72 55 48
376 502 367 108 1 33
378 513 358 109 1 33
288 894 238 97 79 59
376 511 361 107 0 28
369 504 375 47 24 28
285 976 255 83 79 80
374 498 374 94 5 33
330 787 321 79 65 61
251 751 214 98 68 41
374 503 379 123 16 42
332 936 214 79 71 73
362 938 267 68 60 65
254 663 189 103 72 58
371 507 371 76 15 29
388 728 306 59 32 30
386 478 326 103 4 34
370 510 370 96 9 37
369 513 368 100 2 32
379 503 374 137 14 48
481 886 232 105 85 65
384 498 369 168 5 51
378 498 378 63 27 32
376 498 381 51 27 30
395 523 328 90 25 38
380 509 370 169 4 54
377 513 373 169 8 55
279 836 218 65 56 55
369 443 398 64 22 30
353 628 224 92 31 39
359 448 408 64 24 30
390 448 352 107 18 35
400 652 290 82 53 39
368 528 362 100 13 34
357 448 413 52 28 30
235 812 208 201 146 116
422 473 291 112 18 40
360 444 409 61 23 27
368 439 408 68 18 26
386 493 327 71 16 31
421 781 285 130 88 61
364 444 404 54 23 27
363 442 408 65 18 26
407 906 314 49 41 36
361 447 406 68 20 30
365 448 400 77 14 30
388 418 292 113 33 43
381 836 296 116 74 57
364 440 413 56 17 28
343 833 298 52 40 44
307 764 319 85 68 61
375 435 398 87 28 36
241 768 228 173 125 93
365 474 395 34 28 30
372 578 358 76 30 36
375 444 390 100 3 32
514 838 259 86 85 85
239 688 178 152 100 75
401 660 291 164 109 101
374 448 389 67 19 30
372 448 392 62 20 29
279 871 300 128 103 75
373 443 398 67 21 34
370 448 395 66 20 30
397 588 278 169 14 51
370 445 395 67 20 27
375 448 400 76 19 32
319 794 181 59 47 40
379 438 389 102 5 34
222 620 269 125 105 85
385 434 385 66 16 28
383 434 393 107 21 41
251 697 227 99 26 40
383 438 393 145 14 49
378 438 398 95 28 40
381 437 396 153 24 54
379 443 394 166 11 52
376 447 387 88 10 32
269 633 293 65 27 32
381 448 391 163 6 50
315 550 296 78 25 30
307 676 206 44 35 37
383 448 388 157 9 49
260 587 185 133 7 36
377 448 397 158 14 52
371 439 408 99 24 38
371 443 408 140 15 46
267 653 148 105 84 61
371 443 412 160 12 51
370 442 414 130 19 46
308 758 189 106 28 35
370 448 414 166 6 52
281 759 295 83 66 60
376 438 401 61 29 32
355 445 418 72 22 27
341 718 171 78 60 48
393 773 223 68 52 45
355 445 422 59 10 26
240 756 244 167 18 50
354 448 423 67 22 29
358 443 418 69 5 24
358 444 423 61 13 25
358 639 328 165 75 72
356 446 416 51 22 24
387 573 323 68 29 35
354 448 428 93 16 34
355 448 431 127 13 42
313 984 268 66 64 66
415 524 218 56 36 37
358 444 428 45 18 25
356 446 429 72 16 25
288 606 185 168 0 35
363 442 423 57 22 27
370 448 423 161 11 51
352 463 413 112 9 34
314 664 321 96 31 41
421 437 275 57 29 27
352 468 418 140 5 39
411 532 209 70 24 34
351 488 413 58 26 32
323 698 186 68 50 39
369 683 309 49 27 28
353 488 408 40 29 32
351 492 413 32 29 30
350 493 413 31 29 30
232 783 198 166 122 90
348 783 329 56 46 46
350 494 410 32 30 32
352 498 408 35 30 33
351 498 415 34 28 30
350 503 412 55 27 30
352 503 414 67 22 32
353 503 403 71 25 32
427 458 283 134 15 39
353 508 403 63 24 29
394 543 298 52 30 34
322 833 198 55 49 48
351 507 406 64 27 32
303 678 319 96 20 38
352 513 402 57 27 30
433 678 268 105 76 48
350 510 405 58 28 34
352 555 350 49 23 28
350 513 411 73 25 33
352 483 418 55 25 28
352 488 418 65 23 29
353 493 418 84 19 35
353 498 417 64 25 30
266 789 264 76 61 55
250 673 257 91 24 39
367 453 397 94 5 31
369 453 394 95 9 34
423 412 293 71 25 32
363 458 398 103 6 34
366 457 396 106 5 36
365 462 395 99 0 32
368 463 393 92 9 34
266 626 280 140 13 46
358 453 408 71 23 31
356 453 412 64 28 33
358 458 408 101 8 32
397 660 315 172 116 90
354 463 409 119 3 31
250 628 257 50 29 28
356 457 412 81 23 32
404 932 288 97 79 76
453 668 273 159 116 90
362 453 403 104 4 32
389 553 328 107 20 40
386 871 250 65 58 56
360 453 405 102 13 30
414 636 291 111 93 74
361 458 402 103 2 32
363 468 398 73 14 30
363 473 398 37 27 29
369 473 389 102 2 34
369 478 388 98 1 33
366 478 392 75 11 32
339 716 153 87 64 45
393 438 303 138 9 44
350 833 182 59 48 42
408 473 294 119 17 41
383 633 293 74 38 37
360 478 400 36 28 28
270 831 226 65 52 50
365 478 394 38 26 28
368 672 223 73 53 41
293 718 328 37 29 33
357 468 407 112 1 33
359 468 404 99 8 30
279 678 210 66 30 37
356 473 407 82 19 34
355 473 409 90 16 34
353 473 413 122 8 36
357 478 403 41 30 32
249 698 233 81 30 39
356 476 406 30 31 26
353 478 413 82 20 33
360 474 400 39 26 35
398 417 284 97 46 43
372 453 392 80 18 33
375 569 360 34 29 32
227 625 258 122 104 90
365 728 208 56 45 41
375 453 385 68 23 31
373 463 388 96 15 35
272 808 258 64 53 51
396 705 240 63 49 43
374 463 393 154 8 50
273 873 304 153 123 93
388 428 303 132 13 43
373 458 398 167 5 53
373 463 398 165 5 51
380 454 390 163 5 51
238 723 253 158 0 45
379 458 389 169 8 55
381 462 386 112 18 37
376 456 396 168 6 52
353 832 179 62 50 45
372 453 403 147 11 48
346 705 205 60 44 36
519 851 245 100 83 66
230 569 219 121 23 39
381 593 323 153 6 47
371 453 408 164 4 53
371 451 411 167 4 53
393 468 338 56 26 31
370 454 410 168 3 55
425 890 316 60 49 40
237 723 168 173 116 84
371 458 403 167 3 54
371 458 407 168 2 54
366 905 291 34 31 31
370 458 413 169 0 54
274 728 156 163 110 81
278 553 168 121 18 35
373 468 388 107 9 37
374 473 393 117 18 41
372 468 398 167 8 52
374 478 389 166 11 54
394 938 294 67 51 44
407 687 258 136 95 90
373 478 393 84 21 38
378 468 388 162 12 52
376 466 391 171 9 53
377 473 387 171 9 54
217 620 307 128 95 82
370 468 405 169 6 54
312 663 320 56 28 31
370 468 408 167 8 53
371 472 402 167 9 52
347 933 229 62 56 58
390 503 345 45 26 31
251 780 250 69 57 52
369 473 408 165 11 52
313 773 318 84 67 61
369 468 413 153 11 49
369 473 413 99 19 37
268 517 277 112 12 37
371 476 401 138 9 43
411 803 282 62 48 39
229 633 253 146 98 80
354 453 428 65 24 32
358 453 433 100 21 38
324 615 201 42 34 38
352 463 418 114 14 34
354 458 428 72 20 31
383 798 335 159 123 90
362 461 431 166 12 51
345 550 322 55 20 26
363 458 432 164 12 52
318 681 201 81 46 36
235 518 204 153 7 39
366 457 431 172 10 56
308 979 293 67 62 60
362 448 436 114 20 43
250 888 296 152 46 78
317 748 178 56 42 36
289 573 354 111 50 48
352 473 418 120 4 37
353 473 423 124 6 35
358 468 428 156 10 48
373 674 223 67 51 42
358 473 427 153 11 49
352 478 418 74 20 30
329 773 177 59 46 42
232 543 223 60 29 35
302 562 342 104 48 45
418 443 293 51 27 27
363 473 427 149 16 50
230 656 222 192 132 106
235 553 209 77 25 36
363 933 319 39 35 35
368 463 423 172 5 55
368 468 423 141 12 49
366 471 426 90 9 25
369 458 418 173 1 56
359 488 398 71 19 29
358 493 398 66 25 31
208 641 313 183 135 112
253 538 267 146 1 45
368 483 388 89 3 31
189 608 323 128 91 74
366 482 391 65 15 29
263 773 165 177 117 82
358 883 288 43 38 37
367 488 387 84 5 29
365 485 390 60 17 25
417 513 258 152 8 42
365 488 389 64 17 27
240 736 272 54 26 36
407 818 253 78 64 55
361 483 397 31 29 30
268 870 264 128 97 55
413 468 268 64 33 35
357 488 402 94 19 37
273 963 304 53 50 51
356 493 402 51 26 30
423 433 294 64 26 35
245 772 251 40 37 41
367 488 408 113 26 42
368 488 403 117 28 45
368 493 403 56 27 32
367 493 408 87 28 39
344 854 175 70 59 56
235 678 159 170 112 82
237 814 203 216 149 115
367 493 413 67 27 33
392 890 272 68 61 55
360 513 388 78 22 34
354 513 399 77 22 32
363 498 388 39 29 31
361 498 392 33 29 32
364 594 207 178 22 50
421 453 275 67 27 31
362 503 388 36 30 32
368 503 398 64 31 36
367 513 398 161 12 51
238 523 198 113 17 38
354 498 404 48 29 32
356 503 401 83 19 28
358 513 413 91 24 38
367 498 408 68 24 34
367 503 403 132 25 47
364 503 413 109 25 42
239 698 154 168 111 79
366 501 411 153 23 53
246 756 221 133 102 70
261 574 181 110 30 42
364 508 409 160 15 52
303 928 309 84 74 66
226 647 213 176 122 94
356 911 234 59 52 57
366 507 407 176 12 55
409 513 290 107 21 39
366 513 403 176 10 54
322 779 320 81 66 60
364 513 408 145 16 49
393 689 277 52 42 36
362 513 411 43 27 29
410 800 276 54 41 37
373 488 388 105 21 39
286 842 263 167 129 103
371 482 397 47 25 32
370 489 394 117 26 45
371 493 391 49 28 31
370 493 394 61 28 33
368 493 398 66 29 36
248 703 192 117 79 62
376 486 386 155 10 50
369 483 403 97 28 40
392 458 378 84 29 38
270 932 311 135 112 100
369 498 393 68 30 36
371 496 391 49 27 31
371 503 387 97 27 40
371 508 387 118 34 47
368 508 393 134 25 47
366 921 260 63 55 56
370 508 389 82 25 37
369 513 388 124 21 44
354 483 422 103 24 40
288 613 189 131 15 36
358 494 420 140 11 44
363 483 422 77 26 34
389 830 308 158 96 75
362 488 421 86 23 36
288 788 288 82 65 59
367 483 418 102 26 40
358 498 419 139 18 48
283 923 312 168 132 108
358 503 417 133 20 46
358 547 318 51 26 31
403 686 274 80 71 66
378 914 307 36 33 34
354 507 416 105 24 46
277 579 176 113 24 40
363 498 417 120 22 44
427 773 303 177 119 86
223 648 233 194 132 108
385 387 258 130 102 71
386 390 258 129 102 72
393 483 358 157 7 48
385 392 264 125 100 70
390 687 232 58 43 40
386 390 262 130 103 72
283 643 304 114 28 45
386 393 263 123 98 70
387 398 258 110 90 68
386 394 266 120 96 69
222 625 318 98 80 60
287 538 161 159 3 35
385 398 268 108 88 66
386 398 266 107 88 66
389 407 258 88 75 60
387 403 268 85 73 60
426 463 283 111 21 37
385 401 269 96 80 62
247 718 228 79 30 39
415 687 270 104 73 68
363 848 288 40 36 35
387 404 273 76 66 56
390 406 268 77 68 59
318 973 308 82 73 68
389 407 273 73 64 55
271 779 275 80 63 57
351 853 176 114 91 77
318 938 212 84 78 79
383 888 262 69 62 59
392 410 258 85 72 60
393 410 263 77 68 58
298 734 190 115 12 28
394 411 258 80 67 55
395 411 261 78 66 55
422 891 314 56 45 37
398 413 258 90 41 34
420 684 275 116 79 63
398 411 263 77 60 49
347 863 188 63 53 55
251 747 210 113 77 57
396 410 264 76 65 55
251 691 275 115 14 43
397 410 269 77 64 54
398 410 273 78 60 52
282 532 269 48 26 28
333 593 353 180 127 105
400 411 273 84 57 48
388 407 278 73 63 54
303 768 313 86 68 61
393 409 278 72 63 54
387 409 287 68 60 50
354 876 170 98 85 76
415 514 198 180 12 46
392 410 282 70 61 52
262 678 217 68 28 35
448 673 268 156 116 87
393 412 283 75 58 48
352 823 174 76 64 56
392 414 287 83 51 44
353 585 360 57 28 29
323 878 288 151 116 94
308 848 288 169 134 110
398 412 278 82 58 50
415 749 246 61 48 40
403 413 263 92 37 38
402 414 260 107 9 32
230 573 218 92 29 40
407 414 264 100 35 39
403 411 268 89 49 40
343 912 305 40 35 33
248 608 203 117 8 30
330 671 211 95 26 30
357 744 194 61 50 45
366 522 366 94 4 29
293 683 313 48 29 33
403 411 273 96 48 42
408 412 273 116 35 33
402 415 281 104 45 43
393 503 338 147 18 48
408 413 288 101 28 33
261 555 260 150 2 43
413 414 278 137 20 26
413 410 288 93 26 31
412 411 286 100 25 30
234 677 178 188 124 97
387 414 291 94 42 40
352 566 180 159 39 59
386 410 298 98 47 41
395 414 295 101 34 40
225 628 293 117 80 67
398 414 294 108 27 40
398 412 298 101 23 39
423 893 269 88 72 66
398 414 301 88 23 36
402 413 293 107 23 36
404 410 293 102 24 35
337 694 331 138 1 41
341 857 176 67 58 57
236 541 240 70 26 31
407 411 291 98 25 34
408 410 293 97 26 33
244 632 237 60 32 29
405 410 296 104 23 35
346 621 215 175 8 35
408 410 296 100 28 35
413 410 293 86 29 32
386 477 376 165 7 52
411 410 296 93 29 32
379 623 253 80 30 39
197 618 303 168 117 98
400 417 256 113 6 32
397 537 189 145 21 42
404 423 262 99 14 32
407 418 264 76 21 31
396 828 235 68 57 53
403 428 258 54 28 31
358 773 198 50 43 39
406 428 265 66 29 29
409 428 267 41 32 32
408 433 267 80 26 34
340 964 242 85 79 80
232 633 277 136 86 76
356 697 216 81 37 39
413 433 269 43 32 32
415 427 271 106 12 34
387 822 228 63 53 51
213 640 310 183 128 110
407 416 286 107 33 36
202 618 353 154 98 90
411 416 282 124 28 31
404 438 263 104 14 31
220 638 243 178 126 101
408 438 267 91 19 29
238 583 203 55 32 31
405 443 263 86 23 32
350 720 190 56 44 41
409 448 267 69 26 31
352 938 239 71 64 65
385 488 323 93 15 32
385 885 278 63 59 56
293 548 283 42 26 27
415 439 271 97 11 34
385 513 328 96 13 34
394 418 294 111 33 42
391 696 230 62 46 43
248 733 287 186 1 59
393 423 293 122 26 45
388 418 303 125 24 43
269 774 166 172 115 81
387 438 313 137 7 41
393 418 297 116 27 41
393 418 302 122 18 40
271 572 280 71 29 36
389 424 298 131 21 46
393 423 302 138 17 45
393 426 298 132 16 45
389 433 304 140 10 44
406 808 244 75 60 54
356 678 227 63 37 38
224 638 233 165 117 91
330 588 355 183 128 105
393 433 302 122 17 42
398 418 293 106 34 41
397 422 293 116 23 43
398 423 299 121 16 43
244 683 144 169 112 77
397 423 301 122 15 39
400 420 300 101 23 41
395 432 300 105 20 39
392 926 295 72 61 54
396 427 301 125 25 46
387 423 308 134 16 40
386 428 308 133 14 41
273 943 308 185 140 120
386 433 308 142 9 43
398 438 299 101 20 38
389 722 305 76 33 33
384 768 212 66 51 46
393 453 378 101 28 41
396 438 301 126 14 40
236 714 167 168 113 82
395 447 304 140 1 44
396 443 301 149 10 47
368 853 177 89 78 69
323 982 248 81 77 79
388 438 308 142 6 42
392 493 342 146 14 46
454 719 238 98 74 51
387 434 319 141 5 44
371 742 214 58 46 42
385 438 315 135 6 41
256 668 226 84 34 39
389 442 308 144 3 45
249 669 189 94 68 49
391 445 311 141 3 43
410 453 267 60 30 33
387 443 318 135 4 41
389 448 318 128 12 41
375 673 288 53 25 29
401 417 291 108 32 41
403 423 299 133 17 46
