ply
format ascii 1.0
comment Created by Open3D
element vertex 2221
property double x
property double y
property double z
property uchar red
property uchar green
property uchar blue
end_header
368 332 219 97 83 67
262 24 252 100 82 70
288 183 234 110 87 59
202 729 256 163 111 85
221 754 270 160 114 88
254 329 234 119 93 63
486 445 326 64 18 23
260 919 306 195 138 123
265 654 230 134 18 34
239 413 241 124 99 71
349 65 193 108 47 31
337 179 217 124 96 60
326 34 231 65 49 36
390 508 153 45 32 36
256 334 231 113 90 63
251 324 246 137 103 74
289 205 254 116 92 65
306 354 220 78 67 55
316 12 266 135 49 43
322 454 120 123 19 40
228 484 221 137 1 37
380 754 316 150 58 64
251 329 246 138 105 74
354 46 228 127 38 31
447 529 301 180 17 52
251 324 251 137 102 76
443 461 329 53 25 26
349 467 133 175 1 36
245 564 256 120 3 36
232 444 211 44 34 35
328 239 226 111 87 59
365 194 213 126 100 65
241 594 281 136 106 75
341 329 277 126 91 68
254 714 229 113 18 24
256 409 270 141 108 81
252 329 256 140 104 78
492 455 330 108 19 39
262 30 247 96 83 71
230 529 211 153 4 41
398 652 292 116 77 62
241 404 236 116 93 68
205 799 256 181 126 96
351 384 208 88 78 67
258 238 269 123 96 73
231 484 241 141 3 41
299 437 139 91 75 56
289 54 242 81 40 35
231 479 206 120 17 38
251 334 246 136 103 73
386 494 331 140 16 44
331 369 271 125 87 68
337 773 319 74 62 57
286 279 222 112 87 58
424 443 362 134 14 43
241 764 226 100 78 49
230 469 236 104 22 37
322 102 236 133 83 73
245 394 231 113 91 68
413 456 348 52 32 33
246 454 191 117 16 29
225 614 266 127 100 69
203 674 236 156 106 79
341 682 323 137 12 43
370 744 213 53 43 40
369 322 218 105 85 63
411 674 276 85 63 49
414 440 206 57 32 33
261 449 274 58 30 33
256 339 231 114 91 64
296 957 227 82 77 81
377 505 321 46 24 23
265 48 217 75 60 49
418 477 234 50 31 28
255 394 215 112 92 69
261 184 221 121 96 66
252 740 223 38 33 36
426 699 301 167 112 81
342 32 229 114 98 81
408 421 201 121 36 44
328 912 303 108 81 66
247 499 172 78 36 36
234 554 201 147 1 38
435 814 291 92 72 56
300 768 200 72 51 43
253 434 188 93 34 41
260 489 268 68 25 32
300 902 230 72 63 56
391 428 166 93 61 48
441 449 286 115 0 33
332 284 251 102 77 55
350 690 198 62 46 38
350 254 263 126 98 70
334 110 220 118 82 58
256 319 261 130 99 70
336 430 301 52 28 27
353 86 199 145 22 47
431 649 300 154 107 74
272 623 203 61 33 36
255 344 231 115 92 64
328 300 222 92 77 62
346 314 276 120 90 66
361 644 310 136 16 45
280 687 308 136 7 43
328 264 234 104 83 60
253 349 232 123 97 67
303 491 105 157 6 42
314 947 323 42 40 40
322 729 186 74 56 45
244 734 287 152 11 47
270 108 217 131 25 34
257 349 226 113 91 66
265 504 136 49 31 33
353 390 209 89 77 66
351 759 327 82 65 61
251 339 246 135 103 71
303 815 208 61 53 51
284 41 242 82 39 24
391 489 311 45 22 26
246 469 186 103 28 30
209 753 263 162 113 85
441 734 262 107 75 52
238 415 240 113 90 65
399 613 251 52 28 35
328 249 222 112 88 59
323 410 201 91 75 60
316 479 286 127 10 40
251 344 246 131 100 69
370 793 206 56 50 47
232 444 226 84 25 35
281 44 282 133 101 79
328 204 226 116 93 66
313 699 200 59 47 42
341 159 250 111 87 63
281 94 226 113 28 35
307 309 236 86 71 55
272 159 224 120 94 63
286 954 312 43 41 42
240 444 200 128 10 33
350 74 241 127 21 48
281 149 241 110 87 61
299 452 106 92 20 31
409 478 152 121 22 41
233 426 218 125 12 40
430 479 282 44 22 28
252 344 251 129 99 68
285 469 126 108 15 34
413 464 194 140 6 37
415 450 274 80 17 30
248 701 271 59 30 32
257 379 270 135 103 76
249 392 224 115 92 67
312 744 325 77 51 50
330 69 190 132 20 36
366 314 217 102 84 63
252 344 256 126 98 67
249 688 250 90 25 37
328 18 195 114 55 52
252 354 256 120 94 64
279 453 155 93 20 29
251 349 246 127 99 67
257 364 221 112 91 67
391 841 292 73 45 30
291 885 310 147 118 87
243 504 177 52 35 38
383 389 219 103 86 69
376 704 211 56 45 39
253 375 223 118 94 67
396 869 281 48 42 38
356 209 259 126 101 73
356 74 211 116 75 66
295 449 131 100 22 29
346 124 211 135 99 61
461 439 286 108 9 31
274 170 264 120 96 67
203 714 236 153 105 78
332 945 329 50 44 42
254 284 262 130 99 74
386 594 211 70 35 41
333 159 241 107 84 62
389 918 301 91 71 61
391 514 156 123 17 37
279 114 261 130 96 71
281 973 256 78 74 75
295 254 246 113 86 58
340 199 252 113 90 66
366 234 257 124 98 66
415 714 236 74 55 42
402 504 176 158 10 40
255 374 221 116 93 68
236 509 191 92 33 40
238 416 226 85 65 49
372 929 296 82 69 66
286 35 252 69 46 34
406 432 146 88 51 45
266 319 276 125 92 65
276 474 276 66 30 34
376 929 316 101 84 75
265 899 312 158 121 94
350 834 203 50 46 49
266 669 231 73 28 32
253 379 222 117 94 68
271 744 212 126 15 32
316 582 173 154 21 47
244 384 241 120 96 68
270 871 305 126 102 78
252 384 221 116 94 69
329 324 262 100 69 49
344 860 194 57 46 46
257 409 207 91 81 71
258 77 208 136 17 40
261 209 218 121 96 66
316 779 311 77 63 57
300 319 266 110 76 52
373 771 208 63 50 44
266 40 236 112 88 67
258 30 253 77 58 39
334 91 199 137 5 41
235 604 226 179 7 46
381 444 127 143 7 32
284 60 222 105 37 27
243 735 232 44 36 31
350 129 213 124 97 63
271 38 236 114 96 77
323 409 221 94 81 68
397 486 306 37 24 27
256 354 226 115 92 66
466 474 356 202 4 61
333 179 244 112 89 65
252 354 232 123 97 66
316 944 322 42 39 39
440 749 281 142 94 66
254 357 229 120 95 66
229 514 211 52 31 33
356 425 151 90 73 56
310 815 200 80 63 52
416 579 296 100 23 38
371 324 260 129 97 65
232 549 226 98 20 38
235 424 246 133 10 42
228 499 226 147 0 41
251 354 236 127 100 69
250 354 241 125 98 67
255 339 262 124 95 67
254 713 308 89 12 30
250 369 231 122 97 67
354 60 207 108 35 40
288 689 207 51 42 40
336 214 213 125 97 62
396 774 311 164 123 89
278 411 193 87 77 67
385 414 280 99 80 58
412 676 263 125 86 89
299 37 273 115 11 47
253 364 227 122 96 66
316 74 241 106 60 52
230 810 229 169 116 78
275 189 265 121 97 68
345 59 250 100 53 45
376 619 222 89 33 42
383 440 288 89 17 29
364 942 267 59 54 55
351 949 291 62 54 55
366 309 216 103 85 63
255 364 225 117 93 67
320 790 308 72 59 55
334 81 189 151 17 50
254 368 224 117 93 66
269 472 159 94 25 30
376 430 136 95 69 49
271 294 277 111 86 65
293 389 273 142 99 81
256 564 166 182 11 43
249 369 236 119 94 66
411 488 334 166 22 55
249 367 239 119 95 67
401 499 330 194 15 61
291 551 144 209 14 45
247 369 246 122 96 67
248 364 246 121 96 67
343 179 213 128 98 60
436 789 256 81 62 50
261 50 221 69 59 47
357 124 236 113 92 69
329 254 237 115 89 65
341 96 194 117 87 76
433 786 276 111 77 58
367 244 257 124 97 65
402 604 251 90 26 38
248 364 251 121 95 66
247 369 251 122 95 66
238 607 223 188 12 51
340 404 277 120 87 70
253 304 259 134 98 73
242 584 251 74 27 37
228 723 229 133 101 71
361 634 311 173 12 55
341 19 282 127 88 75
409 494 188 35 35 36
246 479 181 57 35 37
250 354 251 120 95 65
306 654 312 78 29 37
314 19 249 144 17 25
356 879 282 40 36 34
244 402 229 109 89 66
248 365 242 119 95 67
364 932 311 85 68 63
291 584 295 155 10 47
242 494 181 47 38 41
276 294 279 109 85 63
272 670 299 138 5 42
356 189 256 123 99 72
325 404 246 98 69 54
341 435 123 81 65 52
208 646 254 135 101 69
309 874 229 49 45 47
377 249 246 121 94 62
336 294 218 97 83 68
293 219 248 115 90 61
359 136 239 111 90 67
336 16 246 101 81 66
234 429 211 65 33 36
248 361 247 121 97 68
387 399 220 99 83 67
356 119 231 113 93 70
305 796 194 79 62 50
346 49 251 126 32 52
253 516 158 115 11 29
446 719 271 110 80 59
350 69 240 112 39 45
264 124 263 120 98 74
277 490 273 99 24 38
228 505 225 150 1 40
232 469 206 80 25 34
428 796 269 93 66 52
377 842 289 38 32 32
249 362 244 120 96 67
348 91 194 146 20 47
359 140 240 112 91 67
258 369 269 133 102 74
278 439 162 47 36 39
364 943 276 56 50 49
286 759 211 117 17 29
248 361 249 121 96 67
349 952 289 63 56 55
361 589 332 182 127 100
249 363 252 121 95 65
390 704 231 69 51 44
350 94 197 138 17 43
281 916 233 74 64 57
450 519 291 113 17 39
260 369 216 113 92 69
256 464 176 101 25 27
277 99 220 133 13 39
262 59 270 103 34 39
248 369 255 126 98 68
292 510 115 58 33 35
411 469 337 51 24 27
296 694 317 50 28 30
264 462 169 104 24 27
238 439 202 106 23 36
468 807 313 88 74 61
426 569 286 205 20 57
250 464 268 127 23 45
321 593 182 206 11 45
321 11 291 151 56 69
412 886 309 68 56 46
247 374 241 118 94 67
285 104 236 121 35 45
436 799 282 97 73 56
350 124 213 121 95 63
256 499 265 67 25 32
248 374 236 116 93 67
282 109 251 123 85 65
341 879 285 44 38 36
267 39 280 128 26 50
359 665 228 95 29 28
243 399 251 129 100 71
247 379 236 114 92 67
441 438 372 75 7 30
308 894 216 46 44 46
362 149 236 112 91 68
388 424 278 83 67 50
321 94 246 105 21 41
292 59 256 105 58 54
246 384 236 114 92 67
386 449 287 85 15 28
464 809 304 93 74 59
402 524 185 60 29 34
262 274 270 132 100 75
255 389 216 112 91 68
302 879 242 77 65 52
252 374 226 120 96 68
239 453 199 119 10 30
248 376 233 117 94 68
325 334 256 96 66 47
234 438 237 55 33 33
409 473 169 160 5 49
291 39 256 124 26 31
439 739 286 165 108 78
251 379 226 119 95 69
335 164 220 116 91 58
402 691 251 80 61 58
237 444 261 91 17 36
249 378 230 118 94 67
242 608 217 91 36 42
239 483 189 36 33 37
250 384 226 117 94 69
336 409 186 87 75 63
289 507 273 90 14 31
356 74 216 111 75 64
239 469 258 48 31 32
303 382 209 86 74 62
225 767 273 157 115 86
246 374 246 123 97 67
399 431 142 92 62 50
251 819 281 97 82 69
340 377 214 86 74 63
379 229 223 118 95 67
246 374 251 125 98 68
244 384 246 126 99 68
247 379 256 128 99 70
447 458 364 198 7 61
349 38 255 128 13 45
450 426 276 94 25 33
327 289 231 93 77 60
246 384 256 129 98 71
387 885 284 40 36 35
361 544 161 64 32 34
325 374 226 69 59 48
202 704 251 155 106 82
266 24 250 106 74 58
278 709 213 100 24 35
386 369 246 126 99 66
394 627 262 47 34 35
318 534 311 126 83 70
375 254 251 124 96 62
281 904 241 108 88 65
331 814 191 79 63 50
404 494 287 39 30 31
296 23 301 180 129 107
238 416 221 87 58 39
425 898 327 117 89 71
257 109 237 111 83 59
406 476 323 54 22 26
235 763 273 131 93 68
332 719 215 66 38 36
281 54 280 116 76 61
260 494 267 46 25 28
326 12 271 159 112 115
238 699 239 100 69 48
251 429 192 45 39 44
242 394 241 122 98 70
416 784 312 172 121 89
261 499 156 105 16 28
238 509 187 69 31 38
340 111 200 148 48 56
402 501 328 190 17 61
256 424 191 70 58 52
351 670 206 79 53 42
313 465 86 108 21 39
433 480 255 156 12 46
410 913 336 101 79 69
254 429 189 52 41 42
306 774 308 76 63 57
339 229 253 117 94 68
281 928 314 174 133 108
313 53 252 103 9 35
251 434 191 75 33 40
355 104 211 121 33 43
212 640 242 107 90 71
439 472 288 78 15 25
346 413 180 91 77 64
457 803 294 95 75 57
456 444 285 130 5 33
250 439 191 128 17 36
254 432 189 45 37 41
296 939 312 72 63 59
249 453 189 118 14 28
375 492 143 45 37 40
374 335 259 129 101 68
383 687 234 55 45 40
310 334 236 72 58 44
249 463 184 111 25 31
236 544 191 135 10 37
292 919 313 179 132 109
348 74 243 112 33 45
360 724 335 69 31 37
376 609 216 72 33 42
253 440 188 111 23 36
233 564 226 145 3 39
230 504 241 51 27 31
247 444 192 132 15 32
221 764 226 153 109 75
250 449 190 128 9 30
271 804 216 80 64 55
370 244 212 130 98 59
330 179 231 108 87 63
451 718 265 112 81 57
331 38 225 107 92 74
229 608 272 130 102 70
252 449 187 129 9 32
392 590 215 38 34 40
255 444 185 112 23 37
313 394 246 85 61 48
283 76 224 137 25 51
298 526 299 118 94 67
233 491 198 135 4 31
319 446 108 105 38 36
254 449 185 127 12 35
336 424 291 66 37 31
272 465 157 102 17 28
326 314 221 88 73 58
423 659 263 124 93 65
313 531 139 65 23 42
251 879 276 154 118 92
232 499 246 140 6 43
241 414 221 89 74 58
230 613 250 96 80 63
271 869 281 93 74 51
331 969 237 70 67 70
253 386 218 113 91 68
349 892 208 53 48 50
253 390 218 113 91 67
364 819 213 51 50 53
297 469 82 160 6 38
269 12 298 105 69 54
276 354 280 149 105 82
326 824 295 195 145 122
308 747 319 76 61 55
257 394 212 107 89 68
345 633 213 114 29 39
236 504 191 70 36 39
293 269 224 106 83 57
249 584 287 141 109 80
401 764 309 167 123 91
413 529 210 97 29 39
295 34 261 112 20 27
397 850 246 64 54 52
295 714 191 67 58 52
252 394 217 113 92 68
378 477 293 84 17 30
381 625 311 163 93 79
247 410 217 103 87 71
233 439 211 46 36 36
256 573 271 46 26 27
341 664 317 111 25 42
336 659 317 90 23 36
286 349 215 92 80 69
254 398 214 110 91 70
251 949 271 192 144 123
288 64 240 103 24 31
283 89 268 121 91 69
261 354 271 128 98 70
253 577 178 45 34 41
429 714 253 85 60 43
261 69 206 121 29 31
273 386 203 101 86 71
346 39 225 117 98 80
250 394 221 114 92 68
431 464 351 126 17 46
445 719 263 119 84 60
399 697 266 83 74 68
285 50 237 80 37 27
354 421 163 90 76 61
324 513 298 106 82 62
382 575 190 194 19 46
252 416 208 98 85 71
362 420 200 91 77 63
283 594 294 153 13 49
338 21 233 93 82 69
348 851 278 142 105 81
245 499 175 57 35 37
276 449 274 53 28 31
291 774 304 72 60 54
242 479 186 51 36 37
242 404 231 110 89 67
285 219 260 120 95 66
202 684 246 153 106 77
247 404 221 109 90 70
332 34 193 120 26 14
409 478 156 153 14 42
387 469 288 69 23 28
321 973 301 74 66 65
291 854 291 139 114 92
246 409 221 102 86 69
275 944 225 71 65 66
246 414 215 103 86 71
316 34 266 114 63 60
335 32 229 104 87 69
355 819 196 56 51 52
276 94 270 119 67 61
302 14 301 135 82 75
272 110 219 146 21 41
386 437 129 131 27 22
353 108 237 116 93 68
272 59 210 95 33 22
362 169 246 117 95 70
358 935 245 74 68 67
296 589 175 210 12 44
250 479 175 90 29 34
283 444 152 91 27 31
341 865 186 73 62 57
351 334 215 85 75 66
228 508 229 140 12 45
382 560 180 111 29 42
325 349 256 102 67 52
247 416 212 95 82 72
386 844 225 68 56 51
348 896 214 51 46 48
361 209 257 125 100 72
262 24 290 134 18 49
410 489 191 41 36 39
431 699 260 131 98 71
301 289 251 112 85 58
371 259 256 127 98 64
287 64 231 85 51 41
361 939 331 73 64 55
306 444 116 90 70 54
284 79 231 112 37 45
326 618 319 40 30 31
212 749 227 150 106 73
370 789 187 87 70 58
332 364 219 79 66 52
366 449 292 36 26 27
243 410 223 98 83 67
321 509 132 85 29 36
251 404 216 106 89 71
240 439 200 116 15 35
254 678 272 125 16 46
284 266 218 118 91 60
354 89 202 138 23 45
413 804 313 178 124 97
338 470 288 44 22 27
381 854 276 31 28 27
255 404 211 97 84 71
429 863 297 92 70 54
253 405 213 100 85 71
374 792 314 155 112 88
382 594 322 155 111 78
225 800 229 169 115 78
307 451 93 89 72 55
249 403 219 109 91 71
323 406 218 98 85 74
306 504 125 105 26 36
278 37 244 106 91 74
416 754 306 169 117 83
347 596 189 74 30 38
254 413 210 97 84 71
244 450 268 41 30 33
331 604 192 76 33 38
326 35 268 128 14 46
331 594 315 100 13 35
240 414 226 89 76 60
381 884 283 35 32 30
243 389 246 126 99 68
266 489 272 72 25 33
284 68 274 130 17 51
239 413 231 99 83 65
371 484 295 89 11 29
314 46 249 90 44 38
313 17 294 153 105 88
238 415 231 91 73 55
402 654 286 129 91 77
264 114 263 124 101 79
266 429 276 132 101 76
271 134 227 120 92 56
330 209 231 114 91 66
356 938 330 71 61 55
239 409 241 124 98 69
262 50 216 78 50 41
250 374 261 130 100 71
253 466 178 70 25 25
352 134 215 116 94 67
337 389 275 129 93 74
238 415 236 106 85 64
327 554 325 174 128 105
277 22 254 100 86 71
314 552 153 160 37 62
239 412 236 115 93 69
235 643 279 180 125 100
264 28 249 95 80 72
244 539 170 152 9 38
238 416 245 115 94 68
301 914 216 54 51 52
278 53 220 111 94 76
228 679 263 95 68 52
351 179 255 119 96 71
256 469 270 69 29 35
392 524 166 193 20 50
377 759 221 67 52 46
246 389 231 114 92 67
371 609 212 174 18 45
252 699 237 74 27 30
406 534 196 59 34 38
380 234 236 122 97 69
341 774 319 72 61 57
425 699 257 82 61 44
351 89 196 142 15 44
304 764 194 77 57 42
298 409 268 118 86 67
381 304 236 117 93 64
248 389 227 115 93 67
254 674 271 86 21 36
244 389 236 115 92 67
331 144 226 113 89 60
377 755 220 64 51 44
458 501 294 75 24 26
271 69 205 125 21 30
279 682 219 121 12 26
376 234 246 120 95 64
245 448 195 128 16 32
328 220 234 113 89 64
318 93 240 97 45 45
395 534 176 121 13 33
270 354 278 144 103 79
244 388 240 120 95 67
273 72 274 112 68 58
233 469 250 140 8 43
432 479 246 151 10 37
316 419 171 91 77 61
386 494 316 56 22 25
249 428 194 42 39 44
247 394 226 114 92 68
353 489 289 40 25 27
296 869 247 135 97 69
286 852 238 172 116 88
282 384 278 151 106 82
350 34 232 96 58 47
292 259 224 109 85 58
243 462 264 139 45 63
246 399 226 112 91 68
326 419 266 59 46 32
379 229 226 120 97 70
244 399 230 110 90 68
346 459 290 57 17 25
361 849 182 74 65 57
234 669 238 117 81 64
234 449 251 117 6 35
367 209 252 123 99 71
244 388 247 128 100 70
365 365 279 123 96 64
263 489 269 44 24 28
421 504 326 140 17 49
336 599 317 143 18 48
314 410 207 90 73 54
243 396 233 111 90 68
362 933 335 78 66 58
361 859 172 85 71 65
421 748 237 65 50 40
281 69 211 133 21 34
273 490 122 47 34 32
324 319 251 92 67 48
263 119 228 124 98 68
341 729 339 194 14 62
276 399 278 151 111 85
291 975 308 65 59 57
242 399 236 115 93 68
300 29 271 123 30 48
431 764 256 67 52 41
374 214 218 112 92 69
241 399 241 123 98 69
316 599 185 116 21 41
279 51 223 116 100 83
295 438 144 83 70 56
281 79 216 144 13 40
371 424 202 92 77 62
466 455 372 94 24 38
241 425 266 69 48 38
248 385 228 117 94 68
276 249 216 123 95 61
306 10 276 114 54 50
440 455 362 204 9 64
321 554 316 174 122 103
245 389 256 130 100 70
356 224 261 126 100 71
260 85 210 147 15 46
262 59 208 99 33 21
275 484 136 54 32 36
329 234 220 114 90 60
242 409 226 102 85 67
242 394 246 126 99 69
251 694 281 117 13 41
396 789 231 65 49 44
266 20 252 107 75 58
335 924 217 78 72 75
374 823 229 69 58 55
317 79 236 117 29 42
376 503 311 51 21 23
422 825 260 68 55 50
316 11 281 131 63 66
281 18 260 90 78 65
465 503 336 192 13 63
310 810 293 200 138 120
370 853 180 87 79 73
243 400 254 130 98 70
244 393 252 129 99 70
332 159 236 107 85 61
314 877 220 58 53 56
326 11 286 164 88 103
284 467 279 98 24 39
244 398 253 129 98 69
373 208 219 114 93 69
341 740 199 56 45 37
241 409 231 108 89 67
336 953 311 71 60 55
244 408 225 108 89 70
306 935 210 77 68 69
286 274 222 113 88 58
289 50 243 100 33 22
269 29 212 115 63 46
332 159 231 109 87 63
396 649 296 126 80 64
275 59 212 90 36 22
274 809 288 78 64 58
242 404 251 130 102 72
243 409 256 131 102 72
347 59 246 110 33 45
245 444 195 130 12 32
366 334 217 93 80 67
264 563 273 126 12 43
271 89 211 144 13 39
286 536 130 181 14 47
271 18 255 97 83 70
469 482 298 95 29 41
256 424 271 128 98 75
482 474 326 56 33 34
378 347 258 126 100 71
276 284 219 124 94 62
300 980 256 94 90 93
346 179 212 129 99 62
379 838 217 55 50 53
415 554 231 50 32 35
307 446 107 93 70 53
236 429 206 88 31 40
341 513 323 147 109 86
456 505 308 196 15 61
282 389 205 95 83 71
276 259 271 128 100 67
379 867 233 65 56 55
324 47 220 85 37 34
398 500 154 90 31 41
264 47 225 89 75 61
350 79 192 141 25 44
366 454 130 107 27 35
218 832 256 225 152 120
286 584 295 140 21 46
241 429 201 116 24 35
414 431 152 88 23 25
419 448 156 91 23 35
321 978 286 81 76 76
392 679 271 66 38 34
241 418 211 94 60 54
433 466 316 59 16 24
271 539 280 113 7 35
392 465 139 85 30 34
258 490 163 117 14 28
291 428 161 91 77 62
240 417 215 99 58 52
407 469 344 107 26 43
234 422 220 135 12 41
328 405 264 110 75 62
279 102 223 131 18 32
401 594 231 112 24 43
425 468 238 105 18 27
367 244 209 132 100 59
234 429 215 91 28 36
341 834 187 66 55 46
378 234 220 120 95 65
471 434 286 132 11 35
228 481 218 127 8 39
233 430 217 116 19 39
346 194 257 119 95 70
366 428 136 91 73 54
284 304 223 94 77 58
252 584 290 146 111 84
238 504 187 48 35 40
259 894 254 134 107 77
236 434 206 73 33 37
255 734 307 142 22 50
254 463 180 104 24 28
423 535 246 182 16 51
344 48 254 123 74 69
346 89 246 108 32 42
235 439 206 107 25 36
240 593 261 74 59 45
311 499 287 87 53 45
372 683 220 60 47 41
306 534 136 114 31 43
313 398 241 84 61 49
233 434 221 90 22 35
380 279 226 128 96 59
261 234 270 124 99 74
212 789 236 167 112 79
291 749 312 69 58 54
258 104 221 128 12 40
247 604 207 104 26 42
321 968 236 97 94 97
252 494 264 100 20 39
259 349 268 123 96 67
321 889 297 147 118 95
240 434 200 84 30 36
212 659 265 154 112 83
316 889 196 71 63 63
324 75 216 135 52 59
351 494 142 88 35 37
451 444 375 116 8 41
424 873 293 97 77 65
239 449 199 125 11 32
233 449 208 96 27 34
321 49 262 116 64 57
235 449 205 129 14 36
265 12 291 96 56 48
230 464 221 97 24 35
237 449 202 130 7 35
255 820 224 67 57 55
332 46 213 119 94 70
222 689 229 132 98 66
331 209 241 112 89 66
361 935 326 72 61 55
232 444 221 64 32 35
334 977 265 76 73 74
323 777 314 77 64 58
276 204 266 121 96 66
245 469 262 86 33 41
456 458 369 165 14 55
242 724 270 66 27 34
369 179 231 118 96 73
234 434 211 66 34 37
424 903 336 109 83 66
295 884 245 99 81 63
341 164 215 125 97 61
266 829 226 85 67 59
259 363 219 111 90 68
356 79 216 114 23 40
281 639 211 172 6 39
233 435 213 43 35 36
474 487 344 37 34 34
329 503 296 97 74 57
291 814 216 68 55 50
290 54 246 76 36 34
233 434 216 52 32 34
415 477 315 55 21 26
346 249 209 130 101 65
365 239 259 126 99 67
256 334 261 131 100 71
338 951 316 75 64 58
406 434 236 72 47 41
378 644 298 159 10 48
268 465 163 104 20 28
234 438 210 62 34 37
334 159 243 108 84 62
281 594 292 116 19 42
310 394 202 87 73 58
371 444 127 134 19 35
439 494 278 39 33 34
282 99 231 82 50 32
288 787 203 62 51 44
255 364 267 130 101 71
421 663 304 188 123 96
351 478 138 152 4 36
234 429 236 125 15 38
325 334 231 69 58 46
414 853 298 50 40 35
300 18 306 176 122 114
336 64 188 101 40 25
283 855 280 138 107 86
316 417 175 92 77 62
278 494 107 67 33 34
233 439 216 57 33 35
234 442 209 54 30 35
276 124 231 115 86 52
327 449 295 95 22 36
296 954 225 84 79 83
331 426 147 84 70 55
272 659 226 134 10 33
232 449 211 61 33 34
286 884 250 90 71 48
305 432 144 91 76 59
246 420 201 106 63 51
288 84 256 120 14 41
445 674 267 163 115 88
409 666 290 127 86 69
315 469 111 160 0 38
244 464 190 116 14 30
311 724 177 85 62 46
294 283 228 94 76 55
377 369 272 118 94 65
257 439 183 58 36 38
375 309 255 129 100 66
244 422 199 121 30 38
350 74 192 132 21 39
344 862 194 54 44 44
266 207 268 123 99 75
246 424 196 100 35 39
319 59 225 95 42 42
298 441 133 93 70 62
246 419 206 99 81 65
460 448 288 147 3 29
391 884 261 68 57 55
268 657 228 137 18 35
270 364 278 142 104 80
284 159 241 111 89 63
211 664 227 131 97 64
256 739 306 121 26 47
266 889 310 175 137 110
238 434 265 68 31 36
243 426 198 122 25 35
271 209 217 118 95 69
240 459 262 87 29 38
349 952 247 81 73 73
268 101 214 139 37 42
246 429 196 71 34 39
257 539 147 66 34 38
441 515 327 184 10 59
397 454 283 86 15 30
251 420 201 98 83 71
276 349 281 151 103 82
355 549 330 174 127 101
307 475 91 184 7 44
251 418 206 99 86 73
488 459 321 178 18 53
368 921 264 63 56 56
323 812 299 208 152 129
232 464 246 70 28 34
342 209 255 116 92 67
414 440 222 71 29 30
353 38 236 99 39 38
288 84 246 116 18 39
358 148 219 108 90 70
231 604 261 117 95 71
255 417 205 98 85 71
332 104 249 123 97 72
256 879 305 192 149 128
246 417 211 97 83 72
328 254 235 113 87 63
311 10 281 115 58 57
245 439 195 124 17 33
323 717 204 60 47 40
361 304 215 97 82 65
274 678 303 134 9 42
248 439 193 130 13 34
256 841 267 53 44 43
299 275 236 96 78 56
295 239 236 108 84 55
327 384 261 116 76 63
221 739 226 139 103 70
243 485 183 87 30 33
235 419 226 127 24 39
235 419 231 123 25 39
321 99 226 106 50 44
311 959 227 87 83 86
262 94 212 125 53 50
419 443 165 161 12 50
412 874 305 45 37 32
234 424 231 95 23 37
406 434 196 126 25 42
232 776 223 119 90 57
276 144 261 125 98 67
232 489 246 144 3 42
328 505 319 140 108 87
272 48 215 112 93 68
418 851 304 66 52 41
236 419 236 101 36 38
442 648 276 111 90 66
279 336 283 137 93 76
270 47 222 102 86 69
259 770 293 83 68 61
262 734 218 112 18 27
341 14 281 167 129 132
296 33 285 139 102 88
236 419 241 89 41 38
231 759 226 130 99 67
424 819 266 73 56 50
234 424 236 90 28 37
311 364 226 70 60 49
372 574 312 76 23 35
432 484 251 163 12 46
348 929 229 67 61 63
233 425 229 63 31 31
233 439 231 66 27 33
441 424 256 50 34 34
289 901 234 171 127 104
411 428 166 93 37 38
235 424 241 92 28 36
356 684 320 138 0 43
291 589 296 158 11 49
321 544 152 183 7 37
331 344 219 75 64 53
398 865 259 78 66 60
408 489 185 132 15 37
279 103 265 135 100 75
371 428 200 92 77 61
266 79 205 136 26 44
367 224 210 125 98 64
280 417 189 92 80 68
233 429 230 84 23 34
311 934 315 43 40 40
356 799 210 61 55 54
385 574 305 67 23 30
269 24 214 114 65 48
322 444 114 83 55 43
291 425 166 95 80 65
239 653 270 141 94 75
278 926 228 69 63 65
235 429 241 93 24 37
369 234 254 124 98 67
351 436 123 80 64 55
264 542 271 101 4 31
346 214 208 127 98 62
276 944 311 185 143 121
376 859 228 62 55 54
442 649 281 130 99 69
301 659 311 73 25 36
237 419 246 112 51 47
311 518 298 100 78 56
373 324 258 130 99 69
282 669 305 150 8 46
229 509 231 94 22 38
266 174 223 121 96 65
327 484 134 147 1 34
365 825 303 63 53 50
363 678 313 116 12 39
236 424 251 107 16 36
354 392 209 91 79 67
436 734 296 180 121 95
317 64 251 108 70 60
264 542 267 112 3 36
237 420 251 98 52 45
266 39 211 119 51 38
271 389 278 147 108 83
370 793 201 63 57 54
253 880 273 148 116 89
301 338 225 83 72 60
296 239 231 110 85 55
234 443 242 113 18 32
240 419 256 106 84 62
259 487 164 121 13 30
419 879 316 85 71 58
282 43 240 82 47 27
421 544 241 181 17 50
238 421 255 70 47 34
262 324 226 129 99 69
346 224 208 129 100 63
259 209 219 123 97 66
244 727 273 131 0 42
375 785 208 55 46 44
400 619 266 65 30 36
236 429 256 87 24 36
251 414 267 133 102 76
259 64 262 98 45 45
316 414 211 91 74 56
326 613 197 79 34 39
235 489 196 136 6 35
375 354 266 119 95 66
425 478 305 61 21 23
306 709 325 33 30 31
233 434 226 129 12 39
209 774 268 162 117 87
269 19 214 112 68 50
235 714 237 107 77 53
453 502 339 198 6 62
237 660 262 102 69 53
278 881 253 104 81 52
365 174 217 112 92 70
361 422 166 91 76 62
345 275 214 132 101 66
233 434 231 121 12 37
251 409 266 136 104 77
374 199 226 121 99 74
362 935 286 71 62 64
326 699 211 86 40 31
278 702 158 87 74 65
261 429 275 113 82 63
336 889 196 66 59 60
267 14 214 110 69 52
356 169 252 120 96 69
275 629 292 53 24 30
354 114 222 101 83 61
456 451 343 73 20 28
234 433 233 130 8 38
248 704 286 114 11 39
431 814 312 72 57 46
344 116 249 119 93 63
458 428 284 90 23 34
242 598 207 48 32 38
245 714 266 83 21 36
330 864 289 158 122 96
327 219 226 111 89 63
381 774 217 56 45 43
234 434 241 97 24 37
310 344 246 96 69 51
234 439 241 85 22 36
332 204 217 119 95 67
233 444 236 64 31 35
401 449 136 123 18 36
233 441 240 84 15 32
414 567 251 185 17 52
330 294 251 95 72 49
437 814 307 75 61 50
233 444 241 90 27 36
375 633 232 71 33 38
301 454 86 86 66 52
363 167 243 117 95 71
326 970 296 65 58 57
424 568 300 102 21 40
253 490 168 103 29 37
306 981 286 65 61 61
232 449 241 43 30 33
263 545 274 131 2 41
253 468 269 65 23 28
355 114 236 116 93 68
377 214 226 121 98 73
253 748 299 87 32 40
235 434 246 108 22 37
353 941 303 67 59 58
374 679 305 77 27 37
246 789 218 156 109 71
214 819 272 195 138 111
289 82 256 128 5 43
255 659 266 65 27 35
356 740 207 65 49 47
255 428 273 108 80 60
377 469 293 78 20 27
366 829 301 63 53 49
230 489 206 134 8 38
236 434 251 59 29 32
331 934 325 44 40 39
361 449 127 110 25 35
280 89 221 135 19 40
380 294 246 125 97 63
351 239 262 125 100 72
335 17 244 101 83 65
421 534 312 96 18 40
258 509 269 47 24 31
356 94 226 113 80 61
235 439 251 74 28 35
326 422 160 85 71 56
261 516 268 138 10 41
233 445 244 111 30 42
266 494 272 122 20 42
424 730 248 64 46 39
277 48 227 113 96 78
401 529 316 180 14 57
312 654 314 34 30 33
233 449 246 57 29 33
390 427 210 93 79 64
229 524 216 154 1 40
360 493 293 37 24 24
333 536 154 174 2 38
279 61 213 89 41 22
352 58 206 101 36 38
474 462 364 163 6 50
281 794 211 74 57 49
234 448 247 57 28 32
404 877 268 84 68 64
322 49 221 80 38 25
286 699 212 46 35 36
357 497 297 47 26 24
330 99 215 93 61 47
236 444 256 133 11 41
234 679 259 63 46 27
281 835 271 113 80 62
406 704 246 65 47 41
383 384 219 104 87 69
235 449 256 128 12 41
236 589 240 92 23 36
346 494 306 60 48 42
366 189 216 118 95 66
281 864 261 138 102 80
356 184 211 128 99 61
291 889 246 100 82 63
326 634 317 110 27 43
240 479 190 36 35 39
336 59 189 111 32 21
257 638 232 99 32 39
234 464 204 134 6 34
284 94 233 110 42 41
344 871 190 73 61 61
388 566 189 186 19 41
274 488 121 66 32 31
384 457 133 155 4 29
381 629 306 134 54 53
324 344 236 73 59 43
404 439 133 139 13 26
242 464 192 116 14 32
341 13 266 104 74 65
245 459 190 127 12 34
288 450 143 105 24 28
251 474 267 85 29 39
283 802 294 76 63 57
317 69 231 113 87 64
248 460 187 118 17 30
336 344 275 130 94 72
333 199 244 112 89 65
346 279 214 128 98 64
257 449 182 114 20 37
351 854 172 111 92 82
251 454 186 118 14 29
366 915 316 35 33 33
326 13 296 157 28 63
256 459 180 110 21 28
264 433 179 59 41 41
310 349 260 112 75 57
332 520 145 109 28 39
323 41 228 80 30 31
265 95 268 116 56 58
344 679 214 65 45 40
292 455 101 97 15 31
352 709 211 58 42 35
248 456 188 121 14 27
358 159 214 119 95 65
419 438 142 80 36 39
351 244 262 125 99 71
255 469 175 89 29 26
380 314 246 128 100 65
260 39 272 124 30 49
346 144 250 119 95 67
256 474 171 112 19 28
286 549 141 209 13 44
266 329 222 125 97 65
252 274 260 135 101 76
203 660 233 147 96 76
254 472 174 100 28 28
400 635 279 76 51 36
326 418 171 87 74 60
427 474 280 31 27 29
421 714 303 169 116 86
399 684 236 72 54 43
254 333 258 135 101 75
259 164 263 118 96 73
331 224 216 118 92 61
296 587 173 210 14 47
252 479 172 120 18 31
291 18 310 173 128 109
409 859 268 90 73 71
254 274 263 134 102 77
282 169 231 113 88 56
426 629 291 125 98 65
306 684 201 71 51 43
325 417 174 88 74 60
256 389 270 134 102 76
241 469 191 82 27 29
247 504 171 85 31 36
373 506 314 46 24 26
296 504 111 100 30 41
294 287 228 90 73 54
247 474 181 44 36 39
293 218 230 110 85 54
375 229 246 118 94 66
298 946 219 84 79 80
368 677 224 72 42 39
288 99 246 118 14 36
353 100 204 125 26 42
395 635 313 181 121 97
341 629 316 86 23 35
257 421 193 82 73 64
243 474 187 85 36 35
316 428 146 81 66 54
266 74 204 123 38 43
326 99 246 118 86 69
299 497 282 63 26 32
432 484 261 154 9 39
294 457 119 108 16 30
253 294 259 133 101 75
340 877 283 43 37 35
319 96 237 97 62 47
365 819 216 53 51 53
245 474 185 66 34 33
271 389 203 100 85 70
244 478 184 51 37 40
386 724 306 144 3 44
248 938 280 178 142 122
297 35 282 130 36 53
333 149 240 107 83 62
250 469 180 66 32 34
248 466 183 107 23 25
324 721 197 67 50 43
261 119 231 116 94 67
286 978 266 83 79 81
308 708 181 83 74 68
251 524 265 55 26 30
351 749 332 81 30 38
265 494 155 110 16 32
259 204 219 123 99 69
342 618 313 80 31 36
276 99 268 132 102 74
249 473 180 41 35 38
242 589 256 103 28 42
304 15 295 109 56 56
364 506 306 54 22 23
433 648 298 150 105 72
383 704 302 142 0 44
362 685 214 55 38 36
282 58 220 96 41 24
414 452 143 113 28 35
248 476 178 36 37 38
366 269 260 131 97 63
316 74 236 112 28 39
251 444 272 80 26 37
255 509 160 113 12 30
326 30 271 137 93 76
229 474 231 95 23 35
257 509 156 107 11 30
296 480 273 65 25 31
388 379 251 117 95 68
271 784 210 81 61 51
334 239 247 117 93 69
261 34 276 123 24 47
238 480 192 69 25 34
241 609 221 160 16 48
371 930 321 88 75 71
363 929 251 64 57 56
241 484 186 60 36 38
216 719 226 139 103 69
252 374 265 133 103 73
337 209 250 114 90 66
365 314 265 126 92 58
325 957 321 60 51 45
281 329 220 97 81 64
220 794 230 170 112 79
240 489 186 49 34 36
373 223 248 119 94 67
272 797 213 77 60 51
276 699 217 63 31 37
335 209 247 112 88 65
438 475 289 76 9 28
266 284 219 129 96 61
439 699 294 167 115 85
259 74 263 113 23 43
239 489 189 64 30 34
426 484 300 63 23 23
391 399 226 105 87 67
318 79 231 99 79 59
286 239 221 115 90 60
233 842 259 207 137 109
240 494 186 65 39 40
306 889 301 146 112 85
342 214 255 117 94 69
362 814 210 50 47 50
238 495 187 52 34 38
487 459 316 133 14 39
237 494 191 70 26 34
464 469 293 72 32 32
340 270 214 129 99 65
241 499 181 42 38 41
362 765 323 80 67 60
262 319 270 125 93 64
453 447 354 80 24 28
284 903 239 141 114 87
337 273 218 113 90 62
239 499 185 48 38 42
278 436 163 45 36 38
279 87 218 141 13 33
391 868 279 42 37 33
404 848 258 72 58 54
313 39 247 96 30 34
213 767 228 164 110 79
237 599 280 136 105 74
377 329 226 114 92 67
238 499 187 45 37 40
340 584 321 157 90 79
236 499 191 71 32 40
247 489 176 77 35 36
209 749 263 163 113 85
325 384 211 74 65 56
232 474 206 76 30 36
324 414 238 88 63 49
383 369 224 108 90 69
256 489 166 99 20 31
340 139 215 127 97 61
258 224 218 124 97 62
249 484 175 94 29 34
336 759 326 81 66 59
332 179 241 110 88 64
385 364 231 118 95 69
369 180 234 116 93 67
323 498 303 86 53 45
386 609 320 170 118 84
306 759 192 62 47 40
249 488 174 88 33 36
343 366 213 82 73 62
291 204 231 111 86 55
474 447 321 73 13 25
282 654 218 156 9 38
254 484 169 109 18 30
324 339 251 89 64 44
346 259 261 124 96 70
253 494 167 96 27 32
279 144 233 104 81 51
343 184 213 128 99 62
361 910 306 35 33 33
255 494 165 103 22 31
434 641 277 101 84 65
400 549 192 174 19 44
351 224 261 123 99 72
384 721 309 152 2 47
334 592 183 204 13 51
250 494 170 96 30 36
376 795 219 58 49 49
243 480 183 84 37 40
280 139 256 117 90 63
330 429 297 113 19 39
471 460 367 154 17 53
243 912 283 169 121 103
263 46 212 107 45 33
376 549 318 70 25 35
403 764 235 55 46 42
242 489 182 59 39 40
326 559 160 82 30 38
283 416 188 96 83 70
306 848 222 72 54 48
271 749 311 169 20 57
245 484 180 76 34 36
292 459 116 100 19 34
247 704 281 97 24 37
301 349 222 81 71 61
340 849 196 61 51 48
244 489 180 54 36 36
363 544 323 122 44 48
361 279 212 135 103 64
429 798 257 65 52 44
291 944 216 92 83 86
407 434 216 71 35 35
244 494 179 46 38 41
342 834 201 50 44 45
324 75 200 141 5 44
309 482 283 120 5 36
388 860 244 69 56 55
244 504 175 80 34 38
335 973 276 63 59 58
246 509 171 62 32 34
283 192 258 114 90 63
351 449 127 160 2 32
244 509 174 107 27 38
327 981 266 67 62 62
251 504 166 74 27 35
274 174 223 119 94 62
202 744 241 166 113 83
299 764 204 64 43 37
380 544 167 187 16 44
254 498 164 75 28 34
346 478 138 161 0 32
386 589 206 108 30 43
261 64 207 110 37 30
253 505 163 113 21 37
371 433 130 91 71 53
283 482 98 51 44 35
331 644 213 94 26 37
276 364 210 98 85 71
302 357 219 84 74 63
230 494 236 146 0 40
247 704 271 51 31 36
371 254 256 127 99 65
416 474 341 106 27 43
311 654 211 119 17 29
337 119 216 119 89 56
286 309 283 117 88 62
330 58 259 120 21 44
407 663 291 127 85 69
286 627 203 185 6 42
276 19 256 98 84 70
367 615 215 85 36 41
255 504 161 109 18 30
240 594 242 93 24 39
291 10 296 169 107 122
442 461 325 55 23 27
339 938 328 42 38 37
391 496 333 190 18 61
250 499 170 65 33 37
358 129 231 113 92 69
255 509 266 55 28 32
476 446 316 63 23 27
376 629 305 137 31 46
249 503 169 64 30 34
416 483 278 57 25 31
229 484 236 83 18 33
322 504 311 132 95 77
271 94 212 146 20 38
369 214 213 121 97 68
382 649 255 54 30 33
268 509 123 69 32 38
351 194 211 119 95 66
421 804 236 80 63 52
301 359 217 87 76 64
250 509 166 118 19 34
428 790 266 91 64 51
264 514 131 90 24 36
350 114 245 116 94 70
242 474 260 64 32 36
271 264 272 130 100 70
248 510 168 98 25 31
390 694 286 77 26 35
287 74 236 113 49 46
230 494 206 79 26 33
237 454 201 125 9 32
268 491 147 89 23 34
234 454 205 126 9 33
339 447 123 150 27 35
284 51 232 82 55 43
361 920 326 41 37 36
346 314 216 90 79 69
257 644 236 121 22 37
296 949 221 84 79 82
271 709 314 139 7 43
241 459 196 128 9 33
476 464 300 125 11 30
326 79 211 122 35 51
401 599 296 97 21 39
238 460 198 128 11 32
236 464 201 128 8 32
238 464 198 122 9 32
406 449 137 85 24 36
283 479 98 71 32 42
240 464 195 120 11 31
233 459 207 133 13 37
290 229 256 123 97 67
227 625 243 102 84 64
254 679 276 66 23 34
234 459 204 136 9 36
417 504 216 154 10 40
321 874 296 159 123 100
323 50 217 83 48 35
203 674 251 149 102 75
259 904 308 157 116 92
401 714 292 70 39 30
382 334 241 124 97 65
231 454 216 89 26 36
395 730 223 69 55 45
306 394 201 87 75 62
251 364 261 125 97 67
382 334 236 121 97 69
231 454 221 95 29 38
336 415 176 88 74 61
307 859 232 58 46 44
229 469 221 95 24 36
351 920 321 35 33 34
231 459 216 76 30 36
351 249 209 133 101 62
316 620 200 103 30 39
351 24 241 86 59 48
233 509 198 41 36 36
438 679 293 167 113 85
290 543 303 135 104 77
363 611 209 36 35 40
333 94 202 133 6 40
355 89 216 124 31 45
236 684 241 107 75 54
232 459 211 59 29 32
230 459 221 55 32 34
358 941 287 61 52 53
396 419 216 93 74 60
280 698 313 137 8 43
301 474 85 200 13 38
411 634 275 110 85 58
356 139 245 115 92 67
411 494 331 190 16 61
366 788 201 68 58 54
203 767 248 171 115 89
401 795 246 72 49 41
232 454 211 104 23 37
266 869 301 109 89 68
248 509 259 104 15 37
330 498 296 90 63 52
245 549 171 124 16 37
236 822 279 194 148 120
448 479 284 114 20 40
267 644 286 149 8 45
296 384 205 94 82 70
284 84 231 111 34 39
330 784 192 62 51 46
235 469 201 130 6 34
203 699 255 153 106 81
272 115 225 129 87 59
431 454 241 53 35 37
263 405 203 90 80 69
292 362 214 91 79 68
371 359 272 118 93 64
260 929 301 79 61 59
236 479 196 128 8 33
234 479 200 134 4 35
379 679 299 112 22 40
356 309 215 87 76 64
271 758 305 84 67 61
261 209 267 120 97 72
238 475 193 95 28 28
313 27 274 127 30 53
345 933 228 63 58 60
290 244 223 111 87 57
426 463 339 64 26 32
203 664 250 144 97 70
281 119 246 108 80 54
248 879 296 183 133 116
243 483 259 137 24 49
341 724 340 189 12 61
329 380 268 122 83 67
336 975 266 74 71 72
231 469 211 54 33 34
422 549 266 51 33 35
231 474 211 73 32 38
396 431 142 90 64 51
349 957 253 76 69 70
384 744 310 94 23 37
229 474 216 96 24 37
292 710 207 66 34 31
336 39 221 116 95 70
421 564 307 114 20 44
276 409 196 88 78 68
315 59 241 93 47 36
428 784 240 66 52 45
310 369 221 74 64 53
391 554 311 109 27 45
339 159 248 105 80 61
333 234 245 118 93 69
229 479 216 84 23 33
396 419 251 83 70 56
228 479 222 134 5 37
263 87 208 155 28 51
281 714 210 65 35 35
243 456 193 118 15 28
300 792 188 65 51 43
311 689 320 86 26 35
286 11 310 134 35 57
324 52 214 90 64 47
306 539 141 190 12 44
257 189 223 123 98 68
231 454 231 63 29 34
346 49 211 125 104 86
284 69 217 120 22 33
232 454 241 76 29 36
275 524 266 74 21 34
340 144 215 124 96 60
230 459 226 41 33 34
229 464 226 78 29 37
261 669 286 33 29 31
357 204 258 127 103 75
231 459 241 84 26 35
438 676 293 169 116 88
406 479 340 120 25 43
285 179 255 115 92 66
362 884 230 54 50 53
380 284 241 126 96 63
230 464 236 79 29 35
361 604 321 162 98 83
281 10 276 94 61 54
259 286 224 132 95 60
261 74 206 129 22 36
323 475 129 160 0 32
210 695 229 147 105 72
415 659 270 112 79 66
231 464 241 55 30 33
269 479 155 73 26 31
233 454 250 92 17 33
237 425 261 86 31 35
417 450 355 126 5 36
351 224 207 128 98 61
443 820 316 86 74 64
258 88 213 140 7 41
204 774 246 172 117 85
323 315 228 78 65 51
234 454 252 128 11 39
261 44 271 122 49 57
314 39 245 97 24 33
280 104 226 117 27 34
287 214 257 121 96 67
426 879 327 81 66 55
235 454 256 120 17 42
285 58 279 119 21 44
381 859 276 36 33 32
339 517 323 151 113 92
342 505 144 163 3 37
331 649 317 36 30 32
232 459 246 92 24 35
348 83 243 102 17 37
233 459 250 103 18 37
356 674 316 146 2 46
240 699 246 79 48 43
246 449 270 63 28 36
351 69 236 105 66 54
413 437 224 78 29 31
362 159 221 110 91 71
369 908 252 60 53 53
233 464 250 108 13 36
234 598 271 121 96 67
234 464 253 143 12 46
374 659 243 93 22 30
229 469 226 107 19 37
246 699 256 94 16 36
254 441 273 117 22 40
271 504 271 125 11 40
229 509 236 45 30 32
266 484 271 47 26 30
385 689 295 86 24 36
230 469 231 126 13 39
280 129 241 109 85 56
339 952 322 79 68 65
341 494 314 131 104 84
324 384 231 76 61 47
351 945 321 94 79 71
256 454 272 65 27 33
324 815 194 69 51 42
374 688 208 60 49 39
366 254 210 136 100 60
387 869 241 69 57 55
348 806 200 63 56 54
273 560 304 149 115 91
229 474 226 97 21 36
247 635 277 153 99 79
229 494 231 147 1 41
331 949 227 75 71 73
398 690 241 60 45 41
418 549 256 90 27 38
312 384 231 81 65 49
228 476 226 71 25 34
395 426 186 108 62 54
432 475 303 62 18 24
228 479 225 105 19 36
438 836 310 64 49 40
229 479 227 89 20 35
286 844 230 79 65 58
293 308 277 111 83 55
378 688 224 53 42 37
321 12 266 135 68 66
229 479 231 73 25 33
366 174 241 116 94 71
272 371 208 104 88 70
397 464 282 72 21 30
230 474 236 63 26 32
231 474 241 103 16 36
383 349 246 126 99 67
329 254 220 110 87 58
395 553 187 176 19 42
230 479 236 97 23 38
236 634 240 117 87 61
276 874 306 130 106 80
335 109 206 143 21 45
323 802 304 198 146 122
305 314 227 86 72 58
279 119 237 107 82 52
318 436 118 81 67 52
366 354 215 92 82 71
232 474 246 131 5 40
310 359 221 74 64 53
335 184 247 109 86 63
416 695 247 67 50 38
266 13 296 100 57 50
266 89 210 152 20 49
357 679 206 61 47 41
316 426 152 83 68 54
236 469 256 67 27 35
450 781 281 122 84 63
276 804 290 78 62 57
408 541 204 39 38 40
325 299 231 89 76 62
269 281 219 127 96 62
429 778 234 70 56 51
325 932 213 72 66 67
328 199 226 118 94 67
362 703 327 118 6 36
233 474 250 144 7 42
289 49 246 99 32 28
257 587 183 174 12 48
258 134 259 115 95 74
395 779 226 53 44 43
253 360 264 124 97 67
234 474 252 87 22 37
298 733 187 61 47 38
286 406 193 92 81 71
233 478 250 149 7 44
291 569 160 184 15 44
340 189 214 119 94 63
366 214 212 121 97 67
461 452 341 70 21 30
235 479 252 151 16 49
378 219 226 121 98 73
231 484 206 123 13 35
420 759 237 66 51 41
264 364 214 112 92 71
425 866 319 74 60 49
367 640 230 129 26 44
281 39 285 130 25 51
381 427 156 88 71 53
475 451 366 71 19 28
346 828 182 50 43 40
278 650 299 152 9 48
229 503 227 151 0 40
328 254 231 108 85 59
343 52 200 97 67 30
235 664 237 128 89 71
331 928 212 69 63 64
301 354 220 83 72 61
344 590 322 139 69 62
420 497 294 61 24 28
232 489 201 137 4 36
418 638 308 155 110 74
232 494 201 133 13 37
448 530 311 157 13 47
428 763 245 73 55 44
229 489 215 132 8 37
342 399 279 124 90 69
336 944 330 54 48 44
329 100 248 122 96 73
326 749 327 110 49 56
333 264 249 112 88 65
394 863 252 62 52 52
375 669 242 76 40 36
319 429 288 48 27 29
234 494 196 134 10 35
351 209 208 122 97 65
233 494 198 126 6 34
233 539 201 149 2 37
301 779 305 76 62 56
316 498 288 89 65 51
239 695 255 50 33 27
229 489 231 146 0 40
229 484 211 101 24 39
366 423 166 91 77 62
229 484 215 104 15 36
306 11 271 122 41 33
328 254 222 109 86 58
234 663 265 123 84 68
238 593 207 183 12 45
373 373 214 96 83 69
266 29 247 103 73 60
379 344 255 126 99 69
229 489 211 118 13 34
228 489 221 138 2 38
229 489 228 145 0 40
232 544 211 159 0 42
229 494 211 52 32 36
442 425 265 76 22 32
231 539 226 103 19 39
278 96 268 127 98 71
333 139 222 121 94 61
361 534 157 76 30 38
330 304 256 96 68 47
228 494 221 127 11 38
220 624 266 135 103 70
403 658 296 136 89 72
232 559 226 146 5 40
232 504 201 42 35 36
385 694 296 126 10 39
302 744 187 79 60 53
277 17 259 93 81 68
283 69 214 118 16 26
271 64 206 111 29 30
419 426 233 89 19 29
230 504 206 103 24 38
261 844 246 77 62 58
334 144 220 119 93 62
301 874 245 115 86 60
381 574 306 39 27 29
282 149 246 108 85 59
232 509 201 50 32 35
301 934 312 62 55 52
267 51 208 124 24 21
342 144 249 118 93 66
279 209 264 121 96 68
325 329 226 69 59 49
466 799 291 94 72 57
230 509 206 117 22 40
283 163 234 107 84 55
313 29 248 100 30 28
234 499 196 103 24 37
255 765 292 84 68 61
301 340 223 82 72 61
388 590 210 99 34 42
259 62 209 93 43 18
233 499 198 81 30 35
330 452 123 67 36 39
234 504 195 55 37 36
233 504 198 42 35 36
366 459 132 146 14 37
229 499 211 67 35 37
229 504 210 87 29 36
301 869 245 132 94 66
310 329 251 107 74 58
341 209 210 126 98 63
351 844 207 46 41 46
273 440 168 101 27 32
318 450 109 141 9 35
251 434 274 66 26 32
262 885 257 129 102 75
228 504 221 138 7 38
229 510 211 64 32 36
351 806 189 63 51 45
300 523 298 113 89 65
228 509 216 43 32 36
254 354 262 121 94 65
233 602 231 179 2 48
348 965 261 55 50 51
228 489 226 143 0 39
313 412 196 90 75 60
230 489 236 138 4 39
346 500 315 94 61 54
346 249 260 122 96 70
230 489 241 137 2 40
406 910 325 72 58 53
406 823 231 53 43 41
346 54 201 98 66 33
347 359 213 84 74 65
345 824 185 59 51 48
271 599 186 172 25 50
332 139 226 116 91 62
319 33 240 64 44 28
228 494 226 143 2 39
294 43 280 122 16 43
292 33 259 73 49 35
294 224 228 109 85 55
403 429 231 77 51 45
276 24 300 139 101 79
324 96 248 116 57 57
412 663 304 185 126 98
232 484 246 142 4 42
385 634 246 134 27 48
248 934 276 92 79 74
232 494 246 146 4 43
420 539 256 54 25 34
368 709 208 60 46 39
276 544 136 66 30 37
335 38 264 133 14 49
296 429 280 110 21 39
233 483 249 153 5 47
361 639 225 82 27 39
306 19 266 140 48 35
417 469 206 93 22 34
346 754 196 78 60 46
256 329 261 135 102 73
281 139 246 109 85 57
271 899 315 171 132 106
266 609 282 60 38 34
351 540 159 158 8 37
235 484 251 152 10 49
238 484 254 98 20 41
406 574 302 44 29 30
283 242 219 116 91 60
366 479 293 102 5 31
302 729 319 114 22 45
334 214 214 122 95 62
263 335 223 121 95 66
379 502 322 43 23 24
238 489 254 159 7 48
339 139 248 117 91 65
433 836 294 68 54 47
421 449 237 39 35 35
426 824 311 71 54 42
272 47 225 109 92 74
229 504 231 146 4 40
346 364 280 137 101 76
406 504 186 151 10 39
331 129 236 114 86 63
228 509 226 152 1 42
300 452 95 90 62 49
229 510 228 135 15 40
277 479 136 47 31 34
321 43 264 127 93 75
366 349 271 115 90 59
246 644 251 113 67 55
418 569 264 146 17 44
230 509 241 64 29 35
308 19 257 139 28 18
323 544 324 164 117 99
311 374 241 92 67 53
280 219 218 119 95 65
300 811 214 56 46 42
316 789 193 76 58 47
206 689 260 158 111 83
286 964 236 82 78 81
361 349 215 91 81 71
339 854 202 47 40 43
416 508 324 188 16 59
328 28 193 114 55 52
324 309 241 102 86 69
236 499 251 155 4 48
446 494 342 184 15 60
233 504 249 152 3 46
238 498 254 157 5 50
293 279 263 118 91 62
384 739 310 64 29 35
396 421 212 95 79 64
241 499 256 159 7 50
386 369 231 119 96 70
270 36 238 113 95 75
286 389 276 149 104 80
296 980 271 69 64 64
379 284 245 125 97 63
239 501 253 158 5 48
411 424 196 134 14 38
414 887 292 103 81 66
283 78 231 110 42 48
366 369 279 125 98 66
397 483 339 114 25 44
412 564 304 46 28 31
363 223 258 124 99 71
239 504 253 157 5 50
212 769 269 162 119 88
345 837 203 43 36 41
337 149 217 121 94 59
267 354 275 136 99 75
296 454 106 93 14 29
328 12 274 167 119 124
260 319 266 126 94 65
241 504 255 151 8 49
389 427 203 94 79 63
236 509 250 148 5 47
351 289 215 109 85 59
338 205 213 121 95 63
418 524 226 155 11 41
309 442 115 90 73 55
331 423 156 86 71 56
234 510 248 131 11 45
356 124 226 110 91 71
326 74 252 117 88 67
256 419 271 138 104 80
239 509 253 154 5 48
338 951 312 74 61 56
412 794 232 72 56 50
376 599 207 55 33 38
242 509 255 153 6 48
272 11 271 83 62 56
249 259 258 131 99 73
281 769 210 83 48 46
346 244 260 121 96 70
341 114 249 123 97 67
294 249 241 109 83 55
368 823 179 68 62 60
309 314 241 90 71 52
263 364 274 137 104 77
291 714 320 143 23 52
251 259 261 130 100 74
436 528 319 116 22 44
268 607 193 201 12 50
228 827 238 197 132 102
286 299 224 97 79 58
251 264 261 130 100 74
254 259 263 129 100 76
346 593 187 63 35 39
414 445 216 55 35 37
261 129 261 118 96 74
254 264 263 129 99 74
251 610 288 178 124 100
249 383 263 133 103 75
306 583 172 88 25 38
256 259 266 129 100 75
328 268 223 100 79 56
378 284 225 121 92 59
248 588 192 189 13 44
336 124 247 117 90 67
309 24 254 121 30 26
242 650 267 117 77 60
256 264 265 128 99 74
261 469 271 48 28 31
328 960 234 85 80 83
252 729 227 100 19 27
311 714 176 74 62 50
341 69 251 119 17 44
357 659 312 140 13 46
301 604 187 206 12 44
252 269 260 133 101 75
254 269 263 132 102 76
322 479 130 158 0 35
421 539 261 56 25 36
257 274 265 132 102 77
300 484 273 70 24 33
201 729 246 156 108 78
297 259 231 107 84 56
335 214 247 115 91 67
253 289 259 128 97 72
385 912 282 71 57 53
237 704 262 69 49 33
338 521 149 176 9 42
287 89 261 110 40 45
375 259 251 127 97 61
254 289 262 129 98 72
416 654 308 185 126 96
306 450 96 92 71 53
361 824 302 66 55 52
253 419 269 128 97 73
216 714 227 139 103 68
255 294 262 134 102 75
250 684 251 77 28 36
257 294 266 132 100 75
387 459 288 79 17 27
314 819 293 198 146 120
297 747 314 68 55 50
350 426 143 88 72 55
332 254 246 114 90 66
337 134 217 122 94 61
356 360 213 89 79 69
352 959 271 63 58 59
253 299 259 134 102 75
335 39 193 120 28 15
349 957 280 62 59 61
255 299 262 137 103 77
301 584 172 198 16 46
354 78 198 141 24 46
361 179 251 118 95 69
319 427 149 78 63 51
422 569 271 72 22 35
250 909 261 175 126 105
255 304 261 136 100 75
324 319 241 93 76 58
256 309 261 138 102 77
380 284 231 127 96 61
273 841 263 53 36 30
253 314 259 135 101 75
357 139 221 110 91 71
237 604 221 111 21 41
251 509 261 85 23 36
408 663 300 158 105 83
256 314 261 134 101 74
296 10 296 183 123 139
346 119 247 119 95 67
231 524 241 52 28 31
254 404 268 138 105 78
321 519 136 92 31 38
360 290 269 122 95 62
401 889 301 43 37 34
292 373 209 92 81 70
356 840 287 42 36 38
355 109 231 117 96 72
