ply
format ascii 1.0
comment Created by Open3D
element vertex 2220
property double x
property double y
property double z
property uchar red
property uchar green
property uchar blue
end_header
316 369 362 128 101 71
344 456 402 120 19 46
415 695 285 72 60 48
319 370 361 127 100 71
332 742 163 132 98 60
324 262 317 127 101 72
327 262 319 129 103 73
322 267 315 124 101 74
309 394 367 114 91 67
327 267 318 127 102 74
327 272 318 124 101 75
376 767 309 55 43 38
322 277 314 121 100 77
325 278 316 120 100 78
322 287 310 116 98 79
324 286 312 117 99 80
326 282 315 118 99 79
290 906 243 56 53 56
329 282 318 117 97 76
327 287 314 113 96 77
404 789 301 39 35 33
292 652 367 163 121 91
330 287 319 121 100 78
338 409 402 42 27 27
322 292 309 115 98 81
295 435 381 134 5 37
327 292 314 114 96 78
328 297 313 115 97 78
334 307 324 126 102 74
360 515 209 129 9 38
322 302 307 115 97 79
292 862 339 123 92 72
320 303 306 111 94 77
278 637 304 51 32 38
329 292 317 117 98 78
331 292 319 123 101 78
301 542 184 115 92 68
330 294 316 118 99 79
330 298 315 119 99 79
332 297 319 123 101 78
395 740 296 38 29 25
329 301 312 115 97 78
379 457 354 139 4 41
421 736 271 66 54 48
358 557 204 86 23 39
331 302 314 118 98 77
287 937 360 72 67 64
254 940 310 70 66 66
364 764 346 58 43 45
321 308 306 110 93 76
322 312 305 109 92 75
384 697 254 62 51 44
324 317 307 110 92 73
353 792 354 153 106 81
327 317 309 110 92 73
300 793 314 78 64 58
331 307 314 118 98 76
333 262 323 129 103 74
335 261 325 132 105 75
335 267 329 131 104 73
401 422 301 71 9 28
292 767 284 75 61 57
296 694 377 150 109 82
333 272 324 127 103 75
334 272 329 130 104 74
335 262 349 136 102 72
335 267 344 135 102 71
375 682 299 125 5 40
273 727 284 158 11 48
334 272 344 135 100 70
337 817 359 145 98 74
335 270 342 133 100 69
335 266 348 137 103 72
330 277 320 121 100 76
333 277 329 129 101 72
356 801 190 153 101 74
334 277 334 130 99 71
332 287 329 129 101 73
296 732 204 112 37 42
331 282 349 137 102 76
361 737 343 45 26 28
329 283 350 142 105 79
336 797 170 171 117 82
266 562 269 160 0 44
330 286 348 134 102 76
372 742 324 93 20 37
380 732 229 44 41 41
337 262 334 129 101 70
406 411 273 150 11 46
256 562 343 64 34 29
327 267 358 141 99 73
339 725 172 125 96 62
323 267 361 143 99 72
349 395 334 68 58 49
298 903 383 49 44 42
270 900 262 83 70 59
322 272 360 144 98 72
298 757 204 118 86 58
300 528 190 59 45 33
364 745 197 119 93 61
326 272 358 143 99 74
327 947 319 56 51 49
290 593 219 158 26 52
328 272 355 142 102 76
330 261 357 143 102 75
298 802 189 184 137 110
333 262 354 142 104 76
279 581 236 151 23 54
322 277 358 144 99 73
324 279 356 143 99 74
383 848 316 92 87 83
323 282 356 144 101 73
367 417 425 155 15 50
320 286 357 142 99 73
329 760 376 155 112 79
326 286 352 142 103 76
390 440 332 156 15 51
330 276 352 142 103 77
237 572 345 161 119 90
267 462 375 85 24 35
317 822 209 67 47 51
332 292 324 126 102 75
275 696 227 58 33 37
332 292 329 124 98 70
361 866 249 58 53 56
333 297 324 126 102 75
421 712 254 50 40 34
332 292 334 127 95 69
392 797 304 36 31 29
332 297 334 126 98 67
333 302 329 126 99 70
332 387 360 111 89 65
331 297 339 116 90 61
330 388 362 108 87 64
317 822 199 208 142 112
330 297 343 119 94 65
405 477 306 50 28 31
329 292 346 129 99 71
329 924 354 56 50 51
335 674 186 116 91 62
330 290 347 132 102 75
329 297 346 122 95 66
409 467 269 45 30 31
397 403 333 157 18 54
331 302 339 116 90 60
330 302 343 124 98 68
334 312 324 125 100 73
334 312 329 126 100 72
333 307 334 126 97 68
312 893 379 32 30 30
333 312 334 126 99 68
276 537 199 169 3 51
360 891 359 56 52 50
327 312 349 133 99 72
332 307 339 121 93 63
330 307 343 125 99 68
330 312 343 123 96 67
332 317 339 122 95 64
330 317 344 128 98 68
384 497 380 149 9 44
322 292 354 133 99 70
276 672 259 38 30 34
325 296 352 133 99 71
263 858 319 135 70 76
322 322 305 103 88 72
315 790 382 186 133 106
321 327 306 98 84 70
324 327 307 100 85 71
324 322 307 106 89 72
327 322 309 107 90 72
297 652 184 177 127 98
321 332 306 94 82 70
264 522 339 55 24 29
323 332 307 96 83 70
326 332 310 100 85 70
365 843 230 77 64 59
303 696 376 146 106 75
326 337 310 97 84 70
339 814 361 150 100 74
331 322 314 115 95 73
304 439 387 136 10 38
334 322 319 121 98 73
379 427 350 39 30 32
447 802 340 102 81 63
328 337 313 100 85 70
331 337 315 102 85 69
333 337 319 108 89 69
433 796 353 59 48 40
379 544 361 55 33 37
292 637 234 151 1 41
322 342 308 91 80 69
366 872 189 100 85 72
320 348 306 89 79 69
323 352 308 93 82 71
443 728 292 92 71 55
326 347 310 98 86 74
327 482 394 146 15 46
326 352 310 97 85 74
375 820 350 46 38 33
331 342 315 96 82 68
340 654 347 152 26 53
333 342 319 100 84 68
329 352 312 97 85 74
333 347 318 95 80 66
311 822 309 70 56 50
334 352 318 93 80 68
289 627 236 130 22 44
322 382 279 89 77 66
321 379 285 92 79 67
322 381 284 90 78 67
388 562 314 189 18 58
361 637 234 145 12 40
327 381 289 92 80 68
254 932 324 46 44 45
302 622 219 93 26 40
230 532 311 155 92 76
450 799 352 82 69 57
322 362 304 97 85 73
320 364 300 95 84 73
321 357 305 93 82 71
340 387 353 117 93 67
369 864 321 67 63 59
327 357 309 96 84 73
326 362 310 101 88 76
328 367 312 105 91 78
331 357 314 95 83 72
392 477 289 121 12 40
386 867 344 52 44 41
329 362 312 101 89 77
284 771 363 175 125 96
281 637 314 87 26 39
334 362 317 98 86 74
322 377 294 94 81 69
307 747 385 173 125 97
323 372 304 101 88 76
362 762 349 76 47 44
323 377 299 95 82 70
365 858 213 103 85 67
323 382 300 90 79 67
325 376 301 97 84 73
273 747 309 111 40 52
371 602 319 93 31 42
326 383 298 86 75 64
382 397 314 57 48 43
398 427 257 104 8 31
332 383 294 86 76 65
363 533 201 108 19 42
340 678 201 90 65 52
325 373 306 102 89 77
370 842 241 70 60 60
327 372 309 103 90 77
325 375 306 101 88 75
362 867 204 101 83 70
280 732 348 177 120 92
327 377 310 103 90 77
326 382 310 102 89 76
253 579 352 144 108 80
330 370 311 105 92 81
384 432 393 50 30 35
330 376 311 107 93 79
329 377 312 106 92 78
406 447 305 109 12 36
337 372 319 125 106 86
337 442 398 51 27 28
295 900 242 58 53 58
279 735 252 90 57 57
332 382 312 110 95 80
341 378 316 134 112 90
274 428 372 62 24 28
381 582 289 141 25 46
342 382 315 127 107 87
377 702 234 67 38 37
345 384 315 100 84 69
334 321 329 125 99 69
332 657 348 71 29 34
384 533 360 85 27 37
335 322 329 126 100 70
313 820 194 208 140 108
245 534 293 56 35 32
334 327 324 121 97 70
334 327 329 125 99 69
281 948 267 72 69 71
395 537 255 156 19 43
334 322 334 126 98 67
298 777 179 160 118 83
335 323 332 126 99 68
335 325 330 126 100 70
334 327 334 125 98 67
334 331 323 118 95 71
335 332 325 119 96 70
335 337 324 115 93 70
334 331 334 125 98 67
317 537 202 122 9 30
306 557 180 122 97 68
335 333 334 123 97 67
402 432 274 143 6 44
272 887 334 98 79 64
297 637 359 146 106 77
324 322 351 130 96 68
267 712 289 117 28 44
324 327 351 126 94 65
327 327 349 131 99 69
324 332 351 124 97 67
333 322 339 125 97 66
362 522 194 136 17 28
331 327 344 129 100 70
333 327 339 125 97 67
391 522 334 160 12 47
329 322 346 131 97 70
264 597 310 156 12 48
334 332 339 125 98 66
436 687 265 78 57 41
335 337 339 123 97 68
322 532 201 121 11 27
334 336 340 122 96 66
371 526 382 174 28 59
332 337 344 124 97 67
335 339 321 110 90 68
371 862 329 50 44 41
264 888 276 150 113 86
336 342 329 115 93 68
284 582 215 72 34 36
370 864 332 45 40 39
276 622 279 80 30 39
336 342 334 118 95 68
336 347 324 104 86 68
255 629 337 175 122 90
328 342 350 120 95 65
291 762 339 105 75 60
307 617 175 145 103 63
336 342 339 120 95 67
384 490 372 139 5 40
333 342 344 121 96 66
335 343 342 120 94 65
387 542 289 71 30 36
331 342 348 123 97 67
336 347 344 119 94 65
460 706 291 91 77 62
243 602 335 183 124 95
287 542 379 159 18 49
329 346 351 119 94 65
374 431 363 136 6 41
294 762 214 56 50 47
332 347 349 120 95 67
335 349 347 120 95 66
296 532 179 125 98 68
337 352 344 119 94 66
335 353 348 121 96 68
278 542 204 147 0 44
462 702 291 92 77 63
337 352 324 100 84 67
338 352 329 108 89 68
437 717 280 93 69 52
337 347 334 116 93 68
302 532 189 82 58 42
369 894 319 58 52 51
338 352 334 114 92 67
322 948 324 58 54 53
282 742 284 77 62 56
338 352 339 119 95 67
359 844 364 44 36 35
322 322 353 131 98 70
287 452 381 75 28 35
322 327 352 126 94 66
352 394 323 63 55 47
322 332 353 124 97 64
322 337 353 123 95 63
274 521 230 138 15 38
362 813 197 96 72 59
327 457 396 152 18 49
326 342 352 118 93 63
289 777 341 141 104 74
212 517 329 170 122 98
275 609 267 88 47 45
322 347 355 123 96 63
323 351 356 124 97 65
321 353 357 124 97 65
330 348 352 120 96 66
331 352 352 119 94 66
347 507 396 48 26 30
334 356 351 121 96 68
403 407 276 97 17 37
311 895 340 40 35 38
268 848 285 134 111 89
338 357 324 97 82 66
339 357 329 105 86 67
302 722 383 160 115 86
339 355 334 112 91 67
287 582 175 148 105 65
340 358 330 106 87 65
246 524 282 138 10 41
339 360 327 101 84 66
340 362 329 102 84 65
341 367 324 94 81 67
340 368 321 97 84 68
376 812 219 69 54 46
342 367 329 100 84 67
431 753 296 83 64 47
341 362 334 108 88 66
342 367 334 105 86 65
339 356 340 118 94 67
339 878 216 90 79 74
338 357 344 118 94 67
340 358 338 116 93 67
339 361 345 117 93 65
392 667 269 95 71 54
340 362 339 114 91 66
263 872 332 159 118 100
341 367 339 111 90 65
341 367 344 115 92 66
388 832 268 66 55 53
273 617 304 181 14 54
340 373 321 128 106 84
342 372 329 99 85 70
343 377 329 98 82 65
237 567 323 165 105 79
343 372 334 106 87 67
249 874 296 184 132 115
378 572 248 155 15 40
344 377 334 106 87 65
345 379 326 85 73 61
344 380 323 78 68 58
325 738 373 154 116 83
345 382 329 89 74 58
344 380 331 100 82 62
344 380 334 105 85 63
385 419 396 84 24 27
306 527 202 71 28 29
389 803 252 52 46 48
345 382 334 101 82 61
343 372 339 112 90 66
240 533 333 91 50 47
395 812 274 65 52 48
339 372 350 120 95 66
339 377 351 120 95 66
340 372 348 119 95 67
256 902 329 170 132 110
345 383 339 110 88 64
345 383 342 113 91 65
328 357 355 120 95 65
369 874 370 63 55 52
352 394 314 71 62 54
326 358 357 120 94 64
407 437 259 133 8 32
364 568 227 79 31 39
322 362 359 122 96 67
322 367 360 124 98 68
387 822 314 86 83 85
327 362 357 121 96 67
347 387 329 81 68 56
284 602 181 158 109 75
392 817 319 93 89 88
327 367 358 122 96 67
280 552 198 166 29 63
332 357 353 120 95 67
266 547 248 38 33 37
329 361 356 121 94 65
342 807 184 192 130 102
333 367 355 122 96 67
330 368 357 121 96 66
336 367 353 122 97 67
322 372 361 125 99 69
321 373 362 127 99 70
322 377 362 127 99 70
327 377 360 123 97 69
407 827 378 75 55 42
450 738 307 88 70 54
326 379 362 124 97 69
398 417 298 117 2 27
388 873 324 51 45 43
346 555 377 190 18 60
258 502 364 162 12 48
336 732 165 126 95 61
327 382 363 120 95 67
349 929 310 55 49 47
328 382 361 120 94 66
331 372 358 122 96 68
447 777 339 65 54 42
333 371 356 121 96 67
336 372 353 121 95 66
337 732 359 108 5 31
332 382 359 119 94 66
434 697 268 85 65 51
335 383 357 118 94 66
411 827 309 78 64 57
283 840 287 105 84 60
340 383 352 119 94 67
358 518 213 133 9 42
390 711 243 54 39 44
258 402 319 96 62 50
277 667 269 149 3 44
252 917 319 182 137 115
294 385 257 108 94 79
307 387 259 113 99 84
297 792 179 169 124 91
309 386 263 113 98 85
308 390 257 113 98 83
312 390 262 115 100 87
317 392 259 108 96 83
317 388 265 98 84 70
317 390 262 105 91 77
298 672 184 158 109 78
313 385 267 95 82 70
263 392 324 110 72 52
388 668 278 46 36 27
263 397 324 110 72 52
331 925 348 62 56 55
264 397 334 119 85 60
265 392 329 119 81 58
265 392 334 122 88 61
393 432 289 128 6 40
268 387 339 124 93 64
269 388 342 124 96 66
268 392 343 125 97 67
272 522 173 152 109 76
270 392 346 122 95 66
276 567 239 133 2 34
273 392 348 117 92 64
305 804 239 137 105 92
265 397 339 124 93 65
342 797 364 158 111 83
264 399 337 123 91 65
270 395 346 119 92 64
258 408 324 94 61 45
262 402 324 108 71 51
381 867 279 64 54 53
260 406 324 101 65 48
261 406 329 109 75 53
261 407 334 110 80 56
258 412 334 98 72 49
260 410 334 105 77 53
358 582 204 115 24 41
258 413 344 79 64 49
261 410 339 106 82 57
261 411 344 97 78 57
264 408 344 110 87 63
279 750 327 153 30 61
265 401 340 121 92 65
253 556 305 69 34 32
265 406 345 115 91 66
267 407 349 108 87 64
375 718 221 90 37 37
270 406 351 107 86 63
276 391 350 117 92 66
427 677 274 89 73 59
307 577 376 145 18 48
275 396 351 114 90 64
285 623 243 46 36 37
276 702 223 104 22 38
262 412 359 65 50 43
262 412 364 103 21 37
266 410 354 72 60 47
269 409 359 68 55 42
270 410 357 67 55 40
268 413 367 117 10 38
264 414 367 135 12 43
264 417 367 135 12 43
267 417 367 108 17 38
270 410 366 115 26 29
294 766 212 58 52 49
377 397 274 68 33 33
366 902 304 57 50 47
338 637 213 109 14 31
272 412 369 129 13 43
352 682 213 102 25 29
272 417 369 61 28 32
299 787 208 170 125 96
278 393 353 117 93 66
377 406 259 71 29 30
282 392 355 115 91 65
270 729 297 207 7 57
286 386 356 119 93 67
287 392 358 116 92 66
312 787 383 190 138 111
281 397 356 114 90 64
287 397 359 111 88 64
405 486 309 110 14 30
280 401 356 110 88 63
426 806 308 82 61 55
317 921 245 85 78 78
283 402 358 107 85 62
282 407 364 87 44 39
357 597 219 69 25 34
288 403 362 95 74 57
364 442 417 39 26 28
287 407 369 101 36 38
292 462 383 70 21 30
292 872 341 126 92 75
277 412 370 77 26 32
277 417 371 64 29 33
281 411 371 91 23 33
283 413 372 108 19 38
318 872 324 50 42 35
342 822 199 125 82 72
282 417 373 80 25 33
397 814 364 61 51 42
287 412 373 125 15 41
258 428 367 96 17 35
260 425 366 39 29 31
284 745 337 42 29 29
394 442 292 125 6 38
267 422 368 87 22 35
292 937 254 82 74 76
272 422 370 65 26 31
284 770 351 170 121 91
272 427 370 88 26 36
262 437 370 130 9 38
429 804 332 80 62 53
259 444 372 67 18 32
258 447 372 45 27 29
262 441 371 124 7 37
262 443 372 125 8 39
316 437 391 121 14 42
411 404 314 114 13 34
262 447 372 110 14 37
272 437 373 34 27 28
267 447 373 131 9 41
272 442 374 56 23 28
258 862 309 147 115 93
272 447 375 82 21 32
249 621 352 172 122 95
392 717 224 64 47 45
279 419 372 35 27 27
287 847 323 135 106 80
275 425 371 41 24 27
357 408 399 57 43 37
282 422 374 56 28 31
287 422 375 89 24 36
282 432 376 109 15 36
416 817 320 64 52 50
266 949 295 64 60 60
292 757 234 85 69 62
286 426 376 118 14 38
288 428 377 126 9 39
285 430 376 88 18 33
287 432 378 123 9 37
396 407 295 61 19 30
277 437 375 87 21 34
278 442 377 121 17 41
281 436 376 125 8 36
367 409 414 58 31 28
382 707 244 65 36 37
282 437 377 127 7 38
284 433 377 113 9 37
404 494 271 164 18 58
282 442 378 103 17 35
287 442 380 118 15 38
287 447 381 82 25 35
372 397 274 70 39 35
421 722 271 53 42 38
322 687 174 118 89 53
295 387 361 122 97 69
322 747 162 136 98 62
297 387 362 122 97 70
355 788 181 154 108 79
295 392 361 118 93 67
291 396 361 112 89 65
327 597 368 135 28 50
297 397 364 111 89 65
303 399 367 104 84 64
377 452 415 80 23 35
292 402 363 93 74 57
291 406 365 64 54 42
355 850 352 42 34 31
409 440 271 149 11 42
296 405 366 64 56 48
368 827 311 32 30 29
297 406 369 62 53 43
302 402 368 76 64 51
379 854 316 86 83 81
327 487 393 160 18 51
292 408 374 95 32 38
297 407 374 53 39 32
306 405 375 62 55 47
354 869 226 62 53 47
346 693 206 82 29 32
291 417 376 130 13 43
363 902 289 64 57 55
293 412 377 86 24 33
294 409 377 71 23 33
387 802 249 60 51 49
397 717 224 64 44 43
370 674 231 83 39 38
293 417 377 90 24 38
424 803 289 91 72 61
301 797 309 77 62 56
302 406 374 58 49 40
404 467 276 103 22 41
265 717 314 168 0 49
300 411 381 55 23 29
303 409 382 96 15 36
277 502 380 146 10 44
236 528 333 81 42 33
300 417 381 134 13 43
307 387 365 123 97 70
270 690 309 135 5 41
365 659 231 49 30 31
307 392 365 118 94 68
312 387 365 122 97 70
312 391 366 117 94 68
318 391 366 111 90 67
317 397 368 98 80 62
307 402 369 77 65 52
375 790 307 33 28 28
312 401 369 76 65 52
391 527 334 141 16 46
286 643 367 152 113 85
308 404 373 64 56 47
265 649 361 149 108 81
312 403 374 64 54 46
398 842 289 69 58 54
307 406 379 80 45 36
371 797 314 45 38 34
337 917 254 71 65 66
312 404 377 62 54 47
262 624 332 159 107 80
310 405 376 64 52 46
264 848 299 159 126 98
307 408 383 124 9 38
309 412 387 135 7 43
411 437 269 153 13 45
268 834 300 135 111 87
317 403 374 64 55 47
317 404 378 63 53 45
317 406 384 64 46 36
292 422 378 54 26 30
297 422 380 98 23 36
380 521 377 165 32 61
262 627 333 162 108 81
292 432 380 133 6 40
247 567 348 145 109 82
296 427 381 93 18 36
296 431 381 137 6 43
326 830 353 107 70 53
350 786 176 170 120 86
300 420 381 115 14 35
299 424 382 81 21 25
362 522 204 112 15 39
302 427 383 112 14 37
348 812 350 110 78 58
302 432 384 134 8 41
292 437 380 136 6 42
297 437 383 137 7 42
294 438 382 139 7 44
297 442 383 140 8 44
357 892 264 63 57 59
262 457 374 54 26 29
313 837 250 143 113 84
267 452 374 105 18 36
412 691 239 84 63 47
272 452 375 75 23 33
297 777 214 59 49 49
284 585 219 44 30 36
421 806 348 60 50 42
259 473 377 80 19 31
388 417 414 145 11 43
262 466 376 78 26 37
385 522 363 60 31 35
382 457 409 87 27 37
262 472 378 70 25 34
441 714 292 88 71 60
262 477 379 134 13 44
387 731 291 51 36 27
267 467 376 85 22 33
378 533 370 101 28 40
267 472 377 60 26 29
407 842 359 84 64 50
323 918 243 79 72 71
268 470 376 82 24 36
384 574 271 85 16 36
271 470 376 66 22 31
322 830 354 113 72 53
272 477 378 92 20 34
277 452 378 55 27 32
437 672 265 98 71 50
277 457 379 48 25 29
282 452 380 78 24 33
312 937 354 77 71 69
282 457 381 87 27 36
373 422 364 112 18 39
288 453 382 55 21 27
284 462 382 37 27 29
327 406 389 61 54 42
306 533 195 85 26 29
287 462 382 36 29 30
277 467 379 56 25 29
422 732 298 63 49 37
277 477 379 78 22 32
391 492 329 150 3 42
283 467 382 42 27 29
283 472 382 84 17 34
280 477 381 124 17 41
276 607 259 106 36 47
283 477 382 132 16 43
258 502 334 79 21 36
378 672 254 68 38 28
258 512 324 106 4 32
260 511 326 113 0 33
383 482 374 144 9 40
392 399 324 64 50 45
261 512 329 117 1 34
344 390 283 86 76 67
259 505 334 110 19 43
259 501 344 160 0 44
259 500 349 162 3 47
260 503 349 156 2 47
260 504 336 85 6 28
302 787 219 66 56 52
262 507 344 133 1 40
391 761 218 54 40 39
292 732 209 128 6 33
407 398 264 120 22 32
268 672 359 182 125 100
263 512 344 56 24 31
342 722 174 124 97 65
263 512 349 103 11 37
286 572 204 98 26 38
375 774 201 82 66 61
259 482 377 147 8 46
332 602 203 63 32 36
259 487 377 150 12 47
347 627 344 120 24 45
262 487 378 150 12 48
340 399 357 70 59 48
296 602 218 49 31 33
266 577 279 158 3 45
259 496 377 159 15 49
243 542 324 102 35 32
387 497 349 47 26 31
262 492 379 154 14 48
398 748 303 39 30 26
267 482 379 131 7 40
283 527 219 124 7 40
322 403 374 63 54 45
267 487 379 111 11 37
379 578 324 71 26 37
272 482 378 126 11 41
257 862 294 124 100 76
272 487 379 131 10 40
352 395 259 82 37 41
267 497 381 121 17 42
272 492 380 129 11 40
395 815 359 49 42 35
242 582 325 170 111 82
356 678 216 49 37 42
272 497 380 97 15 34
260 503 354 156 7 46
297 537 179 128 100 69
260 503 359 160 10 49
285 834 317 133 104 84
337 682 348 66 28 36
258 502 369 172 15 53
395 399 322 60 40 35
439 782 323 76 58 49
347 572 368 187 0 59
263 507 359 157 10 46
264 511 364 156 12 47
264 511 369 160 14 47
258 501 374 173 17 54
260 503 375 171 17 52
262 507 374 174 18 54
334 799 371 164 114 84
263 507 378 131 14 45
277 951 324 61 57 57
267 502 381 43 23 28
357 542 204 89 26 39
307 522 388 108 24 42
266 507 380 82 21 35
297 787 179 167 123 88
252 582 353 148 111 82
264 510 377 170 18 47
270 504 382 36 26 26
272 507 382 108 17 40
377 562 349 141 20 50
272 512 382 157 16 50
275 677 249 135 6 39
277 487 380 139 12 45
277 497 380 148 11 45
350 410 411 121 15 40
388 807 253 56 48 49
280 482 381 65 22 29
369 682 320 55 26 30
306 667 359 144 101 75
291 662 228 43 39 42
371 412 379 125 10 38
287 482 384 99 21 39
391 727 229 51 41 39
287 487 384 91 17 37
467 806 355 101 88 76
281 492 381 96 9 34
375 880 294 59 52 51
281 497 381 143 11 44
266 537 275 145 0 43
273 506 381 100 11 33
277 507 381 149 12 45
411 799 304 75 61 53
241 533 319 97 32 33
275 509 382 148 13 43
281 502 381 150 13 47
359 913 294 55 49 46
283 501 382 147 13 45
287 502 383 143 15 46
389 502 344 112 17 37
284 505 382 135 11 48
401 427 301 97 2 34
287 507 383 78 16 32
372 841 390 56 45 35
286 513 381 155 17 50
290 450 381 39 26 28
297 457 385 83 22 35
347 400 355 63 55 46
282 637 254 161 5 45
292 512 384 103 24 40
322 392 259 99 87 75
322 391 263 98 85 73
392 857 359 77 60 48
373 864 380 61 48 45
287 831 304 97 77 52
327 392 259 100 88 76
326 389 266 96 84 72
331 389 270 94 82 70
333 390 268 95 83 72
332 393 259 100 87 75
442 717 294 85 70 60
379 537 242 47 34 34
337 393 259 97 82 71
411 437 314 78 24 33
288 587 204 85 38 43
327 386 274 92 80 69
324 385 277 90 79 67
387 758 223 47 39 35
347 532 199 109 21 32
412 772 269 50 42 39
325 384 276 90 79 67
346 891 245 62 56 59
337 388 279 90 79 69
250 627 350 177 124 98
342 394 259 94 72 64
404 834 342 67 53 52
344 395 258 92 66 59
347 394 258 88 53 51
319 620 182 140 104 64
348 395 263 85 56 53
347 393 269 85 70 63
341 389 280 88 78 68
342 389 284 86 76 67
342 388 289 85 75 65
347 391 279 87 76 67
331 956 289 84 78 81
347 390 284 85 75 66
352 392 279 83 71 63
352 393 274 82 66 60
270 578 248 160 0 42
324 385 301 89 77 66
324 385 304 91 79 67
327 387 304 87 75 63
335 384 293 84 74 64
300 817 339 142 101 78
337 386 294 83 73 63
372 418 426 156 16 50
405 772 302 35 31 28
331 384 297 84 74 64
332 386 299 81 71 61
366 857 333 56 51 49
332 388 304 82 72 61
337 387 299 81 71 62
357 396 259 81 29 38
395 851 377 68 57 52
337 388 304 81 71 61
332 387 309 97 84 70
342 405 384 61 51 43
334 390 308 85 74 63
364 578 351 115 34 47
335 390 306 82 72 61
337 389 309 91 78 67
337 387 313 109 93 79
346 389 294 82 73 63
337 839 319 24 24 26
348 390 294 83 73 64
375 865 377 69 57 46
352 391 294 83 73 64
247 547 329 94 51 49
302 877 254 69 60 55
490 754 310 97 80 64
346 389 299 81 71 62
346 389 304 80 71 62
338 592 201 150 12 35
352 392 304 83 72 62
342 388 309 87 76 65
349 391 310 81 70 60
407 812 344 38 34 31
346 387 314 82 70 59
254 888 312 65 54 58
374 604 296 124 37 44
349 392 314 69 60 51
349 392 319 62 54 47
349 395 311 78 67 56
285 627 244 124 15 40
350 395 310 79 68 57
462 757 319 100 78 57
350 395 314 69 60 52
317 637 182 160 106 72
350 395 319 63 55 47
357 394 264 80 36 41
232 517 314 113 36 33
289 853 327 130 100 75
295 793 337 136 102 72
324 602 193 116 90 63
361 398 260 79 28 37
366 399 265 72 34 34
362 396 269 74 42 41
367 397 269 71 38 35
292 907 354 33 32 34
247 532 289 61 32 35
359 395 273 76 55 51
357 393 284 82 71 62
219 526 332 172 126 102
291 632 234 160 0 42
331 911 374 59 55 55
362 395 274 73 52 47
360 394 276 76 59 53
362 394 279 77 63 55
350 642 221 132 6 31
367 396 274 70 46 41
398 848 299 77 66 67
296 819 349 167 115 89
357 437 414 88 22 35
362 394 284 79 67 59
362 393 289 82 71 61
365 394 281 75 61 53
367 394 284 74 60 52
373 652 269 124 14 39
312 537 201 99 20 24
404 839 347 72 57 57
287 837 318 136 104 81
357 407 259 80 29 38
487 762 315 104 83 63
372 406 258 69 29 29
332 827 209 67 57 55
354 409 257 85 28 39
354 415 257 75 26 35
362 402 260 77 27 35
272 567 245 71 26 37
263 582 309 155 2 42
364 400 262 75 30 34
456 787 330 118 88 67
395 855 365 65 54 43
362 407 259 73 28 35
367 407 259 70 28 32
256 642 355 171 122 96
362 412 258 69 28 35
432 788 358 64 49 36
366 861 213 106 87 71
348 878 234 60 50 47
347 523 391 186 23 61
361 415 257 61 28 32
227 552 338 170 123 95
308 906 387 55 49 47
380 880 329 59 51 48
378 872 279 64 55 54
294 790 330 51 46 46
366 411 257 68 29 33
396 399 300 50 29 29
400 522 264 130 21 45
364 414 256 70 28 34
234 577 339 173 122 96
372 398 269 71 33 31
382 398 270 72 28 33
372 394 286 66 49 43
442 812 353 88 71 55
378 878 289 55 48 48
392 542 274 51 26 32
372 394 289 64 49 43
267 607 360 152 113 84
402 417 259 131 9 28
382 395 279 56 32 31
382 397 274 67 29 32
378 394 285 53 34 31
372 394 299 71 60 52
382 395 283 52 32 31
332 602 365 68 29 36
299 752 204 115 84 56
281 567 194 153 101 83
382 394 285 49 31 30
383 472 344 111 16 38
373 400 267 71 31 30
377 400 267 72 29 31
382 403 264 73 28 32
270 598 279 59 33 38
382 407 259 75 29 32
359 656 227 105 30 35
383 405 262 75 27 33
382 400 267 73 27 33
357 392 299 87 76 65
387 847 319 102 90 83
367 394 294 83 71 61
357 393 314 70 62 54
311 682 359 136 101 75
357 394 319 67 59 52
342 827 348 34 27 26
362 394 309 78 68 59
362 394 314 71 62 54
362 394 319 68 60 52
365 394 318 69 61 53
280 707 335 50 29 30
377 394 294 57 41 37
376 394 298 62 50 43
377 395 299 61 51 44
373 395 304 70 61 53
407 752 303 45 36 30
374 395 301 66 56 49
385 412 342 97 25 38
382 394 293 51 35 31
382 395 295 52 36 32
382 395 299 53 40 35
312 938 345 68 62 59
372 395 309 71 62 54
364 476 407 170 20 58
257 872 324 169 125 106
369 395 310 73 64 56
377 396 309 64 56 49
262 602 359 149 110 83
277 637 284 88 31 42
352 497 399 43 28 30
377 396 314 65 56 51
291 767 339 116 82 61
377 396 319 67 56 51
404 417 271 143 4 44
382 396 309 54 47 42
346 387 324 71 62 54
326 885 378 32 29 31
347 392 324 67 59 51
347 387 334 95 77 59
347 392 334 79 66 52
352 395 325 65 57 49
275 860 272 129 105 79
352 395 329 66 58 51
352 396 334 64 56 48
280 642 309 69 30 36
344 387 345 115 92 65
391 712 239 56 41 43
339 400 360 65 56 46
325 945 327 56 52 51
272 950 324 59 55 54
452 767 323 106 87 66
342 387 349 116 93 67
217 517 300 197 130 109
346 392 344 102 82 60
344 390 346 111 89 64
349 395 339 71 60 49
327 554 381 81 20 36
322 387 365 115 93 68
330 462 396 162 17 49
322 396 365 91 76 59
322 399 367 81 68 54
397 802 269 64 51 47
326 399 367 72 61 50
337 392 359 98 80 59
242 592 329 176 116 86
329 385 361 116 92 67
368 742 204 110 83 57
332 397 363 72 61 49
361 916 309 61 53 51
334 396 361 77 64 50
337 507 394 68 21 31
310 563 186 112 89 63
322 404 378 63 54 45
251 583 327 144 86 66
322 405 380 62 53 45
332 404 374 61 53 44
317 512 390 91 25 38
337 404 374 61 52 44
332 405 380 62 53 44
262 857 284 140 114 89
309 830 346 116 75 54
322 822 234 172 131 109
314 571 188 110 87 61
339 396 356 86 70 54
342 397 354 82 68 53
346 399 353 68 58 47
252 607 329 163 109 79
350 399 352 60 52 44
400 672 264 71 54 37
342 401 359 64 55 46
344 400 356 66 56 46
310 862 252 108 84 66
333 692 177 110 86 58
342 401 364 62 54 46
347 401 359 61 52 44
343 937 279 85 76 76
352 401 359 57 46 40
377 487 399 156 19 52
347 401 364 60 51 44
342 404 378 60 51 42
352 404 378 54 40 35
337 602 363 84 29 39
357 395 325 64 57 51
375 432 374 137 8 40
401 791 303 34 28 27
360 394 322 66 58 50
363 395 321 68 60 52
427 737 279 79 61 49
362 395 329 64 56 49
367 396 329 66 56 49
336 497 396 108 21 42
339 430 402 36 28 27
306 562 180 122 96 66
362 396 334 61 54 48
248 561 321 96 51 43
281 647 366 166 118 93
279 567 235 119 10 32
357 397 339 60 52 45
262 937 274 73 69 71
362 398 344 59 52 45
288 921 241 91 79 77
362 399 349 59 51 44
367 399 349 58 48 41
280 573 182 171 115 88
342 515 207 63 38 37
342 900 205 84 69 57
372 396 329 66 53 46
330 911 377 61 56 54
314 467 392 159 17 51
377 397 329 65 47 43
377 398 334 62 46 42
382 398 324 66 51 46
374 727 217 114 16 39
332 549 201 87 22 28
304 802 284 174 123 98
370 806 201 79 63 54
382 399 334 65 46 40
372 398 349 57 42 37
274 717 225 165 8 45
376 399 348 57 34 34
378 401 350 51 28 30
414 775 294 42 35 31
379 407 351 36 28 30
381 402 348 40 29 30
368 844 392 61 48 36
383 407 344 66 32 37
423 758 303 54 46 41
379 412 350 55 30 34
325 839 242 166 124 95
378 417 350 68 31 37
281 732 259 68 55 51
322 567 203 71 31 33
399 522 253 112 21 39
380 412 348 40 31 32
308 657 350 56 40 37
380 417 347 39 30 31
267 727 319 76 27 38
368 547 229 84 24 34
383 417 344 47 28 31
357 401 359 59 49 43
360 886 195 130 110 95
360 684 216 93 26 26
357 402 364 60 49 41
256 927 324 86 65 58
380 840 381 50 40 27
390 531 283 88 20 34
284 757 359 174 124 94
362 401 359 61 52 43
367 400 355 59 46 39
386 497 359 142 8 42
335 565 377 191 8 59
357 403 374 63 53 44
227 562 329 187 129 103
322 926 369 71 66 65
368 405 374 59 46 34
367 406 379 60 47 36
305 663 358 148 104 78
277 672 249 129 8 39
367 408 384 63 50 39
392 669 266 117 86 61
372 399 352 59 44 38
372 400 355 56 34 31
372 402 359 68 29 29
275 712 354 184 126 100
375 403 358 118 13 34
371 404 363 70 31 24
372 407 364 137 15 42
371 642 259 138 2 42
371 407 369 127 14 38
389 817 264 54 46 45
372 412 369 134 8 39
371 407 374 119 17 35
419 716 254 51 41 35
371 412 374 134 9 41
371 417 374 137 6 40
372 412 384 102 15 30
381 782 209 62 50 44
378 422 350 40 29 30
356 592 214 82 28 35
380 422 348 46 29 31
379 432 350 46 30 29
384 432 341 145 12 45
363 652 319 147 13 47
266 712 319 132 14 45
380 437 348 127 16 42
365 515 392 191 21 65
384 447 340 86 22 36
355 912 279 63 55 53
379 447 350 141 7 42
280 535 206 139 0 42
401 417 273 139 5 42
380 442 348 144 7 45
376 422 354 93 21 38
373 422 369 132 9 41
377 427 354 107 19 36
370 860 207 110 94 80
374 431 361 139 7 39
397 847 310 171 154 149
375 433 364 136 6 39
374 430 367 136 6 39
372 422 374 133 6 39
292 727 380 161 112 86
373 422 379 130 6 38
375 423 381 128 5 36
377 422 384 119 1 32
374 426 378 134 7 41
330 940 266 72 67 68
378 432 384 100 15 30
375 437 364 136 3 42
377 437 354 137 10 42
377 442 354 139 4 41
377 447 354 139 4 40
377 447 359 138 1 43
387 667 274 66 53 43
377 442 369 134 4 39
288 566 377 161 18 51
377 457 413 107 22 41
377 447 364 136 2 41
357 841 307 33 30 30
377 447 369 135 4 41
377 437 379 104 16 34
379 437 383 65 30 30
386 512 364 86 26 37
378 447 374 132 5 39
292 697 213 118 9 31
378 442 379 118 13 35
250 553 314 138 3 40
252 572 349 139 104 78
295 753 381 171 119 94
379 440 382 84 29 42
379 446 378 131 9 34
312 892 338 49 43 40
380 444 381 97 20 39
260 943 283 83 78 79
384 457 340 47 25 30
382 457 344 64 22 32
379 451 350 139 7 42
379 455 351 139 7 42
407 396 269 86 24 32
380 452 348 110 13 38
262 587 323 73 34 37
383 467 344 128 12 41
382 477 349 137 6 41
378 452 354 137 2 41
387 542 284 84 29 40
258 532 329 64 19 30
336 777 373 161 112 80
379 682 285 106 21 37
378 452 359 137 2 39
465 695 290 91 79 67
378 457 359 138 2 42
241 548 342 120 89 67
378 452 369 136 6 36
257 602 358 153 113 86
286 637 244 160 4 45
265 582 294 64 32 39
379 457 364 140 7 41
379 462 359 137 4 39
380 458 353 141 8 43
380 462 354 139 4 42
380 464 358 137 4 40
343 437 402 72 31 36
379 462 363 138 7 38
380 459 366 143 13 45
380 458 369 125 10 37
380 462 365 133 9 38
381 462 369 100 15 36
256 922 279 55 52 54
342 835 343 23 22 23
379 452 374 134 8 36
288 627 194 172 122 100
380 453 375 133 8 36
383 452 384 130 9 34
396 783 307 36 31 29
382 457 379 58 24 30
383 457 384 75 22 30
382 462 374 74 29 37
372 409 417 53 26 27
359 862 340 42 39 40
277 617 264 144 28 51
383 462 379 36 30 33
309 767 166 139 99 57
362 612 234 102 21 38
381 467 354 137 1 41
378 697 299 129 4 41
381 472 354 137 2 41
457 757 325 82 63 45
336 632 210 119 31 39
382 472 359 138 5 40
381 467 364 140 8 39
382 472 364 136 9 40
382 477 359 140 6 41
344 873 365 30 28 28
383 477 364 98 12 32
382 472 374 39 32 34
383 467 379 81 28 36
384 477 378 93 22 34
274 699 327 135 2 40
384 481 354 136 4 41
383 482 364 142 9 40
404 837 331 77 59 50
383 482 369 141 8 40
376 757 314 75 37 39
384 487 359 139 5 41
307 610 367 176 21 60
384 487 369 142 6 41
254 912 327 173 130 111
267 652 340 169 116 93
384 482 378 146 10 38
384 502 379 79 15 32
381 507 384 164 16 52
307 412 385 136 7 43
300 799 298 127 94 75
312 412 388 136 7 43
309 417 387 134 8 42
312 417 389 133 9 41
315 412 391 102 17 38
357 697 209 97 26 30
318 412 392 48 27 30
302 442 386 138 9 42
301 447 386 134 10 41
307 422 385 105 13 35
307 427 385 131 9 42
309 427 387 116 13 38
312 427 388 71 23 32
317 422 390 109 16 38
317 427 391 65 26 31
406 472 273 96 21 37
327 802 168 170 120 85
270 608 299 44 32 36
316 432 391 69 22 29
319 427 392 55 29 30
290 757 339 84 62 53
318 432 392 59 29 32
305 436 386 133 8 40
367 532 199 144 18 44
397 412 278 52 25 31
307 437 388 134 9 43
312 437 390 131 10 42
363 682 330 50 28 32
312 442 390 140 10 42
285 609 237 77 22 39
312 447 391 143 11 45
290 774 304 80 64 58
333 897 238 68 59 60
318 437 392 101 17 37
316 442 391 146 12 46
424 787 324 67 58 50
363 886 181 103 90 82
314 448 392 140 10 43
304 806 180 208 146 116
262 657 349 202 140 111
317 627 180 144 102 66
318 442 392 143 16 45
310 612 176 142 103 65
383 736 234 46 40 41
302 652 178 157 108 74
297 462 385 119 14 40
351 926 318 54 47 45
367 647 309 138 13 44
301 452 386 112 16 38
412 802 284 79 62 54
303 452 387 124 15 39
300 457 386 47 25 27
336 820 190 213 142 113
312 631 358 116 25 43
292 472 385 119 19 41
297 467 385 114 18 38
296 472 386 79 21 33
339 717 172 119 94 66
299 467 387 108 16 38
388 527 247 150 15 39
299 477 387 121 20 43
302 477 388 107 20 39
311 457 391 128 12 44
313 457 392 148 12 45
313 462 392 155 16 48
272 562 245 60 31 35
291 847 273 102 85 69
273 682 304 76 31 37
317 462 393 149 17 49
453 708 303 99 76 61
307 472 390 79 22 34
373 652 279 99 21 36
311 467 391 156 16 49
239 525 296 54 29 32
312 472 391 120 18 42
312 477 391 36 27 31
227 562 334 175 122 97
314 472 392 151 16 47
317 472 392 154 17 49
296 487 386 152 14 48
293 867 260 140 115 90
370 536 377 101 31 48
408 403 261 127 14 31
347 861 305 38 34 35
292 492 385 153 15 48
340 677 347 89 28 38
296 492 386 152 15 48
302 482 388 151 16 49
373 657 284 72 26 29
302 487 389 153 15 48
298 492 387 154 16 49
274 542 241 50 32 32
302 492 388 119 17 41
292 507 385 94 25 39
275 518 227 134 20 47
307 627 214 111 38 50
401 502 314 148 14 46
282 746 234 81 65 61
296 507 386 64 27 35
302 507 388 76 26 34
302 512 387 52 27 30
312 482 391 78 25 37
388 802 229 71 57 53
312 487 391 164 17 51
312 492 390 145 16 48
312 497 390 74 27 35
307 677 364 142 104 75
316 483 391 88 22 37
318 486 392 79 8 26
307 502 389 100 25 40
255 919 326 176 129 107
312 502 390 92 24 40
354 450 407 82 22 30
350 930 285 62 56 54
307 507 389 111 22 40
312 507 390 111 24 42
317 502 391 68 26 32
294 835 311 89 72 55
322 408 393 91 27 37
247 522 309 93 26 44
410 447 261 92 16 28
301 547 179 124 98 68
354 548 212 36 29 34
327 407 394 91 30 35
322 417 394 58 24 31
324 412 397 129 15 40
337 406 389 58 51 43
337 406 394 54 47 42
335 839 237 127 80 66
404 688 245 75 64 56
332 408 398 61 27 29
337 408 399 47 32 28
385 506 373 107 16 37
332 412 400 60 27 30
387 672 264 119 80 49
337 412 403 47 30 30
408 417 308 43 35 31
428 803 329 77 60 52
334 416 402 59 31 31
337 417 404 52 31 30
342 406 389 59 51 44
342 406 394 59 50 43
280 518 218 152 7 47
347 406 389 58 48 40
262 857 309 126 87 85
347 406 394 58 46 39
386 394 285 48 32 31
389 491 330 145 5 45
347 407 399 56 43 36
327 432 394 79 26 34
360 911 323 48 40 38
299 610 216 140 18 45
274 707 354 182 126 100
341 411 405 66 24 31
360 832 360 48 41 36
382 857 179 117 96 78
343 412 408 105 22 39
340 417 406 48 33 32
343 417 408 78 29 36
352 408 409 79 24 29
346 417 410 94 24 38
353 409 412 102 14 36
277 752 309 83 66 61
394 704 246 60 46 42
352 417 414 124 18 42
327 422 395 118 17 41
322 427 393 53 27 30
448 690 286 106 80 53
322 432 393 44 30 29
399 833 292 66 55 50
327 427 394 67 24 32
361 632 234 155 17 42
331 423 396 119 24 45
329 420 397 146 10 48
250 903 304 185 144 122
332 422 398 92 23 38
336 423 400 36 29 30
331 427 396 58 26 30
245 529 287 125 13 32
334 427 397 44 26 30
336 427 399 40 29 29
247 562 322 102 56 42
337 432 399 42 28 29
335 419 401 48 30 31
322 437 393 90 19 35
337 437 398 47 27 29
330 445 396 39 29 26
452 712 284 79 59 45
332 447 397 71 22 32
340 423 406 48 32 32
343 422 408 55 31 32
391 487 289 147 12 42
400 432 327 74 19 30
352 617 344 68 25 34
342 427 405 37 29 31
374 657 269 124 11 40
250 553 309 96 22 37
342 432 403 105 24 43
274 737 322 76 23 36
352 422 414 93 22 38
347 427 408 112 20 43
345 428 406 73 24 35
252 538 292 69 31 35
388 422 404 53 30 34
346 432 405 135 15 46
285 642 332 116 46 48
401 487 318 106 16 39
388 422 409 122 14 39
348 431 407 130 17 44
399 849 360 80 61 44
315 849 312 57 43 30
328 677 351 45 27 30
405 700 237 62 43 37
299 517 193 52 35 31
352 883 214 82 68 56
441 717 284 91 69 53
341 437 400 49 29 30
327 827 214 63 56 58
380 505 387 179 13 60
342 442 400 61 22 30
367 827 318 32 30 30
342 447 400 135 12 44
347 437 405 63 28 33
253 931 304 82 73 69
313 763 165 137 98 58
349 436 407 43 23 32
385 806 230 74 59 51
350 438 406 43 31 29
351 447 405 146 16 48
357 406 389 57 42 38
347 877 390 65 55 48
325 915 241 80 71 70
357 407 394 55 42 35
352 597 204 83 26 36
362 407 389 62 53 44
283 582 193 159 111 90
362 408 394 61 51 43
361 886 199 119 101 88
345 844 220 68 55 54
362 408 399 61 48 40
297 897 343 77 64 51
357 408 409 66 36 32
356 411 415 123 18 40
362 409 404 61 43 36
367 409 409 60 38 32
380 800 211 97 77 59
384 698 281 67 46 43
366 566 358 190 17 61
372 412 389 99 24 33
299 787 175 158 115 78
376 414 390 107 13 31
372 457 414 120 23 44
447 808 349 108 89 74
388 763 219 56 45 41
369 410 394 62 54 44
372 411 394 74 48 40
369 410 398 63 53 44
409 433 321 158 14 47
377 413 394 117 30 39
385 492 377 149 9 43
386 705 257 56 40 42
377 411 399 81 44 37
380 414 395 110 32 37
442 798 349 75 63 53
332 732 359 102 19 34
281 697 334 56 29 31
384 416 398 96 22 31
364 904 310 56 52 50
371 409 405 61 46 38
277 657 365 140 98 71
373 410 403 62 47 39
376 582 245 157 16 41
372 409 409 59 39 34
377 410 404 67 46 37
457 782 329 113 85 66
366 697 329 143 10 46
283 672 234 103 24 37
347 497 399 43 29 29
377 409 409 64 40 37
367 897 314 55 50 49
372 409 414 55 31 30
403 767 253 51 44 41
377 409 414 57 30 31
352 843 306 35 32 32
378 410 407 67 43 37
382 410 407 77 43 34
397 437 328 49 26 30
420 694 236 80 59 44
382 409 410 75 41 37
382 409 414 68 37 34
357 412 418 148 13 47
355 417 416 143 15 46
357 417 418 147 14 47
360 410 416 77 26 28
364 409 417 60 22 25
270 835 311 159 123 101
372 410 419 48 24 26
377 409 417 53 22 29
377 412 424 61 19 28
217 517 333 176 132 111
368 414 427 170 20 54
372 416 427 175 21 56
277 527 203 130 1 40
376 414 427 174 18 54
382 410 419 58 22 27
382 412 424 81 15 33
382 814 373 53 43 33
377 418 426 110 18 39
355 422 416 146 14 46
322 647 184 133 95 59
356 427 415 111 21 41
356 442 410 53 28 31
357 447 410 54 29 33
314 725 381 154 108 77
358 442 412 69 24 32
359 446 412 43 27 28
361 438 416 73 25 32
361 442 415 67 24 33
284 568 220 55 36 37
292 797 374 177 124 97
378 422 388 117 2 32
290 632 184 186 128 100
403 507 259 171 17 47
379 427 387 92 4 27
381 427 390 64 22 26
240 593 345 171 121 92
361 845 390 57 45 36
410 399 261 121 22 31
409 462 264 44 28 31
383 427 393 97 18 30
383 442 389 82 26 35
383 447 388 126 13 38
347 932 309 54 49 48
358 422 418 147 13 46
359 430 417 75 24 30
274 706 275 82 35 40
362 427 419 92 20 36
367 432 421 86 27 39
368 431 422 56 27 28
367 437 420 123 22 44
372 422 425 130 18 42
396 512 300 98 9 32
372 427 423 94 22 39
372 432 422 57 28 28
382 422 423 134 19 42
401 857 313 77 63 62
380 416 427 172 17 58
282 862 268 123 98 69
382 710 243 56 37 41
378 433 421 144 23 52
385 480 392 95 18 31
381 427 422 140 16 48
298 762 199 149 112 78
387 401 339 95 28 39
382 432 419 94 23 37
372 437 420 138 19 48
372 447 417 59 26 31
381 437 418 145 16 50
327 452 396 86 26 38
322 462 394 158 18 50
329 452 397 71 21 30
332 457 397 147 17 49
332 462 397 147 18 47
322 472 394 129 18 43
272 712 244 169 0 51
327 472 395 141 16 45
322 477 393 167 17 52
327 477 394 166 18 52
331 467 396 160 16 48
377 824 316 44 43 45
331 472 396 163 17 52
316 891 385 40 36 36
297 842 319 108 84 62
337 472 398 149 15 45
332 477 396 153 18 49
367 867 258 58 53 56
289 631 185 184 129 101
334 477 397 152 21 48
342 462 400 146 19 49
451 682 282 112 88 67
342 452 401 129 15 41
345 450 401 147 14 40
362 512 394 126 19 45
297 682 199 162 116 94
347 457 402 119 17 39
352 452 405 126 12 40
322 676 177 113 85 49
352 457 404 129 13 42
352 462 404 102 18 37
372 672 304 61 28 31
342 467 399 132 17 45
342 472 399 138 14 45
348 466 402 102 16 39
378 737 309 92 22 36
347 472 400 151 15 46
352 467 403 151 16 48
352 472 402 151 15 48
350 477 401 161 17 52
322 497 392 120 13 41
285 638 332 107 39 48
327 492 393 162 17 51
332 487 395 124 18 44
358 622 229 107 24 38
334 481 397 56 28 33
257 872 284 158 120 93
335 484 396 31 30 34
378 821 318 46 45 47
257 647 344 195 134 103
332 492 395 166 19 54
332 497 394 165 19 53
321 503 391 49 26 30
327 502 392 153 17 49
326 508 391 152 19 52
327 512 391 179 14 56
393 462 285 143 5 43
375 683 303 119 12 39
324 505 392 43 25 27
260 917 272 57 53 56
382 878 329 62 53 49
280 924 247 90 79 78
328 507 392 151 15 49
252 607 355 156 112 86
352 487 401 83 23 34
337 502 395 96 24 38
331 513 391 178 15 55
373 862 185 113 95 82
332 512 392 172 17 55
308 637 214 94 66 59
342 492 398 39 29 29
347 487 400 48 28 31
347 492 400 40 29 30
368 873 263 70 63 64
352 482 401 161 20 52
324 552 201 50 30 33
352 492 401 57 28 30
372 817 214 86 62 54
341 503 396 52 24 30
284 607 188 158 112 85
272 932 254 81 73 72
342 507 395 54 29 31
342 512 394 62 26 33
347 502 397 55 29 32
352 502 398 85 24 36
273 848 280 113 94 73
348 505 397 54 27 31
347 512 395 51 30 32
358 523 196 132 16 27
352 506 397 110 22 41
266 847 289 145 118 91
358 457 408 160 16 51
317 652 182 111 81 47
358 461 407 158 16 52
360 449 411 82 17 37
360 453 411 122 25 45
251 922 304 101 83 74
362 462 409 156 17 50
327 828 224 60 51 55
366 463 411 104 22 42
282 522 219 95 17 35
270 517 194 109 57 56
333 883 375 31 28 29
367 461 412 60 26 31
357 477 403 147 18 48
362 467 408 137 15 44
379 737 305 94 22 36
360 473 406 159 16 50
302 842 314 88 69 49
289 834 291 100 82 62
365 552 226 81 33 37
363 472 408 151 18 49
298 707 194 177 123 96
367 467 410 93 24 37
367 472 409 121 22 43
360 520 216 130 8 32
367 476 407 142 25 51
372 452 416 111 24 42
372 462 412 63 31 33
421 752 280 66 53 44
383 452 410 75 27 32
383 878 319 59 52 48
257 565 335 39 29 29
290 593 215 78 32 37
381 452 413 57 25 28
321 902 229 62 52 50
381 462 408 109 19 37
317 894 339 33 31 36
384 478 395 42 27 33
334 650 202 127 94 66
300 691 208 64 47 43
372 472 409 84 22 35
377 467 409 70 26 33
376 472 408 152 22 54
373 478 406 44 29 33
406 492 269 156 18 51
375 475 407 135 17 49
294 780 309 85 67 59
320 915 235 77 68 66
356 487 401 119 18 42
296 603 209 127 37 52
358 486 402 140 21 49
309 707 176 133 93 55
357 497 400 68 20 32
362 487 403 165 19 53
216 532 314 197 132 103
397 777 234 56 45 40
358 592 350 94 27 41
362 491 402 173 19 56
362 497 400 177 17 58
324 735 371 152 114 81
367 493 401 187 15 59
367 497 400 190 13 59
357 506 397 181 20 59
359 889 263 60 54 57
357 512 395 34 28 32
357 508 396 121 19 41
367 502 398 194 9 61
366 505 397 197 10 64
367 512 393 191 18 61
376 492 398 180 15 58
384 427 341 109 16 38
289 591 198 157 110 93
372 492 400 184 12 60
378 482 400 78 26 36
381 482 398 56 28 31
384 492 384 157 8 47
342 642 344 81 26 37
382 497 389 171 7 54
378 493 395 172 15 54
405 477 256 50 30 40
411 811 308 87 75 68
377 497 394 184 9 59
374 499 396 183 3 59
380 496 392 178 12 57
372 482 405 53 27 29
370 870 207 87 79 74
298 657 198 160 120 100
372 487 403 175 20 58
375 486 402 171 20 59
434 813 355 73 56 44
426 817 368 73 54 38
371 491 402 187 16 60
374 488 401 181 18 59
372 502 395 186 1 58
317 828 314 46 36 35
279 657 289 124 24 46
369 504 396 192 5 60
371 501 397 189 3 61
376 502 393 186 3 59
374 508 390 191 3 62
307 596 372 126 19 45
372 507 393 189 4 59
380 501 388 175 8 55
387 398 270 80 24 33
392 398 269 93 20 32
398 399 266 101 20 32
316 676 351 36 30 27
387 396 274 70 25 32
386 394 289 48 33 31
390 507 334 147 9 45
390 399 288 46 21 24
397 396 274 95 22 36
371 852 319 53 48 45
387 408 259 77 27 28
387 405 262 80 27 30
422 712 295 58 47 36
327 612 194 125 97 70
392 412 258 99 12 28
395 486 282 80 15 33
342 852 220 66 57 55
436 738 281 87 65 50
391 414 256 96 20 23
298 662 220 52 35 37
397 402 264 102 19 32
292 747 214 76 61 57
397 408 261 109 15 35
293 602 220 49 36 38
397 412 259 120 8 28
394 416 257 99 15 28
391 407 284 56 22 29
304 802 234 64 56 55
346 616 210 40 32 37
391 407 289 87 12 29
391 412 284 35 28 29
391 412 289 73 11 31
397 407 279 51 27 30
394 402 281 61 29 31
458 776 336 71 56 41
363 857 239 53 48 49
394 407 281 66 29 33
342 882 324 37 34 35
297 727 383 160 113 86
399 417 276 131 8 40
394 412 281 46 25 27
365 611 323 51 30 33
402 399 266 108 21 33
457 707 299 96 80 68
411 397 269 71 26 34
402 398 277 96 19 31
239 520 286 161 9 49
407 472 259 50 31 32
376 667 254 50 33 30
402 402 263 121 20 29
291 867 263 136 112 87
260 860 300 92 68 53
406 401 262 139 20 27
402 412 260 130 9 28
312 777 164 144 101 59
331 642 189 142 102 75
406 412 261 128 9 30
352 867 359 39 34 35
405 417 261 132 9 29
406 417 269 149 10 43
404 414 271 144 6 46
411 402 261 126 14 31
257 554 337 52 33 30
285 582 213 74 34 37
411 407 264 140 9 35
410 410 264 139 9 35
409 409 270 152 14 45
402 402 277 55 23 33
404 403 276 49 26 27
407 402 275 104 18 40
309 821 315 46 37 37
402 412 274 128 7 39
415 785 281 78 61 51
400 411 277 72 19 31
386 394 292 50 33 30
363 882 263 65 58 60
391 398 294 47 27 30
284 746 346 170 117 90
387 396 304 48 37 33
392 398 304 47 30 29
397 399 304 55 30 32
387 397 309 47 37 33
310 925 246 87 81 81
392 398 309 46 33 30
387 398 314 50 39 34
387 398 319 58 45 40
415 723 241 92 68 49
392 398 314 46 30 27
379 823 247 56 46 48
323 716 360 125 65 57
405 482 306 130 15 38
235 579 341 171 121 96
310 894 344 39 36 37
397 399 314 49 31 29
350 616 347 142 31 61
389 402 292 55 32 26
392 402 294 41 31 29
389 405 290 65 24 34
372 722 324 129 17 43
393 407 293 74 16 27
281 542 234 64 26 33
407 737 299 46 37 29
398 401 298 49 27 29
394 412 292 103 2 28
377 522 379 93 21 39
401 407 300 51 31 31
401 412 300 87 13 30
311 687 364 143 106 77
403 412 302 81 16 29
336 868 312 35 33 32
261 867 331 156 117 98
402 400 309 51 29 31
283 940 261 79 72 75
376 672 249 60 37 32
402 400 314 50 31 31
402 400 319 54 32 32
407 401 319 54 46 41
406 412 305 62 26 32
406 417 305 43 30 33
410 404 310 119 11 31
409 408 307 50 27 28
322 962 294 64 57 60
397 462 324 60 28 33
250 547 329 109 17 36
414 407 314 143 14 40
347 882 389 55 48 44
379 692 294 118 13 40
415 407 319 145 14 41
415 408 316 138 16 34
292 932 250 83 75 76
300 905 232 69 61 62
288 732 378 167 114 89
256 937 329 53 50 51
411 412 310 82 20 24
414 412 319 157 15 48
414 417 314 144 11 40
414 417 319 158 12 49
397 422 257 106 14 28
398 431 257 111 4 35
411 830 369 67 52 42
392 427 284 116 8 41
396 427 278 97 13 36
397 432 279 117 8 38
277 597 244 59 30 35
393 432 284 139 7 41
393 437 289 130 6 38
393 442 289 134 7 39
354 534 209 98 25 34
461 706 294 92 77 62
393 447 284 145 5 45
402 422 259 131 8 29
357 887 374 55 48 44
395 844 178 106 84 71
405 422 261 133 8 33
402 427 259 131 8 27
406 427 261 134 8 34
408 432 270 149 9 45
410 427 265 150 13 42
278 712 269 71 34 41
409 430 262 142 12 36
411 432 264 150 12 43
410 424 265 149 12 41
395 507 279 152 2 46
300 726 187 163 114 83
410 427 268 153 14 46
406 422 272 144 6 44
354 551 191 135 15 31
405 426 272 144 4 46
402 815 334 49 43 38
403 437 257 122 5 27
404 440 257 120 5 31
408 447 258 114 16 34
360 865 245 53 47 51
265 602 314 138 20 44
410 437 261 143 11 39
392 547 299 75 24 35
394 427 331 135 6 43
411 437 264 151 13 42
410 447 264 109 17 36
410 447 269 93 18 36
402 437 275 139 2 44
385 557 290 168 17 45
403 442 276 141 0 43
286 597 228 48 33 35
407 442 273 137 4 42
392 552 304 118 29 46
407 447 274 123 6 39
255 939 288 72 67 67
410 446 272 94 3 30
414 819 330 61 46 40
394 422 292 108 0 25
459 802 352 97 80 69
360 527 220 127 7 33
394 427 292 108 0 27
394 431 292 118 0 35
398 432 299 122 2 32
400 521 255 170 19 46
398 437 299 123 3 32
442 719 298 83 72 63
417 694 235 96 73 48
395 442 295 125 5 33
396 447 295 122 3 34
398 442 298 118 3 32
450 751 305 99 76 60
403 422 303 55 27 30
406 427 305 103 8 34
408 432 307 64 24 37
280 732 335 171 19 53
411 427 310 119 12 33
411 432 310 75 23 33
269 740 310 189 1 55
411 432 319 106 18 39
410 447 317 70 25 37
292 637 184 187 130 101
358 816 341 29 26 25
412 432 314 108 19 35
277 702 330 93 19 37
400 437 301 123 3 31
403 442 303 85 14 31
401 447 301 98 10 26
332 928 345 59 53 50
297 821 359 182 124 100
408 437 307 40 31 32
408 442 308 60 30 25
253 907 324 173 130 108
410 442 310 93 17 32
411 442 314 72 23 33
295 624 201 171 120 103
408 442 320 82 25 34
346 817 348 86 58 45
410 442 318 111 25 39
410 447 314 103 22 38
408 447 320 62 29 31
387 399 324 64 50 46
395 399 328 70 55 36
272 951 294 63 60 61
394 772 244 71 54 53
385 399 338 65 26 30
253 937 314 61 58 59
294 766 234 82 67 60
392 417 334 148 13 47
397 401 329 109 34 37
