ply
format ascii 1.0
comment Created by Open3D
element vertex 2225
property double x
property double y
property double z
property uchar red
property uchar green
property uchar blue
end_header
319 733 231 89 28 37
291 49 278 106 36 42
340 764 328 83 64 55
300 363 306 115 70 57
250 468 351 100 44 43
275 233 254 135 104 68
251 470 348 111 61 54
248 488 343 114 70 59
361 852 203 93 73 63
549 842 271 104 80 64
254 468 347 107 61 51
236 474 355 39 29 31
364 108 251 136 31 40
331 423 319 122 87 68
349 168 291 103 84 63
233 709 303 123 87 58
238 478 356 48 29 29
277 140 258 120 94 65
324 575 470 71 26 35
247 453 358 123 16 42
314 966 351 57 54 54
255 522 370 157 9 50
278 68 236 107 40 43
294 888 362 162 124 104
403 727 174 72 55 43
249 453 361 119 16 39
380 118 251 146 98 74
379 133 276 120 95 67
219 688 307 140 102 67
330 444 194 109 21 36
249 458 361 69 24 31
251 451 364 123 18 34
360 93 252 130 28 35
398 713 286 135 14 42
252 454 363 117 24 40
208 543 311 141 8 44
254 463 355 99 50 49
284 526 349 85 38 36
422 798 218 79 63 52
400 468 235 138 16 38
344 373 252 94 83 72
264 68 215 124 35 33
329 383 247 99 85 72
353 93 283 96 55 49
247 653 296 142 4 39
298 333 296 84 61 48
244 468 356 67 26 31
372 478 304 139 99 78
241 469 355 67 30 30
449 559 441 80 24 33
277 111 253 136 99 72
272 653 259 142 0 35
344 24 297 119 60 57
439 458 291 83 10 30
246 468 359 76 26 33
414 942 366 70 60 55
294 353 320 126 86 66
248 468 362 44 29 29
314 569 445 45 27 27
375 428 286 114 89 59
243 478 362 49 28 30
245 478 365 68 27 32
372 23 289 101 33 41
424 743 251 146 102 66
246 475 364 58 27 28
250 473 366 55 28 31
390 493 241 180 12 46
298 23 267 117 33 33
249 468 354 93 40 41
251 469 364 42 27 31
334 528 200 42 37 40
354 173 297 107 88 67
293 26 294 150 34 57
253 468 367 59 26 30
252 472 368 39 25 28
269 343 326 117 89 62
420 748 200 72 57 50
414 479 266 165 22 48
384 448 215 63 39 41
255 468 371 86 20 31
335 586 485 61 9 29
255 474 375 103 13 34
252 477 372 65 26 28
225 608 306 152 21 50
454 539 339 92 16 29
254 478 376 97 16 32
305 583 406 136 77 73
369 428 306 127 96 65
334 473 198 93 32 35
275 57 235 76 42 24
219 648 321 91 74 55
256 479 380 93 20 34
285 588 421 181 119 99
363 248 310 122 95 62
229 483 342 73 30 32
375 954 321 70 61 60
300 358 301 108 67 54
229 788 296 166 111 78
469 549 361 77 15 31
352 46 254 98 38 28
539 848 221 115 90 73
319 332 270 82 71 61
349 208 307 111 91 70
405 545 363 87 25 36
228 487 340 72 34 32
279 27 296 142 41 59
269 518 187 156 9 36
226 485 344 65 25 29
356 357 313 125 98 65
380 238 281 125 96 62
289 673 343 35 29 31
343 598 350 62 29 35
324 758 340 86 67 56
229 489 338 81 37 37
266 340 324 117 90 63
331 31 276 133 95 82
226 493 349 136 7 38
227 493 351 130 11 39
239 484 342 92 51 44
254 563 210 64 34 38
356 123 263 125 97 67
281 609 380 162 99 85
334 409 192 142 25 27
237 572 342 126 15 42
234 482 345 84 30 35
333 24 292 126 91 70
449 562 431 122 20 41
346 203 263 119 94 64
434 897 277 85 70 71
239 482 345 89 48 43
374 888 251 66 60 61
369 408 211 127 23 28
349 763 211 59 47 41
493 877 266 80 65 61
229 496 341 128 30 46
329 873 357 153 120 86
254 673 281 86 20 35
354 428 200 81 35 36
229 503 346 174 5 53
376 518 234 139 13 35
399 648 224 119 90 56
229 508 341 160 6 48
341 183 276 108 89 68
230 513 340 143 9 46
233 504 351 182 2 55
421 633 245 118 92 60
365 574 337 98 27 42
367 443 309 134 97 72
232 505 347 179 4 55
284 353 267 77 68 59
391 478 224 110 22 35
269 258 254 137 104 69
234 508 346 171 1 50
360 343 302 134 103 71
286 316 274 84 74 64
559 864 296 102 88 76
236 506 350 169 6 51
237 508 351 149 16 47
421 485 284 57 31 36
234 793 291 173 114 83
259 193 295 112 92 72
356 40 253 109 23 26
354 583 365 185 15 59
221 601 287 164 14 47
331 228 271 114 92 66
441 483 309 66 37 44
279 823 266 84 65 57
238 513 347 93 24 39
244 488 343 114 69 59
366 402 303 121 94 61
273 513 331 103 66 55
244 482 344 106 63 55
249 483 345 113 68 59
276 163 256 117 93 66
244 491 343 115 70 60
264 418 340 134 101 70
284 348 326 129 91 62
256 482 343 116 72 61
313 520 362 85 30 34
494 573 351 96 32 44
349 243 259 130 100 62
235 818 340 185 128 99
254 483 346 112 67 57
339 803 316 167 114 93
378 39 258 119 104 89
254 483 351 112 68 58
404 518 255 73 34 36
254 488 346 112 68 57
254 508 356 120 69 61
345 739 223 65 35 35
255 488 350 113 68 58
274 713 251 121 13 33
397 63 232 100 38 34
409 548 420 85 17 32
374 427 237 67 16 26
283 707 352 126 15 41
490 553 335 121 92 67
370 49 283 120 14 43
379 753 176 67 54 46
417 492 288 68 27 29
245 497 347 118 70 60
245 500 350 120 69 60
298 418 182 142 23 29
430 553 315 64 32 30
313 902 270 58 52 51
254 498 346 113 70 59
381 863 226 62 57 59
255 508 352 115 72 61
289 883 351 133 92 80
449 553 390 113 6 36
459 571 350 201 142 128
231 489 355 72 24 32
339 572 446 97 26 36
289 58 256 104 78 57
234 483 356 93 19 34
359 98 285 108 88 67
269 498 180 45 36 42
237 585 348 49 30 31
232 568 337 89 16 35
324 613 355 43 29 32
232 487 357 81 23 32
333 272 318 110 89 65
234 488 361 69 25 32
264 233 250 135 104 66
319 603 359 44 27 31
238 487 362 87 22 36
353 138 265 115 91 64
224 533 197 161 12 41
235 493 366 105 17 36
316 905 248 58 54 55
396 544 407 108 17 35
393 43 231 91 60 59
404 637 269 159 100 82
238 492 367 100 15 34
273 158 252 120 96 68
236 495 369 119 9 36
309 733 360 179 12 57
388 693 286 143 16 45
231 497 359 76 23 34
231 501 354 187 4 58
352 323 314 134 98 70
240 693 343 151 100 77
232 500 357 162 11 52
414 508 282 61 16 25
276 133 261 112 89 63
235 503 361 173 6 52
409 447 266 70 14 26
235 502 365 182 0 55
239 504 367 182 1 55
238 498 371 140 3 41
239 503 371 176 3 53
453 478 310 113 19 37
457 856 237 137 128 128
241 485 364 64 25 28
528 867 265 94 75 61
249 483 376 97 16 33
282 26 299 127 87 68
273 88 236 97 57 42
334 324 268 87 76 66
329 313 332 120 90 65
332 262 313 109 88 66
245 488 375 107 17 36
374 423 210 96 32 37
274 488 177 46 36 40
426 624 260 175 122 89
271 10 294 96 57 47
265 841 297 80 65 61
240 674 347 159 108 87
324 404 226 100 85 69
334 407 226 98 85 69
374 528 292 77 48 40
246 485 374 72 17 28
331 625 338 89 39 42
429 788 266 157 115 81
378 673 246 46 31 33
249 518 361 159 6 49
244 493 376 84 21 34
374 438 296 123 92 63
241 495 374 119 11 34
220 583 266 80 29 38
369 98 284 106 50 49
364 158 256 130 100 63
329 847 322 128 100 75
369 398 291 111 89 64
279 828 331 114 88 74
383 763 310 91 71 63
247 491 378 40 23 28
410 843 261 77 65 55
389 828 271 54 44 39
374 138 286 114 91 65
469 880 267 113 91 71
239 591 344 99 25 40
388 116 242 130 95 79
384 48 256 108 96 83
428 585 318 185 126 109
367 802 304 135 107 89
269 542 357 62 29 38
370 398 286 105 86 65
248 493 382 41 29 31
379 438 212 46 37 41
348 389 247 100 86 72
357 177 259 128 98 60
329 402 230 101 85 69
424 934 368 83 66 53
411 905 331 58 50 50
249 504 360 154 37 57
275 248 302 113 89 61
301 573 405 87 20 37
307 794 245 74 59 53
363 689 329 54 30 34
241 511 359 138 18 48
244 513 356 97 24 39
344 303 270 102 84 64
285 233 266 127 99 65
233 778 343 165 119 90
245 512 360 152 10 49
271 138 278 111 88 60
417 693 232 125 93 58
246 511 364 176 0 53
249 513 366 175 0 54
251 500 354 113 72 60
364 488 306 139 101 83
254 503 356 113 72 60
328 535 314 80 45 41
369 283 296 140 99 72
268 128 247 128 99 65
399 634 227 112 90 63
251 508 356 136 63 61
254 513 355 131 63 60
309 414 191 167 19 18
352 876 204 107 88 74
242 498 378 104 25 41
383 853 221 70 63 64
245 498 381 38 29 30
346 686 333 88 21 35
242 504 377 121 16 43
244 508 371 182 0 54
271 51 239 80 53 26
269 45 242 110 95 77
269 443 166 150 2 34
244 508 376 177 6 53
247 510 371 182 0 55
249 513 371 178 0 54
230 592 251 207 14 55
424 488 299 63 21 28
246 511 372 181 0 53
345 188 296 104 85 65
418 703 232 120 89 57
417 568 307 70 30 36
371 960 306 70 65 64
250 511 376 180 1 53
309 898 281 96 68 45
246 506 380 150 14 48
296 536 418 124 6 38
258 483 353 112 66 57
248 509 381 176 7 53
254 488 386 61 27 32
229 663 357 178 124 99
352 870 319 139 111 85
256 484 385 56 27 30
251 490 384 43 30 27
299 498 195 159 2 32
264 398 252 90 78 65
407 768 285 161 114 84
321 401 319 132 93 76
362 338 282 114 92 68
250 494 385 46 29 29
300 358 311 116 69 58
274 574 214 157 18 47
253 493 387 68 29 34
255 493 390 91 28 38
246 502 384 69 24 33
336 401 234 101 85 68
274 653 339 176 17 56
429 473 276 111 33 43
390 53 232 109 35 33
249 508 386 149 17 49
268 50 238 117 100 84
484 569 391 74 17 29
365 243 308 122 95 64
392 611 264 83 51 41
500 553 340 114 92 67
295 308 286 84 74 64
336 36 279 105 32 39
394 933 346 62 56 56
486 576 386 108 22 46
269 228 250 135 104 68
414 703 196 83 65 47
397 708 301 52 31 35
244 598 246 207 13 52
455 488 319 90 23 36
251 500 389 43 28 30
360 759 323 82 63 52
404 882 296 47 42 41
253 503 392 80 29 36
414 688 256 158 106 76
234 632 331 77 61 42
259 473 346 116 73 58
255 503 395 73 25 34
255 513 396 83 28 38
294 553 201 129 20 39
262 457 163 163 0 36
354 148 264 116 91 62
353 443 319 125 90 63
358 921 368 39 37 37
258 32 254 112 96 79
364 178 257 131 100 63
386 810 184 96 71 51
272 220 299 110 89 65
259 28 256 109 93 77
287 53 253 125 45 41
304 753 352 69 29 36
264 33 251 111 95 79
404 764 166 77 60 48
362 118 259 118 91 57
378 133 256 136 100 67
359 438 203 92 36 39
264 30 253 107 93 77
332 622 339 64 26 36
269 23 256 107 93 80
339 278 321 115 92 66
269 33 252 109 93 78
294 595 224 195 9 44
283 492 183 71 32 37
372 423 260 92 76 59
268 31 254 107 92 76
274 28 255 80 61 44
426 768 263 151 111 75
341 826 232 56 49 47
227 669 353 181 128 102
257 54 222 101 44 25
237 624 327 50 27 32
258 59 217 98 38 27
384 793 295 76 60 52
392 487 231 39 32 37
358 403 252 109 92 73
309 533 321 80 39 37
264 633 371 183 119 98
292 432 178 57 35 35
259 63 216 96 39 22
288 78 261 121 27 44
259 58 221 94 40 22
370 718 227 59 37 39
284 323 271 84 74 63
392 487 227 39 34 39
263 59 222 91 54 29
394 103 251 129 16 48
371 422 302 120 92 59
261 61 219 89 41 26
271 484 404 41 26 29
269 63 221 103 46 22
267 60 223 86 51 21
392 626 239 98 82 65
259 504 179 50 36 41
298 492 193 120 15 38
349 963 281 81 75 77
259 43 241 118 102 87
264 49 237 120 103 86
359 414 220 114 36 35
265 46 239 117 101 84
367 931 379 58 53 52
335 218 268 113 91 67
420 744 180 63 50 43
264 38 246 118 100 83
354 258 262 134 102 64
404 544 401 121 15 39
264 36 249 115 98 82
459 558 381 166 12 53
289 508 311 117 42 49
387 697 210 80 66 51
260 40 243 110 93 83
274 758 252 100 28 38
404 833 246 77 61 54
284 218 271 118 95 69
269 38 247 110 94 78
414 627 280 198 130 106
484 575 396 148 27 57
269 42 245 109 93 77
399 619 246 99 82 64
259 53 226 113 88 63
303 453 188 150 1 33
248 657 356 180 119 94
216 578 310 153 4 44
304 513 310 113 18 44
319 873 276 149 110 81
263 54 227 124 108 91
261 56 224 100 75 47
279 61 279 113 34 43
282 189 261 119 95 68
264 588 226 193 10 47
260 643 351 175 113 94
286 464 179 98 50 50
454 532 321 114 5 34
339 412 221 101 79 59
261 600 363 87 56 41
264 57 226 108 86 67
268 55 232 117 101 85
371 208 298 124 99 71
381 678 232 107 83 59
270 57 230 98 64 41
382 50 248 127 109 92
270 62 225 107 40 22
451 535 334 66 18 25
389 58 231 113 29 25
347 813 210 56 49 48
271 56 234 78 43 21
238 693 307 98 68 48
274 38 250 75 42 31
469 883 265 104 80 63
242 639 290 119 14 38
395 753 302 86 70 62
299 513 366 91 18 34
278 34 253 59 37 30
330 411 215 101 82 56
304 969 331 65 60 58
274 43 246 80 41 30
228 658 358 167 118 94
339 499 308 106 72 57
272 45 243 80 43 23
277 506 329 118 81 69
307 327 286 63 55 47
214 568 271 84 33 40
259 503 356 112 71 60
439 588 311 198 131 107
279 48 246 90 45 31
275 596 228 69 32 36
279 43 250 80 49 36
364 683 241 44 33 35
377 445 261 101 79 53
355 113 285 105 86 65
272 433 339 124 93 65
297 321 286 70 60 49
380 838 268 34 29 28
283 33 257 89 45 30
338 193 276 108 89 68
286 42 254 117 57 43
316 300 315 99 76 51
340 402 235 99 84 68
265 588 386 119 90 67
281 934 313 63 57 55
369 555 430 90 19 30
395 579 292 76 28 36
289 48 256 117 56 46
366 678 244 48 34 34
419 742 176 80 62 50
460 473 303 119 15 38
319 698 233 103 22 30
301 25 281 132 35 44
392 34 228 84 84 84
233 558 337 60 22 33
273 54 237 67 45 32
450 478 310 105 17 37
275 52 240 87 42 25
272 81 227 144 29 54
398 88 232 130 32 46
272 60 228 113 46 23
283 28 257 80 40 33
444 453 285 76 29 37
278 63 237 115 43 43
277 50 243 99 30 26
292 468 315 130 92 73
299 413 211 79 64 47
343 888 350 151 116 91
346 170 289 103 83 62
338 198 281 106 87 65
229 788 340 170 121 92
217 678 309 137 99 67
344 589 486 67 8 27
283 53 247 99 50 39
318 318 328 120 88 67
269 603 236 109 29 43
364 473 311 137 98 76
268 148 247 125 98 65
392 108 255 125 17 44
288 569 386 133 10 46
285 53 250 119 35 32
226 783 298 161 109 77
242 717 295 107 17 30
500 868 236 88 76 66
287 50 253 125 29 36
371 270 279 152 104 73
289 53 256 127 54 49
281 57 245 74 56 42
283 58 246 106 48 43
287 248 275 119 95 66
286 58 250 133 37 41
368 243 305 123 96 65
314 428 189 154 2 34
424 508 276 77 30 28
287 58 253 119 62 47
248 728 344 168 113 87
377 435 278 110 86 57
347 177 293 105 86 65
359 178 300 113 92 70
428 509 277 63 36 30
284 728 247 138 5 36
320 307 273 87 74 62
304 378 306 111 79 61
260 67 214 110 36 29
263 73 213 148 22 39
433 838 241 99 84 77
364 493 306 138 100 82
366 752 188 61 51 44
341 28 258 121 50 43
384 53 246 122 105 88
260 415 243 91 77 63
355 868 207 87 72 64
261 80 214 153 18 43
262 77 213 152 20 45
264 78 215 151 20 42
305 437 304 80 52 34
368 622 310 96 28 43
208 538 241 49 29 35
268 73 217 141 22 38
384 98 235 148 18 40
268 77 217 151 23 47
280 233 292 112 87 59
269 507 182 44 36 40
259 88 216 153 18 44
262 87 218 155 19 46
264 33 286 111 61 56
412 719 188 102 72 52
321 274 300 103 82 60
439 543 301 113 25 44
264 88 221 155 19 45
373 163 290 118 94 66
377 230 294 121 97 68
258 92 217 153 18 43
368 403 262 113 92 69
261 90 219 156 20 45
268 218 248 134 104 68
269 83 221 153 20 45
240 642 301 126 27 44
272 73 222 141 30 49
271 80 224 153 24 47
338 53 271 118 18 40
233 664 308 109 63 36
299 353 291 73 55 40
264 208 299 113 93 71
283 797 339 44 38 39
270 83 226 151 24 50
329 928 367 63 49 46
269 88 226 157 26 52
352 448 319 124 89 63
315 348 324 123 89 69
349 53 256 126 26 35
372 512 217 52 32 37
304 353 291 70 56 46
250 802 277 104 79 63
270 88 231 118 59 54
416 558 290 99 25 39
348 415 221 122 56 46
314 943 262 89 80 83
359 283 271 146 105 71
354 53 252 127 22 31
276 68 234 78 48 40
446 854 240 112 97 84
374 88 237 145 15 43
266 90 224 152 19 41
391 115 245 126 56 57
470 860 312 97 69 49
394 427 231 67 15 26
389 545 368 104 20 39
266 94 224 138 17 38
380 423 227 76 13 29
374 28 286 102 40 44
377 438 285 120 93 64
271 93 234 125 38 40
302 18 277 125 49 52
247 613 377 145 107 80
399 549 446 158 20 51
273 68 226 127 36 43
274 78 231 105 68 57
422 783 207 86 66 56
222 534 199 176 8 40
282 693 249 122 15 31
449 933 360 65 54 46
374 44 252 118 102 86
395 459 269 96 68 49
314 613 356 118 31 47
412 560 343 128 22 48
279 78 241 141 31 47
358 972 311 71 65 66
281 69 244 106 79 63
369 53 282 112 25 45
283 68 247 115 88 68
281 73 245 108 76 58
359 248 261 134 101 61
500 576 352 175 17 46
288 68 252 122 37 41
263 421 186 59 25 30
288 73 252 135 35 44
405 468 241 111 16 30
288 78 256 135 30 44
367 52 284 116 16 44
272 86 233 131 68 63
276 88 239 105 38 34
273 93 236 128 37 42
297 323 311 109 70 53
276 94 240 128 63 56
350 78 280 104 86 65
342 416 193 67 32 36
278 93 242 124 60 51
360 869 198 102 78 60
281 88 245 130 23 41
282 88 248 127 32 43
374 803 184 87 65 52
353 414 237 89 60 42
399 531 361 70 44 40
285 83 251 136 36 44
454 533 326 106 2 30
484 934 388 87 72 61
284 88 251 120 62 56
286 359 269 74 64 54
287 83 256 135 21 41
287 87 257 121 22 37
318 313 327 114 85 63
282 93 247 125 26 38
286 93 256 101 71 54
312 296 296 91 75 58
260 103 224 149 19 41
264 98 225 140 17 40
354 540 399 63 44 33
259 112 227 159 30 46
263 111 228 152 21 43
408 683 260 153 100 75
424 523 281 69 19 26
267 98 227 135 23 43
266 47 279 120 83 71
316 575 358 71 25 34
319 278 296 101 81 60
269 103 231 109 43 39
477 520 328 77 19 32
289 683 246 129 9 30
479 533 348 87 13 30
266 105 229 137 17 35
264 112 236 144 99 74
434 798 236 70 53 42
454 860 331 42 36 32
397 96 241 145 20 52
368 633 252 136 20 40
248 668 301 100 23 39
269 109 236 137 78 67
368 568 232 142 5 36
344 453 319 110 81 56
291 521 354 78 21 30
296 313 286 79 69 58
265 113 241 147 104 75
205 538 271 75 28 36
270 109 245 140 96 69
424 546 376 43 26 26
314 927 252 90 79 76
383 68 270 96 44 44
255 608 385 159 116 93
269 113 246 130 93 63
365 433 240 62 19 27
428 593 281 119 92 59
319 298 280 90 76 61
309 571 399 124 35 51
264 118 241 136 101 68
309 323 311 89 65 45
258 123 238 148 108 71
394 488 241 189 12 48
260 123 239 138 101 66
305 410 218 87 70 52
386 683 271 117 23 42
263 128 242 133 102 66
268 118 246 124 93 60
256 617 384 175 122 99
333 575 451 68 24 29
408 552 359 73 17 27
221 644 341 130 99 65
372 518 294 114 79 66
427 773 216 76 59 48
295 858 345 158 114 96
271 118 249 128 98 66
291 582 460 152 103 94
355 67 252 128 54 50
268 123 246 126 97 63
348 98 276 103 63 54
449 573 336 196 129 106
358 63 249 117 31 37
259 728 337 72 50 44
401 536 383 64 49 39
438 466 298 68 23 30
258 407 255 90 77 62
371 515 224 90 38 38
266 72 274 114 17 43
434 443 266 102 23 38
266 128 244 132 101 67
276 138 261 112 89 63
271 128 249 126 99 67
268 158 284 109 88 64
355 328 312 137 100 73
403 514 257 56 33 36
422 713 237 134 93 60
212 678 321 162 111 85
274 107 241 134 85 67
366 794 308 48 40 38
274 108 246 142 98 72
381 815 288 86 66 59
294 318 276 73 63 54
272 111 248 138 97 70
214 673 336 161 113 86
335 526 381 69 40 35
377 256 278 142 104 68
490 849 306 74 57 44
277 399 334 130 95 68
327 768 334 81 64 55
445 568 320 125 91 56
370 113 247 139 47 50
350 718 338 70 31 37
277 106 243 149 97 82
277 106 247 142 96 76
345 878 211 85 71 62
278 108 251 142 100 78
408 758 281 149 107 75
283 498 326 128 90 75
279 263 261 127 99 67
284 783 252 74 59 52
278 733 249 111 15 32
344 438 197 92 34 38
278 113 256 129 96 68
288 368 325 125 89 64
234 723 346 170 117 92
283 102 256 139 82 72
246 710 293 69 16 27
285 98 256 129 33 45
348 607 228 86 31 37
268 463 392 55 25 30
378 89 279 94 75 57
249 733 344 169 115 90
273 118 252 132 99 68
345 73 276 99 34 42
276 118 255 132 100 70
276 115 254 136 101 74
273 128 252 128 99 68
275 128 256 126 96 66
289 73 256 119 64 53
367 252 263 144 105 66
349 43 256 117 47 44
349 38 257 115 31 32
290 502 370 91 20 35
272 243 253 135 104 67
346 67 280 103 18 37
349 48 255 91 67 51
469 553 327 132 91 61
350 63 257 127 41 39
323 457 193 152 5 31
277 511 188 176 5 34
265 393 252 90 77 65
354 38 255 101 34 26
359 33 256 74 31 25
300 775 249 79 62 52
359 37 254 73 32 25
419 688 241 139 98 62
332 30 278 130 26 43
354 48 252 117 30 33
379 108 240 141 21 39
354 413 216 130 38 34
347 187 298 107 88 69
224 523 335 150 1 45
429 613 281 194 130 103
419 556 466 151 21 49
369 38 256 110 95 80
303 408 301 97 62 49
364 43 252 84 35 28
421 582 314 161 106 99
374 48 282 113 65 61
361 402 313 130 99 70
398 923 316 67 59 62
369 47 250 104 86 69
363 353 296 127 100 68
352 58 254 128 26 30
380 208 271 130 100 64
419 507 275 83 26 26
354 63 252 130 20 34
409 593 272 94 72 44
204 538 276 144 13 44
352 64 255 133 19 35
364 413 206 105 28 35
474 513 330 80 16 28
350 453 199 85 37 42
360 63 247 124 30 35
438 555 455 106 25 38
356 314 274 117 94 68
369 49 248 97 76 57
364 58 245 103 34 27
264 561 385 50 29 31
403 619 282 165 106 94
278 178 280 106 83 56
325 21 290 149 108 85
314 849 331 91 69 45
296 353 276 66 57 49
374 47 250 118 102 85
331 868 268 79 63 54
284 78 271 107 50 49
294 13 310 146 37 60
383 887 252 70 60 60
383 49 252 121 105 89
359 889 336 76 62 47
375 59 237 106 89 72
374 63 236 88 36 27
286 472 323 133 96 77
367 557 228 171 9 42
350 348 317 123 95 61
372 61 239 82 35 30
270 377 333 128 99 68
231 597 257 202 10 54
329 525 361 72 44 38
354 178 300 109 89 68
379 54 242 123 106 89
420 556 326 101 7 39
493 528 333 133 101 75
379 63 232 86 44 32
379 58 236 124 107 90
294 9 301 143 38 56
359 813 302 161 112 91
275 383 260 88 76 64
289 73 261 112 84 63
384 57 235 118 101 85
380 60 233 117 101 83
371 54 243 94 79 63
309 873 353 137 112 108
374 52 245 118 102 86
304 413 196 126 37 28
374 54 242 120 103 86
334 303 270 96 81 65
369 673 316 138 11 43
264 493 401 69 24 33
438 758 226 79 59 43
264 118 276 112 92 70
334 853 325 138 106 79
379 50 248 124 106 89
403 689 264 138 84 67
379 52 246 123 106 89
368 73 236 116 37 41
365 73 241 88 47 40
410 728 206 77 55 36
397 482 283 102 63 53
347 443 198 63 39 42
294 638 346 48 29 31
366 77 242 138 30 45
314 678 238 48 34 35
330 263 311 108 88 65
367 193 258 134 103 63
418 901 331 66 56 55
217 684 338 176 121 96
346 86 272 109 86 62
429 553 416 84 18 32
274 17 260 111 97 83
354 73 256 134 72 60
298 418 286 60 39 29
240 628 281 101 24 42
474 548 326 138 97 70
358 68 250 122 57 51
360 68 247 129 26 33
360 218 308 121 96 69
381 203 276 127 100 67
360 73 247 138 24 40
319 648 239 42 33 36
357 73 254 135 109 84
368 138 289 113 92 68
359 78 251 127 46 46
352 105 264 135 96 77
355 143 290 105 85 63
310 789 333 76 59 52
223 646 320 91 74 54
298 493 406 78 22 30
357 78 255 130 88 69
283 203 266 116 93 67
391 630 228 98 81 64
271 502 359 104 59 51
414 938 368 71 58 48
415 479 289 77 8 25
272 421 208 62 44 39
361 78 247 137 18 40
364 78 245 129 58 57
454 504 326 113 11 37
358 83 255 122 54 41
355 88 257 126 28 38
413 433 243 107 20 32
357 88 254 129 18 36
219 723 336 165 113 87
454 925 370 95 78 63
355 93 257 123 47 42
359 530 338 72 40 35
428 606 294 202 132 108
262 406 254 87 75 62
361 82 248 135 19 38
362 824 199 59 49 42
306 405 232 88 74 58
272 822 339 174 128 101
364 83 246 130 34 41
298 903 291 156 116 91
369 83 241 126 83 71
367 83 244 123 56 52
298 841 309 139 96 75
252 678 286 94 20 36
366 87 248 118 44 43
414 859 261 69 60 54
369 153 255 133 101 63
428 428 252 112 18 30
338 379 248 98 86 74
444 884 281 82 69 61
368 88 245 127 41 44
374 843 276 39 34 32
234 573 226 180 19 52
362 85 249 137 24 38
304 453 305 100 65 50
385 538 240 58 37 42
374 83 280 100 25 38
328 525 390 74 35 35
274 818 266 78 60 54
363 88 250 94 54 39
365 93 248 130 31 38
370 672 312 140 5 43
474 483 316 72 26 37
378 653 236 120 90 65
260 594 386 131 98 73
352 344 314 129 97 66
279 10 281 105 71 61
293 308 277 82 72 60
452 486 312 92 29 28
363 93 250 132 26 37
256 657 273 155 0 38
394 827 271 45 37 36
374 68 232 113 28 26
371 70 233 136 23 35
334 948 266 95 88 89
334 388 245 100 86 71
373 67 235 110 31 22
263 638 356 180 116 98
382 67 229 88 35 28
384 68 227 96 39 21
439 748 221 88 66 48
289 847 276 186 131 100
381 70 228 96 36 21
268 213 248 134 104 68
378 78 229 149 14 41
373 83 235 149 15 44
350 459 318 120 87 61
394 53 236 100 35 34
241 620 342 77 60 40
283 577 391 106 54 44
367 114 255 129 90 61
374 93 241 130 34 47
494 577 366 167 37 58
379 83 231 150 14 43
346 609 338 38 30 35
333 248 306 109 89 66
204 518 246 140 15 39
354 673 326 100 20 38
349 34 258 81 51 39
383 513 242 147 15 38
388 56 236 106 71 59
374 548 231 139 21 42
558 906 330 88 80 73
229 768 296 125 92 58
423 793 275 154 114 85
384 82 228 150 17 41
420 489 299 62 19 26
354 578 222 146 6 32
384 88 230 156 17 44
324 438 191 107 25 38
247 707 294 100 13 31
379 93 236 150 16 44
241 641 296 48 29 35
384 93 232 154 18 43
402 836 268 41 36 31
297 322 291 75 62 51
431 761 233 68 50 37
430 547 392 113 4 37
371 91 243 124 55 47
281 761 349 123 37 53
323 794 239 80 62 53
479 855 316 55 46 37
359 98 254 111 64 46
359 108 256 139 73 62
364 98 251 116 73 52
361 104 253 132 38 41
213 738 316 166 114 87
314 298 281 85 72 59
364 103 252 110 49 39
229 808 336 186 128 99
420 766 204 85 63 53
424 478 296 104 95 94
282 101 264 119 87 63
367 100 249 102 71 43
362 110 255 135 84 64
385 688 286 138 14 43
304 448 302 92 60 43
364 113 256 129 91 62
309 503 196 116 12 30
311 428 189 152 6 36
367 287 300 139 100 73
220 698 339 169 115 91
369 108 247 124 38 38
367 108 249 135 28 35
298 965 346 68 63 62
365 112 252 134 77 60
368 114 251 140 90 68
386 819 201 100 75 58
394 798 186 97 74 59
253 613 383 163 117 94
330 14 268 136 53 52
294 298 291 87 74 60
436 880 284 75 64 54
368 118 255 115 86 52
315 568 401 96 26 41
472 572 382 60 33 28
404 553 256 115 18 31
367 626 309 134 18 48
412 520 294 60 28 26
411 578 279 42 31 31
464 570 353 197 138 130
310 573 381 54 25 34
266 31 289 142 23 54
374 98 241 128 21 35
379 98 237 144 16 41
369 567 466 142 16 46
217 544 220 150 9 42
314 293 301 96 75 53
376 96 238 144 16 44
378 104 239 136 17 37
211 562 272 167 19 45
380 103 238 140 17 38
279 273 265 111 89 65
329 443 193 74 32 37
352 286 268 139 105 71
384 103 236 146 19 39
372 98 244 127 33 40
259 582 222 194 13 49
360 894 239 62 55 55
226 514 209 37 28 29
345 178 268 110 89 63
359 946 369 63 56 55
374 103 242 131 27 38
372 108 244 106 40 32
353 409 242 96 75 50
373 113 245 142 40 48
309 478 300 87 53 39
363 318 286 117 92 64
265 556 203 70 31 36
393 108 246 136 35 50
363 273 310 129 97 64
370 118 252 128 92 61
323 287 317 102 82 60
319 317 274 84 72 62
374 119 250 129 90 59
300 448 302 103 70 55
464 937 366 88 74 59
364 138 290 112 91 69
254 538 195 183 8 41
328 458 313 92 67 45
371 123 253 120 90 54
374 128 252 135 98 60
258 502 178 99 34 41
265 503 338 113 78 63
379 117 246 140 83 68
384 113 256 120 79 66
353 612 330 66 30 36
429 547 376 73 24 36
369 529 361 61 40 30
331 898 363 156 111 89
381 118 256 128 91 68
218 778 321 189 129 102
280 183 271 109 86 62
345 599 347 44 30 33
379 658 281 61 27 32
376 163 259 129 99 61
290 288 276 87 74 61
378 123 252 148 103 72
316 678 343 166 12 52
380 123 256 133 98 67
264 419 236 90 75 58
222 549 328 164 0 50
313 318 321 109 76 55
349 603 341 94 30 42
377 127 253 147 104 72
222 599 312 65 28 35
377 243 295 127 100 67
292 869 337 151 58 84
259 133 240 138 102 63
331 432 319 108 79 60
259 138 241 136 102 65
269 438 165 110 19 37
298 373 291 89 60 48
306 946 268 71 63 62
259 143 241 136 103 66
280 397 256 90 76 61
294 599 348 96 18 35
387 687 258 47 41 39
452 886 331 82 66 56
504 569 361 54 25 32
356 885 221 76 63 62
262 143 243 133 102 65
369 578 331 133 22 46
477 516 343 116 4 34
257 80 268 117 23 43
297 329 286 65 56 47
370 503 297 139 101 85
373 883 241 61 57 58
266 133 244 131 101 66
268 133 247 127 99 65
380 533 235 45 34 38
324 893 367 178 128 106
345 313 322 128 92 63
271 133 249 126 99 67
265 138 244 130 100 65
405 925 344 62 55 56
268 138 247 128 100 67
383 563 242 139 12 38
229 598 336 122 19 45
265 143 245 128 99 64
284 638 250 81 31 40
268 143 247 127 99 66
359 253 261 137 102 64
417 615 253 105 87 68
314 728 232 84 29 33
362 850 294 144 110 84
266 21 299 105 50 46
264 198 247 122 97 67
307 318 296 75 59 46
262 148 243 134 103 66
265 148 245 129 100 64
284 544 429 79 28 37
503 576 353 198 19 48
367 726 220 57 44 40
457 880 311 76 60 55
299 593 352 148 17 49
262 153 243 133 101 63
340 58 271 123 80 63
265 153 245 129 100 64
348 457 319 117 86 59
301 413 296 81 54 42
261 663 268 145 1 37
429 557 461 135 21 46
439 563 315 125 92 53
259 158 243 134 102 64
265 158 245 132 101 64
408 458 242 78 33 38
372 566 341 67 31 42
211 557 310 166 0 48
284 548 201 125 25 40
271 153 250 123 97 67
268 158 247 127 99 66
275 133 256 123 95 65
273 143 252 125 98 68
275 143 256 121 95 66
284 883 336 129 93 74
273 153 252 121 96 68
391 56 251 103 87 71
424 608 261 104 86 64
271 166 283 109 87 62
376 735 328 192 7 62
384 83 271 101 31 39
389 64 228 114 26 24
275 153 256 117 94 67
349 448 320 119 87 60
241 693 309 84 59 44
334 531 335 79 44 39
314 903 366 126 97 84
239 532 193 174 10 42
383 425 232 77 9 26
275 158 256 117 93 66
363 612 320 101 28 42
259 168 244 136 105 68
260 161 243 135 104 66
244 557 208 106 34 43
417 472 288 97 76 68
380 673 291 62 26 34
384 703 211 68 55 44
404 813 231 109 75 59
361 138 258 126 98 66
334 963 356 82 78 79
365 378 276 110 89 65
271 172 249 130 101 67
429 743 205 92 72 56
294 728 242 150 6 38
364 188 258 132 101 63
279 493 182 66 33 38
277 485 368 91 30 38
259 575 358 163 1 52
344 10 276 124 73 67
259 183 246 133 102 65
264 188 247 127 99 66
249 713 342 154 102 79
424 550 447 73 28 26
269 108 275 113 92 69
298 16 309 140 85 73
322 276 302 103 83 60
264 193 247 119 95 67
469 567 360 107 51 58
249 533 192 106 27 39
231 622 292 93 31 41
309 583 356 60 25 30
374 413 212 127 17 30
271 177 249 135 105 70
259 68 270 103 78 64
335 728 343 157 19 51
270 193 249 124 98 67
273 163 252 119 95 67
273 168 252 121 97 67
334 358 326 138 98 71
344 868 326 137 104 77
419 722 206 74 58 45
325 902 232 85 73 73
391 779 185 79 61 53
273 173 251 125 99 67
368 288 296 138 98 71
414 609 257 100 85 69
314 473 195 153 3 32
326 274 310 107 86 64
274 178 251 129 101 69
213 703 316 162 111 83
415 587 305 161 105 99
335 208 276 109 90 69
264 268 256 138 102 69
276 178 254 122 97 66
292 319 273 78 68 58
277 180 253 122 95 64
279 183 256 122 97 66
274 188 251 134 106 74
396 805 221 72 59 52
274 193 251 130 103 72
280 188 256 124 98 68
252 683 286 69 25 34
280 193 256 126 100 69
245 601 248 205 13 52
329 922 243 93 83 83
367 399 262 112 91 66
308 418 187 145 10 32
409 513 266 79 30 30
259 198 246 122 97 66
284 493 408 36 29 27
299 588 377 157 20 52
349 518 301 96 50 46
313 908 256 55 51 52
346 71 279 94 58 49
243 834 316 218 145 116
454 563 360 76 20 32
268 198 248 122 96 65
431 529 274 149 17 39
248 594 240 205 11 50
271 198 249 123 98 67
375 263 291 132 95 66
412 807 225 69 54 50
269 208 248 133 104 69
325 555 382 61 27 33
264 213 248 132 102 67
345 48 258 116 40 39
422 428 247 54 32 37
264 218 248 132 102 66
264 223 248 133 103 66
277 576 408 138 102 84
259 223 248 134 103 66
244 818 296 194 130 100
364 33 290 118 37 51
374 458 301 130 94 67
269 223 250 134 103 67
313 403 313 124 83 70
282 416 202 65 46 40
333 394 323 141 100 75
340 233 310 109 89 68
265 224 249 134 104 67
358 218 309 120 97 70
269 378 334 128 99 69
340 708 343 136 32 53
277 198 253 129 102 70
409 563 336 126 22 45
335 523 199 41 37 40
408 598 292 154 100 94
274 203 251 128 100 67
285 40 283 113 30 40
277 208 253 128 100 67
364 703 334 119 19 44
277 212 253 128 100 68
279 178 276 107 84 58
308 854 274 174 117 90
279 213 256 126 99 67
274 223 251 134 104 69
310 568 371 76 30 41
276 218 254 129 101 68
352 394 248 101 86 70
316 889 278 89 74 60
290 703 243 135 10 32
270 453 337 130 96 73
276 221 254 129 101 68
469 494 325 136 16 41
286 248 271 117 92 62
278 92 274 106 39 45
362 308 282 136 103 74
258 231 248 135 103 66
262 227 248 135 104 66
286 957 328 72 68 69
345 410 209 124 49 38
264 228 249 135 103 66
276 118 272 113 87 62
259 238 250 134 103 65
286 580 377 103 3 35
329 253 301 105 84 62
401 560 343 86 30 37
264 238 250 136 104 67
432 523 273 139 12 34
269 233 251 135 104 67
261 518 342 107 70 59
475 524 344 130 13 41
235 633 366 154 112 86
259 248 251 135 102 65
299 653 245 70 28 34
296 433 303 118 79 60
335 758 332 88 68 60
268 253 253 138 105 69
329 498 305 98 60 49
353 109 265 136 101 74
381 457 276 117 86 59
349 468 317 120 87 63
274 228 252 134 104 69
299 14 276 130 65 62
210 558 301 123 24 44
276 228 254 133 103 68
448 527 291 199 12 48
444 504 316 89 5 30
351 133 276 106 86 63
319 557 203 78 33 36
279 228 256 130 101 65
272 247 253 136 105 69
274 248 255 134 103 69
371 132 253 128 95 55
332 226 276 107 88 66
373 133 253 136 99 61
354 557 422 55 28 29
249 553 346 70 27 35
359 118 261 126 95 61
371 139 253 132 98 60
280 948 321 65 61 61
254 838 331 204 141 114
364 158 295 113 92 68
372 138 253 133 98 61
439 887 291 57 49 44
390 34 228 84 84 84
254 823 345 191 141 115
324 323 271 85 75 64
306 690 238 115 15 30
354 428 320 132 94 66
394 38 234 90 68 65
393 49 234 98 41 41
457 560 428 139 23 47
387 92 269 118 24 47
385 55 238 119 102 87
391 60 228 120 20 17
292 20 263 127 28 35
294 14 266 126 48 33
389 56 241 108 87 72
364 39 287 119 23 45
409 433 240 108 30 39
289 438 177 59 40 39
394 53 231 107 30 31
397 59 236 95 32 34
399 63 236 94 39 34
456 546 366 67 27 29
394 603 280 86 25 34
399 63 241 84 37 29
248 524 356 140 19 47
389 53 256 102 90 75
264 823 276 80 62 56
201 518 296 135 11 41
204 533 266 57 32 35
423 492 296 55 24 28
479 574 401 122 28 47
269 448 166 142 4 36
362 144 259 125 98 67
341 248 263 128 98 62
390 56 246 105 86 70
389 112 255 107 34 43
401 590 269 38 35 35
391 56 256 99 82 62
439 557 436 68 24 30
384 444 254 65 26 26
380 158 276 117 93 66
260 349 324 113 90 64
394 58 251 93 78 61
388 116 249 128 51 59
393 58 256 91 57 43
303 398 251 81 67 54
398 63 251 81 33 31
381 839 215 67 59 59
249 557 207 142 27 44
389 498 246 134 15 39
396 61 252 67 41 25
386 500 244 113 16 31
205 528 311 72 26 36
344 243 314 115 93 69
385 65 228 94 34 27
336 215 294 107 87 65
464 566 431 196 17 64
389 73 225 115 35 29
246 668 307 63 42 41
387 782 178 82 63 53
389 78 226 144 21 39
384 828 276 61 47 43
348 329 268 96 82 67
394 68 227 118 37 27
267 466 168 59 38 31
261 328 319 116 90 62
319 738 231 56 33 38
287 562 437 62 29 33
394 73 226 110 42 29
542 848 225 118 90 72
262 93 273 110 19 41
309 458 190 151 0 34
303 600 224 154 13 43
340 553 411 99 19 36
282 701 348 33 30 30
396 67 229 107 44 32
281 573 421 163 122 102
399 73 231 97 45 35
400 68 236 90 34 32
286 286 308 103 81 57
304 458 188 150 0 34
314 583 421 155 100 97
394 78 226 135 36 41
400 78 231 115 40 42
400 68 251 106 40 42
395 98 246 137 18 50
399 73 256 118 30 46
345 843 313 148 112 88
341 734 338 169 20 58
307 481 193 162 0 34
399 78 256 124 28 49
389 83 227 146 20 38
471 561 369 55 29 26
213 568 276 46 33 35
389 87 228 154 22 44
324 566 364 162 13 52
464 572 336 198 130 107
388 89 229 157 19 44
443 541 322 40 33 35
293 411 230 79 65 49
377 56 279 95 53 43
344 378 251 94 83 72
263 658 333 35 27 30
389 93 231 157 20 43
283 233 261 127 98 65
369 28 261 113 97 81
382 597 310 162 22 56
333 10 299 146 40 66
214 553 236 69 27 37
394 83 227 142 32 42
393 87 228 146 25 44
314 703 352 143 6 45
395 89 229 142 32 48
296 473 308 128 87 71
397 82 228 125 47 39
297 406 303 111 71 56
399 83 231 130 34 44
329 388 245 101 86 72
212 663 326 154 105 79
363 483 310 138 99 80
424 487 291 81 27 35
340 345 263 94 83 71
396 84 229 140 36 52
399 88 236 142 25 47
394 93 231 155 28 49
340 912 358 135 102 77
400 88 241 144 22 54
355 358 265 99 86 73
398 83 255 125 14 46
263 575 358 165 2 52
474 498 327 136 14 40
398 88 251 135 18 51
373 213 296 121 96 67
344 748 220 69 36 35
349 938 376 64 58 57
397 87 254 125 18 46
396 95 247 135 14 50
440 538 291 66 29 36
319 638 239 99 19 34
394 93 256 111 37 48
309 658 242 107 23 33
339 388 245 101 86 71
401 67 241 93 37 36
325 658 338 50 27 31
299 13 281 144 88 88
249 608 251 203 12 51
339 488 199 126 12 34
402 73 236 100 39 35
359 728 225 66 35 34
324 287 280 92 77 60
449 934 350 86 70 63
358 653 248 81 26 30
292 448 314 125 90 67
402 70 238 101 45 49
402 69 241 101 38 41
438 434 266 117 21 41
403 73 241 110 41 43
402 74 233 95 39 30
375 133 282 117 94 69
314 838 315 158 113 90
401 80 234 128 30 44
401 795 214 78 59 51
434 554 436 70 23 29
277 394 334 129 95 67
324 397 235 99 85 71
264 11 276 98 55 51
381 683 231 100 79 58
380 103 277 116 58 57
288 959 305 76 71 72
362 353 300 129 101 69
504 569 366 71 25 32
402 76 233 110 39 40
258 426 202 54 28 26
402 78 236 123 28 41
380 123 266 109 86 57
402 69 246 103 39 38
339 638 331 110 33 47
224 718 340 168 116 91
403 73 246 116 41 48
318 303 321 103 80 55
482 940 363 99 79 63
299 483 296 96 60 52
485 571 372 159 21 45
204 538 281 168 2 45
282 923 315 135 106 86
381 499 221 53 35 36
402 73 250 120 37 49
234 623 351 121 95 65
402 78 246 124 29 49
401 78 251 126 27 49
401 80 248 126 17 49
402 77 250 124 30 48
454 467 301 140 9 38
402 82 237 134 29 47
302 408 296 94 61 47
401 84 241 136 20 50
324 528 197 84 34 38
374 143 286 115 92 66
402 81 245 130 17 47
431 458 274 151 15 39
419 642 260 193 128 97
385 97 233 149 18 37
295 388 271 63 54 43
376 259 280 141 101 68
389 97 233 155 23 45
389 103 236 150 35 49
393 96 233 165 26 56
394 98 236 149 33 51
376 839 201 87 72 61
234 528 191 148 15 39
395 99 241 138 30 50
299 508 412 136 16 45
397 96 238 147 33 52
392 107 242 116 71 65
338 763 329 85 67 57
390 109 257 118 28 46
251 668 291 137 1 36
404 423 232 55 37 37
293 48 276 109 24 42
349 617 233 135 22 39
394 103 246 138 25 49
395 98 251 131 14 50
393 98 256 121 22 45
393 103 255 124 21 45
359 198 258 122 97 66
322 785 234 78 62 54
434 753 226 62 47 33
392 112 243 103 58 48
392 113 246 128 36 47
284 28 291 138 91 78
334 438 195 50 37 41
270 415 238 89 75 60
393 108 251 131 22 48
409 853 249 68 59 55
398 521 293 71 42 36
373 947 341 71 64 66
392 112 251 129 23 45
259 14 266 96 69 60
256 15 268 96 57 52
259 13 271 97 56 51
364 83 284 111 93 72
349 538 207 112 29 41
264 12 271 98 68 59
487 505 331 69 30 35
269 15 263 99 85 70
419 713 196 69 54 41
264 18 260 100 86 72
394 503 282 99 61 51
264 513 356 104 65 56
269 11 271 98 77 65
265 513 410 49 29 31
365 288 281 136 97 68
370 423 256 78 64 49
325 614 353 82 28 38
269 13 266 98 81 68
297 713 239 53 33 38
281 318 269 88 77 66
347 74 278 99 81 61
361 356 303 127 100 68
259 11 281 97 37 41
264 11 281 97 42 44
259 13 286 94 40 41
378 448 212 86 36 39
244 623 271 179 15 49
319 658 340 49 25 32
268 11 275 98 68 60
379 133 261 124 98 66
266 10 278 98 53 50
334 358 260 92 81 71
269 10 277 99 66 58
269 10 281 98 54 51
269 10 286 98 48 47
228 573 331 64 24 35
270 629 342 114 23 44
259 18 261 102 86 74
285 338 269 78 68 59
263 21 259 108 93 78
439 564 351 85 42 48
328 488 308 101 68 52
322 691 234 55 34 37
264 23 257 106 92 78
342 178 281 103 84 64
319 283 301 98 78 54
278 248 258 131 101 67
282 628 343 31 24 27
274 547 386 51 22 28
258 16 265 97 70 62
269 18 260 106 91 76
266 20 258 110 95 80
234 603 261 138 17 46
296 888 298 140 110 79
454 547 381 109 7 35
515 823 220 101 83 66
364 173 257 131 100 63
311 574 419 139 20 48
269 20 258 110 95 81
243 543 342 62 27 33
257 18 288 89 49 44
300 966 306 79 74 75
268 580 358 165 6 52
313 396 251 97 82 66
412 657 254 172 114 89
254 558 361 37 27 29
319 828 252 61 49 49
234 543 337 115 16 40
258 24 287 113 30 44
259 28 286 115 49 54
259 393 337 128 99 70
257 29 283 116 35 47
389 703 321 71 27 36
313 428 308 78 52 34
260 32 284 119 31 46
284 847 286 85 69 64
263 29 287 118 80 69
274 15 263 105 91 76
398 703 195 87 66 47
329 478 311 101 71 52
298 824 259 81 63 56
274 12 266 103 86 72
274 11 271 101 83 70
306 511 375 95 27 37
279 12 266 113 88 74
313 703 234 126 10 31
284 12 266 121 81 66
284 11 271 120 76 64
299 493 401 84 19 30
301 570 402 117 25 40
294 338 320 113 73 59
289 13 266 128 67 47
359 188 258 129 99 63
289 11 271 125 66 54
274 528 350 104 57 54
272 11 274 100 79 67
300 403 256 78 65 54
434 932 357 71 60 51
268 496 178 47 36 39
276 10 273 103 83 70
451 890 268 84 73 69
274 10 281 100 66 58
263 412 245 90 76 61
334 753 336 90 70 60
278 599 229 129 30 46
349 28 259 85 45 34
298 432 297 35 32 27
279 10 273 108 84 70
347 895 349 142 107 79
339 363 256 95 84 73
372 876 228 67 63 66
485 879 257 124 101 81
279 10 276 106 79 67
231 580 340 74 22 31
482 500 330 101 19 36
294 9 296 144 48 60
329 912 237 86 75 75
284 10 276 117 74 64
364 718 335 113 31 46
354 438 201 103 31 39
398 741 165 95 69 47
284 10 281 116 70 62
342 460 318 107 79 53
253 694 330 63 41 37
285 11 274 120 73 62
288 10 277 122 69 61
335 213 286 104 85 63
289 11 276 124 67 59
259 63 271 110 22 41
433 783 251 145 98 63
282 96 269 112 67 56
324 529 341 79 44 38
275 415 232 88 73 57
239 823 306 203 137 107
280 502 364 92 41 41
258 840 305 215 146 116
264 133 280 111 90 69
289 10 281 125 71 65
364 303 301 133 99 70
289 10 286 131 72 70
476 939 366 102 81 64
466 490 324 57 15 45
274 20 258 111 95 81
222 579 251 89 33 41
421 824 258 73 53 42
279 19 258 117 87 55
309 902 276 83 58 42
300 368 301 112 70 57
370 550 420 82 18 27
384 823 201 96 72 57
279 23 257 109 41 29
284 18 260 121 53 35
314 688 236 110 22 33
248 563 347 72 25 32
282 19 258 99 55 26
285 28 259 63 47 39
211 548 246 179 2 48
349 14 262 112 79 51
289 28 260 93 45 36
289 33 259 102 47 37
354 293 316 132 98 67
431 746 223 58 45 30
285 30 288 121 90 70
286 898 312 169 124 100
484 513 331 65 29 34
350 11 286 106 59 63
359 383 261 96 83 70
340 713 343 118 29 46
321 851 336 107 83 58
419 688 246 145 101 66
309 593 451 125 56 58
289 30 288 120 77 64
392 699 269 142 10 44
273 158 280 107 85 60
415 428 245 79 26 34
289 33 286 129 29 51
324 513 197 103 27 36
264 12 291 96 44 45
364 543 220 122 21 38
264 14 296 96 62 50
304 438 302 78 50 33
274 549 396 43 25 28
259 498 177 69 37 39
290 869 312 134 99 75
261 504 404 41 30 30
270 10 291 97 54 48
328 463 313 95 67 48
260 23 291 120 26 46
267 533 336 95 47 47
261 18 294 97 33 37
263 18 297 110 76 65
253 558 351 33 29 30
317 288 285 91 77 62
250 833 301 211 141 111
324 968 346 62 56 54
299 868 301 124 88 61
299 966 336 69 62 60
261 22 294 122 21 45
264 23 296 130 26 50
261 26 289 130 94 82
396 479 229 120 13 30
266 18 299 113 84 80
362 175 299 114 92 69
269 18 301 113 44 54
269 28 291 113 59 55
389 643 224 132 100 65
378 946 356 58 51 50
269 27 295 128 65 64
343 802 314 169 116 95
358 388 258 102 87 72
269 31 289 121 41 52
380 658 276 71 31 37
371 706 333 158 18 50
403 791 196 89 66 55
274 10 296 99 57 45
334 19 297 139 96 78
272 763 343 152 111 85
272 11 297 98 59 46
479 941 374 100 81 65
299 373 296 104 66 55
275 10 300 102 58 44
373 543 227 49 36 38
344 863 231 52 48 48
279 10 301 112 52 44
234 713 303 122 84 57
494 867 306 83 63 53
287 475 400 83 12 27
422 521 278 53 13 26
390 808 201 81 64 51
381 472 286 129 92 67
272 459 376 98 34 40
277 11 303 108 57 44
240 637 291 160 19 49
284 9 296 122 48 47
345 633 328 69 28 37
280 10 304 116 52 46
252 659 285 148 1 37
274 478 175 54 36 42
379 463 291 130 94 67
264 518 186 116 20 38
284 13 308 136 75 72
341 841 248 76 59 53
478 497 322 142 19 37
289 9 306 138 33 56
359 708 336 91 31 42
384 929 341 70 64 67
286 12 309 133 37 55
299 521 355 80 22 30
364 383 271 108 88 66
375 530 326 108 86 80
313 799 244 77 60 52
289 10 309 144 33 59
358 268 314 126 96 60
289 12 310 144 34 59
402 890 344 41 37 36
289 14 307 146 86 85
289 493 187 46 34 39
284 233 281 118 93 66
229 569 225 128 26 46
370 193 297 121 97 69
371 490 214 125 17 33
274 18 302 124 86 76
278 228 295 112 89 61
409 733 270 149 99 76
274 23 300 120 55 55
445 541 356 66 26 26
278 20 303 131 95 72
349 733 336 127 24 49
306 334 311 92 64 46
507 871 236 116 88 81
221 542 207 178 11 43
229 528 192 110 27 42
279 23 301 135 97 76
282 262 263 121 94 64
279 29 291 130 51 59
301 732 238 116 23 36
274 183 286 107 85 59
420 905 311 62 53 51
278 31 289 138 26 53
279 44 283 118 90 70
319 358 325 130 92 75
399 695 198 90 67 36
279 26 299 134 83 70
344 947 267 87 80 82
385 478 220 136 12 34
285 20 303 139 96 75
284 23 301 134 95 74
466 571 397 69 19 22
344 338 321 130 94 65
464 468 302 118 19 42
289 22 300 138 95 74
284 27 296 138 48 60
279 64 278 118 26 46
334 333 266 89 78 68
279 34 287 128 27 50
289 27 291 137 74 70
504 553 346 151 115 94
336 433 194 51 37 39
424 903 306 63 54 53
220 563 321 155 0 46
350 198 304 110 90 70
349 11 291 103 51 57
349 11 296 104 48 54
339 263 317 113 89 64
375 438 261 99 78 53
288 26 295 140 51 60
285 25 298 129 91 72
263 393 255 92 79 66
242 618 333 75 24 36
262 468 382 79 20 32
301 936 263 89 77 74
246 636 374 174 120 96
346 83 271 107 67 53
339 428 195 118 24 40
316 682 343 144 16 51
329 308 271 89 77 66
290 25 297 141 97 78
375 238 297 124 97 66
307 893 363 179 133 117
414 528 260 51 34 39
387 670 265 50 29 31
275 16 304 152 122 122
284 17 305 153 110 98
319 538 320 81 47 42
284 463 177 91 29 37
397 549 449 159 18 50
230 618 306 61 29 35
289 17 305 168 124 123
256 36 279 112 76 64
302 426 183 112 26 30
437 555 418 168 20 50
323 284 279 91 75 58
354 423 200 103 30 36
417 481 273 93 28 38
410 573 295 43 24 27
367 291 288 131 93 65
259 38 281 124 25 47
416 578 305 135 83 80
285 879 331 125 92 71
312 301 285 80 69 57
257 39 278 127 22 48
259 43 277 122 51 58
272 496 408 57 29 34
284 458 177 144 6 34
260 42 279 119 74 64
332 237 297 107 87 65
285 410 237 84 69 53
339 673 236 92 25 29
287 343 324 124 81 60
484 572 346 163 100 96
284 218 261 125 99 67
259 48 276 122 29 47
366 378 286 109 88 65
324 778 226 77 60 51
262 45 278 128 107 88
259 147 283 110 91 71
372 936 278 75 65 66
294 478 186 140 6 35
257 492 353 111 66 57
263 48 278 119 70 65
268 40 283 116 30 46
355 123 285 104 84 62
237 829 321 209 142 109
259 518 186 150 11 39
377 188 263 131 101 64
292 472 183 44 35 45
269 38 285 131 20 49
409 719 187 98 68 46
283 433 330 131 93 68
275 383 333 130 98 65
407 439 238 78 39 38
224 723 340 168 116 90
271 41 284 124 18 46
213 683 331 171 118 91
294 503 195 161 0 33
201 518 271 153 2 40
258 53 272 120 32 49
314 521 361 82 32 33
260 293 314 119 91 64
503 859 319 68 55 43
357 353 310 126 99 67
256 61 269 108 37 43
257 64 268 102 22 40
257 50 273 129 18 45
311 866 283 189 136 98
314 683 344 151 15 49
260 53 275 123 14 44
269 456 387 98 28 37
261 61 274 116 17 42
423 808 221 78 63 54
322 554 416 76 10 30
267 209 299 113 93 70
423 590 278 102 84 65
264 63 275 109 44 47
345 78 275 98 35 42
284 542 428 74 28 34
339 303 327 127 92 62
464 879 286 96 78 65
266 52 279 124 16 47
355 764 323 80 60 52
269 53 279 116 42 51
293 587 381 115 44 49
268 54 278 112 64 57
424 506 280 75 28 30
430 826 253 73 56 47
269 63 277 118 94 73
271 56 279 121 96 74
294 443 311 126 88 66
419 881 287 63 56 51
357 334 273 112 92 71
279 38 285 121 23 45
409 558 306 67 20 30
286 281 269 92 77 62
384 426 230 77 10 26
259 743 262 130 8 33
274 41 284 109 31 43
384 648 256 81 50 42
390 63 262 99 35 41
499 863 321 68 51 41
279 41 284 115 87 68
328 864 269 122 89 70
279 48 282 111 74 58
264 248 308 119 96 70
369 793 306 67 53 47
354 328 272 107 88 67
277 364 263 85 75 65
282 292 268 92 79 65
290 38 282 118 18 43
288 37 284 122 22 45
284 43 282 123 93 72
342 213 264 120 94 62
423 477 272 96 28 37
321 894 251 47 44 46
213 688 321 166 116 85
342 835 245 53 46 45
444 478 301 60 33 34
282 41 284 117 82 64
314 528 315 82 36 38
284 213 261 124 98 67
399 439 255 63 19 23
411 521 259 99 29 40
405 921 353 57 49 45
284 48 281 121 93 71
274 53 280 116 37 49
279 53 280 112 38 46
386 625 248 79 64 47
273 59 278 121 96 71
294 413 201 69 44 37
299 814 254 80 63 55
274 63 278 114 76 62
279 58 280 111 28 43
342 60 277 122 80 68
219 713 306 139 101 69
284 53 280 113 83 66
379 848 211 76 65 62
349 258 262 130 101 66
293 10 286 146 88 88
288 53 279 109 38 47
365 258 265 145 104 68
362 576 348 188 15 56
283 953 331 66 60 61
284 58 279 117 20 43
324 965 280 93 88 90
283 61 279 123 12 44
309 803 327 67 54 47
283 416 206 64 48 41
286 59 278 109 27 43
360 734 218 55 42 38
365 579 361 50 29 32
334 979 301 62 59 59
345 68 262 131 29 42
293 53 271 111 33 44
344 748 332 82 64 55
351 123 276 105 84 60
288 443 321 128 91 69
289 58 276 112 67 60
352 535 394 62 41 31
465 459 299 87 28 36
375 534 302 94 76 80
285 398 328 126 90 67
512 855 229 104 82 67
351 123 280 102 82 59
216 529 223 88 19 28
287 56 279 114 11 42
410 555 348 65 24 31
298 14 271 130 48 44
454 893 281 79 65 64
299 12 286 157 101 101
274 318 266 92 79 65
302 15 282 149 97 98
291 406 249 79 65 50
370 823 193 90 67 50
260 479 169 83 36 41
362 25 258 116 99 79
216 562 241 144 11 43
364 543 306 97 81 73
303 14 286 151 90 90
277 583 362 103 18 39
293 23 263 113 33 27
253 614 255 197 12 51
289 433 177 48 40 42
289 633 246 155 11 41
329 869 355 153 121 86
294 18 265 115 34 30
207 538 246 128 16 42
355 173 262 124 96 60
293 28 262 110 52 38
305 378 311 112 77 61
293 33 261 114 55 42
353 173 265 119 92 56
400 598 285 100 39 44
221 531 198 108 10 41
364 498 305 136 97 81
296 28 264 113 88 63
296 33 265 116 57 44
229 583 336 44 30 31
308 323 281 65 56 48
344 927 372 39 37 37
299 18 271 128 42 41
386 843 229 67 59 59
300 23 271 124 43 42
426 480 299 83 53 59
294 643 247 120 17 33
363 388 266 101 84 66
298 33 271 118 73 56
385 518 282 109 73 60
294 29 287 138 36 56
293 32 285 131 49 60
216 538 222 130 10 35
419 547 356 67 19 29
273 358 263 88 78 67
301 17 275 128 49 50
392 552 248 64 28 36
274 488 406 48 29 30
301 16 279 128 70 69
456 538 329 63 17 30
414 638 236 113 89 61
345 358 323 131 97 66
390 668 260 87 48 42
303 18 281 127 79 71
351 154 289 98 80 60
301 24 275 133 33 46
459 560 436 96 25 34
358 966 335 60 55 54
282 213 285 111 87 58
354 493 205 147 4 34
302 23 277 139 31 48
298 33 276 129 33 48
