ply
format ascii 1.0
comment Created by Open3D
element vertex 2229
property double x
property double y
property double z
property uchar red
property uchar green
property uchar blue
end_header
421 544 271 101 20 34
433 583 260 135 97 63
426 536 259 54 34 36
426 539 267 72 32 40
425 541 269 65 27 32
426 543 272 61 34 37
431 539 267 66 32 35
431 543 272 68 32 36
443 516 288 75 47 40
396 829 343 79 61 46
447 517 282 76 43 39
441 536 262 143 12 43
436 539 267 84 32 41
441 538 267 144 14 39
446 540 270 163 14 45
436 544 276 49 33 38
431 513 302 71 38 35
426 513 312 68 32 31
430 515 312 67 32 32
428 516 318 66 29 28
421 543 316 170 20 55
422 544 314 168 20 56
426 539 318 53 27 31
346 832 183 93 72 57
426 542 316 59 24 32
436 514 297 72 39 35
440 515 291 74 43 37
439 515 295 72 42 36
442 517 292 73 46 38
441 518 297 72 45 37
435 515 302 70 39 35
441 519 302 72 46 38
445 520 297 73 49 40
446 522 302 73 49 39
490 528 264 104 24 37
441 519 307 73 44 37
436 519 317 68 26 29
439 520 317 72 25 30
441 521 317 74 23 31
442 521 312 80 35 36
466 533 282 89 33 34
418 558 271 52 31 31
422 558 276 79 16 35
426 553 278 63 24 30
376 843 232 63 55 52
428 545 275 52 30 34
431 545 276 54 31 35
430 552 279 53 28 33
430 556 280 79 18 31
421 572 261 116 74 32
421 574 258 114 81 36
336 798 271 143 106 88
417 570 264 113 69 19
426 564 268 113 60 25
431 564 268 114 68 27
431 566 265 118 76 31
431 569 263 126 89 49
426 569 263 115 74 31
426 572 260 120 84 40
425 574 258 124 89 47
430 575 259 135 99 57
341 808 173 66 56 51
426 560 274 89 23 25
425 569 282 87 37 42
428 571 287 94 50 53
272 893 262 64 56 55
431 574 287 110 70 67
436 547 278 40 32 35
440 546 279 40 34 35
328 884 225 79 70 69
441 552 281 60 31 32
436 555 278 74 33 33
441 559 274 104 59 31
443 545 280 85 26 28
445 545 280 83 21 22
446 548 282 44 29 33
446 556 275 99 56 36
436 568 266 139 97 62
441 563 272 123 82 47
434 573 264 135 97 63
437 573 266 138 97 62
442 573 270 134 93 58
446 563 273 134 96 63
420 548 316 62 19 31
406 817 194 97 76 59
445 811 255 84 73 64
421 553 317 33 28 30
426 548 313 145 18 47
425 554 316 46 24 29
305 792 296 144 102 82
431 548 312 167 15 53
431 553 312 107 13 38
421 569 292 101 27 40
421 570 296 91 26 38
422 571 298 81 23 37
276 773 322 86 67 55
421 573 302 63 21 37
426 573 297 75 26 38
431 573 292 88 47 49
428 562 319 32 30 24
431 563 318 69 27 34
436 548 312 171 14 54
435 545 314 168 18 54
439 545 314 162 16 51
441 554 309 159 13 50
440 559 310 124 11 40
442 546 316 138 19 46
446 548 317 143 17 46
301 919 251 88 79 79
444 545 319 108 17 42
445 549 313 147 18 46
446 558 308 135 14 41
434 575 293 105 63 63
434 575 295 81 42 40
437 562 314 38 27 30
443 561 309 140 15 43
446 568 313 135 12 41
443 566 314 101 6 32
445 569 315 133 13 41
446 573 317 144 13 46
396 523 337 153 17 52
396 528 332 179 14 57
401 523 337 108 19 42
401 525 334 174 17 58
370 856 237 71 61 60
391 519 342 158 19 53
386 515 349 119 23 47
386 517 347 119 24 46
392 520 339 153 18 50
389 521 340 54 13 25
354 872 238 77 66 64
395 514 350 171 20 55
401 517 345 173 20 58
396 520 339 80 18 36
388 535 329 182 4 52
477 571 320 112 26 43
391 538 326 177 7 55
291 887 223 83 72 70
386 538 328 180 7 57
391 543 326 163 13 51
396 533 326 184 1 59
393 530 329 185 7 59
401 529 328 179 13 57
397 539 324 170 8 53
394 544 325 165 11 52
406 527 331 168 20 56
415 831 255 79 64 51
416 515 337 61 32 29
429 821 290 77 58 44
411 524 337 108 21 41
416 524 337 100 22 38
416 528 332 112 20 40
407 516 350 120 12 42
403 521 340 33 27 28
411 517 347 99 27 41
411 520 343 65 26 30
263 810 314 50 39 34
416 517 347 36 27 29
416 520 344 43 27 29
406 534 323 178 16 57
416 530 328 64 20 32
416 534 323 77 22 33
411 537 320 149 18 53
416 536 320 75 23 37
283 879 243 51 48 50
386 548 328 162 9 50
386 552 329 153 14 49
386 558 332 110 17 38
397 547 324 161 16 50
396 553 327 127 17 42
401 553 326 143 18 45
392 556 329 36 26 28
386 562 334 72 21 32
386 564 335 85 23 34
391 568 335 58 25 31
392 566 334 99 28 39
416 583 272 146 98 89
398 802 212 78 58 48
386 573 336 72 21 31
396 567 334 52 26 31
401 563 331 48 27 29
396 573 336 88 22 35
491 554 322 103 14 27
402 551 324 120 21 42
416 553 321 53 24 30
409 555 325 93 15 38
392 803 197 80 62 51
416 558 323 83 22 33
406 568 332 82 21 35
402 572 334 102 21 41
382 783 239 152 113 86
432 590 273 203 132 108
416 563 326 98 17 35
416 568 328 62 23 30
410 568 330 80 22 34
330 881 224 80 70 70
412 567 329 92 22 36
411 573 331 59 26 32
415 573 330 58 25 32
421 515 337 51 33 28
422 516 336 44 34 28
426 517 327 52 32 24
431 516 336 50 30 27
421 514 342 53 32 27
421 513 347 77 28 31
333 845 290 29 29 31
421 517 351 138 22 50
421 520 344 36 27 32
451 582 278 185 119 90
431 515 339 53 29 28
426 514 347 78 34 36
426 519 347 92 29 40
426 517 351 134 22 48
431 514 347 61 28 35
271 773 322 85 66 55
481 587 297 129 86 87
431 519 348 37 27 32
426 522 342 101 26 42
426 525 339 140 29 52
430 525 339 140 26 50
431 527 337 101 24 40
431 522 346 37 28 30
457 522 274 84 6 27
421 532 326 60 25 31
421 530 329 58 26 30
425 535 324 109 23 40
431 533 327 70 24 34
426 529 332 69 26 31
274 830 245 184 128 104
424 530 329 54 24 22
440 520 322 63 24 28
436 517 332 53 31 28
441 518 332 65 30 32
441 517 337 70 31 33
442 521 321 69 21 29
456 568 271 125 87 51
447 521 327 68 22 29
436 515 342 58 29 30
439 515 339 61 31 30
435 515 346 61 29 34
437 517 348 57 32 35
436 519 351 44 30 33
442 516 342 77 32 35
437 526 341 44 27 32
441 524 347 66 29 36
441 521 350 46 28 33
344 786 270 67 54 46
446 518 342 94 30 41
446 519 347 78 29 37
447 527 346 71 26 34
435 530 334 67 24 30
438 531 335 104 15 32
439 535 329 98 23 33
436 539 322 110 24 43
330 933 327 52 44 40
440 540 323 96 24 39
386 819 197 86 66 57
437 541 320 51 26 30
445 535 333 178 21 57
304 956 294 90 87 90
446 544 322 116 20 44
391 838 271 69 56 47
442 536 330 168 22 54
447 537 331 178 21 56
435 514 358 103 23 41
441 518 357 103 29 40
438 516 360 90 17 47
446 519 357 117 33 48
446 514 363 145 27 55
446 517 367 133 24 48
421 558 321 34 28 28
425 560 320 34 28 28
418 561 324 63 21 36
337 778 188 114 78 56
421 563 323 49 25 28
421 568 326 63 26 32
421 573 328 73 24 35
426 568 323 45 26 30
431 568 321 42 27 30
305 912 244 88 80 80
426 573 326 48 29 30
431 573 323 47 26 32
430 574 325 73 31 38
447 546 321 163 20 54
435 569 320 33 28 30
436 573 321 69 24 33
440 574 320 123 18 44
404 587 258 147 94 90
284 876 260 61 52 50
406 588 262 155 102 95
405 594 258 171 117 106
407 593 261 170 116 105
412 578 267 114 64 62
266 884 274 106 67 41
411 583 267 142 92 86
410 593 263 176 119 107
408 584 265 144 93 86
411 588 267 162 109 99
410 590 264 167 113 103
461 525 275 91 1 27
413 588 270 161 110 99
392 864 293 61 52 49
416 593 268 185 127 111
417 592 270 183 126 112
411 598 262 188 128 112
412 601 260 196 130 110
416 601 260 199 131 107
408 576 309 123 10 31
411 577 309 81 7 29
416 577 308 41 26 34
415 580 310 30 30 31
411 582 313 109 21 39
411 583 317 113 25 37
416 584 317 102 23 35
391 838 327 71 58 47
432 578 261 130 95 60
419 583 274 150 100 92
281 788 311 75 59 49
421 583 276 151 104 94
425 579 279 133 90 85
426 583 278 166 116 104
465 559 323 132 21 47
426 578 280 132 89 84
430 578 283 135 94 87
432 582 286 167 122 109
426 588 276 190 132 113
481 579 313 63 28 33
421 599 262 200 130 105
419 601 260 198 129 101
428 595 262 193 127 103
437 578 266 130 92 58
439 578 268 137 95 62
437 583 266 150 101 71
439 582 268 151 102 72
399 834 313 66 51 45
441 583 272 169 112 82
434 587 263 155 103 77
433 590 266 194 130 105
439 586 273 200 131 105
446 578 273 156 103 73
436 583 287 184 129 113
436 588 277 200 131 106
436 586 281 205 136 113
446 583 287 192 133 114
466 538 258 50 36 38
419 580 310 21 34 31
426 581 309 39 29 34
426 583 312 61 29 37
431 580 306 50 20 31
431 584 317 77 32 38
390 836 335 67 55 46
433 578 290 134 96 89
435 578 292 124 90 82
436 578 297 87 50 51
437 582 291 153 109 99
439 579 297 103 62 57
441 582 292 161 110 100
442 581 297 125 63 61
437 581 303 101 23 43
362 824 182 108 80 57
434 580 305 76 12 20
436 584 312 53 26 35
441 583 307 86 41 43
436 583 317 51 32 34
446 578 318 143 17 48
446 582 316 53 30 32
396 833 232 106 92 87
386 578 322 82 29 41
386 584 326 115 18 38
391 581 324 45 30 41
286 937 351 93 89 90
386 587 328 148 23 44
386 587 337 90 28 39
390 586 329 130 29 42
391 587 332 101 27 44
390 586 336 113 33 48
291 873 356 91 77 65
395 579 320 49 29 36
464 816 227 92 71 53
396 582 323 57 30 32
396 585 327 75 33 42
436 824 277 80 63 49
399 580 320 64 25 20
396 583 336 128 25 47
391 583 338 100 29 42
505 588 282 71 27 32
386 578 338 124 18 43
262 884 355 154 123 101
505 583 277 188 133 117
262 778 228 76 61 54
401 578 336 40 28 30
407 578 334 44 30 32
406 583 332 90 30 38
407 586 325 109 37 32
331 861 358 41 37 36
400 586 330 150 27 64
416 583 327 107 33 45
411 578 332 110 27 42
411 582 331 151 27 56
416 578 330 103 26 42
416 585 322 89 32 41
421 582 326 88 29 40
421 584 322 78 31 38
419 578 330 63 28 31
426 578 327 117 25 45
425 581 326 172 27 61
430 578 325 127 26 47
432 578 324 152 21 55
436 582 321 96 30 44
390 843 247 55 44 41
440 581 320 36 29 30
452 516 260 77 20 25
455 520 258 86 16 27
456 517 261 78 20 25
458 515 270 93 9 31
461 518 273 92 11 33
460 520 259 75 24 22
462 522 260 77 15 27
344 886 248 91 77 73
449 515 275 80 25 31
451 518 277 73 13 30
448 516 278 76 31 32
449 520 286 84 61 48
455 524 282 84 58 44
457 527 282 86 54 40
458 526 278 84 26 32
385 783 236 150 112 84
461 527 277 89 6 28
452 541 267 89 24 31
451 542 272 147 15 38
456 544 272 129 15 38
461 540 261 96 34 40
395 792 192 74 56 46
451 544 277 146 9 37
282 820 294 149 114 94
461 533 287 70 51 38
463 537 289 69 40 32
469 515 270 120 7 32
472 518 267 132 12 42
471 519 272 119 6 36
477 514 266 137 12 43
481 519 266 135 15 41
313 826 294 112 91 72
472 522 273 113 2 34
476 523 272 129 11 41
481 524 271 133 20 43
478 528 267 113 16 37
481 528 266 99 18 32
482 528 272 138 15 43
337 860 342 35 33 35
466 528 276 94 1 32
471 524 275 105 0 33
474 525 275 113 0 36
470 538 259 101 38 43
471 545 266 37 36 39
478 532 266 97 15 30
478 531 273 131 14 43
481 543 264 85 25 30
478 536 265 84 14 27
481 537 265 85 9 29
471 533 278 93 0 29
464 535 286 83 40 37
472 538 278 87 2 27
467 538 283 81 34 29
501 578 292 102 63 55
467 544 284 87 10 30
279 859 260 170 125 95
351 868 228 77 66 63
481 534 276 139 10 45
473 541 279 80 3 27
346 844 202 98 75 63
479 544 280 103 2 33
451 523 292 80 61 43
450 524 297 73 53 40
449 525 307 80 45 40
449 525 312 90 46 46
452 526 317 89 35 42
458 531 289 67 54 39
460 534 292 65 50 34
457 532 297 66 49 35
459 535 302 68 42 32
462 538 292 69 39 31
405 831 297 71 53 46
462 543 292 76 19 27
463 542 301 71 26 28
455 529 312 94 45 47
460 534 308 75 32 32
462 538 307 73 30 30
463 541 306 73 25 28
463 536 315 93 22 36
464 535 318 100 30 40
470 544 313 80 24 32
460 545 272 81 28 38
461 553 272 91 58 36
460 558 270 136 96 68
401 777 151 115 84 59
451 558 273 127 87 57
452 547 279 104 20 34
456 548 278 92 22 32
397 806 201 94 71 53
451 554 278 102 54 33
456 552 277 96 52 34
378 835 230 70 62 59
451 548 280 68 26 31
457 554 273 98 59 39
456 553 288 67 23 22
460 548 276 87 24 32
459 551 275 86 44 36
457 550 288 70 23 24
463 548 284 77 13 29
385 857 256 108 97 95
461 558 287 63 22 24
456 563 271 136 95 64
460 563 270 131 90 59
461 568 270 131 91 57
463 566 269 132 96 63
451 563 273 136 95 64
451 573 272 151 102 67
466 548 272 78 31 34
465 552 271 80 54 39
471 548 268 46 37 36
471 553 266 106 79 54
466 554 268 100 71 43
481 548 262 111 80 58
481 553 263 174 121 102
476 558 265 153 110 86
481 555 265 173 115 99
481 558 266 127 89 70
466 558 287 67 23 22
476 548 283 82 15 26
481 552 282 110 6 32
476 558 287 85 4 30
358 865 348 63 56 51
481 558 287 105 1 32
466 568 269 136 93 62
471 573 268 146 97 70
401 772 156 103 77 55
476 563 266 132 93 65
476 568 266 147 101 76
481 563 267 126 93 63
360 861 229 75 63 61
271 778 222 77 61 54
384 863 263 82 69 69
481 568 266 160 112 88
476 562 288 76 15 28
460 547 292 71 19 25
458 553 295 64 23 24
463 547 300 64 28 26
351 808 168 66 55 50
457 558 292 64 25 23
458 556 295 62 23 23
451 554 312 149 18 47
459 560 312 104 16 41
453 556 310 146 18 40
456 558 312 79 15 32
454 555 313 145 18 42
456 563 306 99 5 32
456 568 307 113 5 35
332 794 188 56 48 47
457 572 309 128 12 41
450 574 315 152 12 49
461 573 308 112 6 35
465 554 299 63 24 26
471 548 308 77 36 35
469 550 304 71 32 33
475 549 313 93 52 46
356 873 242 72 62 61
474 550 309 92 55 48
477 547 317 95 48 43
480 549 318 106 59 50
481 553 312 116 79 66
482 552 316 114 73 56
477 557 306 94 61 52
481 558 307 108 72 63
395 848 297 57 49 47
476 564 292 63 23 24
320 918 351 51 47 46
481 562 289 94 4 29
481 567 293 62 18 24
477 562 301 68 35 32
480 564 298 66 27 30
481 562 302 80 45 42
466 568 312 109 16 38
339 892 347 60 52 48
401 788 177 85 69 60
464 565 314 140 20 45
468 571 311 78 16 31
469 570 314 100 25 40
476 573 317 107 28 45
474 575 314 143 38 57
484 516 259 118 16 35
484 518 265 132 13 42
486 524 266 97 19 36
485 528 267 120 18 42
486 533 272 139 16 46
486 541 265 83 14 32
490 533 264 155 22 40
489 534 270 131 14 41
415 812 198 104 82 66
497 542 265 104 75 54
484 538 275 145 9 49
337 773 188 141 96 67
491 544 276 128 16 43
496 543 273 95 30 38
265 773 225 78 61 55
500 543 267 158 127 108
486 558 267 83 51 40
491 548 262 184 133 116
490 552 263 156 89 86
491 553 267 75 26 34
357 843 217 78 65 59
497 548 272 138 34 49
491 558 267 87 61 45
496 558 267 105 82 56
482 548 279 131 11 39
494 545 275 108 12 33
486 548 327 101 14 26
491 553 282 113 6 35
489 556 284 119 7 40
496 558 287 128 78 75
491 563 266 143 103 76
491 568 266 167 109 91
496 568 266 160 105 89
491 573 268 145 101 76
499 546 268 194 129 119
500 555 273 52 44 34
500 554 277 76 46 40
397 823 232 93 78 64
498 556 284 110 78 62
504 559 274 143 112 86
504 559 280 148 109 88
501 563 267 169 124 104
315 773 296 69 52 45
501 568 267 145 99 80
503 566 270 132 91 72
283 896 234 92 80 80
505 568 272 128 99 74
504 569 269 128 96 66
503 562 283 139 95 85
504 563 277 154 108 93
504 564 281 131 93 75
387 790 161 79 60 48
504 565 286 117 93 68
505 568 286 145 104 86
507 573 282 169 114 103
271 873 272 148 119 92
482 556 310 123 86 73
488 556 315 118 37 40
490 559 313 121 46 53
491 562 289 124 12 39
491 564 291 110 14 35
497 567 294 111 40 47
493 571 297 75 21 28
353 884 324 59 53 49
495 569 303 88 22 32
486 570 319 141 33 53
492 566 305 87 24 28
496 564 312 87 20 27
493 561 315 101 22 21
496 575 314 65 27 29
500 573 292 112 67 67
499 575 298 82 12 24
501 574 302 82 19 27
498 566 311 81 27 24
500 564 318 76 23 24
501 568 317 97 25 36
502 572 307 82 23 28
502 573 313 103 25 40
504 575 304 81 14 22
504 574 307 77 21 25
504 573 312 71 22 31
451 524 322 79 17 30
453 526 321 83 21 33
456 528 322 91 38 43
457 527 327 84 35 38
416 854 257 80 69 62
456 524 337 73 25 30
458 526 335 72 28 31
461 527 337 70 26 30
456 523 342 80 26 32
451 523 347 99 28 39
309 853 211 66 59 59
321 874 212 90 77 74
451 523 352 107 30 45
452 527 352 132 28 50
456 524 347 98 27 37
456 524 352 114 28 45
462 526 342 73 25 30
346 835 276 31 28 27
459 525 346 87 28 36
461 527 347 94 28 36
371 808 237 103 75 60
457 527 349 89 30 37
461 527 352 79 28 33
469 803 247 93 70 56
450 534 338 179 18 58
451 543 327 144 18 48
451 539 332 178 21 58
460 530 323 104 59 57
453 531 346 33 29 31
446 798 242 119 91 55
459 540 339 179 20 60
462 542 341 181 16 58
458 536 345 81 22 33
288 875 242 48 45 47
461 537 346 102 21 42
466 529 337 76 34 34
340 806 175 64 53 49
466 528 342 76 31 29
466 528 347 78 27 30
265 838 291 111 75 59
470 535 328 97 29 36
310 956 303 90 86 90
465 530 333 83 44 42
471 534 332 93 42 37
287 803 223 82 65 57
474 535 333 89 34 33
476 543 322 87 30 32
290 825 230 179 129 101
477 541 326 86 28 26
329 830 185 76 61 55
481 543 327 93 28 29
477 536 336 78 28 28
472 531 342 75 28 29
464 535 349 85 18 31
291 873 232 59 55 58
471 544 343 206 11 66
476 533 342 74 24 30
479 535 342 54 24 24
473 531 347 64 19 25
481 537 342 63 14 26
476 541 345 194 20 63
481 538 346 138 16 49
481 541 345 199 21 68
451 518 362 155 26 56
451 518 367 164 24 58
456 518 362 179 24 63
455 518 365 196 23 65
453 526 356 85 14 26
326 874 216 79 70 69
451 522 362 164 24 59
456 523 362 159 27 57
459 520 359 134 27 52
461 523 361 132 31 52
449 514 370 192 19 68
465 525 354 77 23 31
465 525 357 70 30 33
466 528 356 136 28 52
466 531 355 184 27 64
453 547 325 141 27 53
316 798 203 78 60 54
456 548 327 87 23 38
460 549 328 111 30 47
463 546 335 97 18 35
458 556 320 168 21 52
461 557 321 121 19 43
287 818 229 57 49 51
466 548 337 164 19 56
465 549 333 72 30 35
468 551 335 160 27 59
467 557 326 115 21 41
468 556 330 99 13 33
481 547 322 93 36 33
476 560 329 137 29 53
481 560 329 157 32 57
471 549 338 201 12 65
468 546 340 197 13 63
476 549 338 201 14 65
481 549 338 193 20 63
467 563 321 124 20 44
468 561 325 142 22 52
476 562 326 105 26 42
351 818 169 86 68 58
481 562 326 124 30 49
483 541 335 80 27 32
485 543 341 128 15 42
487 552 321 103 10 29
486 557 331 85 32 42
461 808 242 109 90 76
489 550 328 82 24 26
493 556 321 105 9 24
486 568 321 132 28 50
450 818 212 93 83 74
486 564 324 105 33 45
491 565 324 165 25 58
491 568 321 157 27 56
495 562 326 125 32 51
497 563 323 120 27 43
496 567 322 179 26 61
499 564 322 129 23 44
271 833 248 185 127 103
451 577 274 175 116 85
456 577 273 171 113 79
451 583 282 201 137 116
456 584 282 209 147 129
460 580 275 180 115 87
462 581 274 183 120 95
461 585 282 204 141 121
463 586 287 188 131 110
295 773 206 76 61 53
311 873 197 104 85 72
466 578 271 154 101 73
265 913 369 44 42 42
471 583 272 173 114 90
476 578 269 166 110 86
481 583 270 147 97 69
466 582 273 182 122 98
470 585 276 182 115 97
471 587 277 196 130 112
464 585 280 200 134 115
466 587 287 192 135 117
471 588 282 213 153 136
471 588 287 187 132 115
473 586 274 167 98 82
476 588 277 203 132 124
481 587 273 199 128 116
481 589 277 213 142 131
476 589 282 216 154 142
398 826 193 87 69 59
451 583 302 98 49 53
456 584 302 131 85 82
456 582 312 149 27 52
356 778 167 63 52 46
451 578 316 162 15 51
451 581 316 145 25 53
453 576 314 154 11 45
406 827 332 79 63 49
456 584 307 89 41 48
461 578 311 142 17 45
461 584 307 82 29 42
309 845 326 129 102 73
463 576 309 123 12 41
276 849 341 127 100 78
464 585 292 191 134 118
471 587 292 189 139 119
390 798 187 78 60 48
412 834 252 79 63 52
471 585 303 141 36 59
476 587 292 188 133 117
469 802 250 100 76 61
476 586 297 157 116 109
476 586 301 47 30 36
466 577 309 91 13 34
465 579 310 137 16 43
465 581 310 157 25 58
466 583 307 126 29 50
471 578 309 53 24 29
471 583 307 106 26 43
475 580 309 81 26 33
501 588 303 135 28 51
478 581 310 100 23 41
481 581 310 81 28 36
486 577 269 173 117 95
491 577 269 171 117 96
496 578 269 136 94 72
494 579 270 108 69 48
494 585 270 174 115 96
496 588 272 211 133 126
486 589 287 159 96 89
496 590 276 190 62 63
493 591 279 189 40 66
496 593 282 173 24 50
496 594 287 137 57 66
501 578 269 137 96 76
503 578 270 132 91 71
503 583 270 170 118 98
504 583 273 167 119 102
502 578 288 149 120 107
286 895 270 72 61 59
500 591 279 181 42 51
416 802 167 84 67 56
503 590 280 101 13 38
353 860 225 76 63 60
506 578 277 140 97 75
506 578 282 135 88 72
505 583 287 115 61 61
504 586 274 217 148 135
505 592 283 121 21 42
501 595 287 206 18 58
486 589 297 142 83 84
486 589 302 170 21 59
490 590 291 169 106 99
491 592 292 156 85 87
488 591 294 154 87 90
491 592 297 172 28 63
491 591 301 124 16 46
496 589 303 80 26 36
486 582 310 140 31 53
486 578 313 126 30 49
483 586 305 179 28 63
327 868 206 98 82 74
486 587 306 195 19 64
491 578 312 146 28 54
491 583 308 136 21 48
376 828 226 72 61 53
496 578 312 130 27 50
489 576 315 153 46 66
503 581 292 93 46 44
300 961 320 56 51 50
509 584 302 87 27 36
361 864 237 78 66 63
509 591 293 123 29 43
311 869 366 37 35 34
509 591 296 123 33 49
506 593 297 138 27 50
501 578 312 131 31 51
501 583 307 86 27 37
501 586 305 126 31 51
501 595 293 180 19 61
498 596 289 189 18 55
391 853 257 82 69 62
500 596 291 201 18 65
386 513 407 196 18 60
270 773 221 75 60 53
278 773 214 76 61 54
441 818 241 101 77 60
276 773 216 77 61 55
281 773 213 76 60 54
276 778 218 76 60 54
282 778 214 76 61 55
274 779 221 77 60 55
276 842 333 162 145 136
272 783 223 78 61 56
277 782 218 76 61 54
266 883 357 149 119 97
281 783 217 77 61 54
286 778 213 76 62 55
361 833 243 33 29 27
287 783 213 78 62 55
285 784 216 77 62 54
419 821 261 64 52 42
276 787 223 77 62 55
278 792 224 78 62 55
281 793 222 79 63 56
283 787 219 78 62 56
372 829 302 35 32 31
287 792 218 79 63 57
285 794 221 80 63 57
259 773 231 76 61 53
262 773 228 77 61 55
262 782 229 76 61 55
257 778 233 75 59 52
439 816 239 115 89 63
257 782 234 75 60 53
266 778 226 77 61 55
268 776 224 76 60 53
269 779 225 77 61 56
258 786 234 75 59 52
259 788 235 76 60 54
264 785 230 75 60 54
366 798 152 102 76 58
265 788 230 74 61 53
271 798 231 79 63 56
265 798 236 78 62 55
276 793 226 78 62 55
277 798 228 79 63 56
288 808 224 82 65 57
396 812 307 44 37 30
266 803 237 81 64 57
266 808 238 81 64 57
268 801 234 78 63 55
271 803 233 80 63 56
270 804 236 79 62 56
261 808 241 81 64 56
261 813 243 82 64 57
258 811 244 81 64 56
259 814 245 83 64 57
265 813 240 80 63 56
261 823 247 123 94 81
262 818 244 66 53 54
263 821 244 65 54 55
262 827 249 188 130 106
266 822 243 164 124 100
266 824 246 188 132 106
461 818 228 87 67 49
325 813 272 110 88 71
266 828 248 187 129 104
268 831 249 186 129 104
404 841 261 80 64 51
303 925 260 82 75 77
276 803 231 80 63 56
347 809 258 37 33 31
280 808 230 80 63 56
274 810 235 79 62 54
275 813 235 73 57 55
277 813 234 77 61 55
286 808 227 81 64 56
278 818 234 65 56 56
278 826 239 185 134 104
285 818 230 61 53 55
286 823 232 178 131 103
288 821 229 132 106 91
283 831 239 184 132 105
388 773 157 85 62 44
284 825 235 181 133 104
287 827 233 178 128 102
391 802 178 87 68 58
287 832 238 179 130 103
276 833 246 184 127 103
296 783 207 81 64 56
300 784 206 82 64 56
290 778 211 78 62 54
301 788 207 83 66 56
357 809 248 40 34 33
292 792 213 81 63 56
291 798 218 82 64 56
293 796 214 83 65 56
441 798 266 66 52 38
297 792 209 83 64 56
299 795 210 83 65 56
301 798 211 83 65 56
307 778 199 77 61 53
308 782 199 76 61 53
311 783 198 78 61 53
305 778 200 76 61 53
310 784 200 78 61 53
316 778 196 77 61 53
320 779 195 76 60 52
346 813 171 71 58 52
307 787 204 82 64 56
306 793 206 84 65 57
309 790 205 84 65 57
311 798 206 81 62 54
313 786 199 78 61 54
322 793 199 74 58 53
315 789 200 79 61 54
285 913 246 91 80 80
316 793 202 79 61 54
261 933 282 75 69 70
313 796 204 80 62 53
334 926 284 85 75 75
314 799 205 78 60 53
321 798 201 74 59 54
296 803 217 82 64 57
292 813 223 82 65 58
298 801 214 83 65 57
301 803 213 83 65 56
299 804 215 84 65 57
298 812 219 83 65 58
300 815 220 85 67 60
315 803 205 76 59 52
302 910 369 54 50 49
317 803 204 75 58 53
321 803 201 66 54 51
317 813 208 67 56 53
319 810 205 60 50 50
321 813 202 55 50 50
306 808 212 82 65 56
306 811 214 85 67 58
312 812 213 83 66 57
315 813 212 79 64 57
314 815 215 84 66 60
381 813 182 100 76 58
320 823 197 61 55 54
319 822 201 58 53 52
320 828 192 64 58 57
321 833 192 73 62 60
317 833 197 68 61 61
315 833 207 57 54 54
308 816 219 86 68 59
306 823 222 66 54 53
311 818 218 83 65 58
310 824 221 69 57 55
311 828 222 60 51 52
316 818 212 68 56 54
315 827 216 54 50 52
313 834 213 56 53 53
290 814 225 81 64 59
291 818 226 62 51 51
291 823 228 135 104 89
294 819 225 63 50 51
435 818 240 104 81 66
326 859 202 96 78 66
296 823 226 110 87 77
296 829 231 173 121 96
289 830 235 174 127 98
291 833 237 173 123 99
292 831 234 172 123 97
298 821 224 54 43 48
300 824 225 80 68 64
306 828 226 153 114 91
307 831 229 148 103 80
306 833 232 144 99 79
266 838 257 183 124 97
271 842 257 185 126 98
279 835 245 185 128 103
276 837 248 184 128 103
277 843 252 183 125 100
275 844 256 185 127 100
278 846 254 183 128 102
281 848 252 180 127 101
331 913 267 82 73 72
282 837 244 185 130 104
285 834 241 183 130 105
286 838 242 183 129 104
286 843 246 180 126 101
285 849 250 174 124 100
284 855 255 164 122 93
287 857 254 143 106 82
288 883 223 86 75 72
287 879 227 61 57 58
313 836 299 92 76 62
282 879 252 51 48 50
287 874 252 48 44 49
285 876 257 52 48 49
280 888 237 66 61 62
280 893 237 78 71 71
286 883 227 74 68 67
286 888 227 89 78 75
284 881 236 54 52 53
285 895 237 90 81 80
279 888 242 60 56 57
280 883 247 50 46 49
280 882 252 51 47 49
278 884 253 50 46 48
276 888 252 49 46 48
276 893 247 58 54 55
273 894 257 52 48 51
281 883 242 51 49 50
301 903 373 62 58 57
417 804 197 95 74 59
287 915 369 65 60 58
284 895 240 78 69 69
285 895 254 72 62 62
303 859 223 55 52 54
303 860 219 60 57 58
312 843 207 62 57 58
319 835 195 73 62 62
317 838 197 68 59 59
321 838 193 73 60 57
319 839 195 70 58 57
313 835 208 60 57 57
315 838 202 65 59 59
313 838 207 60 56 56
319 848 195 77 64 60
313 844 203 68 61 60
315 843 201 69 61 61
312 848 202 73 64 62
310 843 212 57 54 54
309 848 211 64 58 58
308 845 217 55 51 51
308 848 213 61 56 57
307 848 222 55 51 51
308 864 203 86 75 68
312 858 202 81 69 68
308 859 208 68 60 62
310 863 201 82 70 64
314 853 200 79 68 66
315 862 196 96 78 64
313 860 199 73 61 54
321 858 196 91 72 62
350 807 256 44 37 34
319 862 194 94 73 61
321 863 197 100 80 65
314 858 200 75 64 60
307 858 212 64 57 59
305 858 217 60 56 56
305 863 212 67 60 61
304 857 222 55 52 53
291 837 239 171 122 97
300 835 235 163 113 89
303 848 238 60 48 49
375 837 227 70 60 63
291 839 241 173 125 99
413 820 269 57 47 37
290 844 245 172 122 98
296 843 242 147 105 85
299 840 240 143 103 82
301 843 241 109 76 63
300 863 227 53 51 52
410 838 325 88 68 51
300 862 232 51 48 49
302 859 232 51 48 49
311 888 371 57 54 55
302 859 237 51 48 50
296 853 247 90 68 60
288 851 249 158 114 92
296 863 247 55 49 50
296 868 352 85 68 55
290 863 255 110 82 66
294 863 251 69 55 52
299 855 245 57 47 48
301 858 242 51 47 50
299 858 245 54 47 49
310 834 231 92 64 56
311 838 232 68 56 52
307 837 234 100 69 60
311 843 232 53 49 50
307 848 232 50 47 50
308 844 234 55 50 51
316 838 232 53 49 48
408 775 169 84 67 56
314 841 229 51 47 47
314 841 232 50 47 46
305 853 236 50 46 49
299 877 205 106 86 74
297 873 212 80 69 63
293 878 213 96 81 72
299 871 211 78 65 61
300 867 217 64 59 61
298 869 218 60 54 56
297 868 222 60 55 56
355 788 166 55 47 44
299 866 221 60 56 58
302 881 203 95 78 71
301 883 207 89 76 70
293 881 214 90 75 68
296 884 216 82 73 70
308 870 365 37 35 33
288 880 223 70 63 63
295 889 222 87 75 71
338 789 183 65 53 48
301 884 212 87 75 72
299 885 215 81 70 66
305 867 206 86 74 67
311 877 198 114 94 83
311 879 202 106 87 78
316 874 196 103 85 74
321 868 196 104 85 72
315 876 198 111 93 82
348 855 215 69 61 59
316 877 202 102 84 76
316 878 212 92 79 76
318 875 212 92 77 75
321 878 218 84 72 70
306 881 203 98 80 73
306 884 207 92 78 73
310 881 204 102 86 78
311 883 207 95 80 74
313 880 205 97 82 76
314 881 208 95 81 75
309 886 213 93 80 77
310 886 217 85 75 71
312 884 217 86 76 73
314 881 212 93 81 77
313 885 221 77 69 68
321 883 221 78 69 68
294 872 226 59 54 56
293 870 232 55 51 53
296 868 232 54 51 52
292 869 237 53 50 51
401 843 239 89 61 92
292 874 227 61 55 56
290 877 227 62 57 59
290 872 242 49 46 47
290 872 247 47 44 46
294 866 247 49 46 49
291 889 225 86 75 73
291 893 227 86 74 72
290 895 230 82 71 70
296 895 230 83 74 73
301 894 227 85 75 74
311 889 227 81 72 71
308 889 225 86 77 75
306 893 227 84 76 74
310 892 228 82 74 72
308 895 235 82 74 74
317 885 226 79 71 69
313 890 230 78 69 69
316 892 233 78 70 68
321 892 233 74 66 65
326 773 192 55 49 49
334 770 190 149 102 69
334 773 190 146 100 68
350 888 331 52 46 45
335 778 190 132 91 63
337 783 188 85 63 49
330 793 192 59 50 48
335 792 186 61 51 48
337 798 178 67 56 51
263 834 316 158 109 93
335 797 181 62 53 51
329 798 191 52 47 47
334 796 185 59 50 52
352 773 173 61 50 46
438 795 260 48 40 32
346 783 177 60 49 43
349 777 175 62 50 42
340 773 186 104 73 53
342 778 182 70 55 47
341 783 182 65 52 46
340 778 186 93 65 49
344 773 181 66 53 47
343 794 174 62 51 45
269 852 275 180 132 102
346 793 172 62 52 46
349 791 170 58 51 46
352 789 168 54 46 44
347 798 168 71 56 47
348 794 168 72 58 48
350 799 166 69 54 47
376 839 267 56 48 41
340 788 182 64 52 48
339 792 181 65 54 49
338 795 179 61 52 49
327 803 192 52 48 49
328 804 188 57 51 50
335 912 272 79 69 70
325 808 192 56 51 51
328 813 183 64 54 51
323 814 193 58 52 51
326 813 187 61 54 51
324 812 191 58 52 51
336 803 178 61 50 47
334 801 180 70 59 53
329 802 186 58 51 49
328 798 193 52 47 47
328 808 184 62 54 50
332 813 178 63 53 48
327 818 183 73 60 56
327 823 183 74 61 56
323 818 189 64 57 55
322 818 192 63 57 55
321 823 192 66 59 58
323 824 188 70 61 60
326 828 186 69 57 53
326 833 188 78 63 57
286 798 305 46 39 37
332 823 178 78 64 55
330 823 181 76 62 55
332 831 183 85 69 58
361 825 240 30 27 26
338 809 174 65 55 51
341 803 176 60 50 46
343 804 174 64 53 47
338 811 174 69 57 54
341 813 174 72 60 54
346 803 172 64 52 46
346 808 171 63 54 49
413 846 274 72 60 54
348 801 169 66 55 49
351 813 168 74 59 52
339 821 175 78 62 53
337 827 174 82 66 55
341 830 176 82 64 53
347 818 169 82 64 55
387 773 232 153 113 83
346 823 171 81 65 54
352 820 170 77 60 51
351 822 172 80 64 55
347 831 164 93 77 63
349 831 164 91 73 59
349 830 168 95 77 64
338 925 319 65 58 56
349 829 170 89 72 61
291 943 343 70 67 69
337 831 179 85 68 55
351 829 182 97 75 58
366 788 152 83 64 52
363 790 154 79 63 53
367 796 149 110 82 58
373 774 154 73 56 47
370 783 155 82 62 50
372 784 153 84 62 50
381 773 151 84 61 46
399 848 291 65 57 53
381 783 151 88 64 50
381 789 144 105 79 55
370 787 151 87 65 53
374 786 150 92 69 53
376 794 146 96 73 56
369 786 155 79 58 53
371 798 152 74 57 49
375 796 148 90 69 55
378 795 152 78 63 54
378 795 155 79 66 55
381 793 157 86 71 60
379 796 158 84 66 55
357 773 168 51 44 42
361 778 163 65 52 46
361 783 163 59 49 45
353 778 169 57 48 45
354 782 170 71 57 51
363 770 164 47 41 40
401 849 240 224 222 229
306 868 357 37 34 34
365 778 161 60 48 42
364 782 160 63 51 47
356 793 162 67 55 47
411 798 173 87 68 59
357 789 163 60 50 43
360 787 161 64 52 46
353 785 169 60 49 46
355 798 161 77 60 50
378 799 161 87 67 54
382 794 161 88 67 55
375 802 159 89 71 58
356 803 162 80 63 53
356 808 166 75 60 53
357 807 164 75 59 51
356 813 167 84 65 56
362 814 171 81 63 53
366 807 163 83 65 55
367 813 176 86 64 53
356 818 172 79 61 51
360 817 173 81 64 53
362 819 176 88 67 54
366 818 178 96 72 55
359 827 179 112 85 63
356 832 187 111 85 65
360 832 193 124 94 70
365 821 179 107 79 57
366 822 182 107 79 57
363 825 185 102 77 58
367 825 192 109 83 59
376 807 172 87 67 55
371 809 167 85 63 51
426 842 231 102 87 77
372 811 164 85 64 52
373 811 166 89 67 54
371 820 235 37 32 28
374 811 166 90 70 57
371 813 178 90 67 52
376 809 176 83 63 50
378 805 165 83 64 55
350 836 181 120 93 69
381 803 167 83 64 52
379 806 173 80 61 50
381 808 177 81 60 48
382 805 175 80 57 47
372 815 180 104 78 59
382 810 180 87 65 51
375 817 183 108 80 58
447 828 252 91 71 59
373 820 185 96 71 56
375 821 188 89 67 55
376 833 346 80 63 52
381 819 192 89 66 55
322 777 194 75 59 50
290 803 301 138 96 76
326 783 195 71 57 50
326 788 196 71 57 51
323 797 199 69 56 51
329 788 195 57 50 48
323 809 198 54 50 50
324 807 196 54 50 50
322 813 197 56 51 50
352 814 247 31 28 27
329 942 307 59 53 52
348 814 252 30 27 27
346 813 257 32 29 28
350 813 252 33 29 28
406 841 240 221 218 216
348 815 248 28 26 26
352 824 238 28 26 26
416 835 249 83 67 54
350 823 247 26 25 26
348 822 253 28 27 27
376 822 197 89 67 55
349 817 252 29 26 27
353 880 334 57 50 47
349 824 251 27 25 27
351 828 247 26 24 26
368 774 254 37 34 37
361 778 257 72 56 48
367 778 253 47 40 39
366 783 253 55 46 43
360 788 256 68 54 47
361 793 253 54 45 41
357 799 254 56 44 40
366 788 251 70 57 51
365 793 251 61 51 47
372 773 248 158 114 88
370 773 252 126 93 75
374 778 245 158 118 88
369 783 251 145 111 90
380 773 241 155 116 86
371 788 247 151 116 91
431 808 247 95 73 54
373 786 244 155 118 90
376 793 243 148 112 89
369 788 250 149 115 91
373 795 244 146 113 89
376 798 242 135 102 81
365 827 197 106 82 68
363 830 202 88 72 66
361 833 202 89 75 68
360 832 207 87 73 67
364 827 207 85 71 64
291 883 367 39 34 32
362 829 212 80 66 58
364 826 212 84 65 57
367 828 221 77 62 54
371 823 197 88 66 53
379 821 194 87 64 53
381 821 197 89 68 57
381 823 201 83 63 56
379 825 207 78 59 49
382 827 203 80 63 55
382 826 207 80 64 55
376 823 212 78 61 50
376 824 217 78 62 52
371 827 223 80 63 56
372 829 307 34 31 30
380 825 212 83 68 57
382 826 217 76 63 54
367 809 238 100 74 59
356 803 252 52 43 38
361 804 248 38 34 33
358 805 249 47 39 34
360 811 245 30 29 29
366 808 242 95 72 58
365 807 245 64 51 43
356 819 238 31 28 27
356 823 236 30 27 26
347 913 292 54 48 45
259 806 320 97 81 66
361 823 237 30 27 27
359 826 238 29 26 25
291 908 363 54 51 51
366 823 238 35 30 29
356 829 241 28 26 26
366 828 241 41 35 32
375 807 236 105 75 59
291 955 329 74 70 71
373 815 229 50 38 35
326 883 222 80 73 72
370 811 235 94 69 56
300 845 335 130 103 73
372 810 234 95 69 53
380 807 231 94 66 53
371 803 242 118 87 68
369 801 245 125 95 75
371 818 232 37 30 27
376 818 232 56 46 39
371 823 238 49 41 35
371 829 226 74 63 55
369 832 224 77 65 58
371 833 226 73 63 58
380 816 229 50 41 37
371 825 240 51 44 38
391 830 226 90 75 66
371 828 241 49 43 38
327 836 189 85 67 58
331 838 190 96 75 63
336 838 188 97 77 63
334 839 190 99 78 64
326 843 193 93 73 63
331 843 192 100 78 67
341 835 185 95 74 60
340 841 189 106 82 67
346 839 192 122 93 68
350 836 188 114 88 66
352 834 179 106 81 64
322 848 194 86 68 62
326 848 194 102 81 69
330 846 194 102 80 67
331 849 196 96 76 65
335 847 198 98 77 65
326 853 196 94 75 65
323 864 200 100 82 70
325 863 202 100 83 73
330 852 198 92 74 63
328 855 200 88 71 59
332 854 201 94 75 62
331 857 203 101 81 65
332 859 206 105 83 68
328 860 205 106 86 71
336 863 208 88 72 65
341 844 197 110 84 65
339 846 199 105 81 66
342 849 205 99 77 62
351 839 197 105 80 64
346 849 206 83 68 60
351 843 203 87 70 62
350 848 207 78 64 58
340 857 209 83 69 62
341 862 213 74 62 60
346 854 212 75 63 60
350 852 213 76 63 57
336 843 287 33 30 30
352 854 221 78 64 59
345 857 213 73 62 61
350 857 218 73 63 60
346 863 222 73 63 61
396 783 182 73 55 47
324 871 199 99 81 70
325 876 218 79 69 67
326 878 221 78 69 69
335 867 213 77 65 62
332 874 221 74 65 64
336 873 223 71 61 62
328 875 220 79 69 69
357 869 237 74 63 62
330 878 223 77 68 67
325 886 223 79 70 69
338 865 215 75 63 60
340 866 218 69 59 57
345 867 223 71 61 60
335 876 224 72 61 62
291 808 297 144 97 75
336 878 227 73 63 63
326 887 227 76 67 66
327 889 237 75 65 65
329 886 228 77 67 66
331 887 232 76 67 66
333 884 231 74 65 64
337 879 231 76 66 65
337 884 236 81 70 69
328 895 245 70 63 64
338 875 225 74 64 66
302 774 304 68 53 44
340 876 228 75 65 63
341 878 232 83 71 69
343 875 230 83 72 69
345 872 229 81 69 66
277 854 346 119 90 71
352 874 236 81 68 66
350 876 238 84 71 68
408 806 189 92 70 57
411 818 272 54 44 34
339 881 234 82 70 68
426 839 278 69 53 41
339 891 249 84 72 70
340 892 252 88 75 72
345 882 243 89 75 70
349 881 248 81 69 68
345 888 252 80 68 66
348 885 252 81 69 68
350 882 252 81 69 67
348 885 256 79 68 67
355 836 193 118 88 67
357 835 197 102 80 68
358 834 207 88 74 67
354 842 208 78 65 60
359 836 214 78 63 54
358 839 216 79 65 59
354 846 213 79 65 61
355 848 217 78 65 61
358 845 220 78 66 61
362 838 221 78 64 59
365 838 223 78 65 60
354 851 218 77 66 60
355 857 224 76 64 60
367 848 224 76 64 59
364 856 224 75 64 60
369 848 224 74 62 58
368 834 226 76 65 61
354 834 245 27 25 27
356 837 243 28 25 26
353 836 247 27 25 27
356 839 247 28 26 27
353 837 252 27 24 27
357 842 252 29 27 27
361 842 257 30 28 28
366 839 246 38 34 31
366 843 252 36 32 30
366 842 257 39 34 32
357 853 225 78 65 62
356 863 228 74 63 61
357 864 231 73 63 62
361 862 232 75 63 60
365 854 231 75 64 60
365 857 227 74 63 58
365 863 238 75 63 61
401 822 207 85 72 64
363 859 243 70 60 59
366 858 242 74 66 64
375 835 224 82 70 67
374 836 224 69 59 55
376 839 231 67 59 55
371 848 227 72 61 58
374 842 229 61 57 56
373 844 230 67 58 55
381 838 233 73 64 58
383 838 235 71 59 51
378 845 235 64 53 48
380 846 238 71 61 53
376 838 247 50 42 35
375 840 251 53 45 38
370 841 253 43 37 33
371 841 257 47 40 35
377 842 252 70 63 58
376 841 257 51 44 38
381 838 247 66 57 50
381 843 247 110 103 97
380 848 247 193 187 186
378 842 249 89 83 80
381 843 257 64 55 47
380 848 252 139 131 132
372 853 237 65 56 57
369 856 233 71 63 60
391 822 237 75 62 48
294 921 249 96 88 87
406 838 318 124 109 102
375 853 242 71 58 52
377 854 246 78 58 52
370 857 242 71 60 58
392 790 165 86 67 50
370 863 243 78 69 66
372 863 247 82 70 66
373 860 250 87 71 66
375 863 252 92 74 67
381 853 252 188 181 181
266 927 268 79 72 71
381 853 257 148 137 147
380 858 248 95 76 71
377 858 257 108 86 85
377 863 256 94 74 71
344 916 288 63 55 55
307 955 296 89 84 87
358 865 235 68 59 58
361 868 241 75 63 60
357 869 241 72 62 60
356 875 245 70 60 59
356 878 247 68 58 56
360 877 247 72 61 58
361 878 252 67 56 56
364 871 244 70 59 59
363 875 250 68 57 57
361 879 257 67 59 59
356 881 253 69 59 58
356 883 257 72 62 61
357 881 248 72 61 59
369 866 244 79 71 69
368 870 250 74 64 63
374 868 254 88 73 68
375 872 257 86 72 67
372 874 256 75 65 63
271 903 252 67 61 62
449 811 238 94 74 56
270 903 257 63 57 58
266 908 257 66 60 61
268 913 254 82 73 71
265 913 257 77 69 68
278 879 264 81 68 61
272 912 248 87 77 75
270 919 256 86 76 73
281 898 237 91 80 79
281 903 237 92 81 81
278 906 239 90 77 77
281 906 239 91 81 82
321 848 297 57 50 43
287 897 233 85 75 74
286 902 238 86 77 76
277 898 242 72 65 66
276 908 242 89 79 78
274 908 246 84 75 73
276 913 247 88 78 76
277 912 244 89 79 76
428 825 239 83 64 53
281 912 242 91 81 81
284 898 242 79 68 69
284 898 247 76 64 64
285 904 241 86 75 77
285 898 252 73 63 61
285 905 246 81 72 69
287 913 243 93 83 83
281 914 246 90 81 80
274 915 250 87 77 75
276 918 251 88 79 77
271 922 258 85 75 73
427 803 253 55 45 37
276 921 254 89 80 80
397 810 293 43 37 32
281 922 253 94 84 84
291 939 276 93 87 87
281 924 257 92 84 83
286 922 253 98 90 90
291 898 232 85 75 74
291 896 229 80 68 67
296 898 232 86 77 76
291 900 235 88 78 76
291 902 237 86 78 77
296 900 235 88 79 78
293 908 239 92 84 84
296 908 239 93 84 84
301 897 232 86 78 78
301 902 238 87 79 79
299 908 239 94 84 83
401 832 292 67 53 47
291 908 241 92 82 83
291 913 242 94 85 86
296 913 242 95 86 85
302 904 240 83 74 75
291 918 247 96 87 87
296 918 247 94 86 85
291 922 252 97 89 89
298 915 245 94 85 86
305 897 233 82 74 74
306 898 237 81 73 73
305 901 238 83 75 75
312 902 239 79 71 71
316 898 238 76 69 69
308 900 240 80 70 71
306 914 246 89 80 80
311 908 242 83 75 74
317 904 241 79 71 70
315 908 243 80 71 71
402 813 212 97 78 64
386 848 266 73 58 48
291 839 330 142 113 85
317 908 246 80 71 71
320 908 248 81 72 72
307 920 255 81 72 73
306 922 257 81 72 74
314 916 254 81 73 72
316 918 257 78 70 71
321 914 257 80 72 73
324 902 248 75 67 68
275 777 320 86 66 54
326 903 251 76 68 70
323 910 256 81 73 73
326 909 257 75 67 68
330 897 248 73 65 66
332 898 251 78 70 69
328 900 250 75 69 69
335 897 253 82 71 70
391 837 332 62 50 42
294 900 374 61 55 53
333 900 255 80 71 69
329 907 258 76 68 69
388 770 156 81 61 46
392 774 154 104 74 52
277 814 303 68 51 47
386 782 150 88 65 50
396 774 153 110 80 58
401 775 154 112 85 60
386 785 148 95 69 53
385 791 152 86 69 58
410 772 172 85 65 51
390 788 148 100 76 56
389 785 149 89 68 53
391 789 152 92 70 53
271 788 318 72 57 48
389 788 144 112 85 60
388 790 152 92 73 60
385 791 157 92 75 62
396 790 148 102 81 62
401 785 150 86 68 54
401 788 152 93 75 60
399 791 148 98 79 61
399 790 149 96 77 61
440 827 268 100 82 67
400 791 152 94 76 61
396 789 157 86 66 50
402 789 157 86 68 58
406 779 148 92 70 53
411 783 157 83 67 56
404 786 153 85 66 55
405 787 157 79 61 52
397 783 177 82 63 53
400 783 172 78 60 49
401 773 192 57 42 34
397 779 182 72 53 44
386 798 172 84 65 52
388 798 176 89 69 56
396 789 162 90 70 53
424 806 267 41 34 29
396 790 165 94 74 57
396 792 167 89 71 60
401 788 162 86 69 58
427 835 257 82 65 53
402 789 165 89 72 62
397 793 177 85 70 61
396 798 176 89 74 63
401 793 178 87 71 61
391 798 183 81 64 51
465 806 246 96 75 56
388 799 184 86 68 55
396 788 192 69 53 44
396 793 187 79 60 48
397 794 183 82 63 52
396 839 251 62 51 41
396 798 181 84 66 57
393 794 192 77 57 46
403 771 160 94 70 52
405 771 160 93 67 46
407 774 172 78 59 48
423 804 262 41 35 31
403 783 169 80 63 51
411 774 167 85 67 52
409 771 175 87 66 54
413 770 169 83 65 50
410 776 166 86 70 58
408 779 164 83 70 58
410 782 161 79 64 53
402 773 187 61 45 38
404 771 186 59 44 35
405 788 167 86 68 59
405 792 163 87 69 60
406 793 167 88 70 58
405 789 172 92 73 62
407 792 172 95 75 62
404 790 175 95 82 71
406 792 177 87 69 58
402 797 168 87 70 61
405 797 168 93 74 61
410 794 174 91 70 58
411 798 177 87 65 54
395 800 212 70 52 44
406 794 181 86 67 57
297 808 293 148 105 81
397 835 334 62 49 39
406 796 180 88 70 60
411 793 181 79 60 50
411 797 181 83 62 54
414 794 178 83 62 52
414 796 180 82 61 52
384 801 169 81 60 48
388 805 180 83 64 57
396 804 192 93 74 60
394 807 184 89 72 60
400 805 192 87 67 55
416 841 240 121 99 82
391 807 193 92 75 63
448 807 254 76 58 44
395 813 194 99 78 61
412 803 161 93 76 65
415 804 162 88 72 61
406 808 192 90 69 58
411 802 184 84 63 56
412 800 185 83 63 56
411 805 192 95 74 62
410 806 189 96 74 60
422 804 168 83 66 54
421 802 171 81 62 48
400 772 196 69 52 41
398 775 194 50 35 29
315 858 327 75 62 50
394 773 200 55 40 33
394 778 201 62 46 38
395 783 202 66 49 40
393 782 208 97 69 47
391 773 222 149 108 75
258 858 345 182 136 118
392 773 217 145 105 70
393 778 217 141 101 69
393 783 211 119 84 56
396 782 216 128 92 63
393 783 222 136 101 69
392 798 197 79 60 49
392 793 207 67 49 38
391 798 207 64 47 40
395 793 197 73 54 43
292 884 371 38 35 35
397 788 197 68 52 42
307 821 294 119 95 71
396 788 202 64 47 40
394 796 197 80 61 48
393 793 217 112 82 57
394 786 212 110 78 52
393 788 222 126 94 64
393 793 222 120 90 64
394 793 220 117 86 61
395 800 221 113 82 66
390 773 227 152 111 80
389 770 230 153 112 81
388 778 233 151 112 84
389 779 230 150 111 82
391 783 227 141 106 76
385 778 236 154 115 85
388 782 234 147 110 82
392 788 227 132 100 71
390 788 232 138 105 78
401 822 202 90 75 65
385 788 236 145 110 83
388 793 234 138 105 82
391 798 227 122 89 69
390 798 231 121 88 68
387 799 233 122 89 71
392 806 196 91 74 61
396 807 197 90 71 56
345 913 287 65 57 55
401 809 198 88 68 57
393 802 201 74 55 47
397 803 207 73 55 46
401 808 202 102 77 60
399 805 208 77 56 47
397 802 217 81 59 47
399 804 212 80 57 48
399 804 217 85 64 52
401 808 212 86 64 53
400 808 217 86 68 59
397 801 222 97 70 57
399 804 222 91 69 58
391 818 196 89 69 59
386 823 201 83 65 57
391 824 201 86 69 59
386 826 203 81 64 57
386 827 207 83 66 59
396 817 194 100 78 65
395 819 195 94 73 61
396 823 197 90 71 59
401 819 196 91 71 58
396 824 202 89 73 62
399 826 194 88 70 60
398 826 195 90 70 60
394 826 208 93 78 71
391 827 212 87 72 65
391 829 222 89 74 64
400 822 217 91 78 69
400 823 222 104 91 82
394 826 212 90 75 67
396 827 222 94 78 67
398 825 222 95 80 67
406 808 197 99 76 62
296 817 294 131 98 73
406 813 194 95 74 60
406 809 202 105 79 62
406 813 207 101 80 64
415 852 271 70 60 52
411 807 197 98 76 62
413 805 195 93 70 58
415 805 194 96 72 61
412 813 196 103 79 63
411 809 202 102 80 64
415 812 201 97 76 63
402 813 217 98 83 71
403 820 207 89 74 64
406 820 202 92 72 60
406 818 207 95 78 65
404 821 206 92 76 65
411 818 197 101 78 63
421 842 272 80 64 52
267 842 262 187 126 98
409 817 205 99 77 61
402 818 212 88 73 62
404 817 210 92 76 63
401 818 222 108 92 78
391 803 227 92 66 52
386 811 229 46 34 32
386 813 230 43 34 31
391 814 230 52 41 33
396 802 227 98 74 59
397 804 230 87 68 53
396 808 230 79 64 53
400 808 227 87 72 63
295 859 350 148 108 88
397 812 229 75 64 54
396 813 230 71 59 50
391 818 232 60 47 36
386 820 235 50 40 32
386 822 237 55 45 37
390 820 235 65 53 40
386 832 228 79 67 62
328 920 270 86 76 75
391 831 228 88 75 66
400 823 227 100 85 72
392 844 252 41 36 34
395 824 237 90 77 65
397 828 237 99 87 78
399 833 238 154 144 150
386 825 241 56 47 39
391 825 241 63 53 44
411 837 247 93 77 66
391 829 245 62 53 45
394 830 245 77 69 61
328 914 344 48 42 40
401 818 227 101 85 72
431 797 257 54 46 40
431 799 253 50 41 34
445 800 238 113 80 35
437 800 247 74 57 46
441 798 247 90 69 48
441 797 252 98 73 52
441 796 256 73 55 43
418 805 200 92 73 60
421 805 202 92 72 59
421 808 205 100 81 66
420 811 203 108 86 69
422 814 208 89 70 56
425 814 208 93 71 55
422 814 211 90 72 57
430 823 207 110 87 67
427 828 207 118 93 79
422 819 218 85 69 52
421 818 222 92 75 58
425 823 216 99 79 62
401 853 281 62 52 46
426 823 222 94 76 62
429 820 222 86 66 55
431 828 212 104 85 67
428 827 221 87 69 58
446 812 208 90 76 66
446 805 214 107 83 57
447 808 212 103 80 60
436 828 224 94 75 62
447 823 213 87 77 70
442 828 223 93 74 65
386 823 282 50 43 38
445 825 220 88 74 65
446 828 222 93 76 65
424 808 257 75 64 53
427 808 252 77 63 50
431 802 251 58 47 38
396 810 297 45 38 33
429 807 250 94 71 53
430 813 246 89 72 58
428 814 248 79 64 52
426 813 252 66 53 41
428 823 225 89 71 60
428 830 231 57 43 34
431 828 226 88 69 53
431 828 232 73 56 37
427 828 238 101 82 71
428 833 237 84 68 54
431 827 237 96 77 65
271 873 352 101 82 64
430 832 237 98 78 63
422 818 257 78 65 53
422 828 252 74 60 46
423 830 249 77 64 50
421 834 248 88 71 57
429 817 245 93 73 57
424 823 252 74 59 46
428 831 242 102 82 67
270 797 315 66 52 45
426 833 247 90 72 57
431 829 241 90 71 58
431 832 243 96 76 62
438 803 226 117 87 60
438 803 224 117 87 59
441 803 232 118 85 57
441 808 232 104 80 59
442 801 235 122 89 55
438 804 233 117 88 58
438 800 238 114 84 62
438 807 233 109 82 56
441 810 236 102 81 60
446 804 233 120 90 57
446 808 231 107 82 64
446 801 236 118 85 45
447 811 233 103 80 59
433 809 243 105 83 61
434 806 245 96 72 52
446 808 257 74 58 48
448 815 246 96 80 67
443 814 254 96 83 71
446 813 253 85 71 59
315 866 347 35 32 33
434 825 225 106 84 68
435 826 238 93 76 61
438 823 240 104 79 64
436 828 241 97 77 64
440 833 242 95 76 64
436 832 256 91 70 54
446 817 242 98 77 58
446 823 252 88 71 59
442 828 247 88 69 59
441 833 247 91 71 60
441 830 254 93 76 57
444 831 249 90 72 59
391 834 231 103 92 89
311 773 297 70 53 44
386 838 236 83 71 64
386 843 238 155 146 146
402 847 239 167 164 180
386 843 245 79 70 61
386 845 242 140 133 128
386 847 242 176 169 167
391 848 242 193 181 193
391 848 247 115 107 104
400 834 245 91 83 77
392 839 250 64 57 51
398 845 240 167 167 179
396 842 253 65 53 43
392 848 257 76 64 57
401 842 252 70 58 48
402 844 257 78 67 59
392 852 244 209 193 197
281 879 360 102 89 81
386 854 256 100 88 84
389 853 252 108 97 94
285 802 305 59 46 42
392 857 257 87 76 70
401 853 242 131 116 115
395 860 256 76 65 62
401 859 252 79 65 60
400 861 254 77 65 62
400 861 257 80 68 64
406 848 238 177 154 151
411 848 236 147 123 109
416 843 237 135 113 103
417 848 234 121 96 87
406 839 242 132 125 121
406 839 252 83 69 56
409 836 256 79 63 49
413 835 249 84 68 56
411 841 240 159 137 121
412 852 234 95 69 65
416 853 237 95 76 66
405 854 240 102 84 80
406 858 247 80 65 56
402 860 256 82 70 64
416 855 247 83 69 63
413 855 252 83 70 64
411 857 247 85 71 62
411 857 252 81 68 62
414 856 252 81 69 64
434 834 224 92 74 61
436 836 222 88 74 64
421 845 233 98 76 65
418 845 234 127 104 88
426 839 232 80 64 52
431 837 228 102 84 68
427 840 236 109 91 82
421 839 242 101 77 62
421 837 246 94 76 64
426 837 246 102 82 72
425 838 257 82 66 56
428 838 254 87 70 59
426 842 242 99 77 71
426 848 247 85 71 63
432 837 244 102 84 73
431 843 247 87 71 64
430 843 252 84 68 59
420 851 234 96 77 64
421 852 237 95 78 68
420 852 252 80 68 63
258 845 293 126 93 71
424 851 242 87 73 67
424 851 246 83 70 63
438 835 247 90 71 62
436 837 252 87 69 58
451 799 238 119 85 40
451 797 242 111 88 58
451 796 247 92 70 44
456 798 242 108 85 58
456 797 247 84 62 43
451 796 252 69 52 35
452 796 256 67 51 38
461 799 242 108 84 57
461 798 247 88 67 47
461 798 257 78 61 42
465 800 243 94 71 52
451 808 207 98 76 59
456 809 207 117 89 67
460 807 203 140 105 70
