ply
format ascii 1.0
comment Created by Open3D
element vertex 2199
property double x
property double y
property double z
property uchar red
property uchar green
property uchar blue
end_header
250 699 270 51 30 31
358 567 293 149 88 78
246 699 279 102 76 59
286 934 211 85 74 73
329 681 165 80 61 45
248 699 277 62 45 41
225 674 306 149 102 78
231 674 311 145 102 75
225 689 307 152 108 79
296 514 140 170 9 36
425 614 255 130 101 68
233 679 313 153 109 83
236 679 315 159 112 87
236 684 316 163 116 88
233 689 313 155 109 84
224 693 307 152 107 80
259 873 274 149 117 88
230 694 312 151 108 82
331 565 293 34 30 31
232 694 313 156 109 85
226 704 310 155 108 85
328 961 302 60 54 51
313 584 302 159 12 49
231 704 314 158 111 86
236 694 316 166 115 90
327 964 300 61 56 54
236 699 316 165 116 90
241 699 317 168 117 92
385 686 213 49 41 41
236 764 265 107 82 52
255 674 305 123 85 67
242 674 318 167 118 92
242 679 318 167 118 93
376 734 182 54 42 36
245 679 318 169 118 93
253 679 311 153 106 83
254 679 309 145 99 77
251 674 315 162 116 87
391 979 285 100 83 73
254 673 313 158 111 84
220 729 305 163 113 86
254 684 308 140 95 75
254 689 308 139 96 73
261 899 256 134 104 73
474 518 192 187 20 47
246 704 316 166 115 86
321 594 181 204 11 43
256 694 305 131 91 70
254 694 309 142 97 73
250 694 314 158 108 80
252 699 311 152 102 78
355 619 304 36 29 31
250 699 314 158 107 82
278 515 150 48 30 34
250 704 314 160 108 83
256 644 321 160 115 88
256 654 320 173 122 96
246 839 270 194 133 101
476 937 228 93 78 63
221 719 280 135 102 68
372 555 168 61 34 39
218 714 287 150 108 77
221 724 280 138 103 69
230 819 280 182 125 93
221 729 280 139 102 70
453 981 271 89 84 80
218 729 285 155 109 79
253 842 266 73 59 57
432 574 230 108 26 41
297 552 162 191 9 46
221 734 279 139 103 71
218 734 285 154 109 79
392 952 293 59 44 39
219 709 290 153 110 79
218 710 291 154 110 80
219 709 300 162 113 86
411 696 222 87 66 44
221 709 305 162 114 87
368 826 188 67 58 51
356 534 305 163 116 87
218 719 290 154 110 81
256 964 290 54 51 52
306 904 311 159 120 92
256 969 270 85 80 81
337 776 188 63 52 50
218 714 299 161 112 87
381 729 311 193 2 61
219 714 301 165 115 89
332 839 286 173 131 108
489 934 208 96 79 61
219 719 301 163 113 88
223 709 308 160 113 88
420 839 231 98 75 62
389 629 273 154 13 49
223 714 308 162 114 87
218 725 295 163 113 86
423 540 183 164 1 29
217 729 290 161 112 85
217 729 295 163 113 85
218 729 300 165 114 86
217 734 290 159 110 83
264 537 168 85 19 24
217 734 295 162 112 85
218 734 300 165 113 86
218 735 303 166 114 88
222 739 277 137 101 68
249 893 295 155 111 94
219 744 280 142 103 71
218 737 285 153 108 77
412 893 234 81 69 60
255 804 318 171 128 95
219 739 285 152 107 77
219 742 285 152 108 77
219 748 278 140 102 71
218 749 280 148 105 76
218 750 277 141 102 74
221 754 275 140 103 70
254 951 292 196 145 122
219 759 279 157 112 80
406 714 210 81 56 45
218 769 281 174 118 90
218 739 300 165 112 87
218 739 303 167 113 89
218 744 303 169 116 91
217 749 300 171 118 91
222 739 309 165 114 89
223 749 308 167 115 90
260 572 182 199 15 44
261 864 280 132 106 83
216 754 290 167 115 90
216 759 290 172 118 93
278 972 262 85 82 83
265 960 254 85 78 77
280 679 307 76 26 34
218 753 303 174 118 93
376 629 210 105 25 39
218 759 300 178 120 95
396 932 256 56 44 41
390 514 166 144 0 35
217 764 295 178 121 95
219 764 302 180 122 96
279 759 223 93 28 36
223 759 308 171 118 91
223 769 308 168 116 89
226 709 279 136 104 68
231 709 278 132 101 67
232 713 278 131 100 67
231 719 277 130 98 65
230 717 278 130 99 64
276 704 315 127 10 40
236 719 277 129 95 65
370 691 303 61 28 33
258 684 256 74 31 36
241 716 277 112 80 57
366 564 169 102 27 39
242 719 277 100 71 51
238 720 278 127 92 64
226 724 277 132 100 66
297 784 195 61 49 42
227 729 277 131 100 66
231 729 277 128 97 64
332 871 188 61 53 52
231 734 276 127 95 63
236 729 276 127 95 66
238 722 278 129 94 65
247 714 270 106 12 34
250 709 265 108 15 34
361 799 190 70 57 53
249 709 270 91 19 34
248 711 270 102 19 36
236 839 300 213 146 120
383 947 277 74 58 48
348 649 302 89 31 42
249 713 264 111 14 36
248 716 262 121 7 36
376 724 314 181 15 59
246 714 275 73 37 35
246 724 265 83 19 32
370 649 294 62 29 33
374 765 188 78 61 50
243 726 272 89 28 34
243 729 271 90 31 34
244 729 269 80 27 34
245 724 270 69 27 32
246 818 319 187 142 116
346 789 296 79 62 55
248 721 257 125 3 25
244 722 274 77 35 34
402 759 271 162 117 90
229 710 312 159 111 86
226 714 311 159 112 86
228 715 313 159 111 86
236 709 316 166 116 91
241 709 317 170 119 91
218 774 295 182 124 97
236 714 317 167 116 90
241 719 317 170 121 92
225 729 311 162 112 87
228 729 313 166 117 91
331 639 206 65 36 38
225 734 311 165 114 90
236 724 317 167 116 89
236 729 316 168 117 90
283 967 246 90 87 89
276 654 229 147 9 36
241 724 317 171 120 92
236 734 316 169 118 91
241 734 316 175 122 96
268 531 158 80 20 33
285 522 147 161 7 36
246 709 316 167 115 86
419 762 208 82 61 51
246 714 316 167 115 86
274 713 317 144 12 45
253 709 312 156 106 80
250 709 313 161 107 82
246 724 316 170 116 87
246 734 316 173 118 90
256 724 310 156 102 81
279 527 146 112 18 39
251 729 314 166 110 83
253 724 312 163 108 84
316 934 317 46 43 44
368 777 172 78 60 38
240 739 270 70 49 44
240 749 269 76 59 40
343 966 266 82 77 80
237 749 272 92 70 47
343 687 184 50 42 42
231 744 274 126 95 61
319 899 186 80 67 68
226 749 274 131 99 64
251 739 314 166 113 84
236 739 275 118 90 62
376 644 289 131 23 46
236 744 274 120 91 61
235 749 273 122 92 59
231 759 271 125 96 61
342 912 297 37 35 34
227 764 272 131 100 63
264 734 233 117 12 33
226 769 271 134 101 64
419 917 221 97 86 76
356 594 295 90 9 29
263 529 172 92 14 28
231 769 269 119 91 58
240 754 265 114 89 59
239 764 259 125 97 63
253 934 261 166 128 103
431 930 260 53 45 40
238 765 261 123 95 62
239 767 258 128 97 61
235 769 265 114 87 54
234 763 268 94 73 48
232 756 272 124 93 58
428 566 242 180 15 51
225 764 273 138 103 67
443 657 228 137 99 72
261 709 240 123 12 35
258 705 247 132 6 39
224 768 273 141 104 69
254 924 258 143 113 85
242 739 265 53 35 36
373 714 198 61 41 38
243 744 260 101 72 54
244 738 259 40 33 37
312 905 187 77 63 61
243 749 260 126 97 64
426 533 182 156 7 35
225 739 311 167 115 90
231 739 315 169 116 91
301 594 304 99 24 40
228 748 313 172 119 93
236 744 316 171 118 92
266 684 240 116 18 37
330 517 137 197 11 42
241 739 316 176 123 96
241 744 316 177 125 98
435 553 192 78 29 34
316 555 158 68 35 34
236 749 317 170 117 91
389 874 259 41 35 31
241 749 316 175 123 96
366 779 181 65 51 45
226 754 311 171 119 92
231 754 314 170 119 91
229 760 312 169 118 92
271 954 310 57 51 51
226 764 311 166 116 89
229 762 312 167 116 90
228 766 313 162 113 85
313 837 202 51 47 47
236 759 316 165 118 89
241 759 317 169 121 91
439 849 225 105 84 72
386 759 183 59 47 39
256 739 311 162 106 84
253 739 312 165 111 84
246 754 315 174 123 92
246 759 316 172 123 91
246 764 316 168 121 87
256 759 310 163 110 83
250 754 314 170 119 88
256 764 311 161 112 82
251 769 314 164 118 84
256 769 311 161 113 81
264 814 238 79 61 53
239 774 254 135 100 63
237 779 256 141 101 66
286 814 300 73 60 53
241 784 250 151 109 73
238 786 252 154 109 73
241 789 250 159 112 78
256 834 255 86 66 59
375 659 289 135 17 44
239 791 253 162 112 77
287 543 162 191 7 35
241 794 250 166 116 81
239 795 253 168 115 80
238 799 256 172 117 82
240 799 254 172 119 83
251 774 239 59 50 48
336 704 175 62 46 39
256 774 236 66 54 47
433 659 262 175 123 95
254 775 238 66 54 49
251 784 241 78 61 52
417 1000 272 101 76 69
381 938 270 63 45 38
255 784 238 80 61 52
374 521 283 113 17 40
245 774 245 99 78 57
248 774 242 53 46 46
242 774 250 135 101 65
243 776 247 138 104 68
402 850 240 58 45 36
371 915 244 54 46 44
326 584 299 107 19 41
351 559 163 172 6 35
243 784 247 144 106 74
316 529 306 156 108 82
248 778 242 55 48 47
245 799 249 99 74 60
249 786 243 69 54 49
350 776 186 55 44 42
253 793 242 78 60 52
256 799 240 75 60 52
243 802 252 166 117 82
283 676 308 72 33 36
246 804 250 87 66 56
244 805 253 158 113 78
245 809 254 135 97 70
265 939 235 65 62 64
248 939 280 186 139 118
436 849 230 87 74 62
246 814 255 103 77 61
248 802 247 56 47 46
251 804 246 73 58 53
279 512 146 53 27 28
382 595 193 171 10 40
255 809 244 77 61 54
368 921 253 55 48 44
250 809 249 68 55 50
246 819 255 82 63 55
257 819 247 78 62 54
361 814 284 61 49 47
249 816 253 60 49 48
350 939 235 74 69 71
423 755 213 113 84 59
249 819 253 64 53 50
429 1013 280 93 83 73
252 824 251 78 61 55
250 824 254 74 59 53
255 819 248 79 61 54
261 954 300 142 102 89
282 558 172 92 29 37
255 824 249 79 61 54
252 833 256 84 65 58
256 879 275 150 118 88
380 743 308 196 6 62
219 774 280 177 121 91
306 963 231 89 86 91
218 773 281 180 122 94
218 774 285 181 124 96
306 553 157 125 21 42
262 784 311 151 113 79
311 959 229 85 81 86
219 776 283 181 123 93
511 924 199 98 82 68
301 513 307 148 112 91
223 789 276 185 126 93
280 918 224 59 55 55
223 799 281 178 120 91
334 967 290 60 52 48
221 794 285 176 119 90
432 962 297 78 66 57
271 851 270 64 53 51
266 955 240 74 69 69
222 799 285 172 116 86
218 774 290 182 126 98
218 772 298 181 124 97
221 774 305 174 121 92
443 561 222 185 17 62
220 779 300 176 121 92
221 784 305 171 119 90
223 774 308 169 119 89
223 779 309 168 118 88
220 789 295 173 119 90
260 954 250 82 76 75
305 784 188 57 46 42
221 799 295 176 123 92
326 689 314 40 28 30
222 799 305 182 128 100
223 802 282 175 117 87
223 803 286 170 115 84
223 807 287 169 114 84
222 804 290 173 118 88
446 938 226 110 90 74
223 809 290 178 123 93
222 804 300 185 128 100
223 809 300 189 132 103
229 773 268 116 89 57
232 779 261 139 102 65
289 861 254 167 111 83
228 779 267 126 95 59
406 963 309 84 70 57
228 784 266 150 107 71
236 774 260 133 99 64
238 770 257 131 100 63
235 779 259 139 101 64
224 780 273 165 115 81
370 654 293 109 29 42
228 794 267 178 122 88
265 538 298 59 29 32
234 789 258 157 109 73
351 864 181 75 63 60
356 524 151 48 35 36
235 794 259 168 115 81
233 794 262 170 116 82
257 959 290 68 52 49
225 799 275 185 127 94
423 831 261 196 131 104
225 779 311 165 118 89
304 606 193 177 15 48
228 779 313 166 120 90
235 774 317 163 118 88
406 965 300 84 72 61
326 689 175 65 49 40
237 775 318 165 120 90
401 554 183 80 23 36
236 779 318 166 121 91
316 559 160 56 36 41
241 779 318 167 124 93
225 789 311 170 121 92
227 789 314 171 122 94
440 759 249 169 113 80
231 789 316 171 123 94
224 794 311 176 124 96
231 799 316 179 129 101
233 790 318 171 124 94
241 789 319 169 126 94
330 914 190 106 103 108
233 794 318 175 126 97
352 730 313 86 20 35
244 770 318 171 127 93
254 879 290 132 57 66
246 779 318 167 123 91
247 778 317 165 121 86
236 829 311 198 140 114
274 917 233 65 61 63
254 770 313 165 117 85
251 779 316 162 120 84
317 815 292 193 135 114
418 830 218 83 65 57
250 785 318 165 122 87
246 789 319 169 124 93
253 789 317 167 125 89
251 794 318 171 127 93
301 574 175 180 16 44
298 905 216 50 47 48
410 739 185 68 53 43
290 596 193 156 21 42
251 799 319 173 129 96
253 794 317 171 127 92
230 809 270 181 126 92
321 970 305 76 66 62
233 802 262 176 119 87
236 804 260 171 117 82
366 862 187 80 65 59
238 813 262 171 117 82
233 813 267 178 121 88
389 890 232 81 71 64
226 809 280 173 119 85
306 589 304 126 27 48
224 805 284 170 114 83
229 810 274 181 125 92
230 814 275 178 121 89
228 812 277 177 120 87
229 815 278 175 119 86
346 564 290 130 9 40
226 814 285 176 120 88
237 819 265 178 120 88
242 819 261 172 117 84
240 820 263 176 120 87
390 715 193 80 50 39
237 823 270 185 126 95
240 825 269 187 127 96
231 824 280 194 133 103
367 550 163 97 27 39
229 820 284 188 129 99
410 583 253 34 27 29
231 829 285 198 134 106
235 825 275 191 130 100
239 830 274 198 133 104
243 823 262 176 121 88
306 689 317 144 9 45
244 819 258 158 110 80
341 674 305 130 15 43
446 524 185 110 23 34
248 827 257 55 47 48
352 558 295 167 112 98
298 745 208 42 33 35
224 811 301 190 133 105
226 809 310 184 129 100
322 809 181 92 70 55
415 600 256 104 83 60
231 804 315 181 131 103
337 945 228 70 65 67
228 808 313 179 128 98
227 814 309 187 131 103
234 810 317 182 132 104
320 609 303 49 31 33
236 809 319 178 129 100
402 579 261 109 26 44
241 809 320 175 128 98
328 526 143 203 12 50
241 814 319 179 129 102
226 819 295 193 134 107
285 585 188 192 8 43
228 823 304 195 135 109
228 828 295 201 140 111
228 828 299 202 141 114
229 825 306 195 134 108
231 829 305 198 136 108
228 819 309 191 132 104
228 822 308 193 134 106
250 919 290 128 96 76
236 819 316 188 135 109
364 707 193 63 48 41
241 820 317 189 136 112
234 825 312 194 137 110
241 829 314 201 145 121
255 809 318 170 125 94
414 961 308 74 62 51
439 689 222 149 107 76
251 814 320 175 130 102
246 821 317 192 144 120
414 900 244 74 64 55
341 785 175 66 51 54
368 549 302 170 122 89
246 829 314 203 149 123
251 820 316 183 137 111
254 817 318 174 128 98
306 955 322 73 66 64
402 928 246 70 58 57
341 894 196 59 53 53
256 823 314 181 135 107
443 764 240 144 97 63
251 829 313 196 143 114
254 827 313 188 139 111
257 825 312 184 135 108
425 824 265 195 136 109
253 830 312 196 142 115
241 799 320 175 128 99
465 999 277 82 69 56
246 804 320 176 131 101
246 814 320 181 135 106
232 833 285 204 138 108
371 849 255 45 38 35
240 834 275 202 136 106
233 832 282 203 137 107
240 840 285 216 144 116
336 904 294 64 54 47
248 833 261 55 45 48
243 832 267 194 133 100
278 525 140 161 16 35
416 759 266 160 114 81
242 834 271 198 134 103
243 837 272 202 137 103
250 834 259 77 59 55
306 819 296 175 124 103
251 838 261 80 63 57
331 676 197 59 43 41
375 524 157 128 14 36
248 837 262 46 39 43
251 840 265 61 49 50
257 838 256 86 67 60
254 841 263 85 67 60
397 780 181 86 59 46
256 843 265 83 66 62
380 957 287 80 64 47
412 928 240 93 83 80
252 843 271 80 56 56
281 639 300 95 20 35
246 840 275 201 133 102
306 543 151 100 28 39
244 841 279 210 141 111
431 749 214 106 72 44
243 842 282 213 141 111
242 842 286 211 139 113
251 845 280 167 107 82
322 898 301 158 125 98
257 847 275 55 44 50
253 847 281 113 57 51
256 848 280 58 41 47
250 846 285 178 117 90
256 847 285 115 72 60
231 834 295 211 143 115
270 719 229 64 34 37
232 834 300 207 143 116
236 839 290 215 142 114
233 837 298 218 152 129
256 954 260 81 72 70
369 614 288 132 25 47
239 841 295 204 131 102
241 843 295 196 126 100
242 842 300 201 133 106
296 724 213 86 27 35
246 845 290 193 128 99
404 710 200 60 47 41
246 845 295 192 128 100
246 843 300 203 138 110
405 650 255 123 79 66
328 692 176 60 46 40
251 842 304 203 142 112
246 838 309 207 146 120
404 595 283 161 117 81
246 832 313 212 157 132
414 620 278 166 113 81
333 521 143 193 11 43
321 579 171 149 12 37
278 541 158 206 11 44
256 840 305 202 145 119
405 951 288 83 71 58
256 879 285 147 92 84
297 978 255 89 85 87
250 889 270 127 102 77
257 879 270 145 116 87
296 980 270 70 66 66
252 889 266 123 100 76
252 894 265 138 107 80
248 891 271 145 112 85
247 894 275 168 120 100
276 574 319 153 115 90
246 894 280 165 120 101
311 624 305 158 19 51
255 883 280 137 91 76
262 819 241 76 59 53
466 534 205 155 20 48
255 874 295 144 95 80
392 703 290 133 12 42
257 874 304 139 83 74
252 884 290 121 59 69
389 871 258 37 32 28
250 889 295 149 74 85
321 923 311 72 55 47
264 794 233 76 59 51
252 884 295 140 95 100
254 884 301 172 148 144
257 884 304 171 138 137
254 888 302 125 42 60
280 970 307 67 62 61
279 720 223 130 16 35
248 895 290 146 102 85
248 895 295 113 77 64
374 829 197 58 47 44
250 893 300 130 95 75
247 896 300 100 70 54
252 904 265 173 125 104
363 891 205 70 65 65
256 904 260 149 110 85
249 899 268 173 124 104
376 884 210 76 68 65
254 909 263 164 123 101
363 940 280 79 72 70
282 769 222 92 48 47
246 899 280 189 136 120
247 904 275 196 141 124
249 906 273 192 139 120
248 929 270 169 137 119
250 919 265 139 115 94
410 679 245 78 60 48
251 914 265 134 108 87
312 784 181 71 54 46
255 919 259 140 113 86
248 920 267 150 126 106
250 924 264 143 116 94
252 929 261 159 123 97
257 919 256 139 112 84
434 552 243 107 10 33
281 574 181 88 30 37
421 769 267 167 120 85
256 929 255 134 108 85
248 924 266 126 104 92
414 927 238 92 81 80
333 551 288 117 13 34
248 919 275 132 108 89
248 919 280 144 116 94
247 924 275 111 94 86
436 784 215 97 71 60
249 913 274 80 62 61
374 658 222 39 33 38
247 899 290 148 106 87
376 604 285 141 19 45
247 904 290 172 125 107
246 899 305 151 117 97
258 693 302 114 85 66
245 904 300 190 144 125
248 908 304 201 149 132
272 839 246 92 68 59
381 728 184 60 48 40
249 910 290 166 120 105
249 911 301 199 148 133
252 900 308 149 115 96
300 549 159 184 11 41
256 899 308 129 94 75
248 912 298 190 141 126
481 943 220 102 85 71
249 924 290 131 104 83
249 929 292 178 139 120
252 929 299 175 138 119
395 968 308 78 63 52
254 929 302 152 124 106
251 934 265 176 134 111
503 935 206 102 85 71
248 933 271 179 136 113
292 869 251 124 92 64
253 944 261 106 86 76
346 783 298 80 62 56
248 934 280 189 146 123
248 938 275 179 136 113
249 941 280 187 140 119
248 938 284 191 143 122
254 949 259 82 74 72
252 949 265 98 84 77
252 954 275 118 88 77
253 959 284 62 49 49
254 959 286 66 51 50
250 939 290 191 147 127
251 939 295 191 145 127
494 933 223 91 72 54
255 939 301 188 141 120
257 939 304 193 146 125
255 944 300 186 138 120
253 948 294 195 145 124
255 950 296 192 143 120
256 969 275 79 74 76
256 969 280 68 63 66
253 963 284 51 48 50
378 546 168 79 30 38
255 966 280 64 60 63
273 514 126 81 26 40
273 517 127 117 16 25
272 515 135 43 29 33
303 904 312 163 122 96
272 519 130 144 17 39
258 681 257 44 30 36
270 519 135 55 29 32
271 528 136 99 26 35
269 523 140 64 30 35
370 894 226 59 52 50
271 524 150 53 24 28
330 670 308 157 5 49
270 527 151 63 23 28
270 528 155 87 17 33
426 829 224 101 73 53
271 534 140 95 24 36
271 538 145 196 16 49
263 540 155 100 22 36
263 540 160 97 15 30
454 974 288 90 78 66
453 756 239 165 112 77
268 531 154 85 17 32
271 529 160 72 22 29
430 908 223 106 86 74
266 543 150 162 17 39
264 537 160 79 16 30
266 545 154 185 13 42
270 924 234 60 56 58
272 541 154 202 7 42
274 512 132 52 28 33
280 518 130 80 25 37
273 516 139 39 31 28
276 523 131 186 19 47
277 525 134 194 10 46
300 899 220 46 43 46
279 523 135 160 11 41
280 523 140 173 8 40
277 529 145 118 23 39
282 514 135 82 27 36
288 516 143 155 18 34
309 728 175 65 48 38
284 517 142 162 14 36
276 519 150 52 29 32
279 514 155 48 28 29
279 513 160 56 28 28
277 519 155 69 23 32
279 538 152 202 13 40
277 519 160 80 20 29
281 529 150 180 12 38
274 523 160 84 16 29
406 589 260 61 40 33
280 534 151 198 13 37
405 644 244 100 56 44
276 539 150 201 11 43
286 530 153 159 14 39
261 519 175 97 21 26
261 524 174 101 18 28
263 520 172 84 22 30
272 519 166 77 21 29
411 883 215 99 82 66
265 514 173 87 21 27
270 519 169 74 23 26
259 513 178 123 5 25
388 669 271 140 18 46
258 519 177 109 19 28
258 524 177 110 13 29
403 835 213 74 57 50
257 534 176 103 22 33
389 529 278 52 25 32
260 534 174 99 14 30
258 540 172 100 13 34
398 689 242 41 29 33
274 513 168 79 20 30
274 523 163 79 20 25
263 547 157 169 15 43
261 549 160 146 15 36
258 546 167 91 16 28
286 595 194 156 13 41
261 559 166 214 17 52
269 552 166 119 24 40
349 802 188 80 65 56
268 555 169 163 21 46
266 560 174 150 20 40
271 554 170 168 19 45
298 786 307 92 72 62
272 556 173 155 9 29
262 561 169 196 23 56
261 569 180 188 12 44
261 574 185 190 15 40
263 571 183 160 0 45
352 893 192 76 68 66
328 721 178 61 47 44
271 562 177 127 39 52
273 546 163 200 4 49
276 550 169 99 26 40
276 554 171 137 21 40
287 553 167 136 27 44
286 559 171 117 27 40
407 599 281 160 115 82
286 569 176 106 27 37
276 569 180 107 25 38
363 776 182 74 56 45
281 570 179 76 32 36
274 571 183 192 13 48
276 575 184 136 25 43
280 576 183 70 31 35
286 574 180 102 30 39
297 518 142 143 11 35
300 515 139 183 7 39
301 524 144 101 25 39
336 759 179 72 55 43
302 523 142 109 20 37
301 529 146 99 26 36
438 644 250 142 105 69
290 521 148 183 16 41
290 530 153 132 16 38
291 534 155 165 9 37
291 538 157 195 10 40
406 834 214 68 55 51
291 540 159 195 10 39
291 544 161 194 10 39
294 541 158 194 10 48
299 530 148 97 27 38
301 544 155 138 11 37
312 513 132 44 36 41
307 884 210 50 47 49
420 639 273 176 119 87
311 519 136 112 19 39
305 530 144 104 28 37
307 528 142 106 27 38
311 524 139 147 12 37
429 823 254 183 121 95
321 515 134 133 26 41
316 525 139 166 11 42
320 522 137 126 26 31
398 739 285 176 12 55
306 534 146 98 28 38
316 534 145 186 9 40
306 539 149 81 31 37
311 540 149 60 35 37
316 537 147 166 12 46
299 546 158 177 22 58
301 554 161 136 14 40
391 764 185 68 52 41
305 546 153 124 21 42
431 649 264 160 111 81
311 555 158 70 32 37
416 840 250 173 111 85
311 559 160 63 33 39
414 930 247 80 71 66
316 546 153 99 28 35
321 549 155 71 28 37
380 679 289 139 5 44
316 553 157 140 20 42
321 555 158 120 31 42
311 744 321 39 29 31
289 546 163 188 13 45
291 550 164 166 13 41
351 594 294 134 14 44
290 556 168 142 23 46
295 560 168 93 32 39
311 963 314 68 62 60
300 555 163 136 18 42
302 557 162 40 33 38
294 566 173 57 35 37
302 563 167 168 22 46
301 568 171 160 21 43
291 572 177 142 26 48
281 759 222 92 29 37
295 575 178 125 18 37
311 568 166 90 32 39
306 570 169 128 21 38
376 879 271 47 41 39
310 571 168 84 32 36
311 574 170 86 34 41
316 565 163 67 34 38
316 569 165 140 22 43
321 569 165 160 9 41
321 573 167 131 18 39
314 571 168 94 31 35
316 574 169 96 34 41
321 575 169 52 31 39
272 583 191 187 10 42
275 580 188 170 18 45
434 808 225 94 68 54
276 584 190 194 10 44
281 579 185 134 27 45
281 589 191 192 9 42
336 935 224 69 64 66
287 578 182 91 31 40
281 829 300 66 56 50
291 579 181 143 25 45
296 700 323 80 21 32
290 581 183 124 13 41
291 584 185 186 8 43
291 587 187 193 8 42
291 589 189 193 8 42
353 827 188 63 53 52
436 534 185 166 10 39
302 578 177 193 11 44
301 580 179 191 10 40
300 586 183 192 8 39
351 879 276 49 44 41
302 587 182 189 13 45
291 594 191 173 9 42
296 594 190 163 17 43
302 593 187 90 33 42
384 845 207 78 61 56
302 603 192 108 35 42
306 579 176 172 9 42
312 577 172 102 27 33
309 576 173 92 28 37
316 581 173 188 7 43
321 584 175 190 7 37
304 581 178 188 10 41
306 584 179 179 8 42
305 590 183 126 29 44
310 586 178 183 5 42
317 587 177 190 7 36
367 744 182 58 46 40
321 588 177 200 10 41
341 599 296 156 15 50
321 590 179 203 11 41
306 594 185 88 35 41
311 593 182 79 24 37
310 595 184 88 29 38
306 599 189 71 32 38
337 834 282 169 129 106
311 599 186 130 27 43
306 604 191 156 22 44
426 789 210 110 76 58
460 519 228 137 12 41
312 602 187 63 34 39
415 690 228 96 74 53
382 615 203 145 29 48
309 601 188 102 39 44
311 604 189 78 29 37
316 599 185 173 11 40
316 605 189 104 36 43
304 816 218 53 46 44
321 603 187 201 11 49
266 774 308 149 106 79
321 609 190 74 35 41
416 968 305 83 71 60
431 959 285 85 70 56
261 585 194 200 10 40
261 588 196 195 10 45
286 875 313 162 131 99
261 591 198 200 9 42
266 582 192 164 17 42
266 585 194 188 10 41
388 678 276 69 23 34
270 585 193 190 9 38
266 589 196 194 9 40
312 617 197 137 28 43
266 591 198 194 9 40
401 859 230 93 79 69
357 815 189 66 53 47
271 589 195 193 10 40
269 591 198 193 9 40
261 594 200 199 9 45
414 882 248 69 60 51
261 599 204 198 10 45
331 584 298 163 12 51
262 597 202 196 9 45
404 755 268 128 90 63
258 602 207 187 10 50
261 603 206 195 11 46
412 566 188 56 31 35
266 594 200 193 9 41
306 961 317 73 66 64
418 596 231 181 18 52
271 594 199 192 9 41
272 592 197 193 9 42
266 597 202 191 8 41
437 555 194 61 34 37
266 600 204 191 8 41
266 604 206 190 8 44
271 604 205 189 8 42
286 794 218 71 56 48
261 608 211 200 11 47
395 943 276 70 57 49
258 607 212 207 14 46
422 569 246 122 28 48
265 606 208 192 8 44
276 594 196 193 9 44
276 599 200 190 9 43
281 594 195 170 10 42
278 597 197 191 9 43
361 569 295 155 97 85
281 600 198 189 10 45
353 940 244 71 65 67
276 605 204 184 12 44
269 533 298 56 27 31
276 609 206 189 10 43
281 604 201 129 15 40
280 606 203 115 20 40
281 609 204 169 13 43
284 601 198 177 14 51
412 703 224 82 58 44
287 602 197 108 19 34
282 607 202 55 28 36
260 610 214 202 12 49
261 615 219 203 11 49
356 934 245 65 60 61
261 618 221 185 9 48
258 617 222 197 5 51
262 860 285 111 86 63
479 517 202 142 18 49
261 620 224 99 23 39
267 612 212 189 9 42
356 799 185 68 55 50
271 610 209 188 8 42
271 613 211 189 8 41
265 616 218 199 11 48
313 546 307 171 116 92
266 619 220 194 11 47
268 617 217 193 10 46
325 825 188 65 50 47
373 711 198 62 38 35
264 621 223 185 11 53
271 884 311 152 110 92
324 542 293 167 107 96
445 558 205 123 27 46
266 624 224 192 11 48
267 623 222 193 10 48
263 656 311 153 99 78
270 626 223 187 10 46
346 939 321 51 45 40
271 629 224 182 9 46
324 770 172 78 59 40
341 699 314 58 28 33
272 628 222 184 9 44
278 612 207 187 9 44
340 719 195 67 30 34
281 613 206 171 13 43
465 984 280 122 95 71
389 587 293 175 120 93
287 618 207 101 33 41
275 610 208 189 8 44
316 675 195 66 45 37
276 614 210 186 8 43
280 615 208 143 14 38
274 616 213 177 5 45
277 618 211 83 24 36
281 619 210 50 32 37
281 624 214 139 17 41
309 844 228 71 56 51
273 622 217 176 12 47
376 894 230 66 58 55
282 622 212 46 31 38
286 620 209 63 33 36
364 609 298 102 30 41
276 629 220 180 8 43
271 939 314 190 145 124
274 631 223 178 8 45
261 819 314 171 130 98
278 628 217 181 8 43
282 628 216 177 8 41
281 634 219 147 12 39
279 640 223 151 2 38
284 626 213 172 16 49
406 939 291 55 45 36
286 629 214 136 14 39
371 789 165 92 72 54
287 628 212 162 21 47
283 632 217 139 17 39
291 904 226 69 53 46
284 636 218 63 28 32
366 714 191 68 50 43
262 623 226 160 16 46
259 621 228 47 30 39
408 658 250 128 95 76
260 630 234 165 11 46
260 635 239 161 14 48
263 638 237 183 12 46
461 929 234 62 52 45
286 689 221 100 25 35
265 630 229 185 11 46
335 900 293 70 59 49
272 634 226 175 8 43
270 635 229 175 9 44
268 638 232 174 10 44
258 638 246 55 25 35
260 640 244 103 31 44
273 638 227 167 7 41
293 597 192 74 24 38
360 837 268 106 82 69
306 969 240 96 93 97
291 603 196 86 29 37
291 605 198 157 21 47
291 609 201 96 32 42
296 604 196 99 29 38
294 606 198 138 25 35
297 607 197 158 21 44
306 609 194 161 17 42
292 613 202 110 27 42
296 614 201 74 34 39
295 616 203 79 30 37
292 622 207 87 35 38
286 833 294 71 57 53
391 614 279 157 90 77
296 624 206 46 34 38
300 610 198 159 20 43
303 612 197 149 25 46
298 617 202 122 43 50
301 624 204 42 32 37
303 622 202 59 29 29
289 621 208 114 34 39
258 932 308 167 137 118
298 628 207 38 38 41
371 944 316 75 62 52
301 629 206 78 33 40
376 744 308 192 10 61
291 629 211 67 30 39
347 788 184 66 53 50
347 760 184 49 42 39
295 626 208 67 35 39
373 875 200 78 71 71
291 634 214 44 35 38
292 633 212 46 34 37
366 860 258 44 38 36
297 638 212 105 27 38
300 630 208 94 40 48
326 744 314 50 42 42
301 634 209 75 31 38
305 616 198 98 32 40
310 610 193 149 15 37
321 784 175 77 59 45
311 614 195 113 27 40
306 619 200 129 29 44
309 616 198 142 42 54
311 619 199 128 23 42
306 625 203 161 13 39
311 937 217 77 72 74
311 624 201 128 20 38
312 675 207 70 42 36
314 611 193 193 14 46
366 534 302 155 113 82
316 614 194 139 18 41
316 620 198 178 9 41
331 784 299 81 64 56
316 624 200 83 26 38
321 618 196 155 11 39
320 621 198 148 11 38
306 629 205 112 23 39
311 629 204 144 20 39
336 744 185 50 40 40
306 633 207 75 37 43
331 949 228 71 66 68
311 634 206 129 20 39
292 759 215 68 34 38
312 638 207 148 15 42
395 935 299 45 37 32
429 804 264 185 131 102
269 512 302 43 28 28
313 627 202 98 25 35
316 630 203 54 34 37
321 628 202 111 27 38
321 630 203 136 26 44
416 820 271 183 134 103
316 634 205 89 32 40
335 622 302 49 25 30
321 634 205 76 32 36
415 548 182 84 20 32
305 635 208 72 26 34
443 670 228 158 112 82
306 639 209 117 20 36
444 797 232 141 94 66
311 639 208 150 11 38
416 995 272 133 112 110
316 640 208 123 20 36
326 514 134 154 17 43
426 619 260 137 102 67
326 518 137 195 11 42
326 520 139 196 11 41
323 883 297 169 133 105
322 521 138 183 14 39
311 676 198 69 50 43
326 524 141 200 12 44
326 529 145 200 12 45
331 519 140 194 11 41
332 516 138 197 11 56
336 519 145 194 11 43
330 523 141 197 11 43
408 695 226 95 56 32
330 528 146 195 12 46
333 526 148 185 10 43
336 524 149 182 7 36
336 529 151 178 4 35
460 974 284 102 83 66
322 536 148 198 12 41
325 533 147 201 12 45
306 930 209 80 72 72
326 539 151 184 7 38
324 542 152 174 3 50
326 544 154 168 3 36
377 810 277 83 66 59
331 534 151 177 3 35
336 533 152 171 0 35
411 926 275 45 41 39
330 538 152 173 0 35
336 539 154 160 0 31
341 514 145 188 10 40
419 828 217 88 65 57
340 518 146 189 10 40
440 568 215 172 18 52
342 520 149 179 4 38
343 516 148 181 4 33
345 513 146 179 5 36
378 958 290 95 81 68
361 859 184 91 74 66
346 519 149 156 2 32
351 514 149 150 1 32
351 519 149 64 25 35
346 524 151 159 2 34
311 954 324 75 69 67
387 849 210 75 58 52
346 529 152 156 2 34
396 886 239 88 73 60
351 524 151 82 25 36
341 534 153 146 3 32
341 544 156 162 0 31
346 531 153 142 5 32
342 872 180 101 93 90
346 534 153 79 19 32
351 534 154 91 29 40
351 544 157 157 9 41
326 549 156 72 30 36
436 809 235 96 67 51
331 549 156 128 17 38
281 889 249 101 84 66
328 551 158 90 41 43
331 551 158 60 34 39
381 854 200 70 61 59
336 548 157 107 8 31
331 684 205 55 39 42
336 550 158 81 31 38
271 909 245 85 73 65
331 554 159 84 32 36
341 548 157 160 1 37
258 551 292 114 3 34
341 554 160 124 18 36
345 547 157 170 0 36
346 549 158 174 0 36
391 964 309 84 69 57
351 549 159 180 5 35
349 694 187 49 43 43
346 554 160 177 4 38
326 562 162 138 16 41
326 569 165 133 16 35
262 784 232 74 59 49
326 575 168 110 27 39
331 569 166 118 21 38
335 562 162 143 13 36
336 569 166 193 9 40
331 574 169 102 23 36
336 574 170 202 12 42
346 558 162 122 12 38
351 554 161 182 6 38
257 679 295 100 75 65
351 557 162 179 4 41
341 561 163 133 29 47
371 834 270 65 52 50
342 570 168 199 10 41
341 574 170 203 11 42
436 764 214 98 70 52
346 564 165 177 9 40
346 568 167 185 13 45
351 567 167 121 38 48
346 574 171 186 9 43
416 724 200 75 52 41
356 514 149 155 1 32
310 975 244 85 80 82
356 519 150 97 17 32
361 519 150 162 3 36
366 514 151 168 1 34
361 529 153 105 22 36
288 921 212 57 52 55
378 806 189 49 42 41
363 526 153 98 13 37
367 525 153 136 14 37
356 530 153 77 32 37
356 534 154 73 29 33
337 820 183 69 56 48
361 534 155 121 27 39
356 539 156 43 36 40
356 543 157 73 25 39
361 539 156 49 34 39
356 545 158 164 10 38
359 542 157 26 33 42
366 534 156 77 32 37
501 937 200 103 88 77
398 524 272 155 4 48
362 541 158 48 33 36
306 759 180 77 58 45
365 538 157 71 34 40
366 539 158 81 31 37
286 689 314 39 30 30
366 544 160 78 29 38
370 514 152 168 3 40
344 897 197 53 48 50
376 514 155 160 1 35
371 529 156 107 26 39
412 700 224 80 57 42
374 527 157 76 26 27
379 514 157 157 1 36
381 514 159 136 3 32
381 519 160 75 23 33
411 825 209 68 55 51
378 520 158 126 16 38
328 778 179 66 51 49
372 530 158 72 30 29
371 534 159 50 35 41
366 764 189 72 55 48
380 685 210 60 42 43
371 539 160 55 36 39
383 525 163 41 30 34
382 529 164 103 21 36
370 543 162 49 34 39
291 870 309 135 109 81
372 545 164 46 36 39
376 544 165 44 36 39
410 880 210 93 79 65
379 532 162 101 20 34
321 980 265 66 61 60
381 534 164 114 25 39
381 539 166 66 28 37
317 774 176 65 51 42
380 543 167 42 31 35
356 549 160 180 5 39
361 549 161 147 11 38
331 759 179 63 49 42
357 556 163 180 6 43
361 555 163 145 13 39
366 548 162 78 31 40
265 724 234 120 13 35
366 559 166 65 36 38
320 799 179 86 66 51
356 564 166 89 34 41
361 563 167 71 35 35
356 569 169 74 31 36
361 565 169 132 24 43
361 569 171 104 26 41
356 573 172 138 27 48
352 576 173 187 12 38
356 575 173 138 18 39
408 690 235 85 56 41
361 574 174 52 36 39
364 562 167 56 33 42
367 561 168 55 40 35
366 568 171 154 17 44
363 571 173 34 33 45
441 909 205 93 83 75
367 570 173 75 32 39
369 547 162 51 36 29
371 549 164 58 32 38
375 549 166 76 31 38
429 769 263 166 117 82
377 550 169 117 25 41
371 554 166 93 27 38
375 925 260 48 40 41
291 809 300 72 59 54
296 899 225 60 53 49
370 558 167 46 36 42
371 559 169 58 36 38
375 558 171 91 33 39
361 654 214 96 24 32
382 554 174 78 30 40
308 894 196 71 64 65
370 567 172 120 20 38
374 562 172 47 29 34
411 619 235 106 52 40
375 568 177 67 36 40
370 573 177 92 31 38
368 576 178 177 21 50
348 899 287 46 44 44
380 563 177 64 28 35
381 569 180 133 19 42
387 784 190 63 48 43
380 573 182 186 14 47
383 571 183 159 14 50
432 570 235 48 26 30
326 579 171 149 19 43
326 581 173 195 12 42
329 872 187 62 55 55
326 584 174 209 12 44
385 789 194 79 58 51
336 578 172 208 14 47
336 581 173 205 12 43
336 584 175 203 11 43
326 590 179 210 12 46
330 587 177 206 12 45
331 590 178 206 12 43
370 628 207 110 26 40
336 587 177 206 12 43
261 729 309 126 58 54
376 554 300 154 117 86
336 589 179 207 11 44
322 597 182 208 12 44
341 568 292 147 14 45
326 594 181 208 12 45
324 597 182 209 12 45
326 599 184 206 11 46
353 677 302 122 26 45
326 606 188 125 17 39
328 596 183 206 11 47
331 599 184 190 8 40
287 891 237 126 96 65
336 593 181 170 9 39
275 919 317 147 111 96
267 919 314 106 89 87
331 605 188 157 10 40
331 609 190 53 34 39
401 604 284 177 122 88
336 602 187 167 14 41
336 605 188 183 9 43
336 609 191 121 18 40
316 764 310 81 65 55
346 579 174 195 9 42
492 955 241 90 75 63
349 577 172 194 9 36
351 579 175 188 8 39
346 884 281 50 44 41
341 589 179 176 14 44
405 935 289 51 41 33
342 586 178 200 11 41
346 586 178 187 7 38
289 699 218 102 23 34
346 589 180 102 24 38
351 585 178 174 9 44
351 589 181 74 29 38
341 593 182 68 28 35
341 595 183 47 33 36
431 909 215 96 81 71
341 599 186 49 36 38
341 605 189 97 23 42
345 592 182 52 35 41
346 595 184 81 35 39
350 592 182 46 34 41
443 652 235 134 102 71
346 599 186 89 34 42
351 598 186 80 35 41
326 805 179 84 64 51
346 601 188 61 33 43
346 604 189 43 35 41
269 669 296 33 27 26
426 539 184 165 5 38
346 608 192 106 31 42
351 604 190 49 35 40
396 809 195 72 58 51
351 608 192 54 35 37
398 755 282 72 24 30
361 578 176 107 18 40
396 569 186 156 3 34
355 582 177 199 10 49
386 669 275 128 17 42
382 693 296 132 8 40
356 584 179 176 17 46
358 581 178 198 10 49
362 580 178 188 9 40
277 729 319 171 17 55
356 588 181 96 33 41
271 644 300 99 48 44
352 591 183 46 34 42
361 588 182 48 32 40
361 590 184 43 35 42
365 577 177 144 20 41
390 519 278 113 17 40
366 583 181 136 13 38
364 587 182 46 28 32
366 589 184 77 35 43
366 890 224 65 56 53
367 585 183 136 20 40
356 594 185 62 38 41
407 694 235 80 52 38
356 598 187 54 36 41
321 939 320 39 37 37
286 965 240 79 76 79
356 600 188 60 35 35
393 568 285 134 103 70
356 604 190 79 34 41
366 593 186 57 32 38
362 694 196 57 43 37
366 599 189 109 28 39
366 603 191 123 32 44
327 903 301 140 108 85
285 858 275 81 60 54
371 579 181 184 9 43
376 579 184 168 2 39
384 513 277 51 21 23
373 581 183 177 6 38
376 584 185 142 6 37
309 774 183 81 61 47
371 589 186 69 31 38
375 588 187 54 37 40
377 590 188 44 38 39
396 669 245 70 28 32
381 584 187 109 13 33
382 585 188 49 27 36
439 796 227 123 84 61
328 683 152 103 77 58
371 599 191 116 28 41
381 594 191 159 17 43
326 612 192 40 35 42
379 926 308 40 37 38
287 519 299 94 17 34
326 624 199 93 30 39
351 624 305 60 29 34
331 615 194 53 37 40
336 614 194 56 34 37
331 619 196 52 35 38
282 535 299 92 15 31
271 674 235 102 31 40
331 621 198 47 35 37
336 618 196 93 37 44
336 621 198 89 25 31
336 624 199 86 37 42
326 628 202 98 33 42
326 630 203 78 28 33
281 789 308 65 54 49
326 639 206 71 33 38
420 790 206 93 69 51
336 628 202 74 35 40
331 634 204 65 32 36
336 639 206 59 32 36
341 614 194 103 32 41
341 620 198 84 32 39
341 624 200 62 36 39
346 611 193 99 24 35
346 618 197 58 33 35
384 701 303 128 6 40
346 620 198 48 36 37
351 617 197 76 34 38
356 579 290 132 14 42
351 620 198 93 36 42
341 628 202 103 27 39
341 630 203 144 17 41
321 749 182 58 45 39
341 639 206 75 29 37
512 924 196 95 81 68
346 628 202 74 31 39
351 629 204 69 33 37
351 634 206 77 32 37
289 862 292 75 61 44
414 773 202 85 65 51
351 640 208 109 28 39
356 609 194 88 34 39
360 607 192 65 27 37
366 609 195 92 37 42
371 605 193 97 32 40
371 609 196 96 33 41
377 600 193 95 26 34
273 852 269 63 51 48
376 604 194 59 34 37
381 604 195 97 30 39
506 926 187 111 93 75
295 971 248 103 94 95
380 608 197 78 31 38
461 988 271 97 81 64
382 610 199 79 30 36
361 614 196 80 32 37
355 617 197 51 37 39
358 616 198 119 36 45
283 733 323 168 22 59
361 616 198 135 31 45
291 849 241 156 105 79
361 619 199 159 18 42
361 623 202 156 23 46
366 615 198 79 35 41
317 798 181 75 59 49
286 674 309 40 28 30
366 619 200 65 33 37
365 622 202 85 32 41
374 889 212 70 64 61
354 627 202 66 38 41
434 537 248 173 15 59
358 626 203 72 24 30
334 722 182 58 46 36
356 634 206 63 33 36
355 637 207 60 30 34
419 553 253 59 21 29
366 629 206 115 29 41
356 639 208 68 33 36
358 636 208 69 33 39
336 784 298 81 63 56
420 689 224 93 72 47
362 635 208 63 34 38
361 639 209 59 34 39
371 929 269 62 51 50
366 639 211 78 32 38
370 613 197 106 33 44
377 611 198 55 35 40
374 612 197 97 17 34
348 901 214 65 60 59
376 614 200 105 30 42
371 624 205 103 31 40
372 621 203 36 34 39
300 739 184 61 48 36
375 618 202 100 33 44
337 874 281 159 126 101
381 614 201 80 32 38
401 829 206 78 63 56
354 902 222 62 58 60
379 617 202 108 31 31
311 679 206 68 41 37
381 619 205 113 26 41
288 541 313 133 102 83
379 622 207 157 45 64
350 728 312 109 21 40
377 625 208 113 25 37
382 621 208 73 22 32
374 627 207 168 19 47
393 889 238 81 66 55
372 630 209 98 26 38
371 634 210 126 25 42
331 664 213 82 33 32
369 637 212 95 23 32
368 640 213 114 29 43
371 639 215 102 22 36
372 636 213 141 16 45
375 632 212 65 25 32
376 634 214 139 19 40
425 629 269 154 109 74
375 638 216 148 19 44
276 589 319 166 120 94
380 628 212 79 34 41
436 739 215 114 80 51
381 630 214 82 33 41
409 602 212 99 33 43
378 630 213 137 37 57
383 626 213 45 38 40
382 635 219 58 27 37
378 636 218 122 11 49
291 839 236 61 52 51
380 638 221 63 31 36
382 639 224 87 28 35
302 675 186 77 55 40
302 679 186 79 56 40
301 688 184 83 58 47
298 689 185 67 50 40
300 684 190 68 50 40
333 734 312 158 21 55
269 661 238 149 6 42
300 690 182 83 56 46
386 730 182 65 50 38
300 693 182 80 55 46
298 693 185 70 51 42
301 694 185 75 54 44
274 932 223 68 63 66
297 694 190 72 55 45
300 699 190 70 54 43
303 703 187 64 48 37
312 684 176 74 47 39
316 684 175 75 48 40
281 844 241 73 60 55
316 689 175 66 47 38
321 686 171 78 55 41
318 686 170 79 53 45
360 944 275 90 84 85
317 689 171 73 52 42
284 851 272 122 80 64
321 689 175 69 51 40
307 680 186 82 60 43
306 679 190 79 54 40
341 749 181 57 46 38
311 679 190 76 51 43
486 935 226 89 72 58
308 683 181 82 61 46
406 789 274 173 128 94
306 684 185 82 60 46
293 771 210 60 45 42
311 681 180 92 60 52
312 681 177 83 49 44
308 681 181 87 64 50
311 680 185 89 61 50
439 679 222 148 109 76
393 692 213 49 41 41
309 686 183 76 59 47
310 689 184 73 55 45
304 682 188 86 60 38
316 680 185 97 74 55
317 676 191 71 51 43
321 679 185 96 64 49
321 677 189 77 53 40
316 681 180 85 62 44
313 687 177 69 44 40
318 682 178 82 60 44
317 694 172 82 60 47
437 669 257 173 120 90
355 514 304 145 109 82
320 692 176 67 51 39
315 699 175 75 55 43
370 775 174 72 57 47
315 704 175 76 55 43
326 829 287 174 129 106
265 949 235 70 64 65
310 894 194 81 71 71
321 699 171 83 59 47
275 649 229 146 10 36
317 704 171 80 58 45
310 693 183 73 54 43
314 693 179 63 45 39
306 694 184 81 58 46
407 883 212 96 80 65
312 695 181 64 46 38
312 699 180 65 47 40
310 704 184 56 43 37
330 957 310 67 55 48
312 704 180 61 48 40
301 744 325 186 16 60
314 690 179 62 43 36
280 644 224 137 13 36
278 520 297 116 11 36
281 649 224 108 23 36
283 647 222 90 28 32
399 762 278 33 33 39
281 654 225 140 15 35
287 654 221 136 14 33
286 664 221 132 15 30
281 669 225 126 19 35
286 669 221 125 19 31
263 643 241 170 13 45
267 644 236 164 10 42
381 644 280 101 20 38
264 640 238 147 14 37
265 644 239 170 10 43
265 649 240 157 7 41
269 641 233 168 8 40
270 649 234 151 8 39
321 904 309 166 122 98
268 653 237 160 6 42
266 654 240 161 7 43
261 644 245 162 11 44
428 801 213 92 69 56
349 933 227 67 61 61
263 649 246 160 8 44
336 524 306 160 113 97
260 644 250 158 10 44
301 829 230 68 55 50
257 643 255 168 13 48
259 645 254 176 8 46
437 654 256 150 107 70
261 649 250 156 5 42
260 654 255 157 2 41
264 649 243 157 10 41
267 659 240 153 6 40
476 1005 285 86 74 63
271 659 235 148 6 37
396 849 220 71 56 49
268 657 237 154 9 42
336 964 290 65 57 53
293 902 317 175 129 104
269 664 238 124 13 40
282 729 222 136 3 31
271 669 235 85 27 35
368 512 282 86 21 33
269 668 238 121 21 37
263 659 246 154 6 40
430 818 219 92 67 53
386 829 210 61 48 45
270 689 234 45 35 37
263 664 246 150 5 40
260 664 255 139 6 38
263 669 247 142 6 37
262 669 250 131 12 39
260 669 255 96 19 35
392 560 183 124 18 37
264 659 244 154 6 40
277 644 226 151 3 36
275 644 228 153 2 37
278 653 227 143 16 38
355 949 265 75 73 75
276 659 230 140 11 35
381 848 254 43 37 36
341 769 301 82 65 58
276 664 230 135 15 35
281 659 225 135 16 34
279 656 228 139 14 35
279 659 228 136 12 33
382 885 266 47 40 37
276 669 230 115 23 35
371 839 195 71 58 56
278 668 227 129 22 32
434 953 266 95 81 71
295 679 214 92 29 34
273 670 232 104 27 39
281 679 225 59 37 38
400 626 277 170 104 88
286 674 221 91 29 34
284 674 223 62 34 36
421 961 288 93 77 67
396 940 270 79 61 51
272 848 251 54 47 50
287 679 221 95 25 34
330 904 299 128 99 78
284 684 223 93 28 34
286 684 221 104 22 33
391 909 235 86 70 60
377 683 209 62 41 42
283 691 222 89 29 37
451 928 230 89 70 52
280 694 224 93 28 36
266 968 299 56 51 51
283 694 222 78 27 36
286 694 220 81 28 36
280 699 224 88 30 35
435 803 226 107 73 55
282 699 222 105 26 37
323 927 173 54 50 48
422 539 256 41 26 30
280 704 223 57 34 37
286 699 220 106 22 34
286 704 219 87 28 35
267 674 240 82 28 38
412 734 190 67 52 40
266 679 240 94 28 38
271 679 235 72 34 38
268 689 236 80 29 36
265 689 240 109 19 36
270 684 234 44 34 37
268 684 237 53 29 36
263 674 247 129 20 41
333 788 167 61 50 43
319 816 188 69 58 56
263 679 246 94 32 38
260 674 255 69 31 36
261 679 250 87 26 36
263 684 246 80 30 36
411 534 264 99 32 43
262 689 245 65 33 37
390 869 225 74 66 62
259 684 254 78 31 38
261 684 250 91 29 37
260 689 250 60 31 36
264 679 244 93 24 37
264 684 244 91 22 35
262 704 241 105 18 35
261 684 290 37 23 24
272 694 231 45 35 39
267 694 236 79 32 38
265 694 239 81 30 39
280 966 249 93 89 90
269 694 234 53 35 38
371 659 220 49 32 33
271 704 230 67 35 37
428 576 237 160 20 56
267 699 235 49 35 39
264 699 239 53 33 38
264 703 238 67 32 38
269 699 233 51 35 39
368 623 291 87 30 38
263 695 242 49 31 36
369 709 192 67 51 41
261 694 245 56 31 37
258 695 251 71 26 35
397 615 214 70 31 40
260 704 245 129 4 34
257 699 251 123 10 38
259 698 249 134 8 38
259 702 248 134 9 36
412 754 194 66 49 41
276 679 230 53 36 38
326 599 301 149 18 48
279 672 228 95 28 32
278 679 227 53 38 40
273 674 232 104 33 41
411 839 220 70 57 51
273 684 232 45 37 38
275 684 229 50 37 39
361 629 300 138 22 46
275 689 229 47 36 38
278 685 227 56 38 40
416 899 229 91 78 67
277 689 227 77 32 37
277 694 226 78 31 36
274 694 228 49 34 38
276 699 226 74 33 37
274 699 228 79 32 38
394 659 250 40 27 31
276 704 226 70 33 36
274 702 228 89 27 32
292 644 216 57 32 37
396 834 266 181 126 98
406 584 256 65 29 34
296 644 215 114 25 39
296 649 215 127 13 31
290 649 218 127 14 34
454 891 200 93 85 78
292 649 217 130 12 34
293 653 217 137 9 32
300 645 213 106 23 34
456 907 199 104 93 83
301 649 214 122 17 30
311 848 292 156 124 99
301 654 214 124 16 31
296 659 215 128 20 30
412 967 296 83 67 50
295 664 214 125 19 28
457 513 188 126 16 32
290 664 218 137 11 29
293 659 217 133 12 32
292 664 216 131 12 30
297 665 211 123 20 27
314 820 193 64 52 49
296 669 211 109 28 29
292 669 216 124 18 30
290 669 218 127 13 30
300 665 211 126 25 28
301 663 213 126 16 26
426 749 262 172 117 87
301 669 210 105 34 30
276 614 315 171 115 93
321 642 207 118 28 38
399 617 217 105 26 38
306 644 211 97 28 37
261 599 319 145 108 81
304 649 213 123 16 32
304 655 213 122 12 30
316 644 209 105 24 37
321 644 208 78 31 35
316 654 210 95 25 32
321 671 207 64 44 40
351 954 305 59 49 45
277 700 314 68 17 28
307 657 212 100 20 29
309 660 213 88 29 31
310 664 213 108 20 28
409 597 207 189 18 45
312 664 212 102 24 28
261 844 260 85 66 61
306 667 213 102 23 29
306 670 211 87 28 35
433 937 242 105 87 75
433 556 193 115 40 45
309 667 213 91 26 30
292 942 210 82 76 77
316 659 211 68 34 35
316 664 212 93 28 31
321 664 212 82 29 35
329 642 308 114 51 57
318 666 213 83 32 30
317 669 213 55 35 39
471 1004 281 87 74 62
391 839 209 75 58 51
341 900 205 62 58 60
322 665 213 84 29 34
410 734 262 114 69 54
321 669 210 62 37 40
301 674 195 72 47 38
455 548 206 101 21 42
300 679 195 75 53 44
301 679 207 68 46 39
302 676 207 71 38 37
301 684 200 65 48 41
297 690 200 67 48 39
300 687 201 68 49 41
302 684 207 66 49 42
401 729 280 160 18 50
301 689 205 68 46 41
292 674 216 121 22 31
297 674 211 96 30 34
390 979 290 94 80 68
295 674 214 109 24 31
440 734 216 125 87 59
290 674 218 113 19 34
292 679 216 112 19 35
327 645 307 143 27 52
323 572 297 43 28 30
295 684 214 98 27 33
296 689 210 75 37 36
294 688 214 86 30 32
290 684 218 117 17 33
352 584 292 152 9 47
292 684 217 112 23 32
290 689 218 103 21 32
301 674 209 86 35 32
299 680 208 71 45 36
297 684 210 71 37 33
371 564 302 178 129 99
300 684 208 68 43 35
299 688 208 71 42 37
296 694 200 65 47 39
297 694 205 64 41 35
297 690 195 69 53 43
298 691 205 65 42 35
452 942 234 106 84 69
411 704 255 90 49 34
298 699 195 66 51 42
299 700 193 62 49 39
298 699 200 62 47 39
298 704 196 58 45 36
299 700 202 57 44 38
295 754 200 59 46 41
300 704 205 57 39 35
292 694 216 82 30 33
289 694 218 89 28 33
296 699 214 77 32 34
289 704 218 102 24 33
300 696 210 62 35 32
434 714 217 125 93 64
298 697 212 73 37 34
301 699 211 65 40 36
300 704 210 62 39 36
306 675 195 73 47 39
306 679 199 68 45 40
311 675 195 69 50 40
309 677 193 83 53 47
311 679 199 70 48 43
306 688 205 68 51 43
427 926 250 66 54 43
305 687 202 69 54 44
311 685 205 66 40 37
387 765 292 89 72 65
311 687 204 66 41 38
316 679 200 68 46 41
321 676 195 75 50 43
321 677 197 72 49 42
319 676 198 68 44 41
321 679 199 69 47 42
316 674 207 67 42 38
316 679 206 65 42 38
321 674 206 70 45 39
434 514 253 60 28 33
316 683 201 67 45 40
353 949 311 77 64 56
316 684 205 64 42 38
382 694 199 59 45 41
306 674 209 82 34 34
316 672 209 65 36 41
304 699 206 57 44 38
298 715 192 58 46 37
286 904 321 175 129 105
299 718 188 60 48 39
302 715 186 57 44 37
300 729 184 61 47 37
303 726 182 66 51 40
481 939 220 122 104 88
302 730 182 62 47 36
298 721 187 59 47 36
298 724 187 59 47 37
297 724 190 56 46 36
346 779 185 60 46 44
306 749 174 65 48 37
297 729 190 59 47 37
282 840 286 62 48 44
300 734 185 60 48 38
298 734 187 62 49 38
411 795 196 70 54 44
298 734 190 64 50 40
315 708 174 76 56 45
312 710 176 70 52 43
317 709 172 74 54 43
431 574 205 106 25 41
321 709 172 68 50 42
316 719 165 84 60 47
318 720 162 93 68 55
313 715 171 75 57 42
316 714 170 80 59 49
304 515 308 146 109 86
314 712 173 74 55 43
314 717 168 89 64 51
371 779 170 77 60 45
277 559 310 120 93 70
311 709 180 58 46 39
309 709 184 55 44 39
304 706 188 64 51 40
374 777 293 94 72 62
287 705 323 41 29 30
307 715 181 56 43 39
306 714 185 54 43 38
265 653 300 108 70 56
307 719 180 58 46 41
309 717 178 60 47 41
312 724 170 76 56 43
309 724 175 71 53 41
352 741 182 71 55 46
308 724 175 70 52 41
431 749 259 174 117 88
286 699 319 57 29 32
306 734 175 71 53 42
308 734 172 75 55 42
316 723 166 85 60 44
321 723 166 67 52 39
316 729 170 62 48 40
322 725 169 67 52 43
257 649 265 127 17 40
315 734 172 62 49 41
265 679 292 37 26 25
322 729 175 72 56 46
304 722 183 63 48 39
310 725 179 65 52 43
303 749 176 74 55 41
301 744 180 65 50 39
420 513 177 55 38 39
299 744 184 63 49 39
302 739 180 66 51 40
291 975 305 60 55 53
303 740 177 69 52 40
303 744 177 71 53 39
416 940 264 102 83 68
298 740 186 63 49 39
396 969 306 80 64 51
298 744 186 64 49 40
301 749 180 68 52 40
356 684 304 65 28 33
300 754 185 73 56 45
331 679 206 54 41 42
302 759 185 75 58 46
333 912 302 103 78 66
303 758 182 76 59 46
298 752 187 67 52 44
298 754 190 64 49 42
299 755 188 65 51 42
300 764 189 68 52 43
301 769 190 66 51 43
303 767 187 79 59 47
321 879 297 167 132 107
363 891 200 69 64 64
356 780 187 56 43 39
306 744 174 67 50 37
310 744 176 69 53 45
309 749 176 67 50 43
334 967 246 79 73 75
383 649 228 37 35 37
316 739 175 67 53 46
304 737 178 63 49 37
312 749 179 74 56 49
346 714 314 33 28 30
316 744 181 74 57 49
315 749 182 75 58 51
317 749 183 69 53 43
396 762 186 66 51 40
318 746 183 70 55 45
319 746 183 65 51 43
319 749 183 62 48 40
394 654 240 73 33 32
306 754 175 75 56 43
