ply
format ascii 1.0
comment Created by Open3D
element vertex 2220
property double x
property double y
property double z
property uchar red
property uchar green
property uchar blue
end_header
281 566 186 61 31 26
284 484 358 65 39 30
312 114 340 113 94 74
309 400 184 146 1 10
384 705 198 46 39 34
354 436 404 113 29 43
314 120 343 112 93 72
393 873 299 33 29 30
317 114 345 114 94 71
264 605 198 55 31 32
289 415 177 97 26 27
364 900 223 63 57 56
319 125 347 112 92 70
299 464 383 69 44 33
344 475 378 119 23 43
343 245 328 120 94 61
324 14 308 111 55 48
320 13 311 111 62 52
329 16 304 116 38 42
294 330 268 69 59 48
382 676 282 59 20 28
329 13 313 100 58 49
295 455 181 36 34 32
253 524 346 64 28 26
277 370 330 127 94 69
327 12 318 93 66 55
269 725 167 114 89 59
332 747 325 158 15 50
333 320 323 115 90 61
352 575 220 90 25 35
280 440 158 95 1 26
329 13 318 95 66 55
259 410 153 108 68 51
333 16 309 100 37 40
334 15 313 106 45 46
312 380 250 88 75 61
361 679 345 140 97 64
443 830 278 106 83 68
349 935 344 68 62 60
323 17 299 129 46 48
283 621 304 36 30 33
324 25 299 130 46 46
278 268 225 148 102 71
359 852 143 89 71 54
289 385 342 126 97 68
324 30 302 133 84 66
286 388 280 71 49 41
326 27 301 137 107 83
355 853 145 96 75 55
324 459 392 53 25 31
329 30 303 129 37 44
330 20 302 130 31 44
289 842 274 106 87 65
269 445 348 91 7 31
332 20 304 127 28 44
272 611 299 107 29 42
288 832 204 55 33 41
414 405 313 54 25 28
334 20 308 110 27 39
318 258 306 103 84 61
413 938 352 82 69 57
282 279 316 94 76 55
332 24 305 123 33 42
292 752 269 76 60 53
319 605 367 164 116 84
333 25 308 117 48 47
374 505 366 143 11 46
296 200 341 115 94 72
271 316 321 122 88 65
336 20 318 105 26 39
331 27 306 110 75 53
404 435 258 148 11 37
282 351 239 98 82 69
335 30 313 106 36 40
336 25 318 103 32 41
336 29 317 68 54 43
368 676 198 89 61 46
337 31 319 59 48 39
294 315 339 127 97 70
378 729 192 61 46 36
386 500 247 150 13 39
337 185 320 120 97 70
374 834 298 49 33 30
394 945 343 72 61 54
324 35 303 124 39 40
282 919 236 65 59 60
328 38 305 136 22 38
289 375 283 83 62 48
273 400 303 110 72 55
256 748 225 156 0 46
411 699 260 51 41 30
324 41 306 135 92 71
279 315 293 81 65 49
329 40 307 133 57 54
280 385 284 72 51 42
290 460 149 88 0 32
329 45 308 132 106 80
269 290 233 100 79 54
333 35 308 111 64 50
336 35 312 110 28 34
321 470 175 135 7 31
340 915 213 72 66 68
333 40 309 126 24 38
335 40 312 117 26 37
279 525 343 58 27 28
245 700 184 132 92 58
328 55 310 132 40 45
336 587 201 168 7 33
339 875 168 93 77 70
415 475 303 84 26 33
334 905 193 75 64 58
424 455 348 129 23 45
327 58 310 128 102 72
359 490 228 52 32 33
408 780 318 164 112 78
394 490 374 90 18 38
329 60 311 123 51 46
394 419 378 62 14 24
360 505 226 65 26 31
329 65 312 137 27 42
254 620 187 131 98 62
384 405 308 70 51 46
318 862 306 148 114 82
331 52 311 141 8 40
314 185 316 103 86 68
335 50 312 129 24 40
309 475 184 122 7 35
262 546 368 206 145 121
269 255 270 86 72 58
416 461 301 74 38 40
289 805 165 170 118 81
357 808 190 59 51 53
383 868 110 108 90 74
334 55 313 123 41 43
275 480 307 120 9 39
329 470 172 101 21 35
337 36 314 95 41 37
336 45 316 89 72 62
337 50 315 110 43 41
272 636 284 49 30 34
406 522 311 169 14 49
339 60 363 87 30 34
243 685 209 161 116 94
288 310 334 126 95 67
280 310 293 83 67 50
275 865 273 140 111 83
338 55 318 114 59 52
287 261 262 117 94 67
284 375 228 104 90 76
324 12 323 86 68 57
324 620 365 163 113 82
323 12 328 84 68 58
311 182 351 118 95 71
327 12 322 89 69 57
254 670 184 121 88 53
326 13 324 86 69 57
324 13 333 84 70 60
365 580 238 155 19 45
343 190 333 121 95 64
333 16 323 91 71 59
365 59 347 89 63 45
315 165 351 116 93 67
392 533 351 66 17 29
258 470 146 153 1 36
311 782 166 141 98 63
324 15 338 89 76 64
377 585 260 45 28 33
321 90 351 102 21 37
288 280 253 127 96 70
299 890 237 93 68 41
224 575 190 140 104 66
335 20 323 94 59 49
302 184 326 100 84 67
335 25 333 106 90 75
354 103 361 135 13 50
329 20 338 95 81 68
300 847 260 101 77 53
264 435 143 93 28 31
335 140 326 118 96 70
259 420 291 130 2 40
350 55 332 80 39 30
329 45 354 83 30 32
489 811 268 85 66 45
329 25 343 100 86 71
352 454 225 73 29 33
313 246 306 101 83 61
349 755 333 183 129 103
291 220 329 111 90 68
412 459 289 75 34 40
323 26 346 98 82 64
324 30 348 84 58 46
392 488 255 179 19 45
330 29 344 101 86 72
368 420 245 117 11 22
332 22 336 101 85 70
352 405 234 59 33 33
366 912 237 77 69 68
335 30 338 100 86 72
339 225 348 127 97 62
336 24 323 94 32 36
235 614 185 141 103 65
364 426 403 98 15 34
323 125 350 113 91 68
289 360 278 82 66 51
396 545 282 93 30 41
337 26 323 93 28 36
306 610 340 144 89 74
379 920 319 72 63 58
347 441 202 108 4 31
271 906 306 163 129 107
297 190 338 114 94 73
338 30 333 103 90 77
234 615 217 143 100 81
337 32 336 106 91 77
329 35 348 97 83 68
328 37 351 72 29 24
359 719 351 184 129 104
314 839 273 92 73 51
324 40 353 91 28 37
304 438 115 157 9 43
245 620 223 69 43 43
369 75 343 136 16 41
353 412 331 68 55 46
255 740 248 123 27 48
335 34 343 96 82 69
334 140 350 119 94 63
331 33 345 101 87 74
349 625 338 98 32 40
423 869 294 112 87 69
330 38 350 99 85 70
334 45 353 88 69 56
277 326 240 92 78 64
333 355 294 91 80 70
363 90 344 147 13 44
323 65 349 100 66 58
276 297 310 94 75 55
340 35 328 65 32 29
334 396 198 66 32 30
341 39 322 98 30 34
275 400 299 99 64 52
354 476 379 100 21 40
306 452 404 75 11 24
342 41 324 94 26 34
385 580 278 83 28 39
372 923 258 67 60 60
343 40 333 84 66 55
341 45 321 101 32 35
338 36 342 96 80 66
340 39 344 96 79 65
411 736 241 75 60 48
343 40 338 99 87 76
304 800 165 152 105 69
343 41 343 99 83 69
336 43 350 103 90 77
268 412 153 114 70 50
339 44 349 99 87 75
339 46 352 100 87 75
367 650 244 78 29 33
284 450 347 112 79 62
376 500 236 125 5 29
244 590 189 115 87 56
345 44 343 97 83 69
323 495 181 147 6 39
342 42 346 88 74 57
199 514 221 148 111 100
334 125 327 120 95 66
357 655 338 150 107 74
268 821 205 180 133 109
344 45 348 93 81 67
342 47 351 95 84 72
389 791 212 65 54 51
318 145 350 113 91 67
279 655 283 109 29 43
346 44 338 97 86 76
319 595 197 158 3 33
405 460 268 177 15 46
337 166 351 119 92 59
348 46 343 97 85 72
340 55 322 110 36 34
343 50 323 109 29 36
314 500 184 53 30 33
358 856 152 111 90 69
289 425 174 90 17 26
258 523 406 161 107 88
403 485 278 166 12 41
272 502 376 75 26 33
341 52 321 114 23 32
273 414 328 105 66 52
371 612 261 92 20 30
273 355 297 89 59 41
297 235 345 117 94 68
280 490 163 98 0 32
343 55 324 86 43 37
330 477 375 51 21 29
341 65 321 120 24 36
379 765 347 178 125 95
346 48 331 82 38 35
349 60 328 114 31 39
346 65 326 110 52 44
351 59 331 101 37 31
350 49 338 91 82 73
278 461 351 94 58 47
345 48 350 93 82 70
256 705 228 134 12 42
349 49 348 95 84 72
326 50 356 105 22 40
449 765 228 77 66 56
329 50 357 94 28 35
336 880 294 140 102 79
306 180 346 112 92 70
329 55 357 97 25 37
330 65 357 94 27 36
371 688 326 109 87 62
376 857 276 38 34 32
401 398 261 120 31 36
319 449 407 53 26 30
299 360 258 74 63 53
334 55 359 74 37 36
333 60 360 92 26 36
389 775 198 64 51 48
275 510 303 138 0 42
334 65 359 89 60 53
363 940 263 65 58 59
234 515 193 170 1 37
306 686 311 110 7 32
335 60 361 92 25 35
336 64 361 88 57 51
339 730 164 64 50 45
339 49 354 97 85 74
254 531 399 203 142 120
241 573 196 86 56 43
286 425 154 95 0 36
293 950 253 78 76 79
339 54 359 84 48 42
253 620 258 184 10 56
256 640 233 77 30 37
416 486 328 172 11 45
284 360 283 80 58 43
357 109 339 136 20 43
344 54 359 92 81 71
355 394 288 73 64 55
264 445 342 92 19 32
339 57 361 78 33 32
278 860 273 151 121 91
310 195 351 117 94 69
274 510 348 32 27 30
387 483 245 146 12 35
339 65 364 95 40 44
334 395 178 80 42 37
344 57 362 80 60 45
357 840 190 57 51 51
273 465 343 81 27 32
366 20 355 91 40 38
367 20 355 91 40 38
365 17 357 91 39 38
354 500 367 155 10 48
270 930 253 58 55 57
386 775 345 179 122 91
368 20 357 91 42 37
367 25 355 91 39 38
366 28 355 93 38 39
319 155 351 116 92 66
261 544 170 79 41 41
476 803 263 65 52 39
309 190 317 100 84 67
423 823 240 48 41 40
326 724 160 63 51 41
383 925 313 85 75 75
393 418 364 61 15 22
367 28 355 92 39 38
365 30 357 94 36 39
297 200 327 104 87 68
277 340 239 94 82 69
367 30 357 95 36 39
354 60 333 95 32 26
336 898 305 71 56 47
299 795 248 58 45 42
291 270 243 134 98 72
334 830 274 143 110 85
232 572 190 123 95 64
354 65 332 101 54 40
322 351 280 74 66 61
358 65 335 111 46 40
354 51 343 98 86 74
264 685 258 142 3 44
256 574 190 67 33 34
300 866 245 118 90 62
354 51 348 99 86 72
307 179 322 100 84 67
320 485 179 99 11 32
283 629 195 57 34 36
357 52 345 101 87 74
360 52 354 98 82 67
269 575 303 144 0 43
356 58 336 74 27 25
359 60 338 88 39 23
345 410 334 73 62 50
366 582 241 176 21 47
374 650 273 142 15 43
333 235 352 131 97 63
304 615 343 167 114 92
363 56 349 103 87 70
234 545 204 53 29 34
365 54 352 93 71 55
296 251 310 96 81 64
365 870 277 36 31 30
433 879 322 77 65 55
359 861 144 102 79 67
361 58 342 95 71 46
364 60 343 90 56 32
344 956 313 54 47 43
280 472 402 72 18 32
374 795 202 59 48 49
324 240 306 109 89 67
330 457 365 69 52 39
238 547 206 132 21 44
284 564 376 178 127 99
361 64 336 116 35 30
278 424 340 88 57 44
366 64 342 88 33 23
367 55 354 85 34 29
261 545 291 65 21 34
397 550 318 109 18 40
299 485 143 46 25 29
367 62 345 75 28 18
383 845 218 61 54 56
403 810 318 147 98 68
454 810 273 104 86 68
368 65 344 92 32 29
369 65 348 88 34 30
436 416 333 146 15 44
370 65 353 99 34 37
367 35 358 95 34 39
365 40 355 95 33 36
372 630 273 37 29 34
278 475 323 70 28 33
421 462 348 181 16 49
295 599 366 183 129 102
304 790 258 61 50 47
367 40 358 96 30 36
400 530 343 178 8 55
290 445 129 63 35 34
380 910 298 68 61 64
289 720 182 65 28 28
269 900 268 157 121 96
364 45 355 95 38 38
462 807 282 94 76 60
331 220 311 115 94 71
290 355 274 80 66 52
334 911 317 38 36 38
367 47 355 94 33 35
355 53 354 102 91 80
399 485 374 167 12 55
284 330 248 89 76 64
359 55 362 82 44 37
365 675 333 131 96 63
304 860 304 138 109 83
250 760 202 172 123 97
284 565 338 104 26 41
435 415 348 154 12 48
354 65 368 91 32 35
250 545 183 108 16 34
425 816 258 75 60 52
434 845 283 110 84 67
272 263 220 162 108 76
287 257 261 117 93 67
358 62 366 86 34 33
423 440 368 133 16 47
319 495 382 159 8 51
359 65 367 89 30 34
409 440 263 151 10 36
364 50 354 96 63 52
284 470 402 96 23 39
233 550 258 45 31 35
350 385 298 72 64 56
367 50 355 90 30 32
260 814 206 172 130 105
368 55 358 103 26 39
425 440 363 116 17 39
353 810 308 82 65 57
339 405 338 96 78 59
361 63 365 88 32 34
367 60 362 101 27 39
386 714 334 146 107 72
319 679 188 63 39 40
368 65 362 100 28 37
383 845 213 60 53 53
234 600 186 137 104 66
272 461 342 100 19 28
417 415 268 82 26 34
376 708 313 111 18 41
380 432 400 119 22 44
324 70 313 124 31 39
405 930 362 56 42 29
329 70 314 128 68 54
324 75 314 135 18 41
324 79 315 128 53 47
359 860 149 152 129 115
337 786 304 70 56 53
334 805 168 86 68 56
327 78 315 137 17 40
274 440 308 69 20 33
388 515 258 166 15 42
332 69 315 130 104 73
334 80 319 135 21 41
280 480 343 68 22 30
376 576 256 40 35 34
398 775 337 182 126 97
329 85 319 120 46 43
329 95 318 130 25 40
333 90 320 115 86 63
333 95 320 124 56 48
234 630 187 153 106 67
349 480 219 112 0 29
338 70 319 125 31 40
389 830 303 112 69 50
324 100 318 134 98 72
394 750 213 69 55 46
375 786 197 52 43 44
397 741 324 143 110 76
299 403 208 101 68 49
314 205 312 104 87 70
324 70 349 108 89 71
326 70 351 91 65 52
284 860 298 158 146 142
379 420 358 58 23 25
328 70 353 107 28 42
336 149 326 118 95 70
324 75 349 103 85 68
323 80 349 94 66 53
304 455 354 106 78 57
299 837 288 98 77 55
324 85 352 100 23 37
279 416 148 122 51 42
324 90 353 103 37 45
345 891 202 64 58 59
394 450 253 53 33 35
321 95 351 104 32 39
324 95 352 110 82 64
274 365 228 97 84 72
337 78 320 122 61 46
371 75 348 134 15 44
343 75 324 134 108 88
299 839 278 96 75 50
342 80 325 118 75 57
345 75 327 119 48 46
349 75 329 130 43 46
401 532 334 156 20 49
349 80 329 133 30 40
342 85 325 128 19 36
356 427 400 78 10 26
338 365 332 118 93 64
343 90 325 127 23 35
278 247 266 90 75 60
286 262 320 106 84 59
343 120 334 112 89 62
344 95 326 113 71 50
348 425 223 102 14 28
351 95 331 131 37 47
292 550 376 162 116 90
344 840 158 110 86 71
314 400 223 91 75 56
327 80 355 101 29 40
289 750 167 96 76 50
336 70 361 98 36 43
262 769 214 130 84 62
327 84 355 85 41 36
327 91 355 112 31 46
334 90 359 98 43 46
289 490 153 37 26 31
337 80 360 90 56 47
339 80 363 99 45 47
279 475 328 54 27 32
349 75 369 123 30 50
332 120 351 115 92 65
292 515 341 43 24 32
319 255 354 139 100 69
330 860 203 44 41 44
342 81 365 122 14 45
297 230 345 116 93 69
377 608 293 86 20 34
344 85 364 123 15 45
340 90 362 87 51 44
349 85 366 137 14 52
315 344 276 76 66 57
349 95 363 135 9 49
388 695 273 98 26 37
310 885 228 66 56 53
329 106 321 138 103 74
329 110 323 130 100 70
279 507 375 39 22 30
334 105 323 136 98 72
409 425 387 132 16 44
336 111 326 132 100 69
321 99 351 111 14 41
338 165 324 116 94 68
324 100 352 111 26 44
422 465 323 104 27 41
262 556 176 58 29 32
323 105 349 120 92 71
265 392 214 98 85 72
329 105 353 112 49 53
241 529 190 62 31 38
324 120 323 118 92 64
288 905 319 129 111 99
259 440 349 115 0 36
329 120 324 119 93 64
342 798 170 59 46 38
335 115 327 127 99 67
353 109 334 128 24 42
332 123 325 120 94 63
334 450 354 75 61 45
259 425 291 130 0 41
324 115 349 115 93 71
352 495 210 118 1 31
326 115 351 117 93 69
401 537 301 66 19 30
364 440 242 63 35 34
237 570 250 146 20 45
361 941 257 74 68 68
329 115 351 116 91 66
309 451 403 65 20 27
326 120 351 115 93 68
326 125 351 117 92 65
319 490 182 140 3 33
328 125 351 116 92 66
398 545 293 66 28 34
400 755 308 141 102 71
359 485 229 96 19 28
354 705 351 176 123 94
335 270 313 125 99 71
272 483 402 144 14 47
335 115 350 114 84 62
361 427 380 66 20 25
330 125 350 116 92 65
355 595 227 96 31 40
385 720 193 59 49 39
346 755 172 63 50 48
286 247 325 111 89 63
373 925 263 67 60 60
394 407 316 62 48 43
334 125 350 116 92 62
333 310 328 124 95 65
339 100 323 134 19 39
338 104 324 133 72 60
483 754 217 90 74 62
409 927 333 53 46 42
344 100 327 117 44 42
244 645 187 162 108 72
409 403 303 54 27 31
310 399 237 88 75 59
344 105 328 129 53 49
299 570 190 39 35 38
379 827 325 174 115 92
338 110 328 130 97 71
341 107 331 126 84 59
344 107 331 130 87 66
264 539 387 202 140 115
342 438 377 69 22 27
349 100 329 95 65 42
290 420 129 142 27 39
385 934 318 62 52 50
405 480 283 169 14 44
348 105 329 130 33 42
399 397 263 108 32 39
412 820 286 37 32 29
352 67 330 100 39 25
274 235 262 91 76 62
381 480 241 124 6 30
351 100 331 90 67 44
302 195 321 95 80 64
351 105 331 125 37 40
349 109 333 130 70 60
338 115 329 118 93 65
388 408 315 71 48 43
338 120 329 118 95 67
294 404 203 105 61 44
340 120 332 115 91 64
313 620 333 128 70 65
298 345 340 130 102 74
343 115 334 118 90 62
338 125 329 119 95 68
258 365 296 94 67 48
295 220 342 117 95 71
341 125 332 119 95 68
299 340 273 78 66 55
391 740 206 63 51 41
343 125 334 116 93 67
339 115 350 114 82 61
346 716 176 61 48 41
301 457 400 82 31 28
344 114 353 103 69 58
343 235 323 125 98 67
325 830 148 112 88 67
265 880 283 180 128 113
318 463 360 74 60 45
346 115 336 123 93 66
334 855 283 136 101 73
348 114 339 124 88 65
256 480 286 82 27 39
262 542 348 60 29 32
417 766 262 37 33 28
343 963 277 59 53 53
348 550 203 80 28 37
279 406 193 100 71 57
346 120 337 110 87 60
275 417 336 82 56 43
347 120 339 110 85 55
350 116 343 129 90 70
385 417 347 67 23 26
260 465 145 73 28 28
349 455 183 92 30 36
449 765 231 83 70 58
348 120 343 128 94 68
441 812 262 85 63 49
330 744 326 154 11 51
349 115 353 113 62 59
347 119 346 138 96 73
346 125 337 111 89 62
287 811 224 73 59 54
347 125 339 112 88 59
347 125 343 128 95 66
404 410 333 55 32 31
305 378 251 80 68 54
424 875 329 73 62 54
346 126 345 133 97 71
343 905 209 70 65 67
290 235 323 106 86 65
332 97 355 96 66 55
258 770 161 157 108 73
296 492 145 43 23 26
333 106 355 108 34 46
339 105 358 111 29 44
334 550 188 160 6 34
359 870 159 84 69 54
344 105 360 126 12 46
250 700 179 125 91 52
397 495 269 52 32 33
352 608 225 104 22 26
296 691 306 133 16 46
359 950 298 71 65 67
341 98 361 119 19 44
251 814 197 184 133 109
344 99 361 130 14 49
414 401 293 52 25 29
288 645 299 52 31 35
349 100 361 135 8 51
349 105 360 130 12 48
364 750 179 59 47 43
384 710 203 53 44 37
288 575 338 157 18 53
248 675 186 115 84 45
320 370 282 91 79 68
350 103 361 132 12 47
342 112 354 100 67 56
284 504 378 55 28 31
390 420 251 123 4 26
345 113 356 108 47 49
413 420 263 106 25 39
281 475 159 49 18 27
366 586 242 58 31 38
349 114 357 128 40 55
352 70 330 129 30 38
402 533 331 128 11 36
258 475 345 109 3 39
354 75 332 133 54 55
291 320 336 125 96 68
364 401 253 127 26 25
354 80 333 127 77 66
358 75 334 134 28 39
358 79 335 129 80 70
209 570 203 176 118 93
361 70 336 127 28 36
306 388 260 85 72 58
331 330 298 94 81 67
325 590 353 97 63 52
364 70 338 125 23 36
314 190 352 117 94 68
350 885 203 62 56 60
425 403 288 56 19 24
361 75 336 132 19 32
379 397 263 152 17 26
364 80 338 141 15 42
367 72 340 126 21 41
367 75 340 134 18 42
354 110 358 119 37 53
263 530 289 119 7 36
367 79 340 141 14 42
368 80 343 141 13 40
354 85 333 133 35 44
354 90 333 118 66 58
353 95 333 135 33 44
314 315 343 125 94 65
360 85 337 133 20 39
356 91 336 103 70 55
320 639 322 180 4 57
289 235 257 116 92 65
356 95 336 123 43 45
304 465 384 92 37 40
278 330 292 79 62 48
358 95 339 123 23 37
363 84 339 142 13 41
471 769 215 90 76 63
248 540 274 66 29 34
267 377 226 93 81 70
264 420 142 83 31 34
364 85 343 146 12 44
366 87 347 148 13 43
256 418 145 128 22 40
351 883 289 74 60 50
314 445 355 97 77 56
289 545 188 47 30 37
368 85 348 144 11 46
344 220 323 123 98 68
343 230 343 129 99 63
362 94 344 138 13 45
364 90 348 143 11 45
310 155 324 98 82 65
320 325 340 120 92 61
339 883 294 117 84 65
345 145 338 120 93 63
384 810 339 187 126 97
366 92 352 137 7 47
367 88 350 143 10 47
367 89 353 138 5 48
278 675 194 79 61 46
268 520 294 135 2 41
371 70 353 106 30 39
324 610 202 159 4 37
310 785 166 146 101 64
370 80 348 139 11 45
371 80 353 130 13 47
290 375 341 125 96 68
369 85 353 137 9 48
299 605 195 98 28 34
354 755 179 62 50 43
363 66 366 87 30 34
324 140 351 117 92 65
364 70 367 96 34 40
278 685 279 103 18 40
367 71 366 94 35 36
309 320 288 85 73 61
294 820 173 187 128 96
334 210 313 116 96 73
354 75 370 124 25 50
272 550 304 96 20 37
458 928 358 95 81 68
349 940 234 73 67 67
359 75 369 122 23 47
359 80 368 132 13 50
401 774 222 77 55 44
287 292 335 124 97 67
359 85 367 142 14 54
277 490 313 130 0 40
354 88 366 147 12 57
354 95 363 140 1 50
359 88 366 146 7 55
266 372 225 97 84 71
269 440 140 66 33 37
359 95 363 139 15 55
363 85 366 130 9 47
365 86 364 127 25 51
369 80 363 119 32 49
269 305 236 96 78 58
366 82 365 123 30 52
342 190 346 129 99 64
256 580 286 150 0 45
334 496 176 137 7 32
298 396 229 100 87 69
366 575 237 160 14 44
364 95 358 139 25 55
259 412 174 87 75 60
355 670 222 87 31 26
284 955 253 80 77 79
366 91 359 140 16 56
260 495 286 118 13 41
272 431 327 79 20 35
333 620 209 114 13 35
363 94 362 140 22 57
327 401 166 53 36 35
259 525 368 103 35 41
371 70 358 105 37 40
289 280 303 96 80 64
397 874 245 78 65 61
371 75 358 121 22 46
353 100 334 101 63 48
271 953 297 69 64 63
356 100 336 115 51 48
356 105 337 92 44 34
330 690 328 144 91 76
350 942 303 80 73 78
379 475 384 119 21 44
309 220 352 113 91 66
360 100 343 128 13 39
358 105 339 130 23 42
384 414 333 71 47 41
359 105 343 130 15 43
324 943 230 91 85 88
360 105 348 131 17 45
334 280 313 126 99 69
376 906 258 72 63 63
360 105 353 128 51 63
368 822 329 186 129 105
284 404 203 100 78 61
362 99 353 137 27 52
264 365 227 94 82 70
361 101 353 134 45 63
353 113 340 122 68 60
408 445 382 91 26 36
295 345 269 75 63 50
354 115 348 126 54 55
410 705 242 67 52 40
354 115 353 140 91 90
274 355 293 82 55 38
357 113 348 143 20 48
357 113 352 122 70 64
330 779 302 84 66 59
354 105 360 128 22 49
357 109 356 122 112 109
417 722 261 58 45 36
349 450 188 113 19 38
362 99 357 116 75 66
341 255 323 121 96 67
314 410 347 98 80 59
330 280 339 137 98 75
276 935 240 77 71 73
328 963 296 78 72 71
227 556 195 122 93 63
274 265 222 158 106 76
358 665 318 69 32 35
398 855 238 75 62 57
314 402 346 113 90 64
419 401 273 70 25 26
330 848 280 125 97 67
311 170 320 103 87 69
314 165 320 105 87 68
301 170 334 112 92 70
289 880 248 146 112 81
324 155 351 118 94 67
259 420 144 87 28 33
314 175 318 104 87 68
308 740 318 187 12 59
319 175 317 106 88 68
279 412 158 98 68 54
309 421 132 47 30 36
348 894 178 96 82 72
306 187 320 96 81 66
303 750 298 121 42 55
305 190 319 97 82 65
317 698 320 117 0 36
314 180 317 104 87 68
401 537 323 181 16 54
296 315 341 130 99 72
281 354 236 99 87 74
319 180 317 107 88 67
269 521 345 46 22 28
292 283 301 94 78 61
292 268 252 138 105 76
314 190 315 104 86 68
298 725 314 102 18 42
319 186 315 107 88 67
319 190 314 108 89 68
304 160 333 110 90 69
304 155 338 112 91 69
316 653 352 199 141 112
404 405 256 68 38 39
310 130 328 109 88 64
279 815 217 50 43 44
310 135 328 106 86 63
259 645 184 118 91 59
269 600 303 80 28 38
264 475 348 94 9 31
308 422 115 87 34 34
222 576 220 102 66 58
307 135 333 112 90 67
376 830 206 66 54 50
306 136 335 110 90 67
429 405 293 127 16 37
335 605 348 110 62 52
314 795 263 174 119 100
324 495 379 154 5 48
298 355 263 74 63 52
263 720 264 157 0 49
310 140 328 104 85 64
292 553 335 34 26 25
344 710 174 52 43 38
286 412 145 88 27 29
427 865 326 79 63 52
307 144 331 111 90 67
306 145 333 112 91 68
314 130 324 105 85 62
314 314 292 95 81 68
409 402 298 57 27 32
312 134 326 102 82 61
249 715 178 122 89 52
379 876 288 35 32 33
319 451 404 135 23 50
319 130 323 111 88 62
299 394 232 102 86 69
341 890 170 113 89 75
376 673 240 75 33 30
389 885 258 70 60 59
319 135 323 109 88 63
314 140 323 103 84 63
404 685 257 68 56 46
307 135 339 111 91 69
392 457 250 74 36 38
428 410 288 172 15 45
310 135 342 111 91 70
277 384 330 133 97 72
307 140 340 112 92 69
309 140 343 111 91 70
306 145 341 111 91 68
257 641 227 157 15 51
313 130 344 109 90 70
397 458 386 179 8 60
304 276 300 98 81 63
316 130 346 110 90 69
353 565 361 43 29 32
339 927 333 35 33 34
314 464 363 72 58 42
251 725 243 174 3 50
271 474 140 134 10 36
315 140 347 109 89 67
315 436 175 65 19 36
268 781 224 55 45 44
318 874 231 95 75 62
309 840 273 85 66 44
276 475 308 110 14 40
445 786 239 77 58 46
360 425 242 104 18 28
371 635 294 45 30 31
314 145 347 111 90 68
292 736 294 162 14 51
311 150 325 99 82 64
294 511 370 70 18 29
238 680 198 180 121 96
314 620 366 174 125 97
418 730 262 60 48 37
305 150 333 111 91 68
354 434 406 104 24 41
308 155 328 98 81 63
264 274 225 153 103 72
312 846 231 173 128 98
339 384 283 99 85 71
279 640 199 118 20 32
309 160 323 97 81 64
398 413 340 62 34 32
339 720 168 62 46 41
334 465 388 52 27 30
306 156 330 103 84 65
306 152 330 105 87 67
329 971 258 76 72 73
336 245 311 120 97 70
335 240 349 133 99 66
299 804 165 163 113 77
290 574 348 53 35 36
250 530 174 82 29 37
279 475 402 75 26 34
347 128 342 123 93 60
336 344 306 106 88 69
306 160 329 102 84 66
334 795 292 68 55 50
308 610 337 133 71 63
379 515 365 58 27 30
364 894 308 34 32 33
314 150 323 103 85 66
235 605 185 137 103 66
280 425 341 100 70 53
310 938 225 88 81 81
319 150 322 107 87 66
314 155 323 103 86 66
314 160 321 103 86 67
259 276 281 84 69 54
319 155 321 106 87 66
288 793 160 163 115 79
305 150 338 111 90 68
310 150 346 112 91 69
305 155 342 112 92 70
329 325 293 91 79 68
320 145 351 114 91 65
394 406 308 64 47 42
279 871 307 98 69 57
317 150 350 114 92 69
314 155 349 114 92 67
411 780 237 61 50 44
317 154 350 115 92 67
290 265 233 148 104 78
303 165 333 111 91 70
305 165 328 103 85 66
312 580 366 146 105 77
304 165 343 112 92 70
291 230 324 105 86 65
301 170 338 113 92 70
301 242 310 99 83 66
318 762 309 80 64 58
304 170 343 113 93 71
287 244 328 113 91 66
344 855 277 147 107 86
303 175 344 113 92 71
303 180 327 102 85 68
219 585 213 152 106 82
299 180 333 111 92 71
331 935 341 49 45 45
284 416 134 156 42 37
266 448 350 102 9 31
343 200 333 119 94 65
298 185 333 113 93 72
342 200 328 119 96 69
293 370 243 111 95 79
376 825 206 62 50 45
301 181 330 108 90 71
249 585 197 51 39 34
279 545 173 66 27 31
346 890 165 97 77 65
300 185 328 107 89 71
272 706 275 152 14 49
301 191 325 97 81 65
342 200 343 127 98 62
278 525 309 104 19 39
333 903 190 70 59 54
300 180 342 114 94 72
339 396 183 65 31 31
305 185 347 114 92 70
314 488 380 119 6 38
377 594 264 139 27 46
309 165 323 100 83 66
309 820 173 72 57 53
306 167 325 98 82 65
294 305 293 83 69 55
294 886 238 114 83 56
311 166 320 104 87 68
308 170 322 101 85 67
282 310 330 124 92 65
337 371 295 109 94 79
319 880 198 51 47 48
308 175 322 100 84 68
259 460 288 147 0 44
306 175 325 99 83 66
313 164 321 105 87 68
414 440 378 46 31 31
307 164 345 112 92 69
309 165 347 114 92 69
387 558 336 58 23 26
309 170 347 114 93 69
214 520 219 41 26 26
306 171 346 113 92 70
336 277 330 133 97 71
343 145 333 115 93 68
306 176 346 113 92 70
422 435 372 48 31 34
357 805 190 58 49 50
309 175 348 116 93 69
312 893 207 54 49 51
312 175 350 117 94 68
391 762 208 52 45 46
308 190 349 117 95 70
362 904 198 73 65 63
264 465 345 66 24 30
310 190 351 117 94 70
309 959 308 52 49 48
323 295 342 128 93 67
314 180 352 117 94 68
319 170 352 116 93 67
373 925 283 72 63 65
319 175 352 118 94 68
243 520 384 172 115 100
368 520 229 73 34 38
303 311 289 81 68 55
267 585 182 125 13 39
319 185 353 118 94 69
290 383 232 105 91 77
379 809 341 193 138 113
221 576 190 140 103 68
319 190 353 117 94 69
260 216 256 97 82 66
264 745 258 122 18 46
264 215 257 94 79 64
294 955 322 71 65 63
264 220 259 94 79 63
255 670 216 139 104 90
343 215 343 123 96 62
264 225 259 93 78 62
354 930 338 34 33 35
408 470 372 147 12 48
321 774 297 75 60 55
357 948 272 71 66 66
269 215 257 93 78 62
269 220 259 93 78 62
269 225 259 92 77 61
343 540 189 105 23 37
279 220 257 99 83 66
247 556 197 109 13 24
284 225 258 107 87 65
299 296 295 90 76 60
286 271 314 98 80 61
259 230 262 95 79 63
331 838 188 65 55 52
299 430 114 156 13 42
264 230 262 92 77 62
370 430 246 116 18 27
258 238 265 95 79 63
359 855 198 66 57 60
399 410 328 58 41 37
259 240 266 95 79 62
327 275 305 116 94 70
238 522 196 156 0 34
378 861 84 96 84 74
264 235 264 91 77 62
342 170 330 122 96 66
260 237 266 93 78 63
459 779 221 89 74 58
262 237 266 93 78 63
265 239 265 90 76 61
476 803 271 84 66 48
262 761 161 147 103 68
269 228 260 91 76 61
269 230 262 90 76 61
360 660 333 136 96 65
286 286 248 121 91 66
269 240 265 90 76 61
259 245 268 95 79 63
259 249 270 95 79 63
302 956 325 74 68 65
259 251 271 94 79 63
299 565 374 166 116 86
340 399 198 63 31 33
264 250 269 89 75 60
338 230 314 119 97 71
262 252 271 90 76 61
264 255 271 88 74 59
345 630 343 137 97 67
268 241 266 90 75 60
269 250 268 88 74 59
289 508 371 77 20 31
291 266 237 138 100 75
242 601 249 64 24 34
266 253 270 86 73 58
271 258 270 85 72 58
268 256 271 86 72 58
275 870 293 161 121 103
274 228 260 91 76 61
308 435 115 57 22 32
359 540 224 118 11 32
274 231 261 90 76 61
275 560 359 141 84 69
279 229 260 94 79 63
274 240 264 90 76 61
299 825 178 181 124 91
462 800 276 84 67 50
279 240 263 91 76 61
384 890 258 69 60 60
283 236 261 95 78 61
241 525 189 62 28 35
285 239 260 103 83 61
269 413 168 101 83 61
289 240 258 116 92 65
336 932 221 78 72 75
412 500 338 57 31 35
273 767 240 79 63 56
273 246 266 89 75 60
251 715 243 91 32 42
246 560 199 99 12 26
279 244 265 92 77 61
274 255 269 86 72 58
334 561 365 43 25 30
284 245 263 96 79 60
364 460 393 158 13 50
259 465 353 87 3 30
287 242 261 106 85 62
368 580 243 171 17 45
311 840 229 168 122 96
347 884 193 54 43 45
285 251 260 112 90 66
289 250 259 120 94 67
286 254 260 114 91 66
289 255 258 125 97 70
370 896 161 97 82 74
282 854 294 142 46 72
281 249 265 95 79 61
343 766 320 45 38 37
379 910 283 64 55 58
304 205 317 96 82 66
300 210 319 96 80 64
369 945 318 75 67 66
275 585 312 151 1 45
316 653 344 190 133 108
306 846 254 98 80 61
409 450 379 85 26 36
299 435 115 127 16 38
304 215 317 98 83 67
259 665 219 81 59 55
344 420 213 90 20 28
364 480 231 119 11 30
299 220 318 97 81 65
369 934 318 70 62 58
304 220 313 99 84 68
289 315 284 76 63 48
304 225 312 100 85 68
344 830 275 123 96 75
305 195 319 98 82 66
284 640 198 68 31 34
310 196 315 102 86 69
268 541 161 114 10 38
389 795 217 62 51 49
350 397 237 87 67 55
351 748 341 188 134 111
404 930 358 58 45 38
309 200 314 101 86 69
343 185 338 124 96 62
307 198 316 99 84 67
311 192 315 102 86 69
369 399 293 65 57 49
354 881 282 43 36 33
303 848 257 91 74 56
306 201 315 98 84 69
323 656 200 61 35 32
288 374 340 124 96 68
250 570 194 51 33 36
309 205 313 101 86 70
312 193 316 102 86 70
416 425 380 61 35 39
319 195 313 108 89 68
272 675 270 162 0 51
368 423 353 59 34 29
311 216 310 103 86 68
321 335 340 122 95 62
306 210 315 99 84 68
294 403 208 101 72 53
305 920 204 84 75 74
484 926 368 90 76 64
309 210 313 101 85 69
310 220 310 102 86 67
263 565 294 144 0 43
348 889 187 70 57 51
314 215 309 104 86 67
355 679 212 80 37 26
458 921 353 104 84 62
283 365 334 123 95 68
271 608 301 57 22 31
319 215 310 105 87 67
445 841 298 96 74 59
410 460 374 73 24 32
314 225 308 102 85 66
292 241 256 124 97 68
292 254 256 130 100 74
377 701 341 143 101 68
296 240 315 96 80 63
350 952 311 63 57 58
249 670 213 155 114 97
323 870 307 150 113 89
336 694 346 181 125 102
300 230 314 98 82 66
323 392 250 94 81 68
327 250 305 114 92 68
303 235 312 101 84 66
368 680 333 130 99 63
299 305 343 126 95 69
429 864 277 75 61 57
303 239 311 102 85 66
299 235 314 97 82 65
297 234 316 97 81 64
296 237 315 97 82 66
294 250 313 95 80 63
295 255 309 94 80 65
369 430 404 147 21 51
316 793 271 169 120 99
299 355 273 80 67 54
387 720 199 59 46 37
290 250 319 101 82 60
394 500 369 184 16 60
298 244 312 96 81 64
300 245 309 97 81 65
419 465 358 132 14 42
304 245 307 100 83 64
229 525 198 67 33 35
406 470 278 142 14 40
299 250 308 98 82 64
297 248 311 96 81 65
293 495 179 61 25 29
309 700 319 126 3 38
278 289 235 105 81 58
299 255 307 99 83 65
304 255 306 100 83 65
379 430 401 63 26 30
350 385 303 83 71 59
306 226 310 102 86 68
274 355 289 77 53 36
314 230 307 103 85 65
328 610 362 149 106 76
314 240 305 102 83 62
319 240 306 103 84 62
297 622 320 151 27 53
309 255 307 100 82 61
280 285 313 93 76 57
315 245 305 101 83 62
273 395 291 72 53 42
314 249 308 101 83 61
315 251 312 103 84 62
422 445 304 56 33 35
411 420 261 38 33 38
318 255 308 105 85 62
234 640 213 160 114 94
317 254 311 106 86 61
277 478 395 57 27 27
309 276 350 138 102 73
287 240 328 113 91 67
394 830 223 68 55 52
394 784 198 67 54 49
289 240 323 106 86 64
298 743 172 111 87 56
299 465 124 181 14 37
288 245 323 107 86 63
293 500 143 74 19 36
327 742 325 170 19 58
324 956 318 78 71 67
286 246 328 113 91 65
252 710 238 112 16 40
285 525 153 124 2 33
288 245 333 116 92 65
288 250 322 107 86 62
286 255 324 112 89 62
336 280 328 133 97 70
283 412 156 92 42 39
314 730 174 76 24 30
429 825 248 68 54 48
287 255 322 107 86 62
254 735 168 122 93 57
287 254 334 120 94 65
242 571 270 50 27 34
404 402 297 54 32 33
288 255 338 122 96 67
397 484 265 168 13 42
296 200 329 109 90 70
353 715 180 61 48 40
294 205 333 114 94 72
298 195 328 105 87 68
300 195 324 97 81 64
329 900 309 93 73 60
264 805 212 161 125 98
399 403 299 56 40 36
312 625 200 134 8 36
299 200 323 97 81 64
329 205 312 113 94 73
274 412 173 101 83 65
388 731 199 77 60 51
302 199 321 95 80 64
313 430 123 61 32 31
296 196 330 110 91 70
298 205 323 96 80 63
259 404 202 101 88 75
297 204 326 101 84 65
296 436 351 106 82 59
369 892 308 34 32 32
295 205 338 117 96 73
314 300 293 100 86 71
297 194 339 114 93 72
299 200 343 116 94 71
353 500 218 63 22 28
349 450 183 80 30 31
250 775 169 162 109 75
330 373 291 102 89 75
304 195 347 116 94 69
379 894 319 38 35 34
296 205 341 117 96 73
289 365 238 103 90 78
363 610 243 94 32 40
299 205 344 116 94 71
304 205 348 117 94 69
296 210 325 101 84 64
264 490 289 140 4 43
294 210 328 109 89 69
295 215 324 101 83 64
337 873 171 92 77 77
297 376 244 109 93 78
274 455 318 64 26 35
408 770 303 146 101 71
292 215 333 114 93 70
408 780 278 54 42 37
290 225 328 110 90 67
294 220 323 101 83 65
298 767 160 126 93 56
319 200 354 119 96 69
316 587 196 154 2 31
396 835 226 65 53 50
331 144 350 120 95 67
293 345 273 77 64 49
292 219 327 108 89 68
293 225 323 100 83 64
351 389 283 97 82 68
291 220 333 113 92 69
394 397 272 79 29 38
326 673 196 47 42 37
344 956 333 55 49 46
290 225 333 114 92 68
292 741 283 87 49 51
379 880 233 68 59 58
299 890 318 132 97 82
292 219 335 116 94 70
416 785 255 43 39 36
298 210 322 97 80 62
329 170 352 122 96 65
439 787 248 78 62 50
334 515 180 139 11 33
261 685 252 100 14 36
331 384 340 131 101 74
282 636 295 71 29 34
296 222 320 97 81 63
358 898 160 100 79 65
296 210 341 118 96 73
291 222 336 116 94 70
291 225 337 117 95 70
227 651 198 182 127 96
298 350 340 128 99 73
289 355 248 95 83 71
293 220 338 117 95 70
439 810 283 69 55 41
407 837 285 39 34 30
292 225 339 118 95 71
268 490 398 144 11 47
418 730 245 66 51 40
285 420 153 93 4 35
298 210 344 117 95 72
354 870 272 43 35 30
275 953 278 77 71 73
368 943 341 65 56 49
318 810 155 101 76 54
404 415 256 44 38 38
266 670 261 163 0 50
300 210 346 117 95 71
289 700 189 90 20 28
394 414 343 65 32 31
304 435 352 97 76 55
301 215 346 118 95 70
294 415 178 90 21 27
295 695 307 59 28 33
304 215 349 118 95 70
344 220 328 123 96 64
284 305 292 83 69 55
298 220 345 118 95 71
369 935 342 45 41 41
300 225 347 117 94 69
316 843 280 111 83 61
353 428 339 72 47 42
303 225 349 116 93 68
417 470 305 77 28 38
332 710 329 98 63 51
307 200 350 117 94 69
279 905 313 151 123 102
310 200 352 117 93 67
349 510 372 88 18 35
287 459 131 67 33 30
297 754 161 113 87 54
398 545 323 105 23 43
246 555 198 101 7 28
308 205 350 120 96 70
309 215 352 116 93 67
334 870 178 61 55 54
306 225 351 115 92 67
232 600 228 59 31 35
314 210 354 117 94 68
308 440 118 172 9 37
371 926 262 69 63 62
314 215 354 117 94 69
404 720 265 57 44 37
229 571 190 130 99 66
330 839 194 82 63 54
272 670 270 166 1 51
319 210 355 120 97 70
274 413 168 102 80 60
319 215 355 120 96 70
375 756 191 48 42 39
226 515 195 116 18 34
293 230 322 99 81 61
324 420 347 93 76 58
292 238 321 100 82 62
291 230 338 118 96 70
292 229 340 119 96 71
277 523 396 185 131 109
294 230 343 117 95 70
294 310 339 128 97 71
290 235 338 118 95 69
247 780 193 169 122 91
290 240 338 119 95 69
294 235 343 118 94 69
402 742 287 117 17 40
303 230 349 116 93 67
299 235 347 118 95 69
306 653 311 91 21 37
384 790 203 71 56 52
343 650 352 171 117 90
297 240 345 118 93 66
303 235 350 118 94 67
304 865 308 121 94 69
289 245 338 119 95 68
402 692 261 59 48 37
294 245 343 119 94 66
304 305 292 89 75 60
291 255 341 121 95 67
309 967 288 66 63 63
271 420 303 124 4 39
294 250 344 119 94 66
314 310 294 96 82 68
402 523 347 178 4 58
294 255 344 121 95 66
350 640 338 140 105 70
302 245 350 119 93 65
299 250 348 119 93 65
299 255 348 119 93 65
274 575 173 148 5 29
302 250 350 119 92 64
329 396 188 87 46 37
305 255 351 120 92 65
444 800 254 85 67 53
284 325 248 88 75 62
306 230 351 115 92 65
365 630 313 77 28 36
305 245 352 119 93 66
359 530 223 57 30 35
309 230 353 116 93 67
401 830 231 54 43 46
309 235 353 117 93 66
294 600 353 182 126 101
319 230 356 121 96 67
295 465 124 163 7 36
248 730 177 134 94 62
373 510 234 60 31 36
345 410 218 104 12 34
317 235 355 120 95 66
280 399 212 99 85 70
319 235 356 121 95 65
319 240 356 124 96 64
309 250 354 124 96 68
310 592 196 152 0 35
293 955 263 70 66 68
314 250 355 131 101 70
379 755 347 180 125 96
299 425 113 162 10 33
314 255 354 132 99 70
409 407 323 49 34 33
324 161 320 109 90 68
321 452 380 74 42 31
324 165 319 108 88 67
384 585 278 106 27 40
321 824 155 114 88 61
324 170 318 109 89 67
348 555 203 116 26 45
324 175 317 110 90 68
310 452 399 81 19 31
339 899 194 64 54 51
329 170 319 112 92 69
292 470 180 41 29 33
330 885 174 77 65 62
329 175 318 114 93 69
275 565 372 186 128 106
324 183 316 112 92 69
330 184 316 116 95 72
474 805 268 80 62 45
324 190 314 112 92 69
274 871 303 95 71 54
281 500 326 54 24 30
288 730 279 140 16 51
334 185 318 118 96 72
337 190 320 116 95 71
324 130 323 113 90 63
338 705 344 184 129 103
390 851 227 70 58 54
324 135 323 111 90 65
262 590 295 153 1 46
314 963 297 57 52 50
329 685 318 113 9 38
329 130 325 114 91 64
329 135 324 112 90 65
333 933 220 84 79 80
329 190 354 125 97 62
324 140 323 109 89 65
418 780 237 78 68 61
288 515 143 82 28 36
259 409 188 102 88 71
258 685 219 93 56 52
332 290 313 121 95 68
300 418 133 86 26 35
329 140 324 112 91 67
329 145 323 112 91 67
332 662 321 90 46 44
331 129 326 115 92 64
279 440 137 80 26 33
334 130 327 118 94 67
388 418 358 61 17 22
309 610 329 165 3 52
314 397 198 101 56 38
332 132 325 115 92 65
396 831 226 64 51 49
335 135 326 118 95 69
342 696 350 181 124 101
333 145 325 117 95 70
269 380 224 94 83 72
379 485 239 129 7 33
336 145 326 118 96 71
325 135 351 116 91 64
374 852 147 106 87 69
323 838 195 127 99 77
325 130 351 118 93 66
329 135 350 117 93 66
334 959 298 63 59 59
327 135 351 116 92 64
428 850 278 82 64 56
410 465 288 44 35 37
321 142 351 114 91 66
309 565 191 109 24 35
279 366 229 104 89 74
201 544 204 163 110 82
330 140 350 118 94 66
291 350 275 77 64 50
268 890 288 142 102 87
264 320 237 89 75 62
279 775 238 79 63 56
329 150 323 112 92 68
324 158 321 110 90 68
245 533 393 206 140 126
345 415 223 106 10 28
329 155 322 113 92 67
387 828 322 150 94 71
413 440 278 166 9 46
334 150 324 117 95 70
334 155 323 116 94 68
329 155 351 119 95 68
291 660 296 109 17 41
397 789 336 185 126 98
334 150 350 119 94 64
329 160 352 119 95 67
319 805 155 89 68 52
335 155 350 119 93 62
344 130 333 116 93 68
280 435 163 74 9 32
351 571 216 153 14 42
280 670 197 91 29 30
269 370 293 80 53 40
283 465 168 77 17 35
311 701 180 83 30 30
341 135 331 117 95 72
343 135 333 114 92 68
339 140 329 119 97 72
288 315 263 81 70 59
341 140 331 116 94 70
349 950 248 81 74 74
324 265 304 112 91 67
364 536 365 56 25 29
314 960 243 96 93 97
343 140 333 114 92 67
339 130 349 118 92 61
339 135 349 119 93 60
343 135 347 123 93 59
374 925 303 111 100 107
339 140 349 119 93 61
289 365 278 82 65 52
467 811 278 88 70 53
292 290 340 127 97 69
342 145 346 123 94 61
346 130 338 113 88 59
286 574 339 124 17 44
346 130 343 129 95 68
315 819 164 70 55 49
269 392 214 98 86 72
337 744 165 71 55 48
347 128 340 117 91 57
346 135 338 113 89 60
345 135 343 129 97 67
343 150 333 116 93 66
340 155 327 115 93 69
344 160 333 121 95 65
329 220 355 128 98 62
324 535 374 108 15 40
279 290 237 111 88 64
339 150 349 119 93 60
433 406 313 101 9 37
344 150 343 125 96 65
313 905 197 75 68 67
342 150 346 123 94 61
339 160 349 120 93 59
393 470 249 46 33 36
342 155 346 123 94 62
295 365 248 105 89 72
308 635 353 188 135 107
345 150 338 122 95 64
344 160 338 122 94 62
428 808 255 77 56 51
329 161 320 114 92 68
437 867 291 88 67 57
332 162 320 115 94 69
317 695 172 59 46 39
229 519 195 107 17 30
335 165 322 116 94 68
279 295 238 111 89 66
335 170 322 116 94 68
355 400 313 74 62 50
335 175 321 117 94 68
334 165 351 118 92 59
354 931 342 41 39 40
269 425 343 70 26 27
256 753 229 168 4 49
334 170 352 120 93 60
259 450 144 98 32 33
334 175 352 121 94 60
340 165 328 118 94 67
289 375 233 106 92 78
338 170 324 116 93 68
340 170 328 119 95 67
343 170 333 123 96 65
379 735 187 62 47 39
342 176 330 121 96 65
342 165 346 125 96 62
224 605 213 155 111 87
343 170 338 122 95 62
343 175 343 126 98 63
243 550 203 109 10 30
292 894 236 198 146 117
274 261 271 82 69 56
377 515 239 95 22 32
339 170 349 121 93 61
285 315 279 69 58 46
340 175 348 123 95 62
342 170 346 125 96 62
434 831 267 95 74 62
337 182 320 119 96 68
325 833 183 64 54 51
264 412 163 96 74 54
340 185 323 121 97 69
289 840 278 106 86 65
309 715 324 117 13 40
341 180 327 122 97 68
341 184 326 122 97 66
342 185 328 122 97 66
275 510 398 111 70 63
306 299 290 95 81 66
343 185 333 122 96 65
427 449 333 111 24 42
293 370 272 80 66 53
342 192 325 118 95 69
304 961 298 63 61 61
343 180 338 124 97 63
272 920 309 174 130 112
343 180 343 126 98 63
342 185 343 128 99 63
249 605 188 127 94 62
334 185 352 123 95 60
337 185 351 122 94 60
197 526 201 193 130 107
342 184 346 129 100 63
342 190 338 124 96 62
238 675 204 171 120 97
349 476 379 126 25 48
334 190 352 124 95 60
324 165 352 119 96 69
268 605 298 91 34 44
392 478 381 188 12 63
324 175 353 121 98 72
398 819 318 151 96 70
304 430 137 47 28 28
340 660 355 137 95 59
329 175 353 122 96 64
294 400 188 117 27 22
367 540 230 49 33 38
294 350 339 127 99 71
324 185 354 122 98 71
274 315 323 120 88 63
329 180 353 123 96 64
265 810 212 166 128 101
389 418 363 61 16 22
329 200 313 114 94 73
409 860 298 40 35 33
324 205 311 108 90 69
339 530 183 68 26 31
335 200 317 115 95 74
328 210 310 111 92 71
319 460 368 70 55 40
330 209 311 113 93 73
262 616 194 79 56 44
350 700 181 68 45 38
324 225 308 107 89 69
309 435 352 98 78 56
329 225 309 112 92 70
404 416 363 61 17 21
331 215 311 113 93 71
334 215 313 116 95 72
331 224 311 115 94 71
338 195 319 113 93 71
337 207 315 114 94 72
340 220 317 117 94 68
342 220 320 121 97 68
269 450 349 93 9 30
269 430 142 71 35 36
313 860 232 154 116 89
389 402 297 66 54 47
324 230 306 107 89 68
324 235 306 107 88 67
329 240 307 115 94 69
390 931 314 62 52 53
332 226 310 116 95 71
307 435 136 38 27 28
258 795 209 165 127 99
346 439 222 105 8 28
269 455 343 109 12 32
333 230 310 116 94 71
358 755 180 64 51 45
335 230 312 118 96 71
359 660 328 123 91 62
336 235 311 119 96 70
286 450 150 87 2 27
269 270 223 156 105 74
324 246 305 111 90 67
251 800 174 165 112 78
393 460 250 55 31 33
329 245 307 116 94 69
327 246 305 114 92 67
409 810 286 40 34 32
449 760 218 81 61 49
409 795 238 65 54 50
295 450 124 147 10 39
320 255 305 107 87 65
385 901 288 62 54 54
404 505 288 102 30 41
333 250 309 119 96 69
284 940 233 80 73 74
364 859 143 71 59 51
300 421 114 144 18 29
299 589 371 179 128 100
334 255 309 120 96 69
209 560 213 161 110 89
336 240 311 120 97 70
339 245 313 122 97 70
341 245 317 126 99 68
342 245 319 125 99 68
338 250 314 124 99 71
293 265 248 135 102 73
340 255 318 125 99 70
340 195 322 114 93 70
342 195 325 116 94 69
421 407 336 60 31 34
269 820 173 196 135 106
342 195 328 118 95 68
341 200 322 114 93 71
374 605 263 45 32 34
257 516 161 100 24 43
342 195 333 120 94 64
269 400 203 101 87 71
407 800 313 145 99 68
342 205 324 119 97 71
329 250 352 138 101 69
306 785 262 69 54 50
380 397 267 140 22 33
343 205 328 122 98 70
405 840 248 68 55 54
345 430 203 66 25 28
346 655 350 163 106 78
343 205 333 120 95 66
324 200 355 123 97 67
299 920 322 141 113 95
343 195 338 124 96 61
310 740 322 168 18 56
337 194 351 125 96 63
342 193 346 129 99 65
234 550 253 40 29 34
216 590 211 166 115 90
329 420 347 94 77 58
341 200 345 128 99 64
340 393 263 99 85 72
343 205 343 124 97 63
341 210 321 117 94 68
374 680 303 59 29 33
211 574 211 166 110 90
291 476 365 77 45 35
266 559 170 48 24 31
342 210 323 119 96 68
405 405 268 55 36 42
299 389 345 126 97 69
342 216 320 121 97 68
355 565 222 134 17 37
344 215 333 123 96 63
340 398 252 98 85 72
344 220 333 123 96 62
344 225 333 122 95 61
343 220 343 126 97 62
341 220 345 127 97 61
333 680 318 56 29 33
264 495 289 141 3 43
341 225 345 129 99 63
250 600 273 176 7 53
344 225 338 126 97 61
324 195 354 122 96 67
283 415 157 99 15 32
329 195 354 126 98 63
329 200 354 127 98 62
329 205 354 127 98 62
400 540 293 112 29 45
342 899 174 92 78 71
237 561 263 81 35 42
324 215 355 127 99 64
243 521 353 103 17 39
289 385 283 80 57 45
375 694 207 46 38 35
324 220 355 126 98 64
319 655 358 192 135 110
464 917 362 90 74 59
405 445 384 56 27 30
324 225 355 126 98 64
350 736 171 56 45 40
336 235 350 132 98 65
306 823 175 53 46 51
329 245 353 135 99 66
332 245 351 136 100 68
286 609 317 93 22 38
320 660 343 190 135 113
314 280 299 101 84 67
331 251 350 137 100 68
283 525 180 121 1 34
328 255 351 138 100 69
503 750 209 93 76 63
283 264 224 154 106 76
334 250 348 137 99 68
342 230 320 124 98 68
277 585 314 160 0 48
342 240 323 123 97 67
343 235 333 123 96 61
393 465 249 65 33 33
368 680 328 116 91 62
344 230 328 122 95 63
264 655 184 135 100 68
344 230 338 127 97 62
279 455 348 88 53 44
283 559 184 47 32 35
264 775 223 121 87 69
339 230 348 129 98 64
350 432 358 73 43 37
330 384 262 100 86 72
336 230 350 129 98 63
336 906 206 72 62 63
343 235 338 127 97 62
419 935 353 73 61 51
342 235 343 131 98 65
324 500 182 156 4 36
264 304 235 99 79 57
348 400 178 41 30 33
408 824 233 77 62 54
338 235 348 132 98 65
338 240 347 132 98 67
364 545 228 67 30 36
402 470 268 171 10 44
341 236 345 133 98 66
295 780 253 69 54 49
343 245 333 126 96 61
252 536 176 54 35 33
340 240 344 132 96 68
343 245 323 122 96 65
353 815 303 53 44 43
239 685 193 170 112 85
403 525 338 182 9 55
341 251 321 123 98 67
279 535 178 39 31 36
342 255 324 120 95 66
384 515 364 116 21 41
234 570 193 114 85 55
342 254 328 123 95 62
341 252 335 132 97 67
327 350 285 84 74 65
339 265 323 123 97 66
341 255 333 129 96 65
459 824 298 106 79 61
340 255 338 135 98 69
271 618 190 71 24 30
364 805 194 62 53 53
243 640 215 152 106 91
281 323 246 91 77 64
364 495 229 76 32 33
369 465 238 57 38 38
338 255 343 138 99 71
433 410 303 161 16 46
349 500 368 137 12 44
342 249 337 132 96 66
336 252 345 137 100 68
269 335 298 79 57 39
347 722 175 60 46 39
325 235 355 128 98 62
274 430 139 101 26 32
304 855 248 113 91 68
268 430 337 71 29 32
322 232 356 123 96 64
329 235 354 130 97 61
339 680 354 185 127 104
324 245 355 135 99 65
332 593 200 168 6 35
313 689 315 114 3 34
322 243 356 130 97 63
329 275 343 139 100 75
324 250 354 137 100 66
383 861 102 109 84 62
324 255 353 139 99 67
396 749 218 66 54 49
259 260 220 156 108 74
256 258 220 150 106 72
258 261 221 155 107 73
264 260 219 159 108 73
276 696 282 71 26 34
252 775 167 159 108 74
261 263 220 159 108 75
370 673 217 98 46 39
264 266 221 161 108 76
233 575 190 123 94 61
264 270 223 157 106 74
325 440 170 66 29 32
389 526 359 93 29 40
304 835 208 55 45 47
274 260 219 162 108 77
229 585 227 69 27 34
301 333 278 72 62 51
280 261 221 158 108 77
373 705 347 151 103 72
344 876 166 95 73 64
279 265 223 154 105 75
282 258 220 159 108 78
288 259 224 161 111 81
259 273 225 158 107 76
328 375 341 132 100 72
259 276 227 154 105 74
257 282 231 132 93 64
319 875 228 72 59 55
259 410 292 79 41 35
290 435 128 57 36 34
259 285 232 113 84 55
364 464 391 122 24 45
347 481 212 119 2 30
269 274 225 147 102 69
269 276 226 136 94 65
270 286 231 103 78 52
275 272 226 143 99 67
279 271 227 141 99 71
370 419 246 117 4 24
305 330 287 78 68 58
285 266 227 150 102 75
379 853 143 116 96 76
367 888 160 98 86 76
361 439 241 74 30 32
284 270 228 138 96 70
282 345 330 119 92 63
299 430 351 100 79 57
344 960 283 60 54 54
285 270 232 138 98 73
272 273 225 143 99 67
274 275 227 129 93 64
274 280 229 108 82 56
384 890 253 60 52 51
269 700 174 107 85 58
279 275 229 122 89 61
384 470 386 157 11 51
373 890 228 69 63 61
389 680 229 64 51 39
278 279 230 107 82 54
294 795 243 62 50 47
394 455 387 166 9 53
279 280 232 107 82 55
272 283 230 104 77 52
282 849 278 167 130 104
405 810 303 143 96 67
364 931 338 35 34 35
274 285 232 103 79 54
282 274 230 123 88 64
363 698 191 54 40 35
314 720 326 75 28 36
442 838 285 103 81 69
309 340 342 139 106 75
374 676 203 80 60 45
319 300 294 104 89 73
285 840 288 147 115 93
358 775 339 177 130 102
354 431 373 67 24 28
324 320 292 96 83 70
271 890 265 168 121 98
274 715 169 110 87 62
359 725 350 184 127 102
385 710 328 128 100 68
284 275 233 125 93 67
288 275 238 136 99 75
389 865 287 35 32 32
285 280 237 130 98 74
282 284 235 119 91 65
297 700 310 100 19 38
417 770 253 44 37 35
328 661 200 50 35 33
288 280 248 126 94 69
289 415 143 85 23 27
384 422 383 59 19 23
287 284 243 125 92 68
300 794 252 57 44 42
347 483 180 49 35 28
286 286 253 117 90 65
314 973 276 51 47 47
330 446 405 111 16 41
264 290 232 102 79 54
338 781 310 66 52 47
349 925 228 78 71 72
284 435 344 106 77 60
294 829 213 63 49 46
264 295 234 96 78 59
260 303 235 102 82 60
257 302 236 103 83 61
264 300 235 95 78 57
290 325 336 126 96 70
267 303 235 95 77 57
259 320 237 88 76 63
410 490 298 165 12 43
269 310 237 93 76 57
386 719 197 56 44 35
274 290 234 101 78 54
324 444 398 83 20 33
237 676 198 182 122 98
304 397 193 100 44 24
272 298 235 96 78 59
278 300 239 106 86 64
277 305 240 106 87 66
300 380 247 91 78 65
