ply
format ascii 1.0
comment Created by Open3D
element vertex 2213
property double x
property double y
property double z
property uchar red
property uchar green
property uchar blue
end_header
269 700 345 50 25 29
447 479 291 137 8 44
422 496 263 48 33 33
422 494 267 47 32 35
231 580 358 135 29 51
327 598 447 84 52 42
426 492 271 58 30 34
432 494 268 53 32 29
422 484 279 49 33 33
422 489 277 60 35 31
339 834 218 65 58 57
422 492 275 64 32 35
370 592 239 33 30 34
422 494 287 93 13 32
230 622 364 126 97 68
190 536 267 116 26 43
421 511 264 72 2 24
418 507 267 66 7 25
392 719 201 91 72 51
418 507 270 80 6 32
407 719 199 64 56 49
422 509 267 73 1 24
425 496 264 45 31 32
339 863 314 143 112 88
477 499 283 101 25 35
428 498 265 62 33 31
255 524 344 126 75 68
322 554 209 58 32 36
431 505 263 67 33 31
432 504 266 59 33 32
367 559 282 77 58 42
428 507 260 49 35 32
415 606 381 144 11 44
432 509 262 96 28 31
493 533 294 82 19 30
213 549 336 161 0 49
426 511 268 71 0 24
418 498 285 83 12 30
422 499 286 91 2 27
356 845 211 87 67 61
255 549 354 33 25 28
420 501 284 90 7 30
422 505 277 79 0 25
415 779 232 122 85 52
424 507 276 77 0 27
427 499 288 93 0 29
232 639 317 65 30 36
427 504 287 93 0 28
428 507 281 76 0 22
437 483 275 77 30 27
433 486 274 60 29 27
440 482 275 71 28 26
385 566 347 64 49 37
448 483 275 94 17 34
200 551 319 168 9 54
238 699 332 97 62 53
466 845 207 101 87 74
437 504 268 54 32 32
509 558 304 149 119 99
434 507 265 75 32 29
442 499 271 41 28 30
382 604 392 84 26 37
440 506 269 81 24 29
443 507 270 72 37 29
447 504 272 52 28 30
432 627 374 61 25 37
448 508 271 81 22 28
246 620 261 93 27 42
440 511 288 82 0 26
422 489 289 97 33 46
383 714 262 147 17 46
428 485 289 101 14 34
327 834 312 152 115 89
432 483 290 124 15 41
274 957 345 58 54 53
432 485 289 128 11 40
259 724 254 141 0 34
386 739 297 57 30 35
274 614 370 128 79 71
429 495 290 102 5 33
337 684 333 82 24 35
471 576 285 156 100 72
430 492 289 109 0 35
224 512 350 163 4 50
432 494 290 108 3 34
410 606 385 152 12 49
432 499 291 110 1 34
234 714 344 148 98 76
429 502 290 105 0 32
433 503 291 112 1 34
437 484 290 123 5 39
435 488 289 116 4 38
366 607 414 98 17 34
407 759 252 151 109 75
437 489 290 113 2 37
350 820 200 62 52 50
442 484 291 125 7 38
442 489 292 116 3 36
446 493 294 129 12 42
267 596 378 107 80 61
448 495 295 132 12 42
437 499 293 112 1 34
232 549 346 56 25 30
437 504 292 95 0 29
438 508 291 89 0 28
443 504 295 122 9 40
416 853 257 88 78 72
447 499 295 130 10 41
447 504 296 121 3 38
442 509 292 85 0 25
241 635 276 178 10 46
443 508 295 110 1 33
232 574 352 61 23 31
447 509 296 109 2 34
293 650 344 172 11 53
450 455 279 95 23 34
287 609 381 154 95 82
456 464 278 94 27 32
452 459 282 89 27 37
302 844 317 94 67 52
455 461 280 89 28 30
434 602 354 59 21 30
199 567 306 70 16 28
222 689 313 107 72 49
217 579 333 131 12 45
456 465 281 94 27 36
455 471 285 136 13 40
212 689 350 170 115 91
452 474 277 113 22 33
452 555 311 115 3 37
457 474 278 109 25 36
457 479 278 100 23 33
452 474 288 133 11 43
236 754 277 127 10 35
462 474 282 119 22 42
460 476 285 141 11 46
291 579 397 81 43 39
461 479 285 138 8 43
367 659 202 143 103 68
466 480 279 93 29 36
234 612 264 204 13 53
465 476 280 105 22 37
451 479 290 135 7 44
453 479 289 131 6 42
450 486 274 82 38 39
358 611 435 92 10 31
457 484 277 74 27 29
457 489 277 51 28 32
239 664 312 42 31 33
387 624 252 120 69 63
457 484 288 134 4 43
229 637 304 182 32 58
450 494 274 34 31 33
207 679 351 182 124 101
453 494 275 40 30 32
322 844 318 137 106 80
364 639 256 107 20 41
552 820 225 85 85 85
451 509 273 83 22 26
404 796 195 76 57 48
450 499 274 40 28 32
230 734 301 55 33 33
453 499 276 43 30 30
450 504 274 57 24 32
407 574 377 142 15 46
453 504 276 53 25 30
458 499 281 57 26 29
292 576 215 164 4 34
292 589 432 151 109 94
462 499 282 55 25 29
462 504 283 58 23 27
475 870 266 82 69 61
460 510 279 43 31 33
336 834 227 54 50 50
213 524 212 102 22 34
351 779 207 60 49 44
464 483 284 133 10 38
278 551 344 82 62 45
465 486 285 132 10 40
464 490 280 51 30 35
467 499 282 85 25 33
193 514 322 43 28 31
472 499 282 108 23 35
331 972 294 85 80 83
212 694 349 170 117 91
226 623 352 101 80 55
472 499 287 138 13 46
477 504 282 114 22 34
478 503 288 138 14 44
456 486 290 134 8 42
452 495 295 136 11 41
446 854 220 98 86 76
456 496 295 141 9 44
282 590 388 114 80 64
460 490 290 137 3 42
452 509 298 119 3 37
457 509 299 134 11 43
459 497 294 142 7 44
466 545 300 141 12 45
462 510 300 135 5 42
474 502 289 140 12 48
473 507 294 137 4 43
477 509 293 139 4 45
476 510 295 139 0 46
480 501 283 88 26 34
375 762 300 96 75 68
272 759 247 92 39 42
480 501 285 96 22 33
368 519 272 132 88 72
235 586 240 193 9 42
285 837 310 122 86 71
482 509 283 108 23 36
278 634 249 148 14 40
485 511 284 76 29 37
480 506 290 137 12 45
442 629 372 117 24 42
367 769 303 93 72 64
187 514 257 152 8 41
189 514 253 158 9 40
191 524 252 103 23 38
507 875 252 103 83 70
365 675 205 148 107 72
226 624 317 46 30 35
189 524 257 77 30 37
245 647 366 182 118 95
190 524 255 80 31 38
201 564 267 119 22 40
296 520 315 157 17 62
421 543 277 175 12 44
258 587 229 126 45 54
358 581 362 142 14 50
192 529 252 82 28 38
193 534 252 48 31 36
504 566 279 92 73 49
223 517 199 167 18 40
366 694 206 156 113 82
218 514 203 113 24 37
218 514 207 66 29 32
257 549 356 39 31 32
317 890 236 81 69 66
492 588 303 117 7 37
245 546 215 125 11 38
222 519 201 126 24 38
217 528 208 149 14 38
337 679 332 74 27 36
222 523 203 133 22 38
405 815 197 108 81 60
222 526 206 162 10 38
222 528 208 173 7 38
211 529 217 123 16 37
212 524 217 86 26 31
211 649 357 146 106 78
235 641 296 132 48 63
242 614 362 104 82 57
214 524 209 92 21 39
216 530 210 157 10 37
276 814 261 77 60 54
209 525 223 66 31 35
210 527 220 79 20 37
312 804 322 130 95 77
401 544 248 133 11 35
213 564 237 144 18 46
218 514 212 57 30 32
218 515 222 41 32 29
220 512 221 42 31 28
211 534 217 169 11 43
510 577 279 221 144 137
226 673 351 162 108 85
212 739 306 140 101 70
213 534 214 166 9 39
217 534 212 177 8 39
309 538 382 80 34 35
401 599 391 157 14 50
203 744 312 164 113 85
381 619 243 82 36 34
209 534 219 170 12 47
208 534 222 177 10 45
387 583 323 135 21 45
214 537 214 181 11 43
347 959 287 84 77 77
210 539 221 135 17 41
222 774 297 119 81 52
217 544 216 174 13 44
222 534 212 183 6 40
222 540 215 182 4 36
199 519 239 135 14 37
235 785 280 78 63 55
378 623 427 179 18 59
246 648 362 180 116 94
202 514 237 100 23 35
362 919 363 59 52 49
317 799 321 127 92 77
346 784 311 76 59 53
207 514 233 116 13 32
225 517 199 172 18 42
204 520 234 113 23 33
204 525 233 97 18 32
375 688 244 76 51 50
203 529 232 110 16 30
467 586 310 72 25 29
201 529 237 119 12 35
337 594 224 60 33 35
194 517 244 129 35 50
371 714 326 118 21 46
193 524 248 137 15 39
197 524 242 140 12 38
252 564 362 43 28 30
195 524 245 152 11 40
506 546 292 103 79 60
303 894 257 50 47 49
195 529 246 153 10 39
199 538 239 98 35 43
359 515 289 144 99 83
364 631 214 99 78 51
204 530 229 121 18 35
206 534 227 186 11 48
282 555 205 177 0 35
204 532 229 175 11 47
207 539 227 178 10 45
392 884 277 62 54 53
240 659 306 123 11 37
203 538 233 155 15 46
264 525 405 69 31 34
206 539 231 180 12 47
348 829 288 142 113 93
208 544 227 170 14 45
221 605 272 197 13 53
202 539 237 150 25 49
204 543 238 191 12 52
206 545 236 175 7 46
194 534 249 124 24 39
232 609 262 203 14 51
197 539 247 180 10 48
199 543 248 201 9 53
290 650 245 83 35 38
194 538 253 142 11 46
336 957 345 59 56 55
437 569 278 109 84 49
196 540 251 178 8 48
271 618 362 110 65 62
193 539 257 182 3 49
382 564 327 58 43 35
196 545 257 183 4 47
514 569 293 159 119 106
196 559 297 81 31 39
201 545 246 165 13 48
209 521 228 73 25 37
407 534 251 138 9 37
497 583 297 99 51 50
222 552 219 133 29 47
222 554 221 164 23 47
207 549 237 91 22 39
240 674 317 93 21 35
297 599 227 153 21 42
272 529 353 111 65 59
444 892 254 89 75 68
199 548 253 175 14 48
304 597 224 54 29 28
203 549 247 78 28 39
482 623 337 178 23 53
206 549 242 42 31 38
209 572 259 53 32 36
200 546 250 144 12 45
432 619 367 117 16 41
387 599 386 81 32 40
457 867 287 79 64 54
201 549 251 158 16 46
200 551 255 188 11 51
208 554 242 59 29 37
276 551 205 160 20 42
204 558 253 112 18 36
242 554 348 53 26 30
206 559 252 109 20 41
239 642 284 174 7 55
206 564 257 55 33 35
210 545 226 109 26 41
349 558 298 82 67 50
211 549 227 109 26 44
209 547 229 178 12 47
311 609 452 180 127 118
213 554 227 119 24 42
214 552 224 132 20 39
214 557 229 154 23 45
238 654 312 85 26 36
382 879 307 32 30 30
215 560 231 120 25 43
317 583 412 86 8 27
209 552 234 140 20 47
362 558 362 61 49 36
212 559 237 157 19 48
218 557 224 154 24 49
441 834 216 83 68 54
210 560 241 186 11 49
214 562 234 32 31 36
403 734 167 68 51 40
217 564 232 145 24 48
215 565 236 125 29 44
400 765 265 157 114 82
358 674 217 142 102 79
377 848 218 79 64 56
214 567 238 174 11 49
282 608 395 180 123 104
218 568 233 174 18 49
222 569 232 164 18 47
218 573 238 116 26 44
367 609 427 98 12 36
199 729 332 175 120 96
222 575 236 127 23 43
191 664 322 161 110 85
298 552 329 84 67 48
223 573 234 176 22 51
212 564 242 187 11 50
210 561 245 187 8 50
327 799 227 83 65 55
210 565 247 188 10 50
252 524 198 121 19 35
211 569 252 183 11 50
208 569 257 80 31 39
214 573 247 185 4 48
279 856 318 149 112 88
210 571 256 158 28 50
211 574 257 73 31 39
227 519 202 143 22 41
227 524 206 164 12 40
461 520 298 101 1 33
398 793 159 91 74 61
227 528 209 179 2 38
237 513 204 124 21 36
237 515 205 153 18 40
314 547 383 61 35 29
234 516 205 166 10 38
227 530 210 180 1 37
227 534 211 180 2 38
277 609 373 113 67 63
411 848 231 86 71 59
227 540 215 175 3 37
327 794 226 82 64 54
227 544 217 122 24 39
223 634 366 141 105 77
512 833 228 86 65 57
242 515 205 94 32 39
282 954 357 59 56 56
300 659 345 167 5 52
232 544 218 126 23 42
369 602 399 125 18 40
237 534 213 174 4 36
237 538 214 175 4 36
371 600 416 142 16 46
237 540 216 176 3 37
237 544 218 146 16 40
363 724 218 105 66 51
302 927 254 90 79 77
334 751 324 82 64 55
242 513 204 80 32 40
375 689 262 149 13 45
472 609 331 138 17 43
247 519 203 90 30 38
245 516 205 85 37 39
353 605 236 82 36 40
289 598 405 170 115 95
193 654 322 127 93 70
245 519 205 85 33 38
248 524 202 54 32 36
203 584 292 123 23 46
297 765 343 86 69 60
246 529 206 81 31 38
357 914 368 53 46 42
244 528 208 108 24 39
293 831 313 125 85 67
248 529 203 54 35 39
242 704 331 57 37 33
252 519 198 94 25 35
257 514 196 140 11 31
401 717 197 73 55 47
257 519 197 155 10 35
250 519 200 77 29 36
512 873 261 99 82 68
284 910 360 142 117 97
220 606 276 197 11 52
251 529 201 56 36 37
253 528 199 62 30 36
257 524 198 182 10 40
241 525 210 54 29 34
324 854 254 53 46 48
246 534 207 96 29 40
252 534 202 92 35 40
257 529 201 111 29 40
252 539 203 95 31 39
292 779 237 78 61 53
248 544 207 100 30 42
268 894 317 175 127 104
309 617 435 182 119 108
251 545 205 83 35 41
257 539 202 98 26 34
242 534 212 131 13 37
396 864 258 70 61 56
417 872 264 74 65 59
241 540 215 175 4 41
217 739 304 127 93 63
242 544 216 169 6 39
404 714 232 144 97 63
331 679 335 108 20 39
308 573 397 66 11 24
246 539 211 148 12 41
246 544 212 115 19 38
227 548 219 100 33 43
476 579 330 168 10 55
232 554 222 102 31 39
237 550 220 126 25 42
237 554 222 99 30 39
255 546 205 57 36 35
305 837 314 157 114 91
253 553 209 83 31 40
257 554 208 47 37 40
242 549 218 144 16 40
241 664 323 56 29 31
243 553 219 89 30 38
249 548 209 111 38 45
251 555 211 107 28 40
244 643 279 162 6 43
250 560 215 123 18 41
396 555 258 75 44 46
246 564 222 86 24 37
241 704 287 105 10 33
247 569 222 153 10 40
337 606 337 76 29 39
424 628 382 145 16 40
217 654 363 158 112 88
252 564 216 139 22 41
257 563 213 64 34 39
234 643 302 54 29 34
252 568 218 152 22 45
257 569 217 110 29 41
316 927 254 91 83 83
248 573 224 172 7 42
232 560 225 114 29 42
232 567 229 60 34 36
227 574 233 151 25 46
235 703 306 81 25 32
226 576 235 54 29 34
245 624 379 166 119 96
237 564 227 104 34 43
294 721 234 42 34 40
237 570 231 94 31 39
386 578 247 56 27 31
241 565 226 109 32 44
242 569 227 124 26 42
427 564 292 55 36 38
240 570 230 123 27 41
217 579 247 194 13 51
215 576 250 159 5 51
427 883 327 75 60 50
215 579 252 187 5 50
218 578 243 113 24 41
220 576 240 75 20 29
222 580 242 72 26 38
357 621 447 137 31 51
220 581 245 151 20 52
217 584 252 193 9 51
220 586 250 199 15 52
387 719 272 125 20 44
211 700 309 125 94 61
221 589 252 200 15 53
220 591 256 199 14 53
222 594 257 202 15 53
253 577 224 194 10 47
232 583 238 202 10 46
238 588 239 173 5 40
226 581 240 203 14 46
236 734 345 163 109 82
227 590 246 203 14 51
231 591 245 205 11 52
382 589 382 83 29 44
225 591 250 202 14 51
232 594 247 200 11 50
226 595 251 205 14 53
228 598 253 205 14 53
230 596 250 204 13 53
232 599 252 201 12 50
233 603 253 201 13 50
201 744 317 173 118 91
237 594 243 123 15 38
237 599 247 192 11 47
217 724 348 170 118 92
390 552 284 57 30 26
239 597 244 134 21 42
233 597 249 196 11 45
235 600 250 195 11 49
469 522 280 47 35 34
237 604 252 161 16 46
238 602 249 143 11 45
247 579 228 178 6 43
240 580 235 172 5 38
388 828 254 36 29 27
202 674 311 138 103 70
243 584 233 171 5 39
242 589 237 181 7 42
384 851 230 73 62 56
246 590 235 194 16 49
356 639 307 92 26 41
238 644 288 174 10 47
250 576 225 186 8 46
252 579 226 199 10 49
252 584 228 183 16 48
256 580 225 143 18 46
257 584 227 118 27 43
438 871 328 82 61 46
252 589 232 131 25 44
243 593 238 183 20 52
253 592 234 134 32 49
252 598 238 75 34 38
397 609 386 149 19 43
241 595 241 130 25 44
245 596 240 127 35 47
426 768 177 74 57 47
247 599 242 95 27 40
247 604 247 92 32 40
313 600 401 170 106 98
548 870 239 82 70 71
248 602 244 166 24 47
241 605 251 90 24 39
242 608 253 198 13 53
245 567 354 89 21 36
247 609 252 149 21 45
257 604 242 155 22 46
262 529 377 102 24 40
255 606 245 54 34 35
228 669 332 132 83 69
241 610 256 205 13 53
390 729 282 158 17 47
317 914 243 89 78 78
269 911 345 79 77 78
238 533 350 36 25 29
245 611 255 182 32 65
302 699 356 133 12 42
421 774 149 97 77 58
348 925 266 70 62 64
376 552 272 67 37 32
247 614 256 67 30 37
248 613 254 141 37 56
254 612 249 97 23 33
287 550 420 61 25 32
258 613 248 115 28 43
257 619 253 69 36 40
347 556 347 61 49 36
185 514 262 104 24 40
263 714 346 46 28 30
185 516 270 44 28 33
326 947 366 67 60 58
187 524 267 49 33 34
302 599 226 123 27 43
186 524 272 55 33 35
188 529 267 53 33 34
184 514 287 153 0 41
247 524 362 132 10 45
184 519 287 115 14 38
372 609 252 59 25 32
187 529 277 66 30 36
323 601 225 73 33 40
185 521 287 57 28 32
185 524 287 49 29 34
234 739 284 119 12 36
190 534 262 157 17 47
189 533 267 63 27 34
343 888 218 103 88 81
189 534 272 72 33 37
372 654 201 127 95 59
190 539 272 114 23 41
192 544 267 177 1 46
316 813 316 154 105 83
192 544 272 176 3 47
188 534 277 61 33 36
189 537 274 102 46 56
272 514 405 114 29 44
404 634 220 136 99 63
189 538 278 53 32 35
289 859 297 175 122 94
191 544 277 177 2 48
191 544 282 181 1 48
185 514 292 153 0 40
232 629 371 149 110 84
184 515 291 153 0 39
185 514 297 154 0 41
396 833 207 84 70 64
185 519 297 155 3 42
254 710 259 145 3 34
186 514 302 143 6 41
417 763 157 100 76 56
186 519 302 148 6 43
186 524 292 80 26 37
186 524 297 160 4 43
284 852 289 193 131 100
186 529 292 55 31 35
187 519 307 153 8 45
233 659 331 158 110 93
188 519 312 54 24 34
427 869 337 74 62 54
189 514 315 79 20 37
191 514 318 42 27 32
395 759 275 165 120 91
404 821 204 97 72 55
189 524 312 97 20 38
189 529 311 159 7 47
191 524 317 62 30 35
397 884 277 63 55 54
247 649 352 163 104 84
435 517 264 186 11 44
277 874 337 124 69 69
407 729 222 117 81 52
190 529 313 118 15 41
187 534 292 77 25 37
190 544 297 144 11 45
191 544 302 87 20 38
430 560 294 60 25 31
190 535 308 167 0 47
232 689 322 133 88 79
189 532 310 162 3 43
211 784 332 189 130 102
191 534 312 137 10 44
193 534 317 36 28 31
247 754 342 152 100 76
376 581 380 119 16 38
190 539 307 165 1 46
307 594 447 149 116 100
192 544 307 170 8 50
192 549 292 147 12 46
248 609 357 70 47 35
192 549 297 45 28 34
194 543 258 183 0 48
194 543 316 154 15 50
194 547 263 163 3 39
411 834 247 85 68 56
212 714 307 128 96 63
199 553 258 166 12 43
195 554 272 117 20 43
351 568 306 78 64 49
200 556 260 100 36 48
201 559 262 83 28 40
352 784 202 58 49 46
483 863 282 92 68 57
193 549 277 180 0 48
266 514 198 172 6 38
229 822 341 199 134 107
305 671 345 165 3 51
341 918 253 77 70 71
245 669 282 90 24 37
195 555 276 182 1 47
195 556 282 178 0 49
292 719 235 40 35 38
303 585 441 140 106 93
194 554 287 175 2 46
196 559 282 173 4 47
240 652 337 127 81 66
253 769 263 65 53 47
195 559 287 138 13 43
204 563 258 59 33 37
204 567 263 157 30 50
434 620 364 92 29 35
392 534 256 64 11 24
200 560 266 180 27 52
314 870 262 49 43 45
278 754 244 66 35 38
247 699 272 62 33 38
203 569 267 83 34 40
357 744 322 82 64 58
238 809 287 166 115 84
271 749 348 155 18 50
201 569 272 52 34 37
377 553 257 64 24 28
283 832 264 97 76 65
208 574 262 58 35 39
203 574 272 89 33 41
387 784 172 66 52 46
205 575 270 114 30 40
322 589 220 103 30 40
198 564 277 102 30 41
388 740 182 53 45 39
197 659 316 119 92 63
263 825 338 176 130 104
282 960 327 68 62 63
197 564 287 59 30 35
397 552 288 57 23 25
241 625 270 186 11 48
242 569 367 89 16 31
199 569 287 48 32 34
200 570 277 74 31 40
217 754 303 131 96 63
202 574 277 109 28 40
347 594 428 118 8 37
376 685 302 128 13 41
201 574 282 76 33 39
210 575 261 97 40 47
425 609 370 147 16 47
349 781 309 83 65 56
193 549 302 95 30 41
436 746 155 101 76 58
441 558 296 95 48 31
316 804 236 82 64 56
194 554 297 36 30 34
242 618 263 50 30 37
334 842 309 145 111 88
196 559 302 123 27 45
237 529 352 36 26 28
194 548 307 86 25 38
306 614 432 183 116 105
195 550 312 40 28 33
243 759 268 140 4 36
195 546 314 113 16 44
197 549 317 52 26 33
361 709 217 131 94 73
437 881 312 88 71 57
356 914 262 70 62 63
197 559 307 122 29 46
407 824 217 75 61 56
201 559 317 167 1 51
382 589 287 68 30 39
197 564 292 92 32 40
397 555 292 57 25 25
419 825 252 65 52 40
197 564 297 67 32 37
342 587 394 150 11 39
487 519 283 60 31 32
264 532 389 138 31 55
313 554 392 74 33 30
199 569 297 38 29 32
199 568 301 64 31 38
199 572 288 44 34 34
402 621 418 129 25 48
200 571 297 42 31 34
200 574 292 39 30 34
442 596 340 118 27 41
200 574 297 51 29 34
200 564 312 90 23 37
200 569 307 78 25 38
422 718 198 63 51 39
200 565 308 87 22 33
200 560 314 163 9 50
201 574 307 87 21 38
392 554 257 63 44 47
203 574 316 153 7 49
198 519 327 70 28 36
306 758 346 89 71 63
194 524 321 108 28 43
196 524 323 90 26 37
307 534 201 116 26 38
194 529 320 39 31 31
198 529 326 109 18 38
202 514 332 57 29 33
207 519 337 62 28 34
317 624 338 108 27 44
200 525 329 130 28 47
203 524 332 67 28 33
203 529 331 64 27 33
205 525 334 107 21 43
208 529 336 139 9 46
272 774 346 155 117 93
393 830 256 41 34 31
194 532 320 39 31 33
271 689 344 38 26 28
197 534 322 122 12 43
198 539 322 160 2 48
423 769 202 58 44 36
208 640 342 113 88 59
296 759 236 109 36 47
199 537 325 159 0 47
206 534 333 126 9 43
202 539 327 162 0 49
405 621 224 105 86 65
201 545 324 167 0 50
277 704 352 120 16 40
203 544 326 167 0 51
204 538 330 161 1 46
207 539 332 161 0 48
447 594 347 159 14 50
205 541 329 162 0 47
206 545 328 170 0 52
332 644 239 121 14 31
208 544 331 169 0 52
210 514 339 128 22 47
213 514 341 86 21 36
216 514 343 40 29 30
217 519 343 76 24 35
329 792 224 79 62 53
291 585 369 109 24 43
436 741 151 101 75 59
211 524 339 67 28 35
211 529 338 76 22 35
217 524 342 148 4 45
390 892 345 70 56 44
213 529 340 91 14 33
219 518 345 37 25 27
340 623 325 95 27 41
222 514 347 103 14 40
285 631 245 124 45 51
220 524 344 149 0 45
209 538 335 160 0 50
212 534 338 157 1 48
344 951 344 57 52 51
212 539 336 163 0 49
252 633 376 189 126 102
215 535 339 157 0 47
222 739 303 114 83 58
291 924 261 72 63 62
214 532 340 153 0 50
217 534 341 156 2 48
437 593 337 87 16 32
238 719 287 81 24 33
222 534 343 136 13 46
347 669 323 121 15 40
298 904 257 57 54 55
234 715 299 97 24 35
218 539 340 100 19 39
399 752 259 152 105 76
219 544 340 62 24 33
222 539 342 43 24 30
202 554 322 165 0 49
204 552 325 162 0 51
205 555 324 168 0 50
206 559 323 170 0 51
337 699 339 72 29 37
478 863 303 71 56 45
306 769 230 74 59 52
313 818 244 83 64 57
208 559 326 168 0 51
257 604 353 55 25 31
381 630 209 101 84 67
419 581 269 110 84 46
206 564 322 155 1 46
207 569 322 155 0 47
383 815 187 66 52 48
338 606 415 159 89 90
211 549 333 163 0 49
357 649 247 77 29 38
412 874 272 68 58 54
217 549 338 156 0 47
245 770 270 70 56 49
210 559 329 163 0 50
213 559 331 155 0 46
217 559 336 148 0 45
219 547 340 129 7 37
220 559 339 147 1 45
249 680 330 84 26 39
278 814 333 60 49 44
231 573 348 89 23 36
223 559 341 124 11 40
347 580 390 140 16 41
209 564 326 152 0 45
209 569 325 155 0 47
213 564 331 151 0 46
272 534 351 111 69 61
337 854 312 143 113 89
280 546 400 58 27 31
213 569 331 152 2 45
216 569 333 155 3 48
260 531 396 55 27 31
399 655 222 175 118 89
209 574 325 155 0 46
352 724 220 64 33 33
354 559 293 79 63 47
212 574 328 157 1 47
214 574 330 159 3 50
341 582 370 105 22 43
219 574 336 153 11 50
220 564 338 150 4 45
220 569 338 158 7 49
223 569 341 144 9 47
384 719 313 48 28 31
287 759 241 122 33 45
227 514 352 167 1 50
227 519 348 155 6 47
227 524 348 65 23 34
251 774 266 69 56 49
390 573 312 118 21 42
233 524 351 44 27 31
394 593 394 147 11 44
447 863 302 77 58 42
231 529 349 32 26 29
227 534 346 52 25 31
423 614 252 192 129 101
467 544 299 138 12 43
225 535 344 37 26 27
232 534 347 69 25 33
230 540 344 88 28 39
230 544 344 84 20 32
233 544 345 91 24 37
307 534 382 83 34 35
337 603 437 72 18 27
236 535 349 86 26 37
267 549 347 102 72 59
507 871 252 103 82 64
237 544 347 69 26 33
239 537 350 118 25 45
256 524 336 153 51 74
256 529 336 168 22 70
256 514 342 127 85 72
254 519 342 127 83 72
249 512 346 116 76 64
252 514 347 114 75 63
474 528 300 117 0 35
253 519 351 116 75 64
253 514 350 110 71 60
256 514 353 106 66 57
254 520 339 133 87 78
415 846 255 92 78 65
254 529 339 165 35 73
389 733 272 69 33 39
366 887 337 32 29 30
255 525 346 128 72 68
257 524 351 124 72 66
253 529 347 138 60 67
428 594 363 157 16 49
407 639 227 193 129 98
436 834 222 80 66 54
256 530 349 140 59 68
242 539 350 98 23 38
240 540 349 102 26 41
338 631 240 40 37 32
428 514 271 74 0 27
238 624 375 152 111 85
247 539 352 83 26 36
254 534 339 159 30 68
257 534 337 156 26 64
344 801 304 162 113 91
253 534 342 157 36 68
359 676 230 70 50 43
254 534 346 151 45 68
257 534 348 151 46 68
255 532 350 146 53 68
467 534 283 112 27 39
269 949 332 64 60 60
257 539 337 144 54 70
203 649 346 134 100 69
254 539 342 154 40 67
255 540 342 150 47 68
292 769 241 76 60 52
407 556 295 58 16 24
257 544 342 133 65 68
257 543 346 135 62 68
304 731 359 185 16 59
432 598 281 174 125 110
229 512 356 175 0 52
232 513 357 155 8 50
234 517 355 60 26 32
375 922 312 54 47 45
364 822 178 84 68 57
236 520 354 43 25 29
312 884 242 62 58 60
205 590 297 94 21 38
237 514 362 140 16 48
372 679 287 131 19 43
234 512 367 176 0 52
237 784 351 166 122 91
275 669 250 81 31 38
239 517 360 53 26 32
236 826 344 202 144 121
239 523 355 38 28 30
240 516 363 86 22 37
242 524 357 64 29 35
243 528 356 76 27 36
252 714 262 138 4 38
244 523 360 78 22 35
445 826 200 101 83 70
203 659 351 153 110 82
210 774 338 179 124 95
443 846 217 102 87 76
245 521 363 171 3 54
257 519 353 113 71 61
437 829 212 90 77 64
228 634 302 163 25 54
249 527 360 152 2 44
382 577 367 117 19 40
404 826 215 78 61 56
251 526 363 158 0 49
254 527 365 157 4 47
241 515 372 175 1 52
372 556 297 66 49 35
244 517 377 175 0 53
247 520 372 175 0 54
241 515 382 164 10 52
244 517 382 168 5 52
260 754 255 91 26 35
453 875 298 73 61 53
249 522 370 172 0 53
392 569 307 76 25 30
254 659 269 133 0 34
256 525 372 146 9 48
255 526 369 160 0 49
253 523 382 138 16 47
267 557 209 157 12 39
257 525 382 105 27 41
211 654 358 153 111 83
324 856 242 53 50 50
245 531 354 38 26 28
251 530 358 150 4 46
267 519 356 94 45 44
250 536 354 89 19 36
402 609 391 144 16 45
256 535 358 58 26 32
227 549 343 126 8 39
230 548 344 96 28 39
226 554 343 95 21 39
224 626 360 128 99 68
226 559 343 36 25 28
229 554 345 97 21 35
232 554 346 101 24 39
232 559 347 102 22 40
349 770 209 58 49 47
245 694 276 47 34 37
237 549 347 45 25 28
226 569 344 127 11 41
374 558 249 61 17 24
296 604 388 156 98 85
228 564 346 49 25 30
232 569 347 69 23 32
237 564 347 91 16 33
237 568 348 84 20 34
237 570 352 54 26 29
235 572 353 50 23 28
247 549 350 55 25 31
242 559 348 66 26 34
256 519 399 127 21 44
245 559 349 56 27 32
287 709 359 69 25 34
252 554 353 56 28 32
341 534 296 149 55 72
242 564 348 59 25 32
242 568 352 68 24 31
244 566 351 63 22 30
232 574 357 62 25 31
407 604 266 145 97 90
233 575 361 101 27 41
302 551 344 78 62 44
238 571 362 71 19 31
238 574 366 156 11 50
254 556 355 36 28 27
249 809 278 74 59 54
283 514 199 129 7 28
252 724 262 141 6 40
253 560 356 55 28 32
402 544 272 54 19 25
242 659 292 137 2 38
246 567 357 65 26 32
270 919 307 67 60 58
244 676 284 66 24 33
248 566 362 36 29 29
306 823 315 152 105 83
251 563 357 54 27 32
255 562 359 100 33 47
256 562 367 38 28 27
273 836 319 57 46 43
442 881 292 77 61 51
252 575 367 124 6 39
231 690 318 128 81 70
247 568 372 119 15 39
419 775 207 64 50 41
243 570 371 131 9 41
248 570 376 116 17 40
248 572 375 164 12 53
252 564 372 77 21 29
322 594 350 33 23 24
355 686 325 37 26 30
432 758 151 93 74 59
328 789 223 75 60 52
256 562 372 77 16 30
349 620 318 145 21 51
257 563 377 95 19 34
257 564 382 91 24 37
254 566 380 79 26 38
409 591 340 33 33 21
372 704 203 145 104 71
363 614 307 87 23 38
252 574 372 133 9 41
257 575 372 112 9 37
271 822 336 156 120 96
208 579 267 118 31 45
205 580 276 92 37 43
206 584 277 99 30 42
338 819 222 57 49 47
204 582 279 37 31 36
203 579 282 93 32 42
282 604 376 106 58 58
227 704 346 154 104 77
378 858 226 69 63 64
202 579 287 58 32 38
204 583 283 62 33 39
278 780 344 52 43 43
208 589 277 95 31 43
208 594 282 92 31 43
207 594 287 142 20 46
327 553 347 72 58 43
214 582 259 43 27 31
210 580 266 89 28 38
216 589 262 191 8 50
239 656 358 173 113 89
213 588 268 112 23 40
264 669 340 36 27 31
214 587 264 186 10 54
385 533 234 43 37 40
480 588 326 156 9 49
215 590 266 159 11 47
422 625 392 124 8 40
218 594 262 194 7 50
492 829 186 99 91 84
374 795 179 63 51 46
224 598 258 204 15 54
219 597 264 191 8 46
412 625 407 193 20 64
368 552 258 74 37 35
218 598 268 71 27 37
221 600 266 139 15 45
222 604 267 180 13 48
215 600 276 191 13 48
209 598 287 184 7 52
340 675 330 135 29 53
212 604 287 192 1 51
215 605 281 196 1 51
216 610 287 196 6 53
473 594 323 108 7 30
219 608 278 196 10 51
277 553 387 58 21 30
239 710 289 74 27 34
203 584 297 53 25 34
202 579 302 99 26 41
431 757 158 91 70 52
204 587 288 172 11 54
335 582 440 54 26 30
266 769 255 70 56 49
205 589 292 77 28 39
204 588 297 64 29 39
376 922 356 69 59 56
205 590 302 180 3 49
308 809 243 81 63 56
200 744 322 177 122 96
203 579 307 71 28 38
203 579 312 106 20 41
204 584 307 149 12 49
205 579 317 150 7 45
205 581 314 163 6 48
206 584 317 156 1 45
358 581 353 147 11 48
205 589 307 171 0 46
370 680 306 134 10 42
206 589 317 158 4 47
287 534 199 145 0 31
206 594 302 185 0 49
277 614 391 192 131 111
207 594 307 173 5 49
207 594 312 91 19 38
386 588 257 47 30 30
342 839 297 135 108 87
209 599 297 131 15 43
210 601 302 141 31 50
308 512 304 155 12 57
431 834 222 93 75 63
504 590 294 119 7 33
211 604 302 68 33 39
386 544 254 68 10 25
293 689 239 116 15 30
209 599 307 111 26 42
382 614 417 104 4 34
261 609 388 164 119 98
211 604 307 69 31 37
214 608 307 111 32 43
216 609 312 87 28 39
213 603 316 139 26 50
223 613 278 200 12 53
218 614 287 202 5 53
362 578 407 103 11 31
222 614 282 201 6 53
362 854 282 34 30 30
220 616 286 202 6 55
223 618 283 144 23 48
222 619 287 98 29 41
216 614 297 120 31 47
382 553 287 61 43 31
217 614 302 108 31 41
482 559 278 127 91 60
422 777 157 91 72 59
219 617 289 152 11 33
220 620 297 116 35 45
222 624 297 136 28 48
337 745 328 85 65 56
429 520 275 79 0 29
422 629 397 196 16 65
222 624 302 93 35 43
215 610 307 102 33 42
218 613 312 53 32 35
392 553 262 49 19 25
220 615 313 41 31 32
221 615 317 87 30 41
219 617 307 120 35 48
377 834 203 109 80 63
221 619 312 98 30 41
322 554 342 78 63 47
223 624 307 144 29 50
223 623 312 124 34 50
223 619 317 110 29 44
225 601 260 204 14 52
226 604 262 205 14 53
297 919 252 80 70 67
225 606 266 204 13 54
230 616 271 203 13 52
236 615 266 202 14 51
239 617 264 94 23 33
234 618 268 203 14 53
235 621 270 198 13 51
299 512 309 153 15 57
377 904 292 72 62 61
224 612 274 201 11 53
228 619 277 108 19 41
343 549 297 104 82 60
229 617 274 199 2 50
277 569 213 137 18 43
414 769 227 102 69 43
229 622 279 93 15 29
335 559 214 149 1 33
292 545 348 78 60 43
232 624 277 193 15 52
226 620 282 52 31 37
425 586 279 130 88 83
231 625 281 186 18 51
228 628 288 111 22 42
421 773 212 51 37 31
235 625 276 191 13 49
237 629 277 186 12 48
238 628 273 186 11 49
389 659 234 155 97 78
235 631 280 189 12 51
238 633 278 183 11 46
236 634 282 185 12 49
233 634 287 118 18 42
235 636 286 189 9 47
292 644 243 85 29 37
238 639 283 180 9 47
349 911 255 75 66 66
248 624 263 185 9 46
242 624 267 188 10 46
411 575 292 76 32 36
420 822 237 73 58 44
253 623 258 149 24 49
251 624 261 153 12 43
242 629 272 180 9 45
332 609 354 117 8 37
243 627 269 180 8 43
247 639 272 170 5 44
434 577 359 162 17 50
337 789 218 74 58 51
229 628 322 81 36 41
252 629 263 73 27 38
258 628 258 43 35 40
256 630 261 47 34 38
249 628 264 174 10 47
250 630 265 108 15 35
257 634 262 56 36 38
249 638 269 172 2 42
374 545 230 136 30 45
360 928 278 79 67 66
297 970 322 67 63 64
217 744 303 128 93 64
243 639 278 176 9 46
224 622 315 45 30 34
225 621 318 57 28 34
225 626 291 95 38 44
226 629 297 42 34 38
398 704 211 108 84 57
224 627 298 32 34 32
226 629 302 70 33 40
230 636 300 190 17 58
231 639 302 79 29 40
322 859 342 132 104 75
236 624 373 143 106 79
232 769 349 166 122 91
234 638 292 180 8 48
235 640 292 178 11 51
224 627 306 104 30 44
226 629 307 82 35 41
227 629 312 42 32 35
230 631 318 42 28 31
304 899 247 64 59 61
284 542 350 82 61 44
229 633 312 38 32 36
230 635 312 36 30 35
229 632 316 35 31 33
259 822 274 81 63 57
422 626 397 95 1 28
231 634 317 34 29 33
229 619 336 81 21 34
208 579 322 158 0 47
238 599 345 111 21 41
209 577 325 160 0 49
358 603 423 128 12 42
214 579 330 160 5 50
246 649 347 146 92 74
308 828 249 59 54 56
210 585 324 168 0 51
211 589 327 144 4 43
378 760 177 55 46 41
215 587 334 113 8 35
216 589 337 101 17 35
220 583 337 97 29 43
344 634 319 49 27 32
317 614 422 172 108 103
351 958 322 62 57 56
224 581 346 74 24 33
224 584 350 52 29 31
219 586 345 58 24 31
460 830 180 108 91 75
418 814 227 82 65 55
219 589 346 120 22 46
222 589 347 142 17 47
224 587 350 73 22 34
373 562 347 64 52 40
211 594 327 133 14 43
212 599 322 112 30 45
467 573 327 61 12 23
215 596 333 177 8 53
214 597 330 174 15 56
215 601 324 51 27 33
221 609 327 177 5 52
222 604 337 174 8 53
382 614 407 113 15 42
220 605 333 179 6 55
217 594 342 81 24 37
365 684 205 151 108 76
311 926 255 92 83 83
219 598 341 176 14 56
222 595 344 75 20 33
223 602 340 131 15 45
383 614 413 155 17 49
224 613 331 170 5 51
333 813 228 73 58 53
224 618 322 176 14 54
329 581 377 49 28 29
423 770 192 76 58 48
207 640 332 95 78 58
432 632 380 112 24 46
213 636 333 88 71 50
217 635 332 90 71 48
217 633 337 88 70 50
216 637 330 98 78 54
396 617 436 176 35 68
222 630 337 85 65 41
224 631 334 81 60 34
347 634 317 75 30 39
222 639 327 86 66 43
223 635 329 77 59 36
222 633 332 82 62 38
297 559 422 78 24 33
217 630 347 107 84 57
212 635 342 109 86 59
398 791 163 94 80 69
210 637 342 112 88 60
215 632 342 103 81 56
213 635 347 117 91 61
312 962 350 66 60 58
211 638 347 123 96 63
227 764 348 167 123 93
214 635 351 128 98 66
215 633 352 126 97 66
410 754 237 138 99 61
375 734 205 125 94 64
222 628 342 89 69 45
218 630 352 118 92 61
220 627 346 99 78 53
223 625 347 97 76 51
220 627 353 113 88 60
222 625 352 107 84 56
372 614 267 172 7 54
392 884 347 59 50 44
348 944 277 80 72 73
217 634 357 132 99 69
292 694 353 45 29 30
398 840 242 81 66 56
214 640 356 133 100 69
289 940 365 53 46 46
266 566 215 106 21 36
221 628 357 126 97 67
219 635 361 133 100 70
222 639 366 150 110 83
225 578 344 58 27 34
412 614 387 138 12 44
232 585 352 57 25 30
237 584 352 51 25 29
237 586 349 79 24 33
232 599 343 39 26 29
232 593 345 78 19 32
225 606 339 130 15 41
286 767 345 84 69 59
232 609 340 65 27 33
218 804 317 192 129 100
236 599 344 88 22 36
237 604 343 75 26 34
432 600 278 183 127 109
237 609 342 60 29 34
374 920 307 56 48 43
239 603 345 124 22 45
372 594 391 107 17 43
242 586 349 44 23 27
242 583 352 36 25 27
242 589 347 55 25 30
246 586 349 124 19 45
226 644 369 163 115 91
247 589 349 80 23 36
252 584 351 73 21 33
316 884 236 65 60 61
252 589 350 59 24 30
242 594 346 80 25 35
247 594 348 49 24 29
247 599 348 114 16 40
332 604 451 84 31 38
240 606 344 46 28 32
283 799 253 75 59 52
240 609 344 49 25 29
287 804 253 77 60 54
522 859 256 118 98 80
251 594 349 46 24 30
395 568 301 64 24 27
251 603 349 79 26 37
252 604 352 54 25 30
250 608 353 44 25 31
228 582 355 48 26 30
428 771 151 91 74 61
229 576 356 80 18 30
232 582 356 59 28 31
233 578 361 92 25 39
236 582 355 30 24 27
237 580 358 30 25 26
242 580 357 59 21 29
241 582 355 31 24 27
404 785 157 91 75 63
247 580 357 132 12 43
247 581 354 127 14 41
501 583 311 147 15 47
261 625 255 56 38 41
247 578 361 128 9 40
252 581 354 140 15 47
401 769 266 160 117 85
217 649 323 103 73 43
257 578 357 136 13 43
274 847 288 192 137 103
251 576 364 127 7 41
397 664 227 160 107 77
250 607 356 48 31 28
252 605 357 38 27 27
248 610 362 90 69 47
402 568 292 63 26 31
252 605 362 65 45 33
385 749 181 61 50 42
257 603 367 88 64 45
257 605 362 62 40 30
413 565 317 82 14 28
452 829 187 101 82 66
252 604 372 107 81 58
251 608 377 129 98 71
262 622 385 188 131 109
255 602 377 114 87 63
242 646 332 146 81 80
253 609 381 140 104 78
225 620 322 102 20 41
297 524 372 79 19 33
224 617 326 179 3 50
226 619 327 170 6 51
229 624 332 47 29 34
228 624 337 56 38 30
231 610 339 48 25 30
488 830 184 104 92 81
312 613 354 76 17 31
227 623 347 90 71 47
239 616 350 70 54 40
373 604 297 60 25 32
236 617 343 59 22 28
230 629 327 43 28 32
227 629 332 52 39 30
230 626 328 39 28 30
227 634 327 56 41 33
229 640 324 79 53 42
225 627 340 84 64 39
242 615 352 71 54 38
246 612 352 67 46 35
253 639 342 82 32 38
257 635 343 120 23 44
252 639 347 127 76 65
256 633 347 86 44 42
253 639 352 160 99 85
322 664 234 80 29 32
226 623 357 114 89 61
327 908 362 51 42 38
208 664 356 161 117 90
332 908 362 37 34 34
232 620 357 108 85 60
245 652 352 162 103 83
232 620 362 119 93 64
228 625 366 129 100 69
237 619 357 104 82 58
333 539 303 121 92 71
282 544 201 84 28 37
237 618 362 114 89 62
236 618 367 124 95 67
239 616 370 124 95 67
466 874 262 93 79 67
234 621 370 130 99 70
401 881 275 63 56 55
225 628 363 130 100 70
224 631 365 136 103 74
226 634 368 147 108 81
226 639 368 156 112 87
230 628 369 138 105 76
423 565 291 50 39 44
229 630 370 147 110 84
367 609 457 150 20 52
232 634 372 159 115 89
232 639 372 165 115 91
237 639 373 173 120 96
246 612 357 84 65 44
242 613 367 114 89 62
244 611 368 112 87 59
425 577 271 111 85 51
245 612 362 98 76 53
248 615 380 148 109 84
292 594 422 170 117 100
384 736 194 79 64 54
242 619 377 144 107 81
242 624 377 159 115 90
442 881 307 82 66 51
248 619 381 160 116 92
358 561 303 69 54 41
252 614 382 154 114 90
252 624 382 177 122 100
256 638 357 170 104 87
256 638 362 175 109 90
399 596 255 83 59 43
252 640 367 181 117 95
267 609 357 49 25 31
242 629 377 169 120 96
247 629 379 178 124 100
248 627 380 177 122 99
369 596 240 37 26 29
242 634 376 177 123 98
247 634 377 188 130 105
402 529 243 62 33 40
247 639 373 188 124 100
252 630 379 191 130 107
257 634 372 184 119 97
285 609 379 139 85 76
245 515 389 92 27 41
316 544 402 74 21 31
427 883 278 74 61 52
247 514 392 102 27 42
250 520 393 118 24 44
250 521 387 165 9 51
257 529 397 96 29 41
192 654 327 135 98 74
191 659 327 153 106 82
269 577 219 184 5 40
368 572 399 117 12 39
191 664 332 159 109 84
191 669 327 165 113 88
191 669 332 165 115 88
362 759 312 91 70 61
193 664 337 154 106 80
217 699 349 167 115 90
191 674 327 169 118 92
191 679 322 168 115 91
392 628 251 148 94 81
191 679 327 171 117 92
292 704 236 122 14 31
192 679 332 172 119 93
197 654 318 106 83 58
328 923 242 86 78 78
202 655 318 106 84 58
344 800 212 48 44 45
207 655 318 108 83 52
347 564 221 152 1 35
266 558 382 39 28 29
198 661 314 122 95 64
198 664 313 126 97 65
349 956 329 58 54 53
198 669 313 135 101 69
195 669 315 141 103 73
193 669 317 153 108 80
202 658 315 114 89 58
202 660 314 114 89 58
315 882 240 60 56 58
212 655 318 111 80 48
388 811 181 85 64 54
220 655 319 122 75 53
271 623 372 168 102 84
327 889 227 78 67 65
212 658 315 118 81 53
217 659 316 123 78 55
407 620 396 128 13 43
215 661 314 123 80 56
215 664 314 124 79 56
215 669 314 125 78 56
327 608 354 77 13 31
218 664 316 126 78 57
401 544 256 75 44 48
218 669 316 125 77 58
193 674 317 157 109 83
274 914 297 57 53 53
362 784 187 61 48 43
195 679 315 154 109 80
198 674 313 142 104 73
194 689 318 165 113 85
196 689 316 159 111 82
198 689 313 151 107 75
335 829 232 56 50 49
404 724 237 151 103 69
202 679 311 140 104 71
207 674 310 131 93 64
327 598 224 94 30 39
263 529 406 68 30 35
202 684 310 142 105 71
473 837 172 109 92 75
205 683 309 133 100 66
292 553 204 157 13 41
207 684 310 129 96 63
457 599 342 158 13 51
207 688 310 130 97 64
276 549 378 124 1 38
427 872 262 91 81 79
198 694 313 150 105 74
196 699 317 164 113 85
327 609 417 142 77 76
194 698 319 170 115 89
199 699 313 151 107 77
489 602 309 51 34 41
201 694 311 143 104 70
204 694 309 137 102 67
207 694 309 132 98 64
207 699 309 132 98 65
222 784 348 172 124 95
217 679 314 114 74 50
212 684 311 120 85 55
212 689 310 122 89 57
248 645 342 129 55 54
217 684 313 113 76 51
218 673 315 120 74 54
320 579 433 68 21 32
222 674 316 122 75 60
352 581 360 148 10 51
222 684 314 109 72 49
209 693 310 129 96 62
210 696 309 126 95 61
452 588 312 55 30 34
217 694 311 112 80 52
202 645 327 94 78 59
217 701 309 118 87 57
222 694 313 106 72 48
219 685 349 165 111 86
257 754 258 115 22 37
337 724 221 91 27 31
221 704 309 114 81 54
257 669 336 52 29 33
223 704 311 110 75 51
253 644 268 88 27 36
354 584 230 99 22 32
302 639 343 172 17 56
251 644 270 112 16 37
256 644 266 92 20 34
279 614 375 147 91 78
256 649 266 155 0 41
251 654 272 144 0 35
408 530 250 167 5 40
253 654 268 148 0 37
256 654 266 146 0 36
248 649 273 165 4 44
242 644 282 165 7 44
247 654 277 151 0 38
245 655 281 152 1 39
337 579 412 74 7 26
447 555 312 108 6 35
256 659 267 134 1 33
405 643 223 186 123 96
251 669 271 68 25 33
253 669 268 45 33 35
255 669 266 47 32 35
243 659 287 130 2 35
262 779 258 67 54 49
243 664 287 135 3 37
341 523 295 163 25 73
245 659 282 127 4 36
244 659 284 127 4 35
244 664 284 125 14 40
395 589 340 60 20 25
201 714 311 150 106 76
196 654 337 135 100 72
244 669 287 93 14 34
262 529 382 69 29 36
290 849 303 172 119 93
230 667 337 148 97 79
237 644 292 171 17 47
374 870 220 82 71 69
238 649 297 142 8 41
239 652 297 169 7 46
199 664 346 160 112 87
268 719 350 142 16 46
233 643 307 96 29 40
385 714 267 144 16 45
234 643 312 102 29 44
237 649 312 65 26 35
380 864 224 69 64 63
322 599 348 54 20 26
234 648 318 109 47 47
239 654 307 151 13 44
332 809 306 160 114 92
239 659 308 105 18 37
277 949 352 46 44 45
245 704 276 51 34 36
239 668 316 79 24 33
365 528 280 141 100 85
262 534 402 83 27 38
267 554 367 111 13 39
283 597 380 106 64 58
240 650 291 156 5 43
370 759 305 97 75 66
327 955 353 64 60 59
241 654 292 169 5 46
352 729 330 164 21 54
346 940 370 70 63 59
240 655 297 168 5 46
242 664 297 131 4 36
257 649 338 107 24 41
311 558 340 80 65 48
335 581 439 59 26 30
243 669 292 118 7 36
401 533 244 58 32 38
243 669 297 104 14 36
242 669 302 80 20 32
442 584 353 157 5 48
240 656 306 152 11 44
356 654 217 152 111 87
241 664 307 89 18 34
240 668 312 46 29 32
257 679 262 92 21 33
423 594 255 109 88 64
407 799 262 158 114 91
250 674 271 50 36 39
253 679 267 58 34 38
342 659 239 70 28 31
364 940 323 61 54 51
361 729 220 67 30 31
250 679 271 47 35 37
203 689 346 177 122 99
255 673 265 46 34 39
254 680 264 70 29 34
257 684 261 135 12 39
398 584 339 59 15 25
497 574 279 139 100 71
254 684 264 131 17 39
252 684 267 77 27 36
251 689 267 70 31 36
247 679 277 44 33 35
245 674 282 52 30 34
318 912 364 91 72 59
244 689 279 81 27 36
243 684 282 99 18 37
242 689 287 57 28 34
245 683 280 32 29 33
256 694 261 88 24 34
194 699 322 174 119 95
319 876 239 60 54 55
253 704 262 60 31 37
302 644 342 173 9 55
249 704 268 92 28 37
244 694 279 48 31 34
243 694 282 49 31 35
243 699 282 55 28 35
226 679 318 128 80 66
402 830 232 63 52 47
230 686 319 129 84 73
239 679 316 78 23 31
238 689 317 55 32 31
237 704 302 83 19 32
225 694 314 103 69 48
232 694 317 122 79 68
378 585 312 148 15 47
226 699 314 104 70 48
228 699 315 102 68 49
232 699 316 108 68 60
282 529 357 85 41 41
237 694 317 81 48 49
420 591 254 103 85 67
237 699 307 69 25 30
422 528 273 77 2 29
397 600 337 97 31 43
236 699 312 51 35 33
235 702 315 89 61 62
243 674 292 94 20 36
322 714 347 161 11 52
327 564 317 86 71 55
327 564 213 157 4 36
242 674 297 59 29 33
392 649 237 158 100 80
242 679 292 68 25 33
241 684 297 76 26 36
266 603 354 57 22 31
241 674 307 65 26 34
286 591 225 184 4 41
240 683 306 38 29 33
437 518 268 181 13 44
240 683 318 58 28 33
241 699 292 119 3 35
209 782 318 196 132 105
240 702 296 102 11 35
396 587 270 103 21 37
240 698 301 66 24 33
240 693 305 60 29 33
199 646 328 93 74 53
194 651 327 120 91 67
360 606 426 97 3 30
193 654 332 136 100 72
195 652 333 128 96 68
354 639 309 68 27 34
245 761 345 159 109 80
370 557 273 76 53 41
202 649 322 98 80 58
202 644 337 109 87 61
200 648 338 120 94 65
201 649 342 128 98 68
400 745 255 160 110 83
204 646 345 127 97 66
368 774 177 70 53 45
204 654 351 143 103 76
206 654 353 145 106 77
193 659 337 147 104 77
195 658 338 148 105 78
197 659 342 150 107 79
194 664 340 154 106 80
272 778 345 155 115 91
196 664 342 159 110 85
344 610 438 73 23 29
199 659 345 149 106 78
200 664 348 160 112 87
250 722 265 144 4 34
473 545 284 85 65 44
203 664 351 159 114 86
348 950 338 58 55 55
200 669 348 162 116 89
283 557 338 79 62 43
468 880 321 92 73 58
203 669 351 163 116 90
212 649 322 99 77 49
387 563 249 111 28 43
210 647 325 100 81 59
217 643 325 93 73 47
213 646 324 96 76 51
412 629 247 198 131 104
209 641 329 93 77 60
221 645 324 98 71 43
222 649 324 111 72 48
223 659 321 126 76 59
307 749 227 129 10 32
208 659 356 154 112 83
278 619 349 45 24 27
208 669 356 172 122 97
429 756 186 62 48 38
210 647 354 139 103 72
292 593 366 54 24 30
215 642 359 139 103 73
389 737 266 139 109 80
217 644 362 147 107 80
214 645 360 144 105 77
217 649 363 154 111 85
209 650 355 145 106 76
213 654 360 154 111 84
220 644 364 152 111 83
352 764 211 58 49 44
222 654 366 170 118 93
220 656 364 168 118 95
211 664 358 170 121 96
204 724 309 150 106 75
213 663 360 173 122 97
330 874 346 146 114 87
217 669 358 179 123 96
222 659 363 180 124 99
222 664 361 179 119 95
416 760 220 55 42 33
224 666 359 177 117 91
430 775 159 96 76 64
379 577 399 115 8 34
220 667 360 179 122 97
192 684 322 171 117 92
193 689 327 175 122 94
235 806 291 175 118 85
457 554 307 124 10 39
194 688 336 176 121 95
197 679 342 171 119 94
195 681 339 174 122 95
357 610 447 75 16 30
195 685 339 175 120 94
198 689 341 174 119 93
470 581 301 201 132 114
201 674 348 168 120 94
377 613 452 166 31 60
412 844 228 95 71 55
202 679 347 176 123 99
327 582 372 37 26 27
201 689 343 179 125 97
203 684 346 177 122 100
217 759 302 132 96 63
193 694 322 173 119 93
194 694 332 176 122 96
326 534 306 134 78 71
196 694 337 172 118 94
195 704 322 175 121 96
210 769 339 175 122 92
194 702 324 175 120 96
195 701 328 176 119 96
403 609 388 150 17 45
417 739 157 78 59 44
195 704 327 176 120 96
195 699 332 176 121 97
272 619 367 138 86 75
196 704 332 176 120 98
405 721 222 123 84 53
199 699 340 168 116 92
199 703 340 168 116 92
392 524 251 66 7 26
462 874 312 91 73 61
207 694 347 173 118 94
377 529 229 72 38 40
202 704 342 168 116 91
205 700 344 170 116 93
207 704 346 170 117 93
222 674 353 172 115 91
502 579 282 203 123 114
277 514 406 76 27 34
352 724 330 101 26 41
221 678 351 168 113 89
222 689 346 149 98 75
364 714 213 152 111 86
381 818 270 68 55 50
211 690 349 170 115 91
302 514 402 78 22 33
217 694 349 165 113 88
212 699 349 170 117 91
316 753 341 89 68 59
222 694 347 153 101 77
470 840 196 101 89 77
372 578 362 159 8 52
479 831 180 104 90 77
209 673 355 179 124 100
204 764 317 182 123 98
221 673 355 178 119 93
303 744 229 57 28 33
226 644 325 94 65 45
224 647 325 103 68 46
352 878 308 32 30 30
232 644 322 106 57 51
273 939 288 76 70 71
442 739 182 78 60 43
232 648 323 123 74 64
232 654 327 132 84 71
355 582 229 132 19 37
329 581 374 33 27 23
236 646 326 136 67 72
239 650 330 122 85 84
236 653 328 121 77 68
229 659 325 141 94 78
229 664 326 153 104 87
342 774 213 69 55 48
230 664 328 153 104 89
418 564 286 38 32 37
230 667 332 141 94 78
229 670 337 138 87 71
239 659 321 93 44 41
370 714 205 155 110 78
382 664 238 128 77 63
239 664 320 67 29 33
277 919 356 179 139 120
234 656 330 160 113 96
436 599 267 177 121 95
236 658 333 147 101 84
381 704 317 139 14 45
231 668 342 146 94 76
277 548 334 85 65 49
229 670 342 138 85 72
228 670 352 162 107 83
230 668 352 159 104 80
421 732 204 55 43 33
387 794 276 57 47 44
236 659 342 146 94 77
411 814 212 84 66 56
235 662 342 151 99 80
238 659 347 148 94 75
233 665 352 159 103 80
235 662 352 158 101 79
239 656 345 141 91 73
247 649 333 115 21 40
340 855 220 68 58 56
233 656 364 183 120 96
242 650 337 125 58 55
242 652 331 81 30 35
425 719 176 68 55 43
247 654 331 60 22 31
245 655 329 34 22 25
250 651 334 99 28 42
251 655 334 50 24 28
257 654 337 37 26 29
246 648 342 130 69 62
427 733 162 112 81 53
241 653 342 134 87 70
244 651 346 141 90 73
242 654 347 145 92 74
318 969 288 87 82 83
464 527 295 62 6 22
252 645 338 115 19 36
253 641 339 138 24 55
258 644 341 110 12 35
292 619 237 52 37 41
250 643 347 145 88 74
251 643 352 167 104 86
359 931 343 45 41 41
249 646 351 164 103 84
492 534 281 88 57 40
387 563 379 81 25 28
231 689 337 133 84 67
243 664 326 35 26 25
374 616 449 205 16 66
247 664 328 34 27 26
247 669 328 64 21 28
252 659 333 41 27 29
255 669 334 73 30 38
305 521 384 83 28 35
240 657 348 147 94 76
227 649 368 169 116 92
497 559 280 125 94 68
369 926 290 81 73 72
227 654 366 181 124 99
472 624 357 153 17 50
232 654 366 185 125 99
237 655 363 183 119 96
263 709 253 127 8 33
229 647 370 171 117 94
371 908 283 74 65 64
232 648 370 179 123 98
232 650 369 184 126 101
237 644 371 184 127 103
427 870 257 76 66 60
268 734 249 55 32 36
227 659 363 182 123 98
227 657 365 185 126 102
227 663 361 177 117 92
237 659 357 169 110 87
412 589 378 158 12 50
349 946 280 81 73 74
235 662 356 164 106 84
249 645 363 179 115 93
198 724 317 172 118 90
372 554 248 65 20 28
247 649 357 175 111 90
241 653 361 180 118 95
251 643 362 179 113 92
281 515 364 77 12 31
240 647 370 187 125 101
332 585 358 33 26 27
229 679 322 130 88 77
230 676 326 101 73 54
229 674 332 126 77 63
461 539 291 103 18 32
229 679 333 125 76 63
229 683 321 133 89 78
230 685 336 132 82 66
337 539 211 76 30 36
234 689 327 104 74 61
227 674 342 133 83 67
227 674 347 149 98 78
482 838 191 97 86 76
229 687 339 137 84 69
224 684 344 140 91 71
493 879 252 91 78 68
329 751 329 92 71 61
224 688 344 141 92 70
377 880 332 32 29 32
234 693 322 148 100 92
234 692 334 124 76 63
503 570 279 113 90 65
233 694 338 133 83 68
235 695 336 126 79 66
470 547 285 87 65 41
236 698 321 132 84 86
410 718 173 75 62 49
272 759 348 104 32 46
239 703 332 88 57 50
414 866 326 36 34 34
228 694 343 140 91 69
481 624 347 132 18 42
230 690 340 136 86 69
309 597 450 175 126 117
217 749 303 129 94 63
522 859 265 106 87 67
231 694 341 138 88 70
417 840 229 93 77 65
357 874 217 101 81 69
257 719 257 143 0 37
272 845 292 78 64 57
225 691 345 141 93 69
232 704 342 141 92 72
287 614 348 60 20 29
241 679 322 69 31 34
302 679 347 147 14 47
247 674 328 59 23 29
496 848 241 98 81 66
247 679 328 80 22 33
242 684 326 60 27 29
228 784 288 160 106 73
240 689 323 56 36 36
246 684 329 66 23 31
278 528 355 93 49 47
248 684 330 74 28 35
248 689 330 52 26 31
486 588 320 146 12 44
