ply
format ascii 1.0
comment Created by Open3D
element vertex 2198
property double x
property double y
property double z
property uchar red
property uchar green
property uchar blue
end_header
206 779 231 143 111 83
434 459 244 154 17 49
436 464 242 137 19 47
434 479 224 83 26 35
436 474 241 170 14 54
439 478 239 168 13 51
249 849 298 169 127 108
441 479 237 168 13 52
446 469 236 135 20 47
238 685 242 80 33 35
442 474 238 169 14 53
446 474 236 153 19 50
434 467 244 164 14 51
266 915 388 165 117 110
433 470 243 170 14 51
338 621 323 59 25 31
327 349 301 102 79 52
418 484 214 59 32 33
420 484 216 89 33 37
284 354 333 143 105 81
394 602 233 159 30 52
421 489 216 47 36 39
405 734 221 79 44 38
350 804 416 147 117 93
422 484 220 107 22 30
423 489 219 44 33 38
296 744 180 65 52 45
417 494 210 48 31 35
421 494 216 86 25 34
316 529 292 58 19 26
246 899 310 137 105 86
401 798 396 181 112 86
421 514 251 114 24 43
426 489 220 44 35 39
431 489 222 84 25 34
111 778 203 168 113 84
181 753 197 170 110 76
426 494 221 89 22 35
431 494 222 110 14 30
437 524 231 59 30 34
418 499 210 86 20 33
257 544 197 53 34 38
418 504 211 130 6 32
261 529 187 130 17 40
348 841 187 64 50 47
419 504 213 129 6 32
421 504 216 135 8 34
399 823 246 71 57 50
270 589 298 38 28 30
341 584 351 97 5 32
423 499 219 138 10 34
423 504 219 140 10 34
420 509 216 137 9 34
520 880 225 120 97 77
423 509 219 139 10 33
351 868 207 76 65 64
349 302 268 82 65 45
321 654 319 82 26 39
266 264 281 154 103 76
311 589 200 108 33 40
376 564 356 192 7 60
239 605 268 61 31 33
426 504 220 131 8 30
290 952 320 77 71 69
481 458 337 123 8 39
431 499 222 123 4 26
322 777 304 72 57 52
381 444 289 91 14 31
436 489 223 124 9 29
301 963 296 73 70 72
270 329 301 130 99 69
441 484 221 120 10 28
296 259 330 110 89 67
451 461 391 78 20 26
441 494 220 84 22 33
446 484 220 138 13 32
436 499 221 114 12 28
436 504 221 111 12 30
167 763 220 181 126 102
117 882 231 105 59 52
441 499 220 92 22 34
114 891 227 199 140 131
436 509 220 60 25 33
440 509 222 48 32 33
373 631 234 41 30 33
444 502 223 60 31 34
427 484 247 137 17 43
427 489 246 90 21 39
237 689 241 84 32 35
431 484 241 140 21 49
395 583 311 123 27 46
429 484 244 164 15 51
104 732 223 153 120 100
450 488 371 103 37 47
359 655 233 101 16 27
432 489 242 174 13 53
256 619 235 68 25 37
429 489 244 169 13 52
326 689 167 80 58 38
451 479 306 162 15 48
426 484 256 43 25 32
425 489 251 30 27 31
126 863 205 117 90 61
425 489 256 68 23 34
427 494 246 74 23 36
431 494 241 172 12 53
306 889 201 76 70 71
425 494 251 131 18 44
246 955 261 82 76 77
424 494 256 139 15 42
463 450 326 140 13 44
354 587 350 180 30 68
251 739 302 88 22 39
431 499 240 170 9 53
302 961 298 63 58 58
430 504 240 169 9 53
397 579 296 97 33 43
166 709 211 78 66 54
388 734 266 134 23 43
430 508 239 170 10 52
276 369 326 141 106 80
432 505 238 170 8 54
432 509 238 169 7 53
427 509 241 140 19 47
423 500 256 82 16 34
423 504 256 39 27 32
423 506 248 156 15 46
422 509 251 55 27 34
422 509 256 57 26 34
426 499 246 150 15 46
427 504 242 155 16 48
241 754 281 91 76 69
424 498 256 140 13 42
281 279 331 125 97 71
467 476 397 191 16 60
424 503 250 164 15 49
424 509 245 124 23 46
458 455 225 48 33 32
435 484 239 120 24 47
390 583 212 146 16 40
416 494 296 84 15 32
434 489 239 173 14 54
403 556 209 113 28 35
438 485 238 145 15 46
441 484 237 166 14 52
152 753 207 218 142 112
326 793 186 61 52 51
296 359 258 101 86 71
376 624 231 98 28 39
382 739 204 66 50 44
437 489 238 170 14 50
441 489 236 166 13 51
434 494 239 172 13 53
292 331 273 93 80 66
441 494 236 119 21 43
446 484 235 159 15 51
262 258 282 157 105 78
204 805 211 199 139 107
314 270 301 110 89 66
446 489 235 159 14 49
448 490 232 168 17 51
260 264 301 149 105 80
423 511 371 103 28 40
447 494 226 181 16 44
434 498 239 174 13 55
386 509 293 45 25 30
471 459 331 133 12 37
436 499 237 116 19 44
384 537 371 40 29 28
321 349 276 116 92 69
414 512 303 84 24 36
356 878 271 33 30 32
436 509 236 165 13 52
321 829 156 75 66 60
441 509 231 60 28 33
335 842 182 51 46 45
224 762 228 116 94 72
345 669 314 149 9 46
446 499 226 132 23 44
361 799 407 122 93 67
106 829 235 153 121 107
445 499 231 70 28 35
444 504 226 48 31 35
280 275 279 122 88 61
372 343 262 116 90 57
121 859 206 107 85 60
444 498 234 39 35 36
394 410 269 112 89 61
450 421 223 98 21 24
432 444 270 107 5 32
386 822 207 61 52 45
451 423 221 122 17 24
403 531 314 97 3 29
456 423 221 120 22 21
451 429 217 140 14 29
376 849 231 61 52 51
456 425 218 167 17 19
456 429 216 151 16 31
406 490 298 87 14 32
461 425 221 126 21 29
229 714 256 72 30 38
257 654 300 142 11 45
286 908 381 126 94 73
460 429 217 147 22 37
281 461 308 49 28 29
459 426 218 160 20 26
336 562 303 91 10 27
357 724 322 90 31 44
462 428 220 91 28 34
451 434 216 134 13 32
451 439 217 88 26 34
321 914 335 47 42 41
456 434 216 136 16 35
363 860 218 48 39 42
231 739 241 140 112 84
351 314 272 96 74 49
451 444 217 87 31 36
311 729 172 84 63 48
406 794 401 194 125 98
454 448 218 101 35 41
359 622 314 181 12 57
432 479 270 80 21 31
460 434 218 107 25 33
461 439 221 64 33 40
278 299 329 131 101 74
456 434 236 118 23 43
457 444 219 88 28 36
330 848 151 121 107 111
116 869 202 186 128 114
291 674 317 177 7 57
293 883 308 151 110 87
458 440 219 58 34 38
186 726 201 95 78 59
460 444 222 146 17 39
414 522 378 141 29 50
341 304 266 73 58 42
459 449 222 101 22 35
264 434 313 152 19 48
292 894 387 141 105 90
464 426 223 100 23 35
290 714 201 58 38 35
262 685 223 82 26 31
282 884 318 159 114 93
453 422 226 74 18 23
470 444 296 46 30 32
455 421 232 53 19 26
436 474 297 99 3 31
445 464 278 43 31 33
336 888 227 72 63 61
456 422 231 53 20 26
450 421 236 63 15 28
259 384 286 120 96 69
449 421 239 109 27 43
450 424 240 141 21 47
456 429 237 104 23 40
461 424 231 52 25 29
322 484 305 119 13 39
414 532 208 33 32 32
462 428 233 57 29 28
450 434 239 136 23 49
451 439 237 108 27 42
356 829 395 131 81 61
449 437 239 149 22 46
456 439 235 56 26 33
366 594 206 78 37 42
451 449 237 86 29 39
373 658 255 112 26 42
125 804 216 148 97 80
121 819 215 164 111 89
408 772 401 153 111 78
341 529 167 83 31 37
516 924 226 128 106 83
456 444 235 45 29 30
356 574 192 186 7 42
456 449 235 47 29 30
232 714 286 156 4 47
246 579 292 42 28 31
463 439 231 53 30 32
326 894 225 63 59 61
211 774 232 137 107 79
321 539 295 61 22 28
131 725 184 142 96 63
463 435 232 53 29 32
373 551 309 105 0 35
111 724 190 133 97 60
461 434 235 55 29 32
252 529 197 159 9 41
374 870 227 67 64 66
460 439 234 43 30 31
372 560 331 48 29 31
460 449 226 135 20 41
407 589 251 191 14 53
438 521 226 59 32 36
460 449 231 82 28 39
266 828 212 67 55 53
460 444 234 36 31 31
459 449 234 41 30 32
464 426 230 50 29 34
421 504 361 83 13 30
464 434 226 87 33 38
464 434 230 58 31 33
426 539 221 141 13 33
464 437 230 51 31 30
342 374 274 71 50 31
451 454 219 61 34 36
365 309 266 120 87 57
323 399 296 121 86 65
451 459 219 52 35 39
241 954 301 56 52 53
346 519 165 87 29 36
416 479 298 95 3 31
450 460 218 45 39 40
448 462 218 45 39 41
301 574 192 193 8 43
449 462 218 47 37 41
456 459 221 87 30 38
344 897 323 44 38 36
253 618 238 83 21 37
459 452 223 39 35 38
451 479 285 75 31 36
451 469 220 122 18 35
429 489 268 93 14 32
454 468 222 150 16 38
301 504 292 44 24 27
374 709 192 61 49 38
450 479 222 110 24 37
456 454 235 56 27 32
277 813 203 73 58 52
410 479 299 102 1 35
451 464 235 162 18 54
360 691 190 55 44 31
347 404 282 89 61 45
455 459 234 74 30 36
454 464 234 170 22 57
314 338 339 149 98 77
459 454 231 77 30 37
459 453 234 44 28 31
465 443 306 119 4 34
458 456 233 54 33 37
273 309 296 106 85 61
459 457 228 31 35 28
456 464 226 165 16 42
206 749 196 111 84 51
98 824 222 191 143 129
455 469 231 164 16 51
452 470 233 139 24 48
470 466 381 74 9 28
366 529 170 148 0 31
324 353 324 129 90 69
452 479 226 52 31 34
449 474 234 144 26 49
449 487 223 153 14 40
451 484 226 139 24 45
412 784 331 146 101 68
397 744 225 64 54 44
333 896 315 34 32 31
320 359 326 140 99 79
450 484 231 142 20 47
400 754 220 79 60 45
449 489 226 172 16 45
322 657 219 62 37 40
247 674 237 51 33 34
241 820 231 129 99 83
449 488 230 152 17 48
356 898 256 68 60 59
151 724 190 148 98 64
448 484 233 138 16 47
344 887 307 35 27 32
321 884 216 62 56 57
261 259 286 158 107 79
263 263 287 159 107 80
265 259 280 155 104 76
329 364 261 69 61 53
267 258 277 151 102 73
271 259 275 143 98 69
399 818 226 73 56 48
184 766 228 178 128 105
391 579 321 102 30 43
268 262 278 150 100 73
270 265 279 149 101 73
231 884 281 188 132 117
264 261 284 159 105 80
264 265 285 159 107 79
268 268 282 152 102 74
326 576 189 153 9 32
458 912 227 89 85 82
269 270 284 151 102 72
271 334 306 130 99 70
272 273 282 146 100 72
410 578 284 133 25 50
410 779 241 70 55 42
271 274 286 151 101 74
454 494 326 142 25 48
339 856 199 63 52 48
391 809 416 201 135 106
338 836 258 124 92 71
276 259 272 129 92 63
336 603 345 188 14 61
281 259 272 115 84 53
273 257 273 137 96 67
274 260 274 135 95 65
447 450 285 101 6 32
278 262 273 127 92 61
372 804 201 82 62 50
281 264 275 117 85 55
274 270 279 143 98 70
323 851 180 64 63 65
281 269 276 119 86 58
285 258 273 101 76 47
286 269 277 104 77 49
276 274 281 136 96 68
281 273 278 119 86 58
277 278 282 133 94 68
127 734 222 152 108 89
274 276 284 144 98 72
402 489 299 41 22 25
372 839 211 56 48 46
336 580 309 107 0 32
371 739 306 154 18 51
370 794 401 108 72 49
281 279 281 122 88 61
326 364 296 105 78 55
280 289 285 117 87 60
285 273 278 106 79 52
326 869 405 210 149 128
286 275 279 102 77 51
282 288 283 114 85 58
342 429 301 87 33 34
193 787 203 200 139 106
285 288 283 105 80 54
244 590 288 36 28 30
242 549 217 41 36 40
286 289 284 95 75 52
239 584 272 72 27 37
260 259 291 155 107 79
379 649 271 166 17 49
259 261 295 153 106 80
125 865 227 142 85 81
261 264 291 158 108 81
296 414 321 158 108 85
259 260 302 142 102 76
363 851 190 75 63 61
275 947 233 99 91 92
261 269 301 156 107 83
307 945 317 61 55 53
265 270 290 160 108 81
311 699 176 67 51 41
264 271 294 160 109 82
261 259 311 131 99 73
312 790 179 55 45 45
102 784 207 164 112 84
261 264 306 139 102 78
332 459 305 78 25 33
273 762 183 50 43 41
263 258 314 129 99 72
412 452 298 60 45 30
262 269 306 148 104 81
306 884 297 124 90 67
406 494 297 99 9 34
263 268 310 138 101 76
266 259 316 128 97 71
291 359 334 152 110 87
289 272 278 100 74 47
264 264 313 129 97 72
268 259 319 126 97 71
271 259 321 125 96 70
136 700 220 129 103 79
268 264 319 126 96 70
327 595 316 105 0 34
230 699 246 69 28 34
397 514 181 144 7 37
264 269 312 133 99 74
357 699 173 83 49 41
316 464 300 94 22 37
267 269 316 125 96 69
271 269 321 123 95 69
263 272 297 160 110 84
436 495 341 75 12 25
403 468 299 87 19 35
266 274 291 160 107 80
238 690 238 99 30 44
267 279 296 161 109 83
269 276 289 155 104 76
370 729 310 171 11 54
264 275 301 160 109 86
198 797 211 191 137 104
271 284 291 151 102 78
387 734 256 137 17 44
269 284 295 154 103 81
271 289 296 146 100 79
268 284 301 154 106 82
324 319 330 107 83 54
432 501 392 49 27 33
269 289 301 140 97 77
453 481 338 85 0 28
263 273 306 153 106 83
264 275 306 152 106 84
447 479 281 59 28 34
267 274 316 129 98 73
433 481 394 101 7 31
269 275 318 126 98 71
271 274 321 123 96 69
291 784 287 77 62 56
269 279 318 129 99 74
286 449 313 137 26 50
327 389 261 86 67 49
271 279 321 124 97 71
268 284 306 149 104 81
269 289 306 137 97 75
269 289 311 138 99 76
97 876 229 120 80 73
369 902 310 51 42 39
268 284 315 136 100 76
269 284 317 132 99 75
269 289 316 137 100 76
306 299 287 90 74 56
343 900 250 61 55 54
399 817 223 79 64 55
271 289 321 132 101 76
273 288 292 143 100 75
276 519 177 167 2 36
274 285 290 144 100 73
472 467 386 73 6 27
275 289 290 136 98 72
413 479 298 96 6 31
316 639 220 106 18 28
408 774 421 165 115 88
281 294 285 109 84 56
238 612 260 119 22 38
281 304 286 110 87 61
286 294 284 94 76 55
341 584 346 73 13 27
334 393 273 64 49 31
286 299 283 97 79 57
288 296 283 93 76 56
368 659 245 108 17 32
284 299 284 102 81 57
286 304 285 98 79 58
319 330 283 102 82 61
126 769 221 143 97 78
276 314 287 114 93 69
369 805 209 89 62 48
248 573 218 157 4 40
176 749 196 172 111 78
290 268 333 115 92 67
211 784 192 155 104 66
281 314 286 108 88 66
287 311 283 92 76 59
254 941 234 76 69 70
133 721 184 140 87 60
282 319 282 99 83 65
286 314 282 94 79 62
284 313 284 100 82 62
321 744 321 174 15 56
390 887 255 86 68 59
272 294 296 133 98 75
294 734 180 55 44 37
463 445 315 109 4 29
270 294 301 126 93 71
270 299 301 121 93 68
268 874 248 130 102 72
270 294 306 127 94 70
270 294 316 139 102 76
351 424 286 72 54 43
270 299 306 124 94 67
351 574 311 105 5 33
375 794 351 181 130 111
235 559 236 151 6 39
326 564 181 184 6 38
333 657 224 57 37 36
274 866 244 139 108 79
270 304 306 125 96 68
272 299 321 137 102 78
272 304 321 138 102 78
374 790 352 175 128 109
272 314 296 106 85 62
402 724 216 59 44 35
401 819 256 133 93 66
396 801 381 198 129 105
271 314 301 122 95 66
272 319 296 112 89 63
271 309 316 141 103 77
331 749 322 107 21 42
272 309 321 142 103 80
271 319 311 138 102 74
272 314 316 144 106 79
210 810 216 186 133 104
445 493 321 40 27 29
272 319 316 141 105 77
276 299 291 126 95 68
322 364 270 86 71 56
277 304 291 123 95 67
351 654 310 162 11 52
281 923 385 203 142 132
278 299 288 118 91 63
278 304 288 116 91 63
460 474 291 104 26 39
274 308 294 114 90 63
336 554 176 104 34 42
434 444 273 100 9 28
346 459 296 59 21 25
281 965 296 62 56 54
294 622 318 40 28 29
273 311 292 109 87 63
324 388 301 122 85 66
274 319 290 97 80 60
291 259 275 98 75 48
459 487 336 116 36 50
291 264 277 98 74 47
316 729 327 53 28 32
271 904 201 95 85 83
295 259 277 101 76 49
294 264 278 100 76 47
322 850 405 160 128 110
317 904 215 62 58 59
297 264 280 102 77 50
286 969 252 76 71 73
291 269 278 99 74 46
292 270 279 99 75 46
301 259 281 108 84 56
301 264 282 106 80 53
233 904 276 149 121 98
303 265 284 108 83 54
302 269 284 103 79 52
366 274 257 122 91 58
291 274 280 95 73 46
379 653 271 92 27 36
216 794 237 180 137 109
296 274 282 95 73 47
291 649 221 107 14 28
440 877 256 87 65 48
216 759 227 102 81 57
480 464 341 176 15 45
375 898 290 38 33 31
325 309 306 110 87 60
295 278 283 91 70 45
317 414 302 132 94 72
288 286 284 96 75 50
367 279 257 122 93 60
291 289 284 85 69 50
366 700 201 52 43 34
391 439 287 79 56 42
296 284 285 86 67 46
141 734 192 182 111 83
296 289 285 81 66 49
413 756 235 84 73 63
299 273 283 97 75 49
245 559 216 108 21 38
341 344 271 69 53 33
116 818 213 159 108 83
351 779 305 63 52 48
301 284 285 88 70 49
317 579 308 65 26 32
304 258 283 112 88 62
307 259 286 110 87 62
416 489 296 104 5 32
306 264 286 110 85 59
432 504 316 37 28 29
305 269 287 107 83 55
386 806 164 86 70 58
241 604 276 93 28 38
161 759 216 187 129 105
306 279 288 99 78 53
332 490 292 42 20 23
306 289 286 91 75 56
304 852 159 98 79 69
244 677 239 76 34 38
309 284 288 100 81 58
310 289 288 97 79 58
310 259 291 109 87 62
311 259 296 113 90 64
321 299 326 105 82 55
312 264 296 110 88 64
446 469 401 79 20 33
311 259 301 112 90 64
256 859 305 137 48 70
308 269 289 109 86 58
303 277 338 103 84 63
308 265 289 106 84 59
433 515 327 183 13 55
312 259 306 113 90 65
321 299 331 101 79 54
311 259 311 116 93 67
310 259 316 114 91 66
393 419 277 111 87 61
307 258 322 116 92 66
269 412 318 72 45 31
312 264 316 114 92 66
455 483 288 95 25 37
104 708 213 149 116 89
310 264 321 110 88 61
441 908 245 89 81 75
313 264 306 111 89 65
314 266 306 111 90 66
315 269 311 114 92 66
313 268 317 113 91 65
314 269 316 114 92 66
312 269 321 112 90 64
239 924 308 176 132 113
308 274 289 108 85 57
311 274 291 105 84 59
308 278 289 105 83 57
439 487 360 63 16 29
311 279 291 104 83 59
354 670 309 149 13 46
309 280 288 103 81 57
362 819 201 68 53 48
231 729 241 135 102 76
314 274 297 103 84 62
315 274 301 109 88 66
294 889 372 175 118 114
362 908 271 67 51 43
316 279 301 108 88 67
372 719 226 53 41 31
386 764 231 45 34 33
322 759 182 50 42 38
314 284 292 101 83 63
317 289 296 100 82 62
251 724 311 156 16 52
318 284 300 107 87 66
320 289 301 108 88 67
316 274 306 113 91 67
356 917 311 58 48 43
257 439 306 83 24 34
315 274 321 115 91 64
243 623 252 122 27 44
326 379 271 91 70 50
419 533 250 106 19 40
317 279 316 118 94 66
316 279 321 117 93 64
319 281 306 112 90 67
320 284 306 112 92 69
395 603 236 91 36 42
318 284 321 116 91 63
319 289 321 117 92 63
426 454 296 59 32 28
380 784 154 99 75 56
291 294 284 87 72 56
296 294 284 83 68 53
162 757 224 179 124 104
289 296 283 90 74 57
324 379 296 115 83 62
292 299 284 87 72 56
283 417 323 130 98 76
291 304 283 86 72 56
327 886 290 36 30 33
162 708 213 82 69 56
442 484 305 61 18 29
287 577 198 184 6 42
301 759 175 80 62 46
296 301 283 84 70 55
301 294 285 85 71 55
231 739 231 128 103 76
301 305 283 86 72 58
207 794 230 166 127 100
231 729 276 172 1 53
298 302 284 84 70 56
291 309 282 87 73 57
289 305 284 90 75 58
416 749 221 104 82 63
286 549 296 134 9 40
289 308 284 91 75 59
230 714 271 97 26 41
296 309 281 84 71 56
411 554 321 53 33 37
394 426 279 108 85 59
316 649 319 58 28 34
291 318 279 88 75 62
374 573 339 173 11 53
291 314 280 88 75 61
429 507 384 74 30 38
296 314 279 84 72 59
486 468 366 129 25 47
296 318 279 84 72 59
344 307 268 69 56 40
297 320 278 85 72 59
365 831 277 103 71 55
301 309 281 83 70 56
301 316 278 86 73 60
243 656 279 33 30 32
306 294 287 91 75 58
306 303 285 91 75 56
211 809 221 177 128 102
310 300 288 95 77 56
356 789 300 52 43 43
266 694 218 51 33 33
314 350 268 88 75 62
305 305 283 88 73 57
291 889 186 84 73 73
367 823 295 149 105 83
433 425 270 95 13 31
405 441 279 68 53 37
306 309 281 87 72 55
317 855 392 129 106 81
310 310 282 92 75 55
318 792 294 70 55 50
301 669 217 57 33 39
296 489 300 130 23 46
306 314 280 86 71 55
304 316 278 88 74 59
311 314 281 89 74 56
436 479 376 58 28 32
196 779 227 170 124 98
369 909 289 95 73 57
308 317 279 87 73 57
310 320 278 87 72 57
239 761 273 84 70 65
312 319 280 86 72 57
421 738 220 79 54 44
313 312 284 92 76 59
317 319 285 90 74 58
293 886 369 165 115 111
232 699 276 44 32 35
312 294 289 98 80 59
317 720 176 65 50 42
387 835 230 64 54 50
308 297 289 93 76 56
466 429 291 84 27 37
121 878 222 92 56 49
311 298 289 97 79 58
393 409 271 115 91 63
315 294 292 101 82 61
326 324 321 104 81 53
318 294 295 102 82 61
251 714 313 158 15 49
320 294 297 102 82 61
139 741 208 145 85 63
427 539 237 145 14 46
404 470 298 80 18 30
319 290 298 103 84 63
296 699 320 36 27 30
456 479 301 104 24 41
471 469 347 149 7 44
314 301 288 97 79 59
379 864 256 65 56 56
266 784 276 72 59 53
316 304 290 96 79 60
318 298 294 101 82 62
321 299 296 101 82 60
319 300 293 99 81 60
319 304 293 98 80 59
202 803 207 204 142 109
243 624 271 154 2 44
331 628 218 92 32 35
317 308 290 95 79 60
320 309 292 94 76 56
318 312 289 94 78 59
458 426 289 70 24 34
320 314 291 92 74 53
296 424 320 108 49 49
319 316 288 92 76 57
321 319 291 89 72 53
456 884 257 106 84 61
255 698 219 66 33 32
274 259 323 123 96 69
273 274 324 122 96 69
312 866 383 121 93 72
280 259 328 119 94 69
279 269 328 119 93 68
394 522 298 32 24 23
280 264 328 120 95 68
271 464 307 54 27 31
273 269 324 123 95 70
379 821 313 176 124 99
276 269 326 121 94 69
313 897 298 77 52 46
286 259 330 115 92 67
324 492 304 108 3 34
127 737 188 173 112 85
315 854 171 84 77 74
240 674 281 75 28 39
286 264 331 115 92 66
274 887 218 41 38 38
481 913 235 94 83 73
286 269 332 117 93 67
276 274 326 120 94 69
346 859 197 72 59 56
248 849 295 176 129 111
304 626 219 109 26 34
332 615 332 86 37 43
273 279 324 122 96 70
471 473 361 208 13 57
276 279 327 123 97 71
318 304 343 127 92 66
278 276 329 121 96 70
248 856 268 140 113 86
313 705 172 69 54 46
278 279 329 123 97 70
273 284 324 124 98 71
275 289 327 126 97 71
271 899 206 58 54 54
278 284 329 127 99 71
281 284 331 132 100 74
380 539 302 105 0 33
278 289 329 127 97 71
281 289 331 130 98 73
379 436 289 92 29 38
106 789 230 163 124 109
430 869 299 71 55 40
284 278 333 126 97 70
241 669 281 100 23 40
287 279 335 127 96 70
286 289 335 123 91 66
291 519 296 39 24 27
273 294 324 134 103 76
271 489 297 79 31 37
343 464 298 69 17 25
275 294 327 131 101 75
351 674 226 53 38 39
380 878 275 65 54 48
278 294 329 129 99 72
336 588 197 139 16 40
324 364 316 128 91 67
281 294 331 126 96 70
134 872 216 249 244 243
273 299 324 135 102 78
275 299 326 133 101 76
288 734 197 55 36 36
391 830 226 61 50 47
390 762 360 94 77 60
276 304 326 136 103 77
281 299 331 128 98 70
189 765 199 177 115 80
278 304 329 133 101 75
281 304 331 128 98 71
369 779 304 120 89 67
286 294 335 115 89 61
329 592 313 108 0 34
278 308 329 135 102 77
274 315 323 146 108 83
443 506 298 153 7 46
386 880 266 83 63 54
257 654 236 66 30 35
318 424 297 126 90 69
276 314 326 144 107 82
290 289 337 118 89 64
275 319 322 141 106 80
222 798 240 179 136 110
277 319 326 139 104 79
461 474 321 140 10 34
279 319 328 137 103 76
281 314 331 140 105 78
301 544 172 70 34 35
279 315 328 141 105 79
406 774 336 131 99 67
202 739 201 96 78 59
228 561 251 148 8 41
271 894 211 52 48 48
286 309 335 131 98 70
245 945 250 73 69 70
284 310 333 130 96 70
284 315 333 136 101 75
417 515 386 132 28 50
280 869 191 46 43 42
357 631 224 49 31 34
284 319 333 136 102 75
291 264 332 110 89 65
297 257 328 113 93 72
406 885 257 86 70 57
250 580 219 161 6 39
296 264 332 106 87 66
439 497 330 70 14 28
291 269 334 112 90 66
288 271 334 118 93 66
296 266 334 105 86 66
322 409 296 123 87 66
296 269 335 105 86 65
361 504 288 33 25 26
301 834 277 167 125 99
300 260 329 109 90 69
403 826 286 170 115 90
301 264 331 103 85 66
436 907 237 89 80 73
231 559 261 63 28 33
375 734 197 61 46 39
298 267 333 99 81 62
416 882 274 53 44 38
103 724 198 132 99 66
291 274 336 113 90 65
391 889 251 92 73 59
371 399 282 128 95 70
291 279 337 114 88 63
256 659 236 64 34 38
295 278 338 110 87 64
246 924 236 60 56 59
293 281 339 115 88 64
293 284 339 122 92 66
296 284 341 120 92 66
205 740 220 91 72 50
361 789 411 133 106 79
300 276 339 105 85 65
345 819 177 61 54 51
300 288 343 115 89 64
366 554 180 122 22 41
302 286 344 109 87 62
238 675 248 93 33 42
304 256 324 117 94 69
305 259 325 118 95 69
307 264 327 115 92 67
239 678 278 100 28 38
308 262 323 116 92 66
510 887 255 102 84 67
306 879 401 186 145 128
305 265 330 105 87 66
420 544 267 97 23 37
301 824 171 72 57 49
308 267 328 111 89 64
351 632 223 99 22 32
311 269 326 110 88 63
306 269 331 104 86 66
269 373 270 107 88 68
304 271 334 105 89 73
419 538 325 132 18 44
326 624 326 106 28 44
347 344 274 90 66 43
309 270 330 109 89 67
312 274 326 111 89 64
365 582 198 128 10 28
403 799 241 60 49 42
311 274 331 109 88 65
313 272 323 113 90 65
314 275 325 113 90 64
315 279 326 114 90 62
260 679 307 74 22 34
233 928 285 160 122 105
313 278 332 110 88 65
396 464 292 47 25 29
426 534 316 137 26 47
314 279 331 111 89 63
317 284 326 114 89 60
372 834 210 46 41 45
318 288 326 112 88 58
387 724 276 155 11 49
314 281 334 112 89 63
416 450 295 60 46 33
315 285 336 113 90 64
262 587 213 163 2 35
318 289 331 107 85 59
317 289 336 109 87 60
307 287 343 108 87 64
375 714 225 57 42 32
311 289 342 113 90 64
368 674 239 107 18 32
306 289 344 112 89 63
331 609 341 60 26 33
406 769 351 126 97 65
314 286 339 115 92 68
380 588 325 143 26 51
315 290 340 112 89 62
314 862 178 74 67 66
251 664 296 34 28 30
323 297 304 113 92 68
290 294 337 109 85 57
115 687 205 100 86 73
292 294 340 106 84 57
346 620 322 98 30 42
308 486 293 28 24 24
251 624 241 88 22 37
295 294 342 110 86 59
276 434 320 77 29 38
302 385 328 158 109 85
339 808 130 103 87 73
294 299 343 116 89 62
329 516 289 93 10 29
295 304 343 128 93 68
312 543 298 30 25 27
297 299 345 121 93 67
298 290 344 118 90 66
287 629 320 66 25 30
144 725 223 172 125 105
296 859 166 107 90 77
298 295 344 113 90 63
301 294 346 117 91 66
292 309 340 129 95 69
103 729 198 135 99 67
396 904 256 82 71 63
295 309 342 132 95 72
290 314 338 135 99 72
244 884 259 158 117 89
292 319 339 138 98 75
296 319 342 141 98 77
285 571 194 185 7 42
286 614 217 156 2 34
305 874 285 143 106 80
448 489 284 136 16 37
432 452 277 60 16 24
301 309 346 144 96 80
298 956 308 62 58 57
248 732 304 152 23 54
375 578 335 112 22 43
298 318 344 143 99 79
344 815 178 56 52 52
217 763 194 110 83 50
326 314 311 102 80 54
320 294 326 109 85 57
431 504 366 100 30 42
319 291 331 104 82 57
351 329 274 100 74 49
328 596 345 38 27 29
320 294 331 99 78 54
284 789 184 58 47 43
318 293 337 106 84 58
393 404 266 114 90 62
306 294 346 117 91 66
266 854 305 156 123 97
306 299 347 122 93 66
280 532 297 89 11 28
176 714 206 91 79 65
311 299 346 120 92 64
280 579 302 35 28 31
311 304 347 130 93 67
316 294 341 111 87 60
402 804 241 56 45 39
314 296 344 113 87 59
346 420 301 62 43 32
317 299 342 115 89 59
365 882 313 38 32 30
319 296 339 111 88 60
100 794 227 165 127 112
240 733 220 89 75 60
325 948 286 65 57 55
321 299 336 111 87 59
228 572 265 149 16 52
319 299 340 117 91 62
270 743 199 90 45 45
304 772 173 57 48 43
366 609 320 73 23 35
339 908 329 53 47 44
220 749 206 93 77 59
315 299 344 117 89 60
315 304 345 127 91 65
305 882 196 74 70 70
271 454 311 109 26 42
301 789 291 60 47 46
311 309 346 141 95 74
205 773 194 150 101 62
306 314 346 148 101 82
311 314 345 143 94 75
333 914 239 87 75 72
317 309 342 132 91 72
319 309 340 127 87 66
315 309 345 135 91 71
317 314 342 130 88 69
337 480 292 42 20 23
316 319 341 131 89 69
380 769 371 134 104 81
319 314 339 124 85 63
356 850 264 39 34 32
206 760 229 112 89 63
436 484 400 126 8 37
375 613 222 118 31 45
319 319 339 124 86 63
396 445 290 99 25 34
281 746 303 62 51 45
334 477 304 60 12 27
314 318 344 138 93 71
460 469 317 127 11 37
272 339 286 114 92 68
246 825 221 57 44 51
356 629 222 99 29 37
270 344 286 117 94 68
371 814 425 190 128 101
271 349 281 112 91 67
363 908 306 63 50 49
213 762 228 102 81 56
109 851 228 168 112 107
272 344 281 107 88 67
268 350 288 124 98 68
133 848 232 109 82 68
432 489 270 71 20 32
216 749 201 98 79 56
277 329 282 103 87 69
321 754 316 79 62 56
530 914 222 93 87 83
282 334 330 126 97 69
278 336 278 101 86 70
241 876 310 102 81 63
273 330 288 107 88 66
336 579 191 159 18 41
236 679 251 71 33 38
335 744 185 62 48 42
352 719 327 94 27 40
283 326 278 96 82 67
395 543 346 58 27 33
327 449 298 52 20 25
282 329 278 98 84 69
376 895 306 40 33 32
390 901 254 81 67 59
469 447 296 43 30 34
286 329 276 95 81 68
286 333 275 95 83 70
364 685 304 51 28 31
350 869 269 36 32 32
287 335 272 94 82 69
335 444 301 61 25 30
277 349 271 100 85 70
261 739 305 74 22 35
170 715 198 89 76 62
376 744 196 61 48 42
281 349 267 99 86 72
278 351 268 98 85 71
286 351 263 100 87 74
233 749 275 155 16 52
406 554 211 90 31 40
285 347 269 100 87 75
275 339 281 102 85 68
110 852 209 97 79 61
251 799 194 133 91 53
381 779 211 63 49 45
276 344 276 102 86 69
331 905 225 72 64 64
274 343 280 103 86 68
247 549 290 149 14 47
374 806 323 178 122 99
273 349 277 105 87 68
201 745 224 98 77 55
376 844 264 36 31 29
282 336 273 98 85 71
271 324 296 119 94 66
272 329 291 114 91 66
306 894 396 197 142 117
336 735 183 68 53 47
271 334 291 119 95 67
386 813 186 63 53 44
270 334 296 125 98 68
271 324 306 133 100 71
324 741 323 177 15 55
271 324 311 137 103 73
286 855 300 134 102 73
271 329 306 132 100 71
286 901 195 86 79 79
458 451 319 127 6 26
270 339 291 123 97 68
269 343 296 128 100 69
269 339 301 129 100 70
315 879 280 108 82 70
267 349 291 126 99 68
133 848 225 111 87 71
453 490 297 171 12 52
268 345 291 126 98 68
296 370 333 160 112 88
268 345 296 126 99 69
251 815 241 66 54 50
270 339 306 130 100 69
201 774 195 159 108 70
268 350 305 124 98 68
271 349 316 122 96 66
282 911 382 134 95 82
272 324 316 139 104 76
394 807 406 205 137 108
273 324 320 138 104 77
272 329 316 135 102 73
401 499 295 106 7 36
273 329 319 134 101 73
429 547 234 31 29 31
326 715 179 58 46 41
272 334 316 133 101 71
364 783 416 136 110 83
300 889 196 79 71 70
273 339 320 128 99 68
271 719 206 91 25 25
273 349 321 124 96 67
272 364 271 107 88 69
307 365 333 153 105 80
436 529 286 124 24 44
270 354 281 117 94 68
269 358 280 117 94 69
267 354 286 123 98 68
398 779 256 123 88 60
111 764 200 164 112 81
381 839 226 60 51 48
266 359 286 122 98 70
284 521 174 136 17 38
370 834 186 66 53 47
269 353 284 121 96 68
319 338 334 141 98 79
267 364 281 119 96 70
108 691 209 130 105 77
265 369 281 119 96 69
232 519 251 152 1 42
245 584 226 134 23 44
273 359 272 104 86 68
244 519 210 147 7 39
275 354 271 101 85 68
269 368 274 112 91 69
264 373 281 118 95 69
264 369 285 119 95 69
272 369 266 102 86 68
215 789 238 179 135 108
226 779 251 185 135 108
315 903 197 79 73 74
268 376 268 105 85 66
266 384 261 113 95 78
412 554 256 98 31 44
351 729 187 61 47 40
271 380 262 97 84 72
336 789 297 63 51 47
234 548 265 33 29 33
267 379 266 98 82 66
111 874 221 102 66 58
356 444 295 66 17 24
265 379 271 105 86 65
301 404 322 157 107 84
263 370 287 120 96 69
272 793 274 60 49 46
207 742 199 100 80 57
98 821 222 176 130 116
311 879 401 207 155 135
262 374 286 120 96 69
366 774 304 103 81 64
386 828 212 60 53 53
268 846 273 84 65 46
262 379 276 110 90 68
392 544 351 54 29 33
263 376 278 117 94 69
121 863 204 118 92 63
262 379 281 115 93 69
260 384 281 115 92 68
260 379 286 118 95 70
326 474 301 114 12 37
253 894 248 118 93 66
268 371 273 113 92 69
110 876 225 93 62 50
455 892 255 94 77 66
131 759 211 171 107 82
439 497 390 59 27 32
306 342 269 89 75 61
265 374 276 116 94 69
423 511 376 90 27 37
264 372 284 118 94 67
271 494 295 74 28 36
443 475 305 98 5 30
264 378 274 111 90 67
351 404 280 114 78 62
398 576 306 67 28 34
240 614 266 111 18 39
320 904 217 65 61 61
281 359 261 96 83 71
389 741 264 153 115 82
274 358 270 100 84 67
277 354 267 99 84 70
276 369 261 95 82 70
275 364 265 100 85 69
332 857 409 204 141 119
504 874 270 94 78 65
274 368 264 98 84 68
286 354 261 101 88 74
366 499 289 97 11 33
285 358 259 96 84 73
286 683 214 39 34 37
373 709 226 62 40 35
325 324 306 101 80 55
313 435 303 53 31 33
274 352 274 103 86 68
346 674 315 146 7 45
307 449 302 30 26 27
273 370 263 97 83 70
271 743 304 51 29 34
273 375 262 96 83 71
361 364 278 118 86 59
419 517 380 72 28 28
275 374 260 93 81 70
278 370 257 92 81 70
351 359 276 100 73 50
263 369 291 121 97 69
316 769 182 51 44 42
188 722 212 76 64 52
263 369 296 123 98 69
410 528 346 196 3 61
367 859 211 63 55 55
448 501 327 78 36 40
337 355 269 63 51 36
266 354 296 122 97 69
266 359 291 121 97 69
435 428 270 97 11 31
372 714 301 154 14 47
266 359 301 124 98 69
381 797 209 60 53 50
410 799 321 165 109 76
364 710 315 138 17 46
250 559 210 83 32 41
484 459 341 131 15 35
238 952 299 53 50 52
373 803 326 175 122 99
264 364 296 122 98 70
264 369 301 127 100 70
267 359 306 126 99 69
231 814 200 198 129 105
253 592 223 161 7 43
268 359 311 127 99 69
269 358 313 128 99 69
269 359 316 130 100 71
271 359 321 133 101 74
267 364 311 130 101 71
348 581 337 31 30 30
195 785 222 167 122 94
237 514 221 128 9 37
270 850 304 155 122 90
266 659 227 70 31 35
265 369 306 130 101 71
98 774 212 168 120 94
326 664 319 156 19 52
455 464 317 104 14 34
266 369 311 132 101 72
268 364 315 132 101 72
296 967 248 85 82 85
269 364 317 132 102 73
271 364 321 135 102 76
269 369 318 134 100 74
271 919 371 118 83 68
346 849 410 204 144 116
261 374 291 122 98 70
262 374 296 125 99 69
266 399 316 141 106 78
406 779 311 139 106 71
263 371 299 127 100 69
260 379 291 121 97 70
370 872 301 37 32 30
320 800 182 56 51 51
261 379 296 125 99 70
262 379 301 129 101 72
263 376 304 130 101 72
375 829 181 79 66 56
263 379 305 130 102 72
331 869 211 60 54 53
316 863 384 125 92 72
337 834 415 164 127 107
263 384 306 132 101 74
314 892 384 200 138 112
266 374 311 133 102 73
267 374 316 134 100 74
271 374 321 136 103 77
264 383 308 130 101 73
267 379 316 135 103 75
268 379 319 137 105 78
276 639 225 125 6 29
271 379 321 139 105 79
268 382 319 138 105 78
271 384 321 142 106 80
292 336 267 95 81 67
371 499 290 105 5 33
318 380 318 143 101 83
296 336 268 95 81 67
241 808 197 172 115 83
288 321 278 89 76 63
296 328 275 91 77 63
257 763 285 80 65 58
327 399 281 112 80 61
362 693 220 56 41 34
289 332 274 94 81 68
371 519 168 149 3 32
297 330 273 92 78 64
301 324 276 86 73 59
289 339 269 92 80 67
379 685 266 37 28 34
289 343 269 94 81 68
465 454 326 145 12 38
289 876 179 81 71 68
296 339 266 94 80 67
296 344 266 94 80 66
291 351 263 100 86 71
381 808 346 192 133 108
296 350 263 98 84 69
477 471 365 202 18 58
116 699 220 138 110 87
296 348 264 97 83 68
316 958 251 88 81 82
300 336 268 94 80 66
301 339 267 92 78 64
283 819 269 173 129 103
311 833 163 71 59 57
301 344 266 93 79 64
504 868 280 97 73 54
323 360 280 94 73 51
301 350 263 96 81 66
446 479 310 110 2 33
301 348 264 95 81 66
283 859 227 127 98 78
365 355 274 120 92 60
372 610 312 67 25 33
373 802 335 180 125 102
441 494 331 59 18 26
304 335 272 92 78 63
222 758 199 101 79 52
306 329 275 89 74 59
311 329 276 87 73 59
306 334 275 91 76 61
382 818 320 186 130 103
311 334 276 90 75 60
259 402 303 117 95 71
241 699 301 120 14 40
465 458 316 128 14 39
369 557 355 55 26 30
316 324 281 92 77 60
314 325 278 89 75 59
314 328 278 90 75 59
396 784 217 57 46 43
196 729 211 77 64 50
315 883 395 200 140 116
390 399 271 119 94 66
381 823 311 175 125 99
420 864 282 72 60 53
318 328 284 95 77 55
304 408 319 153 106 83
315 335 277 95 79 62
440 498 386 139 32 53
375 882 274 66 56 50
306 429 312 34 27 28
306 344 266 92 77 62
305 351 263 92 78 65
127 848 214 112 85 52
248 940 314 48 41 42
244 668 288 82 24 36
311 349 266 89 76 62
296 390 328 163 113 91
315 344 271 94 79 63
311 336 273 92 77 61
382 738 227 44 35 28
286 620 219 139 8 33
452 485 366 105 35 46
457 464 320 124 5 37
317 339 275 100 83 63
321 339 281 117 94 69
320 344 277 123 97 71
118 732 188 149 101 67
308 391 323 150 103 82
436 452 281 67 13 25
318 347 274 110 89 64
327 849 409 172 133 113
319 350 273 110 90 67
131 700 187 98 80 60
296 569 190 193 8 43
291 354 261 101 87 73
351 834 181 53 43 38
288 356 258 102 88 74
290 356 258 101 87 74
328 359 259 71 61 52
293 358 259 102 88 73
296 359 259 102 86 70
301 353 260 97 83 67
293 711 196 68 34 37
323 891 219 61 58 60
451 463 381 68 21 27
299 360 259 100 85 70
307 352 264 90 76 62
341 894 236 63 57 57
366 534 171 159 1 31
371 329 261 122 89 56
312 353 265 87 74 61
310 361 258 89 76 62
301 854 161 99 83 72
281 472 304 44 22 27
190 780 222 176 125 98
312 364 260 90 76 62
351 744 191 63 50 44
396 754 236 46 36 28
256 734 207 102 21 27
314 360 263 96 80 64
315 354 267 95 79 62
376 594 210 49 34 37
452 481 403 187 13 60
249 853 298 144 105 84
317 354 270 106 86 65
398 767 384 121 94 64
315 365 262 100 82 64
465 458 305 73 29 35
312 510 297 90 2 28
319 360 268 125 97 70
318 367 264 117 93 65
322 369 266 87 72 57
266 916 376 113 80 68
283 906 391 135 96 84
303 893 303 124 90 70
240 594 241 47 32 36
386 429 285 107 84 59
314 507 300 98 0 31
315 370 257 93 76 57
173 712 204 96 82 69
382 749 286 169 129 97
320 370 262 107 86 63
321 373 261 94 78 60
252 755 198 72 59 47
349 834 185 49 37 38
320 374 320 141 99 81
389 577 208 174 13 39
316 659 320 89 23 37
320 379 316 139 96 78
415 559 267 144 13 37
324 299 306 116 93 67
319 377 319 143 100 84
245 859 286 155 112 93
395 829 236 73 58 49
316 379 321 148 104 86
231 739 236 142 112 82
315 384 320 148 104 87
319 384 315 140 98 78
275 324 322 136 103 76
394 542 371 64 30 35
408 511 299 39 25 28
351 289 265 85 68 49
242 629 261 136 8 41
275 329 321 134 102 73
279 324 328 131 100 72
341 805 181 86 64 66
373 781 367 167 121 103
287 329 335 129 98 71
284 334 333 128 99 70
280 789 190 57 48 43
277 339 326 124 96 68
279 339 328 124 96 69
281 339 330 126 98 70
281 344 331 128 98 71
274 349 323 125 97 68
116 769 229 156 117 100
346 364 275 84 61 39
385 778 149 94 79 68
276 349 326 127 99 70
278 345 329 125 97 69
246 699 306 61 27 33
366 484 289 55 25 30
278 349 329 128 99 71
376 864 262 45 39 38
309 438 304 37 25 28
418 539 247 107 25 44
409 817 305 187 126 96
345 809 182 73 59 57
281 349 331 133 101 74
249 639 287 137 14 45
411 549 326 63 29 35
301 870 161 96 78 68
284 339 333 130 100 72
362 669 302 150 16 47
379 678 279 50 30 30
233 534 254 147 2 44
287 339 335 135 101 74
287 344 335 136 101 76
411 784 326 144 101 68
286 349 335 141 104 79
273 356 324 132 101 74
466 439 321 126 13 41
400 474 297 61 22 29
360 413 283 126 90 71
377 774 430 144 116 90
276 354 326 130 99 73
392 389 261 115 92 65
296 938 227 93 90 93
276 359 326 135 102 76
334 375 268 64 52 38
278 354 329 131 99 74
281 354 331 138 104 77
278 359 329 137 104 77
382 866 300 46 36 29
191 734 220 98 80 60
379 628 289 177 9 55
281 359 331 140 104 79
366 907 267 99 78 70
276 364 327 138 105 77
364 831 168 89 67 49
287 359 334 149 109 85
285 364 333 149 109 85
306 343 339 160 109 87
273 374 324 138 104 79
346 913 321 59 51 48
323 936 240 82 73 73
376 359 270 117 91 60
276 374 326 141 105 81
233 691 274 88 36 45
279 374 328 145 107 83
260 913 221 66 59 61
280 864 236 129 102 78
432 474 270 58 29 30
388 600 301 179 13 55
281 374 330 146 107 85
273 379 324 141 106 81
276 379 326 145 106 83
356 583 197 191 10 42
279 379 328 148 107 85
280 384 328 152 110 88
326 429 295 90 22 32
398 606 278 162 14 48
286 374 332 152 111 87
330 746 323 173 15 56
282 384 329 151 108 89
286 384 329 155 111 89
290 324 337 137 100 74
244 668 245 36 36 41
293 324 339 141 101 76
296 329 341 143 102 78
389 755 246 108 82 57
290 334 337 135 98 74
296 334 340 144 102 78
301 324 343 143 100 78
302 322 344 141 97 77
291 339 337 138 100 77
291 344 337 142 102 80
251 709 216 96 21 26
334 483 295 62 14 23
271 833 216 177 124 96
411 474 300 110 0 37
294 341 338 143 101 80
296 344 338 149 105 83
495 924 231 97 84 71
297 342 339 150 106 83
121 734 226 157 116 96
301 345 338 158 110 87
320 334 335 133 93 73
306 325 343 148 101 80
311 324 343 142 94 74
311 329 342 147 96 76
236 719 226 46 37 38
373 781 355 158 120 99
310 323 344 144 95 75
311 334 341 149 94 75
313 320 343 138 92 71
381 818 198 64 54 50
321 319 336 116 85 59
405 519 192 96 23 36
321 324 336 118 84 63
319 322 339 127 90 70
321 329 336 122 85 69
98 794 217 175 127 109
316 339 336 146 98 77
269 812 203 77 60 54
316 344 335 147 99 77
321 339 331 133 93 73
111 884 236 191 143 140
286 639 320 139 20 49
342 286 259 79 66 53
321 344 331 139 98 77
128 779 216 150 97 77
190 784 206 206 143 110
319 342 334 144 100 81
265 574 204 43 32 35
311 349 336 149 100 78
438 482 274 107 20 42
391 771 311 92 74 52
317 349 332 144 98 80
234 714 292 158 7 50
318 345 333 146 100 81
311 339 339 153 100 77
261 899 320 82 71 69
310 342 339 155 103 81
306 349 337 153 103 83
292 719 181 54 43 37
313 340 338 151 100 77
460 877 275 75 59 45
291 354 335 150 108 85
336 824 166 54 50 50
296 359 335 157 111 87
291 364 334 153 110 87
346 644 225 62 36 40
289 366 333 152 110 89
385 777 229 51 41 36
296 364 334 157 110 87
301 359 335 156 108 85
390 892 290 59 52 49
301 364 334 157 108 84
361 818 205 77 58 49
378 641 254 63 27 31
301 367 334 159 110 87
301 369 333 159 110 86
274 537 298 97 1 29
296 354 336 155 110 86
232 689 261 116 22 41
395 761 429 116 93 67
360 770 199 57 44 40
357 569 361 51 27 30
291 374 332 158 114 88
291 384 330 162 115 91
386 539 306 103 1 32
266 863 250 112 83 52
301 374 332 159 110 87
301 379 330 158 108 86
301 384 329 160 111 87
311 354 335 150 101 79
306 369 332 154 105 82
311 364 332 149 101 80
276 743 196 79 47 46
309 362 334 151 102 80
251 924 226 72 65 66
318 360 328 145 101 83
336 414 286 56 44 32
362 917 283 89 75 67
121 686 210 102 86 71
266 644 230 122 5 30
280 805 273 181 128 111
313 355 333 145 96 79
316 354 331 143 98 79
380 774 351 131 103 80
316 799 290 75 60 57
176 769 221 184 128 104
314 352 334 143 96 78
283 808 193 53 44 41
312 374 327 153 104 82
306 374 330 155 106 83
244 929 313 182 136 118
280 874 231 90 77 66
307 380 328 155 106 83
259 387 279 113 90 68
244 943 307 47 43 44
305 378 329 155 105 83
475 472 390 62 29 34
315 374 325 149 104 85
243 920 247 57 54 56
318 370 323 146 104 86
301 479 301 85 24 35
317 374 322 147 104 86
375 644 286 135 19 46
313 370 328 151 104 82
343 921 308 55 47 43
232 889 286 188 133 117
466 474 341 142 6 40
314 378 324 150 104 85
379 602 314 72 29 37
323 375 312 128 90 69
374 725 227 51 39 31
312 385 323 150 105 86
351 259 258 100 78 54
350 269 258 88 70 48
352 270 259 94 74 52
348 280 259 79 65 51
346 284 260 75 63 50
376 604 216 68 35 39
346 289 262 76 63 50
376 784 321 132 99 79
350 287 263 80 65 49
421 459 304 66 24 29
322 289 311 115 93 68
334 303 257 80 65 48
434 517 301 173 8 55
336 304 261 76 63 49
333 309 260 73 60 46
334 309 262 74 61 48
337 309 265 69 59 48
333 314 259 67 55 42
338 290 259 82 70 57
338 295 259 83 71 59
371 554 181 104 31 43
343 295 264 81 65 48
342 299 265 80 65 47
380 825 163 89 71 58
337 305 265 70 58 46
324 877 386 206 143 116
346 294 265 86 70 52
346 304 268 75 60 42
341 309 268 65 54 41
337 314 266 66 57 48
262 793 269 70 55 50
340 314 268 65 55 44
281 784 186 54 45 43
239 678 245 53 32 34
264 776 278 75 59 53
339 318 268 65 54 43
286 959 306 69 64 63
341 759 315 61 49 46
341 319 270 71 56 39
326 629 322 155 27 55
342 314 269 70 56 40
297 539 173 131 27 40
346 309 270 81 64 44
309 715 323 72 32 34
422 505 356 89 7 28
263 449 309 123 24 43
306 599 310 104 2 32
351 309 271 92 71 48
174 756 228 177 131 110
469 477 381 147 41 59
344 841 199 57 46 41
346 319 272 88 67 44
351 319 273 102 75 51
322 304 296 101 81 58
324 300 302 110 88 64
323 293 305 115 93 70
322 294 316 118 94 66
321 294 321 115 90 62
324 296 314 119 95 67
325 304 306 114 90 63
326 304 311 115 90 61
211 779 236 158 123 94
322 299 321 112 87 57
355 583 355 94 23 39
323 304 321 109 84 54
324 300 315 118 93 63
324 304 316 114 89 59
324 304 319 110 85 56
323 310 299 104 83 59
133 862 214 153 113 103
323 319 296 97 77 55
323 314 299 104 83 59
465 465 322 142 13 38
323 318 299 102 81 57
324 309 316 108 85 57
244 647 273 35 30 33
127 834 231 123 89 71
234 544 266 109 11 36
358 333 273 113 84 53
324 310 321 105 82 55
325 319 306 103 81 57
325 314 321 103 82 56
207 807 207 210 144 111
276 634 225 150 0 36
359 572 330 35 29 33
325 319 321 103 81 54
354 261 258 101 79 52
346 809 285 54 44 41
234 698 282 49 27 33
256 799 194 98 74 52
261 729 310 184 13 60
453 473 319 108 9 28
351 849 401 212 147 121
349 852 400 212 147 121
135 691 206 92 80 66
355 263 258 99 77 51
356 264 259 102 79 53
361 264 259 115 89 58
277 553 188 153 10 38
353 266 259 92 71 46
259 956 249 79 75 76
362 259 258 118 92 61
391 534 306 103 4 32
248 669 294 49 27 32
362 263 258 119 93 61
328 851 195 50 47 47
363 267 258 123 95 62
364 270 259 122 92 60
235 549 231 77 25 35
356 279 262 93 75 54
361 279 262 111 89 64
355 283 263 93 74 54
362 283 263 111 89 64
310 943 316 62 56 54
176 749 230 162 126 106
356 285 264 95 76 54
290 752 179 62 51 42
326 714 332 158 15 50
360 285 264 105 84 61
361 289 265 107 85 60
365 279 260 119 93 63
346 529 167 64 37 40
366 284 261 116 91 62
302 562 183 82 35 43
356 294 267 100 79 55
338 346 269 64 51 35
361 294 267 113 89 61
346 494 286 65 21 29
243 569 286 69 24 32
356 298 268 102 81 56
356 300 269 104 81 54
287 480 298 44 26 29
356 304 270 107 81 54
274 824 257 170 125 99
359 300 269 115 89 59
364 290 264 117 92 62
231 809 197 183 122 94
365 294 265 122 93 59
328 811 152 93 80 72
368 299 262 134 96 65
381 504 291 54 20 30
362 304 268 124 90 61
356 865 206 79 65 63
365 299 265 129 94 63
316 671 195 71 46 38
346 649 226 77 27 33
356 309 271 104 80 53
361 309 270 108 83 54
368 309 262 124 89 59
446 880 266 97 76 55
363 312 268 115 88 57
326 789 187 59 50 49
441 508 326 109 27 44
281 938 329 68 63 63
361 319 271 127 87 64
366 314 266 120 88 57
364 315 269 124 91 61
367 319 266 126 90 60
364 318 269 131 93 67
369 294 260 127 96 61
328 841 170 61 60 64
328 397 272 105 76 59
366 904 311 54 43 39
369 299 260 135 96 66
439 882 287 75 59 50
389 745 208 65 53 46
369 304 259 132 92 63
369 309 260 123 90 57
358 566 356 64 25 27
445 488 400 147 23 52
370 314 260 121 89 54
368 319 263 122 87 55
322 304 326 104 81 53
410 514 387 80 18 29
404 797 244 52 43 35
238 666 270 40 29 33
322 304 331 103 79 50
323 308 322 105 82 55
243 925 243 58 54 55
323 309 326 102 80 53
336 719 333 172 11 55
321 309 336 115 81 57
266 609 222 159 3 36
323 312 328 102 79 51
244 529 210 92 22 33
324 314 326 104 81 53
305 946 234 87 82 84
467 454 334 138 13 40
323 314 331 107 82 53
265 903 225 72 60 57
321 314 336 115 83 56
407 545 332 146 18 49
324 315 330 106 82 55
370 818 424 191 130 100
334 324 261 67 59 51
336 409 278 64 49 36
334 329 258 68 60 53
352 891 245 59 51 52
311 454 299 45 24 26
156 730 195 155 102 68
335 329 261 69 61 54
356 384 279 119 85 63
337 324 266 65 57 49
396 504 295 113 2 35
334 334 258 66 58 50
332 340 259 66 59 51
310 734 323 81 21 33
134 748 206 178 105 81
331 344 261 71 63 57
312 869 278 144 108 87
121 885 231 99 59 51
370 886 230 62 53 56
469 434 293 82 30 38
371 538 173 174 4 37
334 338 258 66 57 48
476 466 361 93 5 29
323 342 285 93 75 55
248 740 208 75 49 37
323 348 279 106 85 67
409 577 227 199 15 52
302 904 364 150 102 87
324 349 281 87 70 54
338 321 269 64 52 41
365 696 194 58 48 37
341 324 270 67 53 37
337 329 265 65 56 48
247 879 256 155 115 85
323 481 296 107 4 33
424 557 232 92 31 39
242 669 247 42 35 40
301 914 376 205 142 122
340 334 267 63 51 38
365 917 291 79 66 62
342 334 270 66 51 34
371 854 265 43 38 36
346 324 272 87 64 42
345 334 272 78 59 37
350 323 273 101 74 51
351 324 274 105 75 52
348 329 274 90 66 45
351 334 275 100 75 49
266 654 307 153 13 48
359 733 319 177 17 58
250 624 287 139 10 44
253 934 319 86 65 60
340 339 267 64 51 35
339 343 268 64 51 35
345 339 273 78 58 37
344 344 273 81 60 37
356 704 176 86 56 45
415 568 226 194 15 48
351 344 276 102 73 50
234 934 276 79 67 64
351 835 261 36 30 29
344 349 273 80 58 36
346 349 275 89 64 43
351 349 276 101 72 50
418 752 224 94 71 49
321 324 291 89 72 52
323 324 295 96 77 55
322 329 291 90 73 53
323 329 294 95 76 54
354 577 331 53 27 27
375 558 369 88 30 39
325 324 301 101 80 55
434 502 386 76 34 39
325 329 301 101 80 55
322 334 291 91 73 52
346 844 391 144 91 74
398 474 294 50 27 30
323 333 294 95 76 55
326 324 311 100 79 54
326 329 306 102 80 55
327 329 311 102 80 54
358 714 323 77 26 35
325 459 298 43 23 25
388 771 312 100 78 55
326 324 316 103 81 54
321 569 307 45 23 28
327 329 316 105 82 54
326 329 321 106 82 53
304 848 279 151 113 87
313 572 188 189 8 45
408 585 241 202 15 54
193 732 218 91 73 54
374 701 243 117 22 40
327 334 306 102 80 54
327 334 311 103 80 54
489 872 267 83 68 52
145 706 192 92 77 62
327 334 316 106 82 54
415 518 385 137 34 52
267 444 314 142 27 52
323 339 290 91 73 52
511 884 241 121 95 72
324 339 292 93 74 53
282 797 279 186 138 119
324 336 293 94 75 53
325 344 291 93 73 51
446 479 404 160 16 50
326 344 296 98 77 53
441 479 401 86 15 33
268 896 221 67 58 57
326 339 301 100 78 53
327 344 301 101 79 53
376 709 291 151 11 45
327 344 306 103 80 53
326 344 321 117 85 60
278 825 264 161 120 92
327 349 306 106 81 55
421 438 271 69 35 30
326 349 316 114 84 58
456 463 386 55 23 24
336 594 200 96 30 40
325 349 321 121 87 62
256 624 236 72 27 36
246 574 221 135 12 38
321 849 151 91 78 73
323 369 271 84 68 51
341 801 154 75 64 60
403 772 340 127 99 68
324 365 272 82 67 50
127 789 216 153 98 80
381 813 191 52 43 40
324 369 271 83 68 51
351 644 227 82 31 35
329 353 258 75 64 54
329 354 261 72 62 53
244 895 308 179 134 120
328 356 259 76 64 53
332 354 266 67 59 50
380 563 340 176 12 55
328 364 259 69 60 53
367 629 302 178 4 56
329 369 257 69 60 52
527 919 223 102 90 78
331 364 266 68 59 50
331 369 266 68 59 51
411 804 311 163 110 76
334 362 268 65 53 41
176 744 196 157 102 68
336 364 270 64 51 34
379 863 260 48 42 39
333 369 269 67 55 42
322 354 275 108 85 67
380 795 395 123 71 54
325 354 281 88 71 52
324 357 277 83 67 51
367 353 273 118 91 58
356 896 254 63 56 56
325 359 281 93 73 51
366 519 168 145 1 28
381 399 280 126 97 69
387 614 236 127 28 46
325 359 286 98 75 52
323 364 276 89 70 50
380 893 241 68 56 50
291 564 187 121 25 42
323 364 281 100 76 54
323 369 276 95 73 53
431 524 296 156 7 47
324 365 274 85 68 48
324 367 274 86 69 49
306 864 157 94 78 70
323 364 284 103 78 55
324 364 283 103 78 54
242 594 236 70 34 38
322 859 267 107 75 62
366 574 356 190 7 60
391 549 192 134 22 42
324 369 281 105 79 57
324 376 261 80 69 57
324 370 268 79 65 52
325 374 266 79 65 50
325 374 271 87 69 50
416 883 296 82 67 60
226 764 197 103 79 50
326 384 261 81 66 51
326 379 266 81 66 49
261 842 291 99 78 55
352 845 395 195 131 107
