ply
format ascii 1.0
comment Created by Open3D
element vertex 2214
property double x
property double y
property double z
property uchar red
property uchar green
property uchar blue
end_header
223 526 190 170 18 49
329 399 241 101 87 73
299 294 268 94 76 57
238 199 234 115 93 69
178 495 204 170 115 95
188 709 251 150 101 68
225 324 285 125 97 70
307 218 288 114 93 71
334 594 227 113 33 43
330 398 245 102 87 72
174 509 241 118 73 70
248 444 151 70 35 36
239 204 233 117 95 69
452 457 258 88 65 44
378 858 292 69 57 54
279 489 170 84 37 38
228 254 282 118 93 67
202 500 184 169 10 42
182 519 256 142 1 41
237 203 234 115 94 70
246 41 260 83 41 31
324 615 234 89 29 38
367 719 301 133 10 41
236 206 233 117 95 71
339 884 271 88 74 69
292 522 183 163 1 36
225 214 238 120 96 66
337 119 228 120 93 63
319 84 253 110 18 40
224 417 206 73 60 49
229 214 236 119 94 65
360 569 322 167 17 54
369 754 301 94 46 46
314 99 251 105 81 60
279 927 266 87 79 77
254 144 273 118 94 68
324 32 269 125 65 60
229 224 232 124 97 63
441 491 268 192 124 112
188 714 251 146 98 67
249 159 276 115 93 70
185 504 296 41 28 31
348 29 237 90 60 42
345 229 256 130 100 63
228 229 234 120 94 61
231 472 329 84 33 40
418 813 275 78 59 48
229 219 235 121 95 62
333 289 272 134 96 67
335 444 219 69 26 35
239 374 239 86 76 67
332 847 369 48 42 41
230 329 289 118 93 65
379 749 285 108 79 53
239 214 231 124 97 65
325 644 323 40 28 33
364 864 311 54 46 41
374 739 195 74 56 46
201 725 233 135 99 65
230 832 275 54 46 46
246 126 269 109 91 72
256 439 318 63 33 30
317 497 346 59 24 32
176 574 223 155 110 78
351 24 251 124 33 45
342 79 192 145 24 43
234 219 232 124 97 62
336 841 370 48 43 41
177 477 243 78 18 30
274 819 302 89 69 51
283 314 291 98 73 57
229 264 235 129 97 60
283 374 296 112 76 62
438 494 246 187 127 104
256 214 278 116 91 65
234 224 231 127 98 63
421 422 226 119 25 41
294 709 226 107 22 30
275 549 346 126 13 40
239 219 230 127 99 65
274 54 236 76 37 26
212 437 139 86 48 33
329 224 296 115 93 68
239 224 230 128 99 64
229 269 236 127 96 60
205 448 132 151 18 46
386 576 264 63 27 39
351 801 347 59 50 42
224 369 300 117 93 66
226 679 300 54 30 34
244 199 233 119 95 67
339 384 265 110 94 77
314 273 318 109 88 65
174 459 241 62 41 35
259 324 242 92 78 65
321 506 382 84 18 29
343 69 192 129 42 42
249 199 233 122 97 66
342 174 256 117 94 66
299 288 269 92 74 54
348 434 206 64 34 39
324 24 281 136 88 73
314 814 406 96 83 73
253 149 274 116 93 68
324 594 336 69 24 32
254 379 241 89 78 67
387 449 305 73 25 32
263 209 242 122 95 64
449 784 311 119 98 78
244 204 232 123 98 68
299 269 267 118 88 59
287 308 303 117 87 65
354 524 335 53 22 31
244 209 230 126 100 67
359 719 238 68 34 35
254 239 235 133 102 64
181 464 262 116 1 35
289 899 257 80 72 72
201 476 314 76 22 30
342 194 270 118 94 67
269 605 333 126 21 44
410 458 258 105 9 33
282 436 293 56 44 28
209 489 161 105 25 42
268 114 261 124 90 65
411 455 225 48 35 38
249 204 232 127 99 66
398 763 320 94 72 54
229 464 137 75 34 40
329 184 281 112 92 71
360 805 352 69 54 47
280 394 271 90 66 53
219 339 251 110 89 65
328 21 283 144 105 79
215 629 230 134 101 71
244 244 232 131 100 64
162 482 238 99 74 50
243 688 322 65 28 34
351 722 234 40 34 39
252 196 233 118 93 64
379 408 291 91 45 38
257 164 238 126 98 62
371 737 288 88 28 38
252 199 233 122 96 65
410 808 261 97 70 57
318 549 330 112 22 42
336 841 230 74 60 58
204 449 136 163 5 44
221 628 309 46 28 31
201 751 289 143 107 76
299 510 366 43 27 28
246 104 264 111 92 71
254 254 236 131 102 68
246 911 288 58 52 52
364 839 286 71 58 53
255 199 235 122 96 63
219 584 321 67 23 32
309 94 246 98 9 34
170 479 207 117 87 60
204 414 301 83 68 54
403 762 243 65 48 38
359 574 241 139 8 35
220 264 242 123 93 59
312 638 329 96 44 49
317 798 220 52 47 46
442 492 265 193 130 108
369 754 196 71 57 52
378 753 194 86 66 56
234 288 238 114 89 62
251 204 234 127 99 66
224 549 207 96 27 37
379 844 301 49 41 36
203 464 171 120 14 38
254 204 234 128 100 65
408 529 267 98 52 43
341 95 199 149 25 47
269 558 350 159 23 55
283 319 296 103 77 58
237 426 329 66 49 37
258 611 234 65 27 30
254 244 235 133 103 67
418 444 226 78 32 37
343 194 246 133 103 65
225 904 317 60 55 55
259 249 276 106 83 59
231 330 243 99 81 62
344 469 336 119 21 45
255 209 234 130 101 65
244 214 230 128 100 66
246 319 299 126 89 67
244 219 230 128 100 66
254 454 317 50 25 27
199 654 236 142 92 61
244 224 230 130 101 65
315 243 248 131 97 60
334 654 245 91 24 28
281 374 281 95 68 54
330 16 255 88 62 52
376 494 318 124 21 45
179 494 271 91 24 36
244 564 207 134 27 44
177 469 204 139 102 79
289 714 225 100 28 37
324 825 326 63 52 43
416 423 243 74 21 29
249 219 231 130 101 66
378 774 336 76 67 58
372 478 213 114 17 35
173 448 210 104 84 61
204 609 291 164 3 46
444 479 226 207 138 123
363 704 301 136 8 41
369 764 366 56 46 38
239 504 162 86 30 37
238 134 261 107 90 71
185 478 198 152 103 84
269 84 274 125 25 47
249 224 231 131 101 64
229 309 285 122 95 67
255 69 270 102 81 65
284 564 201 115 34 45
299 464 181 52 36 41
244 654 320 149 16 48
222 204 262 111 90 68
263 114 270 123 96 70
229 817 294 53 45 42
229 314 242 101 82 61
196 429 306 108 23 41
360 779 357 45 40 35
249 684 326 39 28 30
389 459 197 120 23 34
252 214 233 130 100 65
217 610 249 100 31 34
367 754 199 58 48 46
234 290 239 113 89 62
323 119 221 125 89 59
253 219 233 129 99 64
339 464 331 58 18 26
204 424 315 76 26 35
367 421 203 81 29 35
318 400 232 97 83 70
179 474 261 117 4 36
239 629 321 126 23 45
304 874 227 159 135 125
199 434 310 73 27 36
231 166 264 111 91 68
229 384 240 88 77 66
370 549 240 74 31 37
404 604 267 159 111 84
255 219 234 130 101 66
330 814 386 45 39 37
255 224 235 131 102 66
233 523 324 86 13 31
197 437 237 100 7 28
206 599 224 136 96 73
176 481 203 125 96 70
359 839 357 57 48 41
239 209 282 115 94 71
220 439 325 131 12 42
292 39 262 150 31 51
338 803 386 55 47 39
230 229 232 123 96 63
263 119 247 124 90 60
427 517 269 187 134 104
346 244 261 136 104 66
235 204 280 113 92 70
335 529 321 89 10 29
230 239 232 128 97 58
338 60 192 89 42 22
302 248 298 112 91 69
296 836 344 57 50 45
244 479 322 33 26 25
192 454 297 132 0 39
339 109 241 122 98 71
227 239 234 126 96 58
248 487 153 154 9 41
194 559 241 72 38 40
313 109 246 111 81 61
234 229 231 125 97 62
185 469 286 55 26 32
343 184 246 128 100 67
390 679 239 119 90 57
253 683 328 76 30 38
425 789 323 105 83 64
204 439 141 82 26 44
253 24 281 100 45 45
241 448 144 131 7 28
171 494 208 159 111 85
219 518 181 101 28 40
210 394 291 117 93 67
249 859 362 105 82 69
279 424 175 54 40 41
308 608 228 75 33 38
201 447 152 166 0 46
185 424 276 59 33 35
321 530 199 152 9 41
383 810 349 75 59 49
330 600 229 98 37 44
300 904 382 47 44 43
389 644 266 148 106 84
239 229 230 128 99 64
396 434 281 131 9 41
340 174 241 127 99 65
224 624 315 64 29 33
234 239 231 131 99 61
392 839 329 59 49 41
212 364 255 110 90 67
228 244 234 128 97 59
334 54 256 121 41 53
411 629 256 163 113 80
394 634 267 155 109 85
199 444 171 159 0 44
346 388 270 112 94 75
305 194 271 104 83 60
381 438 318 52 20 30
358 449 316 94 13 31
254 839 346 80 62 50
227 249 234 129 97 58
171 578 234 160 110 82
230 249 233 130 98 59
224 420 186 90 71 57
304 784 312 47 40 38
342 258 262 146 105 70
263 164 246 114 89 60
228 254 234 129 97 60
271 380 298 78 52 33
247 119 268 109 91 73
369 410 266 73 60 53
299 339 329 137 98 78
179 494 266 76 24 36
317 813 420 65 57 51
230 254 233 131 98 60
332 170 274 112 92 69
216 229 261 116 94 69
309 524 337 118 14 38
214 554 217 141 11 36
184 434 211 99 76 63
239 244 232 131 100 63
168 460 245 96 57 45
279 958 346 71 66 66
431 476 284 159 106 93
404 753 237 54 41 30
209 421 216 68 20 27
244 229 231 130 101 66
356 590 318 128 25 46
229 234 281 114 92 68
229 434 331 112 22 41
388 563 257 90 25 34
382 454 315 32 29 33
217 304 254 127 96 67
249 229 232 132 102 65
298 592 218 183 5 41
244 234 231 131 101 66
169 474 246 116 74 68
249 234 232 132 102 66
187 739 244 148 103 71
162 455 220 132 93 74
334 564 326 64 20 27
329 119 217 161 111 80
337 335 304 130 102 70
187 805 287 187 132 106
224 924 316 70 64 63
339 64 191 99 42 27
319 384 242 95 82 69
385 818 349 71 58 49
386 444 198 105 18 30
249 29 266 92 45 40
294 749 227 137 7 36
249 239 233 132 101 66
310 54 256 110 65 57
216 309 257 127 96 68
307 188 272 103 83 60
184 544 238 102 35 37
190 444 203 102 79 57
316 267 313 110 90 67
285 702 338 126 24 47
234 459 137 125 12 35
252 229 233 132 101 65
316 490 387 134 12 41
382 840 301 61 49 38
334 444 322 89 65 46
265 807 304 130 93 77
311 921 304 85 76 76
251 240 234 134 104 68
398 474 276 44 26 29
329 609 232 141 20 40
318 868 386 55 50 50
209 438 141 89 36 36
239 364 240 85 75 66
253 269 285 105 82 57
247 39 261 106 28 41
224 427 160 84 65 50
215 527 198 191 11 51
346 850 228 77 64 61
306 454 314 128 96 77
200 425 196 111 13 32
288 883 234 92 77 68
244 674 321 50 27 31
169 494 210 150 106 79
360 807 294 58 47 44
252 234 233 132 102 66
244 254 233 133 102 66
224 869 326 180 129 107
252 237 233 132 101 64
319 184 236 134 101 61
329 239 301 118 94 65
248 244 233 134 102 66
269 529 331 87 16 29
217 284 250 119 90 58
278 710 229 109 26 40
250 250 234 134 103 67
254 334 242 81 72 63
324 89 253 117 22 45
197 540 308 54 24 32
263 134 265 120 91 63
297 444 308 125 95 75
300 874 407 48 43 42
192 509 307 90 22 36
216 375 294 121 96 68
254 249 236 132 102 68
363 669 256 80 66 57
187 664 244 172 114 85
216 492 158 149 10 31
316 496 350 106 4 34
378 499 316 166 14 53
181 504 256 141 0 41
368 629 251 74 56 41
306 941 331 76 67 64
385 584 266 88 36 39
324 669 324 163 14 53
199 414 296 66 57 49
374 684 237 105 83 57
246 89 264 105 87 68
229 431 148 82 62 46
255 15 271 92 48 46
205 564 315 57 24 31
340 28 235 104 89 74
216 379 295 121 96 68
243 129 267 108 90 73
304 723 334 76 25 35
255 14 281 90 40 37
214 389 296 120 95 67
236 276 289 122 95 68
312 517 368 178 11 55
229 428 156 84 69 53
242 118 263 108 90 72
253 23 260 93 72 58
347 74 221 112 45 51
268 863 395 32 31 32
330 19 241 88 66 53
196 582 219 143 103 76
374 409 266 69 49 44
255 24 257 104 90 76
397 458 284 106 30 40
391 444 297 79 23 30
251 20 271 99 23 36
219 239 271 112 90 65
251 21 267 99 28 39
332 482 374 157 26 55
207 404 250 102 84 64
360 860 352 50 45 44
218 423 322 101 42 41
234 439 136 77 43 42
254 354 242 83 74 65
319 524 196 42 36 41
250 24 266 99 27 39
162 509 226 152 108 82
380 609 260 61 34 26
353 649 301 136 22 47
316 485 395 64 19 31
307 822 225 48 45 47
345 249 261 139 103 67
247 442 148 80 33 37
254 104 270 116 95 74
224 513 172 136 33 48
318 375 248 93 82 71
334 534 207 55 34 39
272 306 260 87 75 64
192 464 194 108 82 59
250 24 271 92 29 37
264 454 165 68 33 35
262 254 274 87 71 52
223 408 313 120 94 66
253 18 266 96 49 49
165 484 245 142 101 88
252 18 271 98 31 40
259 504 165 160 4 36
346 615 318 78 21 36
188 459 246 57 25 32
414 544 269 140 96 75
224 344 246 102 85 66
280 404 281 99 69 55
250 29 261 79 40 36
197 484 185 53 30 34
252 27 259 87 74 59
273 84 237 110 48 44
224 399 311 120 95 68
279 404 221 78 65 51
369 764 176 86 61 44
288 324 321 123 89 65
260 298 244 108 91 72
224 485 150 208 13 40
187 789 288 160 116 88
191 449 240 75 19 30
334 134 226 132 101 65
323 34 240 70 41 26
385 775 194 65 51 41
224 724 241 77 44 42
395 729 231 70 52 35
311 253 253 128 97 60
304 229 251 126 94 57
256 394 308 128 93 68
165 474 212 127 93 66
222 883 362 157 119 95
281 80 256 133 12 45
309 16 273 123 41 46
299 828 312 55 46 40
311 200 284 104 83 60
327 304 314 126 95 61
250 29 271 85 59 48
339 354 306 122 97 67
334 414 321 136 97 69
251 24 275 93 22 32
331 150 229 140 104 64
454 838 251 91 75 62
228 274 283 122 94 69
312 28 260 93 47 45
347 430 314 117 84 64
167 468 234 66 33 31
367 416 218 95 45 26
252 19 276 90 28 38
226 679 251 77 51 46
253 853 294 123 87 61
364 411 266 78 68 60
339 24 280 128 70 64
217 324 255 121 95 66
328 63 189 105 40 25
221 659 290 76 28 37
217 372 293 120 95 68
180 484 276 70 28 34
253 19 281 97 25 39
265 58 220 79 33 26
252 24 277 92 31 37
453 473 266 189 125 112
231 445 134 103 21 30
400 494 272 120 13 38
339 709 336 151 3 47
319 119 257 105 84 60
255 19 286 104 24 39
323 827 356 36 31 31
309 13 276 127 39 47
297 262 298 109 88 66
269 38 284 132 16 48
251 29 275 113 26 42
282 319 271 106 87 69
294 479 312 86 16 32
315 174 274 105 85 64
324 334 321 122 93 60
252 30 277 110 68 61
443 840 250 107 87 70
349 484 220 97 19 32
289 410 191 86 67 54
268 614 333 56 23 29
351 448 213 57 30 33
306 858 223 98 78 70
180 479 276 87 23 34
238 935 311 68 62 63
329 229 297 116 93 68
314 199 286 106 87 66
377 504 315 170 8 53
384 790 305 145 109 85
320 648 239 105 22 29
254 29 281 120 59 62
256 28 284 126 22 48
330 779 201 55 46 41
384 409 291 109 36 41
254 404 216 93 79 65
259 834 341 96 50 53
266 124 256 115 86 59
388 758 182 83 59 44
210 374 276 124 97 69
257 879 289 142 112 85
269 103 241 117 73 58
387 539 284 84 31 38
248 39 266 110 40 44
334 164 232 139 103 61
314 749 222 91 25 32
348 25 238 104 86 67
394 418 221 91 27 29
194 574 266 56 28 34
246 49 260 114 24 44
219 431 151 82 55 43
320 139 227 129 96 57
219 444 127 112 28 36
291 860 248 61 56 57
194 554 221 127 80 67
339 849 365 50 45 44
281 320 281 75 61 48
247 49 262 115 17 41
249 44 266 111 67 62
356 776 363 84 77 70
178 589 225 156 109 77
422 803 295 83 66 61
211 365 274 124 95 67
317 37 244 72 51 33
349 809 390 57 48 43
190 435 220 73 21 31
342 98 239 118 8 42
240 952 346 65 62 63
382 594 271 117 26 43
323 909 346 57 51 49
313 218 293 109 89 69
309 697 229 102 29 36
284 514 176 160 1 34
248 34 266 103 41 44
408 489 266 55 18 24
232 158 262 110 90 70
241 129 265 107 90 72
336 129 229 126 99 67
304 697 229 108 20 29
294 534 339 55 23 29
190 454 246 98 31 38
233 718 239 78 27 30
217 312 273 125 97 70
259 571 338 156 17 49
176 604 232 162 111 80
232 239 283 117 93 69
310 795 308 112 84 70
328 124 259 111 89 66
195 778 242 181 117 88
190 435 207 87 25 30
224 439 327 115 17 39
451 789 319 124 94 67
343 374 306 121 95 65
351 19 256 119 52 55
250 39 271 116 42 51
250 49 266 121 20 46
308 164 251 101 81 59
249 600 230 123 22 41
248 888 300 100 65 45
305 434 191 98 26 29
404 599 237 142 105 68
251 47 269 117 47 54
286 732 228 102 26 35
340 69 241 108 73 61
265 279 256 97 78 57
334 454 323 86 53 38
324 289 266 131 97 64
270 304 266 81 69 57
253 44 272 123 53 60
291 525 184 161 0 37
256 876 393 31 31 32
415 444 221 60 34 36
343 675 243 89 25 26
225 189 261 111 91 70
221 517 178 98 17 31
333 474 386 124 19 41
254 49 271 122 18 46
220 209 261 112 91 68
253 34 277 117 38 49
264 419 302 112 76 58
224 329 246 108 87 63
285 375 248 76 62 48
342 364 276 115 93 68
255 33 280 119 57 60
207 387 272 124 99 71
189 494 204 134 65 66
325 474 331 71 27 32
239 498 157 203 11 44
405 489 268 33 25 25
281 521 374 90 27 31
191 429 295 76 26 37
329 18 246 82 65 54
252 40 273 108 30 43
389 584 260 60 38 25
344 59 241 132 91 78
334 743 224 55 34 37
255 44 275 130 21 47
198 429 245 73 19 30
254 629 242 72 30 35
335 469 215 78 33 34
334 79 246 115 40 51
350 781 189 78 60 52
177 572 243 135 97 73
244 164 276 114 93 71
354 499 222 133 0 30
224 194 261 111 91 70
354 634 256 109 23 38
246 53 259 112 91 77
345 64 236 120 19 43
229 734 236 98 22 31
296 334 329 134 98 75
229 414 317 126 97 69
248 59 261 107 15 38
247 61 258 109 18 44
394 769 206 61 46 45
164 459 246 164 134 125
191 433 294 153 11 46
217 238 267 115 92 67
343 31 233 109 94 78
427 529 261 158 111 77
247 64 257 107 74 62
248 64 261 93 44 42
203 449 151 158 0 43
199 604 220 152 107 78
250 53 265 106 52 50
413 454 255 120 11 39
266 464 164 59 38 38
234 500 159 190 10 48
252 50 268 123 20 45
218 279 272 124 94 68
406 820 255 88 69 58
188 689 261 156 107 79
199 574 225 124 82 63
255 54 270 107 54 55
309 294 328 114 88 61
250 60 265 103 23 39
250 64 265 91 31 36
321 631 239 92 19 26
188 440 217 44 31 31
253 59 267 102 44 47
210 584 236 63 39 40
219 284 246 118 90 59
249 395 232 95 81 68
169 499 211 151 108 80
220 604 324 81 28 37
381 505 303 175 13 55
255 59 270 107 33 42
384 823 252 115 77 64
265 340 250 76 68 59
321 46 228 70 40 28
321 468 204 110 18 34
400 525 255 130 29 30
254 309 240 102 86 70
170 534 217 171 118 94
219 494 324 132 7 41
220 264 275 122 94 67
349 34 251 124 44 52
255 64 270 107 59 56
430 509 271 185 129 101
388 489 291 155 13 49
447 482 265 182 122 104
229 304 285 126 96 69
326 329 318 125 96 62
316 304 328 129 92 65
290 895 397 54 51 50
346 68 199 128 45 52
244 699 241 52 33 38
384 789 301 145 108 84
247 68 258 109 85 71
223 419 235 86 74 61
246 71 259 100 78 64
263 199 242 125 97 64
365 699 286 151 11 46
279 624 235 93 27 40
358 524 227 121 16 35
298 527 375 165 16 56
249 79 265 103 23 39
255 633 243 62 34 36
324 835 386 36 31 30
389 574 271 89 29 39
249 69 266 106 39 45
379 734 192 85 62 45
357 473 328 54 20 25
253 69 268 93 60 49
278 865 269 125 93 75
244 329 241 88 76 64
309 679 232 42 35 38
217 407 308 119 95 68
224 822 289 52 39 39
189 579 217 149 106 74
299 844 422 60 54 51
380 855 332 58 50 44
191 416 273 63 38 35
255 74 269 117 31 47
252 79 268 105 17 37
396 544 272 137 24 47
231 259 284 118 92 66
255 79 269 97 42 43
209 454 316 101 25 39
254 414 311 123 89 66
319 26 277 143 30 57
375 609 271 113 27 41
282 324 274 81 67 53
319 238 303 114 92 69
370 811 220 95 71 58
289 842 306 45 38 33
354 749 211 51 40 40
244 84 261 99 49 46
367 700 239 103 82 60
297 32 271 125 82 69
322 907 301 80 69 67
317 52 229 72 37 41
223 219 271 111 90 67
372 772 366 63 50 41
242 89 258 95 27 35
243 89 261 102 39 44
219 749 237 95 69 42
254 629 331 68 25 32
246 84 264 102 86 66
244 349 241 84 75 66
299 845 386 30 29 31
216 309 266 118 91 63
313 114 246 108 80 59
249 84 266 97 68 55
268 777 314 55 46 42
341 438 318 84 61 44
345 259 271 127 95 61
259 144 241 119 91 58
384 529 291 102 24 41
308 503 386 89 13 30
249 89 267 105 76 60
299 899 236 96 86 83
254 84 270 92 42 39
259 384 305 131 92 68
264 868 425 57 52 50
334 464 381 147 22 48
376 478 224 100 23 29
207 422 194 101 43 41
263 12 271 90 65 56
339 219 286 119 95 68
352 701 324 131 7 43
336 831 209 91 72 56
329 414 212 120 7 29
234 344 242 91 78 65
328 869 251 84 72 69
254 89 270 109 23 41
220 274 276 122 93 66
292 517 359 59 29 35
219 418 211 63 47 39
244 139 271 110 91 71
229 799 237 74 61 57
394 584 242 124 97 67
223 629 250 110 52 46
305 209 281 108 87 65
251 90 269 105 36 44
241 286 239 116 89 62
386 530 288 76 27 37
299 394 320 128 94 76
262 154 265 113 87 61
258 364 243 83 74 65
383 803 227 83 61 52
218 437 135 68 50 41
244 379 239 86 76 66
217 919 336 55 52 54
224 434 141 75 60 41
324 144 266 108 87 65
223 639 241 121 82 63
202 412 254 86 71 58
251 94 269 109 37 49
303 434 187 47 37 41
254 94 270 108 43 50
377 476 221 103 16 30
415 454 230 59 34 38
379 794 301 138 106 84
189 484 200 113 71 66
320 383 244 96 83 70
240 124 261 109 90 71
274 893 410 61 56 54
200 454 309 120 12 39
241 97 259 108 4 40
242 100 258 110 67 58
264 10 286 95 51 45
259 38 241 113 97 83
355 449 321 105 9 32
244 104 261 113 92 69
320 630 328 143 30 53
275 789 309 48 41 39
309 729 334 137 25 48
274 604 226 144 29 47
246 98 264 111 77 62
362 608 257 91 29 36
187 535 250 135 1 39
242 108 258 111 91 70
413 454 226 79 35 41
252 425 314 111 83 62
337 324 282 118 94 66
390 574 256 70 54 40
243 109 261 111 92 73
216 467 138 196 14 43
247 122 268 109 91 73
261 69 274 115 11 37
395 439 286 92 16 33
239 279 237 124 95 64
354 869 281 89 74 72
442 472 262 82 66 51
353 404 286 93 78 61
246 109 264 109 91 74
287 58 258 104 75 59
341 460 336 66 12 26
369 589 296 108 26 42
241 294 294 117 90 63
325 188 283 110 90 70
179 574 245 126 89 65
214 404 242 101 84 64
323 504 381 160 21 55
324 344 262 99 85 71
249 109 267 110 92 74
232 172 268 114 94 73
194 579 271 145 8 46
300 434 185 45 40 42
419 780 227 92 68 55
251 481 154 144 9 34
286 334 311 118 86 63
251 109 269 110 92 72
321 874 200 100 87 81
264 395 232 95 81 66
300 439 185 53 41 40
251 98 269 112 92 71
299 18 306 188 134 134
284 415 178 123 41 38
254 99 270 116 96 74
381 595 277 81 26 38
210 514 186 183 8 43
281 344 271 68 58 49
383 524 296 172 15 54
221 426 163 85 62 48
338 254 296 127 98 63
259 314 297 104 77 54
324 737 224 85 30 29
252 103 268 116 96 77
323 844 208 134 101 74
226 239 279 114 92 69
234 547 327 27 24 26
218 501 164 80 34 38
275 414 286 44 36 30
254 109 270 117 96 74
205 798 299 147 114 87
245 114 265 109 91 75
311 89 227 107 24 35
267 279 266 90 75 60
367 778 370 57 45 38
254 184 277 116 92 65
342 690 238 94 24 28
189 474 296 108 12 37
185 604 256 123 89 66
228 427 160 86 70 54
254 314 240 96 82 68
244 119 266 108 90 73
334 344 271 103 87 71
379 429 202 91 34 35
241 304 294 131 93 69
375 459 323 53 22 24
186 439 280 87 26 37
339 384 316 128 99 67
336 264 298 128 98 62
343 882 272 90 77 70
342 169 251 117 94 68
376 828 344 88 70 59
248 114 267 108 90 72
209 374 256 114 92 67
399 439 276 130 7 42
260 484 159 143 7 34
339 104 201 141 27 45
283 858 424 57 52 51
176 436 217 107 87 71
297 228 268 104 82 57
249 129 271 113 93 72
386 474 298 48 23 29
357 634 295 165 4 53
340 499 328 31 26 26
250 114 269 111 91 70
394 814 301 108 83 66
250 119 270 111 91 71
369 410 271 73 60 52
352 690 314 133 6 42
281 429 295 64 48 34
219 359 247 103 86 68
285 724 228 124 16 37
361 581 313 124 23 43
330 406 225 98 79 59
301 836 423 62 56 52
351 810 387 64 52 42
254 114 271 117 96 73
180 514 266 141 6 40
319 494 397 51 28 27
254 119 271 117 95 71
264 412 195 85 72 60
336 289 301 130 100 67
193 469 194 138 92 79
240 134 266 108 90 71
212 521 194 197 18 58
169 469 210 129 97 70
241 465 144 142 0 32
301 796 422 67 51 37
259 169 271 113 89 63
341 189 272 120 96 68
359 834 284 74 62 56
235 144 261 108 89 69
395 769 191 87 65 50
305 782 222 69 57 50
342 165 259 119 95 69
179 452 222 43 31 32
244 389 312 130 99 69
307 913 288 82 73 74
230 184 270 114 94 72
237 142 263 110 91 71
369 874 330 73 59 53
252 189 279 117 94 68
277 97 251 130 23 46
250 957 346 61 58 60
196 430 248 75 23 30
413 421 217 79 30 35
220 299 247 114 89 62
363 738 215 50 44 42
240 382 239 86 76 67
239 139 266 108 90 71
236 145 265 111 91 71
238 144 266 110 91 72
380 799 297 138 106 86
236 149 265 110 91 71
240 144 270 109 91 72
264 824 241 62 55 57
344 479 326 87 17 33
239 149 270 110 91 71
339 739 331 173 15 57
264 794 232 81 64 57
334 34 266 123 73 62
231 334 243 98 81 63
232 157 258 108 89 68
238 899 402 56 52 52
398 719 266 165 109 79
344 419 315 131 96 68
339 839 291 44 38 38
309 344 261 89 77 66
381 584 282 72 27 38
234 159 266 111 91 71
249 408 211 90 76 62
236 159 270 111 92 72
207 460 145 164 6 40
195 439 236 102 4 31
220 219 266 110 90 67
309 739 334 144 27 54
269 104 266 126 93 69
423 549 256 163 115 81
289 389 311 123 86 69
281 836 422 37 34 32
196 567 257 34 30 31
249 294 295 110 84 60
274 394 276 68 57 48
179 452 226 44 28 26
210 714 284 86 54 42
239 154 271 110 91 71
399 689 251 147 102 70
349 74 211 124 37 49
322 852 227 89 69 61
187 459 249 69 31 37
179 544 214 164 114 89
451 460 260 78 58 38
213 249 261 118 93 65
190 424 296 40 31 33
349 819 290 42 38 38
295 34 265 134 40 48
238 159 272 110 91 71
258 209 237 128 99 64
244 134 270 109 90 71
266 22 299 131 21 52
219 789 236 175 119 86
281 406 213 73 62 50
333 818 351 37 31 30
449 784 306 112 90 72
189 459 200 76 48 44
299 29 271 124 68 63
346 52 219 104 57 51
248 143 273 114 93 71
245 859 297 146 110 80
179 609 250 142 103 76
254 134 272 116 93 69
268 517 318 76 26 35
414 484 251 108 57 47
289 411 196 87 64 49
434 784 316 110 89 70
293 868 235 80 68 67
249 145 274 114 93 71
451 476 251 186 125 108
388 498 222 71 28 35
245 149 274 113 92 70
229 679 256 71 35 45
169 524 237 124 82 68
400 544 256 94 66 51
204 454 312 94 23 37
213 254 261 120 94 65
400 664 245 142 100 69
242 153 273 112 92 72
384 649 235 147 102 72
229 374 240 89 78 68
344 259 286 128 97 64
229 309 241 104 84 62
334 489 361 176 14 57
369 624 281 116 22 43
164 494 216 151 107 79
181 513 257 137 3 40
249 154 275 115 94 71
430 514 266 182 127 97
231 179 270 114 94 73
263 149 256 110 85 58
334 64 252 119 87 70
334 407 236 100 86 70
244 394 313 131 98 70
216 239 265 116 92 66
263 179 242 121 94 61
234 775 313 58 48 42
276 703 228 111 34 45
255 154 273 116 92 66
269 858 401 34 31 33
256 159 273 114 91 65
184 493 203 182 125 110
217 506 169 59 37 36
231 164 261 109 90 69
174 499 245 121 46 56
339 45 217 122 101 77
419 778 312 120 92 73
234 432 145 87 68 49
188 464 200 65 43 40
244 401 226 94 81 67
167 464 231 39 30 31
285 360 253 75 65 57
231 169 265 113 92 71
244 259 233 133 101 65
259 825 316 82 68 53
375 416 223 114 42 21
229 174 261 109 90 69
254 790 308 56 47 43
230 174 266 112 92 71
337 842 373 49 41 41
195 424 306 107 15 38
400 699 256 151 102 69
321 915 321 59 51 50
304 639 237 52 34 38
239 329 241 92 78 63
306 223 248 127 95 57
364 484 330 89 11 31
193 789 293 152 115 87
275 349 286 62 51 39
230 563 212 126 20 40
323 514 198 81 30 36
231 176 269 112 92 71
199 444 186 132 5 38
232 163 263 111 91 70
211 589 236 86 46 36
322 470 203 113 16 30
233 164 266 112 92 71
441 494 256 185 123 100
372 583 294 115 27 43
252 194 279 117 94 68
399 445 190 81 34 40
232 168 267 112 92 71
353 520 321 56 22 36
281 337 267 67 59 52
234 449 137 140 5 35
332 240 299 120 95 67
446 476 223 200 133 117
253 493 158 93 28 39
238 164 273 112 93 73
237 169 273 112 93 74
212 388 292 120 95 67
281 369 281 95 68 55
384 721 208 106 76 55
289 857 387 33 30 33
184 499 205 178 128 113
179 599 226 159 112 79
209 429 161 98 40 37
187 546 264 56 27 33
344 575 339 139 22 48
222 208 263 111 90 68
236 174 274 115 96 77
358 773 366 67 59 52
174 479 245 76 22 30
239 421 176 88 75 61
239 174 276 114 94 74
172 464 209 139 105 84
336 149 263 115 93 68
339 349 301 125 100 70
217 362 288 119 94 66
331 128 258 110 89 66
254 189 277 116 93 66
329 35 267 127 30 50
319 184 281 108 89 69
226 184 260 111 90 69
456 450 247 113 82 57
302 887 248 78 69 71
274 679 333 150 15 47
238 379 238 86 76 66
229 704 250 55 25 31
254 294 241 113 92 68
379 819 335 90 71 58
227 184 262 110 91 69
269 664 240 134 7 33
369 739 296 90 24 37
356 842 358 49 42 38
283 49 252 118 31 33
420 444 231 100 29 38
239 426 158 88 73 57
217 314 276 126 99 72
269 24 255 102 88 75
335 99 247 113 83 63
304 699 336 90 28 38
395 749 271 148 105 75
425 761 308 95 75 57
333 314 306 135 101 72
399 827 258 84 67 62
230 189 271 114 93 71
226 454 329 45 29 31
271 787 234 78 62 56
324 454 211 115 18 27
209 494 320 150 1 46
221 350 289 117 93 66
310 74 250 101 6 36
233 179 272 114 95 74
229 486 149 201 10 40
238 184 277 113 93 72
315 870 397 55 51 49
201 430 171 92 33 37
227 810 244 79 64 59
260 802 233 81 65 59
352 444 201 92 27 37
294 11 306 146 45 64
240 189 279 114 93 71
350 863 296 69 61 60
244 169 277 114 93 71
332 834 202 113 88 66
204 423 191 107 30 37
249 164 277 116 94 70
361 604 250 60 37 39
244 174 278 113 92 70
214 431 152 84 51 43
397 664 264 165 118 91
274 681 334 143 14 45
321 99 207 118 16 36
185 445 207 79 58 52
250 174 278 116 94 69
373 499 321 61 25 30
197 589 270 144 3 44
327 262 253 146 102 70
323 469 391 59 24 29
249 390 238 94 82 71
231 287 238 114 89 62
254 174 276 115 92 65
319 569 212 178 5 40
243 178 278 116 95 74
324 384 325 137 99 69
220 349 247 104 86 66
398 564 245 112 86 59
285 54 277 126 31 51
241 180 279 116 96 74
227 491 154 76 46 41
340 818 298 44 39 38
416 464 241 91 27 35
211 622 273 60 30 32
367 711 290 135 0 40
285 848 257 173 125 101
303 507 381 49 27 26
321 545 328 142 17 46
208 379 256 116 92 67
285 64 266 115 78 65
244 184 279 115 94 72
301 876 215 99 72 49
409 422 211 85 32 32
214 419 237 78 62 53
320 119 226 113 85 51
249 184 280 118 95 71
334 38 264 132 20 48
189 439 286 139 8 43
342 374 310 123 97 65
357 548 334 173 7 56
220 259 275 118 92 64
244 189 280 116 95 72
235 895 396 40 38 40
371 846 274 78 63 55
191 519 305 85 30 38
333 294 306 131 100 67
249 422 170 87 73 58
249 189 280 117 95 71
319 64 196 96 33 31
448 761 303 119 92 70
329 369 257 94 83 73
348 549 222 94 31 42
371 524 322 73 25 36
227 659 302 36 30 33
214 379 291 121 95 67
219 389 243 98 82 65
239 354 241 87 77 67
321 495 333 64 22 31
322 309 320 129 94 64
251 178 278 117 94 69
257 622 328 43 26 28
399 750 331 79 62 48
274 944 371 57 55 56
215 359 281 120 95 66
254 179 276 116 92 65
241 299 294 128 93 68
187 550 276 126 20 45
330 324 311 131 100 65
192 426 298 32 30 31
351 458 218 50 32 33
426 481 276 109 71 52
222 198 258 112 91 70
310 535 194 165 5 36
351 446 318 66 28 29
337 314 282 113 90 63
338 249 295 126 98 64
286 300 277 128 102 81
229 279 237 117 91 60
180 470 246 102 6 32
269 602 334 131 30 51
316 489 395 115 18 41
433 757 230 111 82 58
226 421 324 84 68 53
284 789 310 39 35 37
223 199 261 111 91 69
215 259 247 124 94 58
364 773 187 69 54 42
394 554 271 95 28 39
344 884 281 90 76 71
400 439 271 132 1 41
319 454 206 114 12 28
289 574 340 84 31 39
332 516 203 72 46 41
335 119 226 118 93 64
351 814 355 51 41 36
336 455 366 98 11 32
221 205 260 112 91 68
270 874 277 134 103 81
371 820 348 103 79 66
332 354 319 126 96 64
254 833 247 170 131 112
287 542 188 117 27 49
289 759 229 84 47 48
170 475 208 108 85 59
377 782 193 77 59 49
219 470 140 197 12 44
219 629 261 96 51 50
225 199 266 110 89 67
319 179 235 134 101 61
308 234 250 128 94 56
453 464 242 167 116 94
345 219 276 116 92 66
405 798 276 134 96 73
374 444 201 68 34 34
394 634 236 151 109 72
380 831 290 41 31 31
218 254 272 116 92 64
249 699 335 83 24 36
280 394 281 101 70 55
224 204 266 109 89 68
305 808 233 79 63 57
341 182 268 121 99 75
334 264 257 145 100 68
227 208 273 111 91 68
212 606 228 126 86 64
324 844 200 130 99 74
401 626 239 153 108 72
216 364 248 104 86 68
283 369 256 70 62 53
186 543 285 171 5 49
419 524 245 126 98 64
236 225 284 116 95 72
254 579 215 196 9 43
225 209 271 110 89 66
326 520 333 68 19 30
234 279 237 122 93 63
195 519 310 144 7 44
342 61 198 97 48 27
224 214 271 111 90 67
394 489 231 134 13 40
249 504 319 86 9 29
217 219 257 111 90 66
365 825 230 79 63 54
254 484 156 107 23 32
334 823 331 52 44 38
218 234 267 114 92 67
348 529 217 76 33 39
369 549 316 179 14 56
217 224 262 113 91 68
179 474 246 103 5 32
219 884 341 170 133 111
229 499 326 129 5 40
271 394 245 81 67 52
214 422 181 98 55 48
222 218 268 110 89 66
395 738 229 83 66 48
221 220 269 112 91 68
224 421 182 91 71 57
335 544 323 40 25 25
290 424 179 103 30 36
180 489 276 41 29 32
351 879 289 76 64 61
342 472 342 172 14 50
223 224 272 112 91 67
298 388 250 93 79 65
215 234 261 116 93 66
230 334 290 115 91 64
390 714 235 103 81 55
339 519 321 53 19 24
301 861 418 55 50 51
311 154 242 112 88 58
234 664 312 38 29 32
220 229 270 112 90 66
239 434 330 122 22 42
288 513 331 79 20 31
222 228 272 113 91 67
358 464 206 55 33 36
194 664 239 142 96 61
260 154 267 114 90 63
368 723 231 85 72 60
182 472 252 106 3 32
220 624 241 103 59 45
289 408 206 84 69 53
433 498 241 208 140 118
390 449 297 73 21 30
239 729 331 173 17 56
273 329 281 67 58 49
216 235 265 115 92 66
214 734 291 102 53 46
220 234 271 113 90 66
274 559 342 84 24 35
397 445 284 76 15 29
364 832 359 67 56 47
294 434 306 126 95 74
264 369 246 82 71 61
411 446 214 120 21 36
335 488 209 116 6 28
309 319 267 88 75 60
186 425 268 62 35 35
279 754 228 88 35 40
304 910 272 83 76 76
211 617 267 56 30 32
349 823 206 105 79 60
234 314 241 94 78 62
191 744 238 141 99 69
225 224 275 113 92 69
209 420 206 80 30 32
230 572 218 167 21 47
222 232 273 115 92 67
284 40 283 127 36 52
294 699 228 91 28 32
329 214 240 136 103 62
374 744 286 114 81 60
179 464 240 61 24 30
314 294 326 119 91 62
358 411 226 85 46 42
312 154 239 113 86 53
328 364 257 95 84 73
337 53 254 127 12 45
224 234 276 114 93 70
201 452 170 164 0 44
203 449 146 161 0 44
221 240 274 114 91 66
352 643 258 47 32 33
244 264 234 134 101 66
324 609 336 112 29 44
214 244 261 116 93 65
169 489 246 142 94 88
212 757 298 147 110 78
282 74 253 132 27 52
332 401 243 100 86 73
251 464 318 37 25 25
240 749 228 150 11 41
294 339 326 134 98 76
214 254 266 120 94 65
220 254 275 116 92 65
165 484 212 159 110 84
337 419 319 135 98 69
284 779 313 51 43 40
223 254 277 115 91 66
307 204 244 123 94 59
254 515 169 181 5 37
257 431 314 91 63 46
312 158 262 101 81 58
230 664 266 80 25 37
227 194 267 110 90 68
284 669 235 81 34 39
371 851 279 104 88 82
357 737 229 57 39 46
202 604 291 171 5 49
254 469 156 97 28 34
230 199 275 113 92 70
416 436 209 73 26 35
233 199 277 113 92 70
347 787 373 64 56 48
259 304 242 105 89 72
439 489 236 217 145 128
336 324 280 112 90 66
239 199 281 114 93 71
392 435 294 136 16 45
319 254 250 135 99 63
225 299 242 111 87 61
233 204 278 113 92 70
232 208 278 113 92 71
159 474 226 138 99 77
307 922 298 83 75 76
209 424 226 93 17 34
266 194 258 115 91 66
294 784 312 50 42 40
239 204 282 114 93 71
222 674 242 110 79 55
319 873 241 78 70 70
226 215 274 112 91 68
300 769 227 71 56 49
384 704 276 139 97 70
251 414 313 123 91 67
354 409 251 100 86 73
193 764 240 171 116 85
229 214 277 113 92 70
404 425 196 96 25 34
374 415 231 80 42 39
304 849 420 56 52 50
219 334 251 113 90 65
180 504 281 66 29 35
224 664 251 101 67 54
189 514 216 140 42 48
349 794 396 63 51 43
231 214 279 113 92 69
245 557 344 187 16 60
249 494 157 155 10 40
324 449 322 113 81 62
225 219 275 113 92 70
186 429 284 41 30 31
271 408 298 92 64 45
228 219 277 114 93 71
220 803 243 164 116 90
169 464 245 108 64 57
171 445 213 79 58 40
269 850 364 94 74 58
181 527 262 152 0 41
181 469 275 116 14 35
264 602 334 36 27 31
284 319 266 101 82 65
202 450 161 162 0 44
251 474 154 84 19 28
228 224 278 114 93 71
224 674 246 99 72 53
319 409 226 99 82 62
244 689 241 63 35 36
199 454 191 87 50 47
254 419 311 118 87 63
289 844 346 48 43 40
181 471 250 105 3 33
254 840 255 199 138 109
231 219 279 112 92 70
213 259 251 125 95 60
338 199 280 121 97 70
313 224 244 131 98 60
230 224 280 114 93 71
359 411 260 87 76 67
234 364 241 87 77 68
377 857 335 60 54 50
402 789 336 78 57 47
264 754 325 66 50 48
317 922 344 69 62 60
216 319 275 127 98 70
324 179 234 138 104 64
234 219 281 113 92 70
307 430 318 133 98 78
435 499 271 188 130 108
186 544 281 101 18 39
408 416 245 43 28 26
234 224 282 114 93 71
264 484 161 116 21 32
189 444 226 98 1 30
379 764 346 51 39 33
346 89 216 117 67 60
339 474 341 168 16 53
165 499 216 148 104 77
278 636 239 137 29 50
244 609 330 67 29 35
220 374 300 118 94 68
237 219 283 115 94 70
274 599 335 161 17 51
206 459 314 56 27 31
315 678 328 78 32 39
187 534 217 126 79 61
322 86 199 137 10 44
239 219 284 117 94 71
239 224 285 116 94 71
372 872 307 74 63 62
340 33 230 109 91 74
254 324 240 87 75 64
234 554 205 151 23 47
339 114 231 118 92 64
260 369 303 127 89 66
311 103 231 128 63 58
188 444 205 85 66 50
411 438 253 127 5 41
399 554 251 92 64 45
244 194 282 116 95 72
160 484 221 155 106 80
334 680 238 80 29 30
200 699 237 142 99 65
229 421 324 84 68 52
232 242 283 119 95 70
411 449 257 140 18 47
281 637 238 131 18 37
195 416 299 55 51 47
244 199 282 117 96 72
197 433 200 126 7 35
203 469 171 125 11 34
377 556 254 84 14 29
249 194 281 119 96 72
254 849 291 142 98 72
345 454 356 127 13 40
359 444 331 90 15 29
259 259 241 125 98 65
221 269 243 121 92 58
249 199 281 118 96 71
344 604 326 179 6 58
378 818 242 91 67 57
244 204 283 117 95 71
178 479 251 113 2 35
302 242 293 111 90 68
300 439 310 126 96 76
234 294 239 110 87 61
192 672 263 143 105 79
314 369 250 95 82 70
204 479 316 115 17 38
362 802 359 61 46 40
192 449 245 90 39 41
409 506 266 97 70 62
282 339 297 101 74 57
244 208 283 117 95 70
419 780 321 109 84 66
217 304 272 122 94 67
217 631 270 126 16 43
212 625 275 39 30 34
244 859 362 99 77 61
357 529 228 104 25 38
249 209 282 120 96 68
220 613 320 134 26 49
378 609 246 99 78 54
193 439 231 101 5 31
253 199 280 115 92 66
334 784 191 70 57 48
216 294 270 123 94 67
229 754 317 75 39 44
255 199 277 113 90 63
356 458 206 74 34 35
244 224 285 120 97 72
253 204 280 114 91 64
213 479 323 108 21 39
427 754 314 104 74 52
219 426 166 88 61 49
255 204 277 113 89 62
364 828 232 81 63 55
253 209 280 118 94 66
405 766 313 75 52 40
282 74 266 130 12 45
368 524 326 91 27 39
275 889 246 80 69 66
310 494 189 141 0 29
256 209 277 115 91 64
405 440 191 121 27 42
249 388 239 94 82 71
434 480 251 111 87 60
241 211 284 116 94 71
260 114 241 119 83 54
309 689 332 61 27 32
224 304 281 122 96 69
244 214 284 119 96 71
182 493 283 38 31 32
247 210 284 120 97 71
218 571 328 185 16 58
264 899 261 79 70 70
274 950 315 89 84 86
235 465 139 134 10 37
338 888 276 91 77 74
323 69 190 127 26 33
274 649 332 170 11 54
224 474 328 82 26 36
193 544 301 160 0 47
248 214 284 120 96 70
357 471 219 124 13 40
190 493 203 132 38 50
289 774 316 53 45 42
277 873 270 76 61 58
248 219 284 120 96 70
345 446 346 90 23 33
248 224 284 119 96 70
249 624 242 164 1 38
256 219 278 116 91 65
242 640 323 65 26 32
289 749 229 126 16 33
399 414 236 57 28 27
218 423 222 72 41 37
312 49 241 84 32 31
387 760 284 125 95 67
289 844 427 46 41 40
164 459 227 106 75 64
256 224 278 115 91 64
182 519 286 98 24 38
315 363 254 94 82 69
258 434 161 135 4 35
349 389 286 108 89 68
254 503 163 181 6 38
304 609 336 52 29 32
250 219 283 118 94 68
174 534 238 109 72 56
337 56 193 95 45 19
235 934 366 59 55 55
332 482 342 64 17 30
184 534 261 152 2 42
251 224 283 118 95 69
281 330 266 71 62 53
174 494 206 152 106 83
284 34 285 131 35 54
199 414 266 65 52 45
324 786 418 76 64 54
218 704 237 134 98 67
226 234 279 114 92 70
232 233 283 115 93 69
222 588 327 65 24 31
291 859 251 60 54 56
325 524 332 88 19 36
437 493 242 184 123 102
248 407 214 90 77 63
229 239 281 115 92 69
219 889 351 162 124 100
245 952 327 80 76 78
235 229 284 116 93 70
214 430 156 86 52 42
364 509 226 89 21 34
334 739 331 172 14 56
239 324 295 117 90 61
234 376 238 87 77 67
266 244 266 108 87 65
319 229 242 135 100 61
239 229 285 117 94 71
235 234 285 116 93 69
262 154 246 115 90 60
179 584 222 155 108 75
264 416 182 88 73 57
209 769 300 151 115 83
187 467 199 54 34 26
279 750 327 64 52 47
282 332 271 72 61 51
201 469 177 55 34 34
185 734 261 155 106 76
269 359 251 75 66 57
226 354 243 96 82 68
291 326 269 75 63 50
315 500 341 91 25 37
264 309 291 69 54 37
239 234 286 118 93 69
175 564 222 155 108 78
264 12 266 90 73 62
326 26 238 72 51 37
217 481 149 200 13 39
221 273 243 119 91 59
385 824 348 80 64 53
441 486 240 159 110 91
226 244 279 116 92 68
432 508 252 182 122 92
225 444 130 116 28 35
189 649 239 143 95 59
249 384 310 132 98 67
318 794 220 56 48 48
307 238 298 112 91 69
225 249 279 116 93 67
254 484 315 37 25 27
338 639 315 126 23 44
345 54 241 124 46 52
228 249 282 117 92 67
240 427 327 75 52 40
368 765 172 90 66 42
210 548 217 173 13 37
219 528 196 187 9 44
231 249 284 120 94 69
225 254 280 116 92 66
201 436 152 132 33 33
210 738 234 143 106 75
231 254 284 119 93 67
359 879 326 62 53 48
325 464 319 114 79 63
421 495 252 107 77 46
230 889 316 122 92 76
352 863 262 89 72 65
279 546 189 50 33 39
234 244 285 122 96 70
398 448 192 94 33 39
359 619 301 167 7 53
217 594 318 82 25 36
208 413 302 108 87 66
188 684 256 158 107 79
335 719 229 102 20 27
324 249 247 142 102 65
288 582 339 64 24 26
324 264 310 118 91 58
239 415 196 90 76 63
174 499 207 152 107 83
295 249 281 102 81 57
240 870 374 122 100 78
234 249 286 122 95 69
164 479 245 138 100 85
171 502 244 148 107 97
251 422 313 115 85 62
329 739 224 75 31 33
317 832 362 39 32 33
239 244 287 123 97 71
378 537 238 66 30 38
190 484 301 135 2 39
182 489 283 56 29 33
334 204 240 135 103 62
234 254 286 121 94 69
226 416 221 81 66 54
345 886 306 65 57 57
239 254 287 123 96 70
389 624 236 132 100 63
420 795 282 77 57 46
244 234 286 122 97 71
367 518 329 62 17 27
408 803 281 120 89 71
209 427 166 88 41 40
304 314 331 133 94 72
406 745 336 74 57 44
388 427 200 102 27 29
244 239 287 122 97 71
427 749 223 92 66 51
424 429 221 59 33 35
249 234 285 120 96 70
369 810 216 100 75 58
307 174 262 101 81 58
264 108 231 137 80 66
344 719 335 166 6 54
317 794 429 73 60 49
324 28 276 149 69 71
309 449 315 129 95 77
249 239 285 121 96 70
213 369 251 106 87 67
391 738 224 62 48 40
254 229 280 116 92 66
301 230 285 109 88 66
209 369 271 124 96 68
329 608 335 115 29 45
400 839 316 78 63 53
285 44 255 111 80 57
282 394 241 77 62 45
351 575 333 184 8 58
282 329 271 74 63 52
206 459 151 151 0 42
254 234 281 115 90 65
330 417 213 124 12 38
229 489 326 142 1 44
178 489 266 51 26 32
338 654 316 132 16 43
321 490 376 124 4 40
251 234 283 117 92 67
204 604 222 149 107 79
201 494 182 59 32 34
251 237 283 118 94 68
254 239 281 114 90 65
244 244 287 123 97 71
223 889 331 166 128 103
298 404 317 127 93 75
286 49 255 133 38 45
294 845 402 37 33 33
244 249 288 122 96 69
330 364 260 94 84 73
231 832 263 79 63 60
418 780 326 105 84 68
201 410 261 95 76 60
223 314 282 120 95 69
249 249 286 120 93 67
433 474 284 166 110 99
438 764 297 99 79 60
163 479 241 117 87 63
244 254 288 122 95 68
316 799 222 54 48 46
334 129 256 112 90 66
295 354 325 132 94 77
216 268 248 123 93 58
286 536 349 100 8 34
182 510 246 134 0 37
211 629 291 66 31 36
252 244 284 118 93 68
335 574 330 77 15 30
349 822 331 53 43 36
259 499 162 156 8 36
226 459 329 60 31 36
280 908 247 86 75 70
309 504 371 34 28 29
282 384 291 109 75 61
217 506 323 144 2 45
242 842 330 124 103 95
254 249 281 115 89 64
364 864 286 85 71 67
340 249 255 142 104 67
279 410 201 77 63 50
161 494 231 159 113 92
256 892 414 58 54 55
235 375 309 120 94 67
194 669 240 144 97 62
360 454 331 113 20 40
190 809 266 196 132 104
187 447 217 68 21 30
222 640 302 175 13 55
350 39 246 121 30 46
213 384 291 121 95 66
251 686 238 54 36 35
264 279 251 105 84 60
252 249 284 118 93 66
320 804 211 59 51 49
168 489 210 145 102 76
249 299 240 107 89 69
319 214 238 135 102 63
249 489 317 40 24 26
244 759 227 62 52 50
354 694 245 36 34 38
252 255 284 116 90 65
368 689 240 103 82 59
195 519 211 147 20 39
205 554 315 104 23 40
223 259 240 125 94 58
259 879 287 136 107 81
269 314 286 62 52 42
191 509 305 123 22 43
234 889 381 141 107 90
255 625 330 44 26 28
279 484 310 74 19 30
337 114 245 119 96 69
185 454 252 92 19 33
324 689 232 49 37 38
302 301 269 92 76 58
247 313 298 115 87 61
225 259 237 126 95 58
274 394 271 74 59 44
210 421 188 99 50 47
311 65 232 102 76 56
246 582 218 190 8 41
243 913 290 54 48 48
264 941 300 90 82 82
182 529 266 156 0 42
203 454 161 147 0 38
223 264 240 124 93 58
174 474 206 117 91 63
224 614 321 110 33 46
181 470 258 110 1 32
181 519 276 61 31 35
329 469 326 54 32 28
304 354 328 141 103 78
210 384 251 108 88 65
181 779 271 164 114 81
364 569 242 143 8 34
299 334 330 137 99 77
216 324 257 114 90 64
212 259 256 123 95 62
367 728 225 70 61 56
368 619 268 103 30 40
192 430 297 51 27 33
186 480 294 82 13 28
263 139 246 123 93 60
309 594 335 66 24 32
362 729 315 142 17 46
391 791 349 74 57 40
210 426 167 92 47 41
422 762 223 106 79 60
216 264 248 125 94 59
212 264 256 127 96 63
259 354 245 82 72 63
249 479 152 150 2 34
214 269 251 126 95 61
265 19 299 95 48 50
342 189 270 119 95 69
220 259 242 125 94 59
344 259 266 139 101 67
215 374 291 120 95 66
339 732 334 175 8 58
281 369 276 83 63 51
269 15 262 93 81 68
218 264 245 123 94 59
368 832 242 92 71 62
319 69 255 114 68 59
338 199 242 134 102 62
284 629 335 112 28 43
319 824 212 61 51 46
254 329 301 119 85 63
390 444 192 112 19 32
191 444 248 113 72 65
308 248 303 113 92 69
214 433 146 80 50 40
325 279 312 118 91 58
224 269 240 121 93 59
332 329 309 131 102 68
299 869 411 56 52 51
211 401 299 117 94 68
212 600 232 115 68 54
254 304 240 106 90 73
342 767 189 76 59 51
319 639 326 46 29 31
215 274 251 125 94 60
410 774 261 112 79 57
307 454 313 127 95 77
304 244 255 126 93 56
215 279 251 123 92 59
230 449 134 116 19 36
369 793 366 66 50 41
262 324 243 93 79 65
223 530 195 185 9 42
349 15 261 117 55 58
417 454 250 61 23 32
214 279 256 126 94 63
211 359 270 122 95 66
270 349 250 76 67 58
215 284 256 126 94 62
330 888 272 65 56 54
299 219 271 103 82 57
258 12 275 89 46 43
342 887 280 92 79 76
195 584 286 177 2 52
325 94 196 135 20 42
191 569 272 111 15 38
304 827 312 57 48 40
327 300 314 126 94 62
217 334 254 116 92 65
369 424 201 68 32 36
164 454 216 122 89 68
190 779 290 153 116 85
193 433 205 96 19 36
216 289 252 121 91 60
203 430 313 100 26 41
335 129 226 128 100 67
209 759 234 146 106 73
289 809 237 72 58 52
215 289 256 124 93 63
219 274 246 119 91 59
318 573 213 178 3 38
393 474 286 94 26 38
339 674 242 95 22 27
279 24 301 142 102 82
215 444 320 120 22 43
362 664 285 83 30 38
263 89 222 150 19 40
274 659 332 166 13 52
209 444 131 73 30 40
324 204 237 132 102 64
219 279 246 118 90 59
189 769 286 149 110 80
456 464 251 155 107 87
329 716 339 55 21 29
307 459 313 118 85 69
218 899 346 124 97 83
209 423 181 104 48 43
202 739 234 138 100 70
224 274 241 118 91 59
224 279 241 116 89 59
384 824 336 87 69 55
207 384 259 120 95 68
216 274 248 121 92 58
311 534 338 91 22 37
181 644 246 176 122 95
217 279 249 121 91 58
248 561 204 42 38 43
339 434 216 58 30 35
329 129 222 150 103 71
217 369 292 118 93 65
314 384 326 141 103 74
342 169 256 117 93 66
273 479 167 51 40 40
193 429 301 38 28 32
383 584 280 111 30 45
278 64 241 109 39 40
334 554 325 49 25 28
199 744 235 141 103 71
295 29 264 116 67 46
288 868 419 61 56 53
243 454 325 98 17 34
284 804 236 69 56 51
304 334 265 85 74 63
222 284 244 116 89 57
225 289 242 114 89 60
267 285 275 76 64 52
216 294 256 125 93 64
380 778 292 126 99 77
330 833 408 49 43 39
337 112 203 157 35 55
209 409 301 110 89 65
222 535 199 179 8 40
372 543 238 97 31 40
218 294 250 117 91 61
266 184 256 116 91 65
396 742 220 68 55 43
216 294 253 120 92 61
198 494 312 94 22 36
409 804 261 108 76 58
409 428 196 127 16 33
238 344 297 112 88 61
248 275 289 108 83 60
412 430 197 182 15 46
254 411 201 90 76 62
344 644 310 135 16 45
330 249 302 122 95 63
222 299 244 112 88 61
225 304 242 111 88 62
220 304 247 115 90 61
320 169 233 134 101 61
427 764 236 102 76 54
299 494 180 73 32 37
354 880 316 59 51 48
216 299 256 122 93 64
403 489 269 68 22 31
276 69 236 124 32 42
319 754 325 63 51 45
263 339 299 116 78 60
363 659 281 47 31 34
349 788 309 41 36 35
214 454 131 110 25 40
218 304 251 122 93 64
262 113 243 117 80 54
443 489 256 182 121 99
186 450 231 79 20 32
390 480 210 68 34 39
223 309 245 111 88 61
337 379 263 99 86 73
217 309 255 131 97 68
266 249 266 103 85 65
221 314 247 112 88 62
191 436 224 102 3 36
336 771 196 65 52 44
239 339 240 89 77 65
327 207 238 133 101 61
223 314 245 108 86 61
221 318 248 110 87 62
254 420 171 87 73 57
224 319 246 107 85 61
314 834 361 38 32 34
200 414 276 68 59 52
400 714 256 154 103 69
213 369 281 122 95 66
218 314 251 125 95 66
255 264 282 103 81 56
217 314 255 130 97 69
218 429 323 133 17 43
309 929 351 57 51 47
294 559 341 42 27 29
271 11 299 116 85 65
219 319 251 122 94 66
255 396 228 95 82 69
371 659 238 125 88 57
304 459 312 113 60 55
458 449 256 148 108 95
309 825 316 63 52 43
350 434 191 88 28 36
256 439 159 140 3 32
217 319 255 127 97 68
182 529 271 153 5 42
225 264 238 125 94 58
299 715 338 96 24 38
289 625 234 89 34 40
314 499 361 77 20 31
219 479 146 202 14 43
314 139 236 116 90 58
291 399 310 124 87 70
231 259 233 131 98 60
313 454 196 119 11 29
390 462 198 111 30 45
244 373 308 125 96 67
263 878 385 38 35 35
324 239 302 116 93 67
340 109 231 124 96 68
239 259 233 132 100 63
367 593 257 68 29 35
177 482 253 123 0 37
356 801 378 67 51 44
255 444 317 45 26 27
326 798 414 83 74 66
211 390 290 120 95 68
239 263 233 132 99 64
234 269 235 131 98 63
288 879 236 77 68 64
239 269 234 132 99 65
364 579 246 147 11 34
279 24 256 97 29 24
348 59 211 116 38 41
274 11 267 95 80 69
329 28 276 142 63 68
227 274 239 120 92 60
208 564 318 60 26 32
448 473 238 115 62 55
227 279 239 116 90 60
229 289 240 114 89 61
343 799 198 73 56 48
239 287 238 115 89 62
292 32 284 135 72 69
245 260 234 134 102 66
281 369 266 66 57 47
347 224 266 119 95 68
361 694 296 146 15 45
171 448 223 76 47 39
313 139 251 102 81 56
225 522 182 168 12 44
242 262 233 132 98 63
279 834 336 67 58 50
247 699 239 99 25 41
336 510 328 79 25 31
247 257 233 135 104 68
217 449 323 88 22 33
169 444 224 97 63 54
359 845 300 57 47 45
332 195 284 116 94 71
190 479 301 136 1 41
351 443 206 63 34 35
324 12 281 139 67 82
249 259 235 134 103 67
244 369 242 86 76 67
322 499 198 129 2 29
249 264 236 133 102 67
219 519 324 73 31 37
191 788 253 171 112 81
222 649 256 105 50 48
230 279 284 120 92 67
244 269 235 133 100 67
234 464 329 85 24 35
198 428 221 100 3 31
186 767 248 180 121 91
188 444 217 53 25 32
226 856 339 149 109 90
