ply
format ascii 1.0
comment Created by Open3D
element vertex 2207
property double x
property double y
property double z
property uchar red
property uchar green
property uchar blue
end_header
399 324 278 125 96 64
456 432 199 78 51 42
461 433 199 76 39 35
457 432 202 74 46 39
461 432 203 76 38 35
252 744 211 134 99 63
464 431 206 75 37 33
387 616 301 151 13 47
410 448 378 163 14 51
466 431 209 74 38 32
470 431 210 77 35 33
471 430 214 75 35 33
476 431 214 76 34 33
480 431 215 76 35 33
476 429 219 75 37 32
356 874 195 127 104 88
261 524 269 149 97 84
398 627 322 182 131 111
476 428 224 73 42 34
348 295 264 83 67 49
481 430 219 77 36 32
447 804 249 60 47 42
399 429 376 53 23 31
479 532 181 205 20 50
466 435 194 62 36 31
470 436 195 56 35 31
351 759 199 62 37 42
422 564 334 165 117 86
288 597 166 92 27 34
472 437 193 54 33 30
403 429 382 65 24 32
391 444 359 37 26 28
466 433 204 75 35 32
451 829 303 77 64 56
471 433 204 66 36 31
471 432 208 74 35 33
476 436 199 57 34 29
278 519 181 63 32 38
341 944 349 60 54 52
474 436 196 56 33 29
289 658 256 103 16 42
477 437 197 55 33 29
467 556 199 86 31 42
481 437 198 54 32 28
476 433 209 68 35 32
481 435 204 56 33 29
500 769 305 89 72 58
326 875 333 121 92 71
481 434 209 61 35 31
476 432 212 74 35 33
458 551 265 55 28 33
451 422 239 76 45 37
435 812 241 59 49 48
350 414 299 126 13 41
326 569 145 133 23 38
456 422 239 77 38 35
456 424 229 66 43 36
456 421 241 80 37 34
267 554 205 164 3 43
456 420 249 93 31 36
451 419 254 96 38 38
461 421 244 80 31 33
461 420 249 92 25 36
466 424 234 66 38 34
440 829 274 75 60 55
383 270 291 134 99 63
484 522 252 129 20 42
296 664 269 137 9 44
466 422 239 69 33 33
387 601 172 66 35 39
471 422 239 66 34 33
466 426 225 68 42 34
417 835 244 48 41 42
476 423 239 65 38 33
320 289 262 91 73 54
481 423 239 69 37 33
481 426 230 71 44 34
307 847 244 197 133 103
252 739 211 131 98 62
476 424 234 66 41 33
403 394 286 122 96 65
277 430 285 154 15 48
357 920 238 73 66 68
481 425 234 71 44 33
311 950 254 77 70 72
466 421 241 71 31 33
484 716 272 101 82 68
466 419 249 86 24 35
256 674 256 163 119 94
454 832 304 78 63 56
388 402 306 123 96 64
278 676 222 95 64 45
316 334 275 116 81 59
469 421 241 68 30 33
476 421 244 71 31 33
476 422 242 71 33 35
271 424 300 163 18 53
481 421 245 74 32 33
481 420 249 82 32 31
299 644 271 152 3 47
411 934 289 64 56 54
481 420 254 93 26 30
484 431 216 76 34 33
486 431 219 76 35 32
406 883 290 34 31 31
496 431 224 70 35 30
406 820 315 173 126 103
446 424 294 62 25 30
337 434 283 105 12 36
486 438 199 54 31 28
486 436 205 55 32 28
340 389 269 84 61 49
486 434 209 57 33 29
355 589 316 142 13 44
491 435 209 54 32 28
493 437 207 53 31 28
496 437 208 52 31 29
495 441 195 56 33 29
496 442 193 59 33 30
486 433 214 66 33 31
353 439 302 69 23 33
466 701 276 75 58 46
487 432 217 74 34 32
351 586 147 152 26 49
491 434 214 59 31 29
496 434 214 54 31 28
491 432 218 70 33 30
436 908 278 64 55 52
501 441 199 59 32 32
485 533 189 205 16 52
311 684 289 83 17 32
501 439 204 56 31 31
501 437 209 54 31 30
395 848 220 54 48 50
501 443 194 62 33 33
506 440 204 61 31 32
506 438 209 59 30 32
505 441 200 62 32 33
311 614 284 68 30 34
511 443 199 65 33 32
316 679 194 75 30 35
411 609 339 175 125 96
521 464 154 140 74 41
511 441 205 64 32 32
307 529 139 64 32 35
406 259 274 124 93 61
313 850 278 173 129 105
512 442 203 65 33 31
506 504 229 175 15 52
284 664 251 99 20 36
511 439 209 63 31 32
416 704 329 176 120 90
510 456 165 116 64 34
501 435 214 53 30 29
406 901 307 38 36 35
500 436 211 52 31 29
375 623 186 144 35 49
511 438 214 61 30 32
506 433 224 60 29 29
342 559 297 111 16 39
356 364 300 130 96 71
484 426 231 73 44 32
346 674 193 79 28 33
486 426 234 75 40 30
487 427 232 75 41 30
496 428 234 78 32 35
494 426 236 75 29 32
331 349 267 69 52 35
495 426 239 73 24 30
401 489 369 133 35 53
340 369 284 120 82 64
484 421 246 74 31 30
487 422 254 101 18 37
491 424 244 72 24 26
269 580 213 76 25 32
336 839 230 89 65 57
491 424 249 62 24 25
408 674 327 166 121 94
305 810 281 146 111 94
495 426 244 73 22 29
427 716 174 85 62 47
497 428 249 68 20 30
492 429 255 75 24 33
301 784 200 76 62 57
494 426 252 50 22 26
491 474 264 93 23 37
496 439 254 108 24 40
345 399 289 119 83 65
311 454 273 128 7 37
496 449 254 153 11 49
448 754 311 169 119 85
500 431 225 63 33 30
501 429 234 70 32 33
504 431 230 64 32 31
505 431 234 56 30 31
454 832 299 98 77 65
505 431 239 71 18 27
300 908 264 112 79 63
301 789 201 61 52 52
497 427 244 81 22 32
501 429 244 100 16 37
432 474 334 167 117 98
426 449 318 131 7 44
271 649 250 160 114 97
500 430 248 98 19 33
504 431 243 110 19 37
464 766 278 79 61 49
506 433 229 65 30 29
259 462 272 115 51 54
390 639 214 77 30 38
510 435 234 76 25 30
511 444 239 92 22 36
503 439 246 148 15 46
448 509 310 154 1 47
498 439 251 99 18 36
501 444 249 120 16 40
274 585 203 67 36 43
501 449 250 140 15 46
365 424 311 70 25 30
434 594 259 44 31 35
274 427 297 169 14 51
499 446 252 129 16 44
499 448 252 154 13 49
264 422 287 109 11 26
328 730 302 80 37 42
266 799 270 177 138 106
357 909 325 81 65 55
508 444 241 137 17 44
306 329 279 123 88 63
506 444 244 136 15 44
242 734 244 159 107 80
394 416 322 103 45 41
331 957 251 93 87 90
507 449 244 91 21 32
504 446 247 111 16 37
261 424 260 82 23 33
504 450 247 93 19 35
440 754 235 69 54 45
296 389 278 131 97 75
326 644 188 157 1 34
508 447 241 138 13 46
274 600 213 68 31 36
451 450 134 100 63 40
293 670 268 89 26 37
457 452 133 107 50 36
432 739 326 167 113 79
460 742 262 127 104 81
456 450 139 103 59 39
461 453 134 112 38 33
297 680 278 126 6 40
300 673 276 131 6 41
461 450 144 105 56 38
394 469 371 143 15 43
466 454 134 117 26 29
442 819 280 71 52 51
471 456 134 116 27 29
246 589 259 161 115 89
304 300 277 112 86 59
464 451 141 111 44 34
408 751 207 54 42 45
309 688 291 93 12 33
484 478 272 87 25 37
286 594 263 143 19 49
268 582 256 139 97 79
402 344 259 110 89 66
467 452 143 110 46 37
481 457 139 105 60 45
271 674 255 132 103 81
358 788 307 66 59 58
471 453 144 109 55 43
470 456 130 119 19 28
493 526 225 60 33 37
401 524 353 136 90 76
242 744 220 147 102 75
476 454 144 106 65 49
333 848 231 81 60 53
282 436 276 65 25 32
481 455 144 106 73 54
417 780 222 48 44 45
476 457 134 112 36 32
475 456 135 112 36 32
300 534 163 95 29 37
478 457 137 107 48 38
357 894 319 139 105 75
453 758 291 81 54 40
462 545 177 127 32 49
466 449 149 104 63 44
469 451 146 108 58 44
471 451 149 106 68 50
287 919 319 170 139 120
472 452 147 107 67 50
322 704 191 58 36 37
476 452 149 106 75 55
481 454 149 108 81 59
419 574 309 81 55 43
480 451 155 107 80 58
481 450 159 103 76 57
481 452 154 109 82 59
473 511 133 59 36 40
422 739 222 58 48 42
480 434 268 56 26 31
476 510 134 77 31 41
480 508 134 215 21 57
301 759 195 104 25 33
459 808 312 100 76 63
321 638 186 188 6 41
488 462 132 104 54 42
486 457 144 109 80 58
490 461 135 106 67 50
361 969 304 64 57 55
540 460 184 155 21 42
385 469 349 143 11 44
496 464 134 108 78 56
491 458 144 113 85 61
493 462 137 109 79 57
380 794 193 64 52 47
496 462 138 114 86 61
278 349 267 123 93 65
496 460 144 117 89 63
486 455 149 112 85 61
419 679 260 41 30 32
490 456 150 115 88 62
491 453 159 115 82 58
496 456 155 122 87 61
394 464 371 148 16 46
496 454 159 121 79 54
488 457 147 112 85 60
506 465 139 124 92 66
313 524 272 68 28 33
506 463 144 127 93 65
501 460 149 126 91 63
341 689 308 51 26 30
506 461 150 132 90 61
263 584 226 76 56 41
451 739 294 103 73 50
507 462 148 131 92 62
511 463 149 137 89 59
421 828 304 137 84 63
246 694 249 160 110 82
316 969 274 91 87 90
510 461 151 137 88 58
505 456 160 127 71 45
405 578 161 95 34 43
423 459 320 99 17 33
278 331 257 117 93 63
511 460 154 139 81 52
512 462 153 140 85 55
302 784 283 69 58 51
474 517 272 75 25 29
260 549 219 162 8 43
503 467 132 111 82 59
506 467 134 117 88 63
510 466 140 129 93 65
490 451 165 105 65 47
399 390 292 123 96 64
491 449 169 96 48 40
370 887 186 94 83 76
492 452 163 110 73 50
496 450 169 99 51 36
316 843 230 98 83 74
429 572 171 103 14 36
496 453 164 111 66 44
270 428 298 157 16 51
501 452 169 97 53 32
261 424 289 114 20 36
500 451 170 95 50 31
501 450 174 93 43 31
503 452 172 93 47 29
405 804 194 82 67 53
506 455 164 114 64 37
406 579 163 108 31 42
506 453 169 98 53 29
243 634 245 151 107 73
398 664 317 161 118 98
507 452 173 97 44 27
511 453 174 104 43 26
511 449 184 82 33 30
391 439 349 57 26 30
486 505 134 221 21 55
485 507 140 223 21 56
487 506 138 223 22 59
346 654 299 54 25 32
418 917 321 40 37 36
491 503 134 225 21 57
313 516 142 67 25 36
493 501 133 227 21 57
400 704 320 142 101 83
494 502 136 225 22 54
472 546 188 113 32 46
495 502 139 227 22 59
439 588 234 203 14 54
496 503 144 228 22 59
492 505 144 227 22 59
321 404 279 111 15 36
301 729 296 155 19 52
490 507 145 227 22 58
429 587 190 223 20 57
388 484 358 149 14 46
457 785 308 103 77 60
339 369 262 104 74 66
486 510 149 225 22 56
371 904 310 92 62 51
396 893 244 70 60 56
487 511 153 218 21 55
244 709 234 139 96 65
496 505 149 230 22 58
266 804 214 180 125 90
494 507 151 226 22 60
479 499 273 168 8 52
305 309 278 129 88 67
492 511 158 102 22 41
431 807 190 66 55 48
495 507 155 220 21 59
246 819 239 216 149 120
353 409 302 143 12 45
503 496 133 228 22 58
286 789 275 66 55 48
276 438 278 47 23 28
368 512 322 46 27 33
511 493 139 226 22 60
512 495 149 164 28 55
311 599 168 192 11 43
501 498 134 228 22 59
498 501 142 230 22 62
501 500 144 228 22 59
460 522 141 188 46 63
292 654 263 137 11 44
355 259 269 98 79 57
273 384 267 130 98 72
505 497 140 228 22 60
323 900 225 60 54 56
321 960 258 84 78 80
506 498 144 227 22 59
455 568 243 206 15 60
451 799 304 108 76 61
508 496 143 230 23 61
248 619 231 146 105 70
484 881 261 67 56 49
500 503 149 229 22 60
402 429 344 93 15 33
421 494 349 182 125 99
502 501 148 226 22 58
498 506 158 216 20 56
506 499 149 227 22 59
427 699 264 58 36 32
471 719 259 127 99 68
509 497 146 224 21 60
491 449 259 154 7 48
510 497 149 201 26 61
493 511 162 147 33 62
496 510 164 45 33 38
381 577 332 195 7 60
344 384 291 134 94 75
501 509 169 50 34 38
485 518 165 97 27 40
247 769 215 167 112 80
502 506 163 179 16 47
451 449 303 66 27 33
342 454 288 135 8 41
502 510 174 83 35 42
506 504 164 204 18 53
512 500 164 174 21 51
509 502 161 214 22 54
290 574 164 115 15 36
509 502 164 194 19 52
486 934 285 72 57 45
249 673 232 127 91 58
512 500 169 83 27 37
296 614 179 89 33 39
506 508 174 178 29 54
411 793 189 80 64 52
250 739 255 159 112 85
511 504 179 155 32 52
509 507 179 148 30 47
372 919 248 63 57 58
509 508 184 58 34 38
402 574 338 170 117 96
497 459 254 157 4 50
281 654 248 50 31 25
456 794 264 68 54 47
501 459 249 153 12 49
501 464 249 158 8 50
359 800 207 51 45 45
416 874 285 35 30 29
503 464 246 161 12 52
431 684 289 50 35 33
348 291 282 105 83 59
414 618 287 54 29 34
499 459 252 156 6 49
285 760 281 76 63 55
255 619 262 168 122 95
499 464 252 158 4 51
321 539 280 135 5 40
431 499 324 161 14 50
509 450 242 104 20 36
509 454 242 60 26 30
278 709 283 141 18 47
326 584 154 125 29 43
417 746 177 74 55 44
279 359 270 129 97 71
504 459 247 137 17 46
510 459 243 57 26 32
509 463 242 80 22 30
510 479 238 109 20 39
499 469 252 162 5 53
500 474 249 157 10 51
245 774 218 168 112 82
497 474 254 139 12 45
499 474 252 164 11 52
352 274 259 86 71 55
336 634 185 192 8 42
498 479 251 155 10 48
445 849 285 84 67 57
506 469 244 134 16 44
392 789 188 78 59 49
390 853 220 60 54 56
405 488 367 130 70 65
371 885 214 70 66 70
505 474 244 78 22 33
508 474 241 94 26 40
304 944 336 95 69 63
505 479 243 106 22 40
508 511 194 152 31 50
306 914 250 65 52 49
366 299 296 139 99 68
511 509 194 124 33 49
340 560 132 194 12 42
286 823 268 65 56 53
242 579 244 145 106 73
511 509 204 118 29 45
503 510 225 194 12 57
507 504 224 187 14 52
487 887 266 70 57 49
512 500 219 170 18 49
386 279 290 131 97 63
251 724 215 128 96 60
507 510 214 191 15 52
512 505 209 159 20 51
322 364 270 90 64 46
405 404 288 118 94 67
508 511 210 204 21 59
506 509 219 193 14 54
432 479 329 58 31 31
430 792 231 53 45 44
495 489 254 177 11 56
331 644 294 35 29 32
396 454 374 120 11 39
497 494 250 148 19 49
418 816 192 59 50 42
486 509 254 170 15 54
393 398 301 123 96 64
496 504 245 165 14 52
491 499 254 118 19 43
291 829 264 61 48 43
492 504 249 180 9 57
241 729 229 140 98 68
426 419 294 76 54 43
414 757 202 43 33 38
327 439 277 58 28 31
274 579 202 98 37 45
266 794 270 177 138 106
494 498 252 176 12 56
491 509 249 182 7 57
493 506 246 182 10 57
495 509 243 78 20 35
489 508 252 163 12 49
496 519 229 50 32 34
488 511 251 176 12 60
506 489 239 162 12 51
305 845 249 195 137 107
312 299 270 113 80 57
511 484 234 157 16 51
509 484 237 134 17 46
371 449 315 95 19 34
510 489 234 144 17 47
512 489 230 125 18 42
352 523 111 124 20 37
296 304 280 116 88 63
511 494 229 133 22 45
370 882 194 92 80 71
462 794 279 89 68 58
505 494 239 168 11 53
510 493 233 160 18 50
243 569 254 154 109 82
498 484 251 156 12 49
417 815 189 69 57 46
496 513 169 131 34 50
498 489 250 157 18 52
499 494 248 112 18 39
420 483 358 180 126 102
307 314 276 121 81 61
397 551 132 212 13 48
501 494 244 142 15 46
476 955 290 79 67 56
503 491 241 165 9 49
285 734 290 124 20 45
504 483 242 152 14 47
502 499 240 176 8 54
430 916 283 55 50 50
426 804 330 186 129 100
503 505 235 153 16 47
501 504 239 176 15 54
502 509 229 166 20 51
501 509 234 90 27 39
498 511 236 38 32 33
378 466 322 71 27 29
508 500 230 150 18 46
356 424 305 87 25 35
437 589 249 191 10 54
510 498 228 131 20 47
262 729 262 144 99 77
506 499 234 167 14 51
504 498 238 176 7 53
321 624 179 96 27 40
454 759 289 70 51 38
505 503 233 173 13 51
487 888 274 60 48 40
497 500 245 175 14 53
499 503 242 177 14 54
519 454 232 112 22 39
390 553 343 132 19 45
288 270 257 105 87 67
287 274 259 106 87 66
503 749 291 91 83 78
285 279 259 107 86 63
462 539 274 93 33 42
283 285 258 112 88 59
340 820 222 61 50 47
284 283 260 110 87 60
297 604 273 67 27 35
366 709 328 112 22 41
285 289 264 118 91 63
288 285 267 106 85 63
287 289 269 108 86 62
464 504 297 149 16 46
282 294 264 116 89 59
341 899 214 80 68 66
321 960 340 69 62 60
348 406 297 126 14 39
357 828 206 67 54 50
284 293 265 118 90 62
412 536 123 129 23 42
285 294 269 111 87 60
281 299 259 119 91 59
302 884 275 136 106 77
284 298 270 111 88 60
266 684 218 131 96 63
283 305 272 126 94 67
282 309 269 128 89 66
429 665 300 127 91 62
280 314 259 120 91 60
281 314 264 117 88 57
281 319 264 121 90 60
288 584 174 105 11 33
419 858 250 61 51 49
456 799 289 85 67 57
341 889 205 80 67 63
293 628 262 125 26 47
282 314 269 129 91 67
288 305 277 114 87 60
288 309 277 128 92 70
466 701 278 82 64 52
304 518 162 39 32 34
292 589 267 144 12 44
283 314 272 133 91 70
288 314 277 131 92 73
288 319 277 123 88 67
247 699 229 140 99 66
296 264 258 110 88 65
300 258 256 114 92 67
324 842 296 137 108 84
400 364 284 128 99 67
301 259 257 115 92 66
301 270 262 109 87 63
376 598 165 213 14 51
290 273 260 93 76 60
372 955 269 74 67 68
288 276 262 99 82 65
296 280 268 104 85 65
396 424 349 81 21 32
289 282 266 100 81 60
337 401 282 77 40 34
462 723 267 129 93 56
291 284 268 102 83 62
453 525 300 178 15 60
294 287 271 105 85 64
302 278 266 105 84 61
460 420 282 109 22 38
395 421 332 137 15 45
301 283 270 107 85 62
386 404 308 123 96 65
303 287 271 109 86 60
480 449 273 133 16 42
425 720 221 44 38 37
398 814 185 124 95 72
297 286 272 108 87 65
300 286 272 109 87 62
366 687 316 121 4 36
307 258 256 114 91 65
306 260 257 115 91 64
245 719 249 158 107 80
407 819 175 100 78 61
310 261 257 113 90 63
306 269 260 113 89 62
481 454 274 89 22 33
427 504 325 54 27 30
421 674 278 74 37 38
305 271 262 111 87 61
313 262 256 111 88 62
296 459 272 54 24 30
314 265 257 111 88 62
424 830 286 33 25 25
315 269 258 110 87 61
355 499 300 135 7 41
306 274 263 109 86 61
312 274 261 111 87 61
407 460 376 177 13 56
376 574 333 186 13 59
306 279 265 108 86 59
311 279 263 110 86 59
292 607 171 59 37 35
311 284 265 110 85 58
307 282 266 107 84 57
306 289 270 110 86 58
361 744 200 96 24 33
309 285 267 109 85 56
350 775 306 73 60 55
310 289 268 111 84 57
520 498 179 92 37 43
313 278 261 112 87 62
316 279 260 108 85 60
455 725 244 60 44 40
321 279 258 88 72 53
469 488 292 167 14 52
492 757 301 98 78 61
314 281 262 110 85 58
438 586 249 188 8 53
324 697 192 45 36 35
316 284 263 108 85 58
316 289 264 106 83 57
317 283 261 103 82 57
319 285 262 95 77 57
249 688 227 134 96 63
291 294 274 106 84 61
290 299 275 107 85 61
289 302 276 111 87 62
305 514 159 59 34 36
455 435 293 59 26 31
376 879 290 46 42 41
281 594 254 54 27 33
301 299 278 111 86 61
301 304 279 120 89 64
358 410 307 130 10 42
269 816 266 208 161 135
436 804 325 189 128 104
281 444 273 129 14 41
291 314 280 129 90 71
440 504 317 161 5 51
296 314 281 128 90 70
453 448 301 63 24 31
416 744 193 52 39 38
296 319 281 125 88 67
255 564 233 106 69 48
316 294 264 106 82 58
321 634 290 115 29 46
446 734 240 55 45 39
341 854 309 129 101 71
406 423 369 49 23 25
398 678 218 68 45 43
314 296 267 114 85 60
321 299 263 87 71 53
353 449 302 36 29 31
314 299 268 111 83 58
258 539 219 152 7 42
315 304 268 107 79 55
419 504 348 183 125 97
463 561 225 40 31 38
377 890 228 57 53 56
357 918 331 43 39 39
317 304 266 99 77 53
423 674 326 169 112 83
306 299 275 109 83 56
309 296 272 110 80 54
468 768 269 79 60 49
396 786 187 76 58 49
315 309 268 106 77 54
450 445 302 87 26 36
316 889 259 95 80 67
391 859 283 45 41 39
318 309 266 96 74 51
318 314 266 92 72 49
261 744 263 148 102 80
321 319 265 75 59 40
320 320 267 79 62 41
417 580 300 82 24 32
308 309 276 123 82 63
310 309 273 118 77 59
305 314 278 127 85 66
308 318 276 114 80 56
311 314 273 114 76 56
339 564 296 145 4 44
387 576 148 56 33 38
311 319 274 108 76 53
280 329 264 125 94 63
354 475 301 100 10 34
241 744 244 158 108 80
384 295 292 135 102 67
351 699 319 132 9 41
281 329 269 129 95 65
283 329 272 129 93 66
287 334 277 135 94 75
285 324 275 122 88 65
412 444 380 149 13 47
431 554 159 199 15 45
288 324 277 124 89 68
331 965 329 58 53 51
285 329 275 129 94 69
330 803 210 85 66 58
285 334 275 136 98 73
426 420 274 69 61 50
285 579 183 91 26 35
421 720 184 79 60 47
276 344 259 119 93 63
400 695 195 67 49 39
277 339 259 119 93 63
350 539 300 47 28 32
278 340 263 119 91 61
394 581 326 61 36 33
279 338 265 120 91 62
281 339 269 127 94 65
426 748 180 94 69 53
462 780 297 107 84 71
279 342 266 120 90 64
278 345 267 120 90 63
451 454 304 61 27 31
356 610 168 113 23 44
270 784 271 171 130 96
406 884 249 56 51 51
283 339 272 135 98 70
315 534 134 58 33 35
422 634 298 107 81 52
283 344 273 132 98 71
285 339 275 137 98 73
297 809 277 67 56 51
285 344 275 137 100 74
330 845 233 110 74 60
388 509 357 96 17 36
288 344 277 139 100 76
285 349 275 132 95 72
285 354 275 130 96 72
271 364 259 126 97 67
346 891 207 68 57 55
426 604 279 179 9 54
268 380 258 127 96 67
531 943 278 73 57 44
271 379 264 129 99 72
268 384 259 129 96 70
269 384 261 129 96 71
271 384 264 129 98 72
279 590 197 61 36 39
414 401 272 115 92 67
273 354 258 123 96 66
400 821 311 114 86 73
274 353 260 122 95 64
273 360 262 127 98 68
466 884 248 80 67 56
366 884 181 103 83 73
280 354 270 127 96 69
441 539 304 104 19 41
277 359 268 128 97 71
273 364 263 130 100 71
451 894 254 66 56 46
274 369 266 128 97 72
276 369 269 128 96 72
279 363 271 129 97 72
351 944 348 60 55 54
279 369 271 128 95 72
282 359 273 129 96 71
285 359 275 131 97 72
288 359 277 134 99 74
402 869 232 64 53 50
312 633 186 47 32 36
290 404 280 114 82 65
422 644 331 179 123 96
419 622 246 88 40 39
282 364 273 129 96 72
281 369 273 129 97 72
288 579 174 83 20 33
287 364 277 134 99 75
285 369 276 132 98 73
356 921 337 38 36 36
287 369 277 133 98 74
274 373 266 128 97 72
503 516 215 136 15 42
276 374 269 128 98 71
273 379 267 129 99 72
277 830 255 90 68 62
451 416 274 80 34 29
311 344 279 131 90 69
471 548 189 109 34 46
386 534 113 89 35 41
346 616 301 140 26 49
276 384 269 129 97 71
253 694 257 155 109 83
360 569 314 84 26 36
281 374 273 130 98 72
281 379 273 130 98 72
289 894 293 171 123 99
411 420 309 70 59 49
281 384 273 131 98 73
436 899 250 73 60 50
326 394 269 61 47 35
284 374 276 132 99 73
287 374 277 134 99 75
287 379 277 134 98 75
285 384 276 131 97 74
321 554 284 135 4 41
386 459 329 125 5 38
291 324 280 126 90 68
376 403 311 124 97 71
306 629 189 46 34 38
435 818 314 180 114 87
296 329 281 124 86 71
306 434 273 116 13 38
296 328 282 123 86 71
291 334 280 138 95 76
477 545 224 113 22 43
301 329 281 123 86 68
416 934 294 84 73 66
301 334 281 131 93 71
248 774 216 169 112 82
291 339 280 139 97 75
285 609 254 77 32 38
336 559 134 188 10 41
312 669 196 138 6 31
291 344 280 141 100 77
296 339 281 140 100 77
371 584 325 193 11 60
296 344 281 142 101 79
295 345 282 141 100 78
253 827 249 221 146 119
291 349 279 138 99 77
296 349 281 142 101 80
296 347 282 142 101 79
396 750 175 83 61 47
298 338 282 140 100 77
301 349 281 143 102 81
300 346 282 144 103 81
300 347 282 143 102 80
302 684 201 81 33 36
318 323 270 94 70 48
321 329 270 75 58 38
306 324 278 117 84 59
309 949 341 45 41 43
402 284 259 114 89 59
311 324 275 111 80 56
326 909 344 112 97 86
354 282 286 106 82 59
310 329 277 120 86 62
375 680 307 133 7 41
311 334 278 123 87 63
316 329 274 110 78 56
319 326 272 93 71 48
418 510 346 174 121 94
331 474 279 57 26 30
320 329 272 94 71 48
454 758 251 86 69 52
313 332 276 119 82 60
314 335 277 121 84 63
312 686 292 80 20 31
337 973 265 80 76 79
320 334 273 98 72 51
306 339 281 132 92 70
281 644 247 83 30 29
311 339 279 128 89 67
308 342 282 133 92 71
331 734 304 64 50 46
406 454 377 168 13 53
336 669 300 54 23 30
306 349 281 139 98 77
314 339 277 125 85 64
311 884 269 133 104 79
316 339 275 121 83 62
314 343 277 127 87 66
431 884 279 72 61 54
316 349 275 125 85 67
238 792 247 172 121 90
296 659 205 103 27 38
261 769 208 149 106 71
291 354 279 137 99 76
296 354 281 139 99 79
307 649 196 166 7 42
296 359 280 140 100 80
291 364 279 136 99 77
416 694 224 53 40 35
445 725 241 51 41 36
308 421 276 49 28 30
296 369 280 143 103 81
301 354 281 141 101 81
392 819 209 43 35 39
337 853 230 64 51 48
301 359 281 143 103 82
271 418 299 68 33 31
425 484 349 184 125 102
291 374 279 137 99 77
417 912 275 69 57 56
446 917 256 94 73 66
406 422 379 48 24 25
291 379 278 138 100 77
301 374 279 143 103 83
301 379 279 139 100 81
240 804 239 180 124 93
416 759 184 89 67 54
311 359 278 134 94 75
299 901 331 172 121 105
306 354 280 140 99 79
306 364 280 141 101 80
311 364 278 137 98 78
310 369 278 137 98 78
431 464 315 128 3 40
314 354 277 130 89 70
314 359 277 128 88 71
320 359 273 115 80 62
309 527 149 90 17 33
256 634 224 133 99 64
396 729 320 132 41 49
339 384 269 93 66 54
316 364 275 125 86 70
340 704 191 53 37 39
314 362 277 129 88 73
378 725 200 52 38 36
316 369 274 125 87 70
387 774 185 61 46 37
320 364 273 114 79 62
321 384 269 81 59 41
342 695 312 96 15 33
306 374 279 139 99 79
405 639 329 182 135 111
473 464 286 63 27 34
306 379 278 133 94 77
376 464 320 52 25 30
382 843 190 112 88 79
311 384 276 114 82 63
309 384 277 121 86 68
391 721 173 74 54 44
410 421 376 38 29 21
316 374 274 120 83 66
319 374 272 107 74 57
402 775 178 91 69 51
336 967 260 92 89 92
316 384 273 102 73 55
319 379 272 103 73 55
322 289 260 79 65 51
324 284 257 74 62 48
367 802 307 55 48 47
325 289 258 74 62 50
356 534 305 116 23 43
283 559 186 59 32 38
352 274 264 91 74 56
333 587 151 87 39 43
351 279 259 89 74 57
391 829 189 116 83 59
529 478 208 109 29 44
399 395 293 122 96 65
326 369 269 68 52 34
352 274 269 98 78 56
285 635 203 87 34 42
405 440 360 69 10 27
350 284 264 87 70 51
349 289 259 88 71 54
448 556 173 152 18 46
406 925 287 58 50 49
349 289 264 84 67 48
435 588 210 170 21 49
350 284 269 91 71 48
351 824 209 58 50 50
399 812 221 60 52 52
350 284 274 96 75 53
352 279 279 109 86 61
464 430 282 98 18 35
397 731 182 63 47 40
386 886 232 59 52 53
349 288 279 97 77 55
266 823 262 215 162 139
431 734 174 91 64 46
450 435 297 35 29 28
288 924 319 184 141 120
350 289 284 103 82 59
285 914 309 141 115 102
447 794 244 65 52 47
322 297 261 81 67 53
326 299 259 78 64 50
415 854 239 62 51 49
381 580 330 196 6 62
327 304 259 79 63 46
324 304 262 86 70 52
381 829 194 73 56 47
306 599 283 117 28 45
291 534 174 74 35 40
328 292 256 76 66 55
271 534 264 104 33 44
301 954 269 78 73 75
361 958 324 58 53 51
332 973 270 88 83 86
329 295 257 77 66 56
419 627 268 47 25 31
330 300 257 75 63 51
351 569 304 129 5 39
328 301 256 74 61 46
328 302 256 74 60 46
485 714 264 98 70 56
331 304 257 72 58 43
325 309 262 87 70 50
413 649 264 102 24 39
327 309 260 80 63 44
303 842 236 76 60 55
300 924 336 183 143 125
325 314 262 81 64 44
398 363 286 129 101 68
326 319 263 75 59 40
331 319 259 68 52 33
366 915 239 67 62 65
348 290 258 85 69 53
271 654 250 152 113 94
348 288 263 85 68 49
349 293 264 84 67 50
348 290 270 86 69 50
347 294 269 85 69 51
311 609 285 92 26 40
343 298 276 92 73 49
343 301 277 98 74 49
273 713 217 105 73 50
366 839 293 151 116 92
348 290 274 89 71 52
348 290 279 96 77 55
351 693 315 116 4 34
346 294 274 88 71 51
406 699 194 71 49 38
446 681 264 69 55 45
331 883 341 159 120 94
263 504 270 142 92 84
349 293 285 109 85 61
403 809 195 92 71 51
344 299 279 105 80 55
311 399 278 89 59 46
344 303 280 107 77 55
346 299 284 112 85 60
347 300 288 108 84 58
359 802 207 51 44 42
292 924 328 186 142 119
344 304 284 110 81 57
251 679 254 164 117 91
343 310 259 92 72 53
436 499 320 161 4 49
417 768 214 50 43 43
343 309 264 89 69 50
449 784 307 147 97 70
343 306 266 86 68 48
422 454 321 133 21 45
365 419 311 97 18 35
326 544 130 175 8 38
342 309 269 81 64 45
343 306 269 80 64 45
381 939 338 66 57 52
342 314 259 91 71 52
341 319 264 84 65 46
410 826 178 107 84 65
387 808 312 65 54 48
422 722 230 73 25 38
342 314 269 82 64 45
325 768 196 124 27 40
342 319 269 79 63 45
344 307 259 95 74 54
343 305 283 108 79 55
281 784 274 59 48 43
396 419 324 101 52 45
341 314 279 97 72 48
357 690 317 125 8 39
342 319 274 78 62 45
340 319 284 118 83 58
342 314 289 114 83 61
296 462 272 51 28 32
344 307 286 113 82 59
288 607 262 43 31 31
349 298 290 109 84 60
349 302 291 107 83 58
348 305 292 109 80 59
343 319 292 121 87 65
255 804 223 174 117 84
302 959 274 77 73 75
352 315 297 117 86 62
355 259 264 93 75 55
354 264 269 98 78 56
357 274 288 117 92 66
353 265 259 87 71 55
353 269 264 91 74 56
353 266 268 97 78 56
353 269 269 99 79 56
356 259 279 115 90 64
404 882 240 64 54 53
354 264 274 108 86 62
460 513 298 178 15 57
342 894 336 170 123 99
427 826 299 125 75 56
361 259 289 124 97 70
417 549 345 171 119 91
356 264 284 118 92 64
358 264 287 118 91 65
247 544 268 170 122 100
355 269 279 111 88 63
385 617 185 116 29 43
435 593 224 94 26 40
446 574 249 194 3 59
473 490 286 103 24 40
355 269 284 113 88 60
467 770 259 81 63 54
353 275 278 110 86 60
354 272 276 109 87 61
279 594 251 42 26 29
354 274 280 112 88 61
329 888 218 54 50 50
322 771 197 70 59 56
353 464 302 99 21 38
355 274 284 115 90 64
354 277 281 112 88 61
354 279 284 111 87 62
356 279 289 109 85 61
427 904 277 57 46 47
257 564 230 99 52 41
355 284 289 108 85 62
345 573 301 130 6 39
366 324 296 136 95 65
364 259 291 128 99 71
366 264 292 130 100 72
360 274 290 116 89 64
451 909 308 42 37 35
359 278 291 112 89 64
416 774 189 63 47 41
361 279 292 117 92 66
356 289 293 110 86 63
336 744 304 72 59 52
357 284 292 110 87 63
445 744 318 168 115 84
459 489 302 153 9 48
358 280 292 110 88 64
361 284 293 116 93 67
361 289 294 117 92 66
459 499 302 102 23 40
362 275 292 118 87 63
397 824 194 91 70 49
366 279 293 124 95 67
366 284 293 121 95 66
366 289 294 122 96 64
364 967 284 83 75 75
371 259 293 130 100 69
371 264 293 131 100 67
376 259 292 130 100 65
376 264 292 131 100 64
292 769 282 72 61 55
381 259 292 129 99 63
316 439 274 48 26 28
383 264 291 129 98 61
280 599 251 98 25 39
462 454 295 37 28 30
371 274 292 132 100 66
376 274 292 133 99 64
371 289 293 125 96 60
406 869 286 45 40 39
476 429 270 73 27 35
382 944 279 75 69 70
442 859 283 92 76 65
376 289 293 132 101 65
381 274 292 133 98 63
383 586 157 142 11 32
379 776 198 59 46 39
380 279 292 132 98 64
365 559 315 75 30 36
383 274 291 133 96 62
356 639 300 52 29 32
374 849 197 101 78 68
469 723 257 114 91 65
343 494 288 141 0 42
382 279 291 132 97 62
452 729 263 70 55 41
380 284 292 130 98 63
381 289 292 133 101 65
277 822 221 205 144 115
383 288 291 131 99 62
353 291 292 110 87 63
356 299 295 125 96 68
319 524 127 67 30 35
361 304 296 144 101 74
417 594 299 96 23 38
356 309 296 119 90 62
360 524 310 99 26 40
361 309 295 131 94 65
424 498 338 185 131 108
522 968 308 87 72 57
356 314 297 121 90 63
356 319 297 139 96 72
361 314 296 125 91 61
321 964 264 81 77 80
361 319 297 137 95 68
381 816 306 68 57 53
441 416 284 74 48 31
366 319 296 136 95 66
447 908 294 51 44 42
415 695 188 87 62 40
248 548 267 173 123 100
354 384 301 136 100 75
376 294 293 134 99 66
411 559 149 112 37 46
371 299 295 140 99 68
371 304 295 141 98 66
397 679 314 139 96 81
460 523 144 96 36 45
376 304 294 138 98 68
401 789 188 90 68 51
283 569 186 126 12 38
381 294 292 136 102 67
335 364 258 66 51 36
251 529 272 170 121 100
281 830 229 190 128 102
483 490 270 108 19 38
381 299 293 136 100 67
250 739 213 131 96 62
418 886 302 35 32 33
249 539 242 126 97 67
371 309 294 133 95 63
449 894 249 103 82 60
424 456 347 131 97 73
311 754 194 104 27 40
371 314 294 134 97 64
371 319 294 134 97 64
336 659 192 143 0 34
381 319 293 134 101 68
282 425 289 143 15 46
439 878 290 59 51 46
327 329 265 67 51 33
324 326 267 69 54 37
324 329 267 67 51 33
322 334 270 73 56 36
245 739 218 136 98 66
444 494 312 147 0 49
421 933 299 71 60 51
381 669 299 109 9 34
327 334 265 65 49 31
328 324 261 69 53 34
454 807 285 84 63 55
406 849 229 60 51 50
332 326 265 66 51 34
378 755 176 67 51 44
394 837 181 120 93 68
245 809 260 189 134 109
336 325 264 74 59 43
262 634 221 141 104 69
398 806 216 45 40 44
335 325 267 74 58 41
336 329 264 72 57 41
331 334 264 65 50 33
336 334 264 73 57 42
330 333 269 66 51 34
336 334 269 73 58 42
282 729 288 76 27 37
341 349 289 130 90 68
328 335 272 67 51 33
414 634 291 102 64 46
322 339 270 77 59 37
465 416 264 102 19 35
266 639 255 174 120 102
446 684 254 75 56 38
326 339 269 67 51 32
467 530 168 202 17 50
264 575 223 80 33 36
326 344 269 67 52 33
326 774 294 72 59 52
326 349 269 67 51 33
430 734 327 169 113 82
328 349 266 66 51 32
331 344 264 67 51 33
441 449 310 91 24 37
333 344 261 67 51 34
303 521 161 36 34 36
296 549 265 74 28 36
330 344 267 68 52 35
337 339 269 76 59 43
330 349 263 66 51 33
310 935 341 184 141 122
288 603 171 52 35 38
405 527 111 185 26 51
333 349 260 67 51 34
423 551 152 107 17 38
400 925 287 68 59 58
244 644 249 157 112 81
327 339 273 68 53 34
326 344 274 69 54 36
327 349 272 68 53 35
285 889 314 182 132 117
466 554 189 40 33 37
337 344 274 83 60 43
321 749 194 62 32 40
337 349 274 85 61 43
339 324 259 98 74 62
261 529 204 59 33 36
338 325 261 80 65 51
326 764 295 70 58 51
339 324 265 80 64 47
339 329 259 99 74 63
338 328 260 87 68 55
415 428 318 57 23 28
340 329 269 79 62 46
338 334 260 85 65 52
340 334 270 79 62 45
305 534 154 84 16 30
370 952 327 57 52 51
340 324 279 97 67 49
502 515 184 106 34 44
340 329 274 81 63 45
441 418 274 74 48 34
481 923 279 102 81 60
338 321 285 121 84 61
341 324 289 127 88 68
500 513 174 116 39 49
365 499 314 85 25 37
338 352 282 117 77 58
338 327 285 120 78 60
339 329 284 117 76 57
447 719 299 122 87 59
441 417 284 74 48 31
341 329 289 126 86 66
340 334 279 102 68 49
398 815 175 92 63 42
349 434 296 41 27 30
339 334 284 117 76 58
340 344 259 105 75 59
294 940 262 77 71 72
339 341 262 90 67 50
339 344 262 93 68 51
294 907 321 52 38 39
340 349 259 105 76 59
338 349 264 89 66 48
339 348 262 97 71 54
443 484 311 138 3 43
346 704 192 94 26 33
412 743 195 59 42 40
339 348 271 85 62 43
297 734 196 131 17 35
338 344 279 105 69 52
338 340 279 106 71 51
426 803 193 66 55 44
339 338 284 119 78 57
341 344 289 130 91 69
338 349 279 107 70 52
363 848 296 149 117 91
387 934 274 83 76 75
326 679 294 88 24 37
338 349 284 121 80 61
339 350 284 121 80 61
343 324 292 128 91 70
310 825 270 179 135 115
343 328 292 126 89 69
346 324 294 131 91 72
361 959 263 80 74 75
346 329 294 129 90 69
299 954 331 49 46 47
354 873 197 94 76 61
349 324 296 137 93 76
343 344 292 133 95 73
343 349 292 131 92 72
351 544 120 151 17 41
358 742 322 73 30 40
331 914 220 91 80 79
346 344 294 133 94 73
349 339 296 135 98 74
349 344 296 134 94 73
346 349 294 133 93 73
396 708 191 83 57 59
349 349 296 135 95 75
351 349 298 137 97 75
349 464 296 94 23 38
451 559 179 186 18 47
322 359 270 93 66 47
380 582 151 117 25 35
245 739 250 158 109 82
326 354 269 68 52 33
326 359 269 69 51 33
328 359 266 67 50 32
408 576 162 188 37 66
391 759 321 48 43 42
326 364 269 70 52 34
457 928 296 57 48 42
270 438 283 76 21 32
397 689 314 124 81 69
528 486 169 137 36 47
330 354 264 67 51 34
333 354 260 66 51 34
454 690 261 72 57 43
248 760 257 156 116 86
335 354 258 68 53 36
331 354 267 69 53 35
348 504 292 140 0 43
329 359 268 68 52 35
326 944 347 51 47 48
331 364 264 68 51 35
333 364 261 65 49 34
336 364 264 87 63 48
465 434 283 122 13 40
335 369 258 68 53 39
242 814 249 209 147 119
330 370 268 69 52 36
411 429 369 119 12 39
328 359 272 67 52 35
327 364 273 67 52 36
331 354 274 70 56 42
330 515 117 143 8 34
336 354 274 87 62 46
311 754 293 67 58 54
256 574 229 106 73 50
336 359 274 87 64 48
257 555 230 104 30 36
331 369 275 70 55 40
442 580 214 145 20 48
516 968 299 94 82 72
336 364 273 87 63 48
336 369 274 92 67 53
322 374 270 85 61 42
326 374 269 67 51 32
432 917 281 64 57 54
326 379 265 67 51 34
325 379 268 67 50 33
440 809 314 163 107 80
327 384 270 63 49 34
332 374 260 66 52 37
434 567 171 159 20 43
288 421 285 142 15 48
334 373 258 71 56 42
330 374 268 68 52 36
337 374 265 105 81 73
331 379 265 69 53 39
371 523 106 79 35 38
331 384 259 65 51 37
332 384 265 67 52 40
334 384 258 72 57 45
337 379 265 93 68 60
326 934 345 76 62 57
337 379 268 96 72 62
445 744 239 59 48 42
336 385 265 80 60 52
331 699 308 39 29 31
336 859 234 62 51 49
327 373 273 66 51 33
331 374 274 69 55 40
391 419 324 120 14 38
450 705 288 68 48 38
337 374 274 98 72 59
331 379 274 69 54 39
419 614 300 117 83 59
328 381 272 59 46 30
502 949 293 93 75 57
431 879 304 46 41 38
333 380 277 75 58 44
314 518 271 89 28 42
438 816 247 86 67 60
336 384 274 82 60 47
313 571 147 106 38 45
339 352 262 97 71 55
440 799 323 181 122 94
371 434 314 53 25 30
340 359 259 101 75 61
525 479 134 224 25 55
306 414 280 134 16 44
339 361 262 94 69 55
340 369 259 111 79 74
462 920 275 67 55 52
248 714 221 134 99 65
337 364 269 91 66 50
307 402 281 96 46 42
337 369 269 97 71 58
398 635 222 97 33 45
338 357 279 107 71 54
339 359 279 110 74 57
339 354 284 121 81 63
341 354 289 129 89 68
341 359 289 127 88 68
339 364 275 100 68 51
340 364 279 110 73 56
342 369 289 127 88 68
431 594 279 128 18 44
338 374 269 111 89 80
451 554 274 159 17 53
370 525 107 75 32 36
349 459 296 61 25 33
339 375 269 107 83 73
416 774 208 51 45 45
339 380 263 110 78 75
356 549 304 80 24 33
340 384 259 124 90 92
338 375 278 106 71 55
252 804 267 172 130 103
351 774 307 71 60 55
340 374 284 121 84 65
342 374 289 127 88 68
436 689 309 143 99 64
273 682 256 73 57 40
339 380 274 99 70 56
339 380 280 111 76 59
339 384 274 96 67 52
339 384 279 112 79 63
247 694 229 139 98 66
340 379 284 121 84 67
340 384 284 120 85 68
343 365 292 132 96 74
461 559 189 44 34 36
435 416 292 72 48 34
346 354 294 134 96 75
349 439 296 81 27 36
286 474 268 90 22 35
349 354 296 139 101 78
351 359 298 136 100 75
346 369 294 134 99 75
500 518 189 61 34 38
349 364 296 134 97 75
411 844 285 49 43 39
432 704 234 69 50 43
408 442 320 88 14 30
351 364 298 135 99 75
343 374 292 131 94 72
344 371 291 129 92 71
344 379 291 133 95 72
345 913 225 72 65 66
346 384 294 135 97 76
393 925 279 67 62 63
351 379 299 133 98 74
276 674 253 75 56 42
351 384 298 135 99 76
263 528 201 74 35 42
356 324 297 142 98 73
360 329 297 136 95 64
356 334 297 133 94 67
316 402 275 79 37 32
360 334 297 134 95 64
494 527 195 186 17 55
366 329 296 134 95 62
362 329 296 134 94 62
422 759 160 95 75 63
366 334 296 132 95 63
356 339 297 135 97 70
478 469 281 99 24 39
361 534 113 108 25 39
356 344 298 135 98 71
361 339 297 134 96 66
356 349 299 137 100 74
366 339 296 132 96 64
366 344 297 127 96 62
398 294 281 130 98 67
376 324 294 137 101 68
298 910 332 145 114 90
381 324 293 137 103 71
371 339 295 129 97 64
439 899 289 53 39 45
376 344 296 126 98 64
432 860 272 60 51 47
397 644 314 172 128 109
371 344 296 123 95 61
353 766 202 74 35 39
414 697 215 54 44 38
413 392 256 96 79 60
370 345 297 122 95 61
323 895 230 49 45 45
327 572 146 116 34 44
371 349 297 122 96 64
337 704 313 72 28 37
372 347 296 121 95 63
291 704 208 125 11 31
375 350 297 122 96 65
447 749 314 168 115 83
381 349 296 128 101 67
315 636 187 173 8 44
356 354 299 136 101 73
355 369 301 130 97 72
360 364 301 127 96 69
361 369 303 128 97 70
361 919 239 73 66 68
357 379 303 134 100 73
357 384 303 135 100 75
366 374 305 131 100 70
371 354 299 123 97 65
415 782 221 48 43 44
371 359 301 127 100 69
396 898 300 32 30 30
452 489 306 142 1 42
376 354 298 122 97 66
266 724 263 129 77 63
370 361 302 128 101 69
424 425 312 113 17 40
320 424 276 44 27 28
316 579 153 137 28 45
372 362 301 128 100 68
371 369 304 130 102 69
382 353 296 126 99 68
381 359 298 125 98 66
296 827 267 58 49 48
381 364 300 123 95 62
408 506 356 177 127 97
380 370 302 125 97 63
381 374 303 125 96 62
383 372 301 123 96 61
392 845 217 54 48 49
381 379 304 126 98 65
462 790 269 80 63 54
371 374 305 133 103 69
372 383 306 134 102 70
424 714 224 46 38 37
376 379 305 131 101 66
310 408 282 121 16 38
376 384 306 131 100 67
435 894 299 53 47 46
381 384 305 126 97 63
488 495 260 34 29 35
268 389 258 131 99 71
440 479 313 136 5 42
391 911 319 35 32 33
286 429 279 153 15 48
269 389 261 133 100 73
270 389 264 132 99 74
267 394 259 132 99 71
326 951 248 95 88 90
267 399 259 132 100 71
269 393 261 134 101 74
414 602 196 51 34 36
270 399 264 133 101 75
244 780 222 166 110 79
268 409 262 134 101 76
297 879 324 154 97 95
341 894 338 173 125 101
271 409 264 134 102 77
266 414 259 123 94 70
428 606 237 81 25 32
270 414 264 130 99 76
312 846 316 93 75 56
276 389 269 132 99 73
406 624 334 178 130 104
273 394 267 132 98 75
276 394 269 132 100 75
281 389 273 133 99 75
281 394 273 133 99 76
445 859 298 60 51 46
292 953 305 74 68 70
281 399 273 134 99 77
243 792 226 174 116 86
286 399 275 131 97 76
388 689 196 66 49 41
317 562 141 166 10 40
273 404 267 132 99 75
276 404 269 132 100 76
273 409 267 131 99 76
276 409 269 127 96 73
280 404 271 130 97 75
246 689 244 156 107 80
273 415 267 123 95 72
282 409 273 111 84 65
481 879 264 63 54 48
277 416 279 73 57 43
431 764 330 164 113 79
281 413 279 79 60 44
260 634 222 140 105 69
435 480 319 120 9 39
276 416 284 57 44 32
279 605 203 52 31 35
276 416 289 53 38 28
281 414 289 64 39 30
282 404 273 127 95 73
285 404 275 121 90 70
354 399 301 129 96 72
273 738 217 101 72 47
285 408 275 109 82 63
286 409 279 98 73 56
420 593 293 127 19 44
253 654 229 158 105 78
283 411 279 90 68 50
301 654 200 167 2 41
303 734 297 58 28 31
283 411 282 79 60 43
309 643 281 150 10 47
287 410 283 79 59 44
401 778 180 87 66 50
286 412 286 65 46 33
421 429 313 101 17 37
378 794 195 56 46 42
276 416 294 52 35 26
262 429 262 66 26 31
359 480 306 147 1 42
267 419 263 98 62 52
242 599 244 147 108 75
264 422 261 96 24 39
425 822 317 178 110 85
270 418 265 114 82 64
268 425 268 88 23 34
365 815 300 168 118 99
389 449 339 99 16 35
414 750 202 54 39 39
270 423 269 90 32 35
359 906 322 91 71 57
262 430 280 77 28 28
261 429 284 93 23 31
258 430 285 71 24 29
272 420 274 90 55 45
463 546 260 67 37 42
271 420 279 83 47 38
401 836 291 42 35 34
269 423 278 99 29 35
267 425 279 92 23 33
321 965 334 64 59 58
436 719 178 91 70 53
271 418 284 69 44 34
404 737 177 78 56 40
432 464 329 118 79 61
415 754 220 53 45 44
341 734 313 172 19 57
267 429 274 91 24 32
425 718 177 89 63 49
265 429 279 82 26 30
263 436 269 64 25 29
389 857 193 100 76 63
261 439 269 59 27 27
259 447 259 88 22 30
258 445 264 79 25 31
259 443 269 61 26 27
264 433 265 74 23 30
260 438 274 57 26 25
261 434 279 59 29 27
262 435 275 62 26 28
257 434 284 50 27 29
260 433 283 55 29 26
258 436 281 52 28 24
356 694 318 122 6 38
258 434 289 80 27 36
366 499 319 85 23 35
261 449 279 97 16 34
260 448 283 92 19 35
261 599 261 165 115 90
264 433 274 73 25 31
240 794 254 171 123 93
266 425 301 163 17 52
266 439 289 105 20 39
269 437 288 108 24 40
374 892 220 55 49 50
309 554 276 123 18 44
266 444 279 128 17 45
266 449 275 152 10 47
268 441 281 111 22 39
311 818 278 184 131 112
264 442 288 139 21 45
386 825 300 61 50 46
274 418 270 95 74 58
275 417 279 74 58 42
335 734 310 109 35 50
274 417 283 58 43 32
424 613 254 117 32 45
276 430 289 155 14 47
281 429 284 148 16 48
280 428 288 135 15 44
454 572 230 192 12 53
287 420 290 149 16 48
282 430 280 149 15 47
275 433 284 124 17 42
423 430 311 112 11 37
253 531 241 109 63 48
530 461 170 150 47 27
274 432 288 154 13 45
276 444 274 148 15 46
286 439 274 148 16 48
317 973 294 72 69 69
286 444 273 139 17 44
401 422 319 96 73 52
427 590 199 133 23 44
262 420 294 126 14 39
262 420 298 134 16 41
431 889 304 59 54 51
262 424 298 145 15 45
258 426 290 122 17 40
386 945 314 56 50 45
258 429 292 135 14 42
314 551 137 152 2 34
259 429 295 147 15 43
262 429 298 164 16 49
243 734 221 141 103 69
267 420 302 167 16 50
280 744 280 45 28 32
261 434 294 113 18 41
261 439 293 105 19 39
484 469 273 79 30 36
381 835 290 129 103 84
262 432 297 174 18 55
262 441 291 138 17 45
267 434 295 60 23 32
270 433 293 119 17 41
268 436 290 48 20 28
273 416 290 55 36 31
476 725 277 80 67 55
292 421 281 152 21 50
276 419 299 82 26 36
316 399 274 65 48 34
275 423 298 156 17 50
249 754 256 157 117 87
413 460 366 125 84 72
278 714 283 155 12 48
277 416 297 58 30 32
280 416 297 85 30 37
457 424 285 69 25 30
328 489 277 66 21 31
416 880 287 39 35 32
277 425 295 164 14 52
282 420 295 140 17 46
420 842 180 97 78 60
285 418 293 135 21 43
397 827 303 59 49 45
331 824 288 148 117 93
291 389 277 132 97 75
284 769 202 146 103 67
354 692 316 118 4 34
415 434 374 108 11 35
400 739 321 113 69 60
342 429 288 138 0 42
291 394 277 129 95 75
288 399 277 128 95 73
326 579 294 148 7 45
291 399 278 125 91 72
298 554 159 99 15 32
527 459 220 52 34 35
296 394 278 126 93 73
351 739 318 113 25 45
243 779 257 162 119 89
529 463 217 111 28 42
296 399 280 121 89 69
395 294 283 130 99 68
301 389 278 127 93 73
416 924 285 51 44 44
238 794 244 171 120 88
386 523 105 122 27 40
502 520 209 203 17 57
306 824 269 123 90 72
271 509 264 135 18 44
406 869 235 70 57 53
301 394 279 122 89 70
301 399 280 114 83 64
452 417 285 90 18 29
289 407 280 100 72 56
290 408 285 84 55 44
291 410 288 95 33 36
291 414 289 124 20 42
296 409 287 118 24 42
290 821 217 56 53 58
299 401 282 110 79 61
307 709 196 105 19 31
439 782 327 176 121 91
416 449 329 66 3 26
299 406 287 115 33 42
299 408 287 124 24 46
256 789 214 173 116 83
301 413 283 140 15 45
288 589 166 162 2 37
382 724 184 59 46 41
269 570 208 168 8 43
288 939 313 123 96 85
318 386 271 93 66 49
321 389 269 74 56 38
321 394 269 66 50 34
321 399 270 64 46 34
453 551 275 34 29 33
306 389 278 118 87 67
261 674 256 156 116 92
404 278 265 113 87 54
309 389 277 112 83 63
306 394 279 113 84 65
358 725 197 138 6 33
312 394 276 93 69 51
316 394 273 78 57 39
409 645 331 189 140 115
313 398 276 81 59 44
427 664 298 121 88 60
321 400 278 72 42 33
306 409 283 124 17 41
310 405 282 127 16 42
476 721 273 81 67 54
311 409 280 124 13 39
311 414 278 126 13 41
307 410 281 133 12 45
304 412 282 134 16 44
301 614 180 130 27 43
316 404 279 112 19 38
459 542 277 165 31 61
321 414 277 120 13 38
370 592 156 213 13 47
460 814 304 93 68 58
289 414 292 129 19 43
296 420 280 142 18 46
290 418 288 149 15 48
442 564 279 90 20 38
289 422 282 136 17 45
293 416 286 154 14 50
411 649 289 74 53 41
467 520 149 196 24 54
372 858 281 49 34 31
296 429 276 124 18 43
297 744 196 89 25 37
381 929 339 48 43 40
296 426 276 48 24 31
301 429 275 125 18 43
337 504 283 135 0 41
291 444 273 126 16 41
261 814 223 192 130 99
341 919 339 139 107 83
296 444 273 91 20 35
301 439 273 137 12 43
301 444 273 114 12 37
349 881 327 165 125 99
306 419 278 61 24 30
305 423 277 56 28 31
310 418 277 67 23 30
405 532 116 208 13 45
301 569 154 82 23 31
306 429 274 100 21 38
375 779 202 62 47 40
311 429 274 42 25 27
316 419 276 67 23 29
490 464 264 103 17 35
316 424 275 45 25 27
306 439 273 126 7 38
359 835 297 162 127 98
396 619 199 56 35 36
311 439 273 75 21 31
306 444 273 124 6 36
366 668 301 148 13 45
476 885 264 60 50 42
311 449 273 120 4 36
331 625 178 209 12 45
316 434 274 47 24 27
316 449 274 118 2 34
496 945 289 89 74 60
321 444 275 59 23 30
351 659 300 160 16 52
251 804 225 177 118 86
261 464 270 129 33 46
536 879 294 94 79 67
400 319 274 119 92 62
391 514 99 87 35 40
413 738 191 57 46 40
381 844 283 133 94 70
262 461 271 139 25 47
410 488 362 167 115 93
348 748 312 77 62 56
271 460 271 87 15 33
478 535 183 191 16 47
271 818 220 201 140 111
271 464 269 129 21 47
260 452 277 64 24 31
430 694 264 62 38 33
262 450 276 124 17 45
261 459 273 122 45 54
411 924 287 53 45 45
271 454 273 172 14 55
317 575 287 135 4 40
266 458 272 173 18 57
258 465 271 137 77 72
420 649 294 102 77 49
398 910 268 66 58 56
266 469 267 149 15 47
369 957 318 65 56 53
271 469 268 123 20 43
406 774 179 89 66 50
270 471 266 58 21 30
271 474 266 132 18 44
260 479 273 124 72 65
276 464 270 71 25 35
281 460 271 46 25 29
276 454 273 142 20 48
337 869 229 47 42 43
276 458 272 122 23 43
395 639 309 168 120 103
281 458 272 45 27 30
286 458 272 139 26 51
293 747 292 93 46 49
276 469 269 102 27 42
273 472 267 47 21 29
277 473 267 102 27 44
253 789 267 174 133 104
280 480 266 103 26 39
246 794 224 171 114 82
282 478 267 101 25 40
286 469 270 84 24 35
401 404 294 120 95 66
286 479 268 84 22 35
263 564 219 145 15 39
316 924 343 187 146 125
262 484 269 113 45 48
263 485 266 118 18 36
263 494 270 126 73 69
373 940 257 72 64 64
291 769 199 141 101 66
243 813 239 200 139 108
266 489 264 115 12 38
271 484 263 114 18 41
276 803 211 179 124 90
271 489 262 48 23 28
396 569 333 73 47 43
264 483 267 122 17 38
266 494 264 122 17 40
271 494 263 117 11 37
360 938 347 65 60 58
264 495 268 116 49 51
473 438 276 52 28 30
258 489 276 156 108 90
393 412 310 123 92 66
261 494 273 142 97 83
346 879 199 95 77 62
263 499 271 134 86 77
467 454 290 118 17 40
271 504 264 146 12 46
267 509 266 108 38 44
261 499 273 147 102 88
258 499 276 160 114 94
260 509 273 168 117 102
281 484 265 61 27 32
338 781 202 79 61 53
464 542 268 44 32 35
273 490 261 34 22 25
405 394 283 122 96 65
275 491 261 57 19 26
386 833 292 45 38 40
456 958 294 94 76 61
273 493 261 112 11 36
397 619 319 175 123 106
277 494 262 150 15 48
376 573 141 63 35 41
331 844 304 132 107 80
281 494 263 165 16 52
283 482 267 70 12 28
271 804 271 183 143 113
251 799 223 172 115 82
286 484 267 106 23 40
430 475 319 113 8 39
286 690 279 60 24 31
286 494 264 121 19 43
306 639 279 151 11 48
276 499 262 141 11 43
344 871 327 153 118 85
351 654 194 146 0 34
395 784 321 158 121 95
276 504 262 142 9 43
366 702 326 93 19 36
280 499 261 157 15 49
281 499 262 159 15 49
446 444 305 57 27 28
276 509 262 141 13 43
424 464 348 140 100 76
399 425 345 114 13 37
279 508 262 149 13 46
286 499 263 151 15 47
300 548 163 100 9 32
321 630 182 196 10 41
291 464 271 46 27 30
461 519 294 164 16 54
301 465 271 79 24 32
285 739 203 41 35 39
291 454 273 130 23 47
381 924 334 43 39 38
301 454 273 91 18 35
359 875 302 148 111 87
301 459 272 112 20 40
291 469 270 71 26 33
306 474 270 39 28 29
296 469 270 61 24 30
291 474 269 72 24 32
419 614 337 169 116 85
449 785 246 65 52 46
291 479 268 64 28 34
296 479 269 72 27 34
301 469 271 67 24 31
316 709 193 123 15 32
301 474 270 58 27 33
301 479 269 42 26 29
290 769 281 75 62 55
306 454 273 136 11 42
261 644 220 109 82 51
306 459 272 138 11 43
368 494 319 63 28 34
311 459 273 136 9 41
311 464 273 119 11 38
321 454 275 125 6 38
241 734 229 146 101 70
316 459 274 132 9 40
387 714 174 67 52 44
401 424 379 103 21 37
342 577 141 202 11 43
321 464 275 35 26 28
305 466 271 128 23 47
396 424 364 110 14 37
306 469 271 43 25 29
310 470 271 39 27 28
311 474 271 51 29 32
377 788 196 56 45 39
371 733 203 81 28 33
361 834 296 157 123 97
311 479 270 30 27 28
321 864 331 157 124 98
321 469 275 44 25 28
