ply
format ascii 1.0
comment Created by Open3D
element vertex 2214
property double x
property double y
property double z
property uchar red
property uchar green
property uchar blue
end_header
334 820 221 79 62 54
341 174 246 106 84 58
404 440 291 74 20 31
341 169 241 105 83 57
433 779 263 91 72 65
333 181 258 105 85 61
434 410 205 106 94 79
324 970 295 64 59 57
342 176 244 106 84 58
338 175 250 106 85 60
304 407 237 97 84 70
438 875 240 56 50 53
300 360 280 126 99 69
449 550 286 115 26 43
409 85 210 118 45 51
305 725 226 109 20 36
323 455 205 52 30 28
466 448 262 139 16 41
342 180 227 121 93 57
258 506 305 196 147 131
306 702 237 128 15 36
347 232 268 116 92 63
354 950 320 61 57 57
492 492 263 145 7 51
344 185 230 117 91 59
271 530 255 161 2 43
453 750 121 90 66 51
381 176 234 107 86 62
439 841 130 112 87 66
342 190 227 118 91 58
345 180 235 108 86 60
270 760 256 147 105 74
440 835 170 66 56 52
387 254 252 92 75 56
359 974 290 75 70 70
429 505 165 142 2 34
346 190 240 108 85 59
272 478 243 86 29 38
322 858 295 141 109 87
388 404 276 63 49 35
343 180 245 106 84 58
426 235 246 120 96 68
397 115 248 122 96 64
374 897 175 82 70 68
404 909 306 41 37 36
374 595 181 169 3 36
562 499 235 158 109 90
341 178 247 108 85 60
499 770 210 102 75 57
306 477 189 55 34 33
494 794 216 89 67 53
319 200 271 110 92 74
301 275 279 124 95 66
334 550 161 89 25 37
478 755 210 137 95 65
340 180 251 108 86 61
337 177 253 107 86 61
338 181 254 108 86 62
432 381 226 105 87 67
432 416 157 131 18 34
336 184 257 105 84 59
428 854 175 68 58 57
433 580 196 145 1 35
383 353 272 68 55 38
434 710 189 68 51 47
339 185 255 108 87 62
337 19 273 123 78 60
391 118 212 131 87 62
514 765 210 120 91 66
399 160 252 119 96 71
389 610 190 63 33 38
315 608 206 200 11 52
371 699 307 162 21 55
423 769 273 92 69 60
307 900 269 181 132 112
342 181 249 108 86 61
409 430 141 127 10 31
372 503 142 168 3 33
384 510 307 166 14 52
273 805 295 182 128 102
351 344 244 102 83 67
386 412 157 95 77 62
343 185 250 107 85 60
438 565 201 145 2 34
264 490 300 111 44 51
289 435 350 51 27 28
334 625 302 45 29 31
490 972 233 97 88 81
305 270 251 144 101 70
354 518 313 117 36 50
346 190 245 106 84 58
310 366 256 111 91 68
384 155 225 113 88 57
305 220 270 114 93 70
323 967 264 86 83 85
383 160 230 109 87 61
433 575 293 117 23 44
386 245 217 129 99 62
515 795 235 103 78 58
425 350 261 121 94 62
407 893 202 66 59 59
272 786 258 185 124 94
328 491 139 153 13 38
303 615 230 49 34 38
385 160 220 120 89 52
369 520 149 168 0 35
550 490 241 45 33 32
384 170 220 118 89 52
407 763 162 31 30 31
374 979 270 70 65 65
382 170 225 113 88 57
471 768 232 159 115 85
384 411 170 94 79 63
320 765 212 64 54 49
381 175 225 111 88 60
394 720 300 124 39 53
342 858 271 67 53 38
289 480 316 70 22 29
382 174 223 113 88 55
286 510 326 174 126 109
412 70 206 129 39 49
378 300 230 104 85 65
355 634 202 162 9 36
349 620 304 133 21 47
428 230 235 119 95 68
440 585 204 139 8 34
399 220 259 122 98 72
331 716 313 154 17 49
383 180 219 118 90 55
389 476 139 156 1 33
302 755 223 106 17 34
449 706 157 64 52 43
380 180 225 111 88 59
296 436 227 102 21 30
379 280 235 105 84 59
409 210 209 119 95 65
449 696 165 79 64 50
381 181 222 114 87 53
349 495 136 48 37 42
387 250 252 95 77 57
353 345 314 138 97 72
383 379 213 102 86 69
304 695 250 78 25 35
339 635 301 66 28 33
424 850 244 38 35 33
279 410 265 68 40 40
383 185 219 122 93 57
484 435 206 63 34 37
379 185 225 111 88 60
406 139 247 117 93 66
509 530 220 95 26 38
429 235 230 121 97 71
422 570 187 141 7 36
380 190 220 117 91 59
344 979 260 79 76 77
386 507 148 59 29 32
385 190 216 122 93 56
393 870 265 143 111 89
311 447 148 109 0 37
346 256 248 100 79 54
383 165 230 108 85 60
398 94 192 118 58 50
381 616 302 55 26 31
409 410 180 92 77 62
448 729 100 102 74 53
395 185 212 129 98 59
405 566 174 163 17 41
384 165 240 108 86 62
276 440 275 131 5 37
444 410 180 148 23 32
381 172 226 111 87 60
432 372 258 118 93 62
381 175 230 106 86 62
304 465 149 120 0 35
454 475 181 122 17 32
310 725 221 117 16 35
511 433 230 72 20 29
473 590 245 149 31 53
403 115 244 117 94 69
350 220 255 111 87 59
382 173 232 106 85 62
324 395 241 94 81 66
265 545 305 165 119 95
359 650 303 175 2 55
474 800 200 158 105 75
383 170 235 107 85 61
477 751 187 115 85 58
279 430 255 84 25 34
434 380 255 115 91 63
384 170 240 108 87 62
417 438 147 50 40 43
427 743 288 197 16 63
434 834 121 101 82 73
453 692 146 88 66 49
466 526 218 81 34 41
382 175 236 108 85 61
399 280 214 114 89 60
363 680 198 95 28 34
384 175 240 109 88 64
415 185 214 118 94 66
470 705 193 104 80 54
271 746 257 133 100 65
408 30 255 134 94 79
342 770 213 74 58 51
409 415 287 132 19 43
394 340 280 122 86 66
380 180 230 105 85 62
437 509 172 144 2 33
281 804 303 179 127 102
453 729 105 93 67 51
399 390 204 96 82 69
440 845 186 68 57 55
431 812 123 109 77 64
513 560 227 130 92 74
404 35 230 93 68 54
400 831 256 142 109 91
382 180 237 109 87 63
322 689 218 60 30 33
383 180 240 110 88 65
342 408 223 89 75 60
382 184 237 110 88 65
389 30 270 144 32 59
500 587 228 150 108 88
291 740 250 87 59 44
324 935 310 190 146 126
384 580 304 167 3 52
283 565 235 57 32 36
425 325 256 132 100 68
460 730 120 96 72 53
343 320 323 134 91 68
382 185 240 111 89 66
378 190 230 109 87 63
395 310 217 93 79 63
354 500 139 142 16 38
371 412 176 93 79 64
312 710 223 88 37 42
409 505 155 105 18 32
372 464 127 104 26 34
380 190 235 106 84 61
399 155 251 116 92 67
381 186 238 111 89 65
344 285 260 98 78 56
338 424 213 75 64 54
365 402 254 78 65 52
470 600 235 66 24 35
319 470 151 91 11 31
499 580 204 125 99 69
443 844 186 68 57 54
300 590 216 63 29 34
381 190 239 111 89 65
442 730 283 37 31 33
355 886 190 44 42 42
324 195 219 138 104 63
379 11 270 143 78 80
324 200 220 136 102 63
416 194 252 118 95 68
376 343 236 85 70 55
534 460 250 89 26 37
479 640 229 181 135 110
330 205 223 134 101 62
436 646 252 172 15 52
494 645 203 126 93 56
376 338 232 97 79 60
328 210 222 134 100 61
409 85 215 105 65 56
293 565 309 104 54 50
383 330 270 73 61 48
325 213 222 134 100 61
330 330 257 90 76 60
414 655 205 73 30 31
364 408 204 87 58 49
324 220 223 136 102 64
329 585 181 195 9 41
374 11 265 129 61 61
329 220 224 135 102 64
384 414 140 134 53 40
334 210 224 133 100 62
393 460 299 156 17 47
426 480 287 151 11 47
391 819 172 54 48 47
276 569 260 153 1 41
339 200 225 125 95 58
266 740 280 156 107 77
324 225 225 137 101 64
383 319 223 105 86 66
274 660 290 131 94 60
440 520 287 58 30 33
345 634 206 86 31 37
334 220 226 134 101 62
335 226 228 133 100 62
452 749 254 149 22 46
399 335 281 135 95 72
439 720 145 59 48 41
342 195 227 121 92 56
459 580 219 113 14 31
273 560 290 129 44 48
355 410 322 157 21 51
277 445 255 123 9 33
342 198 227 122 92 55
303 636 250 60 29 37
346 194 233 117 92 62
319 640 294 160 24 53
347 195 235 114 90 61
334 780 300 74 60 54
346 193 240 109 87 61
347 195 240 109 87 61
364 404 255 80 67 52
410 358 213 92 81 72
347 197 232 115 90 59
348 200 235 115 90 59
444 705 270 79 24 37
327 22 272 152 111 87
348 200 240 110 87 61
305 325 295 132 103 74
370 390 250 71 60 49
480 564 267 127 28 49
348 205 235 120 92 59
412 142 227 115 95 72
347 206 232 122 92 57
384 605 303 36 30 33
386 94 197 150 12 44
349 205 240 111 88 61
278 425 260 84 24 34
394 44 210 119 81 58
320 288 252 124 90 64
412 140 239 113 92 69
340 270 249 97 75 52
361 863 292 132 106 79
475 470 193 107 28 36
343 195 255 109 87 62
305 471 206 44 33 31
354 534 152 94 26 37
347 192 243 108 85 57
381 290 227 107 87 65
475 699 198 124 91 56
377 319 228 111 89 65
347 195 245 108 85 57
346 194 246 106 84 57
388 325 276 83 62 41
404 90 195 147 20 45
346 403 243 89 73 55
347 197 248 107 84 57
431 918 294 66 60 59
428 709 195 67 48 38
314 715 300 83 25 35
347 200 250 107 84 56
345 200 255 108 86 61
349 205 245 110 86 59
347 306 262 91 74 55
483 705 205 150 104 72
412 140 230 115 94 72
345 220 234 126 93 57
347 205 254 109 86 60
405 425 139 142 0 33
421 897 234 65 57 58
434 819 160 60 51 51
464 475 185 130 15 33
291 756 237 118 88 59
388 81 188 150 24 46
351 235 255 108 83 53
338 215 227 131 98 59
398 628 197 48 34 36
386 250 217 128 99 64
414 495 155 155 0 35
340 215 228 127 94 57
384 625 195 91 25 37
472 553 269 131 21 42
408 75 230 101 68 56
313 601 199 204 12 53
369 805 281 184 127 107
341 210 228 127 94 55
374 400 210 98 83 67
431 856 193 62 52 50
311 549 162 90 29 39
272 720 291 159 106 80
300 265 275 126 96 67
404 560 298 163 5 50
344 420 322 148 16 48
386 34 192 126 31 12
382 724 303 146 28 56
303 470 140 168 4 43
420 685 203 51 34 36
344 210 230 124 93 57
336 222 228 133 100 62
431 369 256 117 92 63
360 332 252 79 65 49
319 470 131 111 18 36
388 225 251 117 94 70
394 345 280 124 89 66
398 379 208 96 84 72
457 944 298 81 68 58
474 710 195 110 84 52
344 810 286 75 61 55
339 225 230 128 94 58
330 184 262 107 87 66
447 417 268 93 41 34
431 398 218 144 118 91
499 595 228 163 119 96
416 807 147 47 43 43
343 220 231 126 92 57
354 411 205 84 66 51
493 665 210 191 132 102
287 541 213 164 8 41
282 512 213 134 20 41
401 942 228 73 66 66
436 595 203 58 28 30
342 225 232 126 91 58
347 210 232 123 92 57
357 340 267 123 93 76
447 730 270 153 26 54
348 215 235 123 91 57
302 275 260 149 104 75
310 570 175 165 13 44
492 563 241 36 25 37
369 620 304 130 28 49
388 394 208 97 82 67
419 435 286 146 12 45
346 216 233 124 92 56
316 475 177 50 33 33
295 420 232 97 30 33
433 625 211 94 32 36
349 215 240 115 89 58
354 590 179 173 9 39
288 575 314 163 116 90
348 220 236 124 92 58
379 310 265 68 55 42
390 226 212 130 99 60
348 225 236 125 91 58
494 820 240 99 79 64
396 175 253 119 96 71
340 819 217 80 63 54
326 451 206 63 28 30
409 75 225 111 41 44
350 220 240 118 90 58
452 898 290 66 55 46
314 440 219 71 27 29
394 275 215 118 91 62
348 210 255 109 86 59
480 449 257 66 29 34
474 560 225 94 17 30
363 578 172 182 5 40
351 225 245 108 85 57
350 225 250 106 83 54
353 815 283 168 125 103
384 891 175 82 72 68
388 110 219 122 82 61
324 240 229 137 100 64
330 231 228 136 101 63
366 465 312 43 30 33
439 695 260 138 13 42
329 235 229 136 100 63
440 660 235 40 29 32
409 954 265 70 66 66
280 555 235 62 33 37
321 12 273 127 40 53
332 228 227 135 100 63
542 470 214 98 70 49
346 417 145 51 31 31
306 903 276 195 143 125
388 101 199 145 17 43
452 988 273 99 81 64
385 270 221 113 89 62
334 230 229 133 99 61
275 775 299 164 118 89
342 627 302 152 36 61
335 241 234 127 94 58
322 247 233 132 96 61
323 836 234 55 48 51
324 250 234 125 92 58
410 90 225 114 51 53
435 575 198 147 2 33
334 430 119 130 20 32
325 248 232 129 94 59
314 470 179 60 29 34
375 850 200 57 52 53
372 375 255 71 60 47
328 248 232 128 94 60
414 210 256 124 100 72
329 255 236 108 82 54
476 805 209 164 110 83
394 220 210 128 97 59
388 20 191 126 29 12
364 600 308 144 19 49
437 686 258 65 22 29
324 920 309 118 92 73
330 246 233 126 93 58
394 61 187 102 37 22
332 243 232 130 96 59
335 440 200 72 27 27
275 525 230 160 9 41
452 665 208 74 61 47
334 245 235 121 90 56
444 880 291 53 46 41
273 460 265 88 23 34
374 24 280 127 79 69
468 769 165 78 62 50
421 200 245 119 96 70
529 446 223 136 21 36
283 408 265 67 60 53
338 348 323 147 102 78
336 251 238 102 79 51
385 750 187 70 31 36
414 470 149 85 31 36
333 254 237 103 79 53
402 57 197 87 59 29
338 230 231 129 95 58
437 828 181 63 51 48
459 846 249 74 60 54
382 195 242 114 91 67
311 350 262 112 91 68
489 565 260 139 29 52
426 822 167 39 35 36
419 525 164 103 26 38
415 295 218 108 89 67
319 445 321 82 28 36
340 231 233 127 92 57
267 440 330 57 28 33
458 947 285 77 65 55
409 862 254 30 28 27
371 385 240 74 62 49
414 200 211 125 99 65
344 230 235 125 92 57
490 830 256 80 64 51
309 420 325 100 19 36
392 120 213 132 91 63
340 235 234 126 93 57
345 929 197 91 80 77
344 234 237 123 90 56
307 573 198 135 7 41
345 236 239 118 88 54
391 865 267 141 110 88
301 721 236 122 12 36
342 238 237 119 87 55
348 235 240 117 87 54
428 330 250 129 100 68
464 576 273 62 25 33
383 430 121 90 34 41
378 475 308 43 30 33
443 550 288 97 27 38
478 545 226 92 26 33
308 670 250 60 30 34
350 230 245 109 85 56
421 189 224 121 99 75
529 465 224 92 27 30
351 230 250 104 81 53
443 833 175 64 52 49
366 12 274 122 57 55
347 238 242 113 84 54
389 255 215 127 98 64
349 240 245 109 83 54
416 160 240 115 93 69
440 835 185 64 52 50
418 794 264 85 65 59
391 220 253 117 93 69
423 205 220 119 96 71
514 485 235 54 32 41
394 25 279 126 72 64
428 330 240 121 95 65
309 805 301 177 133 102
350 235 250 103 80 52
419 735 294 191 22 63
350 240 250 101 79 52
340 245 240 107 81 52
399 729 188 80 29 31
419 525 295 49 26 32
399 160 211 125 96 58
341 241 239 113 85 53
427 340 231 105 86 66
341 711 318 65 24 32
386 140 240 111 87 64
267 449 319 54 30 28
420 621 286 70 29 34
469 835 230 83 65 56
337 248 237 106 81 53
339 250 240 100 77 50
415 836 126 122 96 80
274 424 341 99 21 37
409 110 230 117 95 71
338 255 241 96 75 49
399 180 211 129 98 59
406 80 194 142 26 45
422 206 244 118 95 71
342 250 242 99 76 49
421 185 230 119 97 73
384 44 263 133 102 77
354 715 199 77 26 36
351 245 255 103 79 52
464 859 256 90 70 58
374 45 262 113 46 49
269 510 245 77 30 40
290 828 266 220 150 122
315 380 247 104 87 69
347 253 247 101 79 54
421 379 277 137 100 69
394 105 248 121 96 69
349 255 255 100 79 53
404 195 256 124 100 75
335 930 206 74 65 64
381 198 217 114 89 59
374 765 295 85 67 57
411 150 220 110 92 72
403 110 215 101 76 54
382 201 218 118 93 61
303 240 275 117 94 69
287 505 325 158 113 99
322 466 152 110 0 36
450 670 210 65 55 44
394 875 160 86 74 66
277 465 281 97 19 35
385 205 216 121 93 58
344 421 180 72 23 30
386 796 166 60 51 47
399 525 159 63 37 40
410 160 214 113 92 68
383 205 218 121 94 62
314 550 307 174 14 55
369 981 260 63 58 58
345 245 275 118 93 65
314 436 118 82 39 40
384 20 284 146 101 82
329 416 225 93 77 59
379 215 225 112 87 57
379 530 154 166 1 33
464 725 119 99 74 54
383 210 219 120 93 60
414 410 185 94 78 63
469 510 215 108 29 38
488 675 206 164 111 80
383 215 219 120 93 60
489 655 202 114 87 52
362 26 260 125 65 63
381 215 222 116 90 59
319 520 311 175 11 55
459 430 185 85 30 36
279 440 250 132 6 37
304 740 301 166 110 89
478 485 268 151 13 47
383 225 219 122 94 60
280 425 250 79 32 38
379 225 225 116 89 57
314 574 176 118 30 44
381 225 222 120 92 58
359 405 250 87 71 55
421 742 132 54 45 37
280 465 290 58 26 29
326 862 272 111 88 69
378 195 230 111 89 66
382 493 142 162 10 42
482 880 281 82 67 59
334 490 316 167 15 53
524 555 228 167 122 96
374 900 180 71 63 62
316 23 263 149 104 80
442 639 235 160 15 52
379 195 235 106 84 61
424 861 250 40 35 31
283 630 274 137 102 66
322 461 152 109 0 32
421 425 148 129 20 36
407 99 206 133 29 47
380 200 240 109 87 64
284 421 334 58 18 24
440 870 235 56 50 55
378 205 230 112 90 65
423 210 240 117 95 70
409 785 274 85 66 58
270 525 250 91 21 35
310 900 305 184 137 117
357 853 282 113 91 67
380 205 240 105 84 62
354 480 314 91 29 39
382 199 242 113 91 68
384 205 245 113 91 67
343 894 234 89 74 59
463 779 171 81 62 52
381 206 243 110 89 67
388 270 219 116 91 63
423 310 226 109 88 64
378 215 230 111 90 65
448 460 273 68 27 33
378 210 235 111 91 69
339 305 260 86 71 54
380 210 240 101 82 61
389 414 140 144 48 35
423 200 225 123 100 75
363 851 223 127 90 69
320 690 221 57 36 38
302 827 248 87 67 61
382 382 272 62 47 27
377 220 230 110 88 63
377 220 235 111 92 72
298 370 280 125 99 70
416 179 247 117 95 70
487 422 215 88 31 35
379 220 240 99 80 60
381 208 243 108 87 65
384 210 245 111 90 66
381 215 243 102 82 60
385 480 138 157 1 33
355 895 180 73 64 62
299 405 310 83 69 55
296 381 280 123 98 70
412 151 222 113 94 74
463 824 206 190 125 98
381 220 243 96 78 57
379 445 309 162 14 51
380 225 244 95 77 56
385 185 244 113 91 66
383 225 246 102 82 59
304 445 144 64 23 31
281 588 263 150 28 55
403 145 212 125 98 63
414 510 158 81 29 37
385 230 216 128 98 61
431 736 154 39 35 32
395 75 251 119 19 44
490 485 262 163 13 51
306 496 158 125 5 36
381 230 222 120 93 60
436 390 255 112 90 63
378 415 309 149 18 47
380 230 225 117 91 58
383 235 219 125 96 60
420 736 292 200 10 64
319 452 123 143 19 44
275 620 314 161 117 89
381 235 222 122 95 61
324 485 136 124 22 38
330 335 323 144 103 77
281 495 332 159 116 92
300 490 191 93 24 33
315 466 200 51 30 30
439 416 274 130 28 41
439 946 275 78 65 60
343 360 251 95 79 63
431 784 127 72 53 38
380 235 225 117 90 58
464 750 155 56 45 39
315 553 162 60 31 33
384 390 210 100 84 68
383 245 220 124 96 62
320 455 175 74 28 32
380 245 225 117 91 60
379 255 245 99 79 57
381 246 222 120 93 61
425 215 225 122 99 73
514 780 225 98 73 56
412 578 182 45 38 42
404 185 211 128 98 60
440 440 169 106 29 35
346 906 205 54 50 50
405 866 164 74 62 57
270 495 265 61 28 32
310 370 314 129 101 73
383 250 220 122 95 62
381 248 222 119 92 61
427 743 143 49 44 39
397 667 197 117 24 26
319 475 133 164 5 38
299 700 259 83 42 34
439 950 280 80 66 58
500 476 219 124 19 36
380 250 225 116 90 58
429 919 308 59 53 50
517 784 221 107 77 62
370 390 230 77 67 58
275 690 290 155 106 77
451 738 234 88 22 38
524 455 225 80 27 28
382 251 223 117 91 60
386 315 222 100 84 68
397 80 248 112 83 63
434 886 293 43 39 37
354 600 185 121 27 41
343 310 323 132 92 68
382 255 224 114 89 60
391 485 302 83 30 38
381 375 273 64 50 31
410 901 213 68 59 59
379 230 230 114 89 60
394 755 290 79 61 54
319 569 171 85 32 39
378 230 235 112 90 67
399 225 260 121 98 72
378 230 240 107 88 66
379 235 230 113 87 56
287 454 228 68 33 33
347 861 238 163 115 84
513 809 230 103 80 66
319 439 146 115 3 36
327 488 168 54 26 32
378 235 235 111 89 62
469 730 134 85 65 49
385 130 230 112 85 59
316 530 173 130 1 40
378 235 240 110 91 69
406 821 146 63 50 43
323 484 156 59 25 31
288 410 245 73 36 38
379 240 235 112 87 60
403 105 200 131 31 43
380 230 244 97 78 56
399 590 301 160 16 51
554 495 239 107 59 58
383 719 303 164 24 56
306 629 236 74 25 42
339 271 299 110 88 63
389 40 194 125 40 17
380 235 245 98 79 57
385 235 249 103 83 60
396 13 265 102 50 53
436 695 213 51 44 46
384 240 249 98 79 57
407 140 216 108 89 69
524 485 210 101 27 33
379 245 235 112 87 58
378 245 240 109 87 63
349 445 124 141 1 31
391 274 217 117 92 63
285 745 303 171 123 95
276 466 236 121 11 34
352 365 314 144 101 76
380 255 230 111 87 58
324 214 277 112 92 72
349 434 122 143 3 30
394 525 156 55 35 39
379 250 240 106 84 59
379 255 235 109 85 58
439 610 210 94 32 40
410 65 215 121 96 77
379 255 240 105 83 57
364 554 162 126 24 41
343 419 155 47 24 26
449 540 285 105 27 41
414 290 269 121 94 63
381 245 248 96 77 56
428 230 225 119 96 70
438 698 211 56 44 47
314 660 235 143 8 39
406 107 219 102 74 54
284 485 330 151 109 90
444 575 280 178 19 58
296 396 261 99 83 65
381 251 248 98 79 58
484 655 203 102 78 50
524 455 251 120 22 43
384 250 250 95 76 56
414 205 255 124 99 72
417 181 217 112 92 70
384 255 251 93 76 56
494 480 261 160 19 52
425 684 281 123 15 40
387 43 214 106 90 73
380 260 230 111 86 58
389 30 191 126 30 12
389 40 191 126 35 14
478 780 200 146 100 69
293 770 235 97 73 56
303 380 260 108 88 66
392 46 192 123 36 17
437 548 192 46 32 39
309 190 260 110 92 74
404 325 280 137 92 69
404 560 170 62 34 38
455 928 286 70 57 49
404 615 194 121 26 41
394 160 250 109 87 65
390 50 191 125 26 18
309 406 237 97 83 69
410 916 313 50 46 43
404 890 195 64 58 59
386 57 192 96 31 23
271 525 328 163 116 93
393 175 251 117 94 70
320 484 137 102 27 38
296 386 290 126 99 69
388 64 188 106 38 27
291 785 237 153 106 74
369 413 175 91 77 64
344 905 215 53 49 48
389 65 187 101 40 25
319 185 264 109 90 72
389 741 297 76 54 52
354 766 301 90 71 60
317 507 183 88 20 22
391 61 187 106 35 21
349 735 319 134 24 48
438 405 235 95 79 62
394 55 189 110 36 21
303 821 243 85 65 60
384 440 125 68 34 37
458 711 140 81 64 49
405 630 292 143 28 54
394 59 188 100 37 22
314 485 179 70 27 32
399 60 190 88 45 24
414 831 246 42 35 34
507 509 220 98 12 28
423 320 226 100 83 65
398 65 187 99 43 34
471 958 279 82 68 55
280 415 255 53 34 37
400 65 189 100 45 30
500 464 257 37 28 29
390 425 300 60 28 32
403 65 191 104 46 30
386 15 194 125 29 12
277 468 233 123 11 32
453 750 245 143 92 74
386 17 192 125 29 12
312 607 208 197 12 47
424 785 266 90 69 62
386 20 192 126 29 12
352 291 294 120 93 61
394 150 249 115 92 67
315 264 242 127 91 60
425 270 251 131 99 62
386 20 194 126 29 12
362 13 265 116 46 51
396 847 137 96 78 61
369 500 140 149 9 38
313 685 230 107 27 41
426 260 252 128 99 64
418 310 265 125 91 59
386 25 193 126 29 12
421 561 183 159 6 37
410 70 200 127 41 48
388 25 193 126 29 12
348 895 318 170 125 99
447 952 282 82 70 62
315 710 221 60 37 40
345 740 202 95 29 34
419 954 295 69 58 50
386 30 194 126 30 12
334 690 209 71 29 34
389 30 225 108 83 62
417 162 236 115 94 72
389 14 245 83 72 62
489 655 224 184 141 114
445 860 245 69 56 54
334 760 206 72 42 43
341 887 242 132 107 81
404 245 208 129 97 56
388 12 250 82 68 59
414 260 264 131 100 66
409 412 155 118 65 44
323 454 174 71 29 35
389 12 255 89 64 58
383 464 132 149 12 37
302 228 262 116 93 68
307 300 269 140 99 76
317 320 263 113 88 59
390 13 254 87 64 57
324 560 166 68 33 37
321 838 237 48 48 55
344 405 240 90 75 58
369 415 145 90 68 51
562 490 238 154 106 88
366 460 312 79 21 32
365 30 265 133 33 53
272 806 275 189 128 101
394 16 245 93 77 64
482 772 214 124 89 64
394 13 255 93 61 55
389 25 230 103 83 63
287 581 234 54 30 35
332 482 133 97 33 37
315 375 319 131 100 74
389 20 235 95 80 68
311 493 142 173 1 42
389 23 233 100 82 65
389 780 284 82 63 55
506 496 237 80 37 37
374 970 230 77 74 77
481 610 202 109 87 62
387 28 228 100 85 70
360 332 253 79 65 49
398 22 237 101 90 77
360 782 292 82 62 54
300 390 305 119 94 68
400 436 138 148 0 34
279 424 340 48 18 26
394 31 226 125 75 46
339 965 310 64 59 58
274 445 346 65 26 32
479 831 239 79 61 52
458 940 298 80 66 57
398 27 232 107 95 81
398 32 227 110 96 80
435 650 219 90 30 30
446 436 173 109 23 36
399 30 230 110 96 81
353 380 313 143 101 78
273 445 314 56 23 26
400 28 233 111 96 80
429 905 280 54 46 49
393 17 241 96 78 63
476 736 227 170 119 89
372 320 240 99 80 58
398 17 246 100 78 67
444 725 110 92 70 50
444 695 220 50 43 40
565 485 235 170 131 121
447 566 207 134 4 33
456 857 253 73 57 53
403 17 251 105 61 56
309 445 145 105 9 35
414 215 210 123 96 63
404 15 255 102 51 48
464 785 175 85 63 50
410 65 210 113 58 54
258 475 304 155 117 95
459 415 185 146 13 27
379 775 289 85 66 57
343 855 270 88 64 47
403 31 231 108 93 77
399 887 279 34 32 32
524 550 209 152 113 74
427 351 227 96 82 69
289 670 268 118 85 51
321 292 313 116 90 62
449 413 240 73 64 56
403 26 236 110 93 76
336 697 207 96 16 26
389 255 255 91 74 56
305 565 200 91 28 37
288 805 249 181 121 90
339 345 323 149 103 77
418 170 235 113 93 70
407 54 238 120 17 41
459 700 170 71 57 45
323 375 322 138 104 78
311 670 292 105 75 65
452 422 268 93 32 42
404 30 235 92 68 51
407 26 241 95 59 53
373 402 308 59 49 39
394 340 217 88 78 68
407 31 237 97 43 41
451 531 203 32 36 39
417 175 221 117 96 73
448 984 284 89 71 57
328 454 156 114 0 38
488 569 250 77 34 42
408 30 240 77 44 38
393 420 126 145 15 32
349 255 270 111 87 59
297 572 213 110 29 40
403 21 241 110 94 80
295 535 200 156 6 38
329 890 310 152 115 95
360 365 270 83 67 51
390 42 212 115 80 59
322 475 173 44 31 30
406 23 244 107 62 54
301 247 273 119 94 66
408 25 245 93 48 42
464 610 240 185 18 58
405 18 249 110 56 55
448 544 206 107 31 41
434 414 276 118 45 42
472 893 300 97 75 54
324 12 274 126 40 53
308 340 269 111 90 66
266 765 285 170 118 91
302 694 259 82 23 35
408 20 255 110 36 42
327 690 302 86 18 34
408 25 250 99 38 40
409 30 245 76 47 40
386 35 193 126 31 12
537 539 229 189 135 106
401 32 262 126 85 73
320 528 152 177 5 40
333 435 214 79 36 32
319 520 149 100 22 35
312 375 317 129 100 74
386 47 202 110 90 70
314 830 240 86 66 59
297 622 248 90 39 46
386 47 205 109 91 72
281 469 322 126 82 70
430 375 265 127 98 65
404 160 251 120 96 69
389 90 191 156 18 43
272 485 271 129 9 38
489 675 215 185 126 95
425 914 279 53 47 49
374 880 155 112 93 79
389 46 205 115 82 59
259 426 291 152 2 37
420 195 245 120 97 71
392 41 192 125 38 16
269 495 299 62 28 32
392 41 193 124 42 18
464 825 210 202 136 109
377 18 288 164 107 99
393 45 195 120 53 26
497 654 218 200 140 111
398 95 248 116 52 54
318 295 311 118 90 62
386 166 243 111 90 66
394 46 200 118 80 49
281 411 256 39 33 35
385 260 253 90 73 55
304 335 290 130 101 70
334 215 274 112 90 66
334 800 214 77 61 52
457 425 182 122 16 32
394 45 205 118 83 56
471 802 198 158 105 76
442 594 207 43 36 40
470 943 274 104 82 63
296 391 266 110 89 67
397 47 202 117 95 65
418 255 212 133 99 59
419 915 265 57 50 53
398 47 206 120 101 79
390 790 166 55 46 44
432 370 240 108 87 64
394 225 210 129 98 60
334 235 284 111 90 66
388 33 223 104 86 69
284 826 275 216 144 116
389 35 221 111 85 65
306 680 255 42 30 35
389 38 218 110 87 67
418 190 249 118 95 70
529 465 251 104 24 41
394 36 221 124 76 46
385 855 165 55 49 49
394 38 219 122 85 52
359 484 132 53 36 36
469 840 245 80 64 55
334 385 322 146 105 75
310 470 185 63 30 32
305 580 205 128 19 41
334 399 322 137 101 76
399 35 225 113 99 85
293 440 229 109 14 32
315 446 149 111 0 35
379 11 260 120 65 61
261 433 299 140 18 45
400 39 224 113 99 86
276 445 265 136 1 37
399 44 215 117 99 84
281 466 227 112 14 28
379 12 290 148 37 60
493 475 205 161 1 34
399 290 216 108 87 63
492 563 255 35 29 32
428 375 269 131 100 66
398 41 216 119 101 81
399 875 155 91 77 68
384 801 277 189 132 110
411 847 148 118 90 67
387 48 206 110 90 71
429 395 216 114 98 81
374 300 240 100 81 60
395 49 195 108 64 28
484 793 242 62 51 40
398 51 195 100 75 40
299 385 265 113 91 67
444 425 169 93 33 37
294 490 313 47 29 29
442 844 127 113 85 63
404 635 200 45 35 37
334 505 314 172 14 54
464 430 190 93 31 37
399 50 200 121 102 78
381 385 212 101 85 68
306 917 275 128 105 84
305 205 260 115 93 70
400 59 194 88 43 29
403 865 151 98 78 66
403 46 215 107 95 83
304 310 290 131 100 72
404 45 220 90 74 59
339 860 265 84 63 49
354 418 130 81 57 43
394 85 188 145 27 48
375 679 302 131 16 43
423 250 216 127 98 63
402 425 137 143 0 35
402 41 221 108 95 82
399 359 213 92 81 70
404 40 225 88 70 53
482 649 202 135 95 67
425 570 189 150 1 36
440 409 220 113 96 79
406 44 224 85 41 39
326 452 200 63 28 32
448 600 215 43 33 37
455 740 150 60 49 42
408 46 226 101 42 42
309 495 185 109 12 32
348 355 318 141 98 75
407 47 222 84 50 44
276 555 245 93 28 39
401 54 199 114 93 67
405 55 205 93 75 54
404 60 195 84 46 25
301 375 266 116 93 67
399 135 211 130 99 61
406 59 200 77 50 24
419 610 196 87 34 40
374 413 165 93 79 64
405 65 194 103 48 37
414 445 146 93 30 38
459 861 260 81 63 53
407 62 197 89 47 29
366 731 312 185 5 59
412 413 157 129 61 41
407 66 196 110 48 42
407 57 205 86 56 23
462 762 238 150 105 78
494 536 260 78 23 36
375 911 179 79 71 70
351 290 296 120 93 61
408 60 205 101 43 35
392 864 153 92 71 59
463 417 239 60 47 42
388 474 137 156 0 34
374 55 259 126 43 54
410 65 205 117 40 44
404 245 264 128 101 72
273 440 306 81 19 34
405 50 215 92 74 51
356 868 302 140 113 83
318 750 213 55 31 33
406 54 210 81 61 38
280 565 270 133 14 43
334 851 250 188 129 100
407 56 210 93 46 33
321 944 226 78 72 73
403 29 265 142 64 71
406 53 213 95 62 39
271 620 286 157 112 79
430 905 306 55 47 42
414 412 160 141 56 41
442 742 118 72 54 43
381 730 302 176 18 56
408 55 215 97 39 37
344 770 301 83 67 60
407 52 216 83 47 30
449 615 260 163 22 55
301 231 263 118 94 68
310 470 190 56 29 31
315 176 258 106 88 70
390 630 297 58 27 33
406 48 219 73 54 34
419 891 294 38 35 35
424 525 166 99 26 40
400 34 228 112 98 83
408 51 220 71 43 30
358 884 214 47 43 47
393 230 256 120 97 72
408 50 225 106 42 37
354 590 307 177 10 55
384 660 198 116 13 27
384 655 198 121 13 30
443 425 273 133 22 43
393 245 257 112 90 66
366 510 312 57 23 30
334 24 270 185 135 146
393 38 263 141 16 52
409 55 225 119 35 45
409 60 215 112 49 49
410 855 150 109 87 70
399 45 255 132 108 86
447 754 263 84 29 41
499 645 220 197 139 108
379 20 284 161 113 97
344 767 208 71 57 49
390 60 256 122 96 73
479 545 275 58 30 35
394 55 255 126 90 71
379 55 260 125 39 52
444 411 190 141 48 47
553 456 230 55 36 32
496 444 213 53 35 36
414 359 214 92 82 73
454 832 264 58 46 38
454 695 135 109 76 48
410 409 189 95 79 61
312 675 239 84 25 34
395 50 257 121 26 48
275 725 261 124 95 61
303 400 311 112 89 67
414 864 170 64 56 56
369 21 285 178 128 120
401 50 252 126 30 52
386 176 217 123 92 53
424 415 149 131 17 31
397 58 253 126 103 79
410 551 168 73 34 38
266 509 328 172 125 102
394 60 254 131 104 78
396 61 252 122 98 76
274 780 299 167 120 91
399 60 250 109 61 53
449 928 279 96 76 58
396 65 252 115 77 60
399 65 250 125 34 51
307 919 286 135 111 92
424 759 279 91 71 63
329 445 190 61 27 30
314 185 261 108 91 74
293 500 199 83 23 31
432 628 212 72 30 35
280 550 230 63 30 36
445 855 244 64 50 51
406 39 229 81 47 30
408 35 235 99 33 32
491 428 246 67 15 24
429 411 185 115 74 62
391 445 133 150 0 36
436 727 152 44 39 33
368 490 313 97 24 38
302 258 277 121 94 66
398 750 179 48 40 38
404 219 208 123 96 61
283 640 273 122 91 59
407 37 232 96 39 32
409 40 235 93 39 35
374 12 275 138 71 72
418 645 279 64 30 34
287 555 219 110 31 41
329 20 274 127 74 60
317 935 235 58 55 57
409 45 230 96 38 37
292 493 203 90 27 28
566 468 229 58 33 37
409 35 240 98 44 37
440 445 169 94 35 38
323 864 274 137 111 88
319 230 284 112 93 73
288 505 204 91 24 33
378 403 267 58 47 34
430 897 303 43 39 38
398 113 202 152 58 63
413 250 263 128 99 66
308 428 129 73 34 36
409 40 240 114 43 46
273 555 290 104 36 44
409 45 235 113 31 41
403 40 254 131 36 54
282 464 291 66 29 32
440 611 276 194 14 61
339 305 324 121 92 65
430 350 240 119 95 69
407 34 254 135 102 89
503 763 216 79 63 49
293 455 223 60 34 33
408 35 250 126 30 47
324 27 262 138 97 75
329 205 271 110 90 68
468 605 235 91 25 40
337 967 238 79 76 79
405 41 251 124 28 47
462 726 162 55 44 37
425 315 256 129 98 64
407 44 244 126 100 84
279 490 295 97 22 36
301 260 251 144 103 72
312 893 292 155 116 95
314 755 301 148 110 83
349 260 265 103 80 52
409 40 245 121 44 52
400 41 256 136 77 72
456 770 242 127 89 60
431 374 229 108 88 67
478 805 215 127 86 68
422 268 217 129 96 58
314 385 246 102 86 70
424 846 240 32 29 28
275 775 251 151 106 70
402 44 253 135 111 90
329 516 148 152 17 43
336 22 271 165 116 107
404 45 250 120 53 54
401 47 252 119 100 79
445 521 185 52 33 37
407 43 248 111 26 43
455 413 225 64 52 42
399 355 214 92 81 71
408 50 240 131 28 48
408 55 235 121 37 50
350 370 316 146 102 78
378 779 189 59 48 46
420 905 256 61 54 56
346 289 305 112 88 59
385 95 200 142 12 40
401 475 297 63 26 31
359 805 285 132 98 83
358 821 213 79 62 55
340 425 210 74 62 52
296 770 232 58 50 49
404 60 240 113 38 48
443 605 211 104 32 42
406 57 237 127 16 47
382 13 294 160 28 60
406 60 237 120 15 43
429 700 196 55 45 42
404 235 208 126 96 59
342 880 243 129 102 75
304 800 304 180 134 104
319 930 235 60 57 59
409 55 230 121 98 82
329 759 308 74 63 59
278 805 260 185 124 93
409 60 230 123 36 48
344 650 210 130 2 31
427 295 235 123 96 63
415 770 276 87 66 57
403 55 245 121 70 64
385 140 235 111 87 63
418 345 270 125 93 60
347 211 258 111 88 60
407 48 243 124 78 72
403 50 249 134 21 51
356 412 202 85 61 48
405 910 214 67 60 61
327 967 302 66 60 58
329 310 324 137 95 76
402 60 245 112 34 45
403 840 249 141 110 92
459 895 290 86 67 55
401 60 247 113 29 43
401 224 207 126 97 61
389 971 255 87 82 84
344 315 324 133 91 68
371 385 245 73 61 48
374 740 191 57 34 37
401 66 246 113 67 61
437 744 156 48 40 33
465 581 272 57 29 35
293 735 250 41 33 36
399 190 256 121 98 73
450 425 174 94 32 40
389 70 186 124 34 34
386 74 187 139 13 33
434 390 235 102 84 65
389 75 186 139 25 38
319 495 160 38 26 26
394 70 185 112 41 35
429 931 297 57 49 43
391 130 248 118 93 68
386 120 221 116 83 53
400 70 189 119 31 26
432 380 230 107 88 66
471 617 207 98 79 57
304 500 314 74 28 35
398 75 186 134 25 33
395 83 187 137 27 43
493 856 265 80 62 51
400 80 188 142 22 39
340 938 207 85 74 72
399 90 191 151 30 49
349 650 302 172 14 53
427 320 235 116 93 66
469 570 222 39 33 36
439 815 245 83 66 57
403 70 191 127 31 35
299 735 303 177 122 96
399 195 211 121 95 63
454 724 130 93 74 57
381 813 177 61 52 52
403 75 191 134 26 39
386 88 192 160 14 44
284 690 265 124 94 58
358 441 123 145 2 29
386 145 240 109 86 62
389 95 194 152 16 44
372 360 250 77 64 51
293 400 285 110 89 65
256 426 299 166 3 58
400 96 194 135 52 55
326 371 247 92 80 68
333 444 200 61 29 30
406 75 194 134 27 43
308 590 200 183 12 47
481 730 215 146 98 66
336 427 163 56 30 30
410 570 297 162 12 50
407 75 196 137 26 46
399 330 217 86 75 65
483 504 226 141 13 38
287 586 238 170 9 41
434 740 160 36 33 32
566 473 223 79 59 48
430 831 117 141 105 70
411 70 204 129 43 51
411 134 235 113 93 71
440 875 220 71 60 61
409 75 200 136 30 48
374 415 135 105 64 47
409 80 200 142 31 48
406 107 215 111 77 61
422 912 241 64 56 59
259 485 334 177 124 107
411 75 205 139 31 52
411 70 210 117 28 43
410 70 215 114 23 40
364 595 308 174 11 54
268 770 291 167 116 89
394 964 275 65 60 59
412 70 209 121 30 46
409 70 225 120 37 47
431 650 261 165 18 51
382 774 288 85 66 58
409 95 235 116 36 47
433 385 225 104 86 67
324 420 323 113 24 41
280 815 265 197 133 104
359 613 192 176 3 36
418 175 225 123 101 77
410 75 210 117 61 59
289 735 304 172 121 95
409 75 220 105 54 50
349 764 304 89 71 63
410 80 225 106 37 42
439 846 268 41 35 31
400 105 246 121 96 70
405 85 195 151 24 50
349 720 200 133 6 32
392 166 213 127 95 56
425 650 271 163 13 49
375 370 265 65 54 43
408 85 200 148 30 52
389 220 250 116 93 69
404 120 245 117 94 68
435 395 265 128 99 65
302 637 260 133 33 55
440 475 169 64 35 36
398 330 218 85 75 65
402 88 192 154 20 45
403 95 196 143 22 43
406 91 199 141 25 48
398 960 250 80 76 78
388 27 276 149 32 60
488 534 273 42 29 31
389 710 304 136 29 53
404 205 258 124 100 74
399 305 216 96 81 65
265 750 265 156 109 79
390 350 278 106 76 55
272 540 270 140 3 39
407 89 201 143 24 48
406 96 203 138 30 47
423 210 220 119 96 71
324 182 263 109 90 70
394 375 210 95 83 70
319 515 170 73 16 29
329 325 324 132 95 71
410 85 220 103 58 51
410 85 225 113 34 43
319 355 254 99 83 67
288 595 240 77 30 38
409 90 210 108 49 47
399 165 252 119 96 71
430 616 282 158 28 54
308 905 275 186 135 117
408 95 215 122 55 55
409 90 220 128 29 46
384 425 305 46 29 30
409 95 220 113 74 60
410 95 225 116 88 68
400 70 245 111 90 72
509 781 228 79 61 44
393 70 253 117 22 45
396 70 252 122 24 47
380 915 167 82 72 71
329 705 210 88 27 33
300 440 140 50 30 34
458 745 151 54 44 39
510 779 227 78 61 47
398 70 249 118 31 47
428 255 221 126 97 61
278 470 285 86 23 36
338 349 258 93 78 62
392 80 253 119 22 45
350 355 316 140 98 75
389 665 296 123 22 44
398 75 249 120 22 45
389 85 253 123 25 47
389 89 253 126 23 48
389 91 252 117 32 46
304 825 245 86 66 60
389 95 251 118 87 68
368 735 193 59 32 36
394 85 251 112 83 63
464 435 260 122 17 40
421 195 219 116 95 72
344 475 316 120 21 44
400 90 246 108 38 42
364 917 188 86 78 76
369 495 138 73 33 39
294 590 310 156 114 89
300 250 270 120 95 66
422 786 148 57 43 33
292 743 243 117 40 50
394 90 251 115 42 48
318 760 213 73 42 44
304 275 285 122 94 65
469 540 280 69 29 35
407 70 230 108 83 65
406 70 235 110 78 64
388 360 277 92 68 46
419 889 291 38 35 33
506 542 243 78 25 31
407 70 233 118 96 74
441 640 245 173 8 55
301 225 259 115 93 68
323 370 322 138 102 78
399 710 301 33 29 30
395 965 255 89 83 86
418 195 250 120 97 71
406 70 232 119 98 75
430 360 255 122 97 68
494 470 260 134 25 46
419 395 210 99 85 71
364 660 303 169 11 53
404 70 240 111 44 48
274 695 285 148 101 71
407 75 233 114 95 77
404 75 240 125 26 49
308 925 265 161 128 103
450 526 199 140 2 36
321 456 172 73 24 32
440 768 116 97 69 54
409 80 230 104 38 42
301 269 256 146 104 74
409 710 299 82 30 40
402 70 243 102 81 64
402 75 243 114 45 50
409 305 216 99 82 65
380 350 225 94 79 62
312 534 167 132 2 39
378 401 304 59 48 38
309 475 200 41 32 32
349 455 317 160 19 52
409 420 139 137 7 35
393 235 256 120 96 72
288 560 220 73 32 38
472 442 258 142 14 47
349 555 309 58 29 33
391 867 152 105 83 66
402 80 243 117 17 44
312 511 148 173 4 40
379 860 185 41 38 40
408 100 215 107 53 49
287 545 214 166 9 41
499 486 230 106 21 33
407 85 234 104 56 51
413 564 177 75 28 34
372 32 267 130 78 70
404 85 240 101 54 50
487 680 207 164 110 79
474 735 229 173 122 94
285 428 346 48 22 20
424 720 295 105 27 45
406 95 241 113 31 43
384 959 314 69 61 58
378 390 280 61 50 39
407 95 239 113 33 43
316 877 267 148 117 89
404 505 154 131 12 37
354 540 310 44 28 30
374 20 285 175 123 106
455 601 223 79 23 30
359 557 163 156 17 40
420 409 282 118 87 62
402 85 243 103 19 37
442 868 237 70 60 68
332 557 307 137 18 44
344 550 160 116 27 41
353 285 275 101 81 60
403 90 244 106 30 39
396 289 217 110 87 62
489 500 265 141 8 42
309 345 265 111 90 67
386 99 201 138 13 38
437 947 293 50 41 34
304 455 147 96 13 33
388 105 200 145 18 44
307 379 253 108 89 68
420 925 260 57 51 55
385 125 240 116 88 67
414 925 235 63 54 54
339 830 275 106 76 62
384 598 182 115 26 43
296 416 232 92 29 35
432 845 245 44 37 34
402 130 212 123 97 63
438 460 167 90 36 36
405 455 143 150 1 33
497 553 222 163 24 45
390 105 197 151 17 45
379 880 284 143 111 84
278 500 220 140 3 36
388 570 303 166 0 52
386 105 205 138 18 41
421 358 218 94 84 74
389 110 200 152 21 44
449 415 260 69 59 49
388 111 205 153 31 52
358 385 245 115 91 72
394 406 190 93 79 64
277 464 298 72 27 32
394 109 197 120 89 80
544 515 239 165 132 116
301 222 258 115 93 69
287 408 276 75 65 54
432 803 253 74 56 48
324 770 304 64 54 51
398 109 197 118 95 85
399 111 199 145 59 60
301 372 267 118 95 68
329 27 262 122 82 65
389 111 210 124 77 66
390 113 202 169 32 57
396 946 224 76 70 69
394 113 201 161 66 70
394 114 205 140 87 68
399 790 159 63 52 50
390 120 215 124 86 57
441 866 219 74 63 61
284 445 345 65 27 32
327 486 169 44 27 28
386 115 222 114 78 52
387 120 219 118 84 53
314 210 274 110 92 73
499 615 201 137 101 64
464 470 186 91 29 34
384 120 225 118 86 60
494 535 225 76 27 30
393 116 209 139 91 66
440 964 295 77 62 54
482 724 215 151 100 67
417 924 236 66 58 57
375 552 163 159 18 44
394 120 210 139 93 65
400 115 210 122 91 60
327 962 307 48 45 45
392 282 218 115 90 61
456 413 212 103 60 51
441 964 286 106 83 60
478 750 220 143 97 67
394 125 211 138 94 60
519 529 235 86 40 42
303 270 255 147 103 73
409 185 254 121 98 71
392 125 213 133 92 62
330 218 277 111 90 67
383 260 252 93 76 57
329 572 173 145 29 48
404 100 200 133 28 42
353 290 290 121 95 64
405 105 205 134 31 46
370 28 273 149 22 58
409 883 276 30 29 29
403 109 201 128 33 40
384 410 175 93 79 64
464 415 215 72 42 39
414 205 210 122 97 67
566 487 227 131 57 62
296 524 197 94 25 38
529 444 222 122 22 36
359 395 235 107 84 65
407 100 210 114 49 48
381 260 226 112 87 59
379 400 270 59 48 36
407 104 210 123 33 44
408 104 215 121 31 41
403 120 215 103 85 65
296 510 197 111 19 35
374 839 277 163 128 99
389 12 275 142 79 86
508 812 248 94 76 60
412 190 212 126 98 63
402 122 212 116 94 68
429 400 274 135 100 69
542 474 214 59 37 40
439 415 165 91 31 35
319 555 308 173 10 53
448 605 216 92 29 36
329 265 241 101 77 51
484 789 237 58 46 36
279 810 300 186 132 108
404 125 215 112 92 69
406 125 218 107 89 69
444 570 206 136 2 32
331 437 179 97 22 34
354 972 240 92 88 90
409 125 225 113 93 71
452 420 177 112 20 34
439 830 185 64 53 50
394 100 249 126 100 71
329 12 265 121 39 49
284 625 314 174 126 98
498 427 220 68 30 31
450 942 276 74 61 50
516 547 228 101 66 54
398 110 248 121 95 65
319 525 151 142 13 38
384 125 235 117 87 64
388 235 251 111 89 66
416 160 230 118 97 74
385 130 240 116 89 69
324 426 140 37 27 28
489 460 201 68 40 37
391 125 248 120 95 70
473 514 222 78 28 38
266 555 301 154 113 86
411 158 247 114 91 66
420 220 213 119 95 67
285 600 255 130 23 44
400 115 247 119 94 65
459 720 110 84 64 45
360 335 253 83 67 50
389 440 130 154 1 37
405 825 146 68 55 48
359 494 137 63 36 40
394 120 248 121 97 69
399 125 248 122 97 68
459 855 274 52 43 36
428 440 156 73 36 39
369 24 279 146 87 76
408 100 235 115 50 53
383 878 148 107 83 71
427 255 249 124 96 61
408 105 235 118 94 68
274 745 255 131 99 64
369 555 307 62 26 34
274 750 295 161 112 85
405 105 240 116 93 67
534 535 232 178 130 107
410 858 150 100 81 68
405 110 241 115 93 69
407 111 239 116 94 71
410 100 230 116 28 45
423 920 245 64 57 59
411 139 241 114 92 67
403 100 244 116 89 67
503 595 228 174 126 99
408 115 239 116 95 70
416 164 241 117 95 71
354 460 125 55 37 40
404 175 211 127 98 61
409 115 230 116 95 73
311 212 273 111 93 74
503 549 245 120 26 44
409 120 230 115 94 72
409 115 235 115 93 68
369 945 210 87 81 83
429 620 206 60 35 40
384 865 280 156 123 99
464 715 234 148 100 79
389 200 250 112 90 66
437 534 186 166 2 40
409 120 235 115 94 71
451 735 235 86 26 37
452 654 215 78 56 39
384 310 270 71 59 47
463 873 271 88 69 57
410 125 230 116 95 72
279 475 285 101 18 36
410 125 235 113 92 69
319 556 164 117 29 41
395 186 254 118 95 71
376 58 258 131 89 77
409 125 240 112 91 68
406 119 242 114 92 69
407 126 243 114 92 67
481 755 195 137 95 65
376 291 240 99 81 60
530 472 217 102 82 62
384 730 189 108 20 32
314 25 260 135 103 76
385 130 220 120 89 59
314 530 184 87 20 32
372 335 255 88 74 60
283 805 254 185 123 93
424 230 250 122 97 68
404 385 205 96 83 70
453 619 250 174 14 56
329 271 304 96 80 63
404 170 211 126 98 62
404 530 161 60 36 40
431 360 240 114 92 66
387 129 218 121 88 57
464 416 190 138 21 32
390 140 215 126 92 57
394 395 280 89 66 47
414 835 244 42 35 33
386 145 220 121 91 56
387 145 218 121 93 59
385 145 225 113 88 58
344 355 255 94 78 61
481 606 202 109 87 62
394 130 211 133 92 57
303 685 260 44 34 33
324 466 128 122 25 40
392 130 213 130 88 56
394 140 211 131 95 55
392 140 213 130 92 54
399 635 199 45 35 38
363 21 275 138 45 61
395 145 212 131 97 57
414 412 165 140 59 47
435 816 155 73 60 56
392 146 213 129 93 52
304 450 145 111 10 36
314 360 316 129 99 72
389 150 216 125 92 53
499 605 228 177 128 99
432 634 268 187 18 61
394 160 212 128 96 56
456 757 133 72 57 47
312 821 233 79 61 54
340 854 241 188 128 99
419 630 204 127 22 38
279 480 285 118 12 38
387 150 218 120 89 53
319 490 159 35 27 25
465 765 236 157 111 83
419 820 254 74 59 54
454 430 266 60 29 32
389 160 215 125 93 53
474 440 201 81 34 39
379 415 130 111 59 42
274 490 297 97 50 52
435 390 250 108 87 63
394 200 211 114 91 63
385 155 220 119 89 52
276 564 264 159 4 44
395 396 202 95 81 66
462 747 144 65 52 42
342 231 273 115 92 66
392 149 213 130 93 54
375 315 264 71 58 44
410 535 297 63 30 34
408 205 258 126 100 72
414 260 212 133 98 58
399 150 211 127 96 58
412 282 268 119 95 68
393 12 270 119 64 71
344 325 261 88 73 56
394 155 212 130 97 57
278 515 220 50 32 36
414 810 261 53 44 42
296 673 302 159 120 92
524 450 225 71 30 32
417 162 238 116 94 70
392 155 213 129 94 53
344 640 301 154 19 50
329 579 177 180 12 42
374 745 304 54 40 41
392 160 213 128 95 56
429 520 290 63 31 36
399 155 211 126 96 57
404 130 215 115 93 68
344 375 249 93 78 63
371 385 235 75 64 53
299 780 305 173 132 99
428 390 216 112 94 75
402 135 212 124 98 66
407 135 217 109 90 69
329 350 322 140 102 77
372 393 223 90 71 61
414 685 200 50 30 35
402 140 212 125 98 65
319 290 254 129 92 65
405 140 214 116 94 68
405 145 214 119 96 68
409 140 220 110 91 72
335 634 212 56 35 40
408 604 293 104 31 45
410 145 220 111 92 73
358 744 313 169 23 58
411 144 224 114 95 73
341 926 201 70 62 62
404 155 211 124 96 61
449 411 195 154 46 48
479 725 225 173 118 88
345 300 264 90 74 56
406 154 213 121 96 64
331 446 166 88 11 29
282 592 261 65 30 38
339 755 310 87 42 49
424 265 220 128 97 59
364 640 303 173 15 55
409 155 215 113 92 68
327 448 208 57 30 28
477 705 197 121 90 55
315 274 247 130 92 62
394 960 240 76 70 72
407 160 212 122 96 63
272 535 250 54 27 34
454 890 300 56 48 41
413 295 217 105 87 67
340 332 257 89 75 61
448 710 265 49 29 34
399 745 295 73 54 52
411 148 223 114 95 75
412 146 226 115 95 72
308 475 190 54 31 32
303 350 295 127 98 69
291 440 232 115 12 31
404 255 210 130 98 59
411 154 218 108 90 70
384 555 304 165 8 51
412 155 221 111 93 73
328 450 205 59 27 29
293 520 199 51 32 35
270 420 320 82 23 33
540 449 241 65 24 23
312 468 183 67 26 32
334 401 323 126 94 72
280 500 216 136 3 34
338 865 255 128 94 70
413 160 220 112 93 72
359 640 303 173 16 56
409 726 185 62 37 35
478 649 228 185 136 111
355 395 311 127 93 71
415 160 225 119 98 76
366 23 278 143 39 56
420 255 214 132 100 61
340 425 180 68 21 28
322 972 279 84 75 73
357 386 232 121 94 73
297 375 275 122 97 70
380 860 180 43 40 42
385 130 235 113 86 62
399 165 211 126 96 59
379 450 126 127 16 37
349 420 321 158 13 50
385 145 230 110 86 61
350 840 273 160 118 93
385 145 235 110 86 62
320 570 308 137 31 51
374 590 307 82 30 38
387 132 242 116 93 70
387 135 242 114 90 67
389 135 245 115 92 68
389 140 245 114 91 67
273 790 260 181 122 91
319 635 295 168 25 55
424 590 290 192 13 60
371 318 252 78 64 49
405 26 265 131 57 63
306 434 117 83 38 33
389 145 245 112 90 67
364 585 176 180 3 38
273 700 285 148 101 71
324 30 260 146 78 73
434 411 175 177 31 34
277 550 239 100 30 42
273 540 245 42 33 36
399 130 248 122 96 67
399 135 248 121 96 67
378 530 308 107 30 42
311 645 240 153 5 40
499 495 260 135 9 43
344 485 316 99 24 40
375 16 291 154 80 78
469 566 268 98 15 35
285 701 262 117 89 55
394 140 249 119 94 67
383 279 257 84 70 55
394 145 249 119 95 68
353 285 280 111 87 60
264 545 310 172 122 99
344 465 126 79 32 37
399 145 249 122 97 69
463 417 235 59 42 39
418 215 254 123 98 71
323 22 267 176 136 139
384 150 230 110 86 60
552 457 239 49 27 25
455 701 165 66 55 44
311 633 232 182 11 49
385 150 240 109 87 64
474 675 230 167 123 96
539 520 237 173 132 120
414 330 219 96 82 68
454 930 290 71 59 50
482 690 202 136 96 62
449 834 232 100 82 77
414 829 249 51 40 37
319 180 261 109 91 72
306 577 192 147 16 39
354 749 313 157 23 54
389 150 245 112 90 67
387 154 242 108 87 64
344 400 321 122 91 69
389 155 245 110 89 66
409 954 260 73 68 69
321 272 303 108 88 66
319 510 166 46 24 29
274 565 321 172 119 98
278 430 285 90 21 35
386 157 243 109 88 66
402 445 293 56 28 31
317 961 260 90 85 85
386 160 243 110 89 66
389 160 245 109 88 65
396 772 163 42 39 37
419 404 204 97 82 66
313 640 234 161 8 43
364 630 303 90 30 41
391 155 248 114 92 68
391 160 248 106 84 62
399 150 250 119 95 69
334 575 174 179 11 41
513 585 206 145 107 67
359 340 290 125 90 65
394 155 249 110 88 65
411 135 230 116 95 72
412 136 231 115 95 73
411 130 235 112 92 71
512 489 234 52 35 39
410 130 240 111 91 68
418 370 211 92 82 72
412 136 235 112 92 71
359 610 191 160 8 39
416 243 213 128 98 58
287 561 223 45 32 36
413 140 235 112 92 70
276 490 226 139 7 35
412 137 238 111 90 68
322 703 302 95 34 42
414 145 235 114 94 71
413 145 240 114 93 69
404 130 246 115 92 65
279 570 245 96 30 42
408 130 244 114 91 67
409 140 245 116 93 67
406 144 247 116 93 65
418 535 167 84 35 41
304 220 265 116 94 70
282 489 218 121 7 26
326 861 303 166 130 111
409 145 246 115 92 66
302 710 303 168 115 90
403 140 248 119 94 65
411 143 242 114 92 68
389 315 220 95 81 67
276 437 273 134 0 37
370 876 165 59 53 52
349 355 259 94 76 57
414 150 235 113 93 70
484 610 201 112 88 62
394 580 301 168 3 52
415 155 230 117 96 73
276 415 270 62 35 36
414 405 282 118 89 61
359 475 314 106 29 41
416 935 245 71 64 66
404 190 211 128 98 60
415 155 240 115 93 70
462 748 127 84 65 49
282 475 223 109 16 28
319 584 181 204 11 47
404 150 249 119 94 66
408 151 248 116 93 66
370 412 180 94 79 65
329 190 265 109 89 68
284 465 317 63 27 31
408 155 249 116 93 66
409 160 249 115 92 65
366 905 307 157 117 93
412 150 244 116 94 68
324 350 321 135 99 73
413 155 245 117 94 68
309 570 303 51 28 31
353 350 314 140 98 74
387 165 218 123 91 50
465 949 280 84 73 62
281 447 237 125 12 32
327 670 297 132 23 46
334 13 270 121 38 49
390 170 216 125 93 54
461 507 194 116 25 46
389 175 216 126 94 53
374 480 310 37 29 31
273 450 305 68 22 33
319 430 221 71 30 28
388 170 218 124 92 53
266 575 309 162 117 91
432 475 162 73 37 37
287 420 239 76 35 37
302 610 303 149 112 92
395 165 212 128 97 57
349 752 312 65 30 37
399 800 156 51 43 41
361 370 283 102 75 53
436 399 225 89 76 63
414 955 300 79 66 58
439 929 299 65 54 47
395 175 212 128 98 58
399 170 211 127 97 59
264 454 320 79 66 51
417 166 227 121 99 76
434 840 191 56 45 45
309 360 260 111 91 68
399 175 211 128 98 60
409 745 175 48 38 40
480 730 205 139 94 63
369 480 311 78 27 34
277 413 300 62 54 45
389 180 215 129 96 56
