ply
format ascii 1.0
comment Created by Open3D
element vertex 2202
property double x
property double y
property double z
property uchar red
property uchar green
property uchar blue
end_header
314 409 361 109 81 57
319 473 383 69 24 30
256 904 267 70 64 64
338 89 323 109 52 41
341 89 324 109 87 63
314 884 375 59 53 53
343 89 326 110 82 62
270 685 267 90 27 34
338 93 323 111 54 41
337 179 346 129 99 64
340 94 324 114 63 48
266 479 374 104 18 36
269 489 376 38 29 30
259 589 280 70 35 36
357 99 356 130 18 43
297 714 245 130 10 39
343 94 327 113 64 51
332 169 259 123 96 64
262 675 339 140 105 79
416 694 246 110 75 50
294 344 349 122 97 69
364 401 306 71 61 52
264 609 281 99 30 38
345 94 331 120 45 44
293 803 359 132 93 70
346 84 329 120 27 39
325 354 306 89 74 57
347 84 331 123 25 41
338 164 351 130 98 66
279 289 273 100 81 62
330 433 192 58 35 39
348 84 336 116 54 49
320 294 305 104 87 70
427 418 311 171 17 50
249 634 327 130 100 70
317 658 234 118 9 30
318 229 265 131 96 69
339 739 346 88 26 38
347 87 332 121 21 37
348 89 336 126 37 47
294 932 349 68 65 66
346 91 334 117 64 53
284 359 220 95 83 71
312 278 241 127 92 65
320 828 341 33 30 29
299 289 295 88 71 51
351 84 340 115 71 56
351 89 340 132 40 50
319 924 257 77 70 73
351 95 344 113 65 54
270 363 223 114 89 60
387 659 261 111 24 38
327 69 357 100 50 49
325 74 355 94 56 49
327 73 357 92 27 35
355 455 390 102 3 31
317 376 228 92 82 72
329 74 361 101 34 42
282 831 338 37 31 31
294 224 315 97 80 62
309 914 352 55 50 47
294 334 224 102 84 64
326 76 359 97 22 37
289 299 275 98 79 60
274 719 257 65 33 38
326 79 359 94 28 35
328 79 361 90 36 38
331 69 364 95 27 39
333 69 367 96 36 43
377 857 282 70 58 53
365 629 317 98 34 46
331 74 364 103 35 46
301 836 363 31 28 28
331 79 365 95 32 39
331 124 329 119 92 64
235 560 284 129 99 73
250 938 277 78 74 74
333 79 367 99 31 40
273 407 225 133 118 126
276 861 353 42 39 38
399 400 276 119 12 34
383 818 206 212 142 111
336 79 369 103 26 41
355 764 327 74 56 48
322 84 353 103 66 56
320 244 358 141 98 70
310 170 323 97 81 63
242 709 309 158 107 74
324 84 356 99 32 39
322 88 353 98 50 40
250 592 308 85 50 42
238 935 305 65 61 61
346 429 209 58 39 36
309 279 300 93 74 52
240 684 307 153 105 73
326 84 359 107 25 41
309 199 360 117 93 66
356 397 276 76 66 57
387 822 237 111 84 70
328 89 361 100 58 52
432 717 263 76 57 44
274 414 266 143 100 87
337 893 339 48 43 41
328 84 362 106 31 43
362 504 187 144 107 87
323 94 357 105 36 43
309 234 311 98 80 61
324 209 317 103 84 64
328 658 229 67 31 33
325 94 359 104 47 49
250 534 247 101 36 43
324 164 261 118 95 69
366 460 399 65 26 31
299 804 276 162 116 87
329 94 362 105 65 57
331 84 364 106 42 48
324 784 350 72 56 48
408 734 319 53 40 30
331 89 364 111 36 47
314 479 387 81 25 34
334 84 366 103 57 54
329 604 229 49 34 37
334 89 367 114 29 46
301 221 269 121 96 68
331 96 364 107 63 55
366 796 338 39 36 35
336 793 223 65 57 55
206 518 221 195 126 106
308 489 151 149 6 41
334 94 366 109 73 63
284 319 223 131 102 67
338 69 372 105 30 43
240 518 311 172 1 48
285 224 331 116 94 70
390 720 305 45 22 25
405 519 271 122 19 41
274 494 206 89 29 37
341 78 374 115 16 42
248 694 347 137 100 73
344 79 375 121 20 46
349 74 377 125 25 49
299 374 356 128 100 71
254 729 361 154 113 86
346 914 296 53 46 43
336 82 369 95 56 47
339 84 371 105 51 52
337 84 368 100 71 58
354 400 306 69 60 50
344 84 374 127 24 49
289 376 218 87 78 69
356 536 174 145 105 73
337 94 368 108 71 60
304 284 298 91 73 52
344 94 372 123 22 46
349 84 375 136 19 52
289 464 187 57 32 37
402 434 386 169 16 48
349 90 373 129 16 48
348 684 216 58 37 37
299 294 230 121 90 65
265 827 344 128 79 59
352 78 338 122 53 55
301 337 284 77 58 42
324 104 325 102 81 57
299 249 269 130 100 72
329 99 324 109 84 57
259 739 276 181 7 51
329 104 325 112 86 58
332 436 194 71 32 34
394 809 366 72 56 43
324 109 326 104 82 56
328 618 349 83 37 42
329 109 326 117 89 59
414 404 206 133 23 26
330 97 323 107 80 54
334 99 325 122 83 62
347 694 215 57 35 38
334 96 324 118 45 40
333 109 327 123 93 67
278 404 276 96 69 54
376 738 313 76 21 29
324 114 327 103 82 56
345 784 332 58 45 38
304 548 379 140 31 53
329 119 328 112 88 60
324 124 328 105 83 56
334 394 311 53 45 38
314 897 238 75 66 66
324 129 328 106 84 58
314 184 265 115 92 67
408 509 286 109 24 40
329 124 328 115 89 60
236 764 326 156 112 77
324 869 375 66 58 53
328 129 328 115 90 61
350 480 164 169 111 86
332 113 328 120 93 65
336 669 343 53 24 28
332 118 328 119 92 63
353 868 247 72 64 62
334 119 330 120 92 65
249 519 246 109 11 34
331 121 329 119 92 63
314 834 260 114 95 76
334 124 331 119 93 65
299 504 392 162 15 51
324 214 316 102 84 64
412 721 238 73 53 42
324 354 311 91 76 59
334 129 331 116 91 62
273 889 255 151 109 81
339 99 326 128 57 55
259 853 321 104 49 53
324 414 356 101 74 55
337 103 328 132 95 73
343 98 327 125 24 40
309 438 121 107 39 31
339 104 331 137 98 76
343 103 332 138 81 70
344 104 336 140 87 71
327 927 268 78 72 72
429 734 261 84 63 51
336 106 329 129 96 74
325 324 326 120 95 66
380 484 387 51 31 33
341 106 334 136 95 69
345 106 340 136 93 74
402 812 306 73 55 47
343 109 341 132 97 72
345 424 210 49 39 40
308 149 331 102 85 67
297 436 163 80 25 33
237 557 283 122 93 66
404 763 323 53 42 35
345 110 345 129 94 70
347 99 337 131 48 51
274 689 261 72 32 36
272 324 321 123 94 63
347 103 338 132 35 47
253 913 265 63 59 61
348 104 341 132 46 52
351 99 345 109 68 51
350 104 346 133 39 50
306 300 244 124 91 65
347 107 343 136 93 73
348 108 347 136 88 71
357 812 350 38 34 32
304 199 317 96 80 62
337 114 332 122 92 66
349 699 340 140 16 47
339 114 336 129 97 69
337 118 333 120 92 64
339 119 336 124 96 65
337 124 333 118 92 64
269 825 321 84 59 51
271 411 192 149 9 25
344 114 346 113 86 58
382 634 294 157 18 51
343 119 346 115 91 62
354 429 215 56 39 35
284 855 356 51 47 44
341 129 340 122 97 68
280 284 302 93 75 55
264 389 231 112 88 65
331 164 358 125 95 62
258 334 229 128 98 61
230 569 266 173 119 87
342 129 343 123 98 68
308 476 134 189 10 42
349 439 366 101 8 30
343 124 346 119 94 65
348 889 326 46 42 40
360 820 331 36 32 31
356 714 198 150 105 69
343 129 346 120 95 66
346 115 350 109 82 55
236 679 321 155 107 77
344 124 351 115 88 55
270 429 192 48 37 40
323 99 356 113 60 56
297 183 329 113 94 75
254 659 336 144 104 77
322 101 353 115 92 68
322 104 353 116 94 71
391 585 302 183 7 57
271 529 374 122 16 42
239 624 316 144 108 78
284 739 262 79 61 54
326 419 194 43 38 41
328 101 358 110 77 63
389 764 320 50 40 32
254 818 355 189 130 107
436 702 277 70 51 40
359 519 176 132 101 69
309 454 120 172 9 34
322 109 353 115 94 72
334 103 361 100 72 57
395 800 361 77 62 49
406 776 350 67 55 44
294 376 218 91 81 72
429 434 206 172 17 39
331 99 364 106 23 39
313 249 308 97 79 59
360 504 204 57 32 30
289 929 255 82 75 77
331 102 364 106 49 49
419 499 227 99 29 36
258 414 201 120 17 34
328 374 316 81 68 55
249 543 284 89 12 32
334 99 366 107 35 44
329 119 357 109 88 63
321 130 354 111 89 65
324 129 356 111 90 66
329 129 358 112 90 64
274 904 246 55 50 52
290 214 260 115 95 73
334 114 358 106 84 61
284 269 220 132 99 63
422 747 258 93 67 54
334 119 358 108 86 61
419 690 286 63 50 40
288 765 269 78 61 53
341 107 366 108 73 60
260 389 251 138 98 79
333 375 280 88 74 59
344 110 362 129 89 72
297 873 251 54 52 54
263 369 230 118 91 62
349 110 361 119 80 69
410 509 310 146 20 46
396 434 374 72 24 35
350 111 356 125 84 66
301 468 141 111 17 30
306 473 133 187 10 48
352 688 204 136 100 69
339 484 396 138 14 42
336 101 369 102 10 35
307 293 243 132 94 67
250 909 272 65 61 62
344 99 372 117 18 44
365 814 336 41 35 32
349 99 372 125 21 47
344 659 337 70 25 35
387 618 247 33 31 35
360 80 350 150 16 46
349 104 371 122 21 46
256 522 221 108 27 38
328 394 345 113 89 64
333 749 350 124 18 43
349 108 370 129 37 54
449 709 306 100 71 55
269 414 191 143 4 31
339 114 359 114 88 61
424 405 206 46 33 45
333 379 237 95 85 76
339 120 358 120 92 65
261 418 198 112 10 32
329 199 356 125 96 61
240 612 278 173 119 86
344 119 356 132 94 68
314 565 373 191 14 60
352 441 182 97 83 69
342 117 359 137 95 70
314 349 346 117 93 65
226 534 256 158 111 81
289 319 281 83 67 50
304 249 269 132 98 70
339 129 357 130 96 67
269 779 367 182 132 103
296 276 268 134 93 70
378 689 310 136 14 44
343 124 356 133 95 67
337 932 288 74 67 66
347 112 359 138 96 76
266 350 320 118 93 65
353 69 337 128 34 46
306 484 146 164 0 42
356 70 339 128 37 46
363 874 277 77 66 63
299 436 118 78 35 30
359 69 341 105 43 43
319 289 341 141 105 79
309 294 297 91 74 54
358 73 342 138 27 47
316 447 144 96 27 25
266 733 268 153 1 39
359 79 346 133 30 48
328 369 316 85 71 56
377 437 393 101 10 31
264 839 316 127 91 72
335 846 228 87 67 51
362 68 343 133 24 43
262 384 234 124 94 68
319 154 356 109 88 66
252 541 294 125 0 39
364 69 346 136 21 44
361 70 344 139 28 48
245 534 246 144 87 78
367 73 352 147 17 46
381 786 189 150 103 63
352 84 342 122 50 52
358 83 347 136 18 43
294 271 219 144 105 68
254 799 362 170 117 92
369 774 187 132 98 57
330 154 358 120 93 62
352 92 343 137 27 52
295 308 272 110 81 56
268 429 194 67 39 38
355 94 350 123 22 38
266 410 350 46 32 30
357 94 352 127 18 40
368 74 356 144 16 46
368 79 361 139 9 47
320 394 224 100 87 74
294 329 347 124 97 70
354 79 376 138 20 53
235 930 321 47 45 46
364 69 375 106 27 40
265 474 205 64 30 37
366 68 373 96 33 36
293 284 269 126 90 68
273 629 291 108 23 35
368 69 371 102 38 42
280 906 238 85 75 73
337 189 346 123 96 62
364 74 375 118 20 45
366 76 373 123 47 64
368 79 370 122 25 50
294 209 261 112 92 71
366 80 372 117 22 46
332 365 266 99 82 64
304 714 357 133 18 43
283 234 331 118 94 66
282 244 320 116 93 67
352 103 348 124 43 47
374 400 291 76 61 52
265 948 272 79 75 76
360 84 356 149 15 47
259 409 296 98 76 50
363 83 357 152 16 47
362 706 194 135 95 54
411 495 327 88 34 42
364 84 361 146 13 48
366 81 359 147 12 47
389 408 346 63 20 24
304 839 261 110 90 70
367 82 362 142 8 50
332 410 345 84 68 51
347 587 349 175 17 53
424 449 212 171 16 38
333 159 259 119 93 61
367 83 366 137 17 51
347 753 339 156 12 50
310 709 217 148 1 41
318 474 132 71 35 39
319 169 360 114 91 65
322 335 334 122 96 66
402 739 211 160 115 85
365 489 186 149 107 85
382 622 299 149 17 54
301 394 214 94 83 70
364 89 366 141 22 54
347 887 329 50 44 41
366 85 366 139 18 53
329 169 260 120 94 64
354 88 374 137 6 50
258 339 229 130 98 60
358 88 374 135 13 50
347 488 163 149 106 77
397 793 208 175 121 92
354 90 373 135 7 49
265 754 282 82 66 62
328 219 260 129 99 72
329 504 394 155 18 51
354 94 372 132 16 49
433 763 292 91 70 55
264 748 277 81 63 57
381 500 359 61 21 24
337 154 354 130 97 67
360 90 372 134 28 54
363 88 370 140 22 56
379 438 397 110 12 34
303 154 341 111 91 68
365 84 371 132 24 54
268 594 270 103 27 39
367 82 369 132 26 53
304 399 360 118 92 62
281 468 193 44 40 43
285 339 345 124 96 69
255 523 226 59 34 36
284 684 344 63 29 33
370 69 356 135 20 45
370 69 366 115 27 43
231 589 295 147 108 78
276 598 263 49 32 36
299 404 214 90 78 65
289 449 186 133 3 34
360 453 196 45 32 32
330 159 358 124 95 61
400 439 391 173 13 53
437 434 216 165 16 45
361 816 338 38 33 32
272 379 224 98 80 60
370 74 361 133 11 46
363 494 186 151 109 87
352 99 347 97 67 47
254 934 271 68 64 65
289 284 221 140 103 71
325 339 316 101 82 63
355 99 351 118 36 42
300 414 376 88 20 33
245 529 321 70 25 35
348 458 382 105 3 31
314 204 316 97 81 63
279 404 356 98 79 61
353 108 352 137 41 51
259 789 365 172 120 94
358 99 361 135 20 47
262 407 234 131 91 63
319 853 255 90 76 63
326 661 228 101 22 34
356 101 354 132 17 41
356 105 355 137 21 46
258 489 366 131 12 44
348 395 242 109 96 83
357 104 361 138 21 46
247 913 341 77 55 52
357 104 366 140 90 94
396 816 308 62 51 44
379 764 317 41 33 29
268 739 360 154 111 82
291 431 145 139 4 43
349 494 167 158 110 82
354 109 356 143 40 55
354 109 366 140 96 95
356 105 368 128 118 118
358 813 345 44 37 34
357 107 364 114 57 54
370 860 327 45 40 39
354 99 371 125 33 53
353 108 369 124 52 59
382 803 384 78 62 49
323 489 142 72 32 41
239 581 299 122 95 69
320 154 259 110 89 66
310 764 241 75 63 59
302 183 258 108 89 69
288 304 223 129 98 65
305 184 260 108 89 68
390 679 286 39 28 28
300 190 259 108 89 68
321 851 228 74 63 55
276 422 188 120 7 29
304 189 261 110 90 68
308 173 258 108 89 69
260 349 270 131 93 75
324 564 372 165 19 55
313 164 258 108 88 67
296 452 178 141 2 35
273 379 281 104 70 55
315 165 259 108 88 65
320 454 141 97 22 31
254 524 236 132 14 36
256 845 315 143 43 71
295 864 379 47 43 41
249 649 295 155 107 84
280 927 354 72 68 68
277 389 219 78 68 57
312 167 258 108 88 68
338 199 341 121 96 67
319 739 215 96 33 40
304 379 220 95 84 75
389 774 192 153 107 71
315 329 300 86 73 58
314 169 260 109 88 66
325 372 283 92 74 53
294 214 262 115 94 73
336 835 378 54 46 41
320 905 245 69 61 61
319 164 261 111 90 66
319 169 262 114 92 68
261 396 334 124 97 67
314 174 262 111 90 66
319 174 263 117 94 69
405 534 301 170 18 50
253 739 301 80 37 41
401 734 210 153 111 81
340 599 211 99 34 43
322 571 212 143 12 44
338 144 355 129 96 68
306 180 259 109 89 68
378 849 326 56 48 45
309 179 261 109 88 67
402 429 382 139 20 42
211 522 225 204 136 113
308 188 263 110 89 66
284 529 382 168 17 53
310 189 264 113 91 67
320 250 258 138 101 76
242 887 322 138 109 83
320 177 263 120 96 70
339 394 296 69 59 49
311 280 241 125 90 62
389 789 196 163 110 78
315 180 264 113 90 66
250 557 313 53 29 32
369 464 217 119 6 30
409 728 238 59 44 38
319 184 265 121 97 70
307 386 218 95 84 73
319 189 266 121 97 71
309 189 319 96 80 62
293 525 210 85 31 38
304 154 336 112 92 71
325 249 352 146 105 77
339 164 341 125 98 66
240 894 291 155 126 102
302 159 336 115 95 73
298 189 326 107 90 72
327 484 148 38 35 35
369 864 276 73 62 60
413 717 313 59 43 28
386 479 348 123 22 41
355 894 301 56 50 47
438 719 291 69 52 41
302 159 341 113 92 70
277 292 273 103 83 62
309 134 336 111 91 70
384 469 391 88 26 40
287 435 184 127 17 28
311 135 333 106 88 68
259 384 326 123 96 66
312 782 359 71 55 46
451 701 299 116 81 57
329 463 378 90 15 32
414 429 336 155 0 48
308 139 336 110 91 70
308 144 335 110 91 71
259 354 266 137 97 80
311 139 332 104 86 66
310 144 332 103 86 67
407 430 219 120 26 39
424 774 331 75 61 49
326 359 321 103 84 63
242 593 308 118 90 66
284 819 300 43 37 42
319 134 328 98 80 59
307 309 246 118 90 62
319 139 328 97 79 59
393 778 322 42 36 33
324 584 226 124 14 37
319 144 327 95 78 59
389 474 347 138 15 44
313 139 330 99 82 64
315 139 328 97 80 61
266 662 333 127 92 74
315 144 328 94 78 60
309 134 341 109 89 67
397 715 207 129 98 66
307 139 341 110 90 69
260 374 261 147 104 88
306 141 338 111 91 69
278 825 305 56 49 47
390 404 218 123 24 37
245 739 359 160 116 89
306 144 337 113 93 71
432 743 277 91 70 57
306 144 341 112 91 69
307 142 342 111 90 68
352 838 249 58 49 51
384 544 331 93 27 39
311 141 349 111 92 72
311 145 349 111 91 70
209 514 210 204 135 120
314 134 350 110 90 69
299 689 237 134 12 39
300 440 112 106 31 40
387 609 242 43 32 36
318 134 353 112 90 66
241 813 345 190 127 103
312 138 348 110 91 71
408 499 306 137 18 42
280 508 207 183 11 42
242 862 314 73 58 41
314 139 350 110 89 67
333 224 322 117 95 71
310 150 328 98 81 64
262 424 348 123 23 43
245 803 317 152 112 79
306 150 333 110 91 71
310 154 327 98 82 66
264 408 211 111 45 44
289 844 327 91 70 56
259 439 200 58 35 37
305 154 332 109 90 70
250 894 356 45 42 43
340 810 322 30 28 27
326 774 228 91 72 61
319 249 260 137 101 75
307 153 330 102 85 68
314 154 326 94 78 60
394 725 315 49 38 29
304 412 190 89 75 62
314 159 325 95 79 62
309 259 357 147 102 73
256 529 359 44 25 32
341 774 213 143 103 65
278 630 343 60 29 32
292 219 347 111 90 67
319 159 325 99 82 63
324 479 386 42 28 28
306 145 344 114 93 71
341 794 332 46 38 32
306 149 345 113 92 70
326 354 331 115 91 64
290 439 181 69 27 33
298 189 346 113 92 70
308 149 347 111 91 69
316 537 188 143 7 42
310 149 349 110 90 68
326 353 256 102 85 67
402 451 271 44 31 33
406 529 291 167 19 49
309 159 351 111 91 69
314 149 352 111 90 67
246 516 241 102 12 39
387 817 212 199 134 103
324 547 379 77 26 36
313 154 352 110 89 68
320 134 354 110 89 66
399 814 256 103 78 58
318 139 353 110 89 66
422 767 283 82 62 52
329 209 261 127 98 70
320 139 354 111 91 69
234 794 331 172 121 90
407 466 244 144 8 46
319 144 355 109 89 67
396 596 249 46 30 34
303 409 371 118 20 37
323 434 181 77 32 31
266 359 298 108 82 52
284 864 375 48 40 35
380 519 351 162 18 50
316 150 354 108 88 67
267 550 363 151 28 56
298 450 152 38 30 32
315 154 354 108 89 68
312 158 353 111 91 69
253 689 300 100 59 46
318 259 355 149 103 77
314 159 355 110 90 69
250 919 266 72 67 69
303 164 331 109 91 72
334 824 341 33 30 29
301 161 337 114 94 72
354 813 351 39 35 33
295 444 156 118 11 34
300 164 336 115 95 73
327 277 325 131 101 72
283 334 223 126 98 64
312 331 247 101 84 67
258 389 305 114 88 57
381 529 342 134 19 45
302 162 334 116 96 75
319 344 251 99 83 67
300 169 331 113 94 75
239 649 295 185 125 96
346 700 213 36 38 42
304 169 327 100 85 68
318 264 246 135 93 67
319 508 152 80 35 39
294 239 311 97 80 61
408 413 344 100 19 37
244 699 305 151 104 72
407 762 216 154 105 76
304 174 325 101 86 70
380 669 200 119 90 56
315 249 309 98 79 59
360 504 181 140 103 77
339 469 386 99 11 32
299 174 331 114 95 75
354 489 170 149 106 76
263 404 234 138 92 51
302 163 343 114 92 70
331 880 362 48 43 42
313 858 251 75 66 61
300 169 341 112 92 71
319 234 312 100 81 59
301 166 344 114 93 70
376 599 224 56 29 35
301 169 345 114 93 71
323 853 379 58 52 51
303 169 347 114 93 70
301 174 345 114 94 72
384 445 224 112 25 37
265 479 205 89 33 37
287 218 325 116 95 73
304 174 351 112 91 69
295 184 336 113 93 71
296 190 328 113 94 74
368 838 355 59 47 40
299 184 326 106 89 70
316 820 343 47 40 36
350 694 206 129 92 66
304 384 218 95 85 75
304 179 323 99 84 67
274 344 281 113 78 62
271 397 264 148 105 90
307 173 353 112 91 69
214 523 221 220 143 122
293 269 353 139 101 76
303 178 324 101 85 69
274 344 336 128 101 73
338 169 346 126 97 64
297 178 336 113 93 70
320 419 363 117 12 38
255 874 329 159 118 102
296 180 332 116 96 76
271 404 228 193 157 183
444 746 290 96 72 54
300 189 322 101 85 69
384 399 266 116 30 35
334 405 211 76 64 61
295 189 341 115 93 70
381 658 298 101 18 39
296 181 339 112 92 69
378 619 226 144 105 84
298 454 379 65 27 33
301 180 349 113 93 73
297 188 343 114 92 68
351 680 208 115 89 62
262 391 244 123 91 69
429 449 212 170 17 39
300 189 350 112 91 69
299 839 262 127 103 80
312 254 264 136 99 73
314 164 324 97 80 63
354 894 286 74 65 62
294 529 212 57 33 37
228 514 258 126 99 81
248 544 326 144 9 44
273 538 243 67 33 40
314 169 323 97 81 63
294 319 347 124 96 70
310 417 180 85 47 34
315 166 323 98 81 63
308 319 298 83 67 50
327 478 148 46 32 32
312 167 324 96 80 63
279 294 296 87 69 49
319 164 324 100 82 63
231 598 278 168 115 80
312 678 229 107 18 28
352 441 195 78 68 58
294 399 360 121 95 69
337 214 341 129 100 66
318 166 323 99 82 64
319 174 322 100 83 64
248 608 278 153 101 74
327 898 248 67 58 59
333 154 259 120 93 63
319 595 229 58 27 30
308 169 352 112 91 69
309 179 322 96 81 64
319 184 320 98 82 64
420 771 337 72 59 47
384 664 251 79 28 37
286 219 331 117 95 71
360 869 326 44 39 36
344 853 369 69 56 48
310 169 355 113 93 72
314 164 356 110 90 68
309 734 359 129 27 46
264 309 225 130 99 62
329 144 358 113 90 64
255 529 241 109 13 34
261 414 197 140 10 43
314 169 357 112 91 69
389 674 216 137 101 70
308 443 112 84 34 34
317 163 358 113 91 67
321 223 314 100 81 60
320 164 359 113 90 65
264 299 225 131 99 62
314 499 171 146 0 40
262 458 363 103 13 34
413 524 249 90 14 33
315 174 359 113 91 65
319 174 360 117 93 65
284 808 359 145 103 79
306 184 354 113 93 71
308 189 357 111 91 68
239 749 321 158 111 78
319 264 251 139 96 73
289 940 342 76 70 68
311 186 359 114 92 67
312 182 358 113 91 67
314 184 360 117 93 65
408 434 219 117 30 38
289 374 220 88 78 69
268 359 331 125 98 68
386 844 291 62 51 45
313 249 265 134 98 73
320 616 353 133 35 54
240 534 296 127 6 39
319 179 360 119 94 64
314 189 360 119 94 65
334 869 231 64 57 55
421 708 254 104 74 54
270 324 306 123 91 61
319 189 360 124 96 65
314 949 321 55 50 49
338 468 383 93 12 31
259 774 367 174 124 94
387 603 299 96 15 34
349 649 226 43 37 38
289 224 262 115 93 70
404 484 256 157 6 50
259 669 301 103 65 44
429 444 210 174 18 40
247 758 314 144 106 70
277 238 258 115 94 72
330 489 155 92 48 46
355 649 327 85 20 34
280 239 260 114 93 70
350 841 240 69 58 52
282 228 258 113 93 71
258 268 246 108 89 69
288 229 262 115 93 69
371 836 245 102 79 65
313 458 122 173 2 30
249 540 291 125 7 41
309 209 361 120 95 65
281 235 259 114 93 71
247 924 270 76 71 72
284 234 261 114 93 70
283 239 262 115 94 70
287 233 263 114 92 69
406 530 304 49 23 26
258 299 229 121 93 58
284 254 267 118 94 68
322 335 307 93 77 60
285 240 264 115 93 69
290 234 265 115 92 67
339 839 375 57 48 43
289 239 266 117 93 68
257 746 294 142 23 45
313 683 225 105 21 26
270 259 227 120 95 67
266 870 268 151 118 86
275 249 260 114 93 69
235 583 268 184 120 87
279 244 261 115 94 70
257 282 258 110 88 64
279 249 262 115 93 69
257 433 204 46 33 36
324 146 259 113 91 68
280 254 264 115 92 67
309 534 384 57 28 34
327 203 264 122 94 62
282 243 263 117 95 71
262 785 304 60 51 49
309 600 363 95 29 41
286 230 339 115 92 66
279 679 342 47 27 30
285 244 265 116 94 68
394 714 296 55 22 27
284 249 266 119 95 69
303 405 365 92 72 52
289 244 267 120 94 68
288 249 268 121 94 69
364 399 276 75 65 57
308 759 364 74 26 33
403 419 382 129 29 47
408 459 339 115 21 41
324 159 261 116 94 69
287 254 268 122 94 70
404 704 286 68 59 52
287 233 319 108 89 68
393 589 242 73 32 37
285 234 321 113 92 68
279 374 219 93 78 64
284 289 296 85 69 50
353 659 330 64 26 32
286 236 318 106 87 65
287 238 315 100 82 62
284 239 321 114 92 68
339 681 218 51 29 31
284 249 316 108 87 62
304 804 356 41 34 31
271 457 198 130 3 30
299 229 312 98 82 66
282 248 320 115 91 64
309 309 346 142 102 73
294 417 169 103 56 41
294 947 334 78 75 76
257 444 267 70 25 33
286 246 313 101 82 60
242 520 295 151 0 42
289 618 354 65 32 36
289 249 311 95 77 54
294 574 370 171 16 53
288 254 310 92 74 53
349 824 325 36 32 32
286 254 312 97 78 56
349 408 220 47 39 37
282 639 274 41 35 41
252 897 342 105 78 69
280 249 322 119 94 65
280 254 321 119 94 64
322 380 349 120 94 66
296 199 259 110 90 68
293 203 258 111 91 70
394 429 221 86 32 36
295 204 260 111 91 70
379 414 222 98 22 32
261 479 369 102 25 40
285 649 344 129 20 44
292 207 258 113 93 72
387 628 284 165 11 50
300 194 260 108 89 68
326 354 316 95 78 60
322 234 313 100 82 61
354 804 371 53 45 37
368 433 376 40 29 30
255 639 295 149 98 77
296 196 259 109 89 68
284 304 342 126 97 71
249 594 311 92 61 49
299 199 261 111 91 70
331 921 328 47 44 43
339 524 385 37 27 30
302 198 263 109 88 66
306 487 178 148 0 30
352 831 235 61 56 56
304 199 265 112 91 67
280 594 360 33 28 31
299 204 262 111 90 69
304 204 266 114 91 67
404 749 321 64 48 39
293 219 263 116 94 70
292 222 263 116 93 68
398 429 266 148 15 46
333 914 266 71 64 66
403 414 276 78 23 34
294 224 265 116 93 68
299 214 266 115 92 68
280 404 216 86 69 48
304 214 268 118 95 69
327 309 318 123 99 72
333 858 212 105 86 73
408 454 225 112 27 39
299 219 267 118 94 69
423 783 306 89 70 56
279 814 301 61 51 49
372 583 334 52 26 30
242 816 334 205 137 109
300 224 269 121 96 69
255 575 275 91 34 43
387 573 314 183 9 58
324 394 227 99 87 75
332 229 350 137 101 70
293 234 267 120 94 66
303 218 268 121 96 69
252 719 281 67 33 39
304 224 269 124 97 71
351 725 338 141 21 50
306 195 264 110 88 65
309 194 266 114 92 67
303 309 261 110 84 54
309 204 268 118 95 71
304 229 312 99 82 63
272 340 278 120 84 66
363 524 181 144 107 78
399 434 261 62 22 32
284 904 239 87 76 75
411 738 244 73 45 46
319 199 267 123 96 67
395 804 241 176 120 93
298 376 218 94 83 73
410 499 247 129 10 41
354 474 166 125 92 63
314 204 268 123 98 71
393 813 321 71 57 52
319 209 267 125 93 66
309 211 269 122 98 71
306 214 269 121 97 71
394 754 320 46 36 30
251 724 303 119 43 43
309 219 269 126 99 71
268 810 309 47 41 43
300 469 182 72 25 34
309 224 269 127 98 69
309 429 161 67 39 38
314 214 268 124 96 67
353 888 320 52 47 45
312 215 269 125 98 69
319 214 266 127 95 66
315 219 268 127 96 67
333 164 259 121 94 63
323 415 360 98 31 33
243 739 357 160 116 88
313 224 269 129 97 68
314 544 192 157 4 39
286 229 322 114 93 70
267 956 308 69 64 63
364 859 336 59 49 43
315 224 268 128 96 68
318 913 350 53 49 50
319 219 266 128 95 67
263 399 337 124 98 68
299 199 320 99 83 67
269 831 297 103 84 64
304 194 319 96 80 63
313 610 235 112 22 42
407 488 334 131 31 50
299 194 321 100 84 68
277 496 204 130 16 33
235 929 326 47 45 47
300 200 318 99 82 64
317 459 127 111 23 34
302 197 319 97 80 62
326 808 238 56 49 52
275 520 230 114 30 41
299 204 318 97 81 64
299 209 317 98 81 63
241 869 316 157 115 95
289 219 321 107 88 68
285 274 345 128 97 69
288 224 321 109 90 69
294 849 262 134 110 86
288 594 250 52 33 36
290 224 317 102 84 66
259 949 301 77 71 72
449 694 298 108 82 60
313 439 136 83 28 34
389 795 342 66 54 50
259 899 367 57 52 50
304 214 314 99 83 67
429 724 306 54 40 32
298 455 147 82 28 34
361 455 394 91 12 29
299 219 314 97 81 64
298 223 314 97 80 62
299 224 313 99 82 64
399 444 386 103 20 38
330 373 241 95 84 74
408 509 249 103 15 37
263 259 236 110 91 71
374 865 316 64 56 51
389 699 241 92 25 35
292 232 314 98 80 60
304 218 314 100 84 67
283 334 343 125 97 70
251 894 278 150 117 89
320 364 235 98 86 74
300 221 313 98 82 65
294 234 312 96 79 60
304 220 313 100 83 65
293 199 341 115 93 69
304 224 312 99 82 64
279 544 376 121 22 45
273 434 367 58 24 30
323 350 256 102 85 67
309 193 319 96 79 61
309 195 318 96 80 62
314 309 302 89 73 56
309 204 316 97 82 65
256 932 268 68 64 65
294 324 226 107 88 65
308 410 365 104 35 37
406 806 297 73 57 49
314 192 319 98 81 64
253 524 356 126 21 46
220 524 246 176 119 93
299 413 181 89 71 56
314 194 318 97 82 65
333 882 236 62 55 56
437 735 304 77 58 46
338 431 178 79 66 51
319 193 319 100 83 64
319 195 318 99 82 64
319 199 317 99 83 66
228 549 266 158 113 82
274 944 266 75 70 74
319 209 316 99 82 63
312 857 254 81 69 60
323 228 260 134 100 74
375 709 316 126 16 43
396 728 223 122 91 71
304 469 161 58 26 29
309 224 312 98 81 63
240 749 356 168 121 92
402 812 297 89 70 57
314 214 314 98 81 63
254 569 291 54 24 28
319 219 314 99 81 62
327 301 317 126 101 75
261 439 276 123 15 42
226 533 246 194 129 98
387 519 223 55 33 34
291 226 264 115 93 69
289 864 376 46 41 38
401 550 312 127 25 46
290 229 264 115 93 68
289 244 351 120 95 68
294 229 267 118 94 68
235 754 341 163 114 82
301 318 294 79 65 49
293 239 268 121 95 68
342 888 334 51 44 42
295 239 269 122 95 68
298 274 269 135 93 72
271 324 297 113 83 55
326 383 295 63 52 40
236 739 341 167 114 84
255 839 301 158 117 94
339 869 230 68 59 56
428 489 231 46 30 34
299 229 269 123 95 69
434 429 207 165 17 40
390 834 301 59 50 45
244 937 335 67 62 61
304 229 270 126 98 71
317 820 259 135 111 87
335 199 326 122 99 74
318 833 384 49 39 34
328 779 349 77 59 50
281 731 354 110 8 34
370 421 364 59 36 32
375 510 377 190 7 61
371 576 217 31 26 29
299 234 270 125 97 71
333 889 346 49 43 41
256 850 282 133 110 88
304 234 270 130 99 72
249 539 256 67 29 36
304 239 270 132 100 73
262 682 294 93 26 34
208 520 226 193 130 106
259 404 246 93 62 47
291 245 269 121 94 67
409 800 362 69 53 42
289 854 351 35 32 31
306 768 248 78 63 58
240 924 346 54 50 50
328 239 317 111 91 68
292 242 268 121 94 67
289 408 382 141 15 45
279 849 272 114 95 74
304 254 269 133 97 70
320 231 257 136 103 77
320 369 294 86 68 48
320 229 261 133 98 74
313 229 269 130 96 67
315 229 268 129 96 67
320 234 257 136 103 74
318 234 261 134 100 75
290 429 177 112 15 36
279 869 375 48 41 36
319 239 261 135 100 77
402 726 217 151 110 83
379 664 236 106 57 54
279 344 223 115 92 66
312 238 269 131 94 70
243 739 315 160 112 80
244 819 336 198 131 104
296 453 131 82 24 34
317 234 265 131 96 70
269 830 315 78 58 50
329 164 260 121 94 64
317 238 264 134 98 74
308 247 269 130 96 69
294 940 342 69 64 63
341 536 378 187 10 61
311 494 165 149 2 38
391 709 293 95 15 34
311 241 268 130 91 69
372 838 350 75 56 42
309 254 266 132 96 70
299 554 223 43 36 39
294 504 190 152 1 35
351 474 164 143 99 74
306 254 268 131 96 68
300 463 131 136 4 38
319 244 261 136 100 76
409 789 266 70 54 48
386 625 250 81 30 37
315 250 262 138 101 75
381 514 361 49 29 33
309 334 345 123 96 65
347 396 299 71 62 53
235 774 326 163 118 81
299 427 146 85 54 39
314 254 261 140 103 78
294 754 364 160 114 86
422 476 239 82 23 34
288 229 320 110 90 69
270 329 296 116 85 57
259 407 226 122 61 62
290 229 317 102 84 65
327 508 153 114 32 43
326 299 316 123 100 76
293 229 314 98 81 62
299 494 186 50 34 39
295 230 313 98 80 62
378 579 321 113 24 44
296 226 313 98 81 62
291 255 308 91 75 56
299 243 309 99 83 65
280 578 364 169 17 53
337 150 333 117 94 67
362 468 204 34 29 27
300 245 308 98 82 64
359 494 176 142 103 76
299 249 308 99 82 64
266 431 266 52 38 27
298 678 240 54 32 35
326 151 359 113 90 63
389 769 192 150 105 69
304 245 308 97 80 60
304 254 306 97 80 61
264 409 252 101 70 53
295 234 355 118 95 68
302 218 358 115 93 68
235 744 336 164 113 81
379 579 222 40 33 36
309 229 311 99 81 62
313 554 201 120 21 43
319 229 312 99 81 59
314 239 310 97 79 59
319 239 311 99 80 59
299 910 245 83 74 75
317 446 134 103 26 34
389 834 281 66 55 52
324 811 397 73 58 45
309 246 308 97 80 59
280 484 384 148 16 46
238 689 310 162 110 80
309 249 308 97 79 58
256 792 364 168 115 90
307 289 241 131 93 67
394 499 337 129 20 43
309 254 307 97 79 58
312 246 308 97 79 59
380 619 302 117 19 44
319 244 310 99 80 59
360 845 357 55 45 41
319 249 311 100 82 61
245 654 330 132 95 68
324 514 391 85 30 39
284 479 387 143 16 47
316 254 309 99 80 60
319 254 311 101 82 62
268 894 261 90 74 61
288 214 326 116 95 73
318 811 393 68 54 43
378 524 217 70 37 41
288 214 336 116 94 71
286 219 327 119 97 74
237 928 321 45 41 42
285 224 326 118 96 72
241 937 292 73 67 66
313 274 256 141 101 79
287 223 324 115 94 72
294 405 371 87 59 45
286 216 328 118 97 74
286 216 330 117 95 72
366 462 194 53 44 34
384 809 367 68 53 40
304 399 216 96 84 71
287 219 336 115 93 69
273 354 337 128 101 72
381 667 244 113 24 36
374 449 223 124 17 29
286 220 334 114 93 69
258 444 291 69 35 36
434 704 261 83 62 48
287 223 337 115 93 69
288 224 341 115 92 68
284 229 326 118 96 71
289 424 384 59 27 30
311 462 378 124 23 47
339 899 331 46 40 37
341 382 261 77 69 61
286 226 323 115 94 71
276 310 334 129 101 72
284 229 331 117 94 67
413 444 297 107 22 37
329 184 322 109 88 65
324 579 365 33 29 31
285 229 336 116 93 67
289 684 246 43 36 41
320 284 342 146 108 82
387 574 228 148 19 42
337 187 349 129 98 65
258 289 262 113 90 65
284 234 336 117 92 64
345 579 192 131 58 49
282 239 331 118 94 66
324 264 346 147 107 80
283 239 336 117 93 64
287 234 342 116 93 66
304 224 360 118 93 65
285 239 341 116 92 64
309 384 221 93 83 73
288 239 346 116 92 65
369 434 222 80 33 33
280 254 331 121 95 64
332 795 230 76 63 57
302 324 232 106 89 71
281 241 326 119 95 67
307 762 364 40 31 32
281 241 329 118 94 66
404 449 225 111 24 37
369 739 191 133 97 58
281 244 330 120 95 67
390 804 348 78 62 48
363 824 369 75 58 46
282 244 332 119 95 66
294 444 151 95 21 35
282 253 337 121 94 63
255 552 258 154 20 37
374 439 223 92 28 32
399 401 316 76 35 30
372 867 283 73 62 60
418 692 293 48 37 29
284 244 341 116 91 63
364 799 326 38 33 31
286 244 345 116 91 62
287 249 348 118 92 64
289 249 351 120 94 66
285 254 346 119 93 63
294 534 216 93 29 41
287 254 348 119 93 64
309 349 230 100 86 72
295 194 326 113 94 75
344 599 346 44 28 31
296 199 322 103 87 70
294 199 326 113 94 74
269 920 358 68 61 59
291 199 332 118 97 74
291 196 333 117 96 73
272 379 273 137 95 82
291 196 334 116 95 72
293 194 331 118 97 75
372 559 197 142 109 79
293 194 336 115 94 70
304 430 141 76 55 35
292 198 330 119 98 76
284 319 342 126 97 70
425 771 333 81 65 46
383 569 320 180 7 57
291 205 327 118 97 76
359 804 327 39 34 32
309 769 362 56 46 41
332 411 203 47 41 37
319 360 280 103 81 56
369 564 186 132 102 68
291 210 322 109 91 71
290 209 326 116 95 73
373 789 318 49 40 35
291 201 328 118 98 76
276 613 273 165 9 45
264 419 351 54 29 30
258 569 306 63 24 34
321 226 263 130 97 68
290 204 331 118 97 74
300 800 358 58 45 41
434 414 222 101 26 41
314 554 377 51 30 33
289 209 331 118 96 72
240 864 296 141 110 85
296 195 323 106 89 72
275 509 380 78 33 37
365 864 271 58 51 51
297 193 325 107 90 72
362 877 310 55 48 45
297 549 224 88 24 33
294 194 341 114 93 70
296 194 345 114 92 69
349 844 206 106 84 65
295 199 345 115 93 70
358 504 201 72 20 30
292 204 342 114 93 69
295 204 346 112 91 68
296 205 349 111 90 68
334 389 237 104 92 79
342 142 347 120 94 62
261 383 260 144 101 87
325 813 404 79 63 49
377 576 204 144 109 82
371 625 189 147 106 69
296 209 350 111 90 68
274 529 376 147 17 49
298 194 347 112 91 67
289 694 348 112 19 39
298 209 352 113 93 71
383 589 227 138 16 39
290 214 341 114 93 69
291 215 344 112 91 67
262 400 248 101 72 54
256 590 279 101 63 51
263 429 281 68 36 32
406 769 236 161 111 82
293 214 346 110 90 67
306 483 160 144 2 40
276 406 354 98 80 62
292 222 348 114 93 69
272 389 224 82 69 56
236 729 322 170 114 83
283 629 271 49 36 41
404 401 331 59 30 28
302 193 353 114 93 71
336 865 362 50 43 41
279 385 284 98 85 75
304 194 356 113 93 71
301 200 354 115 94 72
401 591 263 145 30 52
319 624 351 65 30 34
304 199 356 114 93 70
425 442 208 174 17 40
239 544 277 102 75 58
341 778 213 148 108 73
300 204 354 115 94 73
303 209 357 114 92 68
394 396 226 119 47 37
239 637 288 178 125 90
296 224 355 114 93 69
309 549 206 69 32 36
322 370 233 93 83 74
237 892 312 64 62 62
297 214 353 113 92 70
338 700 213 118 12 28
299 214 356 114 93 70
299 219 356 113 92 69
273 293 273 107 86 64
332 927 273 67 61 63
304 219 360 115 92 66
308 193 358 113 91 68
307 314 251 113 88 59
311 368 353 126 97 65
317 350 344 115 91 63
307 198 358 114 92 67
309 244 360 139 103 69
319 734 357 98 27 39
306 204 359 117 93 66
389 813 360 76 59 48
309 204 360 120 95 66
295 268 354 141 101 75
254 744 364 161 119 90
306 209 359 118 93 66
400 424 398 161 17 52
319 194 360 125 97 64
298 306 288 82 66 49
319 199 361 126 97 64
294 754 261 67 55 52
314 204 361 122 95 65
319 209 360 125 96 61
309 214 361 119 94 65
309 219 361 120 94 64
314 259 356 148 101 73
260 489 200 141 5 31
309 239 360 136 102 69
309 224 361 123 94 63
397 817 260 97 72 55
359 812 390 70 54 44
332 444 187 76 47 45
314 214 361 123 96 64
319 214 361 127 97 61
364 749 322 137 14 46
314 219 361 126 97 64
406 489 276 118 24 41
279 289 221 125 98 67
304 403 362 109 85 59
269 549 250 139 22 44
319 224 361 131 98 61
356 536 373 24 27 36
291 229 350 117 94 68
322 781 234 74 62 59
399 584 246 91 28 39
290 239 351 119 95 68
270 419 360 48 29 30
294 409 381 136 16 44
295 229 355 115 92 67
292 234 353 119 96 70
352 602 339 38 24 29
294 239 355 122 96 68
261 356 310 115 91 63
318 573 369 116 33 47
301 229 359 117 92 64
309 314 346 140 101 74
304 229 361 121 94 65
339 427 358 96 7 29
298 234 358 119 93 65
270 599 350 50 24 30
304 239 360 130 100 69
404 584 251 61 30 35
294 249 355 126 96 68
317 445 152 94 31 28
355 855 351 61 52 47
364 793 322 40 35 33
257 632 293 142 94 71
267 504 373 48 31 31
321 774 233 75 61 59
292 254 353 123 94 67
294 254 355 128 96 70
262 438 199 47 36 38
399 400 301 118 24 35
241 861 324 139 112 90
293 301 288 84 67 46
363 603 330 132 28 49
298 244 358 129 98 69
276 803 297 63 53 52
284 709 254 80 31 37
300 244 359 130 99 70
416 418 203 124 35 48
309 434 136 75 44 31
363 499 191 134 96 82
299 254 357 135 99 72
302 251 358 137 101 72
354 459 171 105 81 58
273 314 321 123 94 63
319 719 356 81 26 35
278 399 220 88 72 61
407 463 339 61 29 32
304 254 358 142 104 75
309 229 361 128 97 65
324 424 191 54 36 41
309 234 361 132 100 68
400 439 256 54 27 32
319 854 241 50 44 42
248 516 232 92 30 39
298 529 206 100 29 39
319 229 361 134 99 64
266 300 274 115 93 69
329 533 167 76 36 37
319 239 359 136 96 68
351 729 338 102 24 38
270 680 272 65 37 40
255 724 276 163 8 47
314 234 361 135 100 66
297 440 174 78 30 35
319 234 360 134 97 66
376 416 359 62 23 24
384 494 366 167 16 49
307 662 244 127 3 33
309 249 359 141 102 72
260 923 252 84 74 72
308 252 359 143 103 72
309 411 196 93 79 66
310 251 358 145 102 73
314 248 359 142 101 70
350 674 216 62 50 44
262 368 322 121 95 65
315 250 358 144 100 70
314 254 357 147 101 72
422 518 244 81 24 33
325 624 233 52 35 36
319 254 356 147 102 75
324 134 257 114 90 64
324 139 258 114 91 65
364 413 341 62 30 30
392 502 339 157 15 53
329 139 258 120 96 69
372 575 188 132 102 66
329 144 258 120 95 68
284 410 181 97 39 40
266 304 223 134 102 64
390 619 266 76 27 38
334 139 258 121 94 66
321 150 259 109 88 66
299 284 266 134 93 72
329 154 260 120 96 68
342 922 287 70 64 63
330 148 258 121 97 69
332 150 259 119 93 64
387 710 198 118 90 56
324 174 262 121 96 68
333 394 316 66 57 49
329 174 261 122 93 63
335 164 257 123 94 63
323 180 264 122 97 68
272 667 286 99 8 31
324 184 264 122 96 67
410 744 318 62 49 40
278 504 206 113 20 39
303 464 156 102 20 35
319 410 201 92 81 69
315 357 278 105 83 58
254 754 366 167 122 92
279 909 365 70 63 61
419 724 316 80 57 40
329 189 262 118 92 61
361 504 185 146 111 85
367 552 359 178 20 54
327 190 264 116 90 60
345 823 231 73 61 57
234 614 281 172 117 82
303 739 236 77 62 57
332 179 259 124 95 66
424 494 226 100 29 39
332 184 259 122 94 65
359 829 221 155 115 98
287 500 194 32 32 36
361 600 333 42 22 30
309 699 221 122 11 37
314 444 121 69 30 35
327 223 259 131 99 72
235 689 316 164 113 79
403 809 346 75 61 51
269 374 291 99 72 45
324 189 320 104 85 64
324 134 327 105 84 59
328 134 328 114 90 61
328 139 328 112 88 60
280 270 311 109 87 63
269 444 366 124 12 39
328 144 328 111 89 63
382 800 354 51 42 35
331 134 329 116 92 64
327 461 142 46 28 28
312 490 167 141 1 37
399 784 211 157 103 75
339 164 346 125 96 63
334 474 386 100 16 33
378 832 246 102 75 60
398 714 211 139 104 72
331 139 329 113 90 63
334 139 332 113 90 64
334 144 331 113 91 65
384 484 356 164 15 49
324 149 326 104 84 62
329 149 327 111 89 63
318 314 306 93 79 63
324 154 326 104 84 62
327 370 339 116 92 65
319 439 166 80 31 29
264 479 372 66 25 34
242 879 312 148 110 94
329 154 327 110 89 64
232 634 308 147 106 75
369 719 192 134 94 55
301 532 198 142 21 38
324 179 322 105 85 63
292 728 358 147 15 47
383 609 301 98 22 42
296 436 118 82 41 32
329 159 326 109 88 64
383 674 230 134 99 74
269 299 222 132 101 64
328 154 359 117 92 63
331 148 329 112 89 63
370 514 210 47 34 36
334 149 331 114 91 65
348 840 211 104 86 71
332 151 328 112 89 64
415 489 227 60 30 34
334 154 331 115 92 66
332 189 354 132 99 66
391 678 276 105 26 40
332 159 328 112 90 66
282 644 343 173 19 57
304 609 360 98 32 44
355 664 206 120 94 69
335 159 331 115 93 67
328 364 246 90 79 69
336 128 334 115 91 62
337 132 333 113 89 62
323 355 265 106 87 65
378 738 313 49 23 25
336 144 334 116 93 66
339 144 336 121 97 68
342 133 343 124 99 70
261 394 297 105 81 53
342 134 346 119 94 65
342 134 351 121 92 60
424 765 320 63 50 38
271 727 353 152 107 87
418 724 242 74 50 42
350 609 196 147 103 75
262 390 236 121 91 68
341 139 341 126 101 71
304 848 325 43 35 33
341 144 341 126 100 71
257 730 274 153 1 44
341 139 344 122 97 69
395 785 351 75 61 50
389 399 230 143 36 31
421 404 328 158 21 49
305 494 182 158 2 36
342 139 346 120 94 64
349 459 386 104 1 30
418 439 326 155 2 48
245 539 321 101 15 38
341 144 346 120 94 64
342 142 349 122 96 63
339 149 336 121 96 67
339 154 336 121 96 67
337 159 333 120 95 66
275 383 281 101 72 60
304 419 171 90 70 48
338 159 336 123 97 66
278 489 200 54 32 38
340 154 341 125 99 67
397 413 349 43 29 31
284 559 245 147 1 37
339 154 351 130 97 66
277 364 281 106 72 56
338 159 351 129 97 65
299 659 348 123 29 47
340 154 346 124 97 64
283 429 185 125 10 32
379 399 271 109 41 41
395 444 376 95 24 36
324 134 356 110 89 66
235 689 326 153 105 77
300 734 241 73 59 53
269 354 276 127 90 73
362 887 296 55 46 42
329 134 357 114 91 65
324 139 357 110 89 65
255 799 313 138 104 71
324 144 357 110 89 66
329 139 358 112 89 63
289 429 384 106 23 40
334 134 358 120 94 64
289 389 356 126 99 72
334 139 357 121 94 63
334 144 357 123 95 63
306 821 373 63 47 36
339 674 221 48 35 37
281 284 339 122 96 66
324 149 358 111 89 64
425 771 294 79 61 49
327 151 359 114 90 63
344 407 323 60 51 43
384 454 397 51 29 32
234 644 295 185 124 96
325 155 359 112 89 62
379 459 397 70 31 38
395 815 276 69 54 47
342 903 324 46 42 42
321 159 359 111 89 64
304 329 271 112 85 58
339 534 175 94 23 31
334 149 357 125 94 63
376 584 195 134 102 70
389 449 361 160 11 48
334 159 356 127 95 64
236 929 306 61 55 53
349 789 326 49 39 34
339 134 356 130 96 67
339 139 355 129 96 68
240 813 332 206 143 113
392 824 282 62 50 46
268 746 274 89 67 61
338 149 354 130 96 68
274 619 281 127 21 41
324 164 324 105 85 63
309 304 347 140 101 74
236 804 341 185 130 106
320 167 324 101 83 64
324 419 191 50 39 40
325 168 324 106 86 64
351 499 169 145 104 72
283 520 215 52 32 36
374 424 371 58 25 29
319 514 391 111 34 47
294 589 366 41 25 30
324 170 323 104 86 65
265 374 331 123 96 66
384 830 256 81 60 49
324 174 323 105 86 64
258 601 279 107 62 48
394 469 345 139 16 45
388 659 271 129 16 41
328 175 323 108 88 64
333 164 328 111 90 65
335 164 331 115 92 66
289 410 384 131 18 42
304 443 112 133 21 42
294 394 359 128 100 72
278 864 268 123 98 72
333 174 327 113 92 68
331 183 324 112 91 68
268 424 256 103 72 56
334 179 326 115 93 69
273 394 347 125 99 72
321 747 218 83 64 59
274 379 222 97 79 59
401 405 270 140 14 42
332 186 323 113 92 68
332 189 323 116 94 71
335 189 326 121 98 73
310 629 242 97 18 33
306 312 252 112 87 57
373 549 356 63 30 35
388 604 242 107 28 42
335 179 352 132 100 67
428 739 261 78 58 47
337 164 333 119 95 66
299 579 370 168 18 52
257 303 229 117 91 57
406 529 286 129 24 45
337 169 333 121 96 67
329 204 356 122 95 60
338 174 336 127 101 69
337 169 351 131 99 66
367 709 324 71 23 32
338 174 341 127 99 65
282 420 184 149 0 36
337 174 350 131 99 66
236 774 323 158 115 79
336 174 352 132 100 68
295 444 177 38 31 36
294 864 260 101 86 71
337 184 332 127 102 73
329 189 356 132 98 65
337 189 331 127 102 74
419 784 301 71 53 47
287 815 294 56 41 35
431 757 308 79 61 41
337 189 336 122 97 68
269 399 345 125 99 71
255 630 290 142 94 71
294 469 386 111 22 39
424 729 311 52 40 32
337 184 341 125 98 65
289 434 136 132 21 38
370 669 316 118 17 42
347 576 189 140 83 61
337 179 350 132 100 67
304 962 306 55 51 52
401 449 271 42 27 29
337 184 349 130 99 66
309 919 251 85 78 79
277 424 189 132 7 33
337 189 341 119 94 63
294 259 306 97 81 64
261 742 273 87 25 38
336 190 348 125 96 62
324 164 360 116 92 64
249 518 221 102 28 42
381 600 307 102 26 43
324 174 360 123 96 64
387 649 220 155 105 78
328 174 359 127 97 63
329 214 356 128 98 62
369 410 336 65 25 30
311 328 250 104 86 66
330 169 358 127 98 64
334 164 356 127 96 64
264 734 270 136 9 40
330 174 357 129 98 64
333 174 355 132 99 66
347 441 172 68 57 46
280 528 227 81 26 31
307 309 250 116 89 58
253 759 310 124 89 62
324 179 360 124 96 63
230 614 296 155 110 78
274 546 249 96 22 35
278 484 383 131 21 46
350 774 328 73 56 48
324 184 360 126 96 62
324 189 360 127 97 62
252 584 272 134 79 63
235 784 346 173 120 94
304 411 196 90 77 65
330 184 357 132 99 64
419 474 221 161 15 37
329 824 385 86 67 54
332 184 354 133 100 67
401 712 260 96 68 57
337 163 354 130 98 67
292 843 264 144 119 94
336 166 353 130 97 65
267 342 311 112 89 61
257 378 310 122 95 64
408 698 281 57 46 37
329 194 262 120 93 63
329 199 261 123 95 65
324 194 265 118 92 62
324 199 265 121 93 64
327 194 264 117 90 59
327 199 264 120 93 61
289 284 347 135 99 74
321 397 224 103 90 78
389 549 325 73 28 35
329 204 261 125 96 67
301 671 243 41 36 39
291 416 171 122 42 41
417 436 234 134 0 44
340 856 368 67 55 48
389 679 211 126 94 62
326 210 263 124 96 66
284 449 386 72 30 35
238 529 271 72 26 32
324 209 265 125 95 65
330 834 253 103 83 62
403 524 261 163 10 50
332 193 259 122 96 66
332 199 259 125 98 67
409 400 326 84 36 33
267 384 294 101 76 47
345 869 346 60 53 51
329 456 374 111 8 35
331 206 258 129 99 70
331 210 258 132 101 70
289 304 276 95 76 57
305 538 197 39 32 38
325 219 262 127 96 71
427 434 229 133 12 41
312 719 214 145 3 39
324 224 261 132 99 73
322 219 264 128 95 70
322 223 264 129 95 70
238 699 311 164 112 82
330 214 257 132 101 73
390 509 337 163 6 51
322 196 318 101 84 64
325 198 319 106 86 65
329 194 321 110 90 68
369 474 397 91 29 40
381 614 235 89 33 42
329 199 320 110 90 68
295 448 151 52 27 30
399 814 296 83 65 55
326 202 319 106 86 64
256 840 292 160 125 98
263 625 332 118 26 43
327 209 318 107 88 67
330 209 320 111 91 69
274 304 277 105 83 61
328 214 318 108 89 68
395 589 281 179 12 54
372 462 399 161 27 55
324 219 315 101 83 63
324 224 315 103 85 64
329 224 317 109 90 69
330 214 319 111 92 70
399 799 341 61 50 47
331 219 319 112 92 70
331 224 319 113 93 72
326 226 258 133 100 76
285 927 354 71 64 61
297 566 234 136 0 30
322 243 259 137 101 79
389 818 336 83 64 53
324 229 315 104 85 64
329 234 317 109 89 67
335 423 358 100 11 31
241 866 288 139 111 83
331 656 228 40 37 39
331 229 319 114 94 70
331 234 319 113 92 69
256 691 288 121 17 36
330 239 320 115 93 70
422 755 263 88 65 55
323 244 312 102 84 63
254 769 366 172 120 93
325 244 314 106 87 65
325 249 315 107 87 65
274 534 241 67 32 39
325 254 316 108 88 67
327 253 318 114 93 70
328 848 210 115 87 71
314 477 133 136 16 38
330 244 320 117 95 71
332 199 323 117 95 71
289 584 246 145 6 39
335 204 326 122 99 73
340 870 352 54 48 45
332 894 252 66 59 58
335 209 325 121 98 72
282 635 274 39 35 40
267 447 363 126 15 40
337 918 324 45 41 39
334 204 351 125 97 64
336 214 325 120 97 72
242 524 311 81 19 34
336 224 326 122 99 72
335 224 341 131 100 67
332 366 257 95 81 67
346 714 343 137 17 47
312 504 166 140 6 39
344 629 335 77 28 38
381 625 240 102 34 44
336 219 346 133 100 68
345 869 236 62 54 53
336 214 346 133 100 67
316 739 358 74 28 35
316 654 237 126 6 32
335 224 346 135 101 68
433 695 271 74 56 43
411 474 305 127 18 41
410 775 251 109 80 65
333 224 351 137 101 70
406 469 338 56 27 31
337 199 328 125 102 76
284 844 326 100 77 61
338 199 336 120 96 69
362 430 218 71 39 34
338 204 336 121 97 70
293 320 279 82 63 49
405 739 226 119 89 66
262 434 199 47 36 38
381 501 353 171 18 54
351 709 203 150 103 74
256 319 269 113 86 62
440 691 305 53 41 29
337 209 328 123 99 73
249 623 322 130 97 71
338 194 341 117 93 64
237 608 308 142 105 76
289 408 211 85 71 56
319 639 237 134 2 33
337 194 346 121 95 64
300 422 160 81 66 47
307 485 156 152 2 40
336 193 348 123 96 63
375 480 393 87 29 39
337 199 349 123 96 63
338 204 341 123 97 67
337 204 346 128 100 67
306 306 253 121 90 63
294 611 358 159 20 51
268 407 229 171 121 132
233 538 272 123 97 73
420 448 213 167 15 39
359 519 195 86 65 52
337 209 346 130 100 65
337 206 349 129 100 66
352 457 388 103 1 29
337 207 349 130 101 67
350 870 337 56 49 46
310 402 219 100 87 74
357 634 324 121 18 43
302 466 134 131 4 31
414 764 322 62 50 40
337 214 327 123 99 73
257 449 266 110 17 40
337 214 331 124 100 72
404 534 271 172 16 50
304 411 201 92 79 66
256 553 345 172 12 55
322 778 354 80 61 53
337 219 336 125 98 66
287 761 269 77 61 53
336 225 331 125 100 70
337 222 328 124 100 71
300 348 281 98 72 54
344 909 320 51 46 44
337 223 331 124 99 70
316 502 148 175 25 55
337 222 334 126 99 67
336 216 343 131 100 66
290 420 383 100 19 37
337 213 345 132 101 66
337 217 340 128 100 66
388 411 361 54 22 26
406 576 249 121 17 38
438 429 216 164 17 46
241 914 288 78 67 61
356 845 363 72 58 50
323 199 359 125 96 59
352 872 248 77 67 66
326 194 358 128 98 62
326 199 358 125 97 61
248 820 347 192 130 104
306 328 268 109 85 58
332 194 354 127 98 62
332 209 354 125 97 62
319 358 276 108 85 58
309 299 297 89 72 53
324 214 359 127 96 59
309 479 136 188 9 43
326 214 358 127 97 61
324 219 360 129 98 62
409 409 344 101 27 41
245 575 264 169 108 84
399 579 271 129 21 45
237 809 336 200 140 114
329 219 356 132 99 65
329 224 355 134 100 67
332 214 354 130 99 65
241 874 287 177 127 106
331 220 353 135 98 67
331 224 353 136 101 70
385 474 351 166 15 50
402 405 239 137 14 45
258 484 197 132 12 35
300 464 146 99 21 35
332 217 354 132 99 65
290 562 374 187 16 61
267 427 275 53 40 31
306 295 257 132 96 74
333 229 322 118 96 71
