ply
format ascii 1.0
comment Created by Open3D
element vertex 2170
property double x
property double y
property double z
property uchar red
property uchar green
property uchar blue
end_header
320 779 292 43 38 37
190 744 328 176 119 93
206 613 361 169 116 93
205 619 359 170 118 93
425 827 243 87 66 56
205 624 358 172 120 95
357 606 269 139 18 47
200 634 354 169 119 95
200 639 353 175 123 98
205 634 355 176 122 98
205 632 356 176 124 99
215 614 359 179 122 97
330 664 218 39 33 35
210 613 361 177 126 101
217 610 360 178 120 96
329 517 371 193 7 60
288 577 336 173 22 56
214 612 361 181 127 102
210 619 359 178 125 99
210 624 357 178 124 99
215 619 357 178 120 96
292 729 205 104 25 31
217 620 355 174 120 94
240 764 330 132 96 63
209 628 356 179 125 99
211 630 355 177 120 95
275 634 224 74 33 39
230 591 335 113 34 49
230 584 338 56 26 32
228 584 343 74 45 43
363 863 270 73 64 63
230 579 348 110 65 58
231 579 353 144 87 77
291 926 281 87 79 78
229 584 348 130 83 73
214 789 272 119 85 67
375 513 347 190 16 60
230 584 353 154 98 84
227 589 339 66 36 33
227 589 343 112 74 63
230 589 337 54 24 30
242 922 328 71 66 65
228 587 344 115 78 66
235 579 339 77 25 35
232 576 340 93 25 35
232 576 343 76 24 32
235 584 338 84 28 39
240 584 339 83 26 36
262 802 240 82 64 58
227 595 335 82 20 37
359 543 225 78 26 35
226 599 334 73 42 41
226 604 333 87 49 46
234 595 335 96 27 38
235 599 334 61 27 34
372 564 246 56 27 29
238 596 335 122 28 46
341 644 227 73 26 39
320 674 308 77 24 34
240 599 335 35 25 27
235 604 333 106 30 41
235 609 332 83 28 37
420 533 255 149 11 39
240 604 334 35 25 28
240 609 332 64 24 30
226 594 338 96 56 52
226 594 343 135 89 74
344 883 273 69 59 56
224 599 338 126 82 71
374 838 293 51 44 39
225 599 343 145 95 81
228 592 336 75 21 33
227 594 348 151 99 84
224 761 256 71 57 49
355 739 184 132 102 68
380 528 322 191 18 61
381 805 183 92 72 60
227 594 353 166 110 91
226 599 348 159 105 87
330 819 269 52 44 37
270 604 332 77 28 36
226 599 353 168 110 91
350 793 149 113 85 64
224 604 338 136 91 77
224 604 343 151 101 84
235 593 336 87 28 37
298 841 246 154 109 89
240 594 336 81 26 38
293 805 221 83 65 57
240 597 336 114 31 47
244 579 340 112 22 41
245 584 340 57 26 32
321 614 304 68 26 34
245 589 338 61 29 34
250 585 340 84 28 39
255 579 342 87 29 38
255 583 341 113 31 45
255 589 339 100 31 42
255 585 340 93 29 41
245 599 335 31 27 28
255 600 335 82 31 40
250 604 334 123 29 46
385 739 143 74 57 45
183 719 313 168 115 89
250 609 333 128 28 46
255 609 333 71 26 35
244 864 333 173 123 104
250 594 337 75 28 36
250 598 336 38 28 29
264 824 318 162 119 99
255 598 336 56 30 33
230 584 358 167 111 91
265 834 258 192 131 106
230 579 368 177 115 94
228 583 367 175 114 94
266 759 225 75 58 54
227 591 359 174 115 95
340 843 303 37 33 32
227 586 365 178 117 93
336 784 188 67 53 47
228 588 362 171 112 90
319 943 323 84 77 80
305 948 348 56 51 49
228 577 371 179 119 99
229 611 330 93 32 42
230 614 329 85 30 36
230 619 327 72 27 35
301 749 200 107 24 33
228 621 325 51 26 30
332 575 216 133 11 33
231 623 326 34 26 27
250 519 399 182 126 109
300 835 343 105 85 63
232 612 331 45 24 24
235 613 331 64 23 30
285 699 212 123 17 33
319 768 296 71 55 44
235 615 330 57 27 31
240 614 331 108 31 45
240 619 330 54 27 31
230 629 322 120 24 42
228 631 320 142 17 46
353 857 240 90 75 69
426 818 230 87 66 55
234 626 325 30 25 28
235 629 324 53 24 30
473 766 251 94 69 49
240 629 326 120 27 45
324 847 354 38 35 35
239 630 325 96 25 43
235 634 322 116 19 41
233 636 320 140 16 45
234 639 320 127 16 41
345 894 338 41 36 35
236 639 322 133 16 42
240 634 324 126 18 41
357 774 155 71 51 43
245 618 331 86 34 42
245 620 330 73 30 36
255 613 332 92 29 40
256 616 330 47 27 28
250 624 328 126 28 45
255 619 329 83 26 36
310 919 372 52 48 48
255 624 329 96 25 38
363 714 240 133 20 47
245 629 327 141 27 50
369 753 157 58 47 40
359 767 163 48 42 40
300 874 228 74 62 57
242 633 326 144 20 45
315 584 208 80 32 38
245 639 324 155 22 51
245 637 326 170 22 55
254 629 330 59 28 33
250 759 329 171 125 95
256 629 331 92 32 41
382 821 310 35 31 29
269 556 201 174 0 35
250 637 326 167 23 52
505 564 300 118 24 44
258 854 349 160 116 100
250 640 325 177 20 57
328 912 289 86 75 74
255 637 326 148 18 49
380 824 243 72 60 57
235 514 388 154 114 93
233 519 385 153 114 92
239 514 394 158 112 93
233 524 385 156 116 94
280 709 343 157 22 52
235 524 388 161 116 94
240 524 392 175 123 102
409 822 294 87 69 62
238 524 390 169 119 98
239 530 390 176 123 104
232 530 386 152 112 89
505 569 300 102 29 42
240 534 389 177 122 102
415 563 267 41 31 36
271 943 352 66 62 62
235 539 386 163 115 93
233 540 385 162 117 94
234 545 385 170 119 99
236 543 386 169 118 97
240 543 386 176 121 100
500 554 303 134 28 49
241 514 396 166 117 97
242 518 396 172 120 103
246 523 396 179 125 106
250 523 397 186 129 111
365 639 224 118 77 64
250 514 403 181 124 106
329 788 282 134 100 84
302 736 320 64 42 39
248 516 400 177 123 108
251 518 401 182 124 108
260 815 310 37 30 29
306 570 330 66 31 36
255 515 404 189 129 113
245 531 390 187 129 111
245 538 387 183 122 101
243 542 386 181 122 101
307 857 220 87 75 71
250 533 388 191 130 110
362 586 279 106 34 47
330 644 223 62 31 35
255 530 388 193 133 113
254 532 387 195 135 115
442 796 266 87 66 56
248 537 386 185 123 104
192 704 336 168 115 91
331 664 299 104 13 36
183 642 311 109 80 52
308 549 336 49 26 31
182 645 310 133 93 67
180 649 313 155 102 80
417 602 236 160 113 76
265 789 319 66 53 45
182 649 310 143 96 72
255 789 239 79 62 56
267 516 395 173 119 104
179 644 318 155 103 83
179 649 318 174 114 94
480 534 269 87 17 29
180 654 313 160 107 84
185 654 308 136 97 67
190 644 307 128 97 65
191 650 305 138 102 71
190 654 305 148 106 74
180 659 313 163 110 85
182 659 310 139 97 70
185 664 307 130 94 63
280 749 332 71 45 45
181 664 318 162 109 85
182 669 310 154 108 78
295 534 195 50 35 40
320 854 388 39 37 36
240 734 324 53 30 32
181 669 313 164 114 86
181 669 318 164 111 86
329 537 331 39 28 27
190 659 305 140 100 69
190 664 305 130 96 62
187 664 305 130 97 63
289 800 222 82 65 57
190 679 303 134 99 65
338 758 191 110 82 50
190 689 302 132 99 65
182 674 310 160 111 81
279 689 216 120 18 30
184 679 307 150 106 75
283 678 216 39 36 41
182 679 310 160 110 81
181 679 313 165 113 87
182 684 310 161 112 80
315 894 383 51 47 46
267 719 220 51 36 39
294 836 241 171 119 95
348 772 176 56 47 44
184 689 308 153 109 78
182 689 310 161 112 83
428 816 342 108 86 67
182 689 318 166 113 88
370 519 338 72 30 37
187 674 305 140 102 69
187 684 305 138 100 69
186 689 304 138 101 69
370 694 227 137 87 68
186 694 304 140 103 69
190 694 302 133 99 65
186 699 304 145 104 74
399 634 223 180 123 95
510 579 297 127 26 48
186 704 304 150 107 77
192 699 300 130 98 64
340 840 373 39 36 34
375 564 310 46 23 29
375 619 203 104 90 74
189 704 301 140 102 70
222 665 293 51 27 34
182 694 310 164 114 86
182 694 313 166 116 90
395 590 302 103 24 42
182 694 318 169 116 90
277 881 264 54 50 51
184 699 308 159 112 83
401 822 380 93 72 51
182 703 312 161 113 88
345 879 258 89 75 70
183 695 320 173 119 93
183 704 318 168 116 92
395 737 169 56 44 32
179 644 323 161 109 86
181 644 328 168 114 90
181 649 328 162 106 84
182 644 332 169 114 90
488 835 181 110 87 65
184 644 334 168 114 89
340 584 319 160 16 50
180 654 323 166 110 87
343 883 278 55 48 46
182 654 328 160 106 81
184 654 333 154 104 79
354 873 298 64 55 51
186 644 338 164 113 87
290 544 343 183 21 60
187 644 341 161 111 84
190 649 343 164 116 90
191 644 347 163 117 90
212 650 338 145 99 81
300 898 259 86 79 78
188 650 340 159 112 83
190 654 343 169 119 93
298 712 206 58 30 29
182 664 327 162 110 83
183 664 329 163 111 83
184 664 333 168 115 89
182 669 323 166 113 85
183 669 329 165 112 85
265 639 325 182 13 59
270 752 331 73 59 53
187 664 337 170 117 93
191 659 342 173 121 97
192 664 341 173 120 97
187 669 336 171 116 91
190 669 338 175 121 96
409 754 168 76 58 45
182 674 323 167 115 86
183 674 329 166 114 86
182 679 323 167 114 87
182 684 323 167 114 89
385 842 269 81 69 65
284 836 246 190 138 112
183 684 325 168 114 89
183 684 328 167 114 88
287 541 196 140 30 48
360 644 222 112 74 62
184 689 328 168 114 91
186 674 333 167 114 88
415 587 294 96 16 35
200 699 300 122 89 57
186 679 333 165 113 88
188 674 335 169 115 90
186 689 332 166 114 89
276 515 389 79 50 46
400 564 258 39 30 37
189 684 335 164 114 89
364 724 288 70 22 33
326 919 293 87 75 75
190 674 337 175 122 95
183 694 323 172 119 93
184 704 323 172 118 93
186 694 332 167 114 89
185 699 328 171 118 92
186 699 332 167 114 89
187 703 331 166 113 89
192 694 336 167 115 91
403 628 218 191 129 99
186 709 304 154 110 79
349 868 367 57 50 46
191 709 299 138 102 69
189 709 301 144 104 72
190 714 299 141 102 70
300 579 204 93 30 38
190 719 299 143 102 71
188 718 301 147 104 76
369 798 165 87 65 54
184 719 318 168 114 87
186 724 303 156 109 81
311 575 325 84 27 38
186 729 303 156 110 81
257 876 300 157 125 96
184 724 308 164 114 86
183 724 313 166 113 88
184 729 308 163 113 85
184 724 318 168 114 88
272 904 259 89 77 77
337 865 214 83 67 59
184 729 318 170 117 91
184 734 308 163 112 86
184 734 313 169 115 90
223 795 266 70 57 55
408 755 145 92 71 56
190 739 298 146 105 73
361 729 289 138 18 46
188 736 301 152 108 79
308 845 216 71 63 63
415 583 283 57 32 34
188 739 301 154 109 79
188 744 301 160 110 83
188 749 301 167 114 86
184 739 308 167 114 89
184 739 313 171 116 92
484 520 308 75 21 28
185 744 313 176 119 96
185 739 318 175 118 94
185 749 313 181 122 98
301 813 219 83 65 57
186 749 318 183 124 99
345 838 198 116 88 66
350 833 269 29 26 28
187 753 304 177 119 93
390 588 298 128 20 36
189 754 302 176 119 91
190 759 303 181 121 94
187 754 308 182 124 99
187 754 313 185 126 102
188 756 306 182 123 97
188 760 313 189 130 103
322 827 190 82 65 58
188 759 318 188 128 102
188 755 320 186 127 103
189 764 313 191 131 104
394 517 331 195 18 62
258 862 350 91 72 67
191 769 308 191 129 103
468 542 260 65 36 41
191 769 318 188 128 101
184 709 323 166 114 88
187 709 331 165 112 87
312 724 315 144 31 55
190 709 333 166 114 89
186 714 328 165 111 87
185 719 323 168 114 88
186 719 328 169 114 91
367 565 237 52 30 31
300 574 203 101 32 40
325 549 330 50 28 30
187 714 331 165 112 88
185 724 323 170 115 91
185 729 323 173 118 93
230 679 312 57 23 29
186 729 327 175 118 94
188 730 330 173 118 93
235 774 248 71 57 52
185 734 323 176 120 96
440 585 293 106 33 42
189 734 329 171 115 90
191 734 332 172 117 93
511 574 273 142 101 79
186 739 323 179 121 96
187 739 326 179 121 96
186 744 323 183 123 97
265 519 328 60 15 27
189 739 329 174 117 92
187 752 321 185 125 102
188 754 323 184 124 100
189 759 323 185 127 101
191 759 327 180 124 96
191 764 323 185 126 100
321 824 278 70 59 49
214 689 337 152 106 77
192 764 327 180 123 97
192 769 323 185 127 99
224 644 268 180 5 49
222 642 270 129 5 32
223 645 272 186 5 50
225 649 273 165 2 46
273 874 281 125 99 76
224 649 278 159 1 44
357 586 293 172 20 54
221 644 283 156 3 43
222 648 283 188 2 54
222 647 288 188 8 51
223 650 283 154 2 43
372 826 232 84 66 61
290 833 339 104 73 61
222 671 280 84 15 34
224 664 283 60 26 33
222 669 283 67 30 36
224 663 288 60 30 34
195 644 306 123 88 61
195 645 305 124 87 60
270 659 325 35 28 30
270 599 218 53 37 40
340 847 366 43 39 38
196 647 306 124 82 58
200 649 306 127 81 59
195 654 304 136 94 66
200 654 305 130 85 61
205 644 308 122 72 57
205 649 308 128 76 59
511 563 292 62 42 36
413 741 166 70 56 39
395 818 318 47 40 34
205 654 307 127 76 58
250 919 353 70 64 63
451 829 193 127 101 76
195 664 304 130 91 63
200 659 305 131 87 62
223 674 273 94 24 40
199 664 305 129 88 62
202 659 306 129 83 62
201 664 306 128 86 63
382 684 208 149 102 68
275 839 253 192 132 108
205 664 307 125 80 60
370 821 365 65 55 47
205 669 307 124 83 60
224 649 293 147 15 42
221 644 298 97 25 40
222 648 298 87 28 37
233 699 320 52 20 26
222 648 303 124 18 41
223 650 303 100 15 35
223 654 303 73 19 31
329 584 215 122 23 35
340 603 319 109 22 40
210 644 312 136 86 74
208 646 310 123 70 59
210 649 312 142 91 78
250 849 338 128 95 75
215 644 318 129 89 76
209 654 309 125 74 59
215 654 318 120 83 69
508 560 290 77 42 43
284 857 365 95 86 79
223 641 310 67 17 20
226 644 312 82 18 31
316 945 333 67 63 64
222 648 306 82 31 35
225 654 308 65 31 33
224 663 293 45 30 33
223 659 303 66 20 32
222 661 304 79 13 31
223 664 304 81 16 29
345 604 283 141 26 52
480 585 268 190 123 103
222 669 298 100 21 40
360 754 173 56 49 44
222 669 302 69 22 32
223 669 304 74 24 31
380 569 310 95 23 37
223 671 298 70 24 32
342 746 290 75 57 49
210 659 309 120 71 55
344 714 192 146 108 78
355 664 222 89 60 49
383 648 195 163 112 80
210 664 309 120 73 57
453 787 270 100 81 67
215 664 313 144 98 85
430 799 253 99 74 57
216 659 318 116 81 67
210 669 309 120 77 59
213 665 310 120 72 58
335 844 373 37 35 34
213 669 310 118 73 59
225 659 308 63 31 32
217 663 318 113 81 65
392 753 185 44 34 28
224 669 308 85 34 34
218 665 318 109 76 62
223 679 273 61 32 37
339 609 225 51 31 36
460 569 298 146 11 45
345 754 284 76 57 49
375 669 217 153 101 75
330 564 322 179 14 56
226 679 263 75 31 42
225 684 263 75 30 40
416 541 261 48 29 33
222 682 268 133 17 45
223 674 278 86 25 37
222 674 279 96 22 42
222 677 272 51 24 23
222 679 279 52 30 35
221 674 288 53 31 36
450 524 319 191 14 60
283 870 271 97 73 60
221 679 283 61 30 37
222 679 288 72 29 38
377 684 220 153 104 77
310 829 303 86 72 57
223 683 276 39 29 37
222 689 278 111 15 36
222 689 283 68 26 33
469 565 299 119 13 40
223 684 289 63 28 34
223 689 288 69 25 35
193 728 296 137 100 68
290 584 332 147 20 48
410 535 309 177 23 59
223 694 268 107 23 42
223 692 272 117 10 36
310 874 398 55 51 50
223 698 267 131 11 38
221 699 273 108 17 38
222 699 269 112 14 35
221 704 268 132 15 43
280 544 196 81 33 38
223 702 266 139 8 44
202 698 341 167 115 89
415 530 252 180 0 40
261 896 382 45 39 39
250 644 323 112 25 44
221 694 283 89 18 32
221 694 288 93 13 35
491 550 256 177 121 108
219 699 278 102 17 36
218 704 278 66 27 33
343 883 263 87 74 70
218 704 283 46 30 36
200 674 304 122 85 57
200 679 304 119 84 56
195 684 302 126 94 61
204 675 305 120 80 57
380 774 136 99 70 51
206 674 306 121 81 59
200 694 301 122 89 59
195 696 300 126 94 61
195 704 299 128 96 62
205 694 302 118 80 56
201 698 301 122 88 57
205 699 302 119 80 55
205 701 300 118 81 54
222 679 293 40 30 34
242 909 315 56 53 53
222 672 302 59 18 29
275 529 192 160 0 34
223 679 297 33 29 31
222 679 303 43 29 29
223 684 293 58 28 34
222 686 294 55 31 36
220 684 303 75 47 42
217 685 303 88 60 48
294 723 336 165 15 54
220 689 298 44 30 31
467 835 170 110 91 74
216 674 312 132 85 71
209 685 305 114 77 56
211 683 307 114 77 58
209 689 304 113 76 56
215 684 308 100 64 52
371 744 253 93 62 54
479 574 300 100 13 32
217 678 311 124 78 67
219 674 313 146 104 95
303 862 231 69 63 66
224 674 308 78 40 34
224 679 308 60 36 30
220 674 318 96 69 54
282 581 335 97 17 32
264 915 379 62 57 56
221 684 313 97 71 60
220 689 308 89 60 57
325 620 221 87 37 41
224 684 309 53 29 30
415 538 307 90 24 38
350 749 283 76 59 52
309 850 352 56 50 44
224 688 310 38 25 28
239 669 320 63 29 35
222 683 318 85 63 49
225 689 312 39 29 28
223 685 318 80 60 47
305 523 378 187 16 60
216 690 300 69 49 40
214 693 302 90 59 44
400 584 317 72 28 35
215 704 294 80 32 38
326 526 354 180 20 57
214 702 296 82 42 39
219 694 297 68 26 33
219 699 293 97 20 35
217 700 295 77 20 30
218 698 296 81 22 34
213 698 305 105 67 54
221 692 310 74 52 53
226 693 313 34 26 25
226 644 263 184 7 50
229 644 258 183 9 50
464 555 309 155 29 56
229 649 263 164 7 44
226 649 268 168 3 45
360 814 248 34 30 29
231 654 258 144 5 41
227 654 268 105 14 35
225 654 273 123 6 37
352 556 315 174 18 56
306 818 220 83 66 59
228 650 266 162 2 45
228 654 266 127 11 34
360 843 288 33 30 30
374 612 217 98 80 61
289 686 331 128 5 40
224 654 278 134 1 39
315 850 353 50 45 41
225 654 288 131 5 37
369 532 321 144 22 52
228 659 263 78 26 36
229 664 258 101 33 44
344 639 203 99 76 55
275 639 324 172 16 54
228 664 263 112 28 44
450 529 258 52 38 38
227 659 268 125 19 45
228 664 266 111 35 49
385 834 278 54 44 37
228 669 263 65 35 39
226 669 268 72 27 36
227 670 265 45 38 35
299 709 206 104 22 31
225 659 278 131 2 37
312 822 295 100 81 63
226 659 288 102 11 36
381 837 276 78 66 58
226 654 293 105 14 36
225 654 298 49 30 35
206 702 341 171 120 94
226 649 312 41 27 28
228 641 315 118 20 43
230 650 314 32 26 27
226 652 311 49 23 29
230 654 313 32 26 27
353 868 253 84 71 67
235 644 319 99 26 40
235 654 317 33 27 29
226 669 311 71 16 29
248 893 308 62 52 49
369 838 249 76 64 61
230 669 312 51 23 26
360 704 297 154 10 48
233 660 315 36 25 25
345 839 333 32 30 31
235 659 317 36 27 28
239 664 320 60 26 33
233 668 315 65 23 30
236 669 318 51 26 31
230 674 258 45 38 40
228 677 261 37 35 42
195 664 343 174 119 96
225 689 263 53 34 38
227 694 259 43 34 38
228 694 256 50 34 37
306 839 218 65 60 59
282 884 245 84 74 73
226 699 258 61 37 40
227 674 311 66 19 27
229 689 314 32 24 25
235 674 318 41 28 30
234 679 314 33 24 26
232 690 316 41 24 24
235 689 318 35 25 25
240 684 319 75 21 32
240 688 320 58 28 31
225 694 318 60 45 37
229 694 314 37 24 23
227 697 315 30 22 23
226 698 318 47 36 32
365 799 252 90 73 59
230 699 318 39 24 25
195 644 349 172 123 98
420 813 283 90 71 62
192 648 346 169 121 95
411 568 305 94 22 38
195 649 347 175 123 99
200 646 350 179 126 101
230 779 339 162 122 89
194 655 345 178 124 99
213 642 346 173 118 93
306 614 314 113 28 43
196 654 346 177 123 98
473 762 223 110 87 63
200 654 347 178 124 98
206 646 350 179 122 97
316 853 210 89 69 60
204 653 346 177 121 96
207 651 345 173 116 91
270 819 242 53 46 50
317 638 305 37 28 30
335 846 363 33 30 32
196 657 346 179 124 99
195 669 342 172 118 95
308 878 221 128 104 87
385 845 313 68 59 55
193 670 340 175 121 98
200 669 343 169 116 91
204 664 342 162 116 89
310 609 318 97 32 45
207 660 340 155 108 84
207 664 340 154 107 81
354 619 262 181 7 57
265 630 329 62 25 32
435 808 288 83 63 54
215 644 323 132 87 73
214 644 328 146 98 80
214 649 323 129 86 71
328 797 187 59 53 51
214 644 333 150 100 81
280 849 259 184 128 103
213 648 333 146 97 80
215 654 323 129 87 71
213 654 328 139 97 77
211 654 333 132 91 73
212 654 330 136 96 76
214 644 338 155 102 84
214 644 343 165 113 89
213 648 338 148 99 81
208 642 351 179 122 95
447 785 245 107 78 50
208 648 346 175 118 91
390 809 233 89 69 59
444 822 237 97 75 63
210 654 338 140 97 78
209 654 342 159 110 88
215 664 328 133 93 72
212 663 335 132 92 71
403 527 245 186 0 44
213 660 332 134 93 72
212 669 335 134 95 71
198 785 329 183 125 97
363 537 225 39 31 35
216 669 328 133 93 71
217 664 323 126 86 69
218 665 322 119 82 67
219 669 323 121 83 67
209 659 338 143 99 79
208 657 341 154 104 82
209 664 337 142 99 76
196 674 341 173 119 94
329 579 214 136 11 33
196 679 341 172 118 93
198 685 340 169 117 91
198 689 340 169 117 90
205 679 342 165 116 89
374 571 245 40 32 36
285 649 220 129 11 30
314 785 201 81 64 55
207 674 340 156 109 82
205 689 341 167 116 90
195 694 338 169 116 92
199 694 340 169 117 91
372 632 191 114 91 64
195 699 338 169 116 92
346 889 313 55 48 45
200 704 340 169 117 91
205 694 341 168 118 91
246 919 351 58 54 54
365 591 306 129 20 43
205 699 341 169 119 92
204 700 340 169 118 91
212 672 335 135 96 70
215 674 333 134 94 70
216 679 333 136 95 70
455 784 282 95 76 61
323 938 337 56 50 46
216 684 334 139 97 71
220 674 323 120 81 66
219 674 327 130 91 70
221 679 323 117 79 64
217 678 330 134 93 72
218 680 331 134 93 70
220 684 328 130 90 69
453 515 275 44 36 36
354 758 178 61 51 44
223 686 322 109 73 61
350 784 153 77 61 50
221 689 329 132 90 71
223 689 327 126 85 67
218 684 332 135 94 71
217 688 335 144 100 74
370 829 377 70 56 47
210 674 338 144 101 74
413 818 318 92 75 62
208 680 341 162 112 86
213 679 336 141 98 71
365 838 328 33 30 31
440 567 300 64 28 34
211 684 339 156 109 81
211 689 340 162 112 84
214 684 337 146 102 74
224 694 323 112 75 61
217 692 335 147 103 74
336 813 170 83 68 59
379 679 217 152 103 73
222 694 329 136 93 71
389 794 233 105 81 58
221 699 333 145 99 75
223 700 331 141 96 72
225 704 328 134 89 69
335 749 194 105 80 49
208 699 341 170 118 92
355 609 238 64 27 30
211 699 340 167 114 88
208 702 341 171 119 94
215 699 338 160 110 82
218 696 336 149 103 78
218 699 336 152 105 78
237 643 321 90 21 33
240 644 322 81 27 37
241 649 321 37 27 29
250 654 323 35 28 30
403 817 338 56 47 38
365 724 234 99 58 51
255 654 324 65 25 35
242 659 321 39 27 30
245 659 322 40 28 31
242 669 321 63 27 33
250 659 323 34 28 31
309 649 312 89 23 38
212 788 274 166 114 81
255 664 325 146 23 48
250 669 324 108 22 40
252 671 326 136 27 52
275 549 348 179 15 54
255 670 326 62 27 33
222 719 260 119 16 39
225 699 323 106 72 58
351 709 185 145 105 70
227 702 320 48 38 34
386 544 252 96 21 34
226 704 323 100 67 55
229 705 322 52 34 31
236 695 321 46 26 28
320 684 209 106 21 28
235 699 322 62 23 30
233 702 320 30 24 26
372 784 250 148 112 88
427 558 276 57 30 36
239 699 324 44 27 30
284 700 341 65 26 34
238 704 325 101 26 41
242 674 321 80 29 37
243 680 320 141 30 53
343 847 364 45 41 39
243 684 320 130 16 41
246 684 321 95 24 38
433 581 280 90 54 52
275 634 325 159 18 50
245 689 323 72 23 32
250 674 325 90 28 40
430 539 263 63 36 37
250 679 324 78 28 37
253 679 325 41 25 28
255 679 326 40 28 30
325 824 183 84 68 58
245 704 329 36 28 30
251 690 326 52 28 31
248 692 325 38 26 24
255 694 332 79 22 34
249 698 330 47 27 30
380 789 148 90 68 52
270 828 249 196 138 114
251 699 332 62 28 34
250 704 332 35 27 31
227 714 329 141 93 72
255 699 334 108 20 39
303 851 231 61 56 56
223 709 262 96 26 41
225 709 258 73 34 40
218 709 273 81 29 36
414 614 233 190 128 100
265 604 333 80 28 38
358 602 322 129 32 50
220 719 263 116 17 38
224 719 257 132 9 41
219 714 268 123 12 39
216 714 273 143 14 45
217 715 270 147 5 39
218 712 271 116 19 42
217 719 268 142 15 46
218 718 267 115 22 40
215 719 273 148 9 43
215 714 278 104 19 38
211 719 288 90 25 36
277 754 215 96 35 45
214 714 283 94 17 36
214 714 288 98 16 36
213 718 282 81 24 36
407 821 254 82 64 47
212 720 284 85 24 36
290 814 228 84 66 60
212 716 289 86 29 34
213 717 286 109 9 35
217 711 274 94 26 41
218 708 283 88 25 34
218 708 288 113 14 36
217 710 283 105 18 38
215 724 273 136 7 40
216 724 268 152 13 44
216 729 268 155 7 46
214 734 273 136 6 40
329 589 215 76 31 34
219 729 263 156 15 47
250 799 244 77 60 55
260 679 328 41 27 30
328 842 340 31 30 32
221 724 259 104 20 37
360 829 378 52 42 34
217 725 265 108 18 37
217 734 265 133 13 43
213 729 277 37 32 37
210 724 288 52 32 35
211 729 283 43 34 36
210 729 288 41 35 38
213 722 281 62 26 27
415 528 249 185 0 44
212 725 280 40 30 36
213 732 276 132 19 47
209 734 288 68 47 40
200 709 298 123 90 58
315 589 209 46 33 39
200 720 295 122 89 60
200 718 296 126 92 62
429 827 238 96 72 60
266 836 342 114 58 61
207 711 295 106 66 47
205 719 294 112 77 56
386 784 148 96 77 61
204 714 297 116 81 55
196 724 295 131 96 65
500 549 304 163 27 55
200 729 294 122 92 61
194 724 296 137 100 68
195 734 294 134 99 66
200 734 293 125 92 61
205 734 292 106 80 57
380 834 258 100 89 92
207 736 290 79 62 45
211 705 294 100 56 43
208 708 296 110 69 48
256 934 318 74 69 70
210 714 293 97 53 43
208 728 291 67 53 46
208 733 291 71 53 43
352 876 348 56 51 49
207 744 283 112 84 52
258 800 241 81 64 58
206 744 288 97 72 47
207 750 279 131 95 65
207 746 280 122 92 57
206 749 283 126 94 62
200 724 338 171 116 91
199 769 288 153 105 72
279 542 366 62 23 32
205 754 283 139 100 69
201 754 289 97 71 46
386 516 335 151 33 56
204 759 283 144 101 71
203 757 286 129 93 64
202 760 285 142 100 71
207 761 275 147 102 71
268 850 277 187 130 96
205 764 278 149 102 71
207 769 274 156 104 72
253 878 365 158 122 100
205 769 278 155 103 74
203 764 282 148 101 71
202 764 284 147 102 71
199 764 288 129 91 60
389 789 233 111 87 62
203 769 281 154 104 73
213 738 272 130 11 40
214 744 268 110 20 34
211 744 273 96 27 36
415 614 238 194 128 102
213 742 271 102 26 39
215 749 263 90 27 37
211 749 268 87 27 38
213 748 267 115 24 40
216 744 264 127 14 40
360 620 208 91 75 58
220 739 258 42 36 42
218 739 262 71 35 45
295 884 399 57 51 49
219 744 258 125 18 41
491 537 292 92 39 40
359 548 316 182 5 58
217 739 264 83 29 42
219 749 258 123 13 37
217 750 260 68 27 35
310 724 318 116 21 43
260 664 325 63 24 34
210 739 278 122 26 41
209 744 278 125 77 56
208 739 283 109 73 48
208 743 282 113 83 54
376 855 308 59 50 48
208 749 277 126 92 63
215 759 263 67 55 51
211 754 268 52 38 43
372 778 250 155 115 86
209 759 273 143 101 71
215 764 263 67 55 50
232 804 260 71 59 55
360 724 183 128 96 60
213 764 266 51 45 45
213 770 266 48 42 47
395 728 153 96 71 44
217 758 260 69 57 52
221 764 259 72 58 52
331 914 353 57 52 51
219 764 261 72 58 53
219 769 262 70 56 52
208 754 276 136 97 67
208 758 276 142 99 69
192 742 295 141 103 70
195 744 294 136 100 67
200 739 292 122 91 60
200 744 292 124 92 59
315 880 242 89 87 90
195 749 294 137 100 67
200 749 292 122 91 59
204 739 291 112 84 57
203 744 291 101 75 51
202 750 290 98 74 50
270 950 333 74 69 70
195 754 294 140 101 68
248 893 313 57 52 51
196 759 294 142 100 68
242 913 348 54 51 52
199 754 291 124 92 60
194 759 297 161 110 79
196 764 293 151 103 73
196 769 293 163 110 79
192 764 300 178 120 90
194 769 298 179 121 90
193 714 335 169 117 91
193 719 335 171 118 93
200 709 339 168 115 90
195 714 337 169 116 91
195 719 337 170 116 92
205 709 340 170 120 92
291 549 340 140 22 49
205 714 340 171 119 94
205 719 339 173 120 94
251 874 362 153 120 96
198 736 335 172 118 93
196 724 336 172 117 93
196 729 336 173 118 94
375 649 219 138 88 70
205 724 339 173 120 95
221 709 334 151 101 76
221 714 335 154 103 78
240 799 332 151 116 85
414 822 303 85 65 57
225 719 332 150 100 76
265 764 228 78 62 54
285 804 303 131 90 71
210 709 340 172 120 93
235 827 308 124 81 66
210 719 339 176 124 97
215 714 338 167 116 89
215 719 338 169 117 90
219 719 337 162 111 83
315 565 329 52 27 31
283 802 306 131 94 75
467 827 187 102 74 54
225 724 332 152 101 76
222 729 335 159 108 81
222 732 335 160 110 83
210 734 338 173 123 95
219 724 336 164 114 86
215 789 342 175 126 97
195 739 333 173 120 95
195 744 333 173 120 94
198 744 335 170 118 92
193 750 330 173 118 92
455 550 309 175 21 57
201 744 336 168 116 90
205 739 337 168 118 90
201 749 336 166 116 89
193 759 330 175 122 92
195 759 332 172 121 92
437 786 276 61 49 35
263 844 288 180 125 95
199 754 334 168 119 91
510 588 288 215 18 66
199 759 334 170 122 92
370 759 148 70 53 40
192 767 326 182 124 97
485 574 303 113 26 43
194 769 328 180 124 95
196 764 332 172 120 91
199 769 334 172 120 91
335 515 369 149 20 52
205 754 338 163 115 87
295 863 369 61 55 50
281 769 215 76 60 55
202 759 336 167 118 90
445 584 307 38 31 34
202 764 336 169 121 92
205 764 339 166 120 90
205 769 339 169 122 93
225 739 334 155 104 78
210 744 338 167 121 90
215 744 338 169 121 91
213 800 281 183 124 95
220 744 338 167 117 88
224 744 336 163 114 84
286 541 359 179 12 55
220 749 338 165 118 87
384 597 316 166 31 62
210 754 339 164 120 90
210 759 340 163 119 89
340 784 260 65 58 54
210 764 340 164 120 90
377 611 215 103 85 65
384 759 232 155 111 80
208 769 340 166 120 91
240 804 254 78 61 54
210 769 341 166 121 91
215 763 340 164 122 90
215 765 341 164 123 91
215 769 341 165 123 92
449 578 265 149 103 67
220 759 339 160 118 85
225 759 338 155 114 80
220 764 340 161 119 86
220 769 341 164 121 89
225 764 338 156 117 83
395 808 228 97 77 66
221 768 340 162 119 87
225 769 340 160 118 84
230 709 323 60 38 34
487 532 275 135 12 43
280 864 269 151 113 88
228 710 326 116 79 64
227 719 330 145 95 75
235 714 324 52 29 30
489 559 306 52 29 32
235 719 323 47 30 29
238 714 325 44 29 31
240 714 327 51 24 30
229 724 328 137 88 70
232 728 325 77 52 42
230 729 328 138 91 71
227 722 330 147 95 75
228 730 331 149 98 76
383 704 205 140 96 64
440 588 303 52 30 32
235 724 323 48 32 29
240 729 324 39 27 28
232 732 325 99 67 53
233 736 326 109 71 57
347 550 221 168 8 41
244 709 329 69 23 34
352 692 300 136 8 43
247 712 331 162 22 51
250 709 332 126 23 46
250 714 332 165 21 53
425 554 300 49 27 31
251 719 331 162 20 52
375 829 368 72 58 47
255 714 334 166 21 54
390 769 143 83 64 51
243 721 325 36 24 25
310 599 212 41 35 39
243 724 325 43 26 29
244 729 325 77 20 31
348 822 174 89 68 56
250 729 329 166 22 55
252 724 331 164 20 54
255 724 332 170 22 56
255 729 332 171 22 56
250 734 329 160 20 52
253 730 330 169 22 56
395 599 223 104 88 71
226 744 334 156 107 79
229 739 331 148 97 73
231 739 329 144 94 71
280 514 189 40 37 42
229 744 332 148 100 74
255 774 233 76 60 53
231 744 330 146 96 73
230 749 332 149 102 75
234 739 326 121 79 60
235 744 327 129 85 62
240 739 325 99 74 56
237 742 325 113 79 55
240 749 326 136 99 71
242 827 270 83 67 61
232 749 330 148 98 73
230 754 333 147 103 73
230 759 334 145 106 75
235 754 328 127 86 60
240 759 328 126 89 60
496 538 298 73 20 25
232 752 330 145 97 73
233 755 331 142 99 69
236 758 329 126 89 59
234 759 332 137 99 67
275 609 329 44 26 30
235 769 334 147 111 78
460 515 325 90 32 42
239 765 331 132 99 63
440 564 299 51 25 31
312 941 350 57 54 55
239 769 332 140 105 71
229 764 336 150 113 79
344 709 192 146 108 79
230 769 337 151 116 82
242 739 326 93 70 58
245 739 327 93 41 46
245 749 327 160 120 91
331 894 363 51 46 45
250 739 329 130 16 42
253 744 330 146 16 46
388 812 205 92 72 63
470 534 268 72 29 30
250 749 329 154 96 82
310 749 197 81 35 37
340 664 288 117 12 40
256 749 332 118 26 45
387 600 232 99 72 56
355 694 298 137 7 42
245 764 329 157 112 82
242 769 330 144 107 73
245 769 329 151 109 77
251 904 373 42 40 40
321 909 369 51 49 50
256 754 331 51 44 40
250 764 329 165 119 90
250 769 328 151 110 82
255 764 329 102 76 61
255 769 328 93 70 56
230 774 253 72 58 52
230 779 254 73 59 53
258 892 375 148 113 97
231 783 254 75 60 53
237 774 245 72 58 51
315 878 238 85 81 84
232 772 250 72 59 51
432 584 310 81 32 40
258 837 307 138 105 80
241 778 244 72 58 51
240 784 247 75 60 53
234 779 252 73 58 52
236 784 249 75 60 52
234 784 253 75 60 52
452 783 240 117 87 59
235 789 253 76 61 55
232 787 255 75 60 54
236 789 249 76 60 53
240 789 248 77 60 54
430 794 288 68 55 43
236 794 254 77 61 55
236 799 255 77 61 55
470 514 278 131 14 40
435 804 263 90 69 57
252 773 235 75 59 53
250 774 237 74 58 52
253 776 236 75 59 52
250 784 239 76 60 54
370 860 303 66 56 51
284 884 243 87 75 72
253 779 236 76 60 53
256 783 234 76 60 53
242 784 245 75 60 52
245 784 243 75 60 52
246 869 348 130 108 88
247 782 240 75 60 52
248 785 241 75 60 52
244 790 246 76 60 53
275 899 393 54 49 48
246 789 244 76 60 52
244 794 247 75 60 52
247 794 245 75 60 53
310 673 211 81 29 32
294 908 265 85 78 78
245 799 248 75 60 53
247 798 245 75 60 53
243 800 251 76 60 54
254 795 241 78 62 56
255 799 242 79 63 57
305 579 204 92 32 38
237 804 255 77 61 53
237 807 255 78 62 54
485 564 260 136 99 70
240 808 255 80 63 55
240 826 310 64 42 40
246 804 249 76 60 54
244 804 252 78 61 55
247 807 250 78 62 55
332 677 216 41 29 32
249 805 247 77 61 54
250 809 249 80 63 57
215 820 308 220 147 116
255 804 243 80 64 57
253 806 246 79 63 56
432 517 261 94 28 29
254 809 247 82 65 58
256 808 245 81 65 57
367 779 255 150 113 91
255 814 248 84 65 58
253 816 251 87 67 58
254 819 251 80 63 59
256 818 250 81 63 58
256 827 255 191 141 113
192 774 313 191 130 104
192 773 318 189 130 102
204 774 282 165 110 79
202 773 284 163 110 78
201 774 288 167 112 81
207 779 279 168 112 81
207 783 280 170 114 81
202 779 289 177 119 89
203 776 286 170 114 82
204 784 288 178 119 90
235 819 323 172 119 96
206 784 283 173 116 85
205 789 288 181 124 92
206 794 288 184 125 94
375 734 233 151 104 78
464 824 183 95 71 52
355 584 228 44 28 30
211 774 269 100 74 62
214 774 267 51 45 47
351 620 264 179 8 56
210 779 273 162 110 78
215 779 267 52 45 47
215 784 268 52 45 47
278 882 257 57 54 55
213 785 271 118 83 64
225 774 258 72 58 54
220 779 263 69 57 53
375 514 228 56 36 38
226 779 259 72 58 54
224 780 261 70 58 53
420 576 255 107 85 59
221 784 265 69 56 54
217 778 265 71 58 54
218 781 266 72 60 56
219 784 266 71 59 56
208 776 276 162 106 77
385 572 268 57 23 29
208 779 277 167 113 81
222 788 265 68 56 53
223 791 266 68 56 53
218 796 271 52 46 48
221 799 269 70 57 53
436 790 283 78 65 53
225 794 264 72 58 57
210 789 278 171 116 83
213 790 276 168 114 83
208 786 281 171 114 83
359 820 244 31 29 27
208 790 282 175 119 87
216 799 274 75 60 54
367 581 258 110 26 43
214 799 278 171 119 90
212 798 280 181 124 93
209 799 288 185 125 95
199 774 293 174 117 86
197 772 294 175 117 87
193 770 302 186 126 96
268 810 241 82 63 57
194 774 303 191 128 99
198 776 296 185 125 96
377 744 235 154 107 80
200 779 293 183 124 94
197 779 299 190 128 100
198 779 297 189 128 99
199 784 298 189 128 99
400 544 258 134 7 33
202 783 290 181 121 92
192 772 305 190 129 101
326 619 299 134 28 50
194 779 313 191 130 104
196 784 308 190 128 101
195 784 313 191 130 104
232 816 330 184 132 105
194 779 318 190 130 102
195 784 318 192 131 103
202 788 294 187 129 97
359 599 243 94 26 41
204 794 293 186 127 96
207 797 289 185 126 95
206 799 293 186 126 96
445 550 277 45 29 35
201 794 303 191 130 101
205 799 298 191 130 100
203 800 302 195 133 103
197 787 305 191 129 102
197 788 313 192 131 104
198 790 308 189 128 100
271 787 225 80 64 56
258 849 348 151 107 88
198 791 318 194 133 103
325 734 197 47 37 39
352 825 244 35 31 29
200 794 308 191 130 102
199 794 318 196 134 105
201 799 308 196 133 104
208 800 292 187 126 97
220 804 273 63 53 52
222 803 270 72 59 54
411 744 158 82 63 49
315 619 218 98 26 35
223 806 271 75 62 57
320 829 288 68 58 48
224 810 272 79 64 59
215 804 278 145 102 82
216 808 279 126 91 75
211 804 288 188 127 97
310 893 233 91 77 71
242 899 333 58 53 53
212 808 289 192 130 99
335 894 268 84 71 70
214 810 288 195 133 101
216 813 288 202 138 104
218 806 276 45 44 51
221 813 278 64 53 53
222 812 275 80 65 59
296 669 320 153 15 50
219 816 287 199 137 104
222 818 284 66 48 51
221 818 288 172 120 94
270 809 239 82 64 57
270 589 214 105 17 37
205 804 303 200 135 105
462 556 265 99 81 61
207 807 300 202 137 105
206 808 303 203 135 105
202 803 309 198 135 106
204 804 308 200 134 104
202 803 313 198 134 106
203 805 313 198 134 106
275 639 224 63 35 39
207 812 309 204 134 104
207 813 313 207 138 106
209 804 293 192 130 100
209 809 298 202 137 105
212 812 295 203 137 106
329 512 377 201 4 63
215 814 293 206 138 107
321 521 369 194 5 61
211 813 298 206 137 107
210 814 303 209 139 107
214 815 298 210 140 109
209 815 313 214 143 110
324 938 323 75 68 68
213 816 302 213 143 111
218 816 292 210 142 109
361 780 143 78 61 49
220 819 293 212 145 112
222 822 294 208 143 112
225 824 293 116 75 69
219 820 298 218 146 114
225 825 298 190 125 99
389 634 200 132 98 60
225 825 303 202 137 106
330 544 210 134 5 29
212 818 308 218 146 114
320 854 212 109 84 73
211 818 313 217 145 114
212 817 304 215 143 110
215 820 318 207 137 111
220 823 308 209 140 110
278 796 226 80 63 56
216 822 313 206 134 108
225 824 318 197 133 108
406 774 188 79 58 45
225 825 308 196 132 103
225 825 313 193 129 102
228 774 256 72 58 53
375 613 213 106 87 66
226 784 259 73 59 56
228 779 256 74 59 54
229 784 257 74 60 55
269 845 268 189 130 101
227 788 260 73 59 56
231 794 259 74 60 56
272 516 390 164 109 103
394 834 303 69 58 54
231 799 259 74 60 56
234 794 256 76 60 55
234 799 257 75 60 55
230 809 263 78 63 59
305 834 228 60 54 52
227 803 265 76 61 58
228 810 267 79 64 59
235 809 259 78 62 55
449 822 226 90 75 64
235 814 263 81 64 58
237 812 260 81 64 56
353 842 225 93 76 70
239 815 262 85 65 58
344 744 193 106 78 51
230 819 273 83 67 63
231 817 269 83 66 62
234 816 266 82 66 61
234 820 272 85 67 63
508 569 265 143 102 79
239 820 267 89 68 61
240 824 273 85 67 61
227 817 274 84 68 61
395 578 279 71 25 32
229 820 278 84 67 63
228 821 282 86 69 64
236 822 274 84 67 63
235 824 278 82 66 63
238 826 277 82 66 62
234 825 282 82 66 63
236 828 283 81 65 62
420 580 278 66 40 32
232 827 289 79 65 62
272 858 275 188 134 103
285 878 383 46 39 36
233 826 286 82 67 63
235 829 288 78 63 61
445 794 243 106 80 59
237 827 280 81 66 62
239 830 283 77 63 60
445 814 243 77 60 52
239 831 288 71 59 58
260 604 223 140 13 39
244 815 257 85 66 58
395 589 318 135 31 50
245 819 258 85 66 59
244 820 262 86 66 59
247 823 259 80 64 58
242 822 265 89 67 61
248 887 360 159 120 98
246 828 264 56 49 53
290 919 273 93 85 85
245 829 268 66 57 56
242 828 273 80 65 61
243 830 272 66 57 57
251 828 259 96 75 68
351 785 264 59 48 44
357 764 170 59 46 41
248 826 261 54 52 53
249 830 263 135 103 86
469 818 180 93 66 52
255 829 258 192 136 109
253 831 261 198 137 109
506 553 273 120 97 74
227 827 298 140 82 68
227 827 301 188 129 101
230 828 303 144 92 74
228 826 304 194 134 104
239 831 293 64 53 53
366 521 335 79 36 45
235 830 298 55 49 50
235 829 303 49 39 41
387 609 241 136 84 78
240 830 303 45 39 39
230 824 318 191 133 109
391 789 218 113 83 60
229 826 309 190 130 103
313 612 331 121 29 50
230 826 313 189 132 107
235 823 318 173 118 95
235 825 313 175 125 101
343 889 293 44 38 35
236 826 310 166 119 95
268 869 286 158 122 94
240 828 307 44 35 35
245 831 299 46 38 39
359 599 238 92 29 40
380 845 273 67 55 54
255 825 304 43 32 31
255 828 302 54 40 35
350 824 178 115 88 66
255 830 299 84 59 49
380 824 368 78 62 52
245 823 312 51 37 35
245 819 317 136 100 79
244 827 307 42 33 29
246 826 309 41 33 30
446 586 305 45 32 34
375 850 338 65 55 53
388 648 217 182 122 94
250 824 308 43 34 31
372 616 205 102 86 70
249 823 311 42 33 32
440 587 281 171 118 106
344 799 266 45 38 35
255 819 308 42 34 32
254 818 312 45 36 34
254 823 307 42 31 30
398 782 170 84 63 53
249 818 316 55 40 37
465 524 274 72 24 27
193 770 324 185 127 99
199 774 334 174 121 92
195 779 323 187 128 100
196 779 328 183 126 97
389 843 293 67 57 51
196 784 323 189 128 101
280 938 298 88 81 81
197 783 327 185 126 99
197 778 331 179 122 93
200 779 333 176 122 92
198 781 330 181 124 95
349 754 187 122 94 64
203 784 335 177 123 93
387 775 146 96 73 57
376 841 262 76 65 63
280 836 347 108 79 65
202 773 336 173 122 94
355 759 273 80 63 56
254 873 364 150 118 95
205 779 338 175 124 96
205 784 337 178 125 97
198 786 325 188 128 100
199 789 328 186 127 99
200 794 323 192 132 103
201 789 332 181 123 93
204 789 335 179 124 93
312 541 335 126 35 51
201 794 328 187 129 99
202 798 327 190 131 102
270 589 337 38 28 29
203 796 330 186 128 99
205 799 333 185 127 98
436 785 273 57 47 37
304 769 201 72 58 51
206 789 337 178 126 97
255 832 296 95 68 53
210 774 341 169 122 92
259 925 363 58 54 54
215 774 342 168 124 94
211 784 341 175 127 98
280 629 223 102 23 37
215 779 342 171 125 96
220 774 341 167 124 92
347 659 190 141 104 72
220 779 342 171 127 97
224 779 341 166 124 92
208 800 335 184 126 98
209 789 339 179 129 102
210 794 338 182 129 102
445 523 258 86 36 27
335 869 228 84 70 66
212 793 341 180 129 100
215 794 341 178 128 99
214 799 340 183 131 105
220 789 342 175 130 101
220 794 342 177 129 102
220 799 341 180 130 104
225 794 341 173 128 99
225 799 341 180 137 110
260 765 330 64 52 47
396 634 208 182 124 93
202 802 321 195 134 106
203 801 325 192 132 104
205 804 328 191 131 104
330 544 328 95 27 41
207 808 327 195 132 105
345 669 223 89 51 43
206 803 332 189 128 101
207 812 322 205 141 112
209 804 334 189 129 101
362 596 264 68 33 38
210 809 333 195 133 105
209 810 329 197 133 105
209 814 323 206 140 114
211 814 328 200 136 108
419 608 238 194 131 101
214 810 335 200 142 118
215 814 333 201 142 117
214 816 329 202 139 113
220 814 334 199 139 113
225 814 334 202 147 122
211 804 337 189 134 107
215 804 339 189 136 111
212 807 336 196 139 114
215 809 337 196 141 117
221 802 341 184 133 110
220 809 338 193 135 110
262 845 294 135 90 68
225 809 337 193 140 115
277 790 310 76 61 53
224 812 336 203 150 124
220 819 328 203 141 115
218 821 320 198 129 104
221 822 322 202 135 111
250 889 313 72 62 58
225 823 323 202 138 113
217 817 331 202 144 117
220 817 331 200 140 112
225 817 331 201 142 117
236 774 334 154 116 82
505 549 298 57 20 27
236 779 335 152 118 85
226 779 340 163 122 88
248 889 318 84 73 67
410 819 377 93 77 67
230 784 339 162 121 88
234 779 336 154 120 87
302 517 196 39 35 42
280 619 334 148 25 52
234 784 336 158 119 88
240 789 333 148 116 83
240 794 333 149 115 83
227 789 340 164 120 90
241 914 338 52 49 50
227 794 340 164 121 89
230 794 339 157 115 84
234 789 337 157 116 86
234 794 337 153 114 83
285 839 353 108 85 64
245 774 329 150 110 78
316 915 277 82 73 74
245 779 329 149 110 79
326 799 279 133 96 79
245 784 328 149 110 80
259 734 226 91 28 38
242 779 330 150 112 80
409 588 316 157 27 58
242 784 330 152 115 83
250 774 327 141 105 77
326 869 390 50 46 45
255 774 327 88 67 53
367 714 251 156 20 47
250 779 326 136 101 76
251 784 325 113 86 67
255 779 325 78 60 48
310 744 308 78 61 53
255 784 325 70 55 43
243 790 331 139 111 81
245 794 329 141 111 82
242 800 330 149 114 86
260 547 366 170 23 57
251 789 325 122 94 73
255 789 324 63 50 41
283 621 221 35 35 38
250 799 325 133 108 85
453 551 305 170 22 55
255 794 324 55 44 37
255 799 323 50 41 36
231 805 335 162 117 90
252 933 324 73 70 70
312 687 320 30 27 29
390 524 323 96 24 41
227 811 335 191 137 112
230 814 332 184 131 107
235 804 334 156 115 86
235 808 332 161 115 88
239 803 332 154 115 86
410 835 258 71 57 51
241 804 329 151 112 85
388 822 247 73 62 58
503 545 299 51 22 27
240 809 328 152 108 83
280 945 354 54 51 51
238 807 331 155 110 83
240 814 323 153 109 83
329 788 196 75 58 50
237 815 324 163 115 90
236 810 329 160 113 89
230 804 337 166 122 93
233 802 336 156 115 87
366 821 216 115 76 63
439 793 247 103 75 54
229 817 331 198 143 119
340 842 298 36 33 31
234 818 327 178 126 101
239 818 322 162 114 91
243 808 326 147 106 81
246 805 325 147 111 87
244 813 322 143 102 76
250 804 324 140 110 87
250 809 322 127 96 74
255 804 322 45 37 34
254 808 321 40 34 34
359 828 213 93 71 65
452 790 239 109 82 60
245 833 273 100 80 71
295 569 203 43 37 40
251 832 264 197 139 109
296 888 224 112 93 79
338 787 182 57 49 47
256 838 269 197 135 105
400 525 242 181 7 46
255 839 273 196 132 103
245 834 278 80 67 63
242 832 279 72 62 61
345 664 283 137 8 43
325 814 183 74 62 56
242 832 283 73 61 60
280 639 324 169 13 53
245 835 283 56 49 52
248 836 278 193 141 109
255 840 278 194 131 100
248 836 283 121 99 82
335 619 288 76 26 36
280 829 338 125 71 80
250 838 283 183 131 103
255 840 283 182 123 95
306 824 304 85 71 55
370 837 278 40 35 31
255 838 287 165 111 84
241 832 293 62 51 51
432 819 225 82 61 48
245 832 297 51 42 43
254 836 289 151 109 83
250 832 297 39 30 33
300 604 213 128 22 40
255 849 303 145 107 80
256 839 308 139 105 81
255 839 313 139 104 79
252 845 313 141 106 79
315 884 238 85 79 81
250 849 313 153 115 87
368 792 159 82 64 54
350 524 217 49 36 38
254 844 308 141 105 81
253 843 313 140 106 79
253 847 306 146 108 81
353 675 273 137 12 43
251 845 318 136 103 77
254 842 318 137 104 79
256 840 318 136 102 78
254 854 303 158 117 88
267 796 315 65 52 44
299 805 216 84 66 57
256 854 299 160 121 91
357 837 269 28 26 27
254 859 303 169 125 97
256 859 299 171 129 97
448 782 246 102 75 51
346 659 273 147 7 45
255 864 303 175 130 102
247 851 319 146 108 81
393 800 231 115 87 66
257 719 225 133 12 36
247 855 315 173 128 102
247 859 315 184 138 113
375 535 237 173 4 42
248 854 313 173 129 101
252 850 305 152 113 84
248 852 316 161 121 94
485 586 284 158 93 87
249 859 313 183 137 111
365 694 263 120 20 41
288 816 326 119 97 74
253 864 306 177 131 102
248 864 316 186 137 114
364 859 269 73 63 62
256 869 303 170 128 98
256 874 303 155 119 93
255 879 303 152 117 91
290 913 381 62 60 63
252 869 309 175 130 102
250 869 313 178 131 106
329 928 309 84 75 74
374 828 313 33 31 30
248 869 317 179 131 108
252 874 309 161 121 94
344 639 198 114 89 64
250 879 313 162 120 97
253 874 307 154 115 89
248 874 318 180 132 110
275 649 325 165 18 51
248 879 318 171 124 101
328 808 181 62 53 51
256 884 298 167 117 92
428 536 310 176 28 62
253 888 302 133 97 76
359 753 178 63 56 50
362 850 258 76 65 61
254 894 293 150 101 81
256 894 290 157 103 81
252 896 294 143 98 75
252 890 304 105 78 64
250 894 303 84 65 54
247 890 320 79 69 63
245 894 318 58 54 53
251 889 308 82 67 58
253 883 307 128 98 77
249 884 318 128 98 81
251 845 323 113 85 63
248 847 328 121 91 69
400 779 168 89 66 53
251 846 328 101 76 55
362 569 231 86 29 33
249 847 333 127 95 74
255 845 338 121 89 71
253 847 339 104 77 57
255 849 343 122 88 69
296 536 196 54 39 42
257 846 342 132 94 79
246 850 323 138 100 77
246 850 328 146 105 84
245 854 323 162 119 95
244 854 328 169 119 100
264 838 297 113 70 53
360 646 220 114 76 64
244 859 323 181 133 110
337 891 266 86 73 71
243 859 328 183 129 111
358 554 230 133 9 32
244 864 328 181 129 109
244 859 333 178 125 110
247 850 337 154 108 91
246 854 338 167 118 104
247 865 342 95 70 64
251 850 342 135 100 80
248 854 340 156 114 97
251 854 342 151 112 95
254 854 344 146 107 91
250 865 348 97 83 75
254 859 345 138 96 84
396 762 182 60 46 35
356 614 258 180 4 56
256 854 347 151 109 95
252 861 346 86 67 57
418 571 306 56 34 36
245 869 328 174 126 106
245 869 333 163 118 97
246 874 323 176 127 107
247 879 320 173 126 102
305 614 328 85 25 36
246 879 323 170 126 102
245 879 328 165 125 101
244 879 333 168 131 108
380 738 183 87 63 49
361 689 288 119 13 39
262 760 330 81 66 57
400 736 171 66 54 41
246 869 343 112 92 77
247 870 352 90 76 69
244 874 343 132 109 93
243 879 338 171 134 112
424 532 255 179 0 40
244 874 338 149 122 99
243 879 343 171 134 113
498 546 290 75 24 30
244 874 348 112 95 85
246 874 353 119 102 90
246 879 353 167 128 108
280 584 335 63 30 36
480 537 266 76 23 29
310 598 324 129 14 39
248 867 349 128 106 85
307 730 200 60 41 40
251 866 352 118 96 76
435 558 277 61 27 37
247 883 320 154 115 92
246 884 323 159 122 97
282 852 260 182 129 105
244 884 333 167 128 104
244 894 323 60 55 53
243 894 328 64 57 55
375 737 173 84 64 43
243 894 333 77 67 63
454 830 191 133 106 77
244 884 343 167 126 103
243 889 338 148 115 94
245 889 353 165 128 105
403 777 169 74 54 46
243 894 338 104 87 76
243 894 343 134 107 89
243 894 348 146 113 96
301 595 325 151 22 52
247 880 356 161 123 102
251 870 358 82 73 66
358 681 268 112 2 32
347 836 369 40 38 36
254 868 359 69 58 51
255 869 363 125 104 83
263 930 358 62 58 58
252 871 361 132 108 85
326 540 330 45 28 31
248 872 355 100 90 82
294 764 206 71 58 51
249 874 358 147 119 97
248 879 359 160 123 100
251 879 363 158 120 97
355 689 185 130 96 59
256 874 367 150 118 95
358 815 163 140 131 125
370 514 348 167 20 55
252 880 366 153 115 91
346 802 255 37 32 31
246 884 357 160 120 99
245 894 358 130 100 87
247 890 361 164 125 104
323 624 301 75 28 36
246 894 362 138 107 91
248 884 360 158 119 96
405 534 253 177 0 42
252 884 367 156 118 96
248 894 364 147 112 95
251 894 368 149 115 97
254 884 369 153 118 96
253 888 369 163 124 104
255 889 373 160 122 104
253 892 370 162 123 103
255 894 373 138 104 89
380 554 309 170 12 53
285 894 257 68 59 56
255 914 288 71 63 62
247 904 304 61 56 57
251 899 294 187 128 100
251 904 294 122 81 71
255 904 292 61 44 46
250 899 298 114 82 63
276 937 299 89 81 81
248 899 303 69 57 50
384 822 319 42 36 32
249 904 298 130 91 75
251 909 294 61 56 56
259 528 387 188 129 113
253 909 292 58 53 54
276 631 325 70 19 32
255 909 288 62 56 57
249 909 298 63 58 58
246 899 308 58 54 54
245 899 313 53 50 52
246 904 308 61 58 59
243 903 317 58 55 56
298 872 395 40 37 37
245 909 308 59 54 55
325 594 323 134 14 41
242 906 315 55 51 52
242 909 318 54 50 51
480 587 282 191 132 117
359 841 320 33 30 31
247 914 304 62 58 57
252 919 294 78 70 68
253 919 292 80 71 68
316 851 362 40 37 35
255 919 288 79 71 68
249 914 298 68 62 62
370 579 237 49 29 30
248 914 301 66 60 61
249 919 298 76 69 68
313 809 287 110 84 65
248 920 301 73 67 67
252 922 295 84 74 73
256 923 289 88 78 73
357 847 293 32 29 28
450 544 268 134 17 41
255 924 293 84 75 72
433 819 226 81 60 47
249 924 303 82 75 74
254 925 297 80 72 72
256 927 299 78 71 70
365 654 219 131 83 68
325 824 273 58 50 42
243 919 313 66 60 59
305 769 302 68 53 45
242 914 315 62 58 59
242 918 319 67 62 62
246 923 308 77 70 68
485 585 267 189 119 102
246 924 313 73 67 66
355 619 253 175 2 55
247 927 314 75 70 70
361 599 263 104 25 42
247 927 318 76 70 70
248 925 307 81 74 73
251 928 308 82 75 75
250 928 313 78 73 73
