ply
format ascii 1.0
comment Created by Open3D
element vertex 2218
property double x
property double y
property double z
property uchar red
property uchar green
property uchar blue
end_header
460 694 263 111 88 61
418 890 280 36 33 33
318 865 301 129 111 106
463 696 265 108 86 63
462 691 266 108 86 62
464 691 269 116 90 59
456 698 257 99 83 65
462 701 261 102 84 63
464 701 264 106 85 61
465 680 279 137 100 64
465 676 285 137 97 64
466 678 282 139 101 67
466 681 280 141 101 66
373 901 345 47 41 39
466 681 284 144 101 67
428 863 210 63 54 53
466 686 280 143 101 68
466 686 285 147 101 69
423 902 305 56 47 46
465 694 268 117 92 64
467 696 270 124 95 60
468 696 275 136 100 62
468 696 280 142 100 64
466 691 285 150 102 69
469 701 280 143 100 64
398 900 338 68 55 46
452 675 303 179 127 94
454 676 302 180 124 92
398 883 279 30 28 28
451 682 303 175 121 90
478 876 295 79 63 54
452 686 303 176 122 91
463 681 295 175 117 88
453 741 299 176 122 92
458 676 300 180 122 92
461 681 298 177 118 91
458 686 300 175 117 88
461 859 297 50 44 39
461 686 298 175 117 88
451 691 303 178 123 91
454 691 302 178 122 90
463 691 295 173 116 85
463 696 295 172 115 84
458 696 300 176 120 89
419 892 245 64 55 55
460 696 297 173 117 86
458 701 299 177 120 91
465 686 290 162 108 77
466 688 288 155 106 76
465 696 291 166 110 77
466 696 289 161 108 76
465 701 292 167 111 81
460 704 258 86 71 56
464 716 259 100 81 59
466 712 262 107 85 61
469 706 270 133 98 64
471 712 270 141 102 67
467 716 261 108 86 60
465 720 258 101 81 58
544 842 249 102 79 62
459 857 305 70 59 50
470 720 263 125 97 61
471 716 267 136 99 66
470 706 275 140 100 65
353 812 277 184 132 112
470 706 280 145 101 66
471 711 275 143 101 67
470 710 281 148 101 68
469 706 285 157 106 72
472 716 275 145 101 69
470 715 282 154 104 72
471 718 283 158 106 74
471 721 283 161 106 77
395 923 248 86 74 72
468 726 260 110 87 60
470 724 263 127 100 66
471 727 262 125 97 64
465 729 258 96 72 57
469 731 259 113 88 61
469 735 258 115 90 59
474 726 270 148 105 71
475 736 264 147 107 72
476 736 267 154 111 77
476 736 270 154 108 73
472 726 280 159 107 73
420 858 328 43 38 36
458 881 330 83 65 53
473 731 280 161 105 73
471 731 283 165 109 77
471 736 283 168 110 79
348 955 319 62 58 57
474 731 275 154 104 70
475 736 276 157 105 70
476 736 274 155 106 70
458 866 320 61 50 44
453 706 302 180 124 93
453 861 340 62 49 39
451 704 303 179 124 97
453 711 301 180 124 94
298 838 230 109 59 57
348 857 228 158 111 85
453 716 300 180 122 94
463 706 295 173 115 86
458 706 299 177 119 91
500 832 289 112 86 64
458 711 299 178 119 90
398 886 190 93 77 68
460 712 297 176 116 87
433 851 230 56 47 48
463 716 294 173 115 86
459 726 296 177 119 89
458 736 296 176 119 91
484 837 310 68 54 41
459 731 296 176 118 90
434 795 298 174 133 103
467 711 290 168 111 81
465 711 292 171 112 83
467 716 290 170 112 82
412 873 278 36 33 32
465 716 292 171 112 85
465 721 292 171 112 85
465 726 292 172 115 85
465 731 292 172 114 86
467 731 289 170 111 84
467 736 289 170 113 85
470 739 258 115 90 59
475 739 263 149 109 74
476 741 265 152 109 75
408 861 274 36 33 33
483 849 267 100 81 62
476 742 262 146 108 74
477 741 270 151 105 71
475 746 260 138 104 71
477 751 265 151 109 76
477 746 270 154 107 72
343 964 246 91 87 91
477 751 270 156 107 74
472 741 280 163 108 76
471 741 283 167 112 82
472 746 280 166 111 79
469 746 286 168 114 83
384 927 234 77 69 68
471 751 284 164 112 81
469 751 286 164 112 80
485 781 222 106 80 58
475 750 276 163 109 77
476 756 260 149 111 76
472 766 285 163 114 81
477 756 275 163 110 77
476 757 278 163 112 79
398 806 289 65 53 49
475 762 277 163 112 77
476 765 274 163 109 75
320 913 232 120 93 70
471 880 300 77 62 51
455 740 297 175 122 91
458 741 295 174 119 91
462 741 293 172 116 88
458 751 296 166 116 85
462 761 294 159 113 81
456 756 298 166 118 86
456 762 298 165 119 85
457 766 298 164 117 85
460 766 297 162 115 82
467 741 289 170 115 86
467 756 289 160 111 79
468 761 290 160 111 77
471 767 288 162 112 79
264 776 206 165 110 78
267 771 204 163 110 77
478 836 268 53 44 37
267 776 204 166 110 78
269 771 202 163 110 77
273 771 200 162 110 76
470 848 300 78 65 54
270 775 202 167 111 80
273 776 200 168 114 79
265 780 207 161 107 74
403 825 279 51 42 42
271 783 203 164 109 76
259 771 211 170 115 83
258 771 215 168 113 81
358 796 201 73 59 52
258 776 215 167 112 80
257 771 220 162 111 79
256 771 225 162 112 80
256 776 225 162 111 80
263 781 210 162 109 75
273 791 204 160 106 73
414 856 195 84 68 58
270 795 207 160 106 72
274 801 206 161 107 72
259 791 216 170 114 81
263 786 210 161 108 73
257 786 220 166 112 80
256 786 225 166 114 82
257 791 225 170 116 84
260 796 216 173 116 82
264 796 211 166 110 76
263 801 215 172 115 82
259 801 220 177 119 87
258 801 225 179 124 93
260 800 217 174 118 83
265 799 212 168 110 79
268 801 210 166 110 78
278 776 198 165 114 77
282 775 198 154 107 71
363 861 286 113 91 69
282 782 198 167 115 78
278 786 201 168 112 79
274 785 202 165 108 77
279 791 202 164 110 76
277 792 203 161 107 73
280 795 202 161 109 74
283 786 199 170 115 79
416 888 282 35 32 33
283 791 200 167 113 78
288 786 197 164 112 76
286 788 198 169 115 80
289 791 197 167 112 79
373 787 200 67 56 52
288 796 199 167 115 79
283 796 201 163 111 75
281 798 203 161 110 73
282 801 203 159 108 73
288 801 201 166 114 79
256 771 230 165 115 83
256 776 230 165 115 84
260 771 243 170 123 96
259 776 244 170 124 95
262 781 246 170 124 96
268 771 251 171 125 98
265 781 248 172 126 98
259 791 240 180 128 101
257 796 230 180 127 96
258 801 230 184 130 100
259 801 240 184 131 103
260 784 243 173 126 98
351 879 229 58 49 49
262 786 245 173 126 99
263 796 245 179 132 103
263 801 244 182 132 104
460 796 210 52 45 41
268 786 250 176 133 104
265 790 248 177 132 103
268 791 250 180 135 106
269 801 249 186 139 113
272 801 252 189 141 116
337 778 287 71 60 55
278 771 254 125 89 63
278 776 256 139 103 73
368 901 200 89 75 71
277 781 256 159 120 90
278 796 256 183 140 111
278 801 255 185 142 113
260 805 221 181 123 92
259 806 225 184 127 98
261 802 218 174 118 86
262 806 219 178 121 89
264 806 216 173 117 83
263 811 220 183 124 94
260 810 225 190 131 102
264 815 220 191 131 102
448 861 310 58 50 43
262 816 225 202 137 110
358 835 277 154 120 94
269 806 211 171 113 82
472 850 280 92 80 69
458 861 350 74 57 43
273 806 209 169 113 79
267 811 214 172 115 84
270 814 212 173 116 84
274 815 211 175 117 84
265 814 217 180 121 90
264 820 226 216 149 118
269 820 221 205 141 112
271 818 218 190 128 99
271 828 224 229 156 131
274 805 207 166 110 77
278 806 205 163 111 74
536 844 247 105 83 63
279 811 207 170 115 82
285 805 202 160 109 71
433 830 279 132 94 75
283 811 205 169 115 81
280 814 207 178 118 86
288 812 204 169 114 80
278 816 209 179 119 87
339 912 206 74 66 67
274 821 216 192 129 101
373 896 330 38 35 35
494 871 286 97 77 62
279 820 211 184 123 91
277 822 214 191 128 96
278 826 215 208 140 111
275 825 217 207 140 114
273 830 225 231 156 131
276 828 218 219 147 123
279 829 217 216 145 117
278 832 225 221 145 119
287 818 208 184 125 96
283 830 216 214 143 112
283 832 220 214 139 113
259 806 230 187 131 102
413 802 292 64 52 48
260 811 230 191 134 106
261 813 230 195 137 110
262 816 235 195 137 111
264 806 244 183 133 105
272 806 251 186 139 115
268 811 246 184 135 110
272 817 247 189 140 116
273 816 249 187 140 116
266 823 236 209 147 122
355 859 292 130 102 74
265 824 231 219 151 121
268 826 230 224 155 125
273 830 230 220 148 118
269 825 239 206 144 116
428 826 211 61 53 53
273 830 235 210 144 115
273 821 245 195 142 116
276 812 252 183 138 113
278 816 251 186 139 113
279 814 253 186 140 113
311 930 233 64 59 60
283 806 256 184 141 112
283 811 254 185 142 113
323 840 244 155 116 90
284 815 253 189 144 114
461 850 272 37 32 29
384 771 203 62 52 45
274 829 239 206 144 116
277 822 246 193 141 115
276 828 242 204 145 119
287 818 252 194 148 120
283 830 244 192 138 111
283 832 240 194 137 110
288 827 247 195 149 125
288 825 249 199 155 129
289 773 197 117 88 50
294 772 197 111 85 49
293 776 196 124 92 54
303 771 196 121 89 50
298 781 195 139 98 61
303 781 196 137 96 60
293 786 195 156 107 72
413 871 186 87 72 63
293 791 196 163 110 76
292 797 198 165 114 77
293 801 199 166 114 77
303 786 195 146 101 65
303 791 196 153 105 69
424 869 272 34 32 31
529 851 265 98 77 60
299 800 197 162 111 75
313 771 195 52 46 46
308 781 197 119 85 56
308 781 198 125 88 58
313 781 197 67 55 48
318 776 195 65 53 48
318 781 195 68 55 49
325 872 247 123 95 63
308 786 196 121 87 61
308 791 195 132 95 65
308 796 195 129 94 66
308 800 197 123 91 66
313 796 196 62 54 53
313 800 197 61 54 53
318 791 195 71 57 50
318 796 195 73 59 53
493 831 310 87 73 60
298 806 200 171 117 82
411 914 298 68 59 55
303 803 198 166 115 80
298 813 203 182 124 92
303 811 201 176 122 89
453 857 310 70 59 50
301 813 203 182 125 89
293 820 206 184 125 95
298 821 206 185 128 95
299 824 207 189 131 99
303 825 206 131 95 78
293 822 209 189 130 100
298 826 210 194 135 105
388 901 200 86 74 69
299 830 212 195 138 109
298 832 214 203 142 113
302 827 208 147 107 87
303 831 211 110 82 74
308 811 200 87 69 61
313 811 200 76 63 57
312 814 202 78 63 57
318 803 198 77 62 56
423 821 185 78 59 49
318 806 199 80 64 57
313 816 203 83 66 60
317 813 203 84 67 59
319 816 202 85 67 59
308 821 205 68 57 55
348 876 310 147 114 89
313 821 204 86 68 61
318 821 204 86 68 60
318 819 202 86 68 59
309 827 208 76 63 60
313 830 211 90 70 63
313 832 214 91 72 65
318 832 213 91 71 65
293 816 255 180 142 113
303 827 251 50 44 43
294 829 248 177 139 114
298 821 254 75 59 53
296 823 252 157 123 102
303 821 255 55 47 44
298 832 246 102 75 66
373 946 239 71 64 65
299 824 253 56 45 45
298 830 249 78 58 54
308 830 250 63 53 50
313 826 256 70 58 55
313 831 250 66 54 52
282 833 224 213 138 111
285 834 222 213 137 113
392 889 177 102 86 71
280 834 234 205 135 109
288 835 225 203 134 105
280 834 230 207 134 105
280 834 227 214 139 113
455 836 238 75 61 56
283 835 230 203 131 105
282 833 236 202 140 113
283 834 235 201 138 112
523 810 290 102 77 64
292 833 218 214 142 109
370 779 298 74 60 56
293 837 225 203 137 108
303 835 215 85 59 58
494 836 318 87 70 53
298 836 220 195 132 104
298 838 225 167 109 88
303 837 220 77 52 54
302 838 224 66 46 49
308 839 221 85 68 62
308 840 225 77 65 62
313 840 220 90 69 62
313 842 225 79 64 61
315 839 217 90 71 65
293 836 235 187 134 111
303 839 230 54 50 53
430 884 278 37 34 33
298 835 240 107 74 65
302 838 236 51 47 50
304 839 234 54 47 46
308 840 235 55 45 46
371 949 313 57 54 55
306 838 237 60 51 48
308 837 240 61 49 47
453 796 190 68 51 43
308 840 230 65 53 55
316 843 230 61 51 53
318 844 230 55 49 53
319 844 234 44 37 44
333 801 198 80 63 56
308 835 244 60 50 48
308 833 247 61 51 49
312 833 247 65 53 51
313 835 245 63 52 49
313 838 241 63 51 48
408 777 302 75 62 56
316 838 242 57 46 44
319 862 256 114 85 53
312 876 254 137 106 77
311 881 253 146 111 81
314 867 256 125 97 67
318 866 254 120 91 60
318 871 251 128 99 68
317 870 253 126 98 66
320 868 252 119 91 59
314 876 251 136 105 75
314 881 251 145 110 78
318 876 250 135 106 74
403 887 185 93 80 72
308 891 255 144 108 80
314 886 251 147 111 78
313 891 251 141 108 76
313 896 251 135 105 74
407 886 189 90 79 74
318 886 249 146 112 79
317 896 249 127 99 70
338 771 192 66 56 49
343 770 192 66 56 49
346 770 192 67 56 51
323 771 194 65 54 48
323 776 194 70 56 49
382 960 270 70 65 66
328 776 194 71 58 49
328 781 195 72 58 51
432 879 271 38 32 31
333 771 193 68 55 49
348 936 336 69 62 60
319 959 314 67 63 63
333 776 195 71 58 50
333 781 196 72 59 51
448 876 335 62 49 38
323 791 195 74 59 51
328 791 196 76 60 52
323 796 195 78 61 53
333 786 195 74 59 52
333 791 196 76 61 54
334 792 199 77 62 54
297 778 272 82 68 61
331 794 197 77 62 53
331 800 197 80 63 56
338 776 194 70 57 51
343 773 193 66 56 50
338 781 195 72 59 51
343 781 194 73 59 52
503 801 235 103 85 67
348 776 195 68 57 50
338 786 196 74 59 52
340 788 198 76 60 54
343 788 198 75 60 53
338 796 198 80 63 55
343 796 198 80 64 55
403 877 315 36 33 34
343 801 199 82 64 55
347 785 197 73 60 53
352 784 197 72 59 51
353 786 199 71 59 52
353 791 201 73 60 53
353 796 201 76 61 54
323 811 201 83 65 57
323 816 203 85 66 58
328 816 202 81 63 57
333 806 199 81 63 56
323 821 204 84 66 59
488 826 255 85 66 56
484 838 306 51 41 33
323 825 206 85 67 60
460 858 302 68 59 53
333 823 203 78 62 55
323 828 208 87 68 61
322 832 213 92 71 65
343 806 200 82 64 55
338 811 200 79 62 56
352 806 202 78 61 54
348 811 201 79 63 55
353 816 205 79 62 55
338 821 201 78 63 55
338 823 203 79 63 56
343 820 202 79 63 56
343 826 206 83 66 58
344 829 207 85 67 59
333 856 301 149 121 92
345 818 203 80 63 56
347 826 207 82 65 58
346 829 207 83 66 61
338 828 208 87 69 62
341 828 208 86 68 60
353 826 208 75 60 56
357 776 197 65 55 50
363 776 201 66 54 49
365 776 203 67 55 49
368 777 203 68 55 50
363 781 201 66 54 48
368 781 204 66 55 49
358 786 200 69 56 50
358 791 200 71 58 51
358 801 203 74 59 53
299 877 266 122 97 73
360 798 203 72 58 52
364 787 203 67 56 50
419 890 276 34 31 32
362 791 202 70 56 50
369 791 200 64 54 50
367 792 204 67 55 51
361 795 202 72 58 52
363 796 204 70 57 52
368 796 206 66 54 50
374 770 202 69 57 48
373 781 205 65 54 48
438 796 298 174 132 105
378 775 202 66 55 49
382 772 202 63 53 46
378 778 203 64 54 48
373 791 199 68 56 51
373 796 200 66 55 50
373 801 195 65 53 47
372 801 200 63 52 46
378 787 202 66 55 49
383 786 204 64 52 46
377 796 195 66 55 48
377 796 200 67 57 51
378 801 205 62 52 47
383 796 205 59 48 43
358 806 205 75 60 52
450 870 327 53 39 31
357 816 207 77 61 55
368 806 204 66 54 48
367 813 208 67 55 50
368 816 209 66 54 49
359 822 208 74 60 54
358 831 210 90 72 63
433 871 240 70 59 58
363 826 211 57 49 49
368 826 212 47 42 45
368 828 213 51 46 47
368 830 213 84 66 55
373 805 200 61 51 46
332 852 235 196 136 102
370 804 202 63 53 46
481 850 276 99 80 66
376 804 196 62 50 46
308 946 240 77 71 71
378 806 205 58 49 46
378 816 205 48 43 45
373 816 209 56 48 46
374 826 205 57 50 50
374 831 205 57 50 50
307 916 250 70 64 65
353 956 315 54 48 46
379 821 201 56 50 49
376 820 204 53 48 48
378 831 200 57 50 49
382 826 198 56 48 48
313 922 330 44 37 37
384 826 197 56 48 46
381 831 198 57 49 49
384 831 197 60 50 49
418 851 185 97 77 61
373 821 209 49 43 44
374 863 202 52 47 46
364 887 191 91 75 63
373 881 191 92 76 63
374 877 192 66 57 52
378 876 191 70 60 53
369 882 192 86 71 59
356 890 198 78 68 64
370 888 187 102 81 68
373 887 187 115 92 79
370 889 187 109 88 79
333 954 237 86 80 82
373 891 186 110 92 84
372 892 188 99 82 76
373 896 190 74 62 58
379 888 181 111 85 74
379 883 187 131 107 93
379 890 182 102 81 68
383 890 181 102 82 71
323 840 216 84 66 62
428 888 248 69 59 58
329 836 212 90 70 64
327 837 213 89 70 62
328 841 214 67 56 56
324 845 221 55 49 54
329 844 216 83 70 67
328 846 220 130 101 83
333 836 210 82 65 61
330 839 212 82 64 61
333 842 214 97 81 75
333 845 216 179 133 106
333 847 220 187 130 101
388 886 185 111 91 82
333 850 225 184 123 95
338 836 209 64 55 57
343 836 209 78 68 65
343 840 211 170 123 98
338 845 216 184 129 105
343 843 213 172 120 97
343 845 216 172 120 97
338 847 219 182 126 101
353 836 211 148 106 85
348 845 216 162 112 91
353 841 214 155 107 85
338 852 225 176 118 90
403 831 275 44 35 36
343 850 221 172 119 95
348 850 221 162 113 89
348 852 224 161 112 88
353 853 223 142 99 77
328 846 240 177 124 95
323 842 241 142 109 86
324 844 239 168 125 95
322 838 246 115 86 70
323 835 250 116 85 68
328 837 250 175 127 101
395 781 196 54 46 45
324 834 253 145 107 87
412 875 190 82 69 59
352 960 313 54 49 47
372 969 275 78 71 74
328 832 256 172 127 103
328 834 254 176 128 103
326 843 242 172 121 92
333 900 234 85 69 52
403 836 269 95 75 64
332 836 255 174 124 98
336 823 267 184 131 110
338 831 264 171 123 99
305 868 275 145 108 88
331 838 252 175 124 96
331 848 242 179 123 93
329 849 226 194 133 102
372 969 284 66 61 61
326 848 230 193 137 107
333 852 230 192 131 99
335 854 231 191 130 97
330 849 239 188 132 100
334 855 235 193 133 98
323 861 255 109 78 46
327 860 253 97 69 46
433 820 289 141 100 77
325 863 252 111 77 41
332 851 255 128 93 70
331 855 254 118 87 65
363 906 201 86 74 72
439 851 234 59 49 48
332 861 245 150 106 77
453 861 256 83 68 65
339 854 227 176 118 91
343 855 226 168 115 89
343 857 229 172 119 89
337 857 235 186 128 93
336 858 238 178 120 89
340 859 232 175 122 88
340 769 293 71 60 56
343 862 234 169 120 86
348 861 231 152 110 82
350 892 206 63 58 59
352 890 204 64 58 59
342 891 220 49 46 47
341 895 220 52 48 49
339 896 225 55 51 50
328 772 287 74 62 55
488 791 230 113 87 67
341 894 223 51 48 50
349 887 211 59 54 56
351 884 214 56 51 53
345 888 216 53 50 51
345 887 220 50 47 48
349 882 220 50 46 48
352 880 220 51 46 47
348 891 210 62 56 58
346 889 214 61 56 57
418 846 200 72 59 55
328 881 245 133 103 75
322 876 248 132 103 72
330 866 246 130 95 65
332 876 243 152 115 82
334 881 242 149 117 85
328 886 245 119 92 67
368 802 286 185 138 117
323 891 245 119 95 72
372 907 348 58 51 47
320 897 247 126 102 78
328 890 244 95 74 54
325 893 242 92 71 48
328 893 241 86 68 48
359 780 293 74 60 56
331 886 243 130 101 73
331 890 243 118 93 66
338 866 239 157 114 82
340 864 237 161 113 80
342 871 238 141 106 77
344 871 237 135 100 72
338 876 240 129 101 71
342 876 238 119 91 64
333 886 320 160 118 97
353 866 230 96 73 58
348 866 234 143 105 77
380 850 202 52 45 44
348 871 235 130 99 72
351 868 233 115 87 66
353 871 230 76 60 54
351 871 233 106 80 63
414 851 182 98 74 58
350 878 232 71 57 55
347 880 234 85 70 56
344 882 236 90 73 57
339 886 237 83 70 57
340 892 230 55 49 50
338 896 230 60 53 53
342 890 230 53 47 49
340 893 226 53 48 50
339 891 235 70 61 55
337 896 235 79 68 60
358 835 211 148 106 84
358 838 213 145 101 79
358 843 218 141 97 77
359 845 217 122 84 67
363 836 212 121 85 65
363 841 214 106 74 59
369 862 206 50 45 46
356 853 223 121 83 66
357 856 224 96 69 56
359 856 221 79 59 53
357 861 225 80 61 53
348 942 332 62 57 56
364 851 216 69 54 52
361 851 218 80 60 55
363 861 215 55 48 49
366 859 213 52 46 46
365 862 212 51 45 46
361 861 218 59 49 50
375 836 207 56 49 49
374 841 206 53 46 48
374 846 206 51 45 46
383 836 198 59 50 49
384 835 197 61 51 49
379 836 201 57 49 49
377 841 204 53 46 48
377 846 204 51 45 47
372 841 209 56 48 49
369 846 212 59 50 50
383 856 201 52 46 46
381 855 203 54 47 46
383 860 199 51 46 46
448 862 331 52 43 36
376 860 203 50 45 45
372 851 209 50 45 46
372 855 208 48 44 44
365 867 207 51 46 46
368 866 205 49 44 46
369 877 196 55 50 49
363 880 200 55 50 50
393 880 325 36 33 34
364 876 201 54 49 49
366 879 198 53 48 48
369 872 201 53 48 49
414 873 312 38 34 33
359 871 215 52 47 48
357 866 225 68 56 50
360 873 211 54 49 50
354 877 220 54 48 49
354 876 225 55 49 48
356 875 220 54 49 50
364 866 210 51 46 46
362 871 210 51 46 47
366 864 208 53 47 47
383 901 345 56 49 45
357 886 200 64 58 58
355 883 206 55 51 51
355 887 202 63 57 57
354 891 201 74 65 63
359 891 196 87 73 66
364 882 196 63 56 54
362 886 194 79 66 59
362 892 194 89 74 67
365 894 192 97 77 77
354 882 210 54 50 50
373 866 200 52 47 47
374 872 196 54 47 47
372 865 203 48 44 46
370 868 202 49 46 47
378 871 194 52 47 47
379 873 192 56 50 47
355 866 227 75 60 50
355 871 226 60 51 50
303 916 255 79 70 67
410 868 334 39 35 34
302 920 254 67 62 63
304 921 250 64 61 63
423 876 275 31 29 29
434 883 292 37 33 33
300 922 256 66 62 64
299 926 255 64 60 63
317 911 240 86 70 56
319 907 241 97 78 62
319 912 235 89 72 58
315 903 323 129 111 95
307 906 254 129 98 79
426 839 217 71 60 58
306 911 254 96 82 73
309 911 250 82 72 69
464 823 271 57 45 38
309 906 251 103 82 69
312 906 249 102 82 66
314 907 246 92 76 64
318 906 245 103 83 63
313 921 235 66 60 58
508 867 270 87 70 57
312 926 234 62 57 58
308 926 240 66 61 62
319 916 231 143 105 77
315 917 236 73 63 57
317 916 235 89 74 59
348 956 239 92 86 90
316 914 238 82 69 57
316 920 233 94 76 60
317 926 229 63 58 59
328 921 342 54 50 50
488 811 261 62 50 38
315 922 232 71 59 51
309 916 245 70 63 63
310 913 247 69 61 60
306 914 253 78 70 68
397 894 186 103 88 80
305 923 247 64 59 60
318 931 225 66 59 60
295 936 256 60 57 59
304 936 240 74 67 67
301 936 244 75 69 70
300 933 247 69 65 67
301 930 248 65 60 64
300 940 246 79 75 76
302 942 244 75 70 70
304 941 240 75 68 67
298 941 250 76 72 74
296 941 254 69 65 67
299 945 251 73 69 71
304 950 251 71 67 69
302 952 255 73 70 72
313 936 230 73 65 64
309 931 235 62 57 59
308 936 235 71 64 63
377 911 344 64 53 47
303 871 295 144 107 90
310 940 232 81 71 69
398 831 191 59 50 47
312 942 234 83 73 72
315 932 227 67 61 62
315 934 227 69 63 63
320 939 227 97 84 81
316 937 228 80 70 67
457 841 275 58 47 40
318 941 229 94 84 82
315 944 232 88 79 78
318 947 235 80 72 73
305 944 242 76 70 71
307 947 244 73 68 69
458 771 298 164 116 85
458 776 298 164 118 87
305 949 247 71 66 67
378 794 293 64 54 51
310 949 242 74 68 69
313 951 245 71 66 68
307 952 250 71 66 68
454 832 265 43 36 34
306 953 253 69 65 67
309 955 251 71 67 69
311 953 248 71 66 68
313 956 249 71 66 69
309 960 256 78 75 77
403 890 190 91 78 74
313 965 255 83 80 83
319 970 256 89 86 90
483 871 299 67 53 44
344 922 191 77 66 61
393 861 195 82 66 57
348 921 190 73 61 53
348 927 187 63 52 48
363 972 290 61 55 54
472 844 252 80 60 53
352 921 187 74 63 57
352 926 190 69 57 53
351 929 191 65 56 51
356 921 190 141 124 118
375 906 191 80 67 60
411 914 276 65 57 55
378 898 181 78 66 61
458 896 320 80 62 55
380 903 184 78 67 59
378 897 189 73 60 53
378 900 191 83 69 63
334 912 215 58 53 54
333 911 220 58 53 52
348 928 213 85 77 75
334 921 206 89 79 78
335 917 206 83 74 73
328 952 325 66 62 63
472 851 275 89 79 69
328 926 215 78 70 67
329 921 215 63 58 58
325 928 217 73 66 64
332 916 215 56 52 54
333 916 210 68 63 62
330 918 216 55 51 52
331 915 220 57 52 53
328 916 225 59 50 49
329 917 220 56 51 53
330 922 212 76 69 68
333 925 211 82 72 70
344 902 206 68 61 63
343 906 205 70 64 65
342 911 204 79 71 70
344 911 201 86 73 70
340 908 207 68 62 63
347 901 204 73 65 65
350 898 202 78 69 67
353 901 202 80 68 66
346 904 203 76 68 67
348 911 200 84 71 67
353 906 201 83 70 67
352 910 202 83 71 68
340 903 212 61 56 57
340 898 217 55 52 51
337 911 210 66 60 61
341 905 209 67 61 61
343 916 200 88 74 71
344 917 195 85 69 68
340 920 201 84 72 70
341 914 203 92 80 78
344 925 195 76 67 64
343 924 206 76 67 65
347 917 195 81 67 63
349 920 194 94 77 73
323 816 266 53 45 45
353 916 204 86 73 70
348 921 205 86 75 74
353 921 206 91 75 72
353 926 195 91 81 81
443 828 282 137 91 70
393 866 271 33 31 31
338 926 210 80 70 67
337 928 213 84 73 70
343 926 210 75 66 63
353 922 208 93 77 74
353 928 213 84 76 75
328 897 236 102 78 53
328 900 234 103 76 50
327 902 232 118 85 56
323 911 230 132 92 70
329 911 226 65 52 48
332 850 260 86 68 53
334 899 238 93 76 59
321 904 243 126 103 76
323 916 229 117 82 66
325 917 227 61 47 45
328 931 216 86 75 73
320 931 222 68 59 59
323 937 224 94 81 78
327 933 218 90 78 74
328 935 220 92 79 76
328 938 224 92 79 77
350 929 194 60 51 48
338 931 215 88 77 75
343 931 215 84 74 73
338 933 218 85 75 75
344 933 218 80 72 71
338 937 224 82 75 75
353 930 215 85 76 75
348 935 221 86 77 76
353 932 220 82 74 73
353 936 225 86 78 78
328 940 226 88 77 77
328 942 229 84 76 77
333 942 228 86 78 80
328 946 231 86 78 80
323 948 234 80 75 77
324 949 236 79 73 75
323 952 240 76 71 73
333 951 236 85 79 81
333 956 239 87 82 86
321 953 243 77 71 73
323 960 245 79 74 78
453 861 290 60 53 46
433 827 281 141 102 77
487 842 318 87 68 53
333 959 242 90 85 89
343 942 228 89 81 83
348 942 228 90 81 83
338 946 231 89 81 83
343 946 231 90 83 85
338 951 235 89 82 84
344 949 232 94 87 90
348 946 231 90 83 84
353 951 236 92 85 88
343 960 242 93 88 92
348 960 241 93 87 91
353 960 242 94 88 91
358 901 200 82 69 66
454 797 199 53 44 41
354 912 203 82 71 67
483 825 267 62 53 47
359 911 202 83 69 66
357 912 203 84 71 68
363 901 200 88 74 71
369 911 196 87 75 71
368 906 200 90 78 74
392 890 216 70 64 66
358 921 196 88 75 72
359 917 201 96 82 81
357 916 205 85 71 71
357 920 205 88 74 72
359 925 196 73 64 61
358 924 200 77 67 66
363 916 199 87 75 72
364 921 199 82 72 70
364 916 195 88 74 70
367 915 196 88 75 73
366 924 197 77 68 65
363 925 205 77 69 68
356 920 208 92 77 75
508 815 290 91 70 52
358 927 210 78 70 67
368 926 210 76 71 71
363 928 214 73 66 65
369 926 215 78 72 72
443 871 300 41 37 34
374 900 196 81 67 63
373 901 199 88 73 69
463 876 310 54 44 40
438 774 174 76 55 42
373 910 196 87 74 71
375 910 203 85 76 74
376 898 193 75 59 53
378 901 195 84 70 64
378 906 200 81 72 70
376 908 193 79 67 64
380 906 204 79 71 69
377 911 201 79 69 66
383 906 200 80 71 68
379 902 209 70 61 61
503 866 294 85 70 63
428 791 297 164 122 95
380 902 213 68 58 59
382 911 210 75 70 70
382 911 215 74 68 69
370 918 203 86 74 73
373 921 205 79 72 72
371 920 202 82 70 68
372 924 205 82 76 77
518 805 235 114 90 68
376 919 205 80 73 71
375 918 218 76 71 72
369 927 223 74 68 67
373 926 225 73 66 66
375 922 223 76 69 68
380 913 210 80 75 75
377 920 221 74 68 67
379 917 223 72 64 63
380 913 218 74 67 67
383 916 225 71 63 62
305 906 257 148 112 87
381 920 226 71 63 63
377 925 226 74 66 66
382 925 231 76 68 68
402 801 188 57 47 44
360 930 200 77 69 66
446 874 282 46 38 36
361 929 201 78 70 68
358 931 220 75 68 68
358 932 223 80 73 73
368 901 305 64 48 43
360 936 221 80 74 74
363 932 225 78 71 72
367 929 217 78 71 71
368 930 225 75 69 68
374 929 204 84 80 82
355 938 228 83 75 76
358 938 229 84 78 78
358 941 231 87 81 81
358 943 233 89 82 83
365 933 228 74 68 70
368 933 229 74 67 67
368 936 231 74 69 69
360 939 227 86 80 81
363 942 233 85 79 80
368 941 234 76 69 70
358 946 233 91 85 86
357 954 237 93 86 88
358 956 239 91 84 86
360 953 238 90 84 87
360 944 232 91 84 85
363 950 237 85 77 79
368 946 236 81 73 74
367 949 237 86 78 78
368 951 239 75 68 68
467 886 329 95 77 63
363 956 240 78 72 74
365 958 243 73 69 70
367 960 246 79 73 73
372 935 231 70 64 65
373 941 236 79 72 73
374 943 238 75 67 69
379 931 234 78 71 72
378 936 236 77 69 71
464 867 274 86 67 57
380 928 233 76 69 69
528 835 311 104 84 68
384 931 240 79 71 71
381 934 237 75 68 70
383 936 240 69 62 63
383 911 340 65 53 45
379 937 238 73 66 67
382 941 241 60 52 57
384 942 244 78 70 70
370 947 238 77 69 70
371 954 242 74 67 70
372 955 246 78 71 71
412 909 303 53 46 44
368 961 250 85 78 78
370 958 249 82 75 75
373 957 250 84 75 75
380 947 244 80 72 71
423 886 275 33 30 31
456 894 328 86 65 52
381 944 242 74 68 68
379 952 249 87 78 77
382 950 250 89 79 78
383 951 255 86 75 75
376 954 247 81 72 73
377 955 251 88 79 78
378 956 255 90 80 79
322 963 248 80 77 80
323 966 251 86 83 86
328 965 250 89 86 90
327 970 256 87 84 88
334 964 247 90 86 91
334 969 256 86 84 88
403 799 293 66 55 50
338 962 244 91 87 91
338 967 250 93 90 94
343 970 252 94 91 96
469 837 248 85 66 60
343 976 256 83 79 84
348 973 253 87 84 88
348 976 255 84 81 84
354 973 253 78 74 78
353 975 255 87 82 84
356 974 256 90 85 87
362 964 247 76 71 73
365 963 248 84 77 78
367 965 255 90 83 84
362 970 256 88 82 83
523 790 216 115 89 70
395 797 192 56 48 45
404 771 190 55 47 44
404 776 187 61 51 48
406 769 189 55 47 43
411 771 183 59 48 43
414 771 182 59 48 44
413 780 185 59 47 44
408 791 191 59 47 43
403 796 189 57 47 44
404 801 187 58 48 44
408 794 189 62 49 44
413 785 191 56 44 41
412 800 184 64 51 46
414 802 182 69 55 49
394 805 192 58 49 45
402 806 188 59 49 44
403 816 191 50 44 42
409 809 187 54 44 43
463 887 295 87 70 63
408 811 189 51 43 41
289 921 290 167 127 103
478 806 260 60 51 47
412 807 183 62 51 45
412 812 188 54 44 42
413 816 188 59 48 46
437 885 289 36 32 32
415 816 187 63 51 45
403 831 189 63 53 50
408 826 189 61 51 48
476 849 262 94 70 57
415 820 187 68 54 47
470 809 273 123 80 60
413 826 189 70 55 47
383 787 297 69 57 53
424 776 175 70 54 46
433 774 174 72 53 44
433 776 171 72 55 45
425 779 176 62 48 41
533 851 260 98 76 62
453 892 295 78 65 60
429 779 172 69 52 45
416 783 188 58 47 40
428 773 176 71 55 47
433 772 177 71 52 43
427 782 178 63 50 43
429 786 176 68 53 44
432 786 173 85 64 49
424 797 176 73 57 47
428 801 176 89 66 51
433 796 176 94 70 56
417 791 184 59 47 42
423 791 180 61 48 43
416 796 184 61 49 44
419 796 181 63 51 45
423 796 179 67 53 47
427 786 179 66 52 46
426 791 179 66 53 46
426 794 178 70 55 50
438 776 170 80 61 46
440 783 173 90 68 52
443 776 170 91 67 50
448 771 176 87 64 48
448 776 174 84 64 51
443 780 171 93 68 53
444 782 174 84 63 49
446 779 172 89 66 50
437 769 178 72 53 42
448 781 180 79 60 50
434 786 172 94 69 50
436 784 172 91 67 48
437 791 176 89 66 55
439 792 179 80 61 52
433 801 180 84 62 51
438 796 181 81 61 50
436 799 182 81 60 48
440 798 184 81 61 49
444 792 183 80 61 50
443 795 182 79 60 49
443 797 185 78 60 50
446 799 181 82 64 54
446 799 184 82 63 49
487 841 289 100 80 64
440 801 188 79 61 50
423 804 177 78 59 49
423 807 178 77 59 49
417 811 184 63 51 44
423 815 181 73 54 46
427 804 177 86 63 51
428 806 180 89 66 52
431 805 181 86 63 49
433 806 185 80 60 50
430 808 183 88 63 47
433 816 182 101 78 64
417 822 188 68 52 44
383 781 299 71 59 55
417 830 184 73 56 46
422 829 183 98 80 69
427 821 183 120 94 78
430 822 191 79 62 52
429 826 182 124 101 84
424 828 182 127 103 89
432 826 179 129 106 86
430 832 177 116 88 64
429 826 192 83 70 58
433 826 190 81 71 62
438 806 185 79 59 48
440 806 189 79 62 49
437 811 185 83 65 51
438 817 181 102 78 60
439 816 185 88 69 53
442 806 191 80 62 50
488 777 239 83 66 51
438 821 186 88 68 53
437 830 184 99 75 57
438 826 185 91 71 56
435 826 187 84 66 55
436 826 188 85 67 55
442 817 184 87 67 49
442 821 180 95 74 55
442 820 184 86 68 53
441 823 177 102 77 56
441 826 177 102 78 58
388 776 203 61 50 45
389 777 202 57 48 42
392 774 203 53 45 42
318 971 260 91 88 91
393 776 201 50 44 43
393 781 200 51 45 45
398 771 200 51 44 43
398 861 271 35 32 31
398 776 195 53 46 45
395 772 202 47 40 41
396 770 203 48 41 41
418 871 276 36 32 31
395 778 197 52 45 46
389 791 200 48 41 41
393 791 196 52 45 45
386 791 203 52 43 40
393 796 194 52 45 44
392 801 194 58 49 46
398 786 194 57 48 45
408 896 348 69 58 48
393 816 195 53 45 42
393 821 194 55 47 43
505 867 270 85 70 59
388 826 195 58 48 45
393 826 194 59 49 46
397 826 193 54 45 43
396 829 193 58 49 46
383 871 275 45 39 34
401 816 193 48 43 40
400 822 192 52 44 43
429 816 201 66 54 53
431 816 198 64 54 50
430 812 205 62 51 50
433 810 205 62 52 52
498 792 230 95 73 54
428 816 205 59 48 50
433 812 209 66 55 52
444 863 311 48 41 36
430 813 208 65 54 50
419 832 196 74 58 50
424 827 200 61 48 49
432 816 195 64 53 48
431 820 195 65 53 49
428 821 200 63 51 52
426 820 205 58 49 50
426 830 193 88 72 60
426 832 206 60 50 52
424 826 209 55 47 50
428 831 214 69 59 57
433 831 215 76 63 56
438 808 205 60 49 50
439 808 201 63 50 50
434 812 195 74 61 56
437 809 199 66 53 52
482 787 249 65 52 41
401 914 246 76 64 62
435 808 204 58 46 51
443 807 200 62 51 49
447 805 195 72 56 48
473 846 320 66 52 39
443 807 205 56 47 47
441 809 194 76 59 52
438 811 210 62 52 50
440 808 208 58 47 50
442 810 211 60 51 47
438 821 214 72 56 52
438 826 215 73 57 51
395 912 331 62 53 48
338 907 340 41 38 38
438 831 220 70 55 50
438 832 225 64 51 48
443 821 216 69 54 48
448 819 216 66 52 48
445 823 218 63 49 45
448 821 219 66 53 49
442 825 216 70 54 50
334 836 260 169 121 95
443 827 219 62 50 46
448 826 220 64 51 48
449 826 224 73 56 50
448 830 226 70 57 50
488 821 266 79 64 53
448 832 230 71 54 50
398 841 190 63 52 48
447 860 314 56 48 40
398 846 191 69 55 50
398 856 191 86 68 57
404 841 186 75 60 51
404 837 186 66 53 47
402 842 188 72 58 51
402 846 188 75 59 52
405 846 187 88 68 57
411 841 183 103 78 65
414 836 182 98 74 57
414 841 182 106 77 59
468 861 345 81 64 50
412 846 183 102 76 64
415 848 190 86 67 56
409 854 187 92 68 54
408 857 190 91 68 57
413 854 185 94 72 58
415 851 190 87 70 58
388 878 187 121 97 81
386 879 188 125 103 84
392 872 192 110 86 68
393 877 187 110 88 76
399 876 180 99 78 63
398 881 185 105 86 75
399 876 185 109 88 79
398 876 190 87 72 61
393 886 185 102 84 73
388 890 180 107 87 74
389 888 177 94 77 61
393 891 185 103 85 75
469 792 222 79 59 44
388 895 186 97 83 76
393 891 190 95 79 68
392 896 190 101 84 75
394 882 180 96 77 64
397 886 181 108 88 74
395 888 190 91 76 67
397 889 180 112 91 77
409 868 187 86 70 59
404 872 188 98 77 64
408 871 190 97 79 66
402 876 181 101 82 68
403 876 185 101 83 72
403 872 182 101 80 63
408 876 185 90 76 66
400 881 190 88 73 65
401 881 191 82 67 62
413 868 187 83 68 60
413 867 190 93 75 67
413 872 190 83 70 61
464 771 189 81 61 49
408 880 181 100 86 77
401 883 182 102 86 80
407 884 186 94 82 75
384 957 280 50 44 42
405 888 189 89 77 71
402 889 186 92 79 74
400 890 188 94 81 76
418 836 180 115 86 62
424 837 187 89 67 52
422 840 190 86 66 53
418 847 186 84 67 57
417 846 190 87 67 53
428 836 178 109 83 60
430 834 177 114 89 64
433 834 177 106 81 59
403 881 305 33 31 31
460 871 312 52 41 38
433 836 180 101 80 61
428 836 186 91 68 54
426 845 180 117 88 69
436 834 180 102 82 64
417 868 186 79 68 64
416 869 186 84 74 68
417 870 190 80 70 64
389 841 196 62 53 50
433 846 230 54 46 47
393 841 194 60 52 50
393 856 194 63 54 50
398 859 192 100 78 62
389 856 197 56 49 49
388 861 196 61 52 49
401 929 289 58 50 47
396 851 193 61 51 48
396 857 193 80 65 55
398 861 194 98 77 61
415 848 194 93 72 61
408 860 195 84 68 58
408 861 200 76 63 57
405 863 198 85 70 60
415 851 195 89 70 62
413 857 200 72 60 56
413 860 194 81 66 57
409 858 197 88 70 60
413 859 272 39 36 35
412 860 202 73 62 61
414 862 203 70 61 61
415 852 212 59 47 49
415 861 216 66 59 61
415 858 218 59 51 54
388 899 191 95 81 75
388 870 193 72 58 51
395 876 196 89 74 64
397 876 194 86 70 60
377 961 290 57 52 50
475 878 290 79 63 58
397 875 200 80 66 62
398 881 194 79 65 58
399 877 205 70 61 63
398 881 210 69 63 65
388 896 200 83 72 68
392 890 200 71 60 58
393 891 195 89 75 67
389 893 200 74 63 60
389 892 205 66 57 58
387 895 206 64 55 57
392 890 205 65 55 58
395 887 196 79 66 61
394 886 200 67 56 56
387 895 215 72 65 66
391 890 209 71 61 65
394 887 215 70 64 67
393 891 219 67 62 64
389 896 219 69 63 65
399 883 214 62 57 61
396 884 210 71 63 66
398 887 219 67 62 64
394 888 218 69 64 66
403 866 196 107 92 85
401 869 197 91 74 64
402 871 200 82 67 61
404 867 199 84 70 63
406 865 197 85 69 59
465 818 286 152 98 76
407 865 201 79 65 60
403 871 205 67 57 59
405 868 203 71 61 61
407 869 206 62 54 57
408 871 210 62 56 58
401 879 212 63 59 62
403 881 215 61 56 59
393 830 274 152 115 95
406 875 212 58 54 60
408 876 214 60 54 58
413 867 210 64 57 58
412 871 215 63 55 56
294 936 260 59 56 57
455 879 332 70 55 43
415 866 219 68 60 60
413 871 220 68 60 60
412 876 220 65 57 58
411 879 221 66 58 60
413 876 225 65 57 57
403 895 194 92 80 74
406 889 193 86 73 71
408 886 225 71 63 62
409 882 224 68 61 62
428 851 269 37 33 32
402 894 226 68 61 61
403 896 230 72 63 63
406 890 227 74 66 65
389 918 335 56 48 43
408 895 231 73 64 62
409 888 228 70 61 60
413 886 229 70 61 60
412 890 231 72 60 58
408 897 234 74 63 61
414 892 234 75 63 60
349 785 288 72 59 55
411 894 232 71 59 58
414 897 240 76 63 60
419 835 196 71 55 49
420 837 198 72 56 53
422 836 200 74 57 54
420 841 200 73 59 54
421 841 205 65 54 53
420 842 205 64 54 54
420 844 203 69 58 55
420 837 211 57 50 51
419 841 210 55 49 52
422 835 210 56 49 51
423 841 216 58 51 52
420 847 211 55 48 51
425 833 213 61 55 55
462 880 281 79 63 58
431 834 217 78 63 57
432 836 220 68 55 52
425 842 218 65 55 55
428 846 225 70 58 57
433 867 311 44 38 35
430 842 225 60 51 51
431 840 225 61 51 51
418 851 200 69 57 53
421 855 202 65 56 55
422 856 205 67 57 55
416 859 202 67 59 59
398 846 264 94 68 55
418 861 205 66 57 57
419 858 203 64 57 56
422 860 206 67 56 55
418 851 210 56 46 49
428 891 280 40 36 34
418 851 215 52 45 48
418 856 210 59 48 52
417 856 215 56 49 52
421 850 208 56 45 48
422 850 216 56 48 50
421 856 208 60 52 52
418 856 220 60 54 56
424 852 224 64 55 56
418 861 210 65 58 57
427 851 226 73 60 59
428 862 215 60 52 51
428 861 220 59 52 52
483 791 230 99 72 53
433 836 225 64 52 50
433 836 230 64 53 51
428 856 226 71 59 58
430 851 228 70 57 57
433 856 230 59 50 49
481 794 231 92 67 51
439 833 229 60 49 45
437 835 231 62 50 47
439 836 234 66 54 50
437 846 232 58 47 44
483 786 220 107 79 56
443 834 232 69 56 50
443 841 235 66 53 50
448 834 232 72 55 51
438 837 271 42 31 33
333 958 317 69 63 62
448 841 237 79 64 58
436 851 232 55 46 45
439 862 239 62 52 51
353 821 274 182 133 110
442 856 237 65 54 53
444 857 238 71 60 58
448 856 240 74 63 61
448 856 245 70 58 57
446 859 246 69 58 58
445 863 248 71 61 57
422 865 205 67 57 54
426 866 196 72 64 60
427 865 200 71 62 59
426 864 204 67 57 54
418 866 210 66 58 57
417 870 210 62 54 55
418 870 215 63 55 56
413 915 290 63 55 52
418 870 220 66 57 57
418 871 225 62 54 54
423 866 220 62 53 50
424 868 224 60 51 49
421 870 217 64 55 56
422 870 220 64 55 54
426 864 212 63 53 52
427 865 220 57 48 47
428 866 225 60 51 51
423 872 229 62 52 49
419 876 229 63 54 53
420 873 228 61 52 50
422 875 231 65 54 51
421 880 232 67 55 52
423 881 234 68 56 55
427 871 230 64 53 51
431 864 227 60 50 49
388 946 295 55 48 45
430 868 234 68 57 55
432 866 235 64 54 52
430 871 234 68 56 54
431 871 237 68 57 55
428 881 236 67 56 55
431 881 237 70 61 60
419 887 234 73 60 56
423 885 236 68 56 54
417 890 236 76 63 59
443 866 250 70 59 57
420 888 238 67 55 54
427 884 237 67 56 55
431 884 240 68 58 58
423 890 245 62 53 53
423 891 250 64 56 55
397 905 231 69 61 62
477 821 246 88 68 57
422 895 256 71 61 61
432 881 245 71 60 61
433 886 250 72 62 61
428 894 256 67 57 57
432 894 256 70 59 58
434 867 239 67 56 54
437 865 241 65 54 53
435 868 244 73 62 57
511 792 228 107 82 62
434 871 244 76 64 62
436 870 246 70 59 57
462 860 330 75 60 50
438 871 249 64 55 56
435 877 249 78 67 66
435 881 253 77 67 66
437 876 251 72 62 61
439 877 253 70 60 59
436 879 252 75 65 63
438 881 255 74 64 62
441 864 246 63 55 54
446 865 251 85 75 76
445 868 253 84 71 70
448 866 255 100 89 88
442 876 255 74 60 58
441 880 256 74 60 57
452 772 167 109 80 56
450 774 167 104 76 54
449 773 170 106 75 51
453 772 170 99 70 51
453 772 176 88 63 51
452 775 175 80 61 51
449 769 178 80 57 40
453 780 181 77 58 50
454 782 184 75 57 49
458 771 180 77 58 48
459 778 184 74 57 47
459 782 190 76 58 49
453 786 185 79 60 49
452 791 186 83 63 48
455 788 188 75 57 47
456 785 187 78 59 49
457 786 190 71 54 46
456 790 191 66 49 43
467 770 191 82 63 52
464 776 195 67 53 48
451 799 197 55 43 42
452 801 200 64 52 46
328 844 290 114 92 69
460 787 199 63 51 46
358 771 296 77 63 58
458 791 200 56 46 43
299 956 265 81 77 79
368 946 316 59 54 53
461 784 197 64 50 44
463 786 205 57 47 43
461 789 202 59 50 45
461 790 206 57 47 43
457 800 206 56 46 42
462 791 215 61 48 41
463 791 220 60 47 42
458 801 210 54 45 41
461 794 215 58 48 43
460 797 218 56 47 41
343 925 344 74 68 67
460 801 218 65 52 45
467 771 195 65 51 45
465 773 194 71 55 45
465 777 199 58 46 46
468 771 200 60 48 44
466 775 200 57 47 43
470 768 200 71 54 48
469 772 205 73 56 47
471 769 205 75 56 49
466 779 202 52 46 42
348 974 298 85 80 80
471 770 210 72 56 50
470 772 210 70 56 48
469 776 215 70 54 50
470 768 216 89 68 60
470 771 223 88 71 58
467 781 215 72 58 50
468 781 225 68 53 45
477 771 220 81 62 49
476 771 224 75 56 43
479 775 220 96 72 55
328 949 328 64 60 61
478 776 223 92 68 51
473 781 225 96 74 59
458 846 265 54 45 37
465 787 215 67 52 48
466 785 216 71 57 50
466 785 220 71 55 49
465 790 223 59 45 34
468 790 224 73 58 45
472 786 224 103 79 64
473 791 220 88 64 50
473 797 224 84 62 50
358 952 316 56 51 49
478 786 221 103 73 55
476 794 222 97 73 57
477 795 225 83 61 47
464 772 234 74 64 58
472 776 230 71 49 45
468 772 234 82 68 59
468 775 234 86 72 62
471 770 235 72 56 46
472 776 233 70 52 44
469 781 230 72 54 40
479 770 241 62 49 38
476 768 246 86 63 45
480 776 245 74 56 42
532 851 265 95 74 60
476 770 255 114 79 55
480 780 247 75 57 45
474 781 255 92 64 44
468 801 226 87 66 56
473 799 226 79 58 49
473 801 230 80 60 50
476 799 231 78 58 47
452 864 328 68 53 44
477 797 254 51 39 32
450 802 198 79 62 52
403 856 271 36 32 32
451 816 212 63 52 47
455 808 213 61 48 41
457 805 211 65 52 44
423 824 283 41 35 34
460 806 219 68 53 46
461 806 221 67 53 48
464 806 224 70 55 49
459 811 220 71 56 48
457 816 220 78 62 54
452 819 216 71 57 51
383 886 335 38 35 34
453 822 225 83 64 57
456 819 221 83 65 58
405 902 326 77 62 56
457 820 225 82 63 57
464 812 229 70 54 48
463 816 234 75 59 51
450 823 224 77 60 54
451 829 227 77 61 55
454 826 229 84 64 59
460 817 229 76 60 52
460 822 233 82 65 59
483 826 268 56 47 40
456 829 232 84 63 59
458 831 235 77 60 54
368 781 296 72 60 55
462 825 237 81 62 57
464 827 238 85 66 60
461 829 237 80 61 55
463 831 240 85 65 58
466 806 227 73 56 49
471 805 231 79 61 52
466 809 227 71 54 49
465 813 233 74 58 49
466 815 236 79 62 55
469 813 239 82 63 56
358 942 326 58 54 55
303 960 285 80 77 79
474 802 235 85 65 55
474 807 238 84 62 54
478 806 240 80 59 50
382 846 274 116 94 74
473 815 241 72 53 46
474 817 243 79 58 48
352 853 288 125 96 68
472 821 241 68 51 48
469 827 243 67 51 45
474 821 244 76 55 47
477 825 247 87 63 53
474 832 248 76 59 54
473 801 270 130 85 57
484 772 218 101 76 59
482 777 223 105 79 58
316 968 274 83 77 77
492 772 222 85 62 47
343 826 269 180 134 111
492 778 216 86 63 51
489 778 217 95 71 54
493 781 220 106 76 56
488 784 217 102 78 58
508 792 221 122 93 74
509 787 225 110 86 68
508 798 223 149 119 101
513 796 221 123 97 80
512 852 291 100 82 65
513 796 225 101 84 70
382 936 314 57 52 50
481 768 238 60 46 35
294 955 300 73 67 65
484 770 237 64 50 37
489 774 237 91 74 57
400 878 317 36 34 34
491 768 224 75 57 43
489 770 231 75 58 42
393 825 279 130 93 72
491 773 233 96 79 60
492 776 235 81 62 44
493 781 235 84 64 49
423 869 314 43 38 36
425 880 272 30 29 29
480 774 242 64 51 41
481 777 243 70 54 43
484 779 242 78 62 47
480 793 228 88 63 51
487 797 234 95 72 55
492 790 226 115 81 64
378 836 275 153 120 97
494 786 230 102 71 57
493 791 230 95 69 55
492 786 240 78 59 45
493 791 235 95 76 61
493 796 241 78 60 45
483 791 249 63 49 40
308 795 268 66 57 55
488 800 245 73 58 46
484 800 251 62 51 42
483 802 255 62 51 44
423 811 290 86 68 58
488 802 250 71 58 48
490 796 242 79 61 47
488 801 256 80 62 51
493 797 254 79 64 51
492 800 254 78 62 48
502 792 238 84 66 51
503 793 235 90 72 55
498 796 225 105 76 54
500 793 227 99 70 56
503 793 230 102 79 63
504 796 232 100 76 55
512 787 224 110 86 66
508 796 230 106 84 65
498 822 295 64 51 39
512 800 226 113 91 74
513 801 230 107 87 69
508 796 233 101 80 60
402 920 300 64 54 51
504 802 229 138 112 95
512 802 233 102 84 64
498 801 243 89 71 54
496 796 252 72 56 43
487 802 239 84 59 46
490 805 236 99 74 57
488 806 255 76 61 52
484 810 242 84 63 52
471 849 256 71 57 52
527 790 210 106 87 76
487 810 242 90 68 55
492 807 255 73 58 44
493 816 250 82 63 54
489 817 249 99 75 64
486 825 252 105 80 63
485 828 253 89 69 54
491 819 252 68 50 45
497 802 228 109 84 64
497 808 235 96 78 61
498 806 240 94 76 59
499 811 235 103 81 62
503 810 232 118 91 70
503 810 240 101 82 64
503 815 236 98 79 66
508 806 230 120 91 73
508 806 235 104 84 64
444 848 262 74 65 59
508 808 238 104 83 61
508 814 228 105 86 73
338 980 261 66 61 62
508 811 235 108 87 68
509 810 239 106 84 64
507 814 236 104 85 70
512 809 237 110 87 64
497 807 245 91 72 55
496 811 250 91 71 57
496 812 254 92 73 58
497 816 251 77 60 51
502 819 238 97 83 71
498 819 252 67 51 43
496 818 254 76 58 54
450 833 233 82 62 57
453 836 236 80 63 58
452 840 237 76 62 55
451 846 236 74 61 57
457 840 241 83 65 57
464 837 244 83 65 57
458 846 246 103 83 78
456 893 313 89 71 54
461 844 247 100 78 72
459 847 249 95 71 64
450 851 244 72 61 57
453 856 250 95 79 75
449 862 254 98 86 85
454 857 254 84 67 64
456 850 247 105 85 79
457 854 251 89 71 64
328 786 281 70 57 53
460 853 253 94 74 67
462 850 252 97 75 66
463 852 254 88 68 62
463 855 256 79 62 57
465 833 243 75 61 55
357 813 277 182 130 111
468 836 246 84 64 57
466 839 247 96 77 68
468 841 250 86 66 59
468 845 252 88 70 62
475 842 254 87 66 56
479 833 253 93 69 57
479 836 253 96 73 62
478 841 255 99 75 63
468 851 255 77 60 55
386 900 185 88 75 67
391 899 191 99 83 75
388 900 195 92 79 74
391 898 199 85 73 67
385 906 197 79 70 68
387 908 204 79 72 70
386 909 206 73 67 64
398 897 193 93 79 71
396 899 195 89 78 74
394 902 203 81 69 65
428 866 315 47 40 37
386 900 217 73 66 66
390 902 223 72 65 65
387 910 214 74 69 69
388 908 208 76 71 71
387 905 221 67 61 62
392 905 226 63 55 57
394 907 229 64 57 58
389 912 229 63 55 55
390 908 228 62 55 56
395 903 228 62 55 57
397 900 227 58 52 54
399 902 229 68 60 61
395 912 234 71 62 62
399 907 234 76 66 66
396 909 232 66 59 60
397 911 236 77 67 66
399 912 239 82 70 68
386 914 227 69 61 61
391 914 232 67 59 62
390 917 234 68 61 62
393 916 235 68 60 61
392 920 237 68 60 62
386 925 236 78 68 69
388 926 240 73 65 66
393 920 240 76 67 66
395 917 239 78 69 69
397 915 241 84 73 71
398 916 245 85 73 70
396 920 246 85 73 70
394 926 250 84 73 71
396 924 251 77 66 65
407 900 236 78 65 62
401 904 232 76 68 68
403 911 245 80 67 66
407 909 245 80 67 65
407 910 250 77 66 65
393 869 272 35 32 31
408 910 255 70 62 62
414 901 250 66 58 59
382 883 283 27 26 25
413 901 255 67 60 61
412 905 245 77 66 65
410 908 255 71 62 62
400 913 243 87 75 74
400 918 254 75 65 62
388 931 245 68 59 60
448 857 315 48 41 35
388 936 245 72 62 63
401 874 331 35 33 33
392 931 250 86 74 72
390 933 248 85 74 71
391 935 251 85 73 71
392 936 255 79 68 67
390 942 254 82 72 69
458 863 314 63 54 49
391 940 256 77 67 65
386 945 251 86 75 73
416 899 246 68 58 57
416 899 250 63 55 57
417 899 255 70 61 62
281 775 257 131 93 62
282 776 260 163 115 86
287 776 266 182 132 104
282 781 261 166 120 90
285 781 263 180 130 98
279 786 258 173 129 97
283 786 260 176 130 100
288 791 261 183 136 106
284 795 258 187 140 109
288 806 257 184 143 115
292 771 272 45 41 42
293 776 271 50 43 44
302 782 272 78 65 59
294 771 274 76 63 56
311 924 326 62 46 46
298 771 276 85 70 63
333 801 276 52 44 44
303 776 275 76 65 60
292 787 266 114 87 73
294 785 268 56 46 46
294 795 264 114 83 70
295 799 263 74 50 46
298 786 269 69 57 53
299 789 268 70 59 54
303 786 271 75 63 58
298 796 265 51 44 43
303 796 266 66 56 53
305 774 278 75 63 60
307 777 277 72 62 59
314 769 283 73 63 59
308 781 275 73 63 59
311 778 277 73 61 59
318 781 279 72 61 56
316 783 277 73 61 55
308 791 270 68 59 56
313 792 272 64 58 55
307 797 267 65 57 54
408 841 265 43 35 34
310 799 268 67 58 55
318 801 270 66 56 52
305 784 273 78 66 60
318 791 274 69 57 54
316 793 272 67 57 54
366 808 282 182 135 114
289 805 258 189 145 115
322 886 317 165 119 103
303 811 260 58 51 48
303 817 257 55 46 44
303 815 258 57 49 46
308 806 264 63 54 53
306 808 262 60 52 52
308 816 260 62 53 50
453 892 305 81 66 57
311 813 262 65 55 54
371 969 271 87 81 83
317 807 267 68 58 54
319 806 269 66 56 53
314 815 263 67 58 55
318 811 266 68 58 54
320 810 268 67 56 52
309 820 258 64 54 51
313 821 260 68 57 54
316 818 262 69 58 56
317 828 257 62 51 51
470 806 281 156 103 77
305 889 257 147 110 83
314 847 280 142 113 90
319 843 286 103 86 68
311 860 269 143 113 86
317 855 265 112 91 69
314 852 271 136 109 85
314 862 261 123 99 74
317 860 259 111 86 60
311 855 280 162 124 99
310 857 280 152 117 91
310 857 285 129 89 74
311 854 285 141 103 80
309 861 275 157 122 96
316 849 273 123 101 80
319 848 272 109 87 65
319 843 289 112 93 74
310 857 290 116 42 56
308 861 290 143 67 84
316 850 292 160 122 102
318 851 294 152 115 94
318 857 299 126 75 68
318 861 300 134 66 81
302 875 264 126 101 76
303 881 260 139 107 80
430 878 279 34 30 31
298 876 270 124 99 75
300 873 271 112 89 66
369 875 287 58 51 44
297 875 280 126 99 75
299 873 280 119 95 71
298 876 285 127 96 74
296 879 286 138 102 83
300 873 283 129 101 76
295 886 271 179 128 109
482 858 328 81 64 50
295 891 271 187 135 115
295 896 272 175 128 108
303 886 260 147 110 83
301 887 263 154 116 90
296 886 268 174 125 104
309 867 299 115 54 58
303 891 260 155 113 89
301 892 263 164 120 97
303 896 260 161 118 95
294 886 275 184 133 117
295 891 275 186 135 118
296 891 286 139 98 87
306 870 264 141 113 86
309 867 261 133 107 80
307 866 270 146 115 87
305 868 271 146 115 87
305 873 262 141 113 86
305 886 257 145 109 82
302 871 290 158 118 100
