ply
format ascii 1.0
comment Created by Open3D
element vertex 2221
property double x
property double y
property double z
property uchar red
property uchar green
property uchar blue
end_header
287 176 279 105 84 60
273 644 261 108 26 42
474 829 296 72 56 45
426 525 310 156 14 44
333 517 364 69 23 35
306 934 296 56 53 54
286 456 432 164 18 53
249 420 286 104 31 39
275 359 310 123 96 68
247 424 286 119 15 39
237 469 261 134 1 36
245 429 281 92 27 38
253 613 325 119 92 62
402 947 308 60 52 49
248 429 286 104 18 36
342 393 245 90 77 64
386 941 358 56 49 46
247 428 283 81 22 40
329 448 361 45 35 26
344 374 246 93 80 67
325 963 292 79 76 79
303 679 234 58 33 37
279 833 305 201 140 115
413 914 336 59 52 52
258 82 208 148 16 38
392 568 208 174 15 39
299 804 246 81 64 58
414 528 421 206 137 124
241 434 261 130 7 38
265 613 237 131 22 46
240 439 261 130 2 36
417 616 338 192 134 111
283 591 204 199 16 51
241 434 271 117 14 38
344 649 325 42 29 32
397 429 324 71 24 33
254 434 301 111 16 38
290 49 255 115 51 41
401 503 199 131 7 33
386 42 268 81 46 39
260 134 238 133 102 64
391 148 261 119 96 69
241 439 271 141 4 42
302 224 271 113 90 63
256 134 246 120 98 74
240 449 261 132 0 36
373 694 221 62 43 36
312 452 179 120 3 27
423 543 310 125 24 46
241 444 271 145 4 41
329 971 326 60 54 52
407 430 266 66 26 31
404 794 317 72 57 50
375 440 327 72 25 26
354 74 275 109 88 67
326 489 166 140 10 39
264 169 241 135 103 64
265 629 256 48 34 36
404 404 231 74 38 33
426 534 306 35 30 35
240 449 271 144 2 41
329 453 148 105 21 31
299 15 276 128 68 64
359 444 162 145 7 34
253 493 331 100 24 38
256 459 176 88 25 38
242 434 273 103 15 38
249 664 326 193 134 109
348 383 245 95 83 70
299 840 291 46 39 39
318 471 412 162 18 52
258 493 351 52 28 32
257 173 273 117 94 69
398 108 237 124 106 91
298 22 304 232 170 194
264 659 326 172 116 95
274 194 242 128 100 66
449 809 311 147 94 69
275 454 196 99 15 27
243 434 276 96 22 39
252 549 297 77 27 34
265 58 274 104 82 65
394 494 195 128 12 29
248 434 286 59 26 31
246 436 284 44 30 28
274 559 411 180 129 119
474 854 321 93 79 66
397 55 255 87 28 34
329 444 145 160 1 33
246 439 284 51 33 31
340 434 149 147 0 34
394 745 204 62 48 42
384 364 291 132 102 68
247 439 286 65 29 32
241 441 274 144 7 52
274 159 281 111 91 70
360 99 275 111 91 70
241 444 274 136 2 41
260 569 216 96 27 37
301 898 313 181 130 109
298 418 190 98 82 64
236 485 274 133 5 38
283 139 270 109 86 57
293 54 261 117 24 36
259 719 272 119 88 55
326 381 293 117 82 75
241 449 275 128 10 39
471 774 287 90 67 50
372 476 422 60 19 24
242 449 277 97 16 35
410 689 195 88 61 43
251 698 314 173 120 94
406 618 316 146 92 84
267 373 303 125 98 68
277 587 369 156 93 84
246 444 285 49 28 31
309 410 201 96 82 68
247 444 287 51 29 30
312 316 263 89 77 65
246 449 286 67 29 32
446 669 313 166 111 80
421 506 380 92 27 34
265 234 247 135 101 62
268 824 275 202 137 108
393 244 286 129 100 67
262 574 350 100 23 32
336 38 266 127 17 41
247 447 288 57 27 31
384 139 248 132 100 62
279 419 211 97 84 70
402 661 304 111 20 43
374 114 250 117 89 54
367 602 213 185 6 43
369 99 278 118 97 73
406 80 230 129 22 41
388 149 252 125 97 61
255 504 421 64 25 29
257 515 189 90 31 38
394 729 195 71 54 45
390 564 205 68 33 40
426 774 229 70 53 48
377 228 248 134 103 65
251 469 300 79 26 33
313 324 320 131 88 68
250 424 291 123 15 39
334 459 150 124 21 36
262 448 168 51 37 41
317 660 229 133 0 32
259 174 276 117 95 72
364 224 248 132 103 68
374 339 252 101 88 74
414 835 229 71 58 54
251 425 295 124 14 40
333 555 184 91 31 36
296 29 264 111 84 58
253 419 291 105 72 55
399 104 236 110 75 66
251 515 208 141 8 40
402 469 397 127 9 38
296 538 183 157 0 35
304 384 316 136 97 74
255 419 296 113 83 61
324 529 181 129 13 33
334 499 162 51 38 41
233 499 261 52 30 33
329 803 319 55 42 42
334 380 253 73 61 51
350 49 253 116 43 40
419 464 251 126 12 35
367 411 203 89 79 69
249 429 291 124 12 39
377 69 229 142 18 36
343 947 369 78 71 70
388 179 280 116 93 65
347 917 368 43 37 35
312 477 404 65 17 28
430 615 338 185 124 96
251 429 295 124 12 39
369 738 339 95 45 52
265 504 431 61 22 33
254 500 371 77 23 29
274 234 245 135 103 64
254 429 301 106 17 37
357 169 282 105 86 65
417 561 343 112 89 62
412 650 302 122 81 71
379 968 296 78 73 76
349 469 441 119 13 42
304 429 312 91 67 50
251 449 299 110 17 42
359 43 250 80 37 30
389 104 266 117 84 65
299 389 318 138 101 78
303 14 291 122 56 58
384 905 356 37 33 34
378 79 236 126 33 46
541 860 331 101 84 68
248 444 291 77 23 34
269 224 245 133 102 64
395 443 376 88 23 35
380 566 199 181 15 46
274 24 255 100 84 69
272 483 423 169 18 54
235 509 281 82 22 36
250 434 291 112 13 39
343 44 278 122 92 72
264 604 231 172 9 44
382 376 243 101 88 74
249 439 291 95 22 36
358 109 271 106 85 63
393 599 310 44 25 27
387 354 281 132 102 69
255 474 311 80 19 31
336 279 281 93 79 65
251 439 295 113 15 39
337 564 344 168 11 53
394 54 226 107 31 21
418 519 236 148 16 39
374 399 314 136 102 74
278 344 260 109 89 67
437 850 262 65 54 51
239 499 291 112 4 33
247 561 338 38 30 34
253 444 301 64 25 31
483 723 277 98 86 76
253 449 302 84 22 35
401 590 224 103 40 48
255 444 306 66 27 30
239 454 266 142 0 40
348 461 426 109 31 38
349 549 185 111 29 40
416 682 244 81 54 40
248 529 216 44 33 36
269 144 238 135 103 65
379 669 326 128 14 41
274 128 273 111 90 67
240 454 271 142 2 40
243 729 291 158 107 79
364 289 306 127 96 61
309 909 351 145 115 95
284 609 221 197 11 46
238 464 266 137 0 38
432 702 213 76 54 38
254 509 416 86 8 30
314 439 166 140 3 31
384 84 231 148 11 43
349 451 375 52 32 26
364 489 176 74 34 37
239 459 271 141 1 39
474 759 256 68 52 44
252 454 302 51 25 31
444 876 355 40 37 36
250 544 442 128 10 38
238 464 271 135 3 37
391 42 228 99 37 37
236 471 260 133 1 38
346 59 258 120 14 28
260 94 264 100 61 50
364 184 252 126 99 66
348 884 359 162 123 97
369 174 250 127 99 63
369 944 370 63 56 53
272 139 238 130 101 66
383 264 257 141 105 67
262 143 273 109 90 72
383 39 275 101 23 36
348 499 172 107 25 37
286 574 357 65 26 33
238 469 266 135 2 37
289 244 302 116 93 68
262 554 429 152 100 90
418 509 236 99 27 39
302 257 258 117 91 62
281 480 193 56 36 40
237 474 263 135 0 37
419 889 281 72 61 61
283 74 241 116 65 55
286 276 309 118 94 68
337 374 255 79 69 58
279 41 283 113 22 41
379 179 249 133 102 65
245 495 301 94 9 30
306 424 313 102 74 57
324 695 334 146 13 46
248 640 337 184 129 104
290 169 261 106 86 65
236 479 261 137 0 37
339 759 229 91 31 36
259 44 276 118 44 53
467 794 301 107 71 54
237 477 263 137 0 37
321 467 168 54 30 26
236 480 266 138 0 38
395 856 299 30 28 27
286 546 402 164 25 54
404 84 246 133 24 52
319 838 295 122 88 68
264 59 272 100 36 42
413 449 236 83 26 32
416 761 220 55 42 42
234 509 261 60 30 32
237 479 271 138 5 41
380 259 297 123 95 59
255 490 336 86 29 35
391 239 259 131 98 63
319 620 219 133 27 43
252 584 361 156 113 86
247 488 297 44 21 29
384 194 286 118 94 67
369 219 247 130 101 66
394 924 276 69 61 62
298 254 300 113 89 62
374 454 196 66 33 31
389 414 201 92 30 30
456 698 302 154 103 71
255 484 316 99 14 36
349 600 209 123 25 40
349 414 176 91 61 51
292 240 248 134 103 66
271 104 224 134 19 40
388 384 291 129 101 68
295 759 238 140 12 36
238 474 276 77 24 34
261 272 263 151 104 72
250 495 326 114 16 36
369 674 330 68 26 35
353 839 250 67 55 52
374 933 268 80 74 76
391 711 203 69 58 49
234 563 431 199 133 121
291 674 243 107 21 38
240 474 281 97 23 38
277 135 274 110 89 65
305 669 233 138 8 33
356 103 270 107 85 63
297 287 258 128 96 65
377 284 299 124 95 60
257 110 241 132 95 73
414 483 416 68 22 27
240 479 281 91 19 34
369 39 285 119 30 48
323 404 236 71 59 49
405 484 421 57 9 29
384 574 205 174 15 45
404 579 312 92 29 40
358 209 254 122 96 64
335 399 231 80 66 52
241 454 276 125 10 37
385 429 326 70 16 25
299 689 236 38 34 37
391 159 272 115 92 66
241 464 280 75 23 33
339 669 228 106 25 34
242 507 319 167 0 51
265 444 201 137 0 41
263 209 287 115 94 72
266 626 348 184 125 101
244 459 286 75 24 33
289 264 250 136 103 68
241 469 281 84 26 35
423 504 266 51 29 34
274 49 279 116 23 42
243 469 286 105 16 37
299 539 386 120 2 39
408 554 326 37 30 33
451 710 257 84 62 46
241 479 284 137 9 41
383 299 291 134 99 68
300 254 255 122 95 64
369 633 228 66 34 39
265 494 426 94 21 37
278 249 303 118 95 70
246 454 290 101 22 37
319 674 327 149 13 46
304 414 191 96 82 67
274 629 241 61 33 38
247 454 292 61 27 32
246 459 290 65 28 33
583 829 351 113 95 78
406 424 252 57 34 33
286 157 258 107 87 65
406 687 318 115 13 41
433 803 221 83 63 48
234 509 271 76 28 33
246 516 420 95 0 30
247 464 292 58 27 32
263 628 300 60 43 31
305 472 410 38 24 29
321 457 158 129 27 51
268 565 195 74 32 40
351 60 253 117 55 34
369 949 370 65 58 54
246 547 228 39 31 35
364 654 230 74 29 35
251 454 299 89 24 37
257 479 174 104 22 40
414 600 347 195 136 111
259 704 276 117 88 54
490 829 312 105 90 78
288 99 256 115 41 48
410 853 230 69 61 58
251 459 300 92 23 36
255 454 306 45 27 31
256 544 326 71 28 35
255 464 306 90 23 37
396 447 383 49 30 28
348 461 395 52 36 28
282 174 243 132 103 67
274 174 240 137 106 69
316 307 318 113 85 59
236 504 290 153 0 44
305 408 231 97 83 69
267 314 286 123 94 66
369 104 278 117 96 72
270 449 176 101 16 30
245 469 290 110 17 37
287 653 303 52 19 24
390 234 288 122 96 67
383 110 240 144 44 51
270 309 271 139 102 76
334 424 146 87 63 52
375 73 232 143 23 45
336 840 314 142 104 86
284 309 260 119 93 65
392 888 248 65 58 60
366 220 248 130 101 67
245 474 291 118 13 38
313 279 291 107 83 58
280 514 188 51 33 35
247 474 293 129 8 42
400 94 252 116 26 44
274 64 275 114 85 65
354 408 206 95 82 68
245 479 291 83 18 32
374 779 216 64 49 42
322 933 363 112 87 74
250 479 301 63 23 29
275 58 230 97 43 33
423 710 202 74 57 45
252 529 366 146 0 42
253 474 306 76 22 33
337 297 308 101 78 54
297 215 284 109 86 59
369 14 281 95 52 51
269 674 280 92 62 43
235 484 261 138 0 39
397 400 256 89 71 57
234 489 261 136 0 36
374 244 301 121 94 62
349 74 266 116 12 38
377 114 249 118 88 52
261 562 208 90 22 33
359 493 396 157 17 51
426 593 315 99 81 59
235 484 266 139 0 38
284 139 261 104 82 58
235 489 266 142 2 39
274 394 246 102 86 70
306 531 363 151 12 52
277 93 232 121 43 41
305 958 317 77 74 75
311 373 254 88 76 64
402 866 309 30 28 28
379 234 249 134 102 64
329 631 224 39 35 39
281 345 258 108 88 67
234 494 261 104 13 33
349 452 377 52 30 27
331 415 299 101 69 58
423 676 266 66 54 45
384 109 271 117 94 68
259 604 326 94 68 38
279 119 246 122 96 64
332 872 353 140 107 85
418 484 236 40 36 36
368 927 263 82 76 78
407 65 241 103 41 40
427 512 356 195 18 59
235 494 271 57 26 31
324 970 321 66 61 61
365 889 341 112 85 64
237 482 273 105 14 42
267 223 293 113 93 70
314 409 307 117 82 66
314 584 199 186 6 38
388 139 271 117 93 64
374 568 198 183 10 42
239 484 281 115 9 37
314 406 238 92 78 63
257 116 258 118 97 74
374 644 232 81 34 39
236 495 275 53 29 27
277 129 243 122 96 64
233 504 266 80 23 33
287 594 341 123 20 45
354 699 338 36 30 30
419 489 386 110 19 38
264 109 221 141 20 37
233 504 271 118 14 40
274 734 319 175 119 99
351 380 314 137 100 72
330 304 306 77 57 36
263 55 222 94 61 31
328 971 322 65 59 58
420 499 291 93 19 32
259 614 251 64 34 37
309 669 231 136 8 35
234 509 266 97 24 37
556 850 350 109 93 77
235 499 276 59 29 32
241 557 408 171 110 90
234 504 276 46 30 32
364 354 248 94 83 73
460 861 335 56 49 43
421 520 395 175 117 91
294 408 221 101 87 72
291 64 255 111 42 42
291 763 324 51 42 41
260 164 275 114 94 73
356 79 253 128 34 40
396 239 276 126 98 62
359 35 253 81 36 26
279 229 300 114 93 72
466 771 249 80 60 49
430 604 310 104 85 63
441 668 279 107 87 64
389 669 240 69 36 33
299 458 382 61 43 30
236 500 280 106 12 30
380 144 248 129 100 64
254 589 301 98 22 41
478 739 266 93 70 52
279 10 291 96 44 44
383 174 284 119 96 69
407 612 243 40 34 27
238 498 281 107 12 36
413 479 226 69 32 34
288 24 258 106 44 33
341 258 268 101 83 62
264 499 455 107 14 37
376 449 176 109 19 33
301 893 346 172 126 106
241 494 286 120 7 34
270 244 248 138 101 63
273 544 420 99 28 41
286 99 244 128 20 38
236 501 285 111 2 29
307 457 388 58 37 28
359 49 247 122 26 31
406 866 254 60 53 55
237 502 288 126 2 35
381 77 228 150 10 43
400 830 234 93 73 56
308 379 315 134 95 74
419 484 241 68 30 36
387 69 224 140 16 34
234 509 276 47 31 34
402 792 319 71 57 49
241 484 284 144 5 39
274 472 434 174 19 57
236 509 290 145 6 43
247 749 303 170 117 90
359 529 181 153 1 33
365 472 421 63 21 25
260 129 237 135 105 70
286 620 321 51 25 29
334 309 310 107 79 56
251 695 282 127 94 60
349 714 225 91 31 36
309 639 319 165 19 54
344 434 306 86 64 48
238 504 306 98 13 34
364 119 277 106 86 64
254 579 371 165 116 92
494 828 311 101 86 73
324 414 186 90 75 61
383 249 253 138 103 64
353 244 255 128 100 65
240 504 311 149 1 44
239 509 311 170 0 48
242 546 399 206 144 129
350 69 256 129 92 70
300 390 243 97 85 73
247 560 405 191 125 106
384 834 230 63 54 51
239 539 471 187 20 62
311 647 228 54 28 30
244 489 291 136 5 39
334 13 266 138 51 50
366 611 219 41 31 37
246 484 294 52 20 30
304 446 361 69 53 37
277 50 238 93 36 27
429 714 317 159 109 85
247 484 297 79 27 36
339 14 302 132 56 68
326 852 281 191 130 99
280 89 236 118 31 36
246 489 295 109 15 36
289 459 192 107 11 22
378 99 240 114 64 47
374 459 191 84 18 29
391 236 259 129 98 62
353 258 303 115 92 66
291 470 188 98 13 25
417 598 275 153 13 45
249 489 301 99 11 34
333 869 290 167 122 93
257 234 255 136 100 64
428 508 366 91 25 38
404 834 296 77 62 53
254 664 286 135 97 65
323 21 287 160 108 93
263 374 266 120 96 68
442 756 319 174 124 91
246 699 291 151 104 73
382 324 290 136 101 74
263 98 218 149 16 43
434 754 319 169 122 92
284 79 270 102 78 57
287 160 270 103 82 56
290 514 183 96 23 31
274 609 227 183 10 43
412 917 334 59 51 49
247 492 302 89 11 27
374 139 283 114 92 68
480 796 304 84 72 63
554 848 341 116 96 73
260 565 362 108 37 35
358 154 276 100 81 59
380 430 337 62 20 26
402 93 246 128 20 48
261 455 168 69 37 36
255 724 315 176 121 96
246 496 315 122 8 37
263 459 201 82 28 36
251 485 305 128 3 40
384 510 401 89 20 36
253 497 356 38 29 29
286 209 244 131 103 69
325 467 425 167 19 54
412 486 378 80 22 32
261 219 248 131 100 62
284 584 200 190 9 40
455 698 270 80 61 42
288 719 327 164 15 51
339 284 301 98 79 57
252 484 306 129 3 38
274 294 262 131 95 67
479 819 310 70 58 48
359 89 251 120 61 48
322 466 165 78 23 32
242 555 261 173 0 46
350 41 253 123 32 33
360 444 314 76 58 40
252 488 316 108 15 37
395 209 266 124 99 68
416 492 326 95 21 29
255 485 321 35 30 31
378 47 244 120 103 85
245 679 306 175 121 92
249 565 411 207 139 119
376 800 218 60 49 47
251 491 320 51 19 27
436 744 230 54 46 41
241 496 290 103 6 30
269 79 270 105 29 41
242 497 301 102 8 33
359 689 335 59 27 31
242 497 307 107 5 32
359 625 224 54 37 38
291 198 249 124 98 68
284 199 290 111 91 70
241 500 310 135 3 42
509 819 311 92 75 61
243 499 311 128 4 40
396 458 376 150 15 43
242 504 316 146 0 44
411 649 300 100 70 61
379 329 296 137 104 75
367 592 208 67 33 38
370 591 209 57 38 44
399 894 356 36 34 35
479 788 271 75 56 49
265 254 295 118 94 68
245 499 321 125 13 38
288 164 266 104 83 59
432 780 232 77 58 46
247 507 381 50 29 31
242 504 321 147 3 41
301 260 259 119 93 62
399 59 226 103 41 27
365 109 252 136 97 68
279 114 270 110 88 63
469 754 256 78 59 46
330 409 236 75 62 50
241 505 315 155 0 47
269 269 256 142 99 67
388 279 276 131 94 61
357 173 283 105 86 64
414 814 226 91 67 53
392 396 289 123 97 67
241 509 316 173 0 50
402 743 334 94 35 44
378 264 300 126 96 61
241 509 321 167 4 47
381 532 364 58 28 25
288 424 200 41 36 45
252 796 274 181 120 92
367 272 253 121 95 65
324 524 180 85 27 36
395 919 275 73 64 66
358 304 309 131 93 65
314 894 355 160 118 100
260 199 247 131 100 63
420 494 241 69 32 33
320 846 344 146 118 95
406 544 215 103 30 39
345 59 271 134 93 77
340 876 359 153 121 91
261 492 173 66 28 37
378 432 335 65 19 26
242 507 317 166 0 48
310 269 281 103 83 60
340 457 387 48 33 26
240 509 326 113 24 43
399 509 196 84 29 38
240 509 331 103 27 40
256 485 326 51 28 30
294 618 222 195 10 45
254 489 326 82 26 35
245 499 326 116 14 38
285 179 245 129 102 68
285 11 309 137 33 56
242 502 325 116 21 38
278 634 321 149 96 83
247 497 326 113 13 36
409 869 311 31 29 28
370 440 332 62 25 25
384 408 204 118 20 24
462 749 305 154 106 71
242 502 331 113 26 40
284 29 257 70 41 30
399 727 193 72 56 46
433 704 221 61 49 39
248 498 331 109 17 36
370 28 259 112 96 80
319 759 331 82 68 61
243 509 356 48 29 34
328 354 258 69 61 57
394 544 351 117 14 40
245 500 336 78 26 33
334 479 156 59 38 38
362 106 254 143 99 77
374 534 185 153 9 34
344 913 363 110 88 70
364 400 221 96 83 69
412 474 227 110 22 35
248 498 336 67 29 31
279 10 286 97 55 52
330 409 241 76 62 47
309 745 338 124 27 48
412 484 305 126 17 40
241 506 322 155 7 49
387 166 279 117 94 66
241 509 336 51 30 32
263 509 416 132 14 42
270 174 284 113 94 74
269 835 291 215 137 110
397 953 306 57 53 53
243 504 341 71 27 33
391 502 445 180 18 58
249 498 341 63 30 35
489 844 306 96 75 60
259 64 266 109 19 41
354 29 257 70 42 31
248 544 225 106 19 34
289 569 193 123 21 37
244 504 346 61 28 31
380 615 224 123 30 42
375 749 206 60 48 43
278 59 232 99 38 26
246 501 346 42 32 31
369 349 306 121 95 64
384 199 251 125 99 68
347 783 229 65 51 47
411 432 241 62 33 36
271 278 258 142 100 69
249 499 346 43 28 30
382 204 289 120 97 70
258 89 262 100 82 64
262 522 438 157 14 44
366 912 248 84 75 74
418 490 430 96 73 54
397 681 324 138 3 40
246 501 350 59 26 29
349 496 387 45 25 26
437 606 329 143 106 68
275 79 226 118 44 48
241 506 340 103 20 32
241 509 341 106 26 43
294 709 332 75 27 36
249 539 296 70 25 33
390 65 223 101 39 21
262 458 210 113 12 34
242 507 342 140 18 52
295 244 250 133 102 66
250 724 310 172 117 92
254 668 324 193 135 112
321 920 272 63 57 59
241 509 346 92 22 37
284 129 251 117 93 65
242 508 347 86 25 38
260 539 187 122 19 39
358 363 244 92 81 70
315 407 220 92 77 62
242 509 351 99 23 37
308 954 352 54 51 51
394 64 261 110 79 67
344 585 199 194 9 44
334 429 302 76 55 43
384 44 251 119 103 87
318 344 262 74 65 56
252 497 351 32 30 31
315 404 307 125 87 71
299 407 220 99 86 73
245 504 356 78 27 35
489 799 311 81 66 55
305 433 182 58 32 37
344 11 281 119 62 61
249 500 356 62 29 31
244 779 291 174 119 91
369 189 249 122 97 66
409 805 313 70 56 49
324 618 218 99 29 41
337 909 250 85 77 75
275 808 258 181 123 91
369 74 276 111 25 43
258 549 376 52 30 31
359 510 371 87 19 36
247 502 356 78 34 39
390 48 251 105 93 80
369 34 287 115 47 52
424 908 346 72 61 57
249 500 361 66 25 30
354 413 181 88 60 52
380 129 248 126 97 63
247 502 362 93 28 36
244 534 391 82 25 38
397 952 303 63 59 59
234 529 411 115 63 47
523 849 324 92 80 69
287 155 262 104 83 60
480 768 277 86 68 57
252 512 209 133 7 38
274 416 226 96 84 71
248 503 366 101 21 35
279 20 257 94 69 52
243 509 366 82 22 35
247 530 306 92 23 35
260 80 209 152 22 46
309 958 306 83 78 78
254 499 366 67 29 29
479 855 326 84 71 58
284 359 316 130 98 71
258 159 272 115 94 71
243 509 371 146 6 44
359 269 254 110 89 64
398 400 251 74 59 50
361 651 229 44 34 38
271 479 194 57 31 31
308 810 313 62 54 51
314 464 177 127 1 27
309 514 182 75 21 30
265 47 235 120 103 84
276 299 304 123 94 68
369 234 248 132 101 64
369 194 295 117 96 72
244 526 470 71 6 28
285 109 256 114 85 59
299 448 371 75 57 38
384 589 316 108 19 39
359 69 250 130 96 73
299 403 231 98 85 72
436 603 326 134 102 63
244 509 376 109 19 38
244 519 406 48 30 32
334 446 336 51 40 28
270 479 181 58 36 35
369 473 426 65 19 25
264 49 231 121 104 86
402 419 281 112 12 35
290 495 397 47 25 28
371 358 308 125 98 65
249 504 376 68 27 30
267 820 274 196 133 103
274 129 240 125 97 64
379 970 301 83 78 81
319 15 286 161 91 84
394 474 198 49 35 38
434 699 319 172 120 91
244 509 381 95 27 38
412 532 392 183 123 95
249 508 391 52 29 31
355 858 332 137 107 80
247 507 378 57 33 34
354 444 161 157 0 34
461 712 292 146 99 65
434 637 329 199 134 104
251 501 369 88 34 23
351 889 358 157 117 93
252 502 377 78 24 33
334 409 298 114 76 65
279 404 318 138 103 80
484 710 262 99 75 53
354 199 256 121 96 67
279 225 299 114 94 72
416 764 220 55 43 41
368 957 354 62 55 52
255 501 380 48 32 30
289 84 261 107 81 60
359 149 261 115 92 65
259 415 241 92 82 71
430 492 395 82 46 38
321 16 282 163 102 92
394 709 344 173 11 55
284 319 312 124 95 67
276 684 268 63 33 37
295 244 297 111 88 62
299 604 212 208 12 47
272 112 232 131 89 65
245 510 386 63 28 30
294 804 316 95 78 67
257 129 262 115 94 71
269 589 376 191 127 108
369 229 300 121 97 70
392 191 258 124 97 62
379 319 296 135 102 75
386 49 272 111 19 41
248 508 386 76 24 32
409 754 327 82 67 59
338 966 347 63 59 59
245 510 391 95 28 40
336 404 304 124 86 74
308 877 323 101 69 60
246 511 395 39 28 28
283 794 249 167 113 80
368 42 284 124 99 81
275 794 252 168 112 79
388 269 290 135 100 70
295 12 280 141 87 89
413 553 305 166 19 54
284 823 262 185 129 102
421 474 261 134 15 39
321 16 278 150 93 82
285 638 237 180 9 44
299 838 296 54 45 42
422 882 352 35 33 33
283 759 245 109 32 37
250 511 400 35 30 31
327 380 274 78 66 62
289 830 307 208 157 133
402 661 253 45 37 37
254 504 386 48 28 26
257 35 278 124 102 86
253 553 321 39 28 30
388 573 207 153 12 42
250 506 386 64 26 28
269 159 239 134 103 65
398 505 435 118 66 71
364 334 252 94 83 73
259 434 167 138 4 29
274 179 241 134 104 68
451 786 229 76 61 49
373 442 377 62 28 25
282 179 243 133 103 67
364 624 224 84 37 41
339 24 296 128 91 72
279 779 319 161 122 88
251 506 389 57 29 34
355 234 299 113 93 70
320 664 228 133 5 31
252 507 392 69 29 35
394 859 225 92 76 68
299 924 331 183 140 119
330 487 158 51 37 39
389 803 223 63 52 47
374 912 378 50 45 44
253 507 396 62 25 28
267 493 395 127 3 40
255 506 396 40 27 30
255 578 315 166 4 52
304 783 237 78 62 54
268 194 287 113 93 73
359 452 324 64 46 32
285 194 287 109 89 67
364 953 361 56 51 50
398 454 381 107 17 33
254 559 431 171 111 102
254 509 411 104 7 32
283 452 318 82 56 40
342 31 283 119 71 62
256 488 441 122 5 36
275 334 305 127 99 71
264 129 235 147 108 72
258 114 241 123 91 67
255 490 446 100 3 36
359 27 294 128 31 51
349 359 247 85 75 66
403 454 321 105 18 34
376 477 435 70 22 24
376 29 283 106 21 41
256 492 447 101 9 31
320 334 312 115 75 61
431 891 330 68 60 58
278 64 231 97 58 52
517 868 328 87 69 57
256 499 426 56 22 29
367 481 427 40 26 31
255 500 431 92 10 32
474 903 351 109 90 72
263 489 440 113 9 37
254 504 426 51 29 30
258 204 250 128 99 64
405 517 424 138 84 78
374 439 198 57 39 35
343 11 299 118 38 51
375 104 243 133 33 34
294 795 318 62 52 48
253 504 431 103 13 36
508 822 312 93 78 68
266 52 229 128 109 92
443 868 332 44 38 35
286 153 251 112 91 67
377 364 304 128 99 66
284 15 308 125 57 58
253 509 426 80 15 27
391 759 208 66 51 43
474 889 356 85 69 58
255 504 436 113 4 36
297 635 313 82 17 29
254 509 436 137 14 46
386 508 185 91 19 30
283 449 199 107 5 25
459 834 312 58 49 42
256 505 440 119 4 38
399 59 256 100 35 40
350 204 276 107 86 64
276 340 263 112 91 67
255 509 441 120 5 40
254 499 450 128 6 41
295 18 265 102 35 30
251 734 309 173 118 93
284 179 282 107 86 63
254 498 448 127 3 38
365 639 229 92 28 37
314 447 361 56 43 29
256 502 453 138 15 54
464 763 243 74 56 46
339 824 251 82 64 56
314 364 257 79 70 61
401 424 296 94 22 34
259 29 255 110 96 81
419 559 261 153 15 43
258 119 241 119 93 64
246 551 450 100 26 42
373 119 279 114 93 69
371 320 303 135 99 69
346 64 261 118 48 47
416 669 309 135 85 77
373 170 289 117 95 70
260 31 253 106 92 78
314 685 329 141 13 44
381 37 259 112 97 81
264 31 253 107 92 77
316 412 194 94 80 65
250 639 340 186 130 105
280 754 247 123 23 37
388 963 316 69 65 65
280 42 249 81 48 34
269 31 253 109 93 77
478 770 280 76 63 54
320 405 231 77 67 57
289 34 257 89 53 35
422 524 251 59 29 35
335 17 299 157 119 115
269 24 256 107 92 78
283 540 189 148 0 30
404 89 236 140 20 49
355 379 238 97 85 72
246 700 288 150 105 72
384 324 286 133 102 69
297 38 267 125 25 39
279 24 256 84 41 29
402 847 293 39 34 33
279 29 255 69 37 26
314 744 231 95 31 38
391 394 291 125 99 67
369 29 290 120 37 52
309 579 196 136 21 42
404 694 331 107 16 38
245 558 407 181 118 97
257 43 213 121 40 30
284 219 297 114 94 71
292 179 256 112 91 69
414 804 313 64 53 46
274 109 271 113 92 69
384 104 237 136 20 36
401 96 236 116 65 66
257 55 212 110 32 17
354 509 177 144 1 31
395 439 341 88 26 35
285 219 244 132 102 67
260 53 221 94 52 21
284 649 302 87 12 30
540 860 359 91 76 63
422 489 271 56 27 33
314 379 310 133 93 73
388 486 431 78 20 25
266 640 283 75 33 33
264 54 275 115 21 44
270 324 276 119 93 66
424 769 321 121 91 70
287 159 251 113 92 67
368 67 279 118 15 47
302 919 343 174 136 115
264 416 236 97 85 72
445 805 261 80 60 51
258 499 420 63 24 28
264 64 211 109 38 27
428 504 336 162 16 49
265 63 215 102 42 20
261 279 271 148 103 75
324 689 332 145 12 45
404 424 271 69 27 32
327 342 264 62 52 53
268 108 223 137 19 38
419 490 356 78 20 29
374 364 244 96 85 74
313 474 179 134 1 31
261 11 285 90 38 39
369 369 242 96 85 75
280 74 236 124 45 48
310 425 166 78 58 44
315 284 281 97 82 66
265 58 220 92 40 18
389 244 256 135 102 63
289 23 300 136 92 71
269 64 216 107 40 22
352 917 373 40 37 38
419 493 336 86 23 28
274 389 247 102 87 70
273 60 222 111 36 13
330 411 197 92 78 63
316 856 313 136 108 83
274 64 221 120 34 33
287 457 378 95 37 33
281 221 244 131 101 67
344 669 228 80 31 35
272 65 217 123 33 34
378 597 314 164 12 53
259 43 240 116 93 66
315 354 313 130 90 70
259 45 236 113 92 71
301 21 297 162 107 88
385 493 436 166 17 51
334 618 217 161 20 46
412 540 369 172 119 89
250 759 267 144 103 71
269 84 216 148 11 43
270 644 276 102 25 36
369 84 277 107 88 68
304 449 186 64 35 34
445 846 319 40 35 32
259 48 231 109 86 62
365 783 218 63 51 47
268 69 212 139 24 32
448 816 219 85 85 85
251 598 252 47 35 34
325 384 256 59 46 39
259 47 234 109 82 59
397 509 422 103 57 56
349 59 256 117 53 45
264 229 291 116 95 72
427 508 301 153 20 46
413 919 301 73 65 65
405 464 331 42 28 30
364 25 258 111 93 73
359 472 401 53 39 26
264 43 239 118 101 84
258 449 311 118 15 39
257 189 278 117 95 72
330 299 286 78 67 54
264 45 237 119 102 85
329 394 261 72 58 47
264 14 266 90 74 64
269 44 241 119 101 83
449 874 311 75 60 57
340 506 373 51 15 27
364 154 255 118 92 60
507 802 300 93 73 57
262 464 201 69 29 35
305 664 233 143 4 34
446 677 279 101 83 62
284 89 241 118 25 35
346 358 248 84 74 65
334 364 256 73 64 56
351 191 263 119 96 70
410 514 216 129 17 38
258 49 272 124 15 45
334 474 155 83 33 37
343 323 259 83 73 63
259 39 246 116 98 78
260 40 242 113 96 77
412 441 261 57 29 32
420 474 251 86 19 34
369 474 173 134 7 32
264 179 243 135 103 63
255 618 354 188 127 106
450 805 313 157 104 78
264 40 242 117 101 84
352 238 298 109 89 66
245 523 311 128 19 44
428 824 251 71 57 55
260 36 248 112 97 81
329 765 328 76 63 55
264 38 245 115 99 83
314 539 183 145 3 34
344 34 256 120 50 42
349 894 360 153 111 88
349 415 161 100 59 45
267 422 313 124 94 73
309 694 231 75 31 36
388 539 381 163 111 100
353 849 250 64 53 51
329 789 322 70 58 53
397 44 230 97 29 32
257 32 254 107 92 75
300 680 319 73 28 37
389 439 376 60 47 33
357 194 254 125 99 67
312 588 339 183 15 58
364 454 322 64 45 32
388 63 225 92 40 21
264 33 250 109 94 77
344 379 247 93 80 66
402 707 199 68 54 43
263 139 272 109 91 72
300 244 254 126 97 62
409 484 346 102 16 33
257 42 244 116 72 27
427 504 306 158 18 46
459 859 331 46 40 36
339 469 155 84 33 38
269 39 246 116 99 81
269 34 251 112 95 79
256 24 284 111 14 39
299 554 187 135 16 38
294 399 236 99 86 74
255 554 386 164 116 96
381 112 243 141 95 71
273 653 320 174 114 96
378 430 314 66 49 35
263 51 227 121 103 83
265 53 226 121 102 81
407 474 217 121 14 32
369 269 253 129 100 67
417 688 313 82 27 30
464 860 336 63 54 46
264 94 217 146 17 40
289 239 301 116 94 69
268 51 232 126 107 89
274 420 206 93 80 67
397 446 330 107 18 36
270 52 234 114 101 87
295 219 287 108 86 59
379 480 455 123 21 42
400 99 251 114 31 45
270 57 225 95 59 18
243 514 381 91 31 40
274 45 242 86 53 37
274 32 254 72 49 37
354 464 426 91 33 34
262 473 192 58 29 31
364 440 346 60 29 28
279 34 252 61 42 30
421 526 342 111 25 44
420 847 229 71 60 59
279 838 291 202 135 108
314 534 182 142 0 31
279 39 250 83 38 29
408 479 321 118 22 41
283 403 234 95 83 71
319 924 361 182 142 121
419 849 297 32 29 28
257 799 313 178 131 102
354 379 314 136 100 71
358 104 272 106 85 64
273 444 191 97 7 29
262 570 336 177 0 52
336 300 309 104 78 55
324 581 199 190 7 45
403 454 316 87 22 33
420 484 246 143 15 40
279 442 342 74 47 38
397 460 377 150 14 42
278 46 243 79 45 27
369 724 343 37 29 31
300 500 387 172 13 54
263 599 301 141 12 45
351 83 262 109 81 62
405 419 251 53 30 32
279 49 241 92 40 24
267 260 254 142 99 67
379 419 313 74 57 41
310 958 350 60 55 55
329 304 291 77 63 48
449 857 328 43 36 32
319 379 306 130 86 71
404 74 226 120 39 39
272 650 276 123 16 38
393 934 277 67 60 61
379 444 314 59 38 28
387 179 253 133 102 63
283 35 252 82 38 24
349 634 325 126 30 48
343 484 162 66 36 38
411 529 220 130 20 39
366 239 248 133 103 66
284 39 251 94 34 25
286 37 254 96 38 26
466 887 363 78 64 50
263 403 250 103 87 69
285 149 251 113 92 68
382 329 267 122 97 69
359 334 252 91 80 70
480 710 262 93 71 51
287 40 253 115 36 31
292 184 252 114 92 67
409 659 301 55 44 43
283 45 247 99 56 40
289 352 254 94 82 69
284 49 246 105 41 31
365 828 233 66 56 54
268 259 297 120 94 68
359 719 226 77 28 35
385 596 313 158 15 51
287 44 252 96 68 46
286 48 249 98 36 21
339 614 328 88 23 38
254 624 350 187 130 107
395 439 346 64 26 31
273 55 232 81 48 27
262 562 424 190 125 112
369 434 197 72 34 30
242 551 267 175 0 48
397 419 321 85 27 38
274 50 237 83 49 27
385 108 238 146 21 40
314 410 206 95 81 65
427 507 298 142 22 46
347 461 431 108 37 39
269 139 275 110 91 71
402 415 271 102 15 35
416 584 306 114 24 41
344 14 301 123 62 71
262 443 214 116 5 31
404 810 313 72 57 50
399 464 366 135 14 43
434 694 246 54 42 34
407 922 353 73 65 62
385 69 267 107 90 71
289 94 256 109 20 39
274 53 235 67 47 28
261 274 290 131 98 73
389 799 319 56 45 45
363 419 186 88 28 37
280 53 240 93 45 30
365 205 248 126 100 69
272 56 228 99 45 31
369 39 251 91 73 57
441 786 217 114 77 43
335 23 295 122 86 65
276 64 225 121 43 44
349 488 400 153 15 50
259 444 185 121 11 40
354 474 431 98 17 35
277 64 227 109 61 49
358 566 328 45 23 28
305 254 286 110 86 58
280 59 236 103 38 28
439 824 270 64 52 49
367 401 226 96 84 71
260 544 191 180 13 45
374 29 286 113 54 56
318 334 315 121 80 67
280 64 235 103 39 38
363 43 249 54 35 30
270 484 371 46 27 30
268 425 197 85 35 36
389 204 256 121 97 67
347 233 283 112 90 65
266 491 374 114 19 41
281 58 239 96 47 28
265 509 436 113 19 42
347 224 276 111 89 64
290 423 196 71 35 36
413 516 432 166 63 78
389 269 286 135 99 67
309 693 332 135 10 42
339 349 311 135 92 73
282 60 238 111 39 28
515 786 300 106 85 67
284 64 241 112 47 43
282 51 243 102 29 21
258 269 286 132 99 73
425 504 296 98 20 32
370 472 441 76 19 27
446 759 234 77 58 47
336 447 313 56 45 32
282 54 242 81 53 40
359 819 313 172 130 105
495 874 335 87 68 56
394 189 276 118 95 68
294 790 244 69 56 53
248 589 266 148 5 41
285 54 246 95 46 37
289 54 251 115 54 46
376 436 369 57 24 24
285 59 245 108 40 35
287 59 247 121 34 38
379 904 345 89 64 56
383 319 281 125 97 64
344 23 299 120 75 64
339 474 156 122 21 37
330 299 291 78 65 50
384 869 231 82 69 65
326 379 260 60 50 44
438 665 277 100 81 61
382 41 253 119 102 86
290 44 255 97 75 57
405 84 241 136 21 52
399 109 246 121 34 47
270 299 267 136 99 72
291 54 255 111 62 48
406 479 215 139 15 37
289 59 251 109 61 50
369 99 246 108 58 38
370 41 283 107 34 44
391 497 432 174 18 57
274 824 271 198 134 104
291 59 255 98 72 53
304 575 194 76 33 38
289 64 251 105 34 32
384 399 236 96 84 72
264 379 296 125 98 68
380 74 228 147 12 43
335 919 253 81 70 69
250 759 305 165 115 88
402 837 294 118 89 69
382 269 258 140 106 70
292 60 257 105 41 35
407 445 290 101 18 34
379 734 340 189 17 61
414 589 355 200 135 110
422 564 271 136 10 39
254 714 315 174 121 96
432 812 219 106 84 65
285 424 202 46 43 45
292 64 257 118 29 42
360 64 248 129 57 51
405 688 322 92 15 35
474 859 341 58 49 41
434 619 335 181 123 95
272 439 191 75 23 27
356 87 253 114 55 46
310 909 301 154 118 91
405 84 231 137 31 48
333 545 180 93 27 37
390 74 223 147 12 38
259 69 208 123 26 30
396 219 266 125 98 66
367 765 214 61 50 47
426 498 345 128 17 37
259 74 207 134 17 29
262 225 249 131 100 62
286 227 298 113 93 70
398 593 223 80 32 39
257 152 268 115 93 70
569 840 338 105 90 75
276 80 229 122 39 47
354 194 256 121 96 67
255 715 273 123 94 59
373 429 171 83 29 34
265 294 286 145 104 81
354 714 225 106 24 35
314 874 346 167 127 124
291 291 259 120 88 61
259 79 208 141 17 37
288 439 200 115 9 28
264 69 210 131 23 32
270 475 422 174 15 55
307 659 318 156 16 49
393 519 192 59 33 36
257 709 318 174 122 98
263 70 208 134 16 34
271 646 328 172 112 95
285 104 246 138 83 70
284 479 190 76 30 34
264 79 210 147 12 41
319 13 291 149 70 69
267 66 213 121 42 30
369 279 256 113 89 62
289 10 301 120 33 46
334 779 234 85 65 56
280 258 248 136 101 66
368 319 305 135 98 68
299 397 240 100 86 72
271 450 349 71 26 30
268 74 212 144 21 42
279 244 303 118 96 72
279 394 317 136 101 77
249 679 291 149 106 72
396 492 442 69 20 32
289 10 306 129 33 49
421 497 305 91 18 31
271 74 214 139 19 42
412 435 237 120 20 35
270 79 215 147 14 44
257 164 272 116 95 71
324 724 227 153 0 37
259 84 210 149 14 39
394 569 211 170 15 42
504 794 305 94 77 62
279 719 319 110 40 41
364 84 246 128 24 33
351 74 257 128 100 79
359 339 252 92 81 70
265 664 322 166 111 93
389 604 310 110 18 40
416 559 244 157 16 44
454 834 311 48 41 35
424 499 326 126 17 39
413 454 236 61 33 34
339 459 416 102 22 36
395 848 293 41 30 30
407 470 325 91 27 37
259 89 212 147 15 41
264 84 212 149 11 42
258 92 213 157 22 53
360 488 406 115 8 37
349 64 256 126 27 40
273 625 239 144 36 53
405 719 337 52 30 33
284 264 306 119 95 68
308 291 314 105 85 64
266 85 214 148 11 43
407 494 212 140 13 34
364 194 295 114 94 72
271 85 219 149 11 39
261 118 233 158 115 83
276 528 393 67 29 36
270 709 273 82 56 42
241 554 256 173 0 47
269 94 221 129 17 35
266 96 219 140 18 41
364 244 303 121 96 68
263 289 286 145 104 81
273 69 217 126 26 39
275 69 221 128 27 43
273 74 216 136 18 40
424 634 284 86 67 46
269 389 310 130 100 74
374 45 247 116 100 83
269 809 317 179 133 107
364 454 167 156 2 33
302 254 295 112 88 61
396 234 266 130 100 64
399 543 390 203 136 111
410 869 260 55 49 53
273 79 217 145 15 45
344 499 166 60 35 41
426 519 286 102 30 41
364 429 196 79 33 31
278 107 236 130 86 63
266 485 416 98 7 34
275 74 221 143 31 50
420 525 401 172 112 88
294 549 186 115 20 36
362 749 229 111 21 29
272 596 219 56 26 35
273 94 226 119 31 39
349 505 376 48 25 27
329 420 156 84 62 48
375 464 175 116 14 29
266 632 262 38 34 36
270 319 300 132 100 76
252 532 375 63 25 32
355 483 411 100 14 35
384 425 346 55 17 29
274 79 221 146 19 48
272 82 218 146 11 41
363 612 218 73 35 35
341 53 271 112 13 36
312 626 224 171 4 45
273 84 221 148 21 46
354 824 242 56 48 47
416 526 394 171 113 89
374 239 301 121 95 63
362 791 224 58 47 44
354 289 257 96 82 68
257 139 244 123 98 68
370 450 323 64 39 30
312 889 299 156 116 88
272 88 222 151 22 45
270 566 402 206 142 122
411 509 219 116 21 37
272 92 223 125 25 32
395 249 276 129 97 62
271 96 224 124 31 40
347 36 283 124 10 47
399 484 197 107 23 35
279 69 231 98 43 41
265 454 169 97 26 35
424 800 217 85 65 50
389 209 256 122 97 67
276 75 225 132 37 48
266 339 282 122 96 67
428 590 322 116 93 67
292 176 253 112 91 67
260 254 257 144 101 68
379 539 186 174 9 37
277 74 227 131 35 49
316 328 264 79 69 59
379 38 255 118 102 87
329 759 230 54 36 40
311 313 264 91 78 66
274 199 291 113 93 72
278 74 231 129 54 59
259 679 281 122 90 54
277 78 228 99 78 62
258 609 246 88 34 40
278 79 231 113 53 52
424 549 296 47 32 35
299 468 415 45 25 31
284 209 243 131 102 68
272 669 314 170 121 98
387 174 253 132 102 64
286 194 244 124 99 68
406 578 316 70 21 32
280 79 236 129 34 44
295 189 256 115 93 69
426 642 324 179 127 106
289 369 319 136 102 76
301 219 255 120 96 67
319 904 291 104 84 67
409 857 303 34 31 31
282 69 238 121 29 39
257 574 381 172 118 95
279 414 226 99 85 70
463 789 310 155 108 81
359 134 271 104 83 59
403 419 276 108 13 35
469 833 312 58 47 38
284 69 241 111 74 60
370 833 233 69 57 53
364 508 375 144 14 48
287 607 336 41 27 31
258 104 262 115 92 70
420 880 270 74 61 59
246 570 297 100 16 25
282 74 238 136 27 43
264 724 320 179 125 101
301 26 281 137 34 47
416 596 254 70 31 41
367 473 403 51 39 25
353 384 240 96 83 70
379 94 276 104 31 41
382 402 214 98 75 56
257 407 288 123 97 68
379 519 180 57 36 37
269 489 376 115 11 35
282 79 238 135 24 44
279 199 292 114 94 74
299 209 271 109 87 61
411 474 225 82 25 34
314 499 180 118 9 31
389 89 231 147 13 41
482 916 372 79 64 56
283 79 241 119 45 46
354 904 245 78 67 67
384 639 236 47 31 36
544 856 354 113 93 73
286 69 244 115 95 75
344 704 338 120 27 46
292 179 266 107 86 62
288 69 247 114 69 53
373 75 240 144 101 90
285 79 245 113 90 69
273 89 226 114 54 48
401 96 241 131 21 48
275 89 230 97 57 42
289 399 236 99 86 73
356 254 304 119 95 68
362 173 288 106 87 66
284 533 391 72 18 31
277 84 232 125 39 45
416 468 282 86 18 31
273 664 314 172 118 97
258 134 266 113 93 73
274 168 283 111 91 69
275 94 230 125 45 47
430 599 316 113 91 66
231 549 431 169 121 106
266 185 284 115 96 76
383 90 274 105 85 65
313 826 308 63 55 55
354 413 196 92 76 65
479 874 340 94 77 62
357 95 254 117 84 59
366 113 253 133 98 64
359 139 266 112 90 65
449 744 241 51 42 39
354 11 276 99 82 72
265 264 295 122 95 69
419 824 301 50 42 41
282 84 238 115 38 38
359 24 257 98 52 30
319 479 401 46 25 28
377 450 178 102 17 32
413 620 332 180 123 105
283 84 241 125 25 39
282 94 238 112 84 59
389 406 203 154 13 19
268 219 244 133 102 64
339 19 299 128 88 73
287 84 247 128 29 43
404 604 308 100 50 52
286 89 245 112 52 44
389 49 241 115 99 83
396 229 276 124 97 66
293 483 184 55 38 36
492 741 277 89 68 48
286 94 244 117 37 40
311 433 166 44 36 35
239 543 466 132 22 49
289 18 305 165 121 120
382 140 279 113 91 65
329 444 316 49 39 29
287 94 246 101 70 49
429 624 291 93 76 58
321 487 173 54 30 33
379 404 312 128 98 72
280 159 277 107 86 63
322 400 237 70 59 49
259 99 218 146 46 50
309 833 262 96 73 65
390 519 401 67 39 40
376 229 298 119 94 66
437 812 251 77 58 50
260 514 461 109 15 39
243 749 291 169 114 87
425 704 205 82 66 51
259 104 219 134 53 52
286 79 268 94 52 45
257 440 183 110 17 45
282 564 194 164 0 35
336 374 257 77 67 56
385 419 316 81 19 30
352 199 259 120 96 67
334 599 207 130 27 43
384 439 201 52 35 36
265 100 219 144 15 39
361 426 192 82 29 35
388 539 386 180 125 113
269 99 221 137 15 41
355 510 179 143 1 32
290 509 183 80 30 35
270 405 243 94 82 69
269 139 237 136 103 66
286 157 259 105 86 63
348 474 167 62 37 40
268 104 222 140 19 41
297 487 399 160 17 51
323 19 275 141 56 57
269 484 401 74 20 30
259 113 222 181 99 98
257 111 237 137 98 77
484 790 300 92 78 67
349 412 191 92 74 62
367 871 329 141 110 83
304 499 386 160 16 52
419 584 256 47 32 38
279 59 277 108 31 43
312 412 309 118 82 66
303 249 257 120 94 63
271 100 224 138 27 46
277 639 321 159 106 90
289 199 246 126 100 69
398 862 241 58 51 54
550 850 336 127 101 71
271 111 230 138 94 68
429 774 232 69 52 47
259 113 226 155 95 80
264 699 276 113 83 50
354 509 371 48 25 28
438 614 331 157 110 77
334 417 161 96 60 46
259 114 231 152 103 82
246 674 297 150 105 73
394 749 206 65 50 42
264 115 230 150 104 77
329 501 378 78 14 27
264 119 232 153 113 77
302 950 331 57 49 51
442 735 237 56 46 39
373 64 235 128 41 39
374 419 200 79 39 30
471 781 265 60 49 45
326 327 284 68 57 49
257 453 220 109 4 28
258 114 236 137 98 74
338 851 344 136 109 82
374 790 323 90 73 68
350 79 266 108 23 40
487 931 374 77 62 51
259 119 236 138 105 72
313 420 309 92 67 50
260 124 236 135 105 71
354 798 319 185 134 114
262 121 234 152 115 76
408 554 222 162 19 43
265 509 412 150 12 46
374 59 236 105 41 29
370 60 237 117 32 33
264 123 233 153 111 75
394 528 415 197 136 126
374 949 275 80 74 78
349 977 321 63 61 63
281 476 193 72 23 23
374 414 202 96 31 32
479 779 287 76 62 50
251 705 278 120 92 58
264 125 234 149 109 74
277 644 316 159 105 91
299 414 196 97 83 69
365 473 416 62 24 24
337 809 244 82 64 56
325 463 431 127 15 44
349 239 257 122 95 63
309 654 230 161 5 40
380 59 232 90 34 27
258 204 281 116 94 70
268 119 233 139 103 66
399 914 372 43 37 34
384 548 346 166 13 53
469 754 286 126 86 56
472 809 278 66 52 48
419 469 251 135 11 36
247 551 283 31 23 27
304 314 323 130 93 70
270 119 235 132 100 64
347 463 163 98 30 41
267 122 233 143 105 70
316 350 313 131 91 70
269 124 236 134 102 66
394 74 222 142 16 35
257 118 244 115 89 60
365 425 159 47 40 40
427 710 208 73 60 50
316 875 298 134 101 72
298 24 266 118 30 33
406 901 279 78 66 65
376 99 243 97 66 38
484 714 280 81 66 48
393 649 310 62 21 31
299 354 251 90 79 69
256 124 243 117 93 66
256 529 422 83 21 32
256 128 243 120 95 67
395 534 195 44 36 39
386 349 266 123 98 71
294 473 410 101 21 41
349 64 275 107 15 39
259 54 271 121 15 45
373 729 226 59 42 37
319 415 181 89 75 61
379 759 207 69 53 46
283 825 265 190 132 103
273 99 227 119 57 52
269 344 271 109 89 66
259 749 266 125 95 61
289 769 322 91 72 62
401 668 308 78 22 34
379 64 230 123 23 27
369 453 387 64 26 25
275 99 231 94 65 41
269 734 320 179 124 101
385 119 271 115 93 69
465 903 353 91 71 51
418 486 411 66 19 30
334 426 143 126 55 41
374 669 231 91 31 30
279 99 236 106 60 43
370 328 254 101 86 71
279 104 236 129 43 47
268 264 255 142 100 67
268 89 268 96 79 60
298 528 184 141 1 26
243 754 291 172 116 88
314 505 377 149 14 49
285 469 192 77 25 26
259 199 281 117 95 72
260 554 201 86 23 36
273 108 227 131 32 41
419 544 311 106 26 43
318 439 156 72 33 34
387 511 183 91 19 27
274 109 231 134 77 63
267 473 173 104 22 31
427 524 316 159 9 50
278 447 353 63 43 28
369 289 258 100 81 59
276 110 240 130 92 63
403 914 281 69 60 61
247 630 342 177 124 99
280 339 310 122 96 68
391 244 288 126 99 67
406 551 219 155 30 48
277 107 232 138 74 69
373 224 299 120 96 69
344 394 310 131 92 76
316 380 308 133 92 73
263 393 255 111 90 67
339 704 337 33 28 31
324 324 271 63 55 49
406 586 229 161 22 46
430 504 416 197 137 123
279 109 241 134 95 67
284 249 247 135 102 67
357 109 266 119 93 66
284 99 241 113 41 38
289 224 296 111 90 68
400 403 251 60 38 34
344 553 335 100 18 37
349 824 314 168 128 102
304 560 361 181 11 58
245 714 286 149 105 73
282 100 238 107 53 44
471 851 309 96 76 61
255 799 271 180 120 89
317 841 264 70 56 52
283 104 241 135 61 59
257 519 186 152 11 42
289 289 312 113 89 63
379 769 217 76 57 47
388 164 252 127 99 62
334 388 250 72 60 49
339 619 327 82 33 40
379 169 286 117 94 68
356 451 379 55 27 25
324 309 291 84 66 50
344 604 210 126 26 43
280 110 244 139 102 73
287 102 248 134 50 52
259 484 331 49 27 30
287 102 251 131 83 72
265 489 175 78 30 34
364 204 249 125 99 68
358 219 298 112 91 69
366 155 253 119 92 58
400 693 332 130 7 40
418 594 261 93 31 40
286 104 256 115 86 62
275 598 217 43 32 38
427 505 326 165 14 50
403 404 246 48 35 33
242 557 440 114 38 53
321 484 173 77 35 37
388 849 306 144 112 89
427 822 247 69 56 54
284 10 286 115 64 65
287 159 256 109 89 68
324 13 301 153 29 61
428 514 326 169 11 52
294 474 185 100 19 28
244 664 311 148 106 74
257 497 426 77 19 29
260 264 290 127 97 70
417 555 351 131 101 65
344 448 321 58 45 32
374 509 178 61 29 35
282 107 243 136 97 73
403 404 241 72 39 38
295 344 319 132 96 70
369 144 252 124 97 65
427 514 321 169 10 52
283 109 246 133 98 71
378 793 220 63 51 48
356 36 253 96 36 26
385 209 287 117 93 65
285 109 251 124 93 65
273 113 237 132 97 67
458 710 250 92 74 57
298 659 313 133 12 43
379 689 210 67 50 40
382 446 198 53 33 25
281 158 244 127 100 68
308 424 176 83 47 38
264 459 169 97 28 36
299 884 316 149 111 87
283 189 243 126 100 68
389 84 227 154 14 42
264 219 290 115 94 72
272 119 238 127 98 63
326 409 251 69 56 44
353 254 303 116 92 67
369 515 367 63 25 30
382 917 258 66 58 59
275 119 241 120 94 62
272 123 238 129 100 65
268 469 173 91 30 34
245 515 401 32 28 33
272 468 366 45 28 29
275 124 240 124 96 64
341 416 158 110 54 39
277 114 242 121 91 58
407 79 236 138 29 51
436 796 231 70 56 48
264 494 175 72 34 38
286 164 249 115 93 68
277 119 242 118 93 63
328 399 271 81 57 48
369 19 291 103 30 43
420 479 276 142 12 42
279 274 253 138 99 67
279 439 321 84 55 40
377 734 210 59 47 42
484 814 307 85 73 63
364 13 281 94 56 53
280 124 246 120 95 66
283 114 251 120 93 64
367 26 258 107 93 76
374 824 231 76 62 57
284 119 256 109 86 60
386 82 228 152 15 44
333 466 428 177 18 59
401 99 246 125 24 47
232 545 420 179 127 110
379 768 329 77 64 57
282 124 248 120 95 64
289 84 256 103 40 42
418 886 364 44 40 38
262 565 210 80 30 32
354 314 311 128 89 62
285 442 331 83 47 39
266 302 282 135 96 75
283 124 251 119 94 64
380 503 405 131 14 47
289 464 391 65 33 28
464 859 331 63 55 48
284 124 256 108 86 61
454 890 355 83 66 54
390 224 255 129 100 65
324 749 230 102 27 39
290 74 251 122 35 42
416 694 239 78 54 41
356 482 414 113 14 38
290 74 256 111 83 61
303 19 296 164 116 94
442 826 298 41 32 28
314 669 229 121 13 33
324 487 394 47 23 26
289 79 251 127 33 43
306 407 236 98 83 68
362 462 393 58 31 25
289 84 251 122 28 40
358 860 330 139 107 78
324 13 286 156 82 80
279 206 294 113 93 72
382 419 313 70 35 30
289 89 251 98 61 46
410 919 326 59 51 51
494 858 337 89 74 60
248 574 281 48 29 35
298 19 267 128 34 37
329 459 436 154 15 49
349 39 254 126 17 29
324 424 151 79 64 50
361 160 284 105 86 66
263 484 436 142 12 43
345 49 256 138 40 47
354 15 261 109 87 71
321 299 286 85 71 57
269 734 265 88 53 40
320 894 359 186 135 120
373 110 249 125 91 60
351 53 253 131 56 48
300 939 316 96 80 72
324 809 317 53 44 42
358 16 263 108 94 79
240 544 241 70 25 37
356 58 248 138 21 34
278 144 275 110 88 63
504 814 306 88 69 56
394 404 296 99 78 58
432 773 233 68 51 46
489 855 331 91 77 64
359 29 256 76 32 27
364 29 256 85 66 51
400 403 216 137 20 34
334 456 386 48 33 27
284 34 286 115 53 53
353 38 254 119 15 29
272 753 259 126 97 64
279 399 240 97 84 71
365 23 260 109 94 78
260 389 286 128 100 70
342 288 308 105 83 60
358 33 254 76 36 25
414 654 276 61 45 44
257 489 201 81 21 31
319 446 346 53 42 28
269 184 242 135 104 65
289 359 250 94 82 70
247 560 235 72 30 36
474 720 257 96 76 53
270 479 421 172 16 54
344 13 261 132 49 43
385 540 189 171 14 39
246 689 293 150 103 73
316 438 157 95 32 39
409 434 256 64 30 36
264 134 236 141 104 65
369 418 199 71 54 40
250 719 310 171 117 91
269 274 257 142 100 68
244 559 241 130 17 43
270 214 243 131 101 65
264 544 186 154 9 38
464 704 256 75 59 46
378 432 362 68 21 26
273 225 244 134 102 64
371 446 169 74 36 40
340 830 314 162 122 97
349 410 201 94 80 67
359 39 251 93 28 27
402 709 339 34 29 33
390 896 349 32 29 29
272 477 398 120 2 37
364 564 331 164 19 54
359 46 248 94 34 30
326 478 158 86 31 33
409 509 437 168 16 55
354 44 250 96 44 37
410 924 301 73 65 64
361 68 248 134 106 80
354 494 175 70 34 39
406 589 321 125 79 73
264 174 242 135 102 63
356 46 248 114 36 37
259 109 261 116 95 73
296 510 383 167 9 54
356 49 248 133 27 38
255 635 297 87 69 48
349 463 411 61 33 27
364 35 253 71 35 25
389 483 417 47 29 24
260 159 242 129 100 64
280 559 376 93 25 39
340 284 262 96 80 63
379 29 266 99 84 67
281 294 309 124 95 69
274 479 416 147 11 46
364 39 251 81 34 25
379 249 251 137 103 64
369 34 255 109 95 80
354 929 260 86 77 78
377 279 299 126 96 62
360 864 232 84 69 62
369 36 253 102 88 73
329 359 257 65 58 54
378 44 279 118 99 81
290 254 249 136 104 68
421 734 214 52 42 39
364 45 247 70 38 27
377 209 294 120 95 67
406 477 406 103 6 34
369 44 247 82 43 33
259 184 246 132 100 62
453 694 306 158 105 74
423 490 391 89 19 32
258 134 241 124 98 67
251 633 344 186 132 107
358 884 242 73 63 61
294 12 276 134 78 78
324 16 298 128 46 58
363 344 309 121 94 60
288 837 299 199 143 118
369 48 244 88 37 27
369 129 252 123 96 63
334 950 367 76 71 70
284 524 385 117 14 40
408 464 311 76 24 34
270 84 269 106 86 67
318 939 362 82 61 57
261 389 262 118 95 68
494 771 289 83 64 48
369 42 249 82 55 41
257 184 249 127 98 63
372 57 239 81 51 28
368 58 240 109 33 29
239 523 421 62 39 30
374 309 301 135 101 69
368 453 168 152 4 35
359 54 247 91 47 37
395 403 281 113 90 66
367 442 334 58 28 26
266 194 243 133 102 62
359 659 229 103 24 32
265 548 188 169 3 33
