ply
format ascii 1.0
comment Created by Open3D
element vertex 2219
property double x
property double y
property double z
property uchar red
property uchar green
property uchar blue
end_header
398 877 362 68 57 51
255 867 275 163 118 88
383 508 333 147 19 45
273 348 314 141 96 71
273 353 314 140 97 72
228 873 348 108 83 64
238 844 313 100 80 57
503 874 333 115 93 70
286 323 292 96 69 44
285 323 295 92 67 43
270 892 350 63 53 43
283 560 181 133 30 46
371 553 314 33 28 31
285 328 298 97 70 45
292 882 224 92 79 73
338 658 249 116 14 30
284 328 303 103 73 49
383 878 308 92 77 70
286 330 296 97 71 45
287 472 313 40 28 25
286 334 297 101 72 48
233 683 308 52 27 32
284 333 303 105 75 50
254 557 189 157 21 47
227 918 282 65 60 59
278 333 312 122 84 62
248 787 219 64 53 48
400 428 317 65 25 28
280 323 310 121 84 62
280 327 310 118 81 59
344 318 278 126 92 59
283 333 308 111 80 57
402 508 363 76 31 42
287 338 293 100 70 47
407 443 384 102 18 38
286 338 298 105 75 49
285 338 304 111 79 55
285 343 304 117 82 59
287 348 298 114 76 55
286 353 302 121 84 62
277 733 224 54 33 33
278 348 312 136 93 69
280 348 310 133 93 68
377 793 311 162 123 94
297 453 292 90 35 36
280 339 310 118 79 65
283 348 308 128 90 67
282 353 307 131 93 70
373 424 293 63 54 46
285 348 304 122 84 62
385 568 271 112 27 36
285 353 305 126 88 65
284 358 256 91 73 56
236 595 226 166 19 49
224 633 297 34 27 32
286 358 258 101 79 62
286 368 258 99 78 60
287 373 258 99 78 60
288 373 268 102 76 58
366 628 268 41 32 35
287 378 258 101 78 60
287 378 263 99 75 57
370 475 327 52 19 28
287 383 263 98 73 56
288 378 268 97 72 54
335 565 201 183 7 41
288 383 268 96 70 53
258 358 315 129 97 70
365 600 338 111 29 45
263 358 315 135 99 74
244 558 317 120 8 37
369 413 268 72 63 54
259 363 316 135 101 74
257 367 315 135 101 74
264 362 315 138 101 74
381 856 290 75 55 49
263 368 316 139 102 74
268 358 315 139 98 74
299 763 200 79 59 48
273 358 313 138 96 71
319 933 323 62 56 54
315 468 372 84 20 36
268 363 315 140 100 72
328 728 207 64 51 43
390 499 342 163 22 47
474 805 386 113 94 76
225 849 322 176 130 111
268 368 315 140 100 72
258 373 316 138 102 76
403 473 310 65 23 32
372 558 349 121 15 40
263 373 316 141 103 73
333 593 333 153 16 47
258 383 317 141 105 77
268 373 315 140 100 72
333 503 343 79 23 34
308 393 288 119 82 67
273 373 312 139 98 73
268 378 314 142 100 74
383 558 353 158 26 55
266 378 316 143 103 75
268 383 314 143 101 76
408 458 353 78 23 34
287 358 298 118 79 59
291 743 206 67 51 46
287 358 303 124 85 63
416 446 350 174 16 50
289 473 328 62 27 32
286 363 302 125 86 65
274 538 331 136 19 44
396 492 349 81 26 37
369 708 278 82 53 47
288 368 298 122 84 63
348 915 353 62 56 53
286 368 302 126 88 65
277 358 311 134 93 70
293 823 304 158 116 94
279 358 309 133 93 72
277 363 311 135 93 71
183 579 211 106 83 65
276 595 211 166 35 57
276 368 311 136 94 72
282 358 307 131 92 71
398 723 297 168 118 90
285 358 305 127 88 67
365 639 278 63 32 37
282 368 307 133 94 71
358 298 258 128 98 64
288 373 293 117 78 60
396 527 358 171 18 53
287 373 298 124 85 65
368 887 413 70 55 44
287 378 298 124 84 65
286 378 301 128 88 67
287 383 298 123 83 66
381 822 265 87 54 51
284 383 303 129 90 72
279 373 309 137 96 75
333 763 332 66 51 48
298 648 237 128 12 31
275 383 310 141 99 77
333 897 274 78 67 64
413 448 353 102 16 33
278 378 308 137 97 75
437 633 283 176 120 91
464 524 308 106 89 71
276 376 311 139 97 77
464 524 313 109 89 71
278 383 308 138 97 76
281 383 306 134 95 75
289 323 273 104 75 58
288 328 268 101 76 61
367 891 304 75 61 59
288 333 268 114 83 70
413 653 262 153 105 76
288 333 273 98 70 53
272 428 307 72 57 41
218 753 214 141 101 70
346 263 271 126 96 61
302 323 258 83 71 60
478 509 298 106 88 70
302 323 263 80 67 54
302 328 258 81 70 58
262 578 320 139 18 45
302 323 268 81 65 46
304 323 273 72 58 44
302 328 268 82 67 51
302 333 268 82 69 55
302 333 273 83 69 55
289 328 278 105 73 54
289 333 278 102 72 54
289 333 283 99 70 49
279 950 360 59 51 46
491 511 326 183 126 111
432 426 316 156 19 49
298 879 218 93 79 71
304 328 277 73 61 48
194 768 224 159 107 74
303 333 278 78 63 50
288 338 268 112 81 69
381 456 315 56 20 23
366 683 288 55 31 34
288 343 268 101 75 61
206 626 200 143 102 69
289 343 273 93 69 52
238 588 219 93 21 36
290 348 273 94 70 54
397 548 278 58 31 35
362 775 231 65 51 46
302 338 258 77 65 52
212 568 238 55 32 37
407 693 264 135 96 63
344 698 328 137 8 42
505 882 310 84 84 84
302 338 263 79 66 52
302 343 263 78 65 51
302 338 268 81 66 50
302 343 268 80 65 50
302 343 273 80 65 51
301 348 258 73 61 47
301 348 263 76 63 48
402 458 343 44 26 28
301 353 258 71 58 44
302 348 273 81 66 51
391 791 250 80 62 54
301 353 268 78 64 48
241 676 315 39 28 29
302 353 273 82 65 49
289 343 283 100 72 50
289 343 288 101 71 48
322 447 304 110 84 64
290 348 278 95 70 51
346 742 336 124 25 47
290 353 283 100 71 53
289 353 288 106 73 54
302 343 278 79 64 49
196 794 231 169 112 78
303 343 283 78 60 44
302 353 278 78 61 46
393 793 257 100 69 53
304 348 283 78 59 42
254 892 360 109 86 68
465 830 394 102 78 65
408 508 297 143 12 44
307 323 279 69 57 44
327 518 343 123 23 45
308 328 283 76 61 46
310 328 286 87 64 44
313 333 289 109 77 57
233 788 299 71 60 55
305 339 286 79 60 46
306 336 285 78 59 43
293 753 204 67 52 45
257 477 311 57 26 29
354 639 257 121 32 44
308 338 287 91 66 47
305 343 286 79 60 43
308 343 288 93 66 48
419 424 312 42 25 26
305 353 286 78 56 37
323 748 342 181 15 59
308 353 288 100 70 52
353 478 312 29 23 23
288 353 293 111 73 54
257 829 236 79 64 60
316 323 290 115 82 62
316 328 290 112 79 60
275 945 271 85 78 79
318 328 292 116 83 62
318 333 292 118 84 64
198 768 268 138 109 78
405 708 261 132 94 62
415 474 276 52 33 38
311 348 290 115 80 61
208 758 213 156 107 76
258 953 278 88 80 81
261 467 311 48 23 29
314 339 291 116 82 62
318 338 293 121 88 66
301 393 273 88 60 46
318 343 293 123 90 67
318 348 294 125 89 69
289 358 273 101 75 58
434 858 392 92 72 59
289 363 273 102 75 59
253 632 239 160 0 38
288 368 268 112 82 65
242 872 286 122 91 60
289 368 273 100 73 56
368 463 308 45 20 23
300 359 258 69 57 43
302 358 273 79 62 46
413 473 378 57 31 34
300 363 262 70 57 40
421 613 271 119 92 60
301 363 264 71 57 41
253 708 233 73 32 37
300 368 263 72 57 40
293 833 217 81 63 51
301 363 268 75 58 41
300 364 270 79 59 42
301 366 265 73 57 40
343 833 302 47 40 37
411 438 320 104 28 40
288 895 238 78 70 69
300 369 268 76 57 40
211 752 265 111 83 57
290 358 278 94 69 50
289 358 288 108 73 56
290 363 278 93 68 50
290 368 283 102 69 54
289 368 288 111 74 57
302 363 278 80 59 42
301 374 275 83 57 42
301 368 278 81 58 42
302 363 283 79 56 38
338 773 327 73 61 55
180 558 181 155 108 83
313 613 332 60 29 33
302 368 283 83 58 42
408 688 264 136 97 62
304 368 287 93 65 49
313 916 398 71 65 62
288 378 273 93 68 50
300 373 263 76 57 37
353 788 231 72 56 49
287 612 336 36 28 30
300 373 268 78 57 40
300 378 258 81 56 37
307 947 305 84 75 74
300 378 263 81 56 37
263 518 312 121 8 37
301 384 263 85 56 38
300 377 268 81 57 39
301 379 268 83 57 40
323 573 198 104 35 45
300 378 273 83 57 42
300 382 266 84 57 38
263 977 303 54 50 52
289 383 283 105 71 56
300 369 276 81 58 42
302 373 283 86 60 45
302 378 283 86 58 44
304 383 287 102 70 53
276 906 245 84 74 72
283 662 235 109 19 30
304 358 287 86 60 42
222 678 218 119 85 57
288 358 293 113 74 57
288 368 293 115 77 59
406 857 400 70 58 46
288 383 293 119 79 62
511 488 299 166 113 96
395 464 306 86 27 36
232 594 227 157 10 41
313 358 293 123 85 68
383 468 333 64 21 27
353 768 324 74 61 54
310 368 291 122 85 68
351 647 311 171 10 55
502 483 287 133 103 76
313 368 292 125 88 70
320 353 296 128 94 70
277 976 318 72 69 70
364 633 268 80 34 39
317 363 295 127 90 71
317 368 295 127 91 71
293 768 203 65 52 44
288 503 324 114 17 40
319 368 296 129 93 72
310 373 291 123 85 69
308 383 289 120 83 67
227 538 197 168 10 38
313 378 292 126 88 71
310 382 291 124 86 71
313 383 293 127 89 72
393 453 304 46 27 32
317 373 295 128 92 72
317 383 295 129 91 73
364 408 288 97 80 61
320 378 296 130 95 74
377 517 308 60 23 34
377 683 278 56 42 28
319 383 296 130 93 74
323 263 269 111 89 64
328 258 272 118 93 66
325 264 271 114 91 66
263 849 323 103 83 62
216 543 217 147 10 40
343 683 322 136 13 43
369 603 313 155 19 51
326 261 270 115 91 64
164 516 190 94 69 50
414 443 353 83 15 28
321 272 270 106 85 61
443 593 279 153 110 70
188 598 219 112 87 68
345 600 226 73 42 36
153 518 172 183 121 94
253 743 222 64 35 37
289 904 251 73 65 66
324 268 271 111 88 64
248 762 317 69 59 56
453 563 288 157 114 79
328 268 274 110 87 62
288 878 214 107 86 75
408 458 358 59 24 29
331 267 275 112 87 61
330 270 276 115 91 64
329 274 276 114 90 65
333 273 278 117 93 67
293 728 339 96 30 42
390 743 300 167 116 88
507 503 308 184 122 109
462 533 319 158 120 111
283 921 250 86 75 73
326 277 275 109 87 63
323 283 277 100 81 60
467 537 290 186 132 105
322 287 279 101 82 61
328 283 279 104 83 61
333 278 279 110 88 64
332 282 280 108 86 64
375 579 247 172 19 44
318 523 172 163 5 38
413 438 258 85 28 34
288 698 223 66 40 35
333 288 284 111 89 65
216 753 300 147 15 45
320 929 312 68 61 59
330 884 260 67 57 56
334 280 281 113 91 66
153 548 193 165 117 95
406 703 291 170 118 88
346 258 271 126 97 62
349 258 269 127 98 63
352 258 266 127 98 64
293 623 228 170 7 41
347 268 271 126 95 62
347 273 272 127 95 62
337 264 276 123 96 66
405 448 383 66 20 30
343 258 273 125 97 64
395 813 294 160 109 84
338 273 277 118 89 62
313 838 298 116 91 74
347 278 272 126 96 62
183 633 197 168 114 77
350 278 269 127 97 62
350 283 270 126 97 63
352 288 268 130 100 65
350 288 270 129 99 65
333 845 290 35 32 32
339 283 280 115 93 68
336 280 281 114 92 66
278 693 334 49 27 30
323 368 297 131 96 72
358 713 208 83 57 37
338 288 282 114 91 65
410 474 380 77 33 32
412 807 277 67 50 40
340 286 280 114 91 65
346 289 276 119 93 60
255 910 376 40 38 38
328 293 284 110 86 63
324 299 286 104 83 58
326 296 285 107 84 60
160 568 197 164 114 92
333 294 286 117 93 66
333 298 287 118 93 64
215 631 223 85 48 35
278 900 358 34 33 33
348 298 273 133 97 67
239 742 327 88 26 40
368 889 404 84 68 60
352 298 268 133 98 67
352 303 267 133 99 67
383 758 304 167 119 88
435 639 289 181 123 99
350 303 270 134 99 68
227 853 307 137 111 83
338 293 284 121 96 65
336 294 286 122 97 68
344 293 279 125 97 62
339 298 285 129 96 62
213 748 293 133 61 66
337 298 286 125 95 63
347 333 277 123 94 59
298 948 348 62 56 55
518 876 324 114 101 91
169 598 194 169 113 83
339 303 285 133 96 67
342 298 282 131 96 65
384 488 323 39 28 29
347 308 273 129 94 63
352 308 267 131 101 67
278 433 302 62 49 35
353 313 268 129 99 66
379 849 282 81 63 59
332 522 335 48 22 27
350 313 270 128 97 63
218 618 298 99 32 43
320 925 338 67 58 55
216 725 278 74 33 41
348 318 273 128 96 64
337 308 287 117 87 56
342 313 283 123 88 57
422 598 293 129 93 78
338 318 288 129 91 65
342 318 283 126 90 60
346 318 276 128 95 63
323 308 289 110 84 60
242 834 274 160 122 98
321 311 290 109 85 61
328 307 290 112 86 61
328 313 292 116 87 63
246 975 323 68 65 65
231 645 261 121 17 34
383 528 223 122 20 37
391 482 374 41 26 27
323 318 293 119 89 65
328 318 293 123 89 66
333 308 290 111 86 58
323 348 296 130 93 71
450 545 290 103 82 57
333 313 291 117 86 59
333 318 292 128 88 66
336 318 291 131 90 68
324 850 213 83 70 67
344 568 331 53 27 31
221 539 207 160 9 39
358 258 258 126 97 62
503 878 328 109 90 74
356 258 262 129 99 65
244 536 180 146 19 44
323 914 378 53 47 45
356 263 261 130 99 63
414 857 380 60 47 35
354 268 264 130 99 64
358 268 258 131 98 64
357 273 258 130 97 64
354 278 263 132 98 64
357 278 258 129 97 63
354 283 263 128 98 63
378 528 218 74 29 36
373 623 283 91 24 37
297 719 201 70 52 39
405 430 326 75 31 28
355 286 260 126 98 62
357 283 258 127 97 63
357 288 258 127 98 65
342 636 326 126 21 46
224 563 214 54 36 42
354 298 264 131 99 65
382 543 229 115 32 44
318 702 223 76 32 39
500 484 293 111 89 64
367 613 318 176 13 55
354 303 264 131 99 66
303 638 335 72 31 38
356 298 261 129 99 65
418 458 368 190 15 58
368 860 395 49 44 41
351 811 235 63 53 49
358 303 258 127 97 63
356 303 262 130 99 65
282 863 233 47 42 44
307 728 197 57 44 38
355 308 264 133 103 69
358 308 258 128 99 65
357 313 263 131 102 68
357 318 263 131 102 70
264 857 334 100 82 61
355 318 265 132 101 69
263 633 237 143 7 36
348 323 273 128 96 65
351 324 271 131 100 69
351 334 271 129 101 67
338 328 288 124 90 62
365 540 211 43 37 39
342 323 283 125 90 58
344 323 278 125 92 59
363 538 208 52 37 41
308 889 333 31 31 33
314 890 262 64 58 59
342 328 283 123 90 57
338 333 289 124 90 63
384 663 283 94 63 51
346 323 276 126 92 62
349 333 274 126 97 63
363 818 312 146 111 88
225 556 210 59 25 29
378 419 278 67 57 49
352 338 272 128 100 66
342 343 287 121 91 60
342 348 288 118 90 58
232 908 283 101 81 63
347 338 278 122 94 60
348 343 278 119 92 60
349 338 274 125 97 64
224 578 224 44 32 34
353 343 273 126 99 67
408 424 302 64 22 30
350 342 275 122 96 64
250 847 272 188 133 102
383 422 288 86 40 39
198 718 216 139 93 59
403 643 263 113 86 56
346 340 281 120 93 58
346 344 282 117 90 57
250 850 284 152 114 89
345 672 251 68 31 34
398 889 427 93 75 62
349 347 279 116 91 61
352 349 277 119 94 64
365 870 286 79 64 61
356 385 291 120 95 67
353 353 278 118 94 66
303 668 333 69 30 39
187 718 238 162 110 81
349 353 283 116 91 62
414 624 269 120 91 57
273 868 333 77 64 49
323 323 293 122 89 66
328 333 294 125 92 64
333 323 292 127 87 64
321 348 295 127 91 70
193 673 238 142 110 85
347 497 328 38 20 24
321 675 240 66 31 32
324 345 296 130 94 71
410 440 386 97 4 33
263 718 337 177 11 56
323 353 296 131 96 72
318 843 294 104 82 66
333 348 295 129 94 65
383 883 388 65 53 54
334 353 295 129 95 64
278 628 232 49 36 39
340 347 290 121 92 61
340 351 290 120 93 60
351 354 282 117 93 64
350 357 285 118 93 64
354 363 283 117 92 63
273 628 333 122 29 47
379 819 262 112 81 67
352 364 286 118 93 63
352 863 264 79 63 58
328 358 297 134 98 73
234 633 307 84 26 38
323 363 297 132 97 72
328 363 297 132 97 73
335 357 295 127 94 64
332 358 296 131 96 68
310 473 358 43 26 28
303 523 164 96 26 38
298 627 230 133 18 39
333 363 297 131 97 70
253 613 318 84 27 37
333 368 297 130 97 71
278 688 333 72 24 35
283 468 298 64 17 26
323 373 297 131 96 73
328 378 298 133 98 74
210 592 250 70 24 35
275 513 316 121 11 39
338 358 294 124 94 63
351 915 348 62 55 52
344 357 289 119 93 61
278 678 332 170 13 53
337 364 296 127 96 67
212 623 223 86 50 37
338 368 297 127 96 68
205 548 287 97 22 38
466 556 306 190 126 101
402 508 274 66 31 36
375 574 341 75 27 36
344 372 295 124 95 66
342 373 296 125 95 66
338 383 298 131 99 72
152 543 193 163 117 96
273 963 348 72 70 72
343 378 297 127 96 67
348 373 293 123 96 66
350 371 290 121 96 66
248 878 359 148 111 90
353 373 288 121 94 64
351 374 291 122 96 66
423 793 253 96 72 61
373 877 368 57 51 50
349 383 295 123 96 67
358 323 258 127 97 66
303 868 307 35 33 33
357 323 263 129 101 69
166 584 192 168 112 82
358 328 263 130 101 70
358 429 308 65 55 44
356 324 266 131 102 70
222 639 272 97 25 38
354 333 269 131 101 69
379 875 370 56 50 48
356 333 267 131 103 71
358 338 258 128 99 67
308 558 340 109 24 42
394 468 306 119 15 41
345 760 330 167 28 56
358 338 263 130 102 70
358 343 258 126 99 68
358 343 263 127 100 69
174 561 180 164 113 81
354 338 269 129 101 69
355 343 270 129 103 72
403 433 304 72 16 29
357 338 267 129 102 71
403 768 256 126 94 72
357 343 267 127 101 70
359 348 258 123 97 68
496 507 327 180 132 119
359 348 263 125 99 70
333 633 333 126 27 48
359 353 263 124 99 70
357 348 268 125 99 69
248 818 232 76 61 56
180 651 205 177 119 86
356 349 271 124 98 67
348 863 259 69 57 55
355 352 274 121 96 66
253 974 333 66 62 62
360 358 263 122 97 69
358 358 273 120 96 69
360 363 268 121 96 68
348 863 408 59 48 39
360 357 258 120 95 67
373 823 309 144 103 82
348 880 370 56 47 50
361 359 258 119 95 67
361 363 258 117 93 65
285 403 295 112 77 59
361 368 258 115 92 65
361 368 263 116 93 66
360 366 270 118 94 67
313 453 298 103 78 62
354 358 279 119 94 67
359 368 278 116 92 65
190 718 247 159 111 85
339 896 335 37 35 36
355 361 280 118 94 66
356 364 282 118 93 65
357 368 283 117 92 64
240 516 165 165 9 45
362 373 258 112 90 65
186 688 233 155 109 82
303 458 292 97 31 37
495 505 291 207 138 121
180 656 217 180 128 102
402 891 426 97 77 61
361 369 272 116 93 66
363 378 258 113 91 67
364 383 258 112 91 68
256 878 276 138 107 80
364 383 263 112 91 68
185 561 186 129 93 69
437 628 274 153 108 73
398 434 318 75 11 26
363 378 268 114 91 66
248 768 219 57 49 46
310 875 247 65 58 60
363 383 273 116 93 66
253 563 193 174 12 43
360 373 279 117 93 65
179 628 222 154 114 90
356 373 286 119 94 63
353 603 233 125 34 47
357 378 287 121 96 67
398 443 303 101 19 40
358 383 288 119 95 66
199 648 236 136 106 87
361 378 278 115 92 64
491 517 321 150 103 89
258 946 270 89 81 82
361 383 282 118 93 64
303 518 342 150 20 50
178 603 189 163 111 77
354 378 289 121 96 66
446 552 298 121 89 72
388 419 263 71 59 52
288 388 263 96 70 53
233 928 373 45 43 44
286 408 288 97 68 50
263 388 316 143 104 77
262 393 316 143 105 79
258 398 316 143 105 81
268 552 326 154 20 52
265 390 315 143 103 80
268 393 314 140 102 79
272 388 312 141 101 78
268 398 313 136 99 78
343 823 239 65 55 55
271 398 311 133 97 76
170 608 198 171 116 86
258 408 316 142 104 81
185 801 245 183 126 97
260 408 315 140 102 80
260 413 315 135 99 77
263 413 314 130 96 73
428 608 298 165 119 97
353 868 298 40 35 34
273 403 309 127 93 71
271 402 311 131 95 73
270 408 310 123 90 68
268 413 312 118 88 65
293 608 333 43 28 31
268 572 194 180 19 45
244 572 205 72 25 34
287 388 293 118 79 62
283 388 303 128 90 72
268 950 276 96 88 90
512 483 298 154 105 88
285 388 299 125 86 69
276 403 306 123 89 69
408 798 273 54 41 32
286 392 296 121 83 64
178 598 217 134 103 81
285 398 295 117 81 61
435 618 271 149 108 71
284 398 298 121 85 65
282 398 302 124 89 69
279 398 304 126 90 71
252 672 241 64 31 35
278 388 308 136 97 77
414 503 282 144 16 33
277 393 307 132 95 75
281 386 306 132 94 74
278 413 303 89 67 47
233 848 308 101 81 56
287 403 292 110 75 57
281 403 301 117 84 64
408 708 288 177 120 92
269 428 309 75 60 43
282 418 298 69 52 33
258 966 346 62 57 56
354 713 210 71 49 31
274 533 328 46 26 30
281 408 301 105 76 57
387 854 291 79 61 50
250 521 160 76 35 37
285 411 290 90 63 45
321 486 366 111 37 52
286 413 291 79 58 38
147 528 188 172 120 97
282 413 298 83 60 41
387 849 302 58 47 37
330 483 355 142 18 46
280 414 300 80 60 40
394 741 239 91 68 47
276 408 306 111 82 61
224 708 313 127 10 40
289 418 284 66 49 31
288 431 285 55 43 28
257 418 316 131 97 74
378 848 298 49 41 37
258 428 318 87 69 51
436 638 287 179 123 95
259 433 319 79 23 31
261 429 316 83 66 48
403 463 309 68 22 33
333 891 305 37 35 34
264 433 314 60 35 28
333 454 378 66 19 30
336 517 335 44 23 26
294 423 258 72 58 43
262 433 317 70 27 28
267 418 311 107 81 59
267 423 311 93 72 51
411 458 269 118 13 33
262 682 330 153 20 49
365 547 341 149 17 47
377 533 219 63 27 36
269 418 310 97 75 53
272 423 307 78 62 44
269 423 310 86 68 48
267 428 312 79 64 46
437 568 288 100 70 42
444 836 406 93 74 56
352 542 199 142 11 39
187 563 188 122 87 65
309 718 193 64 49 39
267 433 312 55 40 30
264 438 314 49 24 26
211 620 215 96 57 44
258 443 318 48 25 29
168 523 174 184 130 109
416 857 275 142 128 127
327 873 301 36 34 34
348 850 412 56 45 37
259 448 315 57 24 30
257 448 317 54 24 28
263 443 313 47 24 26
263 448 312 56 24 28
269 438 310 46 24 25
298 538 169 114 29 42
373 840 295 48 35 33
358 883 314 36 32 32
266 442 311 41 26 25
265 448 310 50 23 25
268 448 308 52 23 27
191 808 265 176 130 103
280 418 300 72 55 35
217 871 313 110 88 67
243 553 193 130 17 41
280 424 300 67 52 33
342 507 334 49 22 27
333 873 298 38 35 36
280 428 300 65 51 34
284 418 293 68 51 31
383 885 398 81 65 59
286 419 292 66 50 29
275 438 305 37 32 27
288 423 292 63 48 30
392 482 363 72 13 27
287 428 293 62 48 30
221 640 276 55 26 32
283 428 297 64 49 31
389 474 323 138 16 43
217 718 259 86 21 34
275 420 305 77 60 42
275 428 305 68 54 38
191 789 231 161 107 73
300 483 336 158 14 48
289 432 288 58 45 29
402 743 248 84 64 51
278 854 317 99 82 65
288 873 319 64 56 49
216 603 303 68 28 34
287 438 293 60 47 32
343 673 319 114 19 41
263 980 318 61 58 57
248 595 221 181 5 40
247 520 161 144 19 47
285 437 295 62 48 32
283 438 298 61 48 34
392 533 268 111 22 40
407 892 357 68 58 51
281 439 301 51 42 32
388 463 333 50 25 26
348 833 244 82 66 63
286 440 296 62 48 34
283 443 298 39 30 27
488 518 293 193 129 107
263 938 264 93 84 84
281 442 301 29 26 25
280 449 300 32 25 25
286 443 296 54 38 30
286 448 296 36 26 25
274 448 304 27 24 24
225 859 304 142 114 85
288 388 273 95 68 51
324 723 202 71 57 45
288 398 268 94 67 49
288 398 273 96 68 51
220 532 204 83 29 35
301 502 339 126 15 42
301 388 260 86 55 38
300 393 258 88 60 42
414 421 268 92 18 30
338 758 334 73 30 36
301 393 263 87 56 40
301 393 268 87 58 43
300 395 261 86 57 41
216 518 208 53 37 38
373 868 407 58 48 42
301 398 264 84 57 42
301 398 268 84 58 44
301 398 273 87 59 46
220 641 282 171 3 50
288 388 278 98 69 52
412 478 377 57 29 33
302 388 278 86 58 45
263 568 193 168 22 45
301 393 278 89 60 46
302 393 283 96 64 49
376 891 322 74 65 60
226 861 301 139 112 86
263 904 368 39 36 37
437 447 306 67 24 33
302 398 278 90 61 47
304 954 323 62 57 54
304 398 286 109 75 59
189 698 243 155 110 85
360 722 314 149 6 45
289 403 258 88 67 49
289 403 263 89 64 46
290 407 258 83 63 46
303 953 308 87 79 79
338 483 343 134 12 43
288 728 338 126 35 52
289 403 268 89 63 46
289 403 273 92 65 49
290 407 268 82 59 41
291 409 258 81 62 45
291 413 258 79 62 46
291 413 263 76 57 39
291 409 268 78 56 39
278 927 388 66 59 55
291 413 268 73 53 35
291 413 273 70 51 34
323 873 254 68 59 60
299 408 258 84 63 46
156 530 176 179 122 94
403 419 293 91 20 34
221 738 215 133 97 64
381 808 311 150 114 88
300 955 306 91 84 83
300 403 258 87 64 46
300 403 263 81 58 44
301 403 268 81 56 43
300 404 266 80 56 43
301 403 273 84 58 45
300 408 268 80 57 44
303 888 388 37 33 32
301 406 269 81 57 44
300 409 272 81 58 44
299 413 263 73 54 42
300 413 268 73 54 42
352 398 297 121 95 67
291 410 276 78 56 39
207 923 338 177 132 112
290 412 278 75 55 37
233 928 269 69 63 62
291 414 278 70 51 34
364 874 287 77 64 63
291 414 281 70 52 35
301 413 278 81 59 44
237 759 315 85 70 65
308 388 289 118 80 66
300 414 276 77 57 44
303 413 283 90 64 48
308 398 288 117 81 66
448 838 393 90 72 57
308 403 287 117 81 66
307 408 285 111 77 61
309 408 287 119 81 68
263 898 358 74 61 49
369 408 258 76 67 58
239 663 312 150 13 48
418 656 291 181 131 103
493 883 328 87 76 65
307 413 285 111 77 61
393 718 298 158 113 85
312 413 289 120 86 69
314 393 292 126 89 73
343 893 353 57 52 51
391 676 290 158 114 96
254 937 264 89 80 80
358 507 336 51 28 31
311 398 290 123 86 71
317 388 295 129 92 73
312 408 289 120 84 69
413 448 388 150 18 47
314 408 291 121 86 70
348 518 192 41 35 39
318 408 294 122 87 71
318 413 294 121 87 71
383 708 253 118 87 52
292 418 273 64 47 30
293 423 273 60 44 30
338 768 329 71 58 53
294 426 257 72 58 44
295 427 268 61 44 33
298 418 258 69 55 40
296 422 258 69 55 40
454 534 298 116 72 59
363 852 416 80 64 56
394 503 352 106 24 43
297 423 268 62 46 35
296 427 269 60 43 33
291 420 286 64 49 31
339 498 329 72 24 31
292 423 288 63 49 31
228 578 317 72 19 32
294 428 278 57 42 32
293 428 283 53 41 28
234 728 332 171 19 56
292 428 288 56 44 30
369 563 308 67 29 33
300 419 277 71 52 40
303 418 283 84 61 46
350 604 231 76 40 44
383 910 324 91 78 74
297 428 278 60 44 35
248 584 212 184 7 43
186 570 206 87 62 46
296 431 280 55 41 31
298 433 284 54 42 33
303 428 284 83 63 47
192 798 269 157 118 92
281 780 200 80 64 53
303 433 284 80 61 46
293 438 287 50 40 29
323 713 203 67 57 51
380 824 266 86 65 58
295 438 285 46 36 30
368 623 268 57 35 39
424 483 287 101 22 35
343 803 315 60 50 45
296 436 286 48 37 31
303 438 285 82 63 48
225 643 292 161 4 48
304 442 285 96 74 56
298 448 289 75 49 41
308 423 284 110 79 63
310 418 286 117 82 67
312 423 289 117 84 68
309 433 287 117 86 67
307 458 358 47 25 30
325 524 176 167 4 40
307 438 285 115 86 66
309 438 287 117 88 68
301 892 255 66 60 62
309 443 288 117 87 69
237 723 334 90 20 38
366 723 302 142 10 45
308 448 288 113 85 67
210 538 228 137 14 41
290 422 290 63 49 32
356 404 296 113 91 67
383 858 307 67 56 48
289 429 290 58 45 29
289 748 209 62 46 40
290 438 290 57 46 32
290 441 290 55 45 34
289 448 294 50 29 26
179 653 208 186 128 98
293 448 292 70 29 29
295 446 290 52 36 31
318 783 323 72 59 53
315 418 291 117 83 69
315 423 291 118 85 70
320 423 296 120 88 70
362 906 325 61 53 49
314 433 292 119 89 70
317 428 294 118 87 69
316 432 294 121 90 71
358 841 296 96 62 48
355 880 282 119 106 111
308 458 293 72 38 36
403 522 296 141 14 44
312 438 289 118 88 69
311 443 290 118 88 69
314 438 293 119 89 70
315 438 296 123 92 74
316 446 295 121 92 72
348 548 199 167 5 39
288 653 333 114 29 44
256 430 321 51 35 29
308 692 236 87 26 34
403 483 263 142 22 45
347 708 333 80 19 35
256 433 321 95 23 36
350 668 261 98 28 30
313 447 328 55 37 30
312 446 332 56 37 31
310 445 335 45 37 27
318 447 323 51 39 29
268 531 160 194 15 49
360 880 287 75 62 64
319 445 328 50 37 29
315 445 330 54 35 27
324 903 411 61 55 53
310 445 338 41 32 23
310 445 342 45 32 27
310 445 349 60 24 31
309 444 353 77 24 31
319 440 348 66 9 25
243 938 268 91 79 78
318 439 353 63 9 25
318 441 343 58 16 22
216 732 295 156 13 49
319 440 344 59 20 26
359 889 327 49 44 41
278 887 228 82 70 67
316 441 353 63 9 28
313 443 358 73 19 31
314 444 363 78 22 33
311 446 360 83 26 37
310 755 201 76 58 45
315 445 367 60 21 26
318 442 363 90 21 34
320 440 362 94 18 34
352 743 214 52 42 38
257 920 251 80 71 69
300 910 261 69 61 63
318 444 368 80 14 31
318 448 373 65 15 27
262 453 312 33 25 26
259 453 314 37 25 26
278 738 333 158 23 55
363 915 359 68 59 54
264 458 310 48 25 27
258 458 314 75 23 33
265 454 310 34 25 26
376 603 273 61 32 36
382 498 323 153 19 51
266 603 325 134 18 44
378 568 343 98 23 40
271 452 306 41 23 23
267 463 307 35 24 24
401 493 268 94 23 37
364 678 273 82 29 33
458 538 289 130 105 78
272 468 302 49 20 23
271 882 232 74 64 62
273 473 302 45 21 24
258 473 311 43 27 28
263 468 309 60 22 29
408 718 268 138 97 65
260 470 310 61 27 32
259 478 310 45 24 28
301 881 221 97 86 80
408 823 278 65 52 42
497 518 313 192 124 111
263 478 307 42 25 26
308 533 342 117 19 40
269 468 305 47 23 24
273 952 279 93 86 88
265 480 305 56 23 26
228 703 318 101 20 39
347 846 250 66 57 56
266 476 306 38 24 23
278 463 299 27 24 24
288 453 295 43 24 26
354 900 313 73 64 62
407 473 353 70 26 32
236 667 310 148 14 47
372 844 421 66 54 45
393 853 303 84 72 62
406 476 355 122 28 40
283 453 297 33 24 26
286 453 296 28 25 25
367 852 294 47 40 36
335 435 311 80 63 45
185 801 256 173 122 93
288 458 295 47 24 27
283 458 297 32 24 26
287 459 296 41 24 26
275 472 300 49 20 23
323 472 376 96 19 35
456 538 315 146 106 95
395 489 342 138 23 48
364 624 314 179 15 56
293 928 268 83 76 76
278 474 302 44 22 24
390 503 371 71 29 34
283 473 299 64 18 26
219 607 306 139 33 53
288 468 298 79 14 27
285 475 303 68 17 29
288 473 303 77 15 28
278 478 308 46 22 26
213 793 222 177 118 87
279 479 313 46 24 29
284 474 313 40 26 23
282 476 308 48 23 25
382 503 328 140 19 49
242 830 280 118 88 73
288 473 308 51 20 26
284 474 318 95 19 37
303 708 198 72 51 39
199 783 224 163 108 74
198 593 213 83 59 37
282 478 318 62 24 33
307 887 383 37 34 33
280 479 317 54 28 30
353 423 304 82 67 51
273 482 304 33 24 25
263 488 306 32 26 26
328 448 357 65 26 32
258 493 307 44 25 28
333 892 269 75 64 62
352 425 306 81 67 51
274 484 308 48 24 27
272 487 309 53 25 28
205 611 202 124 90 65
347 724 227 71 41 37
267 493 308 50 26 28
274 488 313 61 24 32
269 494 311 75 26 35
263 859 262 171 124 95
273 493 313 104 21 38
419 458 373 195 13 61
258 498 307 45 26 28
398 438 303 95 17 36
240 694 245 94 20 22
258 503 308 82 18 31
235 684 311 87 33 41
263 498 308 66 23 30
262 502 309 106 22 39
408 874 364 79 64 53
264 504 311 120 17 41
259 509 311 115 17 36
452 573 284 161 116 82
287 473 323 71 23 34
263 508 311 79 20 33
272 640 330 123 24 45
373 613 273 108 32 42
231 955 292 69 65 66
397 652 261 93 72 46
263 962 353 83 79 78
265 500 311 106 16 41
273 503 315 48 25 28
268 513 313 127 9 39
188 648 202 161 110 71
243 588 315 73 28 36
239 613 234 118 15 38
272 508 315 58 23 30
277 482 308 61 23 29
279 483 317 53 26 29
278 493 317 66 25 32
439 564 289 101 72 41
418 458 383 180 12 57
282 483 319 36 28 27
322 597 330 132 19 44
378 438 308 48 22 22
381 878 413 90 75 63
281 493 320 37 27 26
279 498 318 81 24 34
275 508 316 67 27 33
278 513 318 108 18 40
281 508 320 72 22 32
378 773 228 68 52 43
215 626 286 62 28 32
225 626 255 104 40 48
308 934 353 62 56 54
281 512 320 94 26 40
226 790 295 70 60 55
303 453 289 98 46 45
307 452 289 101 58 50
293 458 294 83 16 29
302 456 290 98 38 40
303 463 294 100 14 34
294 464 318 47 25 26
233 703 243 70 25 36
298 463 313 72 18 28
299 465 308 64 15 25
302 461 312 74 21 29
180 627 195 169 114 81
300 460 319 66 20 28
353 888 282 101 89 91
332 508 338 110 20 40
350 534 196 42 36 40
304 459 314 73 20 29
439 618 294 179 125 99
204 558 268 156 0 43
303 458 318 64 26 31
299 454 329 57 37 29
293 467 298 89 13 30
364 613 248 94 33 41
297 465 296 98 16 32
374 838 273 112 72 58
302 466 299 85 13 30
433 463 293 91 26 31
172 599 192 163 111 78
304 465 297 84 7 31
313 838 227 59 52 52
393 528 298 127 20 44
348 398 299 122 94 68
403 443 304 80 22 37
293 467 313 53 18 24
359 432 310 61 47 37
290 470 314 47 25 22
292 467 318 44 25 27
269 970 296 87 83 86
253 583 318 36 28 31
281 848 237 68 56 51
288 758 218 57 46 44
289 469 318 42 26 29
254 847 329 107 85 61
388 488 353 103 12 34
328 458 383 83 16 33
437 617 296 175 123 99
305 455 291 104 40 43
310 450 291 115 87 70
200 527 245 110 14 38
344 895 277 74 64 63
492 522 317 194 131 115
402 683 260 130 95 60
311 452 294 104 78 62
310 454 296 83 57 47
268 798 223 72 57 51
308 464 298 76 18 28
396 562 288 162 19 49
313 458 299 74 44 40
323 553 337 46 27 32
315 450 301 117 91 71
319 449 302 115 85 69
317 453 304 95 73 57
378 423 288 70 50 44
315 458 303 74 47 39
316 459 300 85 47 42
310 455 315 72 33 32
308 462 307 78 28 33
305 460 310 71 23 30
309 460 309 76 29 32
385 709 296 115 82 62
312 456 312 82 39 39
313 458 308 82 43 40
312 461 306 81 41 39
318 453 308 68 48 40
401 453 305 51 27 32
422 673 273 190 130 101
317 452 313 62 42 34
418 633 295 171 121 99
343 518 189 121 11 30
315 450 320 56 37 29
334 708 223 64 43 38
162 534 196 106 79 61
319 450 314 53 44 34
334 890 266 74 63 61
318 449 318 52 40 30
368 738 298 59 27 31
316 451 317 59 39 30
316 456 307 67 46 37
278 723 338 144 27 53
284 478 322 84 23 33
360 640 266 115 38 52
285 474 322 117 18 40
398 654 259 101 78 51
284 483 322 32 27 28
393 498 304 130 4 40
223 548 208 64 29 36
284 488 322 31 27 27
477 527 289 202 138 111
277 527 323 37 28 30
287 483 324 37 27 28
284 493 322 48 25 29
284 503 321 122 16 41
284 508 322 86 23 37
386 553 263 101 26 40
216 955 306 75 69 69
216 634 227 84 49 33
335 890 312 36 34 35
286 512 325 42 31 32
294 908 256 75 67 67
289 508 327 102 20 38
483 523 324 184 127 106
287 513 328 50 28 31
183 658 223 157 120 97
293 463 323 49 26 29
293 463 328 47 27 27
393 478 333 76 26 36
295 460 325 61 28 31
298 703 339 71 27 32
158 558 198 155 110 88
506 478 285 150 113 93
344 688 324 139 13 44
295 460 331 73 23 30
353 903 383 46 41 38
397 479 380 87 30 40
299 454 333 70 30 28
298 458 323 59 21 26
303 643 237 69 32 35
297 457 328 67 26 28
227 878 350 121 92 73
328 891 265 77 67 65
296 461 322 46 24 22
302 456 322 65 35 30
297 458 333 106 21 37
378 833 272 144 89 70
222 933 283 68 64 66
303 452 338 72 24 27
304 453 348 130 11 40
314 865 210 81 67 61
299 458 338 138 8 43
304 463 348 163 13 50
244 957 284 69 64 66
208 633 232 95 66 51
291 466 322 36 28 29
290 469 327 41 27 28
398 688 258 119 89 54
293 468 333 67 27 34
201 825 252 211 136 105
232 824 279 72 57 54
294 478 332 48 26 29
229 643 263 99 16 37
278 609 221 114 26 39
413 673 265 128 90 54
328 787 219 53 43 41
296 474 335 133 13 47
323 638 239 89 31 39
398 419 288 109 21 38
297 478 335 137 14 44
375 560 231 161 16 43
355 870 406 55 45 40
295 468 336 92 20 29
311 453 368 117 13 38
366 774 316 171 123 94
295 472 336 109 20 35
298 468 338 150 11 48
331 468 368 91 14 32
298 473 338 155 12 49
217 738 298 178 11 55
206 573 278 60 22 34
302 468 343 161 14 51
303 473 343 162 15 52
413 439 368 98 17 35
331 512 338 129 19 42
304 478 343 162 16 51
309 449 328 51 36 29
355 696 258 51 43 39
274 806 306 179 131 112
312 451 322 52 34 31
314 808 223 52 45 46
222 523 198 51 36 39
310 450 325 51 35 30
306 451 331 46 39 33
190 816 250 209 142 112
305 450 334 49 41 33
305 450 338 47 32 25
248 756 321 128 42 56
191 578 189 126 92 65
305 450 343 78 19 32
306 451 350 93 15 29
363 648 278 121 24 39
389 809 257 101 71 58
337 698 219 89 55 46
366 898 386 66 52 55
306 452 354 57 22 28
454 854 237 84 84 84
383 916 325 75 68 65
305 458 352 141 16 47
393 528 353 152 18 46
305 462 352 166 14 51
382 733 229 88 65 49
306 463 354 157 16 53
306 468 350 141 13 45
308 473 353 74 25 33
292 532 333 85 13 27
305 476 346 161 22 54
405 723 258 111 82 57
309 453 363 105 18 36
237 614 236 59 27 34
478 518 284 185 125 103
310 453 367 125 13 40
311 458 369 137 14 44
338 808 233 69 56 54
502 502 298 193 130 111
311 463 364 99 14 33
312 463 368 109 20 39
315 454 376 155 20 45
358 853 412 78 62 47
314 463 373 132 15 43
315 458 377 161 20 52
315 462 377 156 21 50
319 458 381 156 18 52
418 424 308 38 26 26
311 468 364 104 20 39
278 848 313 116 94 72
310 473 361 61 26 29
310 478 358 68 24 31
501 501 294 185 122 106
313 468 368 109 19 39
257 946 376 82 73 69
397 503 354 138 23 45
188 608 223 126 99 79
314 478 367 82 24 35
398 673 290 170 124 100
317 469 374 92 28 40
318 473 373 83 25 34
229 843 327 139 112 90
403 878 378 64 52 47
289 483 327 82 30 37
293 488 329 74 25 35
294 483 332 88 20 34
304 483 342 155 15 49
323 753 339 121 24 46
290 498 326 130 21 46
354 875 307 34 32 32
305 512 346 166 20 56
338 868 296 39 36 35
295 504 332 51 27 31
290 510 331 77 26 32
313 873 243 65 58 60
367 430 306 61 52 42
293 508 333 95 24 37
289 514 332 67 26 33
235 806 291 73 62 56
298 498 333 107 19 39
398 493 377 72 30 36
296 502 334 44 26 27
222 867 338 120 69 67
300 611 220 71 34 42
299 503 338 80 22 34
302 498 338 139 14 44
387 730 232 94 70 49
303 503 343 127 11 39
297 512 339 130 17 44
299 513 342 146 22 50
302 508 344 94 13 33
428 842 383 87 69 52
308 483 348 113 14 40
408 638 264 114 87 54
217 713 273 54 31 37
308 488 348 95 21 35
357 424 302 74 62 49
307 493 344 150 17 48
274 549 323 107 20 38
309 493 348 120 18 42
310 493 353 101 26 40
377 538 303 157 8 50
307 498 344 145 16 44
308 503 348 147 16 46
305 825 221 77 61 55
310 501 351 170 22 53
192 733 223 154 102 71
312 504 350 143 22 47
308 512 346 132 19 45
339 895 276 75 64 62
313 513 347 77 24 34
318 750 340 161 27 58
318 503 352 70 25 33
316 505 350 76 23 32
319 506 351 38 27 28
311 483 359 76 20 33
311 489 355 70 23 33
402 437 324 99 10 33
379 910 325 86 71 65
311 494 354 104 31 46
399 629 283 121 83 69
258 808 229 74 59 54
313 493 357 112 24 42
315 482 366 48 24 28
318 488 363 89 25 37
352 688 254 85 28 30
320 486 366 66 28 34
288 949 358 57 50 47
318 493 359 140 23 48
323 393 297 129 93 72
394 465 342 46 25 23
217 872 307 133 107 79
328 709 218 64 43 39
328 388 298 132 97 74
328 393 299 130 95 72
250 639 321 69 32 36
418 422 283 93 22 31
328 398 300 129 95 71
246 620 236 171 1 41
226 600 236 153 0 38
222 623 258 64 31 39
333 393 299 131 98 72
333 398 300 129 96 71
320 408 296 123 89 72
323 408 297 124 90 71
362 704 233 88 46 43
269 940 375 66 59 58
381 497 358 65 22 29
287 793 315 58 50 47
320 413 296 123 89 71
333 403 300 126 93 70
393 433 308 69 18 25
376 861 290 71 56 51
403 508 298 88 21 37
331 407 300 123 91 69
393 478 308 138 11 43
234 688 313 43 28 32
334 404 301 124 92 70
226 658 271 87 28 37
220 542 210 156 9 41
338 393 299 130 98 71
343 388 299 128 97 70
385 684 260 102 77 45
353 718 213 67 50 38
343 393 299 128 97 70
263 577 199 122 32 44
333 768 329 72 59 54
338 398 300 129 98 72
343 398 300 124 95 68
350 386 295 123 96 65
208 523 293 50 28 31
353 388 294 121 95 66
348 388 297 124 96 67
210 522 296 44 29 31
351 390 296 123 96 67
183 611 190 162 111 77
348 553 202 169 6 38
338 401 300 128 97 71
377 733 225 77 59 46
480 510 318 108 83 65
343 401 300 122 94 68
191 763 259 152 114 82
289 895 374 35 34 35
343 403 301 120 92 67
343 408 302 115 89 65
399 459 327 112 19 37
338 413 303 113 88 65
356 663 270 52 35 32
343 413 303 107 85 62
353 408 299 111 89 63
375 563 333 122 28 48
348 413 303 105 83 60
352 413 302 102 82 59
338 881 371 48 41 40
413 420 268 93 19 29
323 418 297 121 89 69
320 419 296 121 89 70
395 524 254 160 19 50
336 526 185 145 0 35
203 619 226 96 67 51
327 418 300 120 89 68
329 423 302 116 87 66
326 431 304 114 83 64
401 451 320 134 13 37
323 889 363 42 40 41
415 690 278 179 119 91
333 423 304 111 85 63
328 433 308 108 80 60
295 869 210 105 83 67
329 429 307 108 82 60
412 517 296 158 16 52
333 433 309 97 74 53
321 438 300 122 91 71
334 569 202 183 8 42
332 567 199 182 8 39
324 438 303 118 88 68
324 443 303 116 87 69
328 443 308 94 70 52
253 688 329 138 16 44
323 449 308 80 62 47
508 483 288 166 121 99
326 446 305 105 80 59
236 620 241 52 30 35
273 632 235 51 36 36
258 794 222 72 59 52
326 446 308 83 63 46
398 419 263 75 40 39
328 444 313 63 48 33
283 518 152 169 13 40
360 524 201 70 28 31
154 538 179 156 107 78
323 447 318 52 42 31
420 499 287 141 17 38
293 528 338 158 19 52
362 718 308 146 5 44
325 445 319 49 38 26
332 438 310 90 67 49
313 658 240 68 31 34
333 439 318 51 38 29
331 441 310 84 63 47
376 466 320 56 20 24
368 859 403 50 43 38
353 418 303 92 74 55
338 422 305 107 83 61
338 424 306 104 82 60
343 422 305 99 79 58
238 758 221 62 51 43
343 424 306 98 78 57
338 428 308 96 76 55
337 432 309 87 69 48
340 430 311 84 67 48
338 433 313 73 58 41
458 558 311 189 135 112
273 762 216 70 52 46
343 431 314 69 54 40
342 432 318 68 41 34
353 432 313 65 44 35
339 434 318 58 41 33
222 748 215 135 98 65
401 725 239 65 50 36
400 427 315 75 28 29
325 684 241 48 37 37
258 708 229 83 28 34
336 436 314 65 50 37
336 436 318 55 41 33
263 563 188 153 25 45
366 688 273 63 32 36
351 434 316 64 30 26
352 438 317 51 22 24
240 569 321 135 16 44
352 443 316 51 24 23
353 448 314 44 25 24
351 447 316 55 24 26
365 388 263 113 92 68
365 391 268 113 91 67
366 394 263 107 87 65
421 424 280 107 22 25
360 653 300 67 25 35
365 392 274 115 92 66
366 395 258 103 84 63
238 608 232 167 1 38
299 797 199 84 65 50
367 398 258 98 80 63
367 398 263 101 83 64
366 394 273 113 91 65
189 672 210 185 121 90
291 941 275 82 74 74
367 398 273 109 88 63
345 528 191 140 15 34
359 388 288 119 95 67
363 388 278 117 93 66
398 468 308 88 21 36
357 688 307 68 32 39
413 508 297 150 13 48
362 388 283 117 93 65
370 625 276 32 32 41
363 393 283 116 93 66
365 397 279 114 91 65
366 399 278 112 89 63
368 413 278 70 61 51
368 413 283 71 62 52
365 411 289 84 70 55
410 469 358 125 31 51
367 413 288 75 64 53
185 783 239 166 114 78
357 886 357 64 57 55
368 403 263 91 77 62
369 408 263 78 68 58
368 403 268 96 80 62
413 678 287 174 124 97
368 408 268 81 69 58
370 412 258 72 64 56
346 684 250 101 23 26
253 638 323 48 27 30
372 414 258 71 63 56
275 899 241 90 77 76
358 892 329 48 43 40
372 415 263 71 62 54
263 703 336 151 18 48
369 413 273 71 62 53
383 868 307 68 56 46
371 415 268 70 62 55
371 415 272 69 61 53
398 548 293 133 22 48
413 503 298 141 15 46
354 393 294 122 96 68
433 453 306 128 18 44
356 388 291 121 96 68
360 393 289 117 94 67
350 766 220 58 43 40
209 563 243 68 30 36
163 538 197 115 87 69
365 421 295 69 60 50
394 518 258 161 18 47
360 397 290 116 93 66
379 708 292 80 45 30
422 447 387 163 22 55
361 400 291 116 93 68
283 898 243 79 69 69
354 412 300 102 83 61
358 413 298 97 79 60
358 848 254 82 66 60
416 462 369 180 18 57
258 943 378 88 79 75
362 408 292 102 83 63
374 416 258 72 64 57
374 417 263 70 63 53
373 417 273 67 60 52
152 538 182 164 111 84
331 880 261 61 52 54
374 417 268 69 62 52
378 418 258 72 64 56
288 890 231 84 73 70
378 418 263 70 63 53
383 418 263 70 61 54
378 418 273 67 60 50
353 688 313 72 28 36
393 708 253 128 92 54
370 416 278 68 59 51
258 603 322 50 25 32
373 418 278 65 58 50
370 417 283 67 59 51
373 419 283 68 58 49
369 417 288 67 59 50
381 572 254 185 20 47
371 420 287 65 56 49
383 419 278 75 53 46
383 420 282 78 50 45
358 418 299 84 70 54
233 658 258 141 5 40
190 566 199 99 66 53
359 422 300 74 62 50
323 598 331 151 18 49
367 418 292 69 59 50
362 426 300 67 58 48
424 448 378 90 30 41
369 427 299 62 54 44
324 706 222 72 42 38
368 428 303 62 53 43
413 439 378 63 28 32
384 498 367 109 23 42
358 433 312 57 37 31
312 704 179 84 59 46
147 519 177 175 119 92
227 703 233 93 67 49
403 758 283 163 107 76
363 430 307 62 53 44
363 433 309 56 39 31
336 690 331 130 7 39
341 457 352 118 21 41
396 763 296 168 118 87
224 622 254 58 32 37
368 433 308 53 37 30
268 612 224 122 22 39
341 571 330 55 31 33
198 598 193 135 98 68
363 458 307 33 23 23
403 658 259 136 99 66
358 438 312 51 23 24
354 438 314 49 24 24
227 594 231 126 12 39
327 702 233 65 36 47
354 443 314 40 23 24
368 438 308 31 24 23
324 869 402 55 45 39
373 427 298 61 52 43
383 424 293 85 32 35
189 573 187 132 96 67
378 424 293 67 46 40
338 573 330 45 28 30
378 426 295 65 45 39
382 426 295 76 32 32
408 728 278 162 105 75
378 430 302 49 35 31
262 760 320 65 56 53
178 578 184 157 108 75
407 447 324 128 12 41
223 898 354 93 77 62
346 663 255 88 27 32
391 491 311 152 3 45
378 432 304 46 29 25
255 766 316 65 56 52
215 792 286 169 126 101
269 608 326 130 10 40
383 429 302 57 24 26
383 431 304 54 22 24
372 434 307 47 31 26
347 873 295 49 43 39
373 443 307 41 23 23
373 448 307 33 25 25
208 938 318 62 57 57
263 847 318 102 83 64
383 443 309 59 17 23
292 553 324 95 19 36
382 447 309 55 22 22
294 518 157 158 10 39
418 438 363 90 25 35
328 442 323 42 34 25
324 879 262 58 51 52
359 509 335 45 28 30
327 442 328 42 32 27
405 459 369 99 5 31
258 573 317 149 20 47
326 441 331 51 26 25
333 438 323 53 34 31
398 718 248 99 76 51
335 435 329 57 26 24
332 437 333 48 24 23
330 440 324 39 33 24
201 666 240 135 104 85
256 845 321 100 81 59
323 439 343 64 11 27
246 867 286 110 82 52
328 438 338 56 17 24
329 453 367 92 10 30
323 438 348 70 11 30
329 435 348 62 20 26
327 436 347 64 19 26
398 433 304 71 16 29
326 436 353 58 16 23
261 901 246 76 67 68
372 513 343 50 25 30
333 434 348 63 19 26
333 433 353 56 21 26
353 874 303 36 33 33
352 468 317 27 23 23
344 430 321 77 49 39
393 896 422 99 76 64
351 597 340 146 18 47
346 430 321 74 43 32
346 433 323 86 21 30
399 453 322 103 19 36
338 432 343 88 21 31
338 432 348 75 19 27
338 432 353 72 22 29
342 433 348 116 16 38
343 433 328 96 21 31
343 438 328 93 14 30
338 433 333 94 17 32
224 568 307 154 18 50
340 437 334 98 12 28
328 848 244 71 59 56
273 792 219 69 56 48
341 435 331 94 14 30
377 598 291 137 13 43
253 539 177 184 9 42
344 443 324 71 21 27
282 813 223 59 48 45
225 531 195 106 25 40
342 443 328 90 17 31
337 699 336 127 4 40
342 448 328 80 19 29
341 443 333 101 13 32
341 448 333 105 13 34
345 438 324 87 15 30
213 778 216 177 118 87
399 886 420 83 65 51
347 438 322 77 17 28
291 772 206 62 50 44
346 448 321 60 24 27
338 433 338 94 18 32
207 928 338 177 133 112
341 433 343 111 14 40
341 438 342 117 9 36
298 578 338 133 17 43
388 915 332 80 69 69
342 438 353 122 10 38
342 443 338 114 9 31
341 448 338 113 9 35
342 448 353 126 9 42
325 435 355 53 20 28
218 668 238 83 55 42
325 435 357 58 21 27
445 565 306 146 107 88
322 439 361 93 14 31
274 792 311 63 53 49
234 562 205 51 34 37
324 443 358 85 20 35
239 908 366 131 105 86
243 962 289 79 74 76
328 443 359 74 20 31
334 900 282 73 63 62
328 448 368 76 12 29
217 943 359 51 47 48
333 433 358 101 22 40
330 434 361 106 17 37
347 703 328 129 13 42
466 822 388 114 88 67
333 434 362 134 24 41
363 533 338 70 24 32
219 943 362 52 48 49
268 783 214 70 56 49
330 438 361 104 15 35
333 438 362 123 21 43
178 577 210 115 90 71
331 444 360 64 23 27
392 422 293 109 26 39
374 890 385 72 59 61
332 448 359 57 26 28
193 623 194 160 110 75
330 442 361 108 16 37
421 453 280 128 6 30
333 443 362 99 21 36
333 448 363 63 22 29
231 654 300 42 27 31
323 448 373 62 19 27
342 433 358 114 24 41
307 712 345 133 23 47
401 512 363 120 28 48
338 433 363 142 19 46
338 438 363 102 23 38
368 858 278 63 51 47
179 594 216 126 98 76
268 723 223 107 24 31
341 448 357 116 15 40
339 449 359 100 21 38
387 472 344 63 20 29
340 443 360 134 17 42
223 538 203 162 10 38
216 523 305 51 28 31
320 450 308 78 62 50
321 451 308 70 56 44
348 453 318 42 22 23
417 438 328 118 8 40
350 449 315 48 25 24
353 453 314 36 24 24
349 458 319 41 24 23
349 463 320 47 21 22
258 564 192 127 29 43
406 733 264 118 84 57
352 463 317 27 23 23
360 668 276 51 33 34
348 473 318 25 23 23
349 478 314 28 23 23
345 483 319 32 22 24
348 488 318 30 22 23
351 486 315 28 23 22
352 487 318 27 24 23
359 453 310 32 23 22
406 662 260 159 111 78
358 463 309 26 24 23
356 463 312 26 23 23
217 648 209 111 79 53
365 462 305 41 23 23
354 468 313 26 23 23
355 469 310 26 22 22
238 808 227 63 55 56
405 778 274 112 78 57
355 473 310 33 22 22
307 877 243 70 63 63
388 420 283 95 41 42
358 468 309 26 23 22
258 728 336 193 1 62
367 472 314 42 22 24
364 474 312 28 23 27
366 476 319 32 21 26
369 454 305 29 23 22
253 608 227 180 3 39
371 461 309 48 21 22
273 532 160 185 16 45
284 960 291 81 76 78
370 464 311 50 21 22
373 463 313 54 20 22
386 551 353 107 23 40
173 543 197 89 66 49
251 595 221 183 5 38
374 459 312 51 20 22
458 832 379 106 84 63
374 464 316 57 21 24
380 454 311 51 19 23
380 459 317 56 23 24
376 461 315 56 23 22
346 731 226 68 43 36
386 884 418 93 74 62
371 472 319 54 21 24
354 484 317 28 25 23
272 613 329 111 16 39
356 481 315 24 23 24
358 482 318 26 24 24
214 623 283 69 30 37
383 483 318 53 25 30
382 488 318 53 26 29
213 658 239 91 60 48
380 493 313 98 17 38
226 708 246 98 57 45
280 515 321 35 23 31
381 493 318 64 24 33
383 498 312 162 12 52
248 883 360 149 110 91
306 937 290 78 70 69
285 735 219 68 39 43
381 498 318 153 16 48
363 887 323 52 45 39
380 499 318 157 15 50
364 588 346 148 21 48
383 503 313 159 9 50
333 858 294 38 36 36
381 503 318 157 12 50
384 504 308 163 3 52
159 558 184 168 112 83
384 513 304 147 8 44
212 583 243 133 13 42
382 512 307 160 12 52
417 428 268 80 26 32
382 507 316 155 13 50
145 521 180 178 124 96
323 832 302 65 51 48
344 453 324 53 20 24
342 453 328 80 16 27
345 696 325 142 9 45
342 453 333 107 10 34
292 779 320 67 55 51
340 455 335 114 10 35
288 548 173 203 12 43
173 568 182 160 111 78
342 458 328 77 18 27
342 463 328 54 19 25
341 458 333 108 11 36
340 464 333 90 15 33
341 453 338 114 13 36
342 453 353 106 15 37
288 528 159 136 18 40
340 456 336 113 9 36
381 556 235 107 42 45
443 603 278 158 112 76
342 458 343 111 13 38
428 778 258 89 68 56
340 464 337 109 9 35
341 463 343 66 22 30
347 643 317 178 8 56
204 528 238 144 10 41
341 462 347 62 20 31
340 463 349 79 23 36
353 658 308 86 24 38
416 511 296 164 16 54
340 460 350 123 13 32
405 854 398 59 46 37
339 463 353 97 22 36
342 468 327 77 15 30
344 473 323 29 23 25
340 468 333 100 13 36
339 473 333 97 12 35
340 465 330 60 19 28
343 478 323 35 23 24
407 533 293 76 26 36
341 477 326 81 21 33
340 478 329 89 14 31
263 773 314 64 54 50
339 478 333 95 11 32
346 467 321 52 18 25
348 768 326 77 63 56
340 468 338 98 14 38
339 473 338 106 15 35
306 797 205 76 60 48
465 529 321 144 115 105
307 800 196 76 62 48
339 473 343 89 21 35
340 468 343 75 21 35
228 628 253 90 25 41
361 680 301 52 30 31
341 466 340 103 16 32
338 468 353 62 25 31
340 468 348 57 27 31
382 467 329 48 23 27
433 622 296 175 122 96
339 473 348 64 25 32
337 473 352 66 26 33
378 879 363 58 52 49
339 478 338 115 8 38
339 478 343 123 14 41
244 557 194 181 6 40
322 449 355 92 20 37
328 453 357 66 23 31
512 873 332 115 105 97
374 833 267 143 94 77
324 453 363 100 14 34
328 458 358 67 22 30
378 749 233 58 45 38
325 461 359 69 16 25
413 420 283 93 20 32
328 463 358 74 21 32
327 459 364 86 14 32
443 593 301 177 122 99
273 578 198 148 31 48
353 723 218 70 50 38
325 461 361 79 18 28
333 453 359 60 26 31
332 449 368 78 11 28
332 453 369 81 10 28
330 463 367 96 6 28
361 713 307 150 6 46
323 455 381 47 17 27
