ply
format ascii 1.0
comment Created by Open3D
element vertex 2223
property double x
property double y
property double z
property uchar red
property uchar green
property uchar blue
end_header
333 553 393 93 20 35
325 591 399 180 117 107
331 560 397 51 28 20
329 564 404 112 93 74
344 722 324 155 21 52
329 577 406 125 93 78
334 567 407 162 120 108
334 577 410 139 108 92
398 782 249 151 113 83
340 557 390 36 21 27
338 558 394 44 29 27
344 563 390 44 21 25
339 562 400 104 83 66
345 782 175 62 52 47
342 564 399 83 53 42
398 817 205 67 54 50
344 566 400 69 39 33
349 563 390 34 25 24
349 565 395 35 26 22
349 567 400 47 29 26
339 563 404 116 88 69
273 816 329 50 41 39
344 570 406 112 90 69
349 802 286 156 116 95
337 576 412 145 115 98
344 572 410 120 96 74
340 574 413 122 100 78
358 827 180 92 73 60
349 569 403 77 56 47
350 577 405 122 77 70
347 573 409 138 103 85
346 577 412 143 98 85
355 558 390 41 25 27
359 557 400 101 11 36
364 552 395 74 19 28
369 552 400 71 11 30
474 600 285 83 26 37
361 554 403 117 7 40
439 857 285 81 69 60
362 555 406 130 13 43
369 552 405 66 14 24
361 559 408 121 8 37
367 555 412 117 0 34
352 560 386 43 30 22
443 852 284 80 68 59
353 561 390 33 25 25
269 807 335 112 92 74
388 892 358 65 51 43
354 562 395 48 20 27
352 565 397 36 22 23
353 566 401 92 16 33
357 560 397 99 0 25
393 580 271 132 18 33
446 554 327 142 19 48
359 571 386 83 19 37
409 872 174 85 76 69
276 950 353 68 62 61
357 575 387 131 72 72
258 871 320 132 99 76
359 577 390 109 55 63
363 570 386 147 22 44
364 576 391 81 14 34
471 910 200 104 88 72
369 572 390 93 14 37
368 576 392 117 17 43
358 562 405 117 6 36
454 587 262 133 94 57
360 562 409 117 5 37
357 658 289 148 12 45
354 572 405 86 22 35
266 927 281 61 57 57
354 576 404 63 29 32
358 573 407 107 22 41
359 576 405 76 27 35
359 571 408 104 23 41
395 872 225 70 57 52
364 562 411 146 17 49
364 567 410 127 24 47
369 563 412 189 18 63
369 567 409 158 25 54
364 573 406 82 27 35
369 572 405 138 28 53
367 575 403 135 26 49
363 571 408 87 26 35
384 552 390 87 7 27
379 552 395 80 13 30
379 552 400 76 15 27
384 552 400 93 11 29
374 552 405 74 12 26
374 553 410 73 6 26
374 554 413 78 3 28
384 552 405 72 14 25
379 554 413 81 0 22
379 557 413 178 16 58
379 559 412 198 17 67
382 554 413 83 0 24
380 564 388 118 7 50
384 557 413 171 14 58
319 852 235 54 51 53
374 566 386 174 19 52
374 571 391 101 11 42
344 592 410 174 115 109
373 575 396 178 31 61
378 565 387 161 20 45
384 561 386 110 13 39
384 563 389 53 19 33
378 571 392 121 17 43
379 571 400 139 25 52
381 569 393 156 20 40
374 562 411 191 17 63
373 560 413 180 21 61
469 567 285 85 12 29
373 566 408 195 19 64
370 574 402 177 22 52
313 796 314 143 101 83
379 567 405 144 22 52
379 562 410 193 16 62
377 565 408 203 12 64
380 569 402 89 24 36
321 590 398 190 126 113
329 582 406 176 126 113
327 589 402 165 109 98
329 593 401 179 121 111
330 591 404 166 116 102
332 584 407 189 130 121
347 881 220 75 70 70
333 587 406 144 93 84
334 592 405 178 123 111
336 591 408 170 123 112
323 594 389 176 111 102
324 595 390 178 112 104
382 732 260 109 30 45
329 594 389 173 109 104
329 595 395 179 117 108
399 847 326 56 46 40
262 940 337 43 39 39
327 594 397 187 118 112
484 542 265 123 3 36
333 595 396 174 114 107
334 595 400 175 114 105
333 594 401 180 118 110
339 582 390 92 34 42
395 782 185 86 66 51
343 586 396 104 49 50
346 579 388 157 91 93
264 823 331 147 106 85
328 935 262 85 78 80
348 585 397 109 61 57
350 584 398 142 81 70
339 582 411 184 126 119
344 580 413 186 131 123
345 582 411 154 95 89
339 587 411 139 90 82
347 591 401 125 59 62
445 546 295 68 17 27
264 772 341 183 132 101
348 591 405 161 95 89
339 595 405 176 113 106
344 593 405 162 94 91
342 595 406 170 108 102
313 926 251 93 85 85
342 595 408 180 116 112
356 579 397 42 29 42
359 578 400 46 30 30
357 580 392 79 29 34
358 580 395 48 26 34
352 585 401 186 122 111
259 652 336 43 27 31
259 657 336 61 29 34
259 642 339 161 22 55
259 647 337 93 27 40
340 807 180 69 55 50
259 645 338 168 22 55
264 642 339 163 19 53
431 553 342 159 17 48
262 648 337 78 26 34
262 652 337 33 27 30
265 652 338 73 26 36
262 657 337 33 29 29
264 657 338 34 27 29
269 647 339 180 16 57
269 652 339 142 19 45
259 662 336 36 28 30
258 672 337 46 22 29
261 667 338 72 31 38
264 667 339 122 22 43
497 584 295 82 4 29
385 827 215 59 46 41
269 662 340 165 23 55
274 647 340 183 13 58
279 647 340 184 9 57
266 790 252 75 59 52
274 657 340 162 21 52
284 642 340 178 14 56
434 603 295 104 19 36
289 657 341 145 19 49
274 662 340 92 24 40
397 557 262 36 29 33
279 662 341 38 28 30
274 672 341 40 28 31
279 667 340 35 29 30
284 686 347 38 28 31
284 662 341 33 29 31
289 667 341 156 20 50
264 677 340 62 25 32
475 825 269 75 58 43
258 682 337 50 25 32
260 687 338 75 23 34
268 687 342 52 26 31
257 695 337 72 25 31
256 698 338 85 26 35
265 698 344 48 25 30
264 702 344 78 25 36
267 691 342 120 17 42
395 828 208 83 70 64
266 694 343 128 20 39
271 699 348 118 15 37
274 677 342 95 34 43
441 832 307 67 51 40
279 676 342 38 29 30
272 680 342 72 31 36
279 687 346 51 29 32
396 585 287 137 12 20
284 676 342 45 28 29
289 675 342 71 25 33
289 678 343 110 27 43
284 682 344 56 30 32
289 682 345 112 22 41
289 686 347 54 24 31
279 692 349 73 29 36
278 701 352 141 18 45
334 807 185 69 57 53
280 689 348 46 22 27
284 697 351 60 28 33
289 692 350 80 30 38
289 696 352 102 28 43
284 699 353 69 24 33
284 702 354 88 26 38
270 800 252 77 60 52
289 698 353 48 28 32
289 702 355 45 29 33
294 642 339 168 8 53
294 647 339 165 4 51
294 652 340 164 8 51
300 642 337 166 7 52
299 652 339 162 6 50
284 777 335 84 66 56
302 653 338 161 11 51
422 879 273 64 52 48
299 662 340 171 3 54
304 667 338 170 7 54
437 539 296 75 16 27
464 839 266 79 64 49
309 647 334 128 21 46
340 924 367 57 51 49
314 642 331 101 27 42
312 647 333 42 25 30
318 642 329 105 28 44
313 657 333 143 19 48
315 657 332 155 19 51
319 652 329 83 24 37
351 933 326 62 54 52
305 657 337 161 14 52
309 662 336 166 10 52
309 667 336 170 11 54
319 662 331 151 6 48
314 667 333 170 6 53
314 672 334 153 13 50
319 667 331 167 4 53
316 667 332 170 4 52
319 672 331 165 12 53
316 670 332 170 9 56
306 662 337 169 7 53
293 678 343 102 22 41
309 722 350 176 5 57
294 682 344 140 17 44
294 686 346 124 14 40
293 688 348 83 21 34
290 807 322 63 52 45
304 677 339 151 12 47
300 681 342 145 14 46
325 752 321 91 70 61
299 687 345 135 10 42
399 852 286 110 97 101
304 682 341 144 10 45
372 810 187 90 69 51
305 686 342 142 7 45
303 688 343 140 7 45
294 692 350 75 22 33
294 696 352 63 27 32
300 691 347 130 9 41
297 689 348 132 15 41
307 736 348 49 26 30
299 692 349 127 12 41
299 697 351 125 12 40
302 694 348 130 7 42
303 697 349 130 6 41
314 677 335 39 26 30
320 677 332 69 24 34
314 682 336 87 23 37
420 541 375 73 22 33
308 678 338 151 19 50
309 682 339 145 15 46
309 687 341 142 11 45
314 687 339 141 16 44
309 697 345 136 7 43
310 702 346 136 7 43
307 703 348 135 3 42
391 874 312 51 41 51
314 692 340 130 17 44
315 697 341 145 17 46
424 872 330 86 70 61
320 692 337 61 23 33
319 697 339 146 20 47
279 787 243 74 59 52
301 700 352 131 12 42
413 843 319 64 53 45
260 708 343 33 27 30
313 872 349 149 117 93
364 747 300 94 73 64
261 704 343 41 26 28
264 707 345 41 26 31
260 717 344 147 18 48
309 835 312 124 98 73
266 712 348 111 22 44
260 727 343 158 17 51
264 727 346 163 19 53
259 732 341 153 20 51
259 737 340 157 20 52
264 732 344 166 20 53
340 867 187 123 103 97
402 820 167 110 86 74
262 733 342 163 19 52
262 737 342 164 20 53
268 732 347 172 21 56
273 717 352 167 21 54
265 907 295 66 60 58
274 727 351 179 19 58
278 733 352 179 19 58
276 708 353 153 20 48
275 712 353 161 20 52
279 707 354 115 22 43
366 899 279 75 63 61
279 712 354 159 20 51
279 717 355 172 21 56
284 712 356 136 22 48
288 718 357 178 17 57
275 722 353 176 21 58
276 725 353 180 18 57
279 727 354 184 17 59
277 728 352 182 18 58
280 731 353 182 18 58
284 722 356 186 15 60
289 727 355 135 24 50
362 875 242 72 60 57
289 735 353 61 31 37
259 742 341 111 19 40
265 742 344 156 19 51
354 898 360 35 33 34
259 747 341 135 67 66
259 752 340 156 117 90
290 946 363 71 66 64
264 747 343 145 18 45
419 866 315 107 94 89
269 742 346 158 20 52
271 931 272 77 69 68
269 747 346 156 19 51
456 594 269 210 131 104
269 752 345 152 22 51
259 762 341 171 126 97
264 762 342 177 133 103
261 941 296 70 66 67
266 757 343 143 109 89
269 757 344 70 47 46
279 742 350 179 20 59
437 869 163 112 97 83
272 747 347 154 19 48
274 753 347 135 29 52
279 747 349 173 19 57
279 751 348 169 27 57
404 529 275 94 17 31
284 747 349 73 31 38
284 751 348 100 35 48
419 545 308 131 14 45
289 747 348 61 28 36
284 753 347 70 49 50
274 762 343 53 45 44
485 586 310 106 12 35
276 763 342 69 56 51
341 793 176 67 58 57
279 762 341 77 61 54
465 570 295 136 13 40
284 762 340 86 69 60
284 766 338 83 66 57
264 782 339 167 121 89
289 762 339 87 69 60
289 767 336 84 67 58
305 707 351 139 6 43
310 707 347 141 4 45
319 707 340 161 18 53
316 707 342 154 15 49
319 712 341 162 10 52
317 712 343 157 5 51
289 797 325 74 59 52
319 717 340 165 5 52
305 727 352 177 12 56
309 727 349 179 9 58
311 720 347 172 1 55
311 727 347 180 9 58
318 727 339 176 11 57
323 940 358 57 51 49
315 733 341 161 23 55
314 737 341 54 29 33
294 707 356 93 24 39
294 712 357 154 20 51
290 713 358 158 24 53
290 716 358 175 20 57
338 950 282 80 74 75
294 717 357 113 22 43
299 707 355 139 18 46
303 712 354 152 13 49
299 717 356 128 22 46
303 717 354 162 14 51
294 727 355 190 18 62
294 737 352 105 31 44
299 722 356 157 20 52
299 727 355 181 17 58
306 717 352 163 8 51
265 917 349 174 135 114
306 722 352 174 9 55
294 742 350 54 29 34
294 746 348 97 37 45
295 748 347 99 35 45
294 752 345 82 50 52
299 742 349 130 25 50
405 867 339 78 65 55
304 752 340 87 68 61
336 846 292 141 113 87
294 767 334 84 67 56
434 582 299 67 24 33
300 758 337 88 69 59
396 530 282 73 30 33
400 854 209 84 66 55
267 940 347 44 40 42
303 761 333 86 66 56
402 825 311 40 34 29
288 948 274 78 72 73
294 758 341 89 71 62
290 764 337 85 67 60
293 761 338 87 70 60
302 755 338 89 70 63
311 748 336 88 68 61
433 573 298 30 27 29
309 752 335 89 69 59
320 742 331 92 71 61
316 743 336 91 67 60
318 742 335 84 62 56
314 752 330 90 69 59
312 750 333 90 70 60
319 747 330 93 71 60
318 751 328 91 71 59
306 738 347 132 24 48
306 748 342 104 45 51
325 768 316 85 65 55
394 862 221 75 58 53
317 740 338 79 29 39
440 562 331 173 19 58
356 802 174 78 60 51
311 754 332 88 68 59
308 762 329 86 65 56
317 755 328 89 70 58
482 857 259 98 89 81
419 536 360 76 15 28
314 762 325 85 66 55
313 766 324 84 64 54
335 842 192 95 74 62
318 761 323 86 67 57
320 762 321 86 66 57
319 767 320 84 65 54
403 867 337 75 63 52
305 754 337 90 69 60
498 603 269 106 34 42
336 647 317 93 17 34
334 652 320 97 27 41
334 657 320 148 25 53
334 662 321 113 14 37
347 642 304 98 31 43
261 819 337 170 126 102
351 641 297 101 31 45
350 642 300 88 25 39
348 647 305 50 25 30
351 651 302 98 24 39
429 557 295 97 9 30
349 657 305 149 17 48
444 552 330 140 20 47
341 642 312 40 27 31
344 647 310 100 22 39
338 642 314 44 27 31
344 652 310 137 19 47
339 652 315 42 26 32
339 657 316 140 20 49
347 653 308 132 18 46
444 888 235 137 116 97
347 657 308 155 17 49
338 662 318 83 16 35
341 666 317 116 10 36
339 672 321 49 29 33
345 662 311 148 14 47
348 662 309 146 14 48
346 665 312 108 16 41
270 847 320 170 127 103
349 667 310 43 25 30
350 671 311 40 29 31
348 672 314 63 27 34
309 912 236 93 83 84
346 676 317 110 21 39
349 677 315 121 20 43
363 822 195 69 58 54
348 683 318 37 29 30
359 642 260 47 31 36
360 647 260 42 31 34
362 870 313 44 40 38
360 642 270 89 28 41
374 806 180 73 55 45
360 647 270 107 26 41
361 651 265 63 27 35
362 654 261 68 27 32
362 657 260 43 30 33
362 653 265 54 29 32
362 657 265 52 29 33
484 590 293 47 26 30
361 656 271 156 21 50
362 654 268 92 26 37
357 642 280 100 24 40
359 647 275 57 27 35
264 792 339 155 115 84
355 642 285 159 17 49
359 652 280 58 25 31
359 657 280 149 18 46
357 652 285 84 21 37
358 657 285 151 16 46
408 771 196 70 50 38
364 662 265 90 29 39
363 662 270 84 27 38
364 667 260 72 28 37
261 881 307 169 124 97
359 662 285 145 11 44
362 659 273 145 23 50
361 661 276 72 17 31
362 664 279 42 26 28
363 667 275 58 27 34
364 672 280 100 19 37
343 786 179 60 51 48
363 816 264 55 43 40
353 642 295 146 16 47
437 805 145 108 84 68
355 647 290 147 14 46
439 542 340 169 18 54
352 648 299 92 19 37
354 652 295 132 14 43
352 652 299 67 22 33
353 657 300 146 16 48
358 662 290 143 7 43
359 667 295 138 6 43
411 812 168 119 83 56
360 782 155 85 68 58
355 671 306 122 15 41
403 792 220 134 92 66
274 838 305 136 95 74
358 673 304 117 12 36
361 670 291 136 6 45
362 669 288 138 7 42
352 669 308 36 28 30
366 675 265 85 32 41
354 727 320 52 27 34
376 748 286 92 74 68
367 678 260 122 22 44
389 815 162 105 85 71
367 677 265 104 21 38
347 872 190 92 83 81
366 676 271 70 19 30
367 678 270 134 26 48
368 682 270 143 17 42
366 676 275 137 22 45
367 678 275 142 17 43
454 888 226 121 101 85
367 678 280 137 15 43
276 908 358 168 134 115
369 682 285 117 4 37
378 717 305 135 21 48
469 562 260 90 63 42
370 687 265 152 19 45
370 686 270 146 18 45
372 688 271 139 16 44
333 945 271 83 75 76
374 687 285 75 20 34
258 876 331 143 103 86
372 684 286 114 6 38
370 692 260 147 18 46
455 555 280 79 23 36
371 691 264 144 17 45
371 695 258 128 14 40
372 694 262 128 12 43
450 852 265 115 102 94
372 689 267 143 17 42
294 777 331 81 62 53
375 702 260 144 18 45
376 701 264 145 18 42
377 703 266 146 18 46
379 702 270 117 20 40
375 691 275 113 5 33
378 693 280 85 23 39
369 848 214 71 57 55
380 697 280 70 28 36
383 717 280 170 18 50
473 583 290 98 0 31
376 690 285 38 31 34
368 697 314 141 8 43
380 702 275 86 27 40
382 703 280 46 32 38
366 676 290 135 14 43
367 678 290 130 13 42
368 678 295 131 13 42
362 673 299 126 11 39
364 677 300 126 12 40
367 679 299 130 13 41
414 541 261 156 9 34
355 677 311 70 26 34
419 882 251 88 71 57
356 681 312 85 27 39
357 684 313 42 24 27
361 680 307 68 21 30
366 685 307 128 11 42
369 687 305 127 8 39
468 564 300 109 15 34
360 692 316 134 11 43
356 690 317 132 14 41
358 693 318 135 13 43
365 691 312 131 7 40
402 535 326 64 41 34
492 589 297 133 38 50
362 698 318 150 16 48
363 702 319 152 19 51
369 702 315 152 13 48
370 682 290 119 5 36
292 853 268 179 127 97
370 682 295 125 11 40
394 530 295 67 38 31
373 687 300 133 13 42
422 562 272 40 31 35
376 691 301 113 16 41
378 692 290 97 21 39
324 903 360 34 33 35
378 692 295 138 17 44
380 697 290 87 27 39
377 693 299 114 18 42
381 700 291 102 23 41
381 702 295 88 24 37
382 704 293 48 25 32
377 698 303 61 23 30
513 606 256 192 19 47
378 702 304 115 22 43
370 697 311 138 7 43
372 694 308 138 12 43
373 697 309 141 12 43
376 701 306 145 15 46
374 702 310 149 9 46
259 882 335 169 121 105
328 647 324 32 29 31
325 657 326 108 19 42
331 651 322 121 25 45
325 661 327 136 12 41
329 662 325 135 13 42
324 667 329 162 12 52
324 672 329 168 18 55
327 668 328 145 21 50
327 672 328 160 24 55
302 824 243 44 40 45
419 854 299 85 69 62
332 663 323 120 9 38
323 807 215 54 48 47
333 667 324 146 20 47
334 672 324 86 26 40
330 677 327 107 26 43
321 681 332 37 28 29
322 684 333 63 36 40
329 682 329 81 27 36
334 677 324 79 26 36
324 692 335 32 28 30
327 689 333 30 28 32
331 695 332 72 17 28
334 692 330 61 29 34
332 702 333 131 30 49
384 722 275 162 13 50
322 698 338 99 18 36
325 702 337 35 27 30
376 705 259 151 19 47
338 682 324 70 24 32
345 686 322 37 27 30
343 688 324 59 26 30
340 691 327 69 24 33
344 692 325 55 26 31
341 695 327 39 31 31
337 689 328 121 23 44
344 702 326 58 34 38
342 698 328 39 30 30
372 850 217 63 54 50
387 896 358 67 55 47
342 702 328 32 28 30
380 773 164 67 50 42
352 702 323 112 29 46
328 752 319 87 66 56
258 922 310 80 71 66
334 745 318 83 64 54
327 757 318 87 66 56
324 762 320 87 67 57
323 767 318 86 66 56
329 762 316 83 63 54
329 767 314 82 62 53
334 757 314 83 63 53
379 862 250 71 55 48
332 766 313 81 61 51
339 742 319 80 62 52
344 737 320 74 60 55
316 817 302 155 115 92
344 743 316 80 63 54
339 752 314 84 63 52
344 747 314 84 63 54
343 750 313 85 64 52
344 752 311 85 64 52
349 742 315 84 66 59
350 744 312 86 66 57
346 748 312 86 65 54
351 764 302 89 69 61
338 756 313 84 63 53
341 753 312 85 64 53
339 762 311 82 62 52
341 768 307 84 65 57
345 763 307 86 66 56
342 765 308 86 67 57
479 572 280 110 8 35
348 756 308 88 67 56
351 753 307 90 68 58
488 599 275 107 72 71
378 707 260 138 15 42
377 704 262 152 19 48
377 712 256 154 20 48
380 706 269 131 16 42
380 717 265 156 21 47
383 712 280 104 27 45
382 722 285 174 21 53
383 707 285 52 30 37
379 722 260 69 33 40
380 722 265 135 23 45
349 947 295 68 62 62
383 727 270 150 20 47
383 732 265 137 19 42
384 737 270 106 26 41
383 727 275 167 18 48
383 732 275 82 26 40
381 737 281 126 31 46
364 707 319 81 25 39
366 707 317 160 23 55
369 707 315 165 15 53
361 718 317 179 20 60
368 717 314 169 15 55
360 722 317 183 19 60
355 818 271 47 39 38
357 726 318 36 23 30
359 727 316 164 19 55
353 732 319 166 22 56
404 868 172 85 75 66
288 959 288 83 80 81
354 737 315 130 42 56
359 737 311 149 37 58
364 722 314 189 11 61
366 724 312 190 7 61
469 907 200 117 100 84
363 736 309 101 30 44
370 732 306 172 16 56
365 738 306 30 27 31
369 737 305 127 23 49
362 730 313 188 13 60
306 873 262 49 44 46
382 707 290 91 31 43
383 712 290 94 33 45
382 712 294 93 35 45
375 867 249 70 59 57
380 707 300 46 28 33
380 712 300 37 31 33
372 707 313 162 9 51
372 710 313 173 10 56
371 714 312 180 10 57
377 712 308 177 13 56
361 874 239 73 63 60
374 737 300 158 23 54
379 727 295 116 33 49
377 727 300 127 29 50
376 728 302 167 25 54
378 732 295 71 30 37
410 882 256 69 58 50
376 738 296 64 27 34
373 721 308 189 7 61
384 747 270 57 48 44
375 752 285 95 77 70
382 742 275 74 54 51
474 859 246 91 78 67
381 744 277 81 66 59
380 747 280 91 73 65
378 752 280 95 77 69
382 747 274 85 69 59
380 752 276 90 73 64
378 747 285 89 73 66
384 757 270 47 39 40
381 767 272 61 50 45
391 874 216 74 62 55
386 752 265 140 107 85
374 762 280 93 74 66
372 766 279 88 71 64
375 767 276 86 69 61
370 762 286 92 75 66
373 761 284 95 76 69
382 756 273 81 66 57
414 532 295 64 30 27
376 754 282 98 81 72
381 762 272 77 62 55
419 531 275 98 15 33
359 747 305 91 69 60
358 751 304 91 70 61
360 752 301 92 71 62
364 742 305 76 62 58
365 743 302 89 71 64
367 741 303 51 29 35
365 752 296 94 73 65
398 847 185 83 73 67
272 953 294 77 73 74
361 748 302 93 70 61
367 746 298 93 74 66
365 749 297 95 73 65
321 797 217 76 60 53
360 743 306 90 71 64
353 740 313 84 67 61
355 747 307 89 68 60
268 897 295 115 91 73
354 752 306 90 69 61
390 582 317 71 28 34
362 740 308 65 54 52
354 757 304 89 69 60
356 758 302 91 70 61
352 761 303 88 68 59
357 765 298 89 68 59
356 768 296 86 67 58
364 757 295 94 73 65
325 913 244 80 73 73
370 752 291 96 76 69
369 757 290 94 74 67
372 741 298 135 37 58
374 747 290 88 72 65
377 741 289 106 39 49
409 536 365 81 17 27
331 713 332 71 29 37
332 707 333 135 24 50
334 712 330 91 28 40
322 712 338 170 15 55
329 727 330 159 24 54
326 728 332 171 27 59
463 827 283 78 60 47
329 732 330 88 39 46
335 722 327 167 20 55
333 721 328 142 25 53
331 734 327 74 58 52
321 722 337 173 17 56
340 712 327 68 30 36
339 707 329 45 29 31
338 712 328 116 38 50
337 716 328 161 29 55
349 717 323 120 32 47
504 608 270 140 27 51
334 887 334 89 70 53
339 722 325 65 24 34
339 727 325 142 26 52
339 732 324 88 49 51
345 733 322 109 43 52
349 722 323 109 25 44
351 723 322 68 21 30
347 730 323 187 18 60
322 745 328 94 72 62
335 739 322 83 64 56
340 861 185 111 88 78
322 756 323 91 69 61
326 809 197 60 54 52
352 707 323 70 33 40
354 707 322 43 28 32
352 719 323 93 48 52
394 528 260 114 20 30
449 551 300 61 15 27
394 528 265 103 21 31
399 527 265 94 21 29
389 529 280 69 33 33
389 529 284 64 36 34
394 529 275 78 25 33
394 529 280 72 29 33
399 529 275 86 22 32
399 529 279 81 25 32
393 529 283 68 33 34
404 528 260 111 18 31
409 527 265 111 9 30
404 528 270 100 15 30
409 528 270 108 10 32
406 539 258 166 10 35
383 901 345 74 65 61
409 538 259 166 11 38
414 529 260 124 9 33
415 543 263 144 10 34
409 530 276 97 13 32
308 877 240 56 53 55
429 869 279 76 63 57
413 529 273 100 13 33
324 882 196 112 90 78
389 530 305 60 44 34
399 530 295 67 34 29
394 530 300 65 38 31
424 540 333 122 16 47
399 530 300 65 36 30
389 530 310 59 44 34
389 532 315 60 43 34
403 876 304 59 53 50
349 866 300 32 30 30
389 537 320 61 33 30
345 862 181 92 71 59
395 534 318 63 41 34
399 532 315 64 40 33
424 537 340 106 26 38
394 543 320 122 11 41
404 530 290 74 28 28
404 530 295 67 32 28
405 883 296 61 52 50
409 531 295 66 30 27
404 530 300 64 36 29
409 531 300 62 35 28
414 531 290 75 25 28
409 531 310 63 38 30
404 533 320 67 39 33
405 543 316 124 12 42
410 544 311 133 13 43
414 543 320 124 11 41
392 551 257 115 19 35
310 855 342 136 110 81
394 552 260 84 20 29
399 551 261 38 29 32
400 553 263 34 29 34
388 562 257 49 28 31
390 562 259 62 26 32
391 565 258 58 32 35
483 906 190 94 81 74
394 562 260 55 28 31
388 551 350 192 16 58
451 565 293 101 25 41
394 565 258 55 27 33
399 566 259 66 28 31
398 568 257 64 27 31
389 797 185 91 65 52
395 573 259 45 31 32
398 570 257 52 29 30
394 578 265 101 27 35
400 573 264 55 30 32
404 546 261 105 16 34
405 548 263 101 14 33
409 547 264 116 11 30
409 552 266 77 18 29
408 557 267 69 24 29
414 547 265 116 11 30
413 550 267 73 18 27
414 552 269 62 26 32
273 938 274 77 71 71
416 549 268 87 18 24
410 556 268 46 28 29
258 833 284 79 63 60
433 806 149 115 84 61
404 561 264 65 27 32
403 563 262 51 30 30
409 562 265 46 29 33
404 572 265 65 31 33
409 571 265 56 33 36
404 577 270 135 15 32
405 574 268 96 19 31
308 863 263 102 76 62
409 574 268 109 24 33
442 824 304 59 49 42
409 576 270 138 16 28
413 563 266 37 30 36
414 567 266 39 31 36
414 572 270 72 28 35
390 549 311 151 12 49
389 547 314 156 16 50
388 551 360 177 16 56
447 888 243 100 83 70
362 815 180 91 70 50
389 556 312 141 8 44
386 556 312 147 4 46
404 837 295 67 56 50
394 548 311 140 11 46
394 552 310 135 10 43
399 552 309 134 10 41
399 557 310 136 7 44
386 571 317 33 26 28
389 577 316 51 26 31
396 566 312 150 13 49
394 572 314 114 19 42
394 577 315 81 22 34
397 569 313 152 16 46
289 838 325 84 67 50
434 862 290 71 57 50
399 577 313 88 22 35
410 553 302 114 3 34
414 547 305 127 13 41
414 552 301 106 9 34
412 550 303 125 11 43
314 857 340 136 108 78
408 545 310 134 11 43
404 546 314 134 14 42
401 556 307 135 9 44
402 558 308 136 8 43
414 545 308 130 14 41
414 567 304 131 15 42
299 847 259 171 119 93
404 562 309 136 15 44
404 567 310 90 17 36
408 567 308 59 24 31
404 577 311 87 23 36
409 572 309 104 21 41
409 577 310 105 21 41
434 600 269 172 119 105
411 570 307 132 22 47
415 577 307 47 25 30
412 573 308 97 20 39
412 577 308 72 26 34
419 529 260 125 12 34
419 532 257 168 14 37
374 782 165 77 60 49
416 530 258 129 12 34
276 776 237 78 61 53
419 530 258 150 14 35
419 536 257 169 15 37
270 912 354 176 138 120
424 529 260 118 14 36
424 530 265 102 15 32
425 536 257 134 17 35
419 530 270 101 14 33
424 531 270 98 14 31
419 538 259 166 14 38
429 530 261 105 10 37
428 539 258 68 18 36
429 543 263 50 34 35
402 792 206 68 50 42
419 531 280 95 15 33
424 532 275 96 13 32
424 533 280 96 13 33
476 580 312 96 15 34
419 532 285 89 18 32
428 534 279 97 13 34
427 534 285 91 15 31
429 536 285 90 14 31
441 515 258 84 0 22
445 516 259 91 1 28
429 562 296 62 14 25
299 777 329 81 60 52
450 521 259 80 0 25
384 897 359 61 49 43
433 529 258 106 0 36
403 825 181 87 70 57
434 531 260 108 1 36
459 582 289 108 7 36
438 534 263 109 0 39
439 537 270 93 22 35
434 542 260 68 26 31
385 842 220 69 55 49
434 544 263 74 35 35
439 540 257 90 22 30
439 543 260 79 27 33
443 537 260 117 4 34
443 538 265 98 7 34
444 542 261 102 21 36
445 541 265 95 17 39
448 543 262 115 14 35
448 543 270 83 31 38
434 536 275 95 10 31
439 538 275 95 18 36
440 541 280 88 13 29
437 539 284 90 12 31
439 541 285 86 16 31
441 540 276 89 21 33
444 542 275 87 30 35
444 543 280 83 20 32
430 842 312 57 45 36
443 543 285 81 24 31
344 859 184 117 89 80
419 532 290 77 23 29
314 802 310 152 107 87
419 532 295 65 29 27
419 532 305 61 33 27
424 534 300 66 29 26
429 536 290 83 17 29
429 535 295 75 22 27
427 534 296 71 24 28
429 535 300 67 26 25
419 532 310 64 34 28
424 542 315 103 13 35
424 541 320 67 21 30
425 536 321 57 35 29
429 541 320 76 23 30
434 538 300 70 20 28
433 538 305 64 22 26
314 953 273 95 90 94
436 540 301 69 19 27
438 543 305 67 18 27
442 544 300 66 13 26
284 961 295 84 79 80
437 544 309 57 19 26
432 539 314 54 24 26
419 546 266 125 12 34
419 552 270 58 24 30
424 548 269 115 18 35
429 546 266 67 28 37
429 549 268 140 20 37
429 551 271 115 15 33
483 903 190 98 84 76
424 553 273 63 25 32
429 554 273 62 27 28
429 557 275 60 26 31
419 562 270 51 31 36
419 567 270 39 32 36
422 567 272 40 32 35
416 568 268 39 33 38
423 572 272 49 31 38
425 562 274 38 33 35
418 575 276 111 29 29
424 573 280 76 37 37
420 578 284 117 25 30
422 575 281 85 30 36
425 574 283 77 34 39
428 562 276 46 32 32
428 567 276 48 34 35
430 567 278 56 28 35
427 570 276 43 34 35
384 805 187 64 50 46
269 777 340 134 100 79
429 572 280 57 38 43
429 577 280 84 32 36
427 574 283 92 38 58
427 577 284 92 28 33
439 544 263 72 37 33
438 538 349 175 19 53
439 547 265 73 34 37
433 549 268 123 15 31
434 551 270 105 28 38
330 953 279 85 79 81
437 549 268 63 29 32
444 547 265 72 30 38
445 545 262 86 29 35
448 545 262 111 13 31
444 550 267 80 28 33
444 553 270 73 31 36
446 556 272 51 33 35
446 868 163 102 85 73
449 556 272 49 32 36
434 557 276 41 30 32
432 559 278 64 27 33
275 872 291 148 116 83
449 547 275 88 25 31
395 842 324 40 35 32
448 548 285 82 25 30
442 554 273 51 33 34
257 882 313 178 132 107
449 559 274 46 32 37
439 576 265 110 82 45
400 838 296 60 48 47
437 575 269 106 71 42
434 577 270 107 74 40
444 577 260 121 91 52
444 575 263 112 86 50
398 826 188 84 71 61
399 861 236 79 65 56
294 960 286 81 77 80
450 576 264 115 86 48
444 573 266 111 84 48
449 568 271 97 67 39
434 562 280 67 22 33
439 567 279 85 22 32
434 572 279 90 29 41
436 574 275 86 47 35
439 572 275 114 38 34
438 571 278 114 23 31
436 574 272 99 61 43
444 567 275 85 33 30
401 875 256 74 60 47
442 565 278 86 23 32
448 562 278 64 28 34
419 552 300 109 15 37
424 553 297 106 11 35
429 548 305 100 14 35
279 852 295 138 91 68
430 550 303 60 18 29
424 545 309 54 20 23
420 566 302 53 23 29
324 921 251 80 74 75
423 562 298 39 25 25
486 575 276 120 9 37
418 572 304 78 20 34
488 862 246 95 80 69
399 887 350 77 62 53
421 572 302 96 13 37
425 577 302 74 21 33
429 567 297 43 23 26
378 897 330 65 55 55
428 569 298 67 22 30
429 572 299 84 20 34
431 570 297 40 26 28
434 552 305 58 20 27
421 808 152 120 83 54
434 553 300 96 14 37
434 557 295 111 13 38
436 559 292 93 11 31
310 811 232 80 63 55
438 559 292 105 11 37
434 554 297 121 14 46
516 600 270 119 14 39
439 556 300 57 21 27
442 544 290 76 21 29
444 546 290 74 22 29
449 548 295 67 19 26
440 546 306 62 16 29
443 548 304 58 17 25
445 551 306 66 17 26
444 559 300 58 20 25
448 559 302 57 23 24
432 549 306 64 21 26
439 547 310 65 18 27
439 551 309 76 19 29
434 546 315 84 20 33
437 546 313 76 17 31
273 844 291 174 118 93
279 887 354 168 122 106
444 555 308 93 16 32
434 562 294 45 19 24
439 562 291 79 13 28
402 855 207 84 66 55
438 567 293 34 25 25
435 572 296 32 26 28
315 918 244 86 79 80
439 572 294 37 28 28
469 904 205 115 102 91
301 821 242 68 54 51
436 576 297 43 27 31
444 567 291 62 19 31
262 866 315 150 114 85
393 886 308 51 42 43
424 537 325 58 39 31
448 564 292 96 19 37
443 573 293 40 26 27
444 577 294 57 25 32
389 544 324 111 7 38
269 782 339 131 99 77
399 536 325 64 40 32
399 543 325 91 18 33
400 537 330 65 40 33
398 543 330 82 21 32
365 873 245 67 56 52
395 544 340 81 7 25
396 544 336 74 20 26
398 542 341 78 10 25
400 542 350 134 10 45
404 534 325 65 40 33
409 533 325 70 41 34
409 535 336 71 42 35
292 865 347 82 42 43
414 534 335 71 42 35
414 542 325 103 13 34
409 544 330 116 18 39
304 777 221 76 60 52
414 541 330 123 18 43
404 536 340 75 38 34
409 534 340 76 42 37
403 536 350 96 27 37
401 538 350 91 19 34
414 534 340 80 42 38
414 541 345 104 12 37
411 539 352 37 26 28
414 539 351 33 27 25
322 846 245 49 44 46
413 541 349 49 22 27
396 539 359 80 1 22
399 538 360 76 15 24
399 542 355 142 17 48
394 544 364 89 9 26
404 537 360 75 16 25
409 533 355 101 25 38
406 534 358 78 11 25
409 533 359 79 12 24
409 537 360 69 22 27
403 542 354 120 17 46
282 880 283 112 86 59
409 538 355 56 24 27
405 539 364 68 21 27
414 531 355 105 29 37
414 535 360 87 16 27
409 534 366 86 13 27
404 541 371 118 16 39
266 897 297 131 99 80
404 542 375 123 10 41
409 887 290 67 58 56
409 537 369 93 13 30
297 844 258 176 123 97
407 540 371 92 18 33
408 541 376 75 20 33
411 538 378 98 20 30
412 541 377 64 29 31
390 545 325 110 0 34
399 546 330 74 22 33
390 548 341 80 17 28
390 551 345 169 19 54
391 550 341 103 13 31
304 827 309 161 121 94
392 550 340 94 21 35
274 953 345 71 67 66
399 546 340 90 22 34
394 544 350 183 14 58
404 544 330 112 17 41
404 545 335 86 14 31
407 545 332 103 8 32
499 597 290 104 23 39
404 544 346 156 12 50
389 551 355 201 14 62
388 551 365 69 18 34
450 889 230 150 133 124
394 547 355 195 11 62
394 550 360 201 10 62
394 547 365 162 11 49
397 546 365 202 13 62
397 550 361 203 10 66
389 548 375 159 19 49
388 548 380 150 19 47
389 557 385 107 10 37
399 547 380 86 6 28
398 550 377 176 18 61
398 550 381 135 18 41
400 548 384 57 22 22
403 545 353 195 17 63
402 546 371 153 24 52
315 826 236 64 52 50
404 548 384 69 18 24
414 547 385 100 3 35
316 905 224 64 58 57
419 537 335 106 29 39
424 536 330 71 42 35
424 537 335 87 30 35
428 540 324 74 27 28
418 534 337 80 41 36
419 534 340 100 39 41
346 939 331 62 55 52
419 538 340 124 20 42
419 533 345 115 33 43
423 534 341 107 35 38
419 532 350 119 31 41
420 539 344 130 16 43
417 540 342 120 16 40
419 540 345 126 14 41
424 539 350 126 17 43
428 537 340 98 22 30
429 537 345 135 18 43
429 534 350 163 23 52
430 536 350 161 20 50
304 917 240 96 85 85
448 544 335 123 17 38
271 844 316 125 95 72
439 538 345 164 21 53
435 542 345 177 18 55
439 542 345 182 17 57
424 533 355 140 27 47
424 537 360 128 11 40
419 538 355 53 19 25
424 538 356 123 14 38
429 533 355 168 22 56
402 854 227 75 63 56
449 562 330 159 15 53
429 537 354 166 19 50
425 540 354 117 14 37
429 542 365 114 14 35
420 537 369 92 11 26
416 536 368 89 18 24
424 538 369 112 8 36
424 539 375 96 20 30
425 542 369 129 19 41
419 541 380 98 14 34
423 539 378 90 23 26
424 541 379 91 21 29
427 539 372 109 0 37
429 542 375 95 21 32
432 534 353 165 20 57
434 537 353 176 19 54
434 534 352 167 19 53
432 541 377 97 22 33
432 542 379 113 19 37
431 549 347 156 18 54
430 548 351 129 17 42
430 552 350 102 12 38
505 607 260 109 20 39
430 557 340 179 18 56
440 558 332 163 17 54
439 557 335 157 17 54
449 552 325 115 20 41
443 547 334 142 22 47
409 829 318 58 47 38
445 547 331 124 20 39
443 552 335 175 18 56
448 544 332 114 17 35
447 551 328 123 22 41
446 558 327 143 19 50
444 557 330 151 18 51
449 552 336 183 11 57
449 556 334 189 9 60
434 551 344 164 18 52
439 552 340 180 16 56
433 547 350 167 14 51
499 600 260 174 106 99
432 550 350 119 9 41
434 557 339 178 18 57
444 547 340 176 17 56
444 550 339 181 13 55
454 563 300 87 10 31
448 546 338 161 19 52
447 550 339 179 11 55
394 861 224 77 62 56
439 561 334 183 18 61
445 567 327 155 18 50
449 567 325 170 19 57
443 561 333 163 20 55
449 566 328 173 20 59
334 942 269 80 73 73
425 550 360 97 18 46
426 552 355 167 28 54
429 551 355 128 19 44
425 549 361 55 15 38
429 546 370 78 25 33
430 545 373 75 30 30
319 915 240 81 75 75
388 581 260 105 28 37
389 581 265 104 20 35
390 578 260 96 31 39
385 584 270 112 18 39
269 871 350 115 84 66
399 578 270 126 23 33
389 582 280 136 17 38
400 579 273 137 15 31
397 580 272 137 13 36
399 580 275 136 20 29
273 843 280 195 130 101
399 582 280 133 21 31
394 583 285 133 18 26
400 585 287 138 11 19
404 579 274 133 15 31
264 917 290 55 52 53
404 580 276 124 16 30
371 824 223 73 52 43
404 583 280 120 26 29
404 586 286 134 10 18
333 832 190 80 62 51
408 587 285 114 14 25
413 581 276 107 28 24
260 942 300 65 61 61
414 582 279 113 27 23
410 587 282 105 17 29
414 587 281 100 22 25
414 590 281 91 30 30
411 598 258 122 74 74
414 597 259 123 82 76
390 585 292 133 16 28
434 603 265 193 133 113
389 587 295 123 18 27
329 928 366 49 44 43
393 584 288 137 13 22
394 586 290 138 13 20
394 588 294 131 15 22
399 587 290 139 11 17
398 589 293 134 12 19
399 592 295 129 12 21
394 582 315 70 27 33
399 587 314 68 22 33
399 592 315 122 18 44
389 596 302 71 29 37
394 597 301 88 24 35
398 593 298 123 16 27
390 828 185 83 70 61
398 597 299 104 16 33
399 602 300 73 25 30
399 607 305 46 29 32
387 594 304 80 17 33
389 597 320 56 28 34
386 606 307 57 31 34
409 552 391 163 20 49
389 606 306 59 29 31
350 872 215 85 82 84
392 594 318 88 26 39
394 598 318 75 25 34
397 599 318 73 26 34
294 857 345 153 119 96
394 606 306 56 28 34
394 607 320 71 30 37
398 602 318 55 28 32
407 588 288 120 8 25
405 582 312 71 25 35
402 578 313 88 28 39
403 583 313 50 25 29
403 587 313 112 23 42
413 582 308 43 25 30
414 587 309 76 23 34
414 592 310 64 26 34
264 838 305 49 41 41
402 599 298 111 10 34
404 607 305 74 26 32
409 600 297 94 5 28
409 607 305 44 31 35
414 596 290 98 17 34
283 864 348 142 88 89
402 860 236 82 69 60
414 607 305 59 30 34
404 602 316 81 30 38
409 602 314 130 25 48
409 607 314 129 33 52
414 597 311 59 27 33
413 602 313 117 24 45
413 606 313 58 28 35
390 610 312 56 35 37
389 612 315 92 33 42
399 609 308 65 32 33
399 610 311 92 29 38
404 610 311 111 30 44
444 842 305 78 61 48
419 588 260 110 79 49
417 590 257 112 83 52
425 584 260 113 83 41
429 583 260 112 84 46
429 582 265 111 81 43
431 579 271 105 72 38
426 584 265 111 80 45
389 861 256 64 54 50
426 587 269 97 62 45
427 587 271 95 58 43
310 792 317 50 40 41
428 592 271 101 68 61
418 582 281 132 21 19
420 582 284 130 20 17
419 590 282 92 32 30
421 585 283 126 23 22
309 971 315 59 55 54
423 585 283 121 32 27
425 587 280 88 36 31
428 582 275 103 54 29
427 580 284 108 31 31
435 888 252 91 74 62
427 587 275 87 47 37
419 597 261 134 92 85
424 597 265 134 94 85
358 916 276 75 65 65
426 597 268 127 89 80
429 597 269 124 87 79
434 581 260 111 85 51
433 581 265 109 82 45
436 579 262 109 83 48
432 580 268 108 79 41
443 583 257 123 92 55
409 831 299 72 55 47
449 582 261 123 90 52
449 587 260 126 91 53
449 592 259 138 94 59
433 598 271 130 91 83
434 606 260 203 135 113
440 604 260 208 137 113
439 602 265 201 137 114
436 604 262 205 136 114
439 600 269 187 131 113
447 596 257 157 104 75
449 597 260 186 121 95
261 932 292 59 55 56
444 601 265 207 139 114
447 600 262 211 139 114
447 600 265 206 138 112
444 600 269 197 136 115
432 594 272 102 70 65
453 570 268 98 72 43
484 571 272 122 6 38
433 594 280 82 47 48
436 595 280 94 56 55
439 599 272 165 118 105
434 594 284 59 27 33
444 596 280 88 50 53
444 597 285 53 26 30
449 601 286 58 33 36
429 582 301 76 23 34
424 587 305 63 26 32
430 586 302 52 25 29
383 781 175 71 54 46
419 582 306 81 23 33
271 955 335 59 52 49
416 585 307 62 22 31
419 587 306 79 24 36
424 597 290 87 9 30
328 822 300 145 107 84
424 599 293 75 17 28
419 604 299 54 34 32
494 582 300 89 8 27
322 837 210 61 55 54
419 607 305 76 33 40
424 604 298 58 27 29
424 605 301 68 28 35
424 606 305 76 31 40
365 826 214 76 61 57
344 947 355 81 72 66
429 597 290 72 16 30
429 602 295 81 18 33
429 604 299 92 20 35
429 605 300 94 29 39
419 597 310 42 28 30
422 594 308 48 26 28
423 597 308 83 21 33
424 602 308 141 27 52
309 962 285 91 85 86
438 583 298 52 25 30
434 587 301 57 25 31
324 882 340 139 106 79
433 593 303 61 27 33
355 818 176 119 93 66
398 834 243 63 51 42
441 585 297 29 28 29
288 908 362 183 147 127
444 592 299 83 23 35
446 591 297 65 21 29
434 597 304 47 26 30
436 595 302 84 29 40
440 596 302 108 21 40
434 601 291 50 26 30
439 604 295 72 29 35
435 604 301 59 30 34
433 605 299 69 29 34
365 813 266 70 55 51
448 594 298 120 19 38
444 603 290 77 45 47
444 604 295 110 42 52
444 602 300 77 32 39
387 607 323 138 31 54
267 939 283 78 73 74
389 607 322 113 26 44
454 517 264 100 2 31
455 520 263 96 0 30
453 528 257 96 0 28
455 526 259 80 0 24
459 517 265 117 0 36
459 522 264 107 1 35
464 522 265 119 1 35
454 542 259 138 13 42
460 532 259 76 2 25
266 792 337 152 111 83
464 532 261 71 0 25
459 542 259 119 5 39
468 513 260 128 0 39
469 527 265 122 2 39
476 520 257 140 3 45
335 893 215 82 76 76
473 523 263 124 0 39
474 527 264 126 0 39
405 875 172 81 71 63
476 525 262 128 0 42
477 524 259 134 3 44
479 527 260 132 6 43
478 528 263 128 1 40
468 538 262 76 2 26
470 537 263 76 7 23
471 540 263 74 19 22
479 537 264 120 1 36
473 542 262 72 11 24
475 542 263 82 6 27
479 542 264 105 2 33
354 840 191 77 65 56
394 558 389 151 18 42
453 548 270 107 22 34
459 552 270 114 21 36
463 557 271 112 19 34
453 549 274 91 20 32
453 553 280 87 13 30
454 558 274 59 27 41
454 553 285 74 24 33
462 558 278 99 8 26
454 568 270 94 67 41
456 569 267 95 66 43
454 577 264 113 86 52
460 562 271 74 37 28
458 566 269 91 61 39
465 563 266 93 58 35
465 567 261 123 92 61
462 571 263 138 107 77
461 574 262 112 84 50
461 578 262 107 80 44
454 562 275 55 30 35
457 565 273 73 41 27
459 572 286 91 4 28
456 575 287 78 16 26
464 577 286 96 0 28
471 551 259 80 25 31
325 872 330 132 101 73
471 559 262 77 19 36
473 547 262 91 11 31
475 552 263 100 6 34
479 547 265 76 7 25
474 559 269 124 10 39
479 557 266 104 4 32
468 561 264 91 42 29
468 567 259 125 94 62
466 564 262 95 73 48
471 567 257 135 97 68
470 561 272 118 6 35
468 577 258 118 87 50
470 577 257 119 87 52
479 562 269 120 2 35
469 563 275 121 9 38
471 565 277 126 12 38
469 567 280 119 14 39
466 565 282 93 7 30
468 577 287 98 1 31
473 564 273 123 6 36
476 565 272 127 8 42
478 568 273 132 9 43
472 569 278 127 10 40
475 570 276 133 11 41
479 571 275 131 11 42
474 571 285 86 9 28
472 569 286 84 12 31
451 551 296 67 22 24
452 549 295 67 20 25
455 556 300 68 16 27
453 558 303 71 14 28
457 552 291 73 24 25
457 559 303 76 7 29
454 557 320 120 22 42
468 559 316 106 12 33
460 559 317 113 20 40
464 556 320 114 13 34
454 567 290 101 11 33
453 572 288 59 18 28
454 577 289 45 22 28
460 560 290 68 23 26
267 912 352 177 137 120
264 947 300 73 68 69
459 568 290 118 13 39
438 881 226 110 90 72
463 563 290 80 20 27
464 562 295 93 8 30
460 560 301 84 10 28
459 562 304 97 9 33
463 569 300 135 13 44
464 567 290 104 12 33
463 568 295 121 8 35
450 566 321 158 20 51
299 797 320 61 49 43
454 567 319 154 19 52
463 567 310 114 12 41
457 562 318 133 21 44
460 562 316 134 18 45
464 562 314 126 15 41
465 571 310 100 11 38
326 871 326 125 96 69
349 848 279 31 28 28
469 567 295 97 8 31
467 564 296 106 6 33
364 848 220 64 54 51
471 565 305 90 12 28
468 573 295 133 12 43
470 577 290 100 5 34
404 869 173 85 75 67
318 843 314 139 108 82
470 577 295 114 15 39
465 571 306 100 8 38
470 576 299 140 17 48
474 568 300 109 16 34
291 907 246 67 62 62
475 570 294 89 20 28
474 576 305 101 13 32
477 569 301 96 17 30
479 571 300 104 16 34
469 563 310 94 11 29
465 564 311 134 13 43
469 561 314 104 11 33
470 562 320 157 15 49
468 573 310 110 11 41
471 575 311 118 19 48
474 565 310 85 6 25
449 826 279 66 44 41
474 563 315 109 10 32
472 563 319 147 16 46
270 840 276 195 135 106
476 565 316 128 13 37
474 572 319 194 7 61
479 577 316 158 12 50
477 575 318 189 8 58
481 530 261 132 8 42
483 532 260 142 12 45
483 533 263 130 4 41
484 537 264 131 3 40
489 538 260 147 13 48
490 541 262 148 10 50
493 542 260 132 12 42
484 547 265 103 1 31
484 552 266 83 5 26
492 547 263 150 11 50
496 551 262 111 12 37
419 864 313 119 107 102
484 562 268 119 2 36
329 822 190 71 58 53
303 941 262 98 88 89
484 567 270 119 4 36
487 564 268 124 10 39
489 567 269 125 10 40
484 573 275 126 9 39
487 574 274 127 10 38
263 867 305 151 115 87
489 576 275 125 9 39
489 578 280 99 8 30
484 576 285 112 14 35
481 575 287 103 16 35
364 864 304 34 31 30
496 545 257 109 19 33
499 552 260 93 20 32
390 564 393 169 22 57
501 550 257 74 14 26
502 553 258 71 22 27
498 562 264 101 13 33
500 561 262 102 9 32
504 562 260 80 16 28
273 803 253 78 61 53
378 847 269 34 30 28
376 774 272 76 61 52
280 818 321 61 51 44
504 567 265 114 84 71
307 876 250 53 50 53
499 566 266 92 17 31
499 568 268 107 14 34
499 577 270 121 13 40
504 577 270 85 40 39
399 842 245 55 46 42
509 567 260 128 100 78
505 565 261 80 53 38
508 568 264 151 128 110
510 575 266 102 81 63
482 574 288 106 15 35
484 572 305 83 2 26
483 573 300 103 10 33
486 575 299 110 13 36
489 576 305 93 6 28
489 577 310 136 15 42
450 548 326 99 18 35
453 551 323 93 16 34
284 832 260 180 124 100
450 547 336 144 14 45
455 552 331 153 16 47
453 552 333 172 9 54
453 556 333 192 4 59
457 549 326 117 3 37
458 552 329 146 18 43
462 554 322 132 13 43
464 557 325 147 18 44
461 555 327 147 18 44
397 844 193 81 69 57
467 559 323 160 18 50
454 568 326 162 18 55
454 572 324 142 21 50
499 605 278 167 33 66
459 562 329 192 8 60
462 562 328 179 12 57
459 572 324 157 21 53
464 571 324 162 16 55
453 592 261 148 98 64
459 592 265 191 124 93
464 592 265 189 126 96
465 590 262 160 101 70
452 595 262 178 113 85
453 596 265 201 127 101
454 596 270 210 133 108
454 598 280 77 39 40
459 597 280 97 23 35
464 595 275 202 133 114
464 600 286 158 58 62
424 832 294 78 58 49
468 582 258 135 94 58
468 587 259 157 105 72
470 586 257 142 96 65
470 585 287 105 0 35
302 890 229 68 62 61
470 595 266 208 139 118
474 596 265 207 140 120
479 597 260 202 136 118
474 597 270 198 138 120
469 596 275 190 130 112
469 600 286 125 39 48
474 598 280 125 68 66
474 599 285 96 36 41
480 600 282 137 63 69
479 600 284 109 37 53
450 581 292 42 30 31
455 586 292 72 18 32
453 588 293 65 20 33
464 583 288 105 3 33
459 587 291 120 13 39
456 590 292 130 17 41
464 587 290 127 11 41
508 609 271 187 33 61
454 597 296 58 27 32
404 817 166 114 84 65
451 596 297 86 23 37
464 601 290 79 31 40
470 581 289 103 0 34
469 587 288 121 8 39
469 592 290 124 12 39
472 579 296 121 14 42
478 583 296 97 12 35
475 586 289 93 2 30
479 588 290 79 9 29
479 592 289 84 11 33
479 582 315 133 17 44
479 596 288 83 19 32
472 600 288 88 37 46
493 579 274 123 9 38
492 579 279 108 11 34
494 582 280 120 8 38
385 885 271 56 46 45
484 599 265 195 136 119
489 599 260 197 129 118
489 599 270 166 113 99
494 599 265 164 101 95
495 600 260 173 103 95
484 599 275 150 97 85
484 598 285 117 29 48
484 600 280 114 61 66
482 600 283 140 37 66
494 600 284 116 34 50
284 958 335 63 60 60
504 587 270 114 16 38
509 582 269 126 79 78
510 583 267 95 49 51
510 587 267 116 79 72
414 872 325 87 72 70
294 892 260 52 49 51
511 591 267 123 43 51
266 858 310 153 116 88
497 584 279 118 7 38
499 587 280 134 11 43
373 902 315 64 57 55
501 586 272 115 30 42
504 592 280 132 10 42
499 588 285 122 6 40
501 590 282 127 3 39
508 593 275 138 14 44
499 601 265 140 76 72
267 839 278 198 138 109
503 603 260 146 91 89
465 898 201 113 98 85
504 607 265 162 23 46
500 606 270 123 28 41
402 842 323 63 50 41
501 605 267 144 26 40
505 596 286 108 10 35
432 887 244 113 88 63
504 605 279 67 28 33
504 601 285 138 19 46
509 597 275 135 13 43
349 868 310 34 31 31
509 597 280 106 4 34
509 597 285 99 4 32
509 606 280 66 26 32
509 603 285 107 20 37
511 605 283 77 22 30
484 588 296 52 23 26
388 896 345 77 64 58
487 579 290 123 12 40
488 578 296 115 15 37
484 583 300 73 16 31
300 965 296 91 86 88
484 592 291 66 24 33
485 585 299 55 23 28
489 587 300 57 26 30
494 583 290 118 11 39
494 592 295 81 24 35
493 589 300 105 25 41
495 590 300 103 17 37
495 590 303 121 20 45
299 822 308 151 109 85
484 582 315 138 12 44
489 586 314 134 16 44
490 581 311 142 17 45
296 814 317 133 94 72
493 586 309 129 18 42
494 596 289 58 31 33
379 832 245 42 37 35
496 585 290 117 8 38
499 587 295 86 8 27
501 590 290 94 10 31
504 593 290 92 8 29
502 593 293 93 14 32
497 587 304 126 17 42
502 595 293 88 21 35
304 848 339 139 111 80
504 597 290 106 19 39
506 600 288 113 24 38
389 553 390 102 12 32
394 556 386 150 20 52
394 553 390 126 15 41
398 555 386 157 20 46
399 557 390 150 18 44
283 793 244 75 59 52
399 552 395 87 6 29
394 553 405 80 5 32
394 557 409 99 21 38
388 560 387 69 19 29
383 890 314 59 52 51
389 567 400 206 12 66
394 561 391 136 15 49
395 563 395 143 17 50
393 565 396 180 19 56
395 564 400 198 14 63
389 565 404 205 12 65
319 877 345 148 115 90
399 561 405 185 16 61
404 552 390 139 16 42
404 551 395 81 2 29
404 552 400 79 3 29
419 867 340 86 72 61
403 556 391 166 21 49
408 556 395 176 21 56
314 882 210 97 81 71
414 547 390 115 12 38
413 550 391 155 23 49
413 551 395 123 17 44
412 555 397 145 22 52
408 557 403 157 21 56
402 560 397 186 17 62
404 560 400 191 15 62
403 560 404 189 15 63
422 543 388 131 14 40
264 882 345 172 125 106
422 545 387 150 14 50
379 867 330 39 35 33
417 550 393 135 19 44
384 737 265 133 24 45
387 748 259 148 111 80
385 747 265 119 94 77
387 757 260 155 112 80
318 852 249 50 45 47
387 757 264 161 117 88
387 762 260 157 113 82
386 762 265 160 120 92
387 767 259 163 119 88
386 767 262 163 119 89
385 767 265 161 119 92
264 772 249 74 59 51
261 776 252 72 57 51
264 777 250 73 57 51
270 777 245 76 59 51
267 772 248 76 60 51
400 883 301 57 47 48
263 787 254 73 59 51
259 792 256 73 58 51
395 832 200 82 66 55
361 843 209 64 54 51
264 797 255 74 59 51
269 787 249 75 59 52
269 792 251 75 59 52
334 857 305 126 99 77
268 797 253 75 59 52
279 772 238 78 62 54
279 777 237 78 61 53
353 922 275 79 67 65
280 773 237 76 61 53
279 782 240 76 60 52
356 917 335 60 54 57
289 772 230 74 59 52
273 782 244 75 59 51
275 781 242 76 59 52
363 882 246 80 67 63
275 791 247 75 60 51
280 796 247 75 59 52
274 797 249 75 59 52
277 794 248 75 59 52
282 784 243 76 61 52
285 791 242 77 60 53
289 792 240 77 61 53
284 797 245 76 59 53
266 797 337 149 112 85
287 798 243 77 60 53
269 802 254 77 59 52
434 868 285 79 66 63
274 802 251 77 60 53
274 807 254 79 61 54
279 807 251 80 62 54
280 812 252 80 62 54
278 813 253 81 62 55
275 817 256 81 62 55
279 817 254 80 62 54
285 801 246 76 59 53
289 802 244 77 60 54
398 830 309 42 35 31
289 807 245 78 61 54
283 803 248 78 60 53
284 812 250 78 61 54
284 817 251 77 60 55
298 772 224 72 57 51
338 905 247 68 61 61
301 772 222 73 58 51
299 777 225 73 58 52
301 776 222 75 59 52
388 859 253 66 54 48
307 773 218 74 59 51
308 777 218 76 60 52
305 782 221 79 61 54
312 772 213 70 56 51
313 777 214 72 57 50
378 906 350 76 66 63
319 777 210 73 58 51
314 782 215 74 59 51
319 782 211 74 58 52
304 787 224 78 61 53
307 789 223 81 64 53
308 793 224 80 63 54
315 786 216 77 60 52
257 892 315 175 127 105
313 788 218 79 61 53
314 792 219 81 62 54
318 793 218 80 62 53
318 797 219 78 61 53
293 773 229 73 58 52
294 782 231 74 60 52
393 807 195 82 60 52
296 776 227 72 57 51
399 870 350 54 44 37
297 778 228 73 58 51
380 863 254 79 61 50
293 788 234 76 60 53
294 792 234 77 61 54
337 832 284 144 116 94
292 790 239 77 62 55
294 797 236 78 61 55
318 857 245 49 46 49
293 798 238 78 61 54
299 792 230 78 61 55
301 787 227 77 60 54
296 790 232 77 60 54
300 796 232 79 62 55
303 794 228 79 63 54
304 797 230 80 63 55
297 794 233 77 61 54
307 798 228 82 64 55
317 807 223 78 61 54
305 802 230 81 63 55
298 807 239 80 63 55
299 812 240 81 63 55
291 801 241 78 60 54
293 808 244 79 62 55
399 886 345 75 60 53
294 817 245 78 61 55
296 810 242 80 63 56
298 817 243 79 62 56
300 816 242 81 63 55
294 822 246 50 44 47
292 823 248 73 64 61
296 825 247 154 121 97
289 832 256 179 126 101
294 827 250 174 126 99
293 833 254 179 126 102
299 822 244 52 44 47
304 828 244 160 119 95
384 773 170 87 69 60
305 826 242 75 65 63
301 830 247 174 124 96
298 828 248 175 127 98
304 833 249 169 122 95
309 802 226 82 64 55
307 802 228 82 63 55
307 809 233 81 63 54
312 818 233 81 64 55
309 827 241 94 76 69
320 822 225 60 53 51
319 827 230 60 53 51
313 828 239 68 57 56
308 829 243 173 123 95
309 832 245 168 117 92
310 830 242 173 120 96
303 892 225 90 78 74
313 833 244 162 112 88
320 857 220 54 50 50
319 857 225 51 48 48
300 836 252 174 125 99
304 842 254 168 120 93
308 834 248 166 117 91
305 840 252 166 118 93
309 843 253 148 106 83
314 836 246 146 100 79
314 838 249 143 98 77
318 839 248 113 77 61
313 844 253 126 87 69
319 847 249 57 48 48
318 857 230 51 47 48
319 852 240 51 49 50
316 863 236 49 45 46
317 861 240 52 48 48
316 863 240 48 44 46
311 856 256 71 57 51
319 852 245 48 44 48
315 857 251 48 45 46
317 857 249 47 44 48
282 801 328 73 58 50
354 835 262 28 26 27
313 862 255 50 46 47
317 861 249 50 47 50
311 879 217 65 59 58
311 878 225 53 50 50
298 948 269 93 86 88
