ply
format ascii 1.0
comment Created by Open3D
element vertex 2205
property double x
property double y
property double z
property uchar red
property uchar green
property uchar blue
end_header
447 438 214 164 17 38
442 443 214 164 17 37
442 448 215 162 17 39
387 518 332 165 9 51
446 442 215 166 17 39
337 411 335 52 43 34
443 449 216 162 17 40
426 797 273 71 56 47
351 607 326 190 21 61
447 448 218 164 17 42
367 409 313 62 53 44
423 418 230 72 28 35
229 598 248 148 105 70
421 419 231 83 28 36
398 509 183 177 128 114
321 273 293 118 92 63
362 518 363 143 6 45
422 428 232 71 22 33
400 508 214 37 34 37
326 383 308 112 89 61
321 962 303 56 50 49
377 779 312 57 45 36
422 433 234 131 11 41
428 422 230 56 29 34
264 648 311 90 30 38
432 418 229 67 30 36
243 528 278 143 4 40
366 683 307 141 13 44
427 428 231 89 20 36
382 408 283 68 59 51
422 438 235 131 7 40
397 734 288 42 31 25
422 444 236 132 8 41
427 438 233 126 8 38
242 585 261 104 81 58
428 446 235 125 3 39
426 445 236 128 5 40
427 448 236 126 4 40
307 323 263 79 64 47
432 443 234 111 10 36
437 423 229 77 29 34
439 416 225 66 37 34
262 378 313 125 99 69
437 428 230 76 23 32
306 323 260 79 64 47
437 432 230 57 27 29
442 423 228 43 30 31
447 423 227 54 28 31
362 858 357 71 56 47
261 734 251 164 0 42
447 428 228 95 27 37
341 782 321 77 59 51
304 825 335 39 34 33
420 704 250 94 60 42
437 434 231 55 29 32
235 918 298 180 137 116
272 413 337 84 25 34
437 438 231 48 27 29
270 296 300 128 94 66
276 847 272 98 84 70
312 916 234 77 67 66
437 443 232 74 18 32
354 811 200 152 119 85
229 719 321 151 103 75
440 435 231 75 20 32
441 438 231 46 28 28
370 628 192 149 102 77
443 438 230 50 28 30
441 443 231 73 20 32
232 603 268 133 101 71
423 443 304 147 11 45
230 578 233 152 110 76
443 443 230 81 27 37
342 853 252 61 49 44
444 448 230 144 12 47
269 643 321 157 14 48
242 948 288 76 70 69
447 443 228 114 21 41
394 477 166 100 76 54
387 455 160 84 71 57
258 348 283 119 94 64
387 458 157 72 58 46
266 323 267 104 82 57
249 660 271 155 106 84
345 826 396 81 60 47
387 463 154 63 45 32
327 483 377 44 27 29
456 833 372 92 81 72
391 458 158 106 86 67
391 463 155 110 80 58
371 573 322 179 13 55
387 478 132 45 27 26
410 438 264 113 21 43
390 472 155 143 89 77
392 473 158 170 116 100
386 478 155 97 68 48
273 908 249 119 87 72
240 538 278 137 0 39
391 478 159 165 116 96
386 453 168 73 49 43
398 793 197 160 110 77
287 628 243 97 28 41
387 453 163 98 77 64
386 454 173 45 36 37
317 383 323 119 93 63
401 483 219 129 5 30
389 456 165 112 75 70
392 463 168 71 49 42
292 318 259 78 65 50
257 613 318 170 11 55
336 836 367 48 40 36
389 456 173 60 53 47
272 703 243 97 23 31
391 459 173 84 73 62
385 450 180 90 82 76
296 871 329 58 49 41
385 450 182 86 76 66
242 648 262 186 126 97
360 723 203 110 60 41
255 577 267 45 26 29
417 713 232 80 55 44
386 453 183 92 71 55
352 874 348 56 47 44
387 458 183 75 50 42
276 328 315 130 100 74
265 835 307 41 37 44
447 729 284 69 50 39
258 428 323 51 30 32
417 433 318 158 0 49
391 458 178 104 87 69
368 528 358 88 23 37
230 583 233 163 114 82
342 613 327 42 28 31
388 462 184 33 21 32
391 463 182 54 34 37
323 289 261 93 75 57
384 461 185 29 24 27
392 468 163 124 84 75
339 924 272 74 66 67
320 400 326 116 91 63
291 608 227 60 34 38
392 473 163 117 85 75
393 473 167 104 76 57
394 466 171 116 92 68
395 470 170 125 95 71
395 474 169 137 101 77
395 497 165 160 112 83
396 473 173 149 112 95
397 478 173 148 111 94
386 468 191 88 54 50
386 473 192 75 40 41
360 458 366 65 25 30
355 908 298 57 52 49
282 936 351 74 69 67
362 833 309 34 31 32
393 467 184 71 51 42
392 469 187 103 76 62
392 473 188 105 68 65
412 538 268 173 18 52
393 478 189 62 31 35
236 758 296 154 111 76
298 575 350 28 26 32
391 479 192 44 26 26
390 632 262 104 28 43
394 467 179 104 70 62
395 469 178 107 74 66
272 968 288 71 66 67
395 469 183 91 73 57
397 473 183 116 89 69
397 478 178 118 88 69
397 478 183 142 103 88
395 479 186 100 64 62
388 488 134 65 25 32
222 518 209 120 93 73
387 833 367 85 67 52
390 484 131 93 24 40
332 578 344 108 27 45
390 488 132 73 25 32
412 443 328 157 2 49
399 735 291 41 31 26
417 703 273 92 74 57
388 493 133 86 26 37
366 856 327 33 29 30
386 489 136 87 24 37
236 903 303 117 96 77
386 493 137 103 25 37
387 488 154 124 83 64
342 417 384 126 20 42
391 483 158 145 100 79
389 488 156 159 103 85
259 591 326 168 11 53
391 488 158 151 101 81
432 433 298 156 14 48
391 493 159 159 105 82
387 498 133 57 31 36
385 502 130 54 35 35
347 853 368 59 49 44
360 835 216 218 159 130
267 529 197 129 24 43
386 503 133 57 30 36
348 597 194 58 34 39
386 498 138 69 31 34
386 503 138 103 27 39
385 508 134 85 31 36
385 512 135 128 22 31
232 553 203 207 135 104
349 894 261 65 57 59
385 513 138 108 26 38
385 513 142 93 26 37
292 284 275 98 81 61
273 956 331 65 60 59
386 498 154 130 93 70
388 498 157 151 102 76
391 498 159 159 109 81
363 888 217 99 87 80
385 503 155 128 88 70
263 634 272 105 44 40
388 503 157 149 102 79
327 273 259 96 77 55
385 508 155 125 83 66
262 543 338 107 27 43
387 508 158 145 100 75
383 648 233 122 42 50
394 483 162 114 90 66
412 498 229 54 34 36
395 480 165 110 86 60
394 488 162 124 90 61
393 493 162 153 106 78
387 493 193 60 17 29
270 382 320 125 99 71
399 482 178 125 96 73
398 483 183 138 100 90
324 407 319 79 66 52
331 774 217 86 69 61
396 483 188 49 34 32
392 483 193 81 58 48
298 914 359 52 48 46
399 491 184 113 83 62
393 498 163 156 109 81
340 847 358 36 32 31
390 506 160 151 104 80
343 411 334 55 46 37
391 508 163 159 110 83
389 510 161 150 104 76
389 513 162 150 106 78
259 929 254 63 59 61
390 513 164 159 112 83
394 500 166 160 108 85
395 502 169 163 116 92
311 378 327 122 95 63
398 498 172 166 118 95
397 503 173 169 118 97
393 508 168 162 114 89
262 658 308 53 38 31
394 513 172 171 123 98
387 498 191 49 18 33
392 497 191 49 22 31
382 508 338 129 20 45
386 503 192 72 13 30
294 280 275 96 79 60
393 499 190 60 30 35
389 503 190 69 15 29
332 273 259 103 82 58
237 523 217 47 28 31
327 558 354 112 31 46
387 508 193 57 22 31
395 576 302 163 15 48
239 899 313 126 99 74
389 507 190 82 31 37
392 508 189 98 61 58
388 514 190 84 37 41
399 504 176 162 113 92
314 296 276 89 75 61
357 416 354 64 50 42
395 496 191 73 42 46
397 498 190 103 65 63
286 906 251 75 66 59
351 473 366 33 27 29
397 503 188 128 86 81
398 508 178 173 124 102
397 508 187 153 112 103
248 733 278 146 24 44
371 623 302 114 31 48
400 485 175 105 83 59
327 488 377 134 19 46
400 488 174 110 85 58
244 536 245 46 35 33
400 493 174 143 103 79
390 796 311 48 40 34
391 573 203 103 66 59
327 393 303 98 79 57
348 919 292 71 63 63
407 598 248 69 33 39
400 484 181 152 114 96
428 733 248 77 57 44
269 513 351 37 27 30
230 592 254 142 106 72
402 493 178 149 110 90
400 494 187 135 98 81
400 498 174 173 120 101
332 538 362 191 12 61
387 648 182 167 113 77
400 502 175 176 124 106
402 498 178 152 108 85
460 815 281 85 70 55
403 498 183 140 98 79
297 438 347 85 22 33
315 891 231 61 58 58
431 741 237 109 82 59
268 398 269 88 73 57
401 503 178 164 115 96
401 503 187 163 114 106
317 643 332 117 26 46
400 507 183 180 126 114
384 451 206 74 33 25
371 872 328 65 52 45
380 841 370 58 40 29
370 644 196 160 114 90
229 623 254 170 115 83
387 453 207 58 33 30
455 715 286 84 67 51
385 454 205 65 29 27
386 458 205 71 31 31
388 458 207 86 28 34
237 693 319 137 101 71
405 578 235 142 14 38
385 463 205 68 29 31
242 673 275 158 111 83
392 453 209 55 33 34
391 463 209 104 18 33
394 453 211 53 31 32
347 854 334 34 31 30
397 453 213 61 33 34
397 702 234 91 71 52
399 452 216 48 32 32
324 368 303 107 84 56
322 668 222 122 7 30
397 458 214 107 22 36
414 708 248 94 64 41
396 463 214 65 30 34
398 463 217 75 27 34
357 733 318 138 17 46
387 718 191 133 93 54
377 568 167 176 47 51
386 468 204 87 22 32
388 468 207 107 19 33
389 473 206 109 21 34
240 932 328 83 61 59
384 476 198 43 22 24
388 478 203 81 20 29
391 473 209 114 10 33
389 477 206 108 19 35
309 680 225 42 30 36
391 478 208 113 12 34
258 832 309 143 97 74
390 480 205 103 21 33
340 926 317 51 44 42
342 618 211 56 37 40
391 468 209 116 12 32
395 468 215 95 27 35
394 473 212 112 15 35
398 468 217 89 31 37
236 648 293 149 105 78
398 473 217 69 26 33
297 583 349 96 25 41
396 478 214 105 14 33
297 308 323 144 106 81
398 478 217 124 12 35
401 463 219 107 22 35
412 453 224 97 27 35
346 886 337 52 46 44
401 468 219 86 27 37
255 744 257 176 4 49
376 863 223 104 87 71
400 473 220 116 17 37
407 473 224 135 7 30
400 478 219 133 9 34
407 478 224 134 7 32
409 453 240 35 23 30
412 453 237 77 21 34
416 452 236 117 13 37
411 462 225 70 28 32
417 458 225 89 31 38
342 893 219 91 72 61
413 464 226 112 28 42
416 448 318 156 0 48
459 832 370 89 78 69
337 862 328 31 29 30
417 463 225 64 31 34
412 410 278 131 16 44
349 373 270 112 90 65
416 464 226 91 32 39
412 463 238 116 15 40
312 863 348 31 29 31
266 743 251 156 6 40
417 458 235 72 18 32
408 453 243 46 26 30
380 506 341 174 16 56
408 453 248 58 28 34
312 593 204 186 8 42
408 458 243 63 26 32
409 463 243 85 24 34
410 464 242 115 19 42
389 678 230 140 98 74
410 464 253 91 29 40
412 468 226 93 24 35
410 472 225 137 9 34
257 603 253 111 67 58
412 473 226 94 25 35
413 468 239 144 13 44
417 468 236 135 10 40
230 573 233 146 106 73
417 473 237 138 10 43
314 865 340 31 29 31
369 549 344 58 26 33
409 478 226 138 9 32
417 478 227 138 16 38
414 477 240 145 12 45
257 698 323 139 105 81
417 478 238 140 11 44
342 658 218 116 11 28
409 467 244 130 22 45
410 468 242 133 18 44
409 467 247 115 32 48
237 617 245 186 125 92
410 468 248 67 25 34
274 756 255 81 63 56
411 473 243 78 18 34
342 893 238 73 64 62
411 473 248 79 26 36
412 473 253 50 28 33
246 738 283 132 44 49
397 831 353 63 50 39
399 630 203 154 112 77
412 478 248 126 20 42
306 946 336 55 50 49
388 483 198 74 25 33
267 523 193 118 25 42
389 481 195 56 27 25
390 484 196 84 45 42
387 489 194 96 47 52
392 488 193 114 73 68
388 488 202 87 6 30
377 407 263 69 60 52
389 483 202 82 14 30
393 483 208 117 11 36
317 348 273 82 62 42
391 488 204 96 11 31
354 850 316 34 30 30
384 492 201 80 0 32
400 552 311 143 30 53
387 493 202 90 5 31
410 542 298 32 28 34
391 493 205 87 15 30
393 488 207 113 18 37
316 258 289 95 78 60
256 933 257 72 67 68
394 493 206 64 27 30
390 625 221 144 103 85
396 493 208 51 30 32
287 287 272 102 83 61
394 481 211 112 4 27
333 407 303 58 49 39
333 772 214 86 68 60
397 483 213 118 6 32
406 841 314 86 67 58
447 819 323 89 73 58
395 484 210 117 8 34
395 488 209 112 15 34
247 582 259 73 52 41
237 748 294 166 115 83
399 487 217 122 5 33
308 849 370 67 56 48
257 698 268 102 14 31
398 493 213 89 17 34
399 813 300 46 39 35
382 763 308 49 36 30
399 493 216 114 10 35
370 447 361 117 22 41
385 504 200 87 8 30
317 343 273 82 61 43
414 798 295 54 44 37
387 498 202 91 4 32
391 498 205 85 16 32
387 409 308 64 49 42
230 683 287 171 116 85
311 723 212 149 0 42
385 499 200 86 3 28
267 913 366 64 58 56
391 503 204 72 19 33
386 513 198 41 27 33
388 513 202 71 24 33
373 703 304 66 21 31
391 508 205 97 16 34
286 872 374 44 39 36
393 498 206 69 27 31
269 348 265 108 84 57
397 498 208 46 33 34
312 598 344 62 32 37
396 503 209 45 33 35
353 883 234 77 61 50
257 937 348 68 61 59
394 508 206 64 29 33
396 508 209 41 33 32
393 513 206 43 32 34
232 733 294 172 115 84
318 378 276 78 65 56
343 885 220 140 115 97
397 513 209 39 33 36
292 258 333 127 97 69
332 733 336 128 22 45
342 588 337 186 13 59
399 503 213 59 35 39
332 548 179 87 33 42
399 501 216 81 31 42
399 508 212 38 33 34
399 512 211 37 33 35
296 614 226 57 29 36
401 488 219 124 4 34
407 488 224 121 17 37
401 493 218 123 7 34
357 406 288 64 55 45
403 493 222 130 6 32
248 552 270 124 8 38
400 504 214 54 33 35
247 688 322 136 104 74
377 543 152 139 24 41
401 503 218 84 25 37
402 513 218 49 34 37
408 494 226 113 21 38
432 508 239 85 23 37
353 888 222 108 83 66
409 488 226 119 21 38
376 879 223 100 82 71
432 703 278 69 51 39
267 755 256 93 71 63
410 486 225 93 17 29
237 948 308 62 59 61
417 483 228 114 19 37
235 709 286 160 109 76
417 493 229 98 29 37
441 812 270 75 56 44
414 482 244 149 13 46
382 862 333 65 53 49
416 484 242 147 11 46
322 869 323 32 30 31
413 483 248 128 16 43
414 488 248 151 11 47
413 483 253 115 22 43
354 896 210 91 71 63
392 628 253 86 35 42
320 348 307 116 92 63
414 488 253 150 14 46
418 493 244 147 10 46
414 492 247 149 11 47
415 490 254 151 13 48
367 748 309 78 25 34
405 503 225 103 24 33
408 503 228 60 30 36
248 685 321 137 105 75
411 503 230 47 33 35
417 498 229 124 21 37
277 883 374 43 38 36
285 354 257 80 64 45
417 504 231 101 28 39
411 507 230 73 24 35
409 513 231 98 17 28
412 508 232 70 28 33
417 508 232 55 30 35
262 964 288 70 66 67
321 907 229 76 65 62
416 498 253 154 9 49
415 512 248 119 21 42
302 929 242 85 76 76
375 684 296 129 19 43
422 453 222 116 20 34
422 458 223 114 24 36
422 463 224 70 32 37
427 453 219 152 12 36
424 451 220 150 11 42
283 338 322 128 98 72
357 409 303 62 54 45
400 598 198 145 107 76
425 454 221 153 12 33
251 923 267 65 60 61
432 453 217 159 14 38
427 463 222 136 14 35
410 786 215 159 106 79
410 458 268 99 27 40
432 458 219 156 14 35
388 609 176 152 105 70
432 463 220 156 14 37
263 338 269 116 88 60
336 415 363 104 24 40
255 694 276 82 38 33
429 461 220 153 13 37
393 578 213 106 21 37
432 478 222 155 17 36
346 908 268 69 62 62
317 788 340 79 61 52
282 898 254 96 79 61
367 393 268 87 74 60
438 451 215 161 16 37
320 961 307 56 53 52
435 450 216 158 15 37
437 453 216 164 16 40
257 743 342 154 113 84
302 922 356 61 54 52
327 263 318 137 102 71
437 458 218 160 16 37
282 944 252 79 72 74
437 463 219 158 17 37
442 463 219 142 17 38
292 398 334 114 91 65
286 392 257 65 54 44
255 538 329 43 29 34
445 457 220 164 17 40
417 513 303 167 19 51
432 478 237 64 21 29
384 614 289 172 18 58
261 560 216 112 34 50
446 458 223 171 17 47
391 608 223 167 19 50
304 328 266 80 65 47
445 463 223 171 19 44
283 623 244 45 35 38
437 468 220 117 18 35
437 472 220 82 26 39
272 939 349 69 63 61
437 474 221 59 28 34
440 471 220 41 33 28
367 873 268 65 58 59
442 473 223 57 31 36
302 573 351 156 19 52
422 458 234 113 9 37
422 463 235 121 7 36
269 333 265 106 84 57
432 453 234 119 2 38
432 463 235 118 1 36
228 618 263 146 106 72
345 902 326 45 39 37
419 466 225 68 27 33
257 748 343 152 110 82
353 883 328 56 49 46
257 840 298 139 108 82
326 383 284 68 56 45
326 902 233 74 62 61
374 603 180 145 101 68
422 468 225 92 23 35
424 467 235 116 10 35
421 464 236 126 6 39
336 458 374 138 15 44
422 478 226 146 14 36
404 707 218 120 93 62
424 478 225 149 13 33
344 448 386 143 15 45
212 531 170 167 102 94
422 478 237 125 9 37
427 467 235 115 2 34
354 420 356 68 29 28
401 583 268 62 28 35
324 738 340 111 27 44
427 473 236 102 7 33
318 444 351 38 27 27
339 433 382 140 17 46
250 613 303 98 25 40
262 923 359 68 61 59
432 468 235 118 3 35
427 478 237 97 16 32
460 818 315 92 74 57
437 458 234 126 6 41
268 759 346 138 102 75
372 538 343 100 28 41
417 573 243 80 29 38
447 453 228 155 12 47
445 453 231 149 10 46
442 463 232 73 23 33
385 658 263 145 1 45
446 458 228 153 16 48
445 457 231 130 16 43
327 838 378 69 55 46
445 462 231 39 27 32
444 464 230 36 30 33
240 553 289 118 21 44
437 468 235 120 12 38
307 629 335 55 30 34
434 471 235 119 4 38
438 473 235 115 15 38
444 468 228 46 28 30
305 295 270 92 78 64
445 466 224 155 22 53
382 814 367 64 51 39
267 333 303 127 99 68
239 888 279 179 128 108
442 478 228 111 26 42
441 478 233 110 27 43
427 483 224 150 14 36
432 488 224 133 19 36
437 483 223 80 26 36
422 483 227 150 14 35
215 520 205 169 117 102
425 484 226 149 13 36
425 488 226 144 19 40
322 835 380 101 84 73
271 842 288 93 78 63
428 488 224 148 14 34
372 419 357 73 38 36
260 729 336 150 107 85
341 588 197 55 35 38
427 483 238 86 15 33
282 748 247 82 63 58
427 488 239 53 25 29
432 488 238 71 23 32
259 410 322 46 29 28
250 543 313 78 25 39
426 493 226 95 28 36
398 673 213 133 95 64
428 493 225 111 18 32
317 533 174 62 35 38
251 862 310 145 123 117
419 487 240 140 13 42
417 513 268 48 29 31
229 551 204 198 129 100
307 868 338 32 30 32
420 494 241 138 14 43
422 503 229 56 30 32
423 513 230 57 31 35
280 343 320 127 98 72
427 498 226 56 31 34
330 866 326 31 30 30
362 738 314 137 14 45
368 397 269 75 65 55
427 498 240 82 20 31
243 541 225 85 48 43
292 952 259 90 85 88
432 498 239 96 21 36
278 699 331 103 20 37
234 758 341 167 123 93
325 951 275 78 72 72
432 503 239 108 19 38
427 508 228 79 29 34
279 776 260 80 61 55
320 328 290 108 83 56
418 498 248 153 9 48
417 503 248 153 9 48
237 568 213 204 135 106
424 497 240 119 14 36
272 373 264 102 81 57
231 568 218 180 121 91
300 682 232 63 31 32
422 503 243 124 13 39
418 508 244 143 13 43
283 498 361 149 14 46
428 507 240 88 20 35
427 513 241 89 18 35
395 684 226 137 100 73
270 298 303 129 97 66
375 637 292 129 18 45
433 513 238 35 28 33
439 489 227 85 35 40
437 488 237 50 28 31
429 780 268 74 57 47
328 604 335 91 27 35
408 753 203 139 100 71
439 483 235 105 29 42
439 489 234 33 27 31
297 283 329 155 108 84
238 538 183 179 122 111
380 704 296 43 25 26
387 638 228 121 75 64
270 358 315 129 102 74
347 753 203 140 13 39
283 683 244 63 36 38
438 493 233 35 30 32
436 493 237 40 28 30
388 828 203 214 145 120
440 482 225 39 30 35
441 483 233 63 26 33
448 827 369 98 87 77
287 903 369 58 52 50
440 488 232 56 31 35
436 498 228 47 31 34
437 498 233 36 30 32
352 613 322 184 18 59
394 678 198 157 108 74
436 498 237 42 29 31
436 503 237 61 25 35
417 493 288 113 16 36
435 507 233 76 29 37
304 843 386 63 50 44
327 893 223 88 72 66
341 683 327 69 30 36
435 507 237 89 22 38
248 600 276 74 56 48
451 419 219 65 34 37
451 419 223 56 29 34
452 423 223 64 32 36
262 844 307 124 92 75
357 518 154 149 15 40
450 432 215 160 18 45
451 428 218 57 31 34
395 573 215 60 30 34
451 428 223 64 30 36
285 721 340 128 14 40
451 433 218 111 25 41
362 804 316 43 36 34
320 358 275 80 64 47
449 439 217 163 17 41
450 438 218 156 21 46
450 438 223 118 27 44
412 548 248 56 24 32
450 441 223 146 18 44
229 788 305 161 116 80
251 539 193 80 33 39
448 448 223 168 16 48
450 420 226 32 27 30
305 338 321 121 94 62
385 683 238 58 30 32
347 368 271 110 87 62
450 423 226 59 30 35
273 278 283 95 82 70
372 414 348 63 52 44
245 900 276 169 122 100
268 288 283 115 93 70
278 848 269 114 96 78
267 288 288 119 94 65
277 273 283 94 82 70
279 265 285 102 86 71
352 523 374 177 13 57
282 258 288 106 88 68
282 264 285 104 88 71
252 878 322 157 116 97
287 258 287 110 91 70
287 263 284 107 90 70
282 268 284 104 88 72
287 268 284 107 89 69
291 912 238 65 60 62
276 277 282 97 84 72
287 968 278 91 88 93
303 960 324 64 61 63
374 868 220 100 85 71
273 289 274 97 85 72
251 587 264 46 27 29
276 286 276 102 88 75
332 303 264 114 89 62
278 285 275 101 86 72
357 815 388 88 72 54
287 278 279 101 84 64
296 946 341 62 56 54
399 568 222 61 31 37
284 275 280 101 86 69
321 748 341 145 22 48
282 282 277 100 84 67
286 285 275 105 84 60
270 282 294 116 92 65
269 288 293 119 93 62
270 288 298 121 93 61
235 914 293 179 142 122
230 563 218 162 112 80
407 793 299 47 40 36
278 258 293 104 85 65
262 713 328 126 80 67
297 449 351 49 25 28
277 263 293 108 88 65
302 323 263 81 66 48
275 263 298 117 93 65
276 258 303 120 94 65
347 418 378 104 21 36
275 267 293 109 87 63
280 629 251 122 17 39
275 266 298 116 91 63
275 268 303 122 95 63
273 273 298 118 93 63
269 405 260 80 68 56
452 821 303 95 79 62
425 551 242 59 30 31
274 273 303 120 94 63
276 263 308 123 96 64
279 258 317 124 96 64
247 863 303 152 125 122
278 263 317 126 97 66
349 885 246 62 54 56
275 271 305 121 95 63
339 536 170 52 33 30
310 289 275 90 78 66
329 905 241 71 63 60
275 273 308 122 95 64
277 273 313 125 96 64
266 412 257 67 58 50
279 273 317 124 96 66
406 717 263 79 61 46
292 763 249 76 60 52
280 258 319 123 96 64
272 803 279 79 63 57
227 538 213 160 114 90
257 528 183 45 37 42
280 273 319 125 96 66
273 278 303 119 94 64
274 278 307 122 96 65
277 853 267 119 98 77
276 278 313 125 97 66
247 695 326 139 107 78
279 278 317 124 97 66
287 798 350 153 109 85
275 282 310 123 96 64
273 288 308 127 99 68
390 789 311 50 40 36
369 654 295 144 6 45
274 284 311 125 98 66
337 898 243 68 59 59
237 778 344 170 121 93
274 288 312 125 97 66
278 333 317 129 100 74
276 288 314 124 96 66
481 821 274 88 70 57
278 288 317 124 97 67
281 283 319 125 98 68
427 713 287 75 63 54
266 303 273 98 81 63
268 303 269 99 82 65
266 338 267 110 86 58
267 298 273 98 81 64
269 300 270 99 81 63
292 969 314 68 64 64
272 303 267 101 84 64
393 623 248 54 31 33
327 683 214 84 26 29
263 303 278 111 88 63
341 856 337 32 30 30
264 303 282 115 88 60
267 293 278 108 89 69
266 293 283 120 95 65
366 434 361 132 10 42
342 493 384 172 18 55
264 300 279 114 91 63
265 301 276 108 87 64
265 338 300 122 96 66
327 548 358 85 29 39
265 298 283 121 93 63
375 857 351 60 47 38
266 298 288 126 93 64
266 303 288 121 89 61
292 288 327 149 104 83
263 318 273 123 88 61
264 319 270 114 85 57
230 626 275 144 104 73
282 960 266 95 90 95
265 307 272 102 83 62
214 531 201 161 112 89
240 541 280 134 3 39
267 308 268 103 83 60
368 623 193 137 94 71
273 308 265 101 82 61
416 826 318 45 38 33
352 599 329 64 30 37
272 318 263 96 77 55
262 408 263 76 66 57
371 653 293 145 8 45
290 430 346 93 29 39
332 409 318 57 48 40
298 864 369 34 31 31
264 314 270 115 87 58
296 804 262 170 116 90
267 318 267 105 82 56
414 478 314 110 25 41
269 318 265 102 81 57
262 308 278 123 92 63
263 308 283 127 92 66
325 406 275 54 45 36
264 313 288 126 92 64
263 318 288 124 91 62
287 808 347 76 58 49
274 295 270 100 84 67
337 843 362 52 43 38
278 293 270 99 83 64
397 563 308 124 28 47
277 303 264 99 82 63
277 298 268 99 82 63
274 304 265 101 83 65
282 293 268 98 81 61
250 582 229 155 94 78
302 614 340 45 29 31
287 295 265 97 77 52
395 593 278 108 21 42
282 303 264 96 78 57
232 563 238 139 104 75
312 938 251 91 83 85
287 298 264 92 74 53
318 343 277 86 64 43
282 301 266 96 78 56
277 308 264 97 79 58
242 543 189 184 128 118
297 944 252 85 77 78
397 658 223 151 103 74
277 318 262 86 69 50
282 308 262 91 73 54
243 538 288 94 14 35
228 653 283 135 98 68
324 283 261 97 78 57
344 321 260 129 99 70
287 308 261 82 67 52
347 913 283 65 58 56
287 313 261 78 64 47
282 318 262 80 64 45
250 783 291 125 91 59
422 782 238 88 66 53
286 318 261 75 61 45
269 289 296 122 94 61
269 293 297 127 95 64
270 293 299 127 94 65
317 388 273 65 56 48
267 303 293 123 93 63
268 303 298 124 94 62
269 299 301 128 96 67
262 403 319 124 98 71
287 388 258 68 57 45
420 797 259 79 63 57
269 303 302 125 96 64
410 427 259 91 11 34
315 389 326 122 95 64
416 410 278 132 19 44
272 298 308 127 97 67
266 308 293 126 93 64
347 608 207 104 29 40
430 422 275 137 14 37
266 313 293 124 92 62
377 763 307 53 40 33
267 313 298 124 95 64
270 308 304 124 96 65
291 754 246 72 57 52
269 313 303 124 96 65
290 530 186 161 7 43
265 318 294 122 92 60
266 896 339 84 71 61
350 835 227 84 71 64
231 683 303 139 98 68
327 848 249 136 109 82
282 758 351 139 101 78
247 858 298 147 51 78
268 318 303 126 97 68
390 563 170 154 109 78
271 313 308 129 100 70
323 258 297 118 93 62
270 316 305 127 97 69
285 687 241 43 33 35
271 318 308 131 101 72
255 883 324 163 116 102
274 293 312 127 98 67
255 563 243 74 20 31
275 293 314 128 99 68
278 293 317 128 100 69
274 303 312 130 101 71
437 824 313 87 67 51
275 298 314 128 98 70
312 898 228 77 68 65
278 303 317 130 99 72
281 293 319 132 101 72
281 298 319 134 100 74
248 634 257 171 116 89
281 303 319 133 100 74
229 530 216 147 112 91
273 313 312 132 103 75
337 403 284 55 47 39
217 541 183 222 150 125
276 308 314 130 101 73
276 313 315 131 102 75
422 448 279 54 28 34
278 313 317 132 102 75
278 318 317 130 99 73
281 308 319 131 100 74
292 258 285 109 90 69
291 257 286 111 91 70
297 263 282 101 85 66
297 268 280 98 83 69
395 492 336 47 29 32
367 883 278 76 65 61
293 269 280 104 86 67
327 943 268 71 66 68
259 905 345 38 31 33
295 710 231 72 24 40
297 273 278 97 82 66
253 554 211 123 45 49
301 519 171 170 0 32
296 266 281 101 85 69
307 453 352 35 27 27
302 258 283 100 84 67
302 263 281 100 84 68
302 268 280 98 84 70
419 428 313 151 4 46
302 603 214 132 26 45
255 760 276 73 60 53
347 832 383 63 50 42
302 273 278 99 86 72
291 941 346 70 66 65
376 841 336 50 42 37
476 749 208 101 81 63
299 265 280 94 82 71
258 553 328 87 26 39
302 265 280 98 84 70
431 778 268 68 52 43
322 903 229 79 66 64
260 347 277 126 97 65
283 394 259 69 58 47
456 830 371 96 84 75
392 578 202 127 90 76
245 945 335 62 57 56
297 280 275 93 78 61
264 434 336 86 27 34
362 883 229 80 67 55
297 277 276 95 80 63
292 288 272 100 82 62
241 617 284 122 90 64
364 554 350 76 32 40
377 588 173 159 100 67
297 283 274 88 75 61
251 528 323 45 30 34
297 288 272 91 78 64
302 283 275 96 81 66
246 622 290 116 80 59
393 613 214 156 109 88
332 528 169 161 12 39
319 270 256 94 78 61
287 383 330 128 99 72
385 842 239 103 79 66
319 274 256 93 76 60
311 258 285 98 82 64
312 263 284 95 80 64
281 462 355 102 20 37
306 269 280 101 87 72
307 273 279 101 86 71
308 267 281 101 86 69
297 368 329 129 100 67
427 756 289 58 46 36
313 273 282 93 79 64
314 262 286 92 78 63
328 383 294 88 70 49
317 263 288 95 77 58
393 538 184 156 110 94
315 265 285 93 78 63
291 738 241 75 50 47
315 269 285 94 77 59
316 273 284 93 77 60
317 283 257 91 76 61
390 593 213 70 48 46
313 288 257 89 74 59
394 604 232 172 20 49
317 288 259 90 75 59
230 553 223 154 111 81
385 596 301 180 12 59
307 278 277 98 85 71
311 278 279 92 78 65
238 798 299 153 113 77
305 280 275 99 84 68
306 284 275 97 82 66
307 283 276 96 82 68
307 288 274 93 80 66
417 543 233 159 16 36
312 288 277 91 78 64
287 308 322 132 97 74
287 453 353 54 31 32
314 278 281 91 77 63
318 596 205 184 6 40
315 278 284 93 77 60
316 283 283 94 76 58
315 285 280 90 76 61
399 830 335 46 39 34
317 288 283 97 78 58
232 598 263 134 102 71
367 868 338 46 38 34
319 288 288 110 86 59
319 289 313 136 98 70
268 946 255 86 79 81
319 279 320 151 109 84
417 508 273 116 23 42
263 353 269 116 90 60
229 690 301 146 101 72
276 928 241 78 69 66
318 283 319 148 107 82
309 944 334 57 53 55
292 290 270 102 83 61
352 423 357 74 17 25
323 827 244 179 130 108
292 295 265 94 77 61
255 559 262 96 30 43
297 292 268 94 79 63
279 885 343 39 36 35
297 291 271 94 80 64
391 837 248 107 79 61
297 294 265 94 78 62
255 537 185 89 32 42
378 844 216 214 134 106
297 298 263 92 77 62
297 303 262 92 76 59
394 830 347 56 45 36
297 938 347 59 54 52
266 348 267 112 88 60
302 294 269 93 78 63
353 836 224 66 56 57
303 292 271 94 79 64
301 298 264 91 77 63
322 393 273 60 50 40
303 297 267 91 77 63
322 393 278 60 50 40
332 293 261 112 87 61
296 807 346 57 46 39
292 307 261 86 71 55
293 309 260 89 73 55
298 307 261 89 74 56
372 814 368 79 66 54
471 759 272 90 67 50
297 313 260 85 69 51
326 581 346 36 27 31
289 314 260 79 64 47
421 798 367 88 73 61
297 318 260 81 67 51
258 768 273 75 62 58
299 320 261 84 68 49
304 314 256 85 69 53
332 373 293 74 57 40
308 298 257 82 69 57
308 303 257 82 69 56
311 302 260 80 66 53
306 298 269 90 77 64
308 297 271 90 78 65
307 303 268 88 75 62
326 378 279 78 61 45
323 818 238 196 144 121
403 717 268 79 62 47
312 298 273 89 76 64
243 568 298 94 20 37
333 378 278 71 54 39
345 847 347 38 34 34
309 301 271 88 76 65
312 303 272 86 75 63
316 292 260 88 73 57
223 541 180 199 128 102
397 528 208 66 32 35
318 294 261 88 72 56
314 299 261 83 69 55
267 448 342 126 12 40
240 890 315 176 131 116
315 296 260 85 71 56
292 963 323 76 71 71
393 618 268 46 29 32
317 298 262 86 71 55
317 303 264 85 69 53
311 293 274 90 78 66
390 518 164 163 114 87
313 292 276 90 78 65
319 293 282 100 80 58
319 291 286 107 85 59
317 298 278 92 75 57
319 298 281 100 80 59
232 823 323 207 140 111
304 309 256 84 70 54
307 313 258 82 67 52
306 308 264 87 73 57
392 628 258 46 28 33
312 308 263 80 65 49
268 898 371 55 50 48
312 313 263 78 63 47
308 308 267 86 72 58
442 733 219 96 79 67
400 684 214 135 97 66
308 313 267 83 69 54
424 480 300 36 30 33
311 313 269 81 67 51
260 363 304 121 94 66
307 318 259 78 63 47
405 739 200 122 93 61
307 318 263 81 66 49
342 859 329 31 30 31
282 748 349 80 29 36
308 318 267 80 66 49
349 910 286 77 68 67
311 318 269 79 64 47
302 438 346 73 19 28
275 970 283 90 86 88
313 308 272 84 71 57
315 312 265 80 64 46
318 308 266 84 68 50
263 473 346 135 10 40
319 305 266 88 71 53
298 895 370 60 53 50
367 608 188 105 56 50
317 313 267 80 63 45
323 479 372 49 28 30
395 598 207 151 107 85
337 352 270 106 79 58
364 673 215 51 39 40
313 318 272 80 65 47
317 308 278 93 74 52
317 313 278 89 70 47
254 546 248 86 20 36
318 313 282 102 80 54
287 876 329 77 65 54
319 311 287 109 86 58
329 903 349 48 42 40
297 268 335 144 104 78
316 318 274 77 60 40
359 894 308 59 53 51
387 703 191 136 96 58
316 318 278 85 67 44
431 781 232 79 61 52
318 318 283 100 78 52
272 961 322 64 61 62
333 835 374 78 63 51
321 813 238 168 124 101
319 320 286 107 84 57
319 293 303 129 93 70
319 298 303 123 94 66
319 303 304 122 92 65
340 896 245 69 61 59
312 298 318 139 100 75
427 828 323 88 69 54
292 738 348 118 24 42
317 293 313 133 97 71
316 293 317 145 106 82
307 599 345 98 38 47
232 523 215 97 73 62
314 289 320 152 107 81
386 415 342 49 37 29
422 778 238 88 64 53
318 298 308 116 88 58
316 298 313 128 98 69
252 588 238 142 87 72
311 508 370 61 27 33
315 755 216 80 65 56
318 303 308 120 91 59
316 303 313 131 100 71
327 353 288 97 75 52
248 553 302 63 21 31
315 298 316 139 105 79
319 308 304 122 91 64
372 873 229 102 84 68
309 309 320 140 100 73
308 313 319 140 100 73
317 308 308 124 93 64
318 348 277 87 65 45
217 533 203 162 113 88
315 313 312 129 96 70
314 305 315 140 103 77
262 898 338 99 84 72
377 758 306 44 33 29
314 309 315 139 101 75
385 643 238 136 28 50
314 313 314 134 97 73
237 540 226 98 74 55
412 822 298 56 47 43
317 318 308 122 91 62
287 263 328 126 97 68
355 704 321 58 28 32
282 268 323 127 97 67
352 743 204 126 17 33
265 343 303 125 98 69
259 399 316 124 98 70
267 549 211 56 38 36
282 273 323 126 97 68
284 268 326 128 98 68
287 268 328 130 99 70
284 272 326 128 100 70
283 368 259 80 65 47
421 414 308 132 23 43
283 278 323 129 98 69
284 548 204 114 16 34
285 278 325 135 100 74
288 278 327 140 102 77
287 288 324 142 103 79
283 293 321 136 102 76
242 573 218 195 127 101
246 573 308 97 20 39
437 748 273 63 50 39
411 543 268 113 21 41
284 298 321 136 101 76
411 414 258 110 10 39
422 418 308 127 19 42
284 303 321 134 99 75
287 974 288 59 56 57
272 936 351 73 66 63
287 298 323 137 100 79
287 303 323 134 99 76
284 308 321 132 99 75
354 672 315 73 28 36
287 313 322 131 98 73
307 413 338 75 17 25
387 410 313 60 37 34
435 423 296 45 28 31
284 318 321 131 100 73
383 428 349 139 16 45
457 766 223 105 82 64
350 594 191 54 37 40
289 258 331 123 96 68
295 258 335 131 98 71
249 670 276 136 94 70
296 264 335 136 99 74
289 266 331 129 98 70
402 568 283 102 34 44
292 268 332 136 100 74
290 273 330 139 102 75
274 611 245 91 34 39
297 263 336 138 100 75
302 263 337 148 106 79
299 266 336 144 104 77
302 266 336 151 107 81
293 277 331 147 105 81
292 283 329 149 105 82
295 280 330 150 104 82
415 753 214 129 92 70
366 554 162 168 11 41
302 278 331 157 109 82
302 288 327 155 103 81
452 816 289 75 58 45
258 908 363 57 51 50
299 281 331 157 111 85
275 820 286 74 63 59
302 283 329 156 105 81
303 280 330 156 106 81
312 264 334 153 103 77
320 258 295 111 88 61
228 663 278 181 125 96
255 841 299 152 113 91
312 268 333 153 104 79
323 373 282 87 71 61
279 920 360 52 47 45
314 260 335 152 104 75
319 264 330 153 109 85
319 274 324 152 109 85
316 267 331 154 106 84
317 423 342 100 9 31
314 270 330 152 104 81
247 713 278 79 49 45
313 274 329 153 104 81
312 258 337 151 104 75
332 843 377 52 42 36
379 835 206 234 145 115
311 262 336 153 104 77
437 769 243 96 70 52
352 872 237 71 59 56
316 257 336 151 104 77
312 278 328 155 104 82
227 753 313 159 109 77
264 802 285 79 63 56
307 277 331 157 107 80
246 534 228 59 24 30
310 276 331 153 103 80
306 287 326 153 103 79
262 608 253 78 32 34
307 283 328 154 102 81
365 602 316 150 28 53
313 283 324 156 106 80
343 428 386 134 18 44
309 766 235 74 60 54
272 558 217 89 30 38
322 283 259 93 76 57
309 285 325 155 105 81
308 289 324 152 104 80
392 807 363 63 50 39
314 280 325 155 104 83
227 753 318 161 110 79
233 823 328 198 134 109
287 433 347 67 30 34
317 278 323 153 107 84
316 282 322 155 107 84
288 617 234 101 29 42
315 286 321 157 107 84
227 541 179 214 141 116
292 293 325 147 106 84
380 410 331 53 41 33
354 697 320 118 27 47
364 575 335 181 12 56
297 292 326 156 109 87
233 573 248 133 104 73
297 294 325 151 108 84
423 830 298 71 54 46
358 713 320 62 28 31
292 298 324 143 105 83
388 768 311 59 44 35
297 303 323 141 104 78
247 568 293 101 17 37
367 673 303 142 9 44
301 291 326 153 103 79
302 298 324 140 101 73
302 303 323 137 100 73
292 313 322 133 100 74
297 313 322 141 105 79
249 613 301 102 13 37
461 805 270 77 61 47
302 308 322 142 104 77
418 719 244 79 57 43
302 313 322 142 104 77
405 506 326 49 24 28
420 472 285 110 26 40
234 913 311 181 139 115
302 318 321 140 102 76
405 419 336 60 30 32
452 823 323 77 59 42
399 629 209 156 112 80
311 292 321 147 104 79
427 829 303 93 73 58
412 798 296 53 43 35
344 934 298 60 52 49
307 298 322 137 100 72
310 763 232 74 60 54
310 297 321 141 101 74
252 661 310 138 102 76
309 303 320 135 97 70
292 333 257 78 65 52
306 313 321 141 103 75
424 792 361 87 74 64
389 733 285 98 3 33
305 317 321 139 102 74
264 323 269 112 86 55
394 638 188 167 118 85
263 323 273 120 90 58
428 739 258 76 57 45
262 328 273 122 92 60
263 333 269 117 89 59
463 749 209 96 74 58
266 328 267 106 84 57
266 333 267 109 86 58
335 482 380 129 10 38
262 328 278 123 90 61
263 323 283 125 93 62
265 347 304 124 98 69
263 323 288 124 93 62
261 338 273 123 91 62
403 563 288 104 33 45
276 609 242 91 31 42
263 343 270 118 89 60
420 753 297 50 41 33
261 348 273 125 96 63
261 353 273 122 94 62
277 828 292 43 36 38
271 338 262 100 81 57
272 343 262 100 80 56
266 343 267 110 86 58
269 339 265 107 85 58
272 348 262 102 80 55
265 352 267 113 89 61
259 693 268 99 17 30
260 338 278 124 94 64
436 823 326 94 75 60
261 343 288 117 92 62
259 348 278 123 96 65
338 448 378 146 16 47
258 353 278 120 93 63
329 889 360 53 49 48
259 345 283 119 93 62
250 598 313 160 4 49
277 328 262 87 71 52
348 830 384 62 50 42
379 845 241 102 81 70
259 348 288 118 93 64
258 353 283 119 93 64
347 778 318 73 55 45
352 527 372 186 11 59
257 353 288 119 94 64
277 332 262 90 73 54
410 548 263 178 15 54
274 383 265 89 72 52
228 758 308 156 110 74
277 334 259 88 72 54
283 328 259 84 68 49
247 648 263 172 116 90
366 653 213 88 59 48
281 328 262 83 67 48
475 820 275 89 70 55
285 322 261 80 66 50
229 533 216 154 116 95
281 332 262 87 69 49
307 393 263 62 54 48
277 503 358 148 16 47
408 598 253 92 30 40
274 338 260 94 76 56
277 343 262 90 73 53
277 348 264 93 75 52
254 553 258 39 27 31
255 710 331 146 111 81
272 968 293 70 65 66
282 338 259 81 65 46
407 739 307 67 52 39
303 748 233 69 56 52
360 365 261 119 94 67
282 343 262 83 67 47
361 363 258 117 94 66
284 343 260 81 64 43
285 348 257 81 65 45
382 409 308 63 50 42
305 388 260 57 48 42
264 323 293 122 91 60
264 328 293 123 94 63
390 443 341 146 14 46
265 322 295 123 92 62
365 876 263 52 47 50
265 323 298 124 94 64
265 328 298 123 95 64
267 328 303 127 99 68
264 333 297 121 94 64
382 414 343 60 50 41
321 783 228 84 66 58
268 333 307 129 101 71
277 882 335 85 68 54
357 628 212 90 25 38
270 333 309 129 102 74
416 836 309 85 66 58
352 823 212 194 147 116
272 333 313 131 103 75
259 350 291 117 92 63
260 347 289 118 93 64
256 553 243 115 4 35
260 352 294 119 94 66
237 560 206 201 132 100
262 348 298 118 94 66
248 956 288 72 67 67
261 353 298 120 95 66
263 353 303 124 98 68
264 338 297 120 94 64
231 738 297 173 116 87
264 345 301 122 96 68
239 546 273 173 1 50
268 338 308 128 102 73
320 825 390 67 54 41
307 778 346 74 59 49
268 343 308 125 99 71
386 503 337 161 15 51
349 836 230 80 64 61
265 351 305 124 98 70
266 353 308 125 99 71
244 522 303 103 26 41
314 945 330 59 55 57
269 345 311 127 101 73
413 473 258 59 29 34
271 348 314 127 102 75
442 738 278 57 42 33
268 353 312 128 101 72
395 596 276 180 12 53
271 353 315 128 101 73
249 546 264 134 3 39
278 323 316 130 100 73
278 328 317 129 100 73
275 333 315 130 101 75
282 323 319 131 100 73
281 392 330 124 98 71
264 660 281 94 60 47
275 338 315 129 101 74
244 933 278 59 55 56
277 338 317 128 100 73
261 478 344 59 24 31
277 343 318 125 99 72
276 874 331 82 68 54
274 348 316 125 100 74
277 348 318 125 98 72
281 338 320 127 97 71
357 412 338 62 50 41
258 363 274 115 91 62
372 798 187 137 103 63
259 368 270 111 88 61
328 913 343 53 48 46
262 368 267 111 87 61
302 383 263 70 61 53
264 365 265 114 90 61
268 357 264 111 86 59
385 668 244 58 31 34
266 358 267 114 89 60
264 367 265 112 87 59
272 368 263 102 82 57
321 313 288 111 87 60
258 358 278 118 92 61
318 833 250 151 120 95
256 358 288 119 93 63
254 956 275 81 75 75
262 373 269 112 87 59
260 374 271 113 89 61
265 891 364 50 46 46
345 892 250 74 64 64
260 378 271 114 89 61
351 508 377 151 6 47
263 378 269 111 87 59
260 383 271 113 88 61
335 400 291 53 45 36
321 333 298 115 90 63
263 383 269 108 84 58
335 294 261 116 91 64
268 373 265 108 85 57
322 861 348 34 30 31
267 383 268 104 83 57
374 870 324 71 57 49
410 548 268 103 24 39
271 383 267 94 76 55
334 423 363 133 14 43
238 913 323 168 128 107
258 378 274 114 90 61
337 893 343 49 43 42
243 533 288 133 10 42
277 368 263 92 74 54
368 798 189 142 107 68
281 359 262 86 69 49
266 388 319 126 99 71
281 363 263 85 69 51
458 797 356 87 76 67
292 713 233 114 26 41
280 367 261 84 69 53
416 793 292 59 49 40
327 872 318 32 30 33
286 363 257 79 62 41
368 874 271 71 62 61
285 368 257 77 61 42
302 403 258 68 48 40
237 768 344 170 125 94
317 903 227 83 69 65
277 373 262 88 72 54
234 726 290 168 113 80
362 826 311 36 32 30
277 383 264 81 67 52
360 753 202 131 86 60
297 378 258 68 57 46
450 728 218 90 70 54
283 378 260 77 62 47
281 378 261 79 65 49
282 383 262 75 62 48
403 583 236 147 15 40
287 383 259 73 59 44
257 358 293 119 93 63
343 526 165 102 10 33
402 453 335 150 11 46
259 358 298 119 94 64
429 460 291 100 22 33
260 357 299 120 95 66
283 633 249 128 24 43
261 585 246 168 13 44
259 360 301 119 93 64
347 564 350 170 18 57
258 368 303 122 95 66
307 563 354 146 24 52
264 354 306 124 98 70
263 358 307 123 98 69
397 742 303 43 34 27
262 363 308 122 96 67
267 358 313 127 100 72
230 799 306 163 118 82
287 972 308 61 58 59
317 598 207 186 7 42
244 675 276 146 104 77
253 758 278 74 55 53
266 738 335 84 24 34
390 693 253 46 34 34
265 362 310 124 97 69
369 870 230 105 86 69
264 365 311 125 98 69
387 718 288 90 17 35
266 368 314 125 99 70
270 362 315 127 100 72
269 365 316 125 98 70
269 369 316 125 98 71
258 753 344 150 109 80
259 373 307 123 97 67
370 866 263 62 55 59
287 668 248 109 18 34
263 373 312 125 98 67
258 378 307 124 96 67
367 838 368 58 49 45
260 378 309 124 97 68
262 383 313 125 98 69
276 970 293 70 65 66
268 373 317 125 98 70
271 373 319 126 100 72
265 377 315 126 100 71
271 378 319 126 100 72
307 593 347 100 30 43
276 358 319 126 99 71
267 966 288 71 67 67
266 857 314 133 103 79
275 362 320 127 99 71
292 328 257 74 62 49
297 328 259 77 63 45
296 333 259 78 64 48
299 328 261 79 64 46
302 323 258 81 64 48
318 323 287 106 83 57
302 328 258 81 66 51
462 763 218 105 85 70
338 323 265 122 92 66
309 890 240 55 53 55
261 603 324 99 23 41
303 333 257 81 65 48
377 823 312 37 33 32
320 922 240 78 67 65
302 333 264 79 64 48
296 338 259 78 65 52
411 543 273 76 29 37
292 353 257 77 63 47
415 493 277 147 15 44
297 348 258 81 65 50
256 697 273 95 19 35
302 338 257 80 64 47
349 482 377 66 25 32
372 829 353 62 51 42
302 338 264 78 64 49
317 841 391 73 58 48
302 343 258 79 62 46
269 894 260 129 106 84
240 611 280 121 92 65
357 814 383 82 64 46
302 343 263 79 65 51
299 348 262 82 67 53
337 844 246 154 120 92
299 353 261 79 65 52
301 348 259 79 62 46
291 822 341 47 39 34
302 353 263 80 65 50
305 328 260 81 66 49
348 903 318 46 40 38
307 328 263 79 64 48
312 323 264 79 63 47
308 323 267 78 64 47
412 548 234 158 15 36
313 328 267 79 61 45
328 796 225 79 63 58
312 328 272 74 57 38
305 333 260 80 65 48
430 457 290 130 21 40
435 441 291 59 31 32
304 333 266 80 64 48
310 333 265 79 62 47
312 333 267 79 62 47
309 333 271 77 60 41
312 333 272 76 58 39
408 411 258 110 9 37
317 328 269 78 60 44
316 328 274 69 52 36
229 708 313 152 105 76
316 323 274 74 57 37
242 523 233 99 15 36
316 328 283 99 76 52
316 333 278 80 59 39
318 333 287 103 80 55
422 828 344 82 65 48
308 338 262 80 64 48
304 338 266 78 63 47
321 293 288 112 89 63
307 343 268 80 63 46
310 338 265 80 63 48
415 414 265 127 12 45
267 918 249 89 74 61
309 338 271 79 61 44
402 728 278 48 38 29
312 338 272 79 60 42
311 343 264 79 62 46
312 343 272 81 62 43
307 348 263 79 62 46
270 662 320 60 27 34
304 346 266 82 66 51
307 348 268 81 64 46
217 518 207 144 106 86
312 348 272 83 63 43
292 949 339 69 63 61
312 353 272 84 63 44
382 844 253 82 61 53
397 663 208 140 98 67
315 338 270 80 60 44
315 348 270 80 61 43
315 352 270 77 59 40
390 476 341 155 9 49
411 538 298 55 27 36
253 549 231 113 1 35
432 733 258 73 56 46
317 353 273 80 61 42
430 718 274 98 73 53
318 338 278 81 60 41
352 533 368 191 11 61
318 336 283 91 69 47
319 336 286 98 76 55
258 797 290 62 52 51
319 333 304 119 92 62
391 623 179 152 107 69
307 323 319 131 97 69
307 328 319 127 95 66
322 948 268 74 68 71
313 323 314 128 95 68
310 328 316 127 95 67
307 333 319 122 95 65
276 773 262 84 64 55
377 488 348 131 18 46
310 333 316 122 95 64
432 773 268 65 49 40
316 328 308 122 92 65
315 328 311 124 93 66
419 418 314 149 17 47
415 527 298 119 25 46
315 333 311 121 94 63
267 788 353 176 126 98
319 338 304 118 93 63
311 338 316 119 93 64
312 348 318 115 91 63
313 353 319 116 92 65
356 633 312 140 22 48
315 338 312 116 91 63
320 294 284 105 84 59
317 338 308 116 92 64
315 668 226 130 4 32
318 348 309 117 92 63
247 608 243 176 117 91
316 348 313 115 91 62
319 353 310 116 91 62
442 809 269 93 67 61
244 914 331 160 123 103
317 353 313 115 91 63
314 347 315 116 91 61
315 350 316 115 91 63
327 409 323 62 52 43
315 353 316 116 92 65
382 664 186 174 122 87
292 358 257 78 62 45
334 421 366 127 18 40
326 472 370 48 28 29
297 358 258 78 61 45
292 363 257 75 61 45
293 368 257 77 61 43
414 763 217 146 101 77
297 368 258 75 59 45
301 358 259 77 58 43
307 788 242 75 57 55
302 358 263 76 61 46
299 363 261 76 60 47
307 862 358 36 32 32
403 538 313 92 25 40
299 368 261 73 59 48
417 411 293 91 45 43
350 773 206 137 102 63
302 363 263 74 59 47
402 763 308 62 47 35
254 878 265 149 118 86
301 368 259 74 56 43
297 373 258 72 57 45
292 383 258 69 57 45
297 383 259 68 59 50
299 373 261 70 59 50
302 373 263 69 58 48
428 824 322 81 63 45
299 378 261 70 60 52
301 378 258 66 52 40
244 635 296 122 95 66
332 588 202 165 13 41
302 378 263 69 59 51
302 383 258 61 49 39
324 492 376 182 16 57
307 358 264 77 59 42
387 793 312 49 40 35
308 358 268 77 61 46
287 913 243 62 57 58
336 582 341 111 24 44
306 363 264 75 59 44
437 816 278 96 81 69
312 363 269 77 63 49
347 373 272 108 86 62
312 368 268 76 62 49
490 819 276 88 68 51
365 568 338 126 26 48
316 363 274 85 67 52
317 368 274 85 68 55
318 358 276 91 68 51
318 363 276 92 72 57
332 848 363 47 39 34
318 368 276 91 73 60
257 688 273 88 38 35
307 373 267 72 60 51
312 373 268 74 61 51
317 803 337 58 47 39
313 373 272 79 66 58
307 383 263 64 53 45
387 408 273 72 60 52
308 378 267 70 61 54
307 383 267 69 61 56
277 857 319 107 85 63
249 556 275 143 5 43
312 378 268 70 59 52
297 893 372 54 48 45
310 384 265 63 54 47
312 383 268 66 57 51
337 417 368 105 18 36
229 683 289 166 113 84
236 808 340 171 121 96
317 373 273 82 67 55
248 589 232 170 107 88
313 378 272 74 64 57
239 951 318 75 68 68
315 378 270 71 59 51
315 383 270 67 56 48
209 527 196 165 114 92
318 373 276 87 71 61
312 393 268 63 56 50
319 356 310 115 91 61
318 358 313 115 91 63
393 624 253 84 35 42
252 758 349 159 119 89
316 358 317 116 92 64
253 747 345 158 119 88
351 573 182 173 4 39
314 362 320 117 92 62
318 407 329 110 87 62
317 363 318 116 91 62
319 362 315 113 89 60
318 368 319 117 92 63
362 483 363 68 25 30
318 373 319 117 92 62
284 328 321 131 100 73
264 923 250 70 64 65
361 877 253 67 57 57
287 328 322 131 100 72
283 334 321 131 101 73
380 628 288 170 7 54
287 333 323 131 100 72
279 353 321 128 100 71
287 338 323 131 100 72
287 423 344 76 27 35
287 343 324 129 99 71
432 774 230 80 60 53
287 348 324 129 100 72
287 353 325 129 99 71
248 918 348 46 43 44
247 753 347 159 118 89
273 698 244 77 29 34
293 548 189 167 5 42
273 378 322 127 101 73
430 821 274 88 66 60
302 538 179 144 20 42
278 358 321 128 99 71
327 569 350 191 11 61
278 593 342 165 19 53
274 369 321 126 100 72
275 366 320 128 100 73
327 658 221 128 6 30
278 363 322 128 99 72
281 368 325 128 100 73
239 640 296 133 102 72
287 363 327 127 99 71
287 368 328 129 100 71
277 373 324 127 99 72
258 408 268 79 69 59
377 407 278 68 60 51
422 538 244 94 9 32
276 383 325 125 99 72
457 758 283 92 71 52
366 688 203 105 83 58
279 379 326 127 100 72
287 373 328 129 99 72
307 738 346 109 25 42
287 378 329 129 100 72
295 555 191 173 6 36
297 323 322 134 101 72
375 536 336 177 16 57
341 433 384 88 22 36
297 328 322 128 98 68
292 338 323 130 101 71
392 653 193 162 112 80
297 338 323 127 98 66
297 352 325 129 101 69
357 683 215 49 36 38
302 338 322 125 96 64
302 343 323 125 97 64
379 875 303 71 60 55
302 348 324 127 99 64
327 293 262 104 83 59
304 323 320 134 101 72
294 446 350 64 24 27
451 794 357 85 74 66
306 343 321 120 94 62
307 348 322 121 94 62
299 796 255 179 123 99
307 353 323 121 95 64
267 873 332 114 87 68
297 354 326 129 101 70
254 632 301 118 38 42
370 567 326 178 10 55
297 358 327 128 101 70
237 589 262 120 94 66
406 573 258 65 32 38
292 363 328 128 100 72
329 258 313 131 99 70
272 823 342 138 96 73
292 368 328 131 102 74
303 357 325 126 99 67
302 368 328 127 100 67
330 891 357 47 44 44
292 378 330 132 102 73
460 750 216 99 79 63
290 382 330 128 99 71
298 930 242 86 77 78
297 380 331 133 102 72
297 383 331 131 101 72
300 380 331 131 101 71
302 383 331 129 99 70
408 448 263 52 24 32
292 404 336 100 77 57
307 358 324 121 95 65
320 302 284 107 85 59
305 360 326 123 97 64
362 818 393 81 63 47
311 358 322 118 92 62
306 363 326 125 97 62
256 528 333 130 19 46
238 728 336 148 109 82
312 368 323 120 94 61
315 365 321 117 91 62
307 373 328 126 98 64
375 426 356 39 26 26
284 971 311 60 56 56
233 748 338 163 117 89
313 373 324 120 93 61
367 668 303 143 9 45
357 428 360 89 7 29
312 383 327 121 94 63
402 739 303 40 31 26
404 578 263 39 28 33
316 373 322 118 92 60
314 378 325 120 94 65
480 820 292 102 81 61
361 887 274 73 63 61
362 718 317 84 21 35
257 568 323 160 5 50
296 508 365 166 18 53
314 381 325 118 93 63
437 748 243 88 65 51
323 258 256 94 77 59
419 438 310 148 1 46
327 258 257 95 78 59
307 969 308 65 63 65
395 816 205 185 127 101
327 263 258 95 77 56
244 786 295 142 105 70
322 268 257 92 76 59
266 423 334 45 30 30
322 273 257 92 75 57
314 965 281 91 86 88
327 268 259 95 77 55
332 258 258 99 79 56
387 573 312 165 18 54
332 263 258 101 80 56
388 854 331 89 77 70
337 263 258 106 83 56
428 468 298 82 32 38
337 268 258 108 84 58
324 393 313 110 87 59
414 523 248 44 27 31
337 273 258 112 86 60
258 773 278 71 59 55
279 399 331 120 95 67
327 278 259 99 79 56
327 287 260 103 82 58
332 278 259 108 83 57
337 278 258 117 88 61
357 411 330 60 50 42
332 283 259 111 86 59
332 288 260 112 88 61
337 283 258 120 91 64
342 258 258 113 86 59
229 556 224 149 108 78
347 583 339 202 6 64
346 263 256 123 93 67
345 271 256 128 96 69
341 278 256 125 91 67
337 593 337 149 24 55
370 653 198 158 113 92
230 665 276 189 131 99
340 283 256 127 94 68
321 263 294 110 87 59
346 758 327 147 12 46
323 263 297 122 94 62
327 258 303 132 102 70
400 654 216 140 99 71
325 263 299 128 101 69
321 268 293 113 89 60
324 268 296 123 95 65
325 268 299 130 100 70
343 342 265 117 90 62
307 488 367 96 13 32
364 713 315 117 22 44
326 268 303 134 101 72
324 273 297 129 98 69
325 272 299 132 100 71
325 272 303 133 99 71
241 708 282 149 102 72
327 263 308 135 101 71
326 268 313 137 102 73
325 272 308 136 101 72
323 273 318 143 102 75
407 713 228 88 54 44
249 560 216 156 100 83
325 267 318 139 101 73
325 271 316 141 102 74
347 463 383 145 15 46
330 256 308 133 103 69
295 590 211 180 7 43
330 256 312 130 100 69
207 518 188 130 96 73
320 278 290 110 87 60
323 278 298 130 97 69
323 278 303 134 98 70
278 548 351 151 20 52
320 282 290 113 89 64
321 283 293 122 95 68
287 458 355 47 28 30
321 288 293 123 96 69
343 913 268 68 60 60
320 289 289 115 90 64
