ply
format ascii 1.0
comment Created by Open3D
element vertex 2232
property double x
property double y
property double z
property uchar red
property uchar green
property uchar blue
end_header
443 522 358 176 21 62
440 517 370 147 37 56
283 855 344 119 90 67
444 545 323 122 37 51
446 548 322 131 19 45
391 583 261 100 29 42
386 581 264 83 21 34
390 580 267 75 28 34
391 579 271 66 24 32
397 579 259 57 33 34
366 849 301 42 37 33
394 581 258 50 36 34
396 583 266 68 27 32
393 581 269 53 24 30
396 580 272 97 27 39
401 582 266 68 28 34
386 576 281 61 26 31
386 578 286 77 24 36
396 578 276 76 22 34
396 577 281 89 25 38
260 897 275 103 75 60
403 797 173 92 76 64
401 578 276 93 25 39
404 577 263 57 36 40
406 578 266 64 31 32
406 581 268 88 29 30
409 576 264 36 29 37
411 583 271 116 29 36
416 587 261 123 68 33
413 590 261 122 70 57
413 590 264 121 70 63
385 584 329 56 26 30
416 588 266 116 64 50
416 578 276 104 31 40
460 560 274 143 7 27
451 560 274 127 14 44
451 528 286 76 10 29
410 585 276 82 26 33
468 557 279 83 7 28
416 583 275 153 27 27
411 583 286 73 23 31
416 586 276 113 37 36
416 585 282 84 22 33
417 586 280 106 31 36
414 600 263 170 115 107
413 606 259 185 125 113
386 580 290 100 24 43
386 581 292 80 24 35
396 580 290 105 26 38
400 580 289 113 24 36
401 581 291 115 21 39
386 587 306 134 19 43
386 592 312 115 21 39
390 590 309 126 16 43
396 578 321 87 22 36
401 578 320 91 20 33
399 590 304 128 17 37
401 593 305 110 14 35
393 596 313 114 13 26
395 600 315 58 25 33
401 603 316 55 30 35
401 604 321 73 33 38
402 591 303 126 16 43
406 588 302 126 15 39
406 591 303 118 16 40
319 794 204 78 61 54
411 584 296 115 17 38
276 918 251 89 79 76
416 584 291 84 23 34
411 588 302 126 12 39
464 530 274 96 19 28
415 585 299 117 12 38
405 579 319 50 26 29
331 842 197 81 66 60
406 583 321 51 26 30
412 582 318 91 21 37
417 577 313 88 20 35
356 829 191 96 73 56
416 579 315 72 22 33
412 590 304 115 5 34
415 585 319 70 21 33
406 598 306 51 29 33
407 602 307 87 24 35
406 604 316 67 30 33
416 598 305 89 20 29
411 602 306 74 25 33
411 603 311 55 33 35
486 583 311 72 30 37
416 602 306 81 27 37
411 604 316 77 30 39
484 581 314 95 34 34
416 603 321 147 29 54
421 584 261 124 64 26
317 843 207 68 60 61
421 583 271 114 45 30
423 580 272 107 38 35
421 585 258 120 71 25
419 586 259 121 70 19
300 792 304 96 75 63
418 585 266 121 60 37
417 588 270 108 60 53
417 593 269 127 84 79
426 585 257 118 76 31
431 581 260 118 71 28
428 580 263 120 59 18
391 839 286 39 34 31
432 580 262 118 63 28
407 860 328 79 61 46
378 865 322 66 51 43
426 578 266 113 51 25
425 578 271 92 35 31
431 578 266 117 57 21
496 558 316 85 22 30
478 573 263 134 95 67
424 593 272 136 93 85
421 578 276 104 30 34
420 582 275 125 31 28
420 585 282 122 26 47
422 586 286 118 27 42
424 577 275 78 34 37
426 588 276 103 61 61
427 586 282 92 36 40
424 590 273 116 78 72
427 593 275 132 91 84
430 589 277 116 77 73
264 785 234 76 60 55
431 588 281 104 65 63
431 588 286 91 46 48
420 599 268 165 113 102
418 596 269 145 99 91
421 607 261 199 130 107
345 783 180 64 52 47
425 599 272 174 119 107
430 606 261 194 126 101
432 605 261 193 125 100
426 604 266 197 131 109
431 604 266 199 130 105
431 600 273 190 129 110
312 944 338 59 54 53
436 577 265 117 60 23
438 588 259 129 93 59
443 583 264 140 96 65
443 588 264 130 87 55
443 594 264 145 96 67
447 588 270 142 95 63
445 593 267 148 98 68
435 590 286 104 63 62
440 597 262 157 104 76
435 602 261 194 130 106
441 598 266 190 126 101
439 601 267 196 128 105
437 600 272 202 132 110
444 596 267 180 117 93
436 598 276 188 129 111
439 595 278 171 123 111
448 595 275 204 130 103
443 596 284 173 122 107
446 595 286 163 111 100
446 596 284 182 129 110
420 585 291 91 24 37
421 587 296 94 21 36
421 589 300 97 14 37
417 592 303 111 6 36
421 593 302 71 22 30
296 962 316 59 54 53
368 800 248 113 88 72
426 589 296 62 25 33
431 589 291 89 30 38
264 795 239 77 60 55
431 591 296 60 22 31
425 590 299 62 25 37
421 578 312 82 17 32
420 580 314 99 20 38
421 583 316 77 23 34
418 586 318 70 37 41
421 589 320 59 26 33
426 582 312 64 25 31
428 576 308 31 29 27
426 588 317 60 26 31
311 788 297 136 96 77
427 591 318 44 26 29
431 588 315 40 28 31
431 593 317 61 24 31
431 594 299 50 26 31
427 601 303 54 28 34
398 844 255 76 64 55
431 602 302 48 29 34
421 602 306 101 25 36
421 603 311 116 29 42
426 598 320 62 27 34
426 602 306 105 25 42
456 578 302 111 6 35
426 602 316 73 33 38
436 592 296 77 21 36
392 818 206 85 69 61
442 577 303 57 23 27
434 580 309 39 26 31
441 578 305 43 27 30
440 584 309 47 29 30
432 586 313 34 27 30
477 542 266 107 6 32
436 593 316 99 22 39
441 594 315 139 20 45
445 579 304 56 22 28
447 587 308 86 28 39
442 592 313 111 16 37
441 594 291 66 43 41
440 594 296 77 26 36
438 596 298 88 24 42
444 595 289 88 59 54
446 598 296 108 24 37
404 531 393 105 9 32
336 878 360 52 45 41
446 600 299 116 25 36
436 603 306 63 31 36
339 902 257 84 74 73
441 602 311 54 33 35
440 601 315 65 30 34
444 595 314 135 16 46
445 598 314 50 26 32
446 603 306 62 30 32
387 582 328 74 25 34
410 795 170 94 72 59
392 577 323 59 25 29
390 579 324 81 21 32
387 592 333 106 18 38
496 552 261 135 22 40
385 594 334 85 21 34
283 841 248 181 124 99
401 582 322 49 26 30
395 590 329 118 14 39
402 592 328 75 25 36
389 595 334 125 24 44
390 598 334 55 27 32
272 797 233 78 62 56
392 598 333 48 27 30
388 601 323 81 24 36
385 600 324 55 25 43
410 786 134 104 87 70
386 602 326 98 30 43
396 598 332 83 29 37
396 602 330 113 37 50
400 601 330 154 28 55
407 587 323 86 26 36
406 589 325 92 23 37
411 588 322 70 24 35
413 591 323 40 29 29
416 592 322 94 27 38
404 595 329 65 29 37
407 598 328 83 27 38
366 863 236 77 65 61
411 598 326 62 28 33
416 598 325 129 26 48
418 599 323 166 28 60
450 515 260 98 4 34
448 516 263 103 0 40
451 519 271 100 8 35
456 518 266 98 9 32
456 523 260 51 33 34
453 527 259 59 25 28
461 519 265 89 3 33
461 523 259 58 31 34
461 527 258 75 29 36
451 573 272 116 73 42
461 528 261 74 23 32
461 523 271 92 9 29
462 526 272 99 5 33
456 524 275 86 10 29
452 526 282 80 8 29
457 527 277 86 10 28
286 823 296 139 101 79
460 525 274 93 12 30
390 862 281 72 61 58
461 528 276 91 8 30
461 829 216 105 80 57
463 532 264 87 23 34
455 530 285 76 13 28
463 532 277 90 18 34
460 534 286 83 40 37
463 536 282 86 47 40
462 536 286 84 45 38
465 523 261 88 20 35
466 528 261 54 30 35
337 860 320 33 31 30
467 527 258 51 28 37
471 524 259 80 27 36
296 921 248 98 89 89
471 528 261 67 29 35
338 915 333 46 41 39
467 527 267 96 7 30
464 525 269 107 15 34
465 528 271 102 3 35
477 524 260 120 38 55
479 525 260 129 13 41
476 559 327 199 7 64
480 526 260 135 13 40
351 788 266 70 55 49
466 534 261 68 21 29
471 533 262 52 29 33
466 533 264 67 24 32
467 533 271 94 10 28
469 534 269 100 2 30
467 537 261 86 14 26
471 538 262 77 18 30
472 542 260 86 12 28
468 536 264 69 24 35
471 543 271 92 4 29
480 533 260 128 13 37
463 830 236 107 87 76
478 533 258 127 13 39
475 544 262 90 13 28
478 538 258 124 13 44
480 543 261 113 18 39
476 538 265 121 11 33
481 538 267 126 11 36
465 533 276 90 24 35
465 538 281 85 48 40
469 545 281 74 43 33
456 533 291 80 31 35
451 533 301 81 32 36
459 535 294 88 46 43
462 537 291 85 44 40
458 536 298 91 50 47
458 536 301 93 49 47
461 537 301 97 53 50
451 535 311 77 20 32
460 535 312 92 40 45
461 534 316 90 40 44
458 536 306 92 39 44
461 536 311 99 48 50
466 534 321 86 38 40
472 542 311 111 63 59
471 539 316 109 63 61
474 540 317 107 64 58
476 539 321 93 52 47
480 544 316 90 47 40
481 543 321 83 37 31
450 555 261 173 12 49
461 558 261 98 26 38
452 556 261 173 8 46
456 557 261 141 32 52
451 558 271 158 5 39
346 813 175 73 59 53
460 560 271 156 10 38
456 559 271 160 6 35
401 521 391 69 19 25
383 860 322 67 54 45
462 561 271 145 11 38
456 573 272 131 89 60
451 562 277 42 31 34
451 566 279 57 31 32
452 565 279 43 25 35
456 563 277 54 27 30
454 564 279 45 30 32
456 568 276 93 45 33
381 802 161 91 71 59
461 563 276 93 22 32
466 559 261 121 26 44
471 560 260 83 33 38
466 559 265 122 23 43
470 556 268 86 19 30
477 547 260 85 10 31
476 547 272 99 0 30
472 548 276 78 32 31
471 553 276 80 13 27
471 558 276 83 9 29
476 549 274 89 0 32
402 840 255 69 56 46
476 553 275 82 3 28
473 552 285 74 30 30
475 553 286 77 22 30
481 558 276 78 10 25
474 554 283 78 12 28
322 930 264 72 65 66
474 558 282 77 17 28
480 559 288 73 13 28
472 561 262 82 34 40
466 561 266 90 20 32
471 573 267 143 98 73
468 573 268 146 102 76
411 863 307 90 68 48
476 561 262 50 35 39
481 562 262 46 35 37
394 846 275 56 44 36
474 565 269 61 25 26
481 568 263 116 86 61
298 870 228 58 54 57
484 854 230 94 76 62
478 570 263 125 86 55
476 573 264 133 90 65
352 823 242 28 26 26
465 564 274 84 26 29
481 562 278 69 17 24
478 561 284 70 24 27
461 558 321 179 19 57
451 558 319 179 20 59
450 559 318 126 23 46
450 569 312 151 19 50
452 571 310 152 19 51
455 575 306 132 14 41
456 573 311 166 21 55
296 923 251 97 88 87
461 568 317 83 22 35
461 573 315 158 20 52
473 546 296 99 34 40
474 550 288 77 29 30
477 552 295 91 25 34
481 553 301 111 30 39
479 550 302 109 37 45
479 555 292 79 20 29
480 554 296 90 25 32
478 556 290 76 20 28
481 558 291 73 19 26
275 819 240 96 81 75
477 547 306 111 47 50
480 549 306 106 43 46
481 548 311 100 41 42
479 545 313 98 51 46
466 563 321 102 26 42
466 573 316 131 24 49
476 573 320 119 26 46
482 574 318 97 27 41
484 542 269 125 11 37
401 814 176 112 92 79
490 544 261 128 14 42
494 540 258 119 10 40
490 541 266 138 13 45
483 552 260 86 19 28
485 553 261 87 17 31
484 548 266 126 14 38
491 548 260 130 16 43
496 549 260 133 20 41
491 550 264 131 13 39
491 558 261 82 15 30
394 821 213 78 65 60
496 558 261 89 30 31
355 841 202 117 89 66
482 551 273 109 0 33
486 554 274 118 3 35
486 563 261 87 50 42
496 562 259 100 78 53
496 569 261 154 87 84
496 563 271 137 10 44
491 574 264 85 47 38
496 573 264 63 34 30
486 562 278 102 3 31
486 564 281 83 9 25
487 566 283 86 17 27
487 566 286 79 13 25
491 563 276 131 7 42
497 566 273 136 11 43
338 899 250 77 68 68
496 568 276 129 11 40
494 570 281 121 10 37
496 571 278 115 7 34
496 572 281 118 11 37
494 570 284 98 0 31
496 573 286 109 10 36
499 549 260 105 28 40
499 554 262 80 26 38
501 558 261 67 46 38
499 558 269 127 12 41
505 560 262 84 70 49
505 559 266 96 65 50
501 563 260 155 115 92
499 564 258 156 118 92
502 567 271 118 12 37
498 570 264 71 29 37
503 571 269 40 24 24
505 563 262 158 114 96
504 566 263 193 124 118
505 563 269 119 40 52
506 573 271 77 58 46
505 575 267 108 90 72
501 569 275 116 9 37
501 573 281 91 30 37
500 575 286 112 21 40
509 575 274 125 102 74
485 559 296 77 32 30
483 556 299 95 31 35
486 558 301 90 30 34
482 552 305 103 38 43
486 553 306 91 27 29
485 550 312 93 31 31
482 546 315 91 38 35
486 548 316 81 26 26
489 550 321 66 31 21
448 581 303 116 9 43
264 831 318 171 126 109
489 555 308 88 22 32
492 557 311 86 20 26
495 559 311 75 24 24
494 555 320 112 23 33
483 561 290 68 23 25
492 567 295 70 32 25
391 849 246 86 74 69
491 562 301 87 30 26
494 564 302 88 17 25
496 569 296 86 42 37
496 572 291 92 9 33
494 570 292 73 20 28
481 568 321 142 19 49
486 573 316 131 30 49
494 560 308 85 18 20
406 782 141 90 73 60
495 563 306 85 23 28
497 563 317 145 25 51
496 568 316 72 31 39
492 574 313 90 29 40
496 571 314 49 32 34
496 574 312 66 33 35
358 870 235 78 66 62
501 572 301 74 14 25
336 823 256 115 90 74
504 575 298 82 13 24
499 564 312 63 29 25
500 568 311 62 30 30
501 573 311 80 34 40
451 526 336 108 25 41
456 528 331 100 21 38
451 525 341 124 26 46
451 522 351 148 27 55
451 528 346 118 23 43
456 524 346 138 26 50
456 522 351 156 26 56
460 525 343 136 27 49
461 524 351 159 23 55
451 539 332 83 28 36
451 542 330 98 25 39
359 881 253 70 61 59
456 538 336 90 25 37
454 540 333 77 21 36
457 542 335 68 23 33
461 543 336 82 28 39
450 534 337 51 26 34
453 531 344 63 17 29
455 530 347 90 20 36
323 935 269 84 77 77
457 532 345 103 24 40
460 535 343 116 19 42
461 529 352 143 20 51
458 531 349 68 30 29
386 784 146 117 87 69
462 531 349 161 23 54
461 537 341 119 23 45
460 539 338 134 23 49
463 541 339 128 30 49
466 529 336 106 21 37
466 527 341 122 24 44
464 525 347 153 24 55
466 532 326 79 25 31
264 840 269 191 126 97
464 530 328 81 21 32
464 839 265 97 78 60
469 535 322 90 45 46
284 886 234 72 65 66
412 791 123 98 78 61
471 534 326 77 31 34
470 530 337 100 23 35
472 536 325 83 41 41
474 535 328 73 25 30
414 782 129 99 82 67
475 535 331 74 20 29
475 534 336 73 22 29
476 537 326 74 34 30
477 537 331 70 19 27
481 539 331 75 12 24
478 536 335 82 19 31
406 848 296 74 58 52
473 531 340 99 29 39
470 529 346 139 25 49
415 773 146 92 76 64
469 530 349 175 25 58
469 531 349 189 23 62
471 539 342 51 31 32
471 537 344 54 30 35
475 534 341 61 25 30
476 538 341 114 25 46
476 542 340 175 25 60
474 536 344 55 31 37
450 520 357 175 27 64
450 521 359 174 25 60
456 523 356 173 24 59
452 526 354 175 22 59
450 549 323 173 22 54
454 545 328 140 21 51
461 553 326 180 18 58
458 546 329 91 22 34
460 545 332 34 28 30
461 548 331 68 23 35
459 555 323 182 17 59
466 552 330 176 19 58
471 553 331 184 16 60
465 554 327 182 17 59
465 560 322 165 21 55
466 557 325 179 18 59
476 550 333 192 16 66
481 547 334 179 19 59
481 549 332 182 20 59
481 558 327 193 8 60
480 556 329 196 8 64
470 564 323 76 27 37
468 561 324 163 24 60
364 859 220 83 70 62
471 562 325 138 16 48
482 542 326 72 29 25
485 543 331 103 17 37
484 543 334 163 17 54
485 545 322 67 29 23
486 548 331 177 18 58
487 559 323 186 19 62
486 558 325 186 17 60
483 555 328 185 14 59
489 549 326 118 16 37
456 588 271 162 107 76
448 583 269 144 97 64
451 583 271 126 84 52
456 583 271 125 82 48
451 588 271 144 96 64
461 578 271 117 77 48
461 583 270 129 86 51
300 885 224 80 69 69
461 592 272 178 117 85
282 826 316 78 63 47
450 592 273 171 110 81
500 609 275 162 25 43
451 594 276 199 127 99
456 593 276 197 127 97
456 595 281 200 137 116
448 595 283 187 127 107
451 595 286 188 128 115
455 595 286 187 130 113
461 594 275 174 110 80
459 595 280 217 156 135
461 597 281 201 141 122
462 596 278 198 132 108
461 597 286 180 124 106
466 578 269 119 81 50
466 583 269 129 86 54
471 583 267 127 86 57
466 588 270 144 94 61
469 588 269 142 93 65
471 593 270 156 101 73
333 794 192 56 48 46
481 578 263 132 95 66
481 593 266 152 102 76
471 597 272 171 112 86
478 596 268 147 99 70
340 861 327 34 32 32
466 597 276 189 122 100
421 818 232 92 73 59
466 599 281 192 134 115
468 596 273 170 109 84
471 599 275 185 122 101
466 599 286 181 126 109
472 601 277 201 138 122
474 600 274 184 122 101
481 604 276 217 149 137
476 603 286 179 130 110
415 868 306 88 70 57
481 604 286 171 120 104
451 578 302 117 7 35
452 581 303 125 11 38
461 585 303 106 0 34
420 829 300 52 42 34
451 584 305 123 12 39
456 584 304 118 6 38
456 588 306 135 12 42
458 577 306 119 8 36
461 582 305 96 4 31
461 593 306 136 15 43
451 597 291 101 32 42
451 599 296 146 28 42
456 596 292 158 71 70
451 600 299 137 23 37
451 602 302 150 37 47
311 773 301 73 55 46
316 848 306 129 102 79
456 602 301 143 33 49
331 848 271 39 34 33
461 599 295 73 18 31
451 603 306 73 32 41
456 603 306 71 30 39
455 601 309 59 30 34
462 598 308 150 22 49
464 585 303 102 0 34
316 818 291 149 112 88
465 588 303 104 3 34
466 578 314 125 21 44
465 579 313 102 11 37
366 849 296 42 37 35
471 578 316 143 23 50
471 584 312 127 23 48
480 582 314 47 29 30
381 859 336 70 56 49
476 588 311 52 28 33
326 873 210 113 88 72
472 602 291 154 91 85
468 601 293 40 17 28
476 603 296 131 72 77
481 603 296 86 40 48
471 598 305 116 21 41
471 601 304 115 23 44
486 578 263 121 89 60
487 577 264 109 85 55
486 588 264 136 94 65
486 593 266 167 114 89
491 582 263 166 115 92
496 583 262 176 121 104
496 585 264 153 97 83
411 825 251 73 58 46
496 588 264 127 89 60
486 598 267 139 93 64
486 602 268 185 120 105
491 598 267 124 88 58
496 605 270 223 154 143
496 606 272 202 84 85
486 605 276 208 139 132
371 843 256 36 32 29
486 605 281 160 97 93
282 961 306 79 76 79
486 605 286 173 116 104
491 606 276 174 101 92
492 606 273 206 126 122
488 606 280 166 102 95
491 606 281 162 96 89
496 608 281 164 105 101
489 605 284 177 121 107
488 606 288 157 100 93
495 609 286 148 93 89
401 783 146 90 74 60
501 583 262 183 123 110
502 576 264 114 88 62
507 577 265 135 107 82
511 583 271 149 111 89
506 586 263 125 73 54
506 588 264 133 93 68
510 593 267 180 126 113
503 576 283 151 129 110
351 851 276 33 30 29
506 578 281 166 133 121
272 951 329 55 50 49
508 576 278 128 96 75
511 583 276 128 89 71
507 582 282 88 55 44
505 583 286 105 63 57
316 863 322 101 80 60
507 593 286 94 55 54
509 588 284 154 103 94
299 805 219 83 65 58
501 603 266 184 118 105
499 605 269 236 162 154
501 607 271 195 65 69
506 603 266 197 129 117
508 605 270 213 132 127
512 593 276 167 113 100
508 596 286 155 119 110
510 603 281 106 41 50
507 609 275 138 20 40
511 608 281 71 25 32
512 603 286 74 23 32
487 579 313 109 27 44
486 593 307 59 28 34
491 582 310 116 28 46
489 576 314 102 21 40
491 588 307 110 31 46
489 586 309 81 23 33
495 591 304 74 27 35
436 838 266 105 85 67
486 604 296 73 34 42
488 606 296 116 39 56
486 600 303 80 29 34
496 593 302 104 29 42
496 598 301 157 25 55
491 603 301 144 24 52
497 604 298 105 28 45
490 597 304 72 30 34
376 827 191 100 77 60
502 578 291 105 18 36
503 577 295 102 26 34
498 590 303 66 28 33
506 583 296 98 35 42
506 578 301 71 21 29
506 588 291 117 63 62
508 591 294 81 19 33
509 585 300 76 17 25
509 588 300 82 22 30
498 580 308 179 26 61
356 853 281 35 31 31
501 583 306 167 28 59
501 597 299 151 24 53
501 608 295 71 25 33
511 598 291 82 32 36
506 598 298 90 25 38
506 603 296 96 25 39
506 608 295 129 25 47
499 610 280 142 100 97
501 613 281 117 50 54
498 611 283 133 77 80
501 614 286 171 20 57
506 612 277 190 20 49
506 615 286 158 19 53
511 613 286 152 23 50
508 616 285 188 21 60
496 611 294 98 15 41
501 613 291 185 22 63
506 610 293 143 21 50
508 611 294 46 27 29
391 523 391 69 23 24
386 524 396 72 16 27
414 838 232 98 82 74
386 525 401 78 16 31
391 524 401 74 14 26
396 521 386 76 20 29
387 809 238 57 43 37
291 827 306 92 72 49
396 522 391 67 21 23
396 523 396 64 25 22
401 522 396 71 16 25
391 526 407 81 4 29
391 527 411 76 11 25
401 526 408 49 29 26
396 528 411 65 19 27
466 840 198 93 74 56
401 528 411 85 20 28
391 531 387 179 20 61
392 535 394 170 23 56
386 536 393 162 20 38
388 540 399 175 22 51
391 537 396 180 20 51
395 531 388 145 16 49
401 533 396 169 23 58
398 535 400 196 20 60
401 534 401 195 19 61
396 537 401 189 20 58
360 798 255 70 54 47
410 797 171 94 73 60
387 535 413 180 19 60
391 529 414 75 20 27
392 534 412 188 20 62
386 542 406 173 21 57
266 798 321 54 46 42
396 533 411 184 19 62
394 530 414 79 9 25
394 531 414 119 34 54
331 913 261 73 65 66
401 532 410 166 26 60
350 862 208 92 78 71
395 536 409 199 12 65
406 523 386 71 22 29
405 521 396 73 19 25
408 520 392 76 21 26
406 522 401 73 19 26
407 520 399 76 18 28
411 523 386 93 18 35
412 520 387 81 15 28
411 520 391 78 23 28
412 524 390 157 20 50
410 526 387 106 14 44
406 529 391 122 14 45
411 520 396 74 22 24
411 523 401 75 16 24
337 890 236 77 70 71
413 521 397 73 17 20
414 524 400 96 15 31
414 526 393 181 20 54
461 853 267 95 78 67
450 852 266 96 82 69
415 528 400 175 20 58
407 528 407 96 22 32
346 838 256 29 27 27
409 525 404 79 10 28
271 943 341 60 57 57
305 839 316 122 96 69
411 528 405 108 19 39
406 532 396 161 18 50
307 895 234 79 70 69
407 530 395 176 21 63
406 532 401 175 20 52
409 531 398 189 20 62
410 531 401 173 20 57
406 532 406 170 23 59
358 796 163 75 56 48
421 519 385 136 28 48
346 818 176 75 60 54
424 518 384 143 30 50
281 773 219 75 60 54
284 774 219 75 59 54
283 777 218 75 61 55
283 782 218 77 60 55
286 778 217 75 61 55
285 784 219 77 62 55
282 792 223 79 63 56
301 793 211 84 65 57
286 788 220 78 62 56
258 772 238 74 58 52
262 778 232 75 60 53
258 778 238 74 59 53
263 782 233 76 60 53
265 774 230 78 62 56
271 773 226 78 61 54
268 776 228 78 61 55
266 783 231 75 60 53
270 783 229 76 60 54
272 783 228 77 61 55
260 789 240 75 59 53
263 792 238 76 59 54
271 788 230 76 60 54
402 828 251 77 63 53
267 798 237 78 61 54
261 798 241 79 62 55
275 783 225 78 61 55
276 788 226 78 61 56
280 789 224 78 62 56
276 798 232 78 63 56
281 797 227 79 63 56
278 796 228 78 62 55
280 799 230 78 62 56
426 819 242 92 71 59
284 795 224 80 64 58
268 802 238 80 64 56
270 808 239 80 63 57
271 813 240 76 61 56
258 802 243 78 61 54
259 804 244 79 62 54
262 807 243 80 63 56
261 813 247 82 64 57
258 812 248 82 64 55
259 814 249 83 65 57
267 813 242 80 63 56
311 917 247 90 81 82
264 810 244 81 63 56
285 882 236 61 58 59
263 821 248 42 40 48
260 819 249 71 56 54
257 822 253 54 46 47
260 829 255 186 129 103
268 817 243 55 47 50
266 818 245 54 45 50
272 822 243 178 133 106
321 949 286 86 79 81
265 824 249 188 133 108
266 828 251 187 129 104
264 830 254 184 127 102
268 826 248 188 130 108
270 829 250 186 128 105
277 802 233 80 63 56
275 803 235 80 64 57
274 814 239 71 56 53
286 813 231 80 63 57
282 812 233 79 62 57
299 861 241 49 45 49
276 823 241 183 132 104
291 837 327 140 112 81
282 822 237 182 132 103
286 818 232 60 52 54
283 817 233 46 41 48
284 820 234 129 106 89
286 823 235 181 133 103
287 822 233 171 131 105
285 829 240 182 131 104
279 829 244 185 129 104
281 833 245 184 127 103
286 833 242 183 130 104
303 776 203 73 59 52
295 773 210 77 61 53
299 780 209 79 62 54
306 888 227 75 66 63
299 868 229 57 53 56
300 784 209 81 64 55
291 788 216 80 63 56
291 798 221 81 64 57
336 893 241 74 66 66
294 799 220 82 64 56
311 773 201 76 60 52
304 779 204 76 60 53
306 783 205 79 62 54
311 778 201 77 61 53
311 783 202 77 61 53
316 773 199 75 59 52
319 774 199 75 59 53
396 843 241 82 70 63
473 856 253 113 100 92
319 778 199 77 61 53
316 783 200 78 61 54
320 783 199 78 61 54
309 785 204 79 62 53
311 793 207 83 63 55
282 908 233 84 73 71
315 790 204 80 62 55
318 791 203 78 61 54
316 798 206 79 61 53
320 798 204 77 60 54
306 789 209 84 66 56
307 797 208 81 62 56
296 808 222 83 65 58
301 803 216 83 65 57
300 808 220 83 66 58
302 808 217 83 65 58
301 813 221 84 66 58
311 802 208 77 60 53
306 808 216 83 65 57
309 800 209 79 61 54
406 853 336 90 70 56
308 806 213 80 64 55
310 809 215 82 65 56
317 812 212 77 62 56
320 809 209 71 57 52
320 813 211 69 58 54
319 814 214 77 63 56
311 818 222 85 66 59
461 843 271 101 83 66
312 822 222 78 62 57
320 818 211 58 51 50
320 823 211 56 51 51
315 819 220 82 65 59
319 827 215 54 50 50
317 833 211 58 54 54
318 829 217 53 49 50
315 833 221 59 53 52
291 808 226 83 66 58
291 818 230 55 47 50
291 823 231 158 119 97
296 818 227 72 58 55
297 822 228 64 56 57
296 827 232 176 124 99
289 825 234 180 130 102
291 828 235 177 128 100
296 829 235 173 123 96
301 819 225 80 63 58
301 828 231 175 122 96
302 826 228 168 129 102
301 833 236 168 116 92
302 831 233 172 118 94
358 773 168 58 49 45
306 823 225 59 50 52
309 820 224 83 64 58
307 831 232 169 117 92
269 835 254 182 125 100
267 837 257 183 125 98
331 788 195 64 53 50
272 836 253 180 123 98
276 838 251 182 125 100
303 805 293 151 104 83
275 839 255 182 125 99
282 837 247 184 127 103
280 839 250 183 127 102
381 783 151 94 70 56
278 841 253 182 123 99
281 843 251 180 124 99
279 844 255 182 125 98
287 837 243 182 128 102
287 852 252 168 123 96
280 825 316 74 59 45
284 850 254 177 127 100
287 878 236 57 55 56
286 878 241 51 48 51
286 878 246 51 47 49
282 879 256 51 48 49
287 875 256 55 50 50
261 934 281 76 71 72
286 878 251 52 49 51
279 892 240 66 60 62
288 880 232 63 59 61
288 884 228 81 71 70
400 802 216 75 57 46
282 888 236 69 63 64
280 888 241 59 55 57
280 882 256 54 49 49
280 883 251 51 47 49
379 778 244 152 115 87
276 888 256 55 51 51
278 885 256 56 51 51
278 890 246 53 50 52
275 893 256 56 52 53
283 880 246 50 46 48
318 838 206 65 59 60
319 838 204 67 60 60
317 848 207 71 62 61
337 804 178 66 54 50
320 848 205 77 66 63
312 843 216 58 54 54
311 848 216 63 58 59
313 838 221 54 50 51
314 837 216 57 54 54
310 853 216 65 59 60
308 854 218 62 56 58
306 858 221 61 56 57
306 863 221 58 53 55
308 864 218 56 51 52
313 863 213 61 54 55
321 859 209 66 57 59
296 835 239 172 120 96
296 838 241 167 119 95
302 848 241 68 53 51
441 813 241 81 58 45
290 840 244 180 128 101
291 843 246 176 124 98
297 842 243 160 116 92
296 844 244 158 113 91
290 849 249 165 118 93
299 845 244 122 84 68
401 782 141 95 77 61
303 855 228 54 51 51
303 849 238 55 46 49
297 809 297 150 102 79
301 853 241 53 46 48
303 859 227 57 54 56
302 858 231 52 50 51
378 770 153 70 56 47
297 863 236 53 50 50
301 858 236 51 48 50
299 861 236 50 47 48
296 864 241 50 47 49
291 853 251 149 109 86
297 853 247 94 71 62
268 941 344 67 61 61
390 823 206 81 66 58
290 859 254 136 102 78
291 863 255 107 81 64
299 853 244 65 52 52
299 858 244 51 46 49
306 834 235 160 109 87
305 839 239 125 83 68
310 835 234 113 75 62
307 848 226 53 50 50
366 841 248 31 29 28
309 846 226 53 50 51
312 838 231 55 48 48
305 853 226 54 51 52
305 852 231 51 48 50
304 857 225 57 53 56
398 801 205 77 60 49
296 878 221 79 68 63
302 868 222 54 50 50
301 873 221 61 55 53
298 875 222 63 57 56
301 878 217 90 76 66
297 882 222 88 74 69
301 883 221 84 72 69
302 881 218 93 78 73
311 868 215 61 54 52
311 873 215 89 73 62
306 873 216 79 65 58
308 878 213 97 80 67
312 875 213 109 88 72
311 878 212 102 83 68
316 867 213 68 59 53
316 868 214 77 65 58
316 873 213 108 87 71
266 878 347 130 101 81
321 868 213 96 79 65
320 869 214 96 80 66
316 878 210 111 90 76
321 878 211 106 84 73
317 882 208 101 82 70
306 882 217 89 77 73
318 880 208 103 81 70
321 886 212 77 63 56
321 888 216 75 62 56
281 909 236 87 76 75
334 912 344 60 53 51
315 884 220 71 62 60
393 815 202 94 75 63
316 888 221 79 69 66
318 891 222 69 57 49
297 868 231 55 51 54
294 866 241 50 48 48
292 878 226 71 63 64
293 874 231 64 59 62
300 872 226 54 51 53
299 872 229 59 54 56
293 869 245 46 43 45
356 859 221 79 65 60
291 873 246 47 44 46
291 868 256 75 60 53
290 872 256 55 49 50
293 868 252 52 47 48
294 871 248 43 41 46
294 872 251 46 42 47
294 870 254 50 46 49
274 836 328 138 104 82
291 883 226 81 70 68
296 887 227 80 70 68
296 893 231 84 73 72
301 893 231 82 72 71
309 885 224 70 60 60
311 888 226 76 65 63
306 893 231 80 70 69
311 892 231 80 69 67
315 889 225 80 66 64
316 891 226 76 64 60
336 773 191 141 97 67
336 788 191 72 55 47
337 798 181 66 56 52
335 798 186 59 51 49
361 873 346 55 44 39
334 796 189 56 50 49
350 778 175 58 47 42
343 784 183 66 53 48
336 783 191 97 69 51
341 783 186 74 56 47
344 773 184 78 58 47
348 778 178 59 49 44
349 791 174 64 52 44
346 798 176 65 52 47
351 798 171 65 52 47
349 799 174 64 51 46
390 788 235 145 109 84
340 788 186 66 53 47
339 797 179 70 58 54
342 794 178 65 54 50
369 806 244 114 85 65
342 798 178 71 58 52
344 791 179 66 54 51
335 803 180 64 53 49
332 803 186 60 52 50
398 834 282 43 38 34
330 803 191 56 50 49
421 821 233 98 78 64
330 808 186 61 52 49
332 813 182 66 55 51
328 809 192 58 52 50
329 811 189 60 52 50
328 818 187 68 58 55
327 832 192 73 62 58
275 882 353 124 101 82
332 818 182 73 60 54
281 898 361 112 89 71
331 823 185 71 60 56
331 828 187 68 56 53
341 808 175 65 55 50
317 774 298 71 54 46
282 910 240 90 80 80
347 808 173 67 57 53
352 803 172 63 51 45
351 808 172 67 57 52
348 811 173 76 63 56
337 813 178 65 54 49
343 831 176 85 68 58
347 827 173 83 67 56
337 818 178 74 60 53
337 823 178 79 64 55
461 821 231 100 78 56
342 831 182 84 67 58
339 830 184 80 64 57
341 832 186 84 68 57
346 830 180 80 65 54
346 831 182 81 64 55
352 831 177 80 63 56
350 831 182 76 62 52
346 833 186 78 61 53
351 830 186 81 64 53
351 833 192 97 74 59
406 823 246 88 73 60
352 830 190 92 72 56
360 793 161 79 61 50
361 788 162 67 54 46
366 788 156 79 61 51
365 793 155 82 63 50
367 793 152 86 65 52
366 798 156 87 67 53
431 850 276 77 63 53
367 797 153 92 70 56
364 799 159 85 65 53
369 778 159 60 49 43
366 778 162 61 50 44
377 773 153 79 60 50
381 773 152 88 67 53
381 788 142 111 82 58
378 791 143 114 84 62
381 792 142 116 86 61
372 869 326 62 51 45
376 786 151 88 66 53
373 793 148 104 76 58
368 790 153 80 62 49
375 786 154 81 60 50
371 797 151 103 76 60
376 796 148 103 77 59
382 785 146 109 78 56
380 796 148 86 66 54
382 799 160 91 71 58
354 771 174 63 50 43
353 775 173 63 51 45
361 778 166 65 53 46
361 783 166 59 49 45
353 778 173 59 49 43
356 783 170 62 51 46
358 777 168 62 52 47
366 773 162 61 51 44
364 773 164 58 49 43
261 883 346 144 115 93
364 778 164 64 51 45
353 793 168 77 61 50
355 793 165 76 60 50
358 790 163 68 56 48
354 787 170 59 50 45
356 798 166 68 54 47
353 796 168 72 55 49
355 799 169 66 54 48
362 785 163 63 51 46
367 801 157 80 60 50
371 801 157 74 58 49
376 801 157 76 60 52
376 803 161 80 62 52
361 808 167 71 57 51
355 803 170 63 51 44
356 808 170 67 57 52
356 818 172 84 67 57
362 819 175 76 60 52
358 820 174 80 63 54
359 822 173 79 63 55
356 828 176 86 69 58
355 831 171 87 71 59
354 831 174 84 67 58
366 818 177 81 64 55
431 825 275 57 46 36
360 826 182 86 67 54
356 827 186 87 69 56
361 826 186 93 71 55
364 829 177 95 75 61
365 833 177 105 80 60
366 833 181 112 85 63
368 825 184 103 78 56
366 829 191 108 83 64
371 807 166 84 67 59
377 804 165 91 70 58
370 811 171 80 64 52
371 812 176 79 61 52
372 810 175 84 64 54
381 804 171 89 67 57
380 806 172 83 61 51
371 821 175 93 72 58
331 904 249 78 70 70
372 822 172 90 70 57
456 837 236 95 79 67
372 829 182 109 82 59
374 829 181 109 83 59
370 832 184 105 77 58
371 829 191 104 79 63
375 827 187 100 77 61
381 817 183 116 84 58
350 803 260 71 55 49
381 822 186 95 71 56
378 825 189 95 71 54
380 826 192 97 75 59
451 823 231 102 78 51
326 773 195 67 55 50
332 777 193 90 64 45
331 783 195 59 49 47
324 789 199 74 59 52
334 786 194 71 55 46
421 818 241 89 71 56
328 803 197 53 48 48
325 803 201 60 50 49
323 803 203 71 57 53
324 813 201 56 51 50
324 812 204 55 49 49
322 823 201 60 54 53
324 817 200 58 52 51
324 822 195 66 59 57
322 818 206 54 49 50
321 828 201 61 55 55
323 833 197 70 61 61
324 828 194 67 59 58
288 779 313 74 56 47
470 827 235 96 74 56
325 834 195 71 61 58
346 813 256 46 37 36
348 815 253 50 40 37
351 813 251 52 42 38
341 818 256 75 58 51
342 820 253 34 30 29
338 825 253 99 76 63
338 830 248 38 32 29
341 833 251 33 29 28
346 818 251 41 35 33
345 822 250 32 29 29
350 817 250 45 37 33
348 820 248 36 31 30
301 928 256 96 88 89
346 828 247 27 25 25
361 793 255 70 55 48
350 892 266 75 66 65
365 787 254 60 49 43
363 794 253 66 52 45
436 812 246 62 49 39
366 798 250 57 47 44
373 774 252 151 112 87
373 770 253 155 113 87
377 773 247 155 117 87
376 778 246 154 117 88
372 778 251 142 109 86
369 782 254 30 28 32
381 783 242 151 113 86
379 783 244 151 115 89
370 793 249 139 109 87
376 798 244 143 107 85
381 788 242 153 114 89
381 793 242 151 112 88
371 829 196 113 86 66
376 828 196 101 76 59
376 828 201 89 69 55
416 852 316 75 59 49
372 829 206 84 68 60
404 816 199 96 76 65
369 833 206 86 70 62
381 827 201 87 66 54
381 827 206 84 65 55
372 833 215 77 64 58
373 829 214 76 63 56
375 833 217 77 64 57
377 828 221 75 59 51
381 827 211 81 63 55
381 827 216 81 64 56
294 835 324 127 101 71
378 825 220 75 57 48
381 826 221 81 65 56
377 833 221 79 67 59
355 807 254 72 57 51
356 808 252 68 55 49
358 805 253 69 54 48
360 812 245 47 39 36
374 868 252 77 67 65
362 809 247 48 41 37
365 802 250 42 36 36
356 823 241 27 25 25
355 817 245 38 32 31
321 876 356 36 34 34
361 823 241 30 27 26
387 778 237 147 111 81
357 831 243 26 25 26
276 923 256 87 78 77
356 833 246 26 25 26
361 828 243 29 26 26
365 832 243 34 30 28
366 834 244 36 31 29
371 813 239 74 55 45
371 808 241 105 76 60
381 808 239 72 53 41
465 829 217 101 78 62
381 813 239 54 43 36
383 813 238 49 38 32
372 804 243 120 87 68
376 803 241 118 84 65
371 824 240 41 35 31
371 827 242 43 37 33
383 816 238 46 36 32
382 828 242 76 64 53
382 832 242 83 70 58
375 828 243 37 32 29
376 825 245 37 33 31
376 828 244 36 31 30
376 831 243 35 31 28
381 833 246 67 56 47
341 834 190 87 70 59
346 838 192 95 75 62
352 838 191 103 77 63
352 840 187 101 77 64
263 833 316 178 127 108
356 837 191 113 86 65
359 836 188 120 91 67
362 838 192 116 86 65
366 837 186 113 88 68
365 838 191 110 84 65
326 838 197 71 59 57
324 839 199 69 59 58
327 841 198 76 63 61
322 843 202 74 63 62
331 838 195 78 64 60
336 837 193 86 69 61
336 839 195 91 72 62
323 852 203 76 65 64
266 918 255 83 73 70
325 855 204 74 63 61
326 857 206 71 61 61
331 853 202 82 69 65
336 853 202 95 76 66
337 854 205 95 74 64
331 857 206 80 67 60
336 857 207 93 72 59
331 863 211 99 79 63
335 862 208 102 80 63
391 828 216 85 72 66
341 848 201 98 77 65
347 838 194 102 79 65
347 844 201 96 74 61
350 842 196 103 80 64
352 840 201 121 92 67
348 845 205 108 82 62
346 848 206 105 81 64
342 854 211 104 81 65
340 857 212 107 83 63
451 824 251 94 77 64
341 863 212 106 82 68
345 852 211 105 84 68
351 853 216 81 66 60
346 863 216 87 71 65
351 863 216 79 67 63
341 838 257 30 28 28
352 837 252 28 26 27
350 839 254 29 27 27
352 848 256 32 29 28
327 874 207 109 84 72
396 788 226 131 97 69
332 869 206 109 84 67
331 873 205 104 81 66
336 868 207 106 82 67
336 873 206 108 87 75
326 865 214 98 80 65
326 866 214 104 84 68
337 875 221 91 73 72
336 878 218 90 75 74
344 806 264 36 30 30
336 878 221 87 74 73
331 883 207 108 87 77
334 883 208 94 81 76
326 885 210 104 82 71
326 886 212 97 76 66
326 891 221 76 62 56
325 891 218 77 62 55
331 886 212 97 79 68
337 883 216 96 87 83
330 891 222 68 59 57
339 873 212 113 90 79
340 873 216 106 85 75
340 877 212 93 82 76
300 772 309 74 55 46
341 878 216 90 79 76
338 875 218 92 74 70
341 878 221 83 73 71
350 867 222 74 64 61
344 877 221 80 71 70
339 881 214 91 82 79
326 892 226 65 55 50
326 893 231 65 55 53
337 889 231 81 72 72
331 893 236 78 70 68
342 878 225 77 68 68
352 869 226 77 67 63
349 871 227 77 68 64
351 873 231 86 74 70
350 877 232 88 77 74
348 880 235 87 77 76
351 878 236 86 75 73
339 887 231 86 78 77
341 888 236 79 70 70
343 885 235 82 73 72
338 890 239 73 67 68
395 786 146 95 77 65
346 883 236 86 76 74
349 881 237 83 74 75
343 890 244 84 74 71
346 888 246 88 75 72
348 885 244 89 77 73
349 887 247 91 78 75
345 891 247 85 73 71
346 893 256 84 72 70
356 837 196 116 88 66
361 838 201 100 78 63
358 842 194 120 91 66
352 840 204 119 90 67
361 843 206 88 70 61
362 839 204 93 74 62
367 839 205 87 71 62
364 841 197 104 81 65
356 845 210 86 69 59
356 848 216 82 67 60
363 845 220 79 62 53
366 848 220 84 68 57
364 845 220 83 66 57
356 853 217 82 68 61
362 858 212 82 70 62
361 858 221 82 68 62
364 861 216 85 73 65
362 861 219 83 70 61
385 867 291 60 52 50
368 834 204 88 71 60
370 838 211 84 68 60
372 838 215 83 68 60
369 842 208 88 72 63
370 843 211 89 72 63
377 843 221 88 71 63
379 835 223 79 66 48
377 838 220 85 72 63
379 841 223 90 74 63
370 851 222 87 72 61
361 834 246 30 27 27
356 843 252 29 27 27
356 844 254 31 28 27
361 844 255 29 27 27
366 838 246 33 30 28
356 863 225 79 67 63
358 860 224 80 66 60
361 863 231 74 62 59
363 860 229 78 66 63
365 861 232 75 62 59
362 864 235 72 62 59
376 848 226 86 72 64
381 838 226 89 77 70
383 839 229 90 77 69
377 848 231 81 67 59
331 913 346 55 50 48
378 845 229 82 68 61
382 843 231 85 72 65
379 847 232 81 69 63
376 838 251 34 29 29
373 840 255 37 32 28
369 841 248 30 30 32
381 839 251 65 56 50
380 840 254 57 49 42
381 841 256 72 63 56
373 850 225 82 68 58
375 852 231 81 66 58
371 859 236 83 70 63
372 859 240 85 71 64
369 861 237 83 70 64
371 863 241 83 70 64
380 851 242 84 72 64
373 860 244 89 75 67
373 864 246 82 71 67
374 862 247 83 70 67
266 840 282 155 102 79
377 854 246 88 75 68
378 855 250 89 74 65
380 857 252 91 74 65
377 863 256 88 73 69
355 867 227 80 68 65
358 865 229 77 66 60
360 868 236 75 64 62
361 873 241 78 67 65
353 874 235 87 76 73
354 876 238 86 74 71
366 866 238 77 66 61
366 868 240 80 67 61
353 880 245 85 74 72
360 876 243 76 69 67
365 872 242 76 64 60
463 842 206 98 78 59
366 873 246 71 61 60
364 876 247 70 61 59
362 880 255 69 61 62
367 874 250 72 63 63
366 878 256 72 64 65
354 881 248 81 70 69
356 882 251 78 67 66
353 884 255 78 68 68
356 884 256 73 65 64
360 882 257 69 61 60
369 867 242 80 66 61
370 868 246 74 65 61
369 871 248 72 65 64
370 872 252 69 61 59
372 869 250 75 65 63
373 865 249 79 69 66
371 873 256 70 62 61
272 899 251 59 54 54
265 913 255 75 67 66
269 907 250 70 64 63
271 917 252 87 76 73
278 899 237 83 75 75
277 898 241 70 64 66
275 903 241 80 71 71
287 904 231 88 76 75
282 911 235 84 75 71
288 905 235 90 78 78
273 900 247 63 59 59
275 898 246 62 58 59
273 908 242 87 76 74
276 911 242 88 77 75
281 914 245 91 81 79
286 910 244 86 77 74
296 822 298 130 95 71
281 916 248 91 81 79
281 919 250 92 82 82
277 921 253 87 76 76
287 917 247 90 81 82
286 919 250 91 82 83
286 923 252 94 84 85
285 924 255 91 81 81
291 898 232 87 77 75
289 902 228 88 78 77
295 897 233 84 74 74
296 899 234 84 75 75
292 900 234 87 77 77
291 907 238 88 78 78
296 913 241 94 85 85
320 803 284 146 103 82
301 913 241 91 82 82
296 918 246 98 89 89
289 920 249 96 87 87
291 923 251 98 88 88
292 925 254 92 82 82
302 915 244 94 85 85
465 848 275 96 78 64
301 918 246 95 86 86
297 926 253 99 91 91
300 926 253 96 87 86
302 925 254 92 84 83
306 898 235 83 74 73
306 903 236 86 78 78
311 898 237 75 66 66
306 906 238 86 77 77
310 905 239 82 73 72
319 906 237 81 74 74
320 907 242 78 71 71
270 930 358 65 61 60
306 917 247 90 82 82
311 914 245 90 81 81
306 920 249 91 83 84
306 927 256 92 85 86
311 922 252 84 75 77
310 926 257 83 76 78
318 915 249 81 73 74
322 914 251 80 72 73
321 917 252 81 72 72
314 921 253 82 75 75
322 904 241 78 70 70
325 898 233 78 70 67
326 898 236 78 69 67
325 902 242 79 70 70
331 898 241 76 69 69
323 905 244 80 72 71
325 907 247 81 73 73
323 913 254 80 73 74
326 909 250 81 73 73
408 847 317 61 48 39
325 910 255 77 70 70
326 913 255 79 71 72
336 898 246 73 65 66
351 852 291 35 33 32
276 778 322 88 68 57
328 905 249 80 71 71
331 908 251 80 71 71
336 907 256 79 71 71
325 917 257 76 68 69
342 899 256 84 72 70
401 788 127 113 92 72
416 784 126 98 80 65
411 792 124 98 78 63
413 789 123 92 77 65
416 792 124 99 79 61
419 785 126 96 79 64
391 783 136 119 88 58
400 782 136 112 86 60
396 779 141 112 82 59
341 898 351 58 52 49
401 780 137 119 89 60
391 773 151 107 75 54
386 778 150 98 71 52
391 777 149 101 72 52
389 781 149 97 70 46
401 772 150 129 90 59
397 774 148 126 81 56
395 772 156 119 78 56
400 776 145 117 80 57
396 784 151 92 74 60
396 784 156 86 67 54
402 779 156 75 59 48
401 778 161 79 62 49
398 784 161 81 63 50
387 792 136 121 92 64
388 792 133 127 98 67
411 773 151 92 77 62
390 791 136 108 84 61
391 788 141 93 74 56
396 787 130 117 87 65
395 786 137 102 81 61
400 783 133 118 90 64
387 790 146 87 70 54
388 790 151 87 72 60
391 787 151 95 78 67
385 792 156 83 67 58
391 789 161 85 65 52
394 786 157 87 66 55
403 775 143 118 80 50
406 775 143 113 78 53
406 783 136 107 85 62
410 783 135 100 82 65
411 780 135 97 77 59
411 782 140 89 73 61
407 775 156 81 64 54
403 779 152 73 56 45
406 777 151 77 60 46
404 776 160 82 66 53
416 773 151 88 71 60
411 773 156 80 66 57
415 772 157 83 66 55
415 771 160 88 73 62
410 778 146 87 73 63
410 776 149 85 68 53
400 777 165 78 61 48
397 783 166 78 60 48
399 782 164 80 63 48
400 777 171 80 59 49
396 783 171 81 62 50
400 778 191 64 49 41
400 783 191 63 47 39
389 796 168 87 67 56
412 833 229 117 94 92
387 799 171 84 64 53
392 794 176 86 68 57
390 797 176 78 60 50
395 788 166 78 61 50
396 788 176 85 67 56
394 792 177 93 73 61
390 798 181 78 60 48
396 792 181 86 66 53
398 788 179 88 70 60
401 822 235 86 72 62
401 788 181 90 71 60
396 792 186 80 60 50
399 791 191 76 57 46
393 795 185 85 65 52
395 797 192 76 59 49
406 773 166 87 68 53
402 774 171 86 63 50
403 775 175 83 63 50
406 772 171 86 65 50
406 772 176 75 56 46
411 772 166 89 73 63
412 770 167 88 70 55
409 771 176 73 53 44
402 773 191 55 41 34
404 771 190 55 42 34
409 771 179 81 62 51
367 862 281 40 36 34
404 785 163 87 73 66
336 875 356 43 39 38
405 787 164 85 69 60
402 793 176 90 72 61
406 795 172 87 69 57
406 798 172 93 73 61
406 798 176 98 78 63
411 796 168 88 68 57
404 791 181 87 66 53
384 801 167 87 67 56
386 803 176 85 63 51
398 810 172 89 68 57
387 803 181 76 57 46
385 808 178 89 66 50
414 867 310 101 80 65
388 800 179 82 59 48
396 805 181 88 67 53
395 804 191 81 64 54
276 863 347 149 113 95
395 805 186 89 70 56
395 811 182 103 78 58
396 813 186 98 75 59
393 815 189 95 72 56
395 815 189 97 76 62
386 819 185 98 73 57
376 842 306 35 32 31
385 821 187 92 70 57
396 817 191 95 73 61
402 816 186 98 75 63
404 815 176 101 82 63
405 813 191 94 74 60
404 814 186 97 77 64
402 817 176 173 161 160
404 818 171 101 81 65
404 818 176 90 76 66
402 817 181 116 95 88
404 818 181 90 74 69
404 817 184 97 76 65
420 774 140 94 77 68
416 776 138 94 77 65
419 770 153 92 74 63
420 772 154 85 68 54
395 773 201 58 43 35
396 778 196 55 40 33
395 778 201 64 48 38
399 776 194 48 36 34
398 782 193 62 47 41
395 783 206 67 48 35
394 773 216 138 98 64
394 770 219 143 102 67
394 773 220 142 102 68
396 783 211 112 78 52
396 783 216 126 90 60
396 783 221 132 96 64
399 788 196 70 53 43
398 788 197 68 51 41
414 847 241 103 87 80
397 793 196 75 58 46
397 793 201 66 51 42
395 788 206 61 45 35
386 808 239 62 47 40
416 858 311 82 65 55
397 798 206 73 54 44
397 788 211 89 64 45
401 793 216 81 60 48
397 788 221 122 89 61
401 793 221 82 60 48
414 857 308 82 62 53
261 833 301 68 53 47
398 797 209 91 66 56
399 799 208 74 56 46
403 798 215 82 61 50
404 798 217 83 63 52
384 774 239 150 113 83
389 774 234 148 110 80
393 778 226 142 106 72
385 778 240 149 112 82
393 781 228 141 105 73
395 783 226 137 102 70
394 784 229 140 104 74
393 793 233 121 86 66
401 794 226 73 54 44
400 795 229 73 54 42
402 798 226 83 61 48
404 796 224 80 61 45
398 802 201 79 61 51
399 804 197 80 64 55
399 804 201 82 63 51
398 806 194 86 69 59
341 888 357 51 46 43
397 810 207 81 64 55
393 814 206 85 69 61
402 813 202 88 71 57
400 807 210 73 57 47
398 805 212 68 52 46
399 807 216 72 57 48
400 803 221 76 57 44
401 808 222 74 60 50
396 813 211 82 68 60
393 814 209 86 70 62
397 813 216 78 65 57
398 809 220 72 59 51
453 824 228 99 75 51
398 813 221 81 68 58
386 823 196 90 70 58
391 820 196 85 67 57
388 820 194 85 66 55
390 822 201 80 64 57
392 818 201 90 73 62
396 817 201 90 73 61
401 817 196 96 75 60
401 817 201 88 70 59
386 828 216 89 74 68
389 826 212 86 70 62
386 828 221 83 69 59
387 831 218 85 71 62
391 833 221 89 75 67
393 819 210 89 76 69
395 817 211 86 74 67
393 823 221 85 71 65
409 838 228 124 104 103
394 826 218 84 70 66
394 832 222 87 72 67
402 838 242 75 63 55
404 810 195 88 70 57
405 813 196 95 74 58
404 801 216 86 66 54
411 818 222 100 84 71
388 801 238 87 63 50
391 803 237 71 53 43
336 863 326 34 31 32
391 813 236 62 50 41
400 807 234 61 48 35
396 813 231 68 55 43
394 813 234 63 50 40
391 822 231 90 75 65
387 818 237 63 50 43
324 823 275 129 101 82
387 823 236 87 72 59
390 827 226 95 82 72
389 826 230 99 88 82
386 828 236 96 81 70
384 827 239 90 76 63
386 834 241 85 70 58
396 818 226 87 72 60
395 818 234 78 62 49
400 822 241 79 64 53
396 828 225 95 81 72
395 832 225 89 74 64
401 828 227 88 72 61
401 833 231 88 71 58
401 833 236 95 85 79
400 828 246 79 64 51
401 803 226 75 56 45
411 813 226 88 74 61
406 818 228 93 80 67
402 820 237 86 71 59
403 833 228 84 66 53
406 828 226 111 99 93
411 818 227 99 84 70
411 823 226 119 105 93
416 822 247 82 66 55
417 817 230 89 74 60
414 821 225 109 90 73
411 822 236 100 83 71
410 821 241 100 87 78
416 822 234 101 85 74
415 824 233 105 87 77
410 828 227 122 110 103
412 828 230 110 94 84
415 828 232 120 105 99
415 833 232 115 101 95
402 824 245 79 64 53
400 833 246 81 67 59
403 825 249 86 70 57
400 832 251 70 56 48
400 832 256 74 59 48
406 825 250 77 62 51
405 827 252 75 61 51
406 828 256 72 59 50
411 823 246 90 76 66
413 825 255 74 59 47
420 815 231 91 73 59
420 815 236 97 75 59
296 834 321 120 95 68
431 813 246 60 49 39
428 815 250 50 42 34
417 833 236 165 152 154
419 832 238 130 112 116
420 833 241 106 89 81
422 829 241 94 74 62
425 819 233 90 69 59
424 821 233 96 76 63
431 818 236 89 66 56
432 818 232 97 69 56
430 818 241 84 64 55
426 827 241 82 64 52
421 819 246 85 70 58
421 822 256 54 46 40
423 819 255 43 35 30
423 830 244 91 75 64
422 833 246 90 71 59
334 931 278 82 74 75
431 817 256 45 37 30
460 820 251 95 73 55
425 831 247 84 67 56
431 826 243 82 63 50
431 832 251 92 70 57
436 815 233 113 78 58
436 813 241 85 64 49
446 815 233 108 80 52
446 814 236 104 79 59
441 812 246 58 46 37
436 813 251 47 38 31
432 815 254 46 37 30
441 813 251 58 48 38
436 823 231 93 67 48
436 820 228 98 71 53
435 823 236 84 61 45
436 827 241 86 64 49
440 829 241 99 78 59
446 822 233 96 71 50
442 832 241 98 76 59
447 829 233 105 82 58
436 816 257 56 46 37
436 832 252 91 71 57
442 830 251 94 76 61
440 832 256 97 79 61
446 823 256 89 71 57
442 832 246 94 74 56
446 833 246 103 86 71
405 844 223 90 73 59
406 846 223 95 76 64
409 845 223 104 83 72
386 838 231 91 78 68
391 839 231 91 76 67
391 837 236 88 73 66
386 843 231 88 71 61
457 841 251 96 79 63
392 841 228 92 77 66
391 843 231 94 78 68
386 845 235 79 67 59
386 848 241 81 67 59
391 848 241 92 79 76
394 840 241 94 83 77
396 841 226 90 73 59
402 837 231 91 74 60
399 841 229 88 75 65
396 843 236 86 71 62
394 846 237 84 70 61
395 846 241 77 64 56
420 851 280 81 66 53
385 834 244 90 76 63
386 839 251 89 78 70
391 839 251 69 59 49
385 841 256 87 77 68
387 840 256 78 67 57
395 848 251 120 111 111
401 840 251 69 56 46
401 843 256 72 59 50
396 848 256 87 73 69
386 850 246 90 77 71
386 852 251 86 73 68
391 851 256 79 66 59
393 850 254 82 70 62
406 838 228 98 79 66
403 836 235 92 79 70
405 839 236 87 74 62
407 843 231 107 92 82
408 843 236 86 69 56
407 843 241 76 62 51
412 843 230 123 107 106
409 845 241 73 59 50
415 843 236 133 117 117
414 846 236 80 65 56
405 840 246 75 62 51
404 840 250 70 56 46
407 842 246 72 60 50
406 843 256 71 57 47
411 849 246 67 55 45
410 848 251 72 58 48
408 846 252 62 52 43
415 847 251 99 80 73
417 838 241 176 162 166
418 840 244 105 82 79
420 838 246 107 90 83
423 835 254 84 66 49
422 838 256 84 66 51
267 822 308 59 48 45
417 844 251 98 77 71
419 842 252 93 72 67
447 862 256 82 67 50
456 828 221 105 80 52
306 783 302 52 43 40
462 830 213 103 80 54
461 826 220 103 78 53
458 825 223 104 81 53
458 829 217 107 84 61
458 832 218 101 77 54
466 828 221 100 78 60
451 815 241 84 64 45
451 814 246 80 64 50
450 815 255 69 54 39
451 818 232 99 74 48
456 823 226 102 77 52
453 832 227 101 78 53
454 833 226 107 84 61
459 820 231 93 68 39
463 821 239 81 63 45
462 833 231 95 75 60
331 874 346 32 30 32
456 817 246 76 60 45
451 833 245 101 86 76
450 826 250 91 75 63
451 832 255 96 79 65
452 829 257 93 77 65
456 828 256 91 72 58
456 833 251 104 85 67
461 823 256 91 70 54
459 826 256 90 70 53
468 827 225 97 77 57
323 815 278 144 110 89
467 830 232 104 81 64
470 828 231 95 75 59
466 828 241 98 78 64
466 829 236 102 80 62
465 834 237 93 75 63
356 783 261 72 57 49
465 833 241 97 79 68
469 826 239 98 77 58
465 820 245 80 61 45
464 832 246 90 70 57
464 828 249 91 71 57
464 832 249 91 73 60
463 838 206 97 75 50
463 840 202 101 80 58
458 836 218 105 83 56
458 837 221 112 91 71
462 842 211 102 82 62
465 834 206 91 73 54
465 843 193 91 74 59
465 834 212 93 70 52
464 843 221 100 81 67
457 838 226 106 87 67
451 835 236 113 94 76
453 836 233 114 94 79
452 836 240 100 83 68
461 838 236 89 73 60
459 840 226 99 84 71
452 834 253 97 78 60
448 836 253 94 74 56
452 841 257 99 79 58
461 834 242 90 71 60
461 834 246 92 74 62
460 838 248 98 80 64
459 841 252 100 80 60
451 858 257 89 75 61
407 843 317 61 48 41
457 863 257 92 79 68
465 838 231 86 69 58
476 847 238 95 76 63
480 847 241 101 81 64
464 835 256 111 91 73
466 838 256 105 85 67
470 844 242 112 100 91
471 846 243 104 87 73
471 843 251 107 88 69
477 845 242 102 83 64
474 844 250 100 81 62
478 853 239 94 76 64
480 848 245 99 81 63
479 853 246 96 80 63
473 855 256 93 77 64
475 853 256 98 80 68
478 862 240 91 81 74
474 856 250 108 93 84
454 870 253 91 85 81
476 872 251 99 80 66
476 872 256 97 77 63
483 858 232 94 78 67
486 861 228 94 81 74
482 862 235 96 78 66
484 858 234 95 78 66
270 793 320 69 54 47
281 783 316 79 62 54
278 784 318 81 64 55
285 772 320 81 62 53
285 782 315 74 58 49
274 787 319 77 61 51
273 790 318 72 57 50
320 913 360 61 54 50
282 789 313 77 60 51
279 791 314 73 57 50
281 798 310 68 54 46
275 798 315 65 52 44
286 788 311 71 54 46
285 792 309 69 53 46
287 794 308 65 51 44
286 798 307 57 47 41
260 834 261 189 130 102
263 815 317 41 36 34
266 803 320 50 42 39
271 803 316 64 51 43
271 813 310 60 48 42
267 814 313 65 53 46
