ply
format ascii 1.0
comment Created by Open3D
element vertex 2231
property double x
property double y
property double z
property uchar red
property uchar green
property uchar blue
end_header
388 594 296 182 7 59
355 479 97 71 29 35
296 299 227 98 80 60
293 304 232 90 73 55
295 299 237 86 71 55
322 804 229 48 43 46
379 406 272 68 59 50
296 294 232 87 72 55
297 294 236 84 71 56
240 562 199 204 134 104
297 300 224 105 85 62
290 295 252 95 78 58
293 295 254 93 78 64
233 554 207 156 109 79
301 374 256 67 54 43
289 304 249 91 74 54
285 444 341 58 29 32
395 833 237 127 91 73
295 304 252 88 72 54
300 294 242 79 68 56
237 541 215 114 89 62
355 704 206 82 29 35
302 290 242 78 66 54
534 850 338 99 90 82
423 489 296 165 17 50
302 295 245 77 66 55
361 359 253 117 93 67
309 972 292 79 73 74
305 294 247 74 63 52
391 453 162 73 33 33
399 841 287 73 61 56
297 296 240 79 67 55
300 304 247 76 64 52
304 298 248 74 63 53
297 304 255 89 73 55
395 834 232 169 115 91
400 504 322 70 29 36
300 304 257 87 72 55
380 430 167 68 39 28
350 472 75 92 49 32
421 780 298 66 51 39
265 429 327 97 24 36
424 433 234 123 11 41
280 699 237 52 35 36
305 304 252 69 57 45
293 309 227 102 80 57
274 621 250 71 32 35
324 803 330 75 60 50
305 469 127 71 35 31
292 311 229 98 77 55
354 914 302 53 47 44
291 305 237 86 70 52
291 314 232 96 75 51
293 314 226 108 84 59
372 378 232 99 84 69
301 654 233 64 30 36
354 264 250 133 100 75
394 694 231 97 68 52
290 314 237 85 66 44
274 609 328 77 30 36
334 452 136 86 70 50
290 319 237 86 65 43
294 309 243 81 66 50
391 849 310 38 34 31
355 449 346 64 17 27
289 309 249 85 69 52
347 813 214 48 47 52
355 429 182 96 81 65
369 709 307 107 20 39
292 309 250 84 69 53
327 414 357 139 15 41
395 468 97 196 20 46
296 314 246 85 70 54
289 314 249 83 67 48
334 674 325 85 31 40
308 269 278 94 76 55
290 314 250 81 66 49
297 305 245 80 67 54
300 309 247 75 62 49
246 561 230 106 79 60
335 570 344 190 8 61
297 309 255 87 71 52
288 827 335 47 39 36
325 279 208 111 88 61
304 309 252 68 56 43
407 561 268 58 34 36
434 444 292 95 23 39
301 890 248 52 51 55
302 310 250 70 58 45
257 559 320 78 24 33
300 314 257 79 64 46
315 968 302 62 56 57
300 319 252 75 60 45
304 319 254 71 57 42
269 264 307 126 96 65
309 299 253 67 55 43
403 473 214 99 23 38
312 296 255 70 58 45
360 509 127 148 23 45
315 424 207 82 71 61
290 584 207 208 10 46
373 872 346 55 45 41
307 305 255 66 53 40
307 309 255 66 53 39
310 309 257 65 51 36
252 630 290 112 62 49
370 369 237 110 90 69
263 501 170 166 0 44
444 754 257 69 51 41
344 502 124 225 15 41
260 324 251 112 86 57
315 389 267 62 50 36
257 324 254 116 89 57
257 329 254 117 89 56
225 514 141 125 25 39
275 419 237 68 58 49
389 619 272 143 21 50
262 324 249 108 84 55
265 328 249 98 79 56
335 429 366 140 14 44
257 334 254 117 90 59
270 324 249 90 73 54
279 428 334 78 30 35
270 329 250 90 74 56
356 369 263 117 94 69
275 389 253 79 67 54
427 728 226 77 55 44
269 334 250 91 75 56
348 379 209 89 79 69
300 344 307 115 91 62
260 339 251 111 87 58
418 468 310 83 37 43
257 344 254 114 87 58
380 579 311 175 8 56
265 337 250 100 80 58
265 344 249 101 80 55
270 438 207 55 48 41
391 859 287 68 57 56
340 764 327 118 30 47
245 638 248 186 127 95
340 719 198 130 9 33
330 794 327 83 65 55
263 345 250 107 84 56
350 299 216 110 89 64
275 830 333 87 59 46
257 349 254 115 89 60
357 309 227 128 99 69
341 708 200 99 28 31
300 464 348 39 28 27
263 349 250 107 83 56
292 675 330 43 28 29
349 400 275 67 58 49
268 515 170 134 2 38
270 349 248 94 76 55
263 554 201 53 34 37
233 692 304 144 103 72
275 324 250 83 68 51
330 459 372 155 16 49
275 329 248 84 69 52
295 654 237 38 33 40
351 507 129 222 11 41
345 739 326 76 29 36
280 324 251 80 67 51
280 329 248 80 65 48
280 334 246 79 65 49
281 328 250 80 65 48
285 330 248 75 62 47
275 339 247 84 68 51
358 309 236 130 99 70
262 471 147 99 40 35
280 344 248 79 64 47
407 600 241 125 26 44
280 349 248 81 66 49
308 374 210 102 84 64
384 542 144 111 43 50
241 884 316 167 123 109
395 849 357 64 49 39
282 338 244 75 62 47
284 339 244 75 61 44
385 409 312 51 40 33
285 344 247 77 62 44
320 734 201 160 3 41
285 349 248 73 59 43
350 461 98 86 51 36
258 356 255 115 90 63
260 359 253 113 89 60
330 759 207 85 66 60
258 359 255 115 90 63
258 364 255 115 90 62
391 429 205 78 33 33
258 369 255 113 88 60
264 369 250 108 85 58
266 354 249 101 80 55
266 369 249 104 82 56
440 759 286 65 51 42
335 829 307 43 36 34
271 364 249 96 78 57
270 369 249 97 78 57
270 367 250 98 79 57
255 679 273 134 92 68
258 379 255 112 87 58
433 416 264 137 23 45
259 384 255 110 85 56
261 384 253 108 84 57
360 865 359 66 52 44
370 465 78 72 53 33
407 460 215 126 20 40
265 379 250 105 82 57
299 359 253 68 51 36
267 374 249 103 82 56
268 649 312 115 23 44
385 634 272 170 11 53
300 339 252 71 58 45
251 564 277 51 29 34
270 374 249 96 77 56
261 394 311 126 100 72
270 383 248 93 75 54
311 334 266 80 59 43
339 779 211 73 59 53
296 358 314 122 96 64
381 870 276 78 66 62
270 379 249 95 77 54
329 492 78 175 8 35
270 385 251 93 75 54
262 276 278 118 95 68
275 359 247 88 72 54
232 652 259 185 125 93
404 594 202 153 111 86
314 410 320 72 62 51
275 354 248 88 72 54
300 479 122 120 20 35
275 969 287 75 71 72
365 837 360 56 46 37
421 850 344 79 63 49
237 740 335 155 116 86
347 577 179 193 15 58
280 354 248 84 68 50
347 334 215 104 87 69
233 585 221 179 119 89
365 354 242 116 94 69
275 369 247 88 72 54
415 519 287 169 17 47
245 684 272 145 102 70
277 436 204 59 52 45
277 368 244 84 69 51
440 415 227 93 29 30
330 479 67 91 54 36
280 369 245 81 65 48
285 359 247 76 60 42
417 701 274 61 49 37
359 684 311 144 12 46
284 366 244 77 62 45
272 374 250 92 74 55
365 364 227 101 87 72
251 553 263 121 15 38
275 379 249 86 71 54
261 524 336 149 12 47
330 508 132 234 16 49
226 774 317 163 114 82
343 487 66 225 0 53
274 383 249 87 72 57
310 329 215 97 80 60
420 713 252 98 67 41
286 374 245 74 59 41
227 774 326 167 118 88
302 936 344 64 58 57
261 808 289 51 45 45
348 314 255 128 101 71
336 476 69 89 66 32
266 420 265 74 65 55
285 379 247 71 58 42
434 454 287 139 26 46
285 384 248 69 56 43
274 539 176 156 10 41
296 324 222 128 88 63
300 324 219 119 87 57
473 772 205 107 83 66
301 329 219 111 85 54
305 324 217 106 82 55
289 833 266 129 105 82
386 412 226 77 61 56
317 757 214 80 64 58
305 329 217 101 81 57
332 491 97 134 8 35
260 455 188 57 49 41
296 334 223 109 82 54
296 399 250 68 58 49
296 339 223 107 83 55
297 344 223 108 83 55
315 509 363 126 26 47
422 450 309 160 1 48
299 344 221 105 83 55
345 436 167 93 79 64
438 416 269 144 26 47
305 339 216 98 79 58
404 524 180 165 117 101
442 791 268 79 62 49
297 349 224 108 83 53
383 584 175 140 76 52
489 857 366 100 88 78
311 304 277 108 84 57
216 519 192 148 108 84
304 349 216 99 82 62
362 784 194 136 106 72
420 504 297 133 22 46
310 324 216 100 80 58
386 464 197 25 28 29
312 330 214 96 79 61
357 476 91 74 19 31
309 334 215 95 78 59
338 314 209 105 87 68
269 936 245 97 85 85
370 394 262 81 70 59
313 328 215 98 80 59
310 339 215 94 79 62
258 890 265 156 118 89
353 484 339 38 25 25
308 351 215 99 82 64
343 580 186 178 11 50
315 339 213 94 81 66
313 339 215 94 80 64
382 499 328 166 13 51
320 339 211 94 80 67
345 863 332 34 32 32
242 606 270 120 92 65
315 349 211 93 81 69
258 589 271 85 20 35
405 420 334 57 32 36
293 324 227 120 85 60
384 629 277 172 12 53
267 572 209 74 35 38
408 508 168 168 117 92
294 329 227 115 82 57
265 559 331 144 15 47
311 971 297 68 62 66
293 326 230 112 80 57
389 688 189 152 103 70
294 369 232 95 72 47
292 329 232 103 76 51
253 608 287 131 1 38
293 329 230 109 79 54
365 466 78 82 57 31
291 324 237 93 66 45
411 499 312 54 27 31
294 334 227 110 82 55
243 872 300 156 118 95
289 329 248 70 57 43
423 493 295 169 16 51
295 324 252 70 57 41
292 329 250 69 56 41
275 534 172 169 5 43
379 439 345 104 26 42
266 574 212 83 32 38
274 432 216 43 38 37
460 840 312 94 75 58
293 330 244 69 54 42
244 745 285 157 107 76
295 334 252 69 57 45
310 384 312 116 92 64
298 324 249 73 60 46
325 789 331 83 65 55
310 864 311 71 58 47
300 324 252 73 60 46
370 439 351 142 18 46
335 289 208 102 84 65
298 328 249 69 58 48
246 898 274 170 122 101
403 579 262 50 27 34
370 488 108 202 14 34
251 919 268 70 63 63
312 461 350 90 24 37
300 329 252 69 57 45
269 524 343 159 14 50
300 329 257 68 56 42
305 324 256 69 55 40
333 459 370 152 12 47
300 334 252 68 56 43
255 834 322 145 92 71
300 334 256 70 57 44
295 339 227 109 84 55
293 339 231 113 83 58
282 482 134 85 23 33
280 440 197 65 57 49
292 339 233 104 76 52
320 359 208 91 80 70
292 344 237 96 67 45
275 804 276 80 63 56
369 364 237 110 90 69
295 349 227 112 84 54
292 349 237 97 69 42
282 679 325 54 27 29
253 696 320 143 112 81
262 700 253 102 18 29
369 364 242 115 93 69
371 554 323 119 26 45
240 583 248 119 94 67
374 394 252 79 68 58
413 792 214 153 99 76
291 344 242 75 55 38
357 866 234 124 108 92
322 313 209 107 87 65
291 344 247 74 60 45
368 365 246 117 94 68
295 339 248 69 55 41
253 924 265 62 57 59
325 374 205 88 78 68
294 344 248 72 56 40
296 349 252 75 60 45
377 639 189 158 109 83
285 719 233 98 34 43
338 429 357 76 22 34
301 344 256 77 62 48
329 484 65 161 18 37
265 809 287 68 55 50
249 749 282 80 47 44
358 334 228 108 88 67
305 344 258 76 59 46
262 603 320 86 20 35
301 349 256 74 60 47
305 329 256 69 55 42
305 334 257 73 56 42
297 353 224 109 85 55
299 359 222 106 83 57
431 464 292 124 28 46
407 726 281 54 42 33
315 489 368 178 14 56
359 344 247 118 94 66
254 574 277 72 25 34
289 859 256 138 113 90
305 354 216 101 83 62
387 667 257 148 13 44
301 359 218 106 85 60
304 359 215 104 84 62
401 412 241 93 39 40
299 364 222 108 85 58
358 329 232 119 95 68
355 729 203 131 9 33
303 374 215 106 85 62
330 384 204 88 78 69
261 779 273 74 59 54
296 304 309 135 97 69
363 354 228 103 87 71
354 490 115 198 9 46
260 779 277 71 57 51
305 374 212 103 84 62
364 704 311 144 15 46
280 608 233 86 34 41
299 374 222 109 85 60
304 379 212 101 82 62
330 840 372 73 60 50
285 419 332 104 17 35
305 374 258 68 52 38
301 379 218 105 84 61
386 830 383 75 60 48
308 409 205 83 73 64
304 384 212 100 82 63
355 859 237 68 58 55
305 438 187 79 68 57
303 382 215 102 82 61
299 379 222 107 84 60
401 479 106 150 22 46
264 423 252 75 65 54
290 544 350 103 27 42
421 717 241 82 53 41
220 519 143 72 32 38
310 354 213 96 82 67
387 608 174 152 102 67
310 294 287 120 92 64
242 690 315 132 101 71
343 485 356 66 21 28
290 429 207 68 59 51
320 508 127 107 26 41
308 369 210 101 83 64
315 354 210 93 81 69
425 814 286 60 48 42
314 358 210 94 81 69
320 354 210 91 80 70
267 406 320 89 64 46
317 356 209 92 81 70
400 489 153 125 83 62
330 264 207 119 93 61
320 355 209 92 81 70
321 863 375 51 46 43
312 361 209 96 82 67
257 705 258 73 27 34
380 809 308 44 35 32
251 562 229 85 43 41
315 374 206 92 79 67
392 610 221 163 17 51
286 509 355 159 16 50
325 379 205 88 78 68
315 379 206 91 79 66
314 384 205 92 78 64
245 569 292 89 22 35
320 379 205 88 78 68
323 390 269 58 47 34
316 381 204 89 78 67
420 425 231 116 14 37
365 631 210 96 35 44
320 384 204 88 77 67
343 864 314 33 31 32
307 376 209 102 84 64
324 497 88 82 24 33
308 313 264 71 56 38
330 593 335 33 29 32
307 379 209 101 83 64
384 472 99 209 18 56
309 274 278 98 78 55
310 453 152 79 60 44
306 384 209 101 83 65
274 644 319 152 16 47
294 359 232 107 80 53
292 359 237 91 66 41
316 926 344 60 55 55
381 471 96 217 18 49
260 609 316 164 10 51
401 490 194 108 63 61
296 364 227 108 83 56
260 594 241 68 34 36
312 638 224 135 19 39
291 364 233 94 71 47
294 364 232 99 75 48
300 629 331 109 33 47
290 364 235 90 66 44
293 364 237 89 65 44
420 843 317 65 55 47
270 349 308 126 98 71
319 502 102 189 0 47
267 706 244 110 14 28
213 526 160 207 139 121
292 866 370 42 38 36
293 369 237 84 63 42
298 356 225 109 84 56
236 565 231 136 104 74
291 354 247 68 53 39
291 359 247 73 56 39
294 359 248 71 54 37
271 649 316 164 19 54
294 354 248 68 51 36
295 519 357 49 28 33
295 354 252 69 55 43
304 364 258 71 55 40
437 740 236 100 77 59
290 364 247 72 57 41
260 384 307 127 100 72
292 364 243 73 55 42
294 364 248 70 54 41
281 420 228 53 46 40
293 367 240 78 57 42
294 369 248 66 52 42
296 364 251 67 53 40
301 354 256 70 55 42
385 539 142 137 26 43
347 709 324 153 15 48
250 664 266 143 99 77
296 374 227 102 79 53
315 443 172 88 72 55
293 374 236 79 60 40
255 648 299 110 81 58
295 379 232 84 65 44
257 430 320 38 30 31
365 829 367 58 47 39
415 449 262 64 25 34
294 379 237 71 55 39
295 384 237 66 53 40
388 867 294 71 61 59
239 749 338 159 117 88
225 539 192 180 124 97
512 857 350 109 91 75
235 599 257 130 100 70
297 379 227 99 78 54
298 376 225 106 82 58
297 380 224 104 82 58
297 384 228 93 74 52
289 374 242 72 56 40
291 374 247 67 54 42
302 526 140 114 20 41
305 944 338 56 50 48
474 835 296 86 66 50
291 379 242 67 53 39
425 779 242 75 57 49
308 482 102 48 33 29
292 378 250 66 55 46
430 444 297 111 21 41
260 570 211 88 33 38
377 475 339 103 32 45
295 384 252 67 57 48
234 620 241 178 118 86
299 374 253 65 52 40
391 865 327 75 65 60
398 615 215 152 105 86
300 379 253 63 51 39
259 924 256 67 61 63
212 528 172 155 108 84
363 257 240 132 96 70
305 379 257 66 52 38
303 380 254 62 48 35
303 384 254 58 46 34
370 865 317 36 33 32
305 384 257 62 50 37
350 374 211 90 79 68
424 549 237 163 21 43
325 259 208 123 95 63
226 784 307 169 118 84
375 850 237 109 87 70
325 269 207 118 92 62
419 792 285 51 41 35
325 264 208 121 94 62
285 309 310 143 107 80
331 649 324 35 29 31
212 523 157 195 131 114
330 259 206 122 95 63
317 461 361 85 22 33
345 483 87 117 24 44
335 259 205 122 95 62
404 848 378 88 71 54
295 849 313 68 52 45
324 439 347 64 24 31
335 269 206 115 90 60
321 269 209 122 95 63
335 274 207 111 88 60
322 290 209 110 88 64
325 289 209 104 85 64
330 284 208 103 84 64
412 419 215 121 25 34
403 727 271 74 53 39
378 399 232 72 64 57
345 369 209 88 77 66
335 873 367 62 53 47
323 407 269 54 46 37
330 289 208 101 85 67
269 804 281 70 58 54
392 524 200 78 27 38
449 416 232 72 32 37
340 264 206 123 95 63
401 824 247 95 70 56
375 439 132 87 38 38
345 259 205 127 99 65
380 514 326 117 20 42
370 474 97 216 8 44
345 269 207 124 95 64
259 389 256 108 83 56
349 269 208 127 97 65
340 274 207 117 90 61
262 394 254 101 80 55
430 839 302 54 46 39
379 764 304 57 44 36
330 446 152 90 74 57
345 279 209 119 92 63
437 774 278 58 45 36
339 289 209 109 87 62
367 620 304 33 28 31
342 286 210 115 90 63
429 803 247 74 56 46
375 833 305 38 35 34
347 280 210 120 92 62
257 788 284 50 47 47
348 273 209 123 94 63
350 284 213 120 93 64
229 639 262 153 108 76
325 259 253 84 69 53
325 264 253 84 69 52
321 892 224 87 73 69
282 431 209 61 53 44
336 461 112 87 67 46
344 554 166 140 10 38
327 266 255 89 71 51
327 429 358 129 15 40
367 380 225 95 83 72
269 284 308 131 99 71
327 269 255 88 71 50
294 409 243 58 49 42
330 259 254 91 73 53
329 263 254 91 72 52
323 278 254 85 70 53
326 274 255 88 71 51
256 734 334 152 113 85
413 503 306 68 24 32
340 274 256 117 90 63
296 577 199 196 10 45
280 674 323 131 21 44
347 261 254 123 93 66
325 544 173 109 30 40
347 264 254 124 95 69
348 258 255 123 93 65
346 269 254 128 97 69
315 859 249 127 104 81
340 279 255 121 91 65
257 753 258 75 36 41
345 274 253 130 96 70
385 499 326 163 14 51
339 284 255 123 94 67
465 825 277 60 47 36
262 281 269 99 86 74
340 289 256 124 95 68
342 284 254 127 96 69
361 812 310 41 35 33
295 928 237 90 80 80
355 299 242 129 97 72
345 284 252 132 98 72
345 289 252 130 98 74
275 964 317 67 63 63
380 864 352 70 57 48
350 274 251 134 101 76
325 304 209 103 85 65
285 967 315 68 66 67
251 604 302 155 4 43
330 294 208 99 83 66
444 745 252 86 65 49
330 299 208 99 83 66
415 754 202 139 99 72
405 843 380 80 63 53
330 304 208 100 83 65
335 299 209 102 84 65
358 314 232 126 98 69
264 936 349 68 61 58
436 504 237 97 27 41
335 304 209 102 85 66
280 859 262 124 103 81
305 835 324 37 33 33
326 319 209 102 84 63
323 316 210 106 87 66
236 628 243 185 125 91
353 633 310 173 20 55
330 309 209 99 83 66
280 709 232 65 34 39
396 579 212 83 25 34
290 584 343 159 20 52
210 519 167 149 107 86
345 709 201 111 18 29
423 784 232 75 57 48
330 314 208 98 82 65
275 598 223 66 37 42
280 465 142 77 57 38
335 314 209 101 85 67
341 294 210 111 89 65
373 625 195 116 78 63
360 407 307 62 53 44
256 919 262 70 65 66
459 837 298 86 67 55
345 294 212 114 90 64
441 749 267 60 46 37
335 374 267 88 69 48
338 299 209 106 87 64
355 474 341 46 25 25
340 304 210 108 88 67
395 524 156 143 89 71
469 787 246 89 73 58
390 489 326 43 27 30
300 884 372 57 52 50
415 469 262 45 27 31
345 304 213 109 89 67
347 304 215 109 89 68
350 304 217 109 88 66
280 464 147 79 55 40
340 319 211 106 88 68
358 477 94 79 30 46
416 424 329 120 27 45
325 471 87 81 59 44
347 309 215 110 90 68
350 309 217 110 88 65
347 319 215 110 91 70
350 314 218 109 88 65
340 299 257 123 97 69
388 466 198 28 25 26
346 299 253 126 99 71
249 898 327 77 65 56
400 412 237 87 44 41
231 754 332 169 122 93
343 300 255 125 99 70
397 594 222 175 19 50
331 685 209 82 24 31
350 294 247 135 98 77
348 294 250 133 100 77
336 523 148 214 16 45
346 304 253 125 99 70
329 852 355 43 35 34
395 452 96 128 13 17
345 309 256 127 99 70
400 629 182 158 111 77
397 851 290 60 53 53
345 314 257 127 99 70
347 312 254 126 99 70
229 734 322 158 110 82
259 724 246 155 0 40
330 709 333 141 21 46
345 319 258 129 100 71
354 510 130 196 8 43
276 644 321 134 19 44
253 564 308 124 15 43
352 313 248 123 97 66
350 314 252 127 99 70
304 972 306 53 50 51
388 644 247 161 23 51
348 320 255 129 99 70
460 841 317 90 74 59
353 259 209 129 99 65
433 454 291 80 31 38
353 262 209 126 96 63
355 269 213 126 97 65
339 852 350 37 31 31
290 699 227 67 35 38
353 278 214 123 96 64
302 856 376 46 38 30
301 446 173 78 66 54
431 785 278 55 42 33
356 279 217 127 96 66
231 664 282 141 101 71
359 274 222 127 96 65
358 279 222 127 95 65
353 282 214 121 94 64
241 541 175 220 148 134
355 299 222 115 91 64
260 606 245 109 64 55
283 697 235 54 31 36
250 514 322 119 22 45
363 447 125 83 61 43
315 259 287 114 89 60
265 789 349 177 129 100
370 416 207 100 86 72
355 284 217 125 96 65
427 791 279 57 44 35
354 289 218 122 94 64
423 788 229 82 59 52
361 609 313 97 31 43
356 289 222 124 95 65
393 459 84 100 24 29
315 439 182 88 75 60
235 914 297 188 146 125
363 258 232 126 93 63
257 456 189 54 47 39
362 264 227 123 93 62
362 264 237 129 94 68
356 264 248 134 100 75
430 838 376 87 70 58
360 269 242 136 99 73
273 509 156 85 30 35
400 845 367 77 61 47
253 597 229 157 96 80
356 269 247 136 101 77
236 514 222 119 15 42
358 269 245 136 100 75
358 847 350 45 41 38
361 411 341 61 51 42
301 369 314 121 94 62
325 499 107 208 0 42
376 394 232 80 71 62
353 269 250 134 100 76
384 443 340 165 10 51
294 399 243 55 46 38
359 279 227 119 92 61
252 846 295 175 131 113
359 284 227 122 92 63
295 399 323 102 82 61
359 284 232 125 93 66
361 274 227 121 93 62
340 432 181 93 78 62
361 274 232 126 94 65
355 274 247 137 101 78
401 684 202 129 94 60
359 274 242 135 100 74
245 689 316 133 102 73
430 439 237 103 11 35
357 279 243 137 102 77
388 455 149 108 20 29
352 275 249 137 103 78
401 554 166 158 110 81
355 289 242 134 99 76
356 284 242 133 99 76
303 404 211 78 68 58
358 899 298 64 57 55
418 508 259 69 27 35
255 924 262 64 59 60
353 294 218 117 92 64
236 514 217 113 17 40
352 310 220 109 87 63
352 319 220 108 87 65
438 492 240 39 28 30
354 319 222 110 89 65
426 815 283 63 50 41
267 670 273 74 32 33
358 293 227 124 96 65
403 639 193 159 111 77
357 291 234 130 97 72
400 524 317 171 8 54
357 294 237 132 99 72
357 299 232 123 94 63
413 489 311 46 28 31
357 304 227 125 97 66
357 304 231 127 97 65
275 689 323 59 29 33
352 832 218 53 48 52
230 604 242 148 104 71
421 414 328 45 31 34
229 624 252 159 111 77
238 939 307 62 53 51
308 360 305 113 89 61
357 299 237 127 97 69
423 736 214 81 43 44
336 431 184 93 77 61
358 301 234 123 92 62
359 354 222 100 86 72
233 539 208 155 118 92
358 300 235 124 93 63
256 943 258 78 72 72
409 411 218 137 24 21
370 847 229 92 72 62
358 304 233 127 97 66
468 805 240 97 64 42
350 339 216 104 88 70
357 303 238 126 99 69
328 424 356 136 14 44
343 929 278 76 69 69
411 479 162 155 110 93
352 299 244 128 93 69
307 856 364 37 32 30
401 460 210 128 21 40
355 304 242 127 97 69
341 648 214 157 0 38
306 407 256 57 47 38
357 307 230 132 101 69
305 538 355 77 29 36
358 310 228 130 100 71
287 792 259 68 54 53
280 294 312 146 104 82
357 309 239 130 100 71
252 564 306 53 23 32
357 314 227 125 98 69
389 534 142 171 18 43
298 917 355 57 50 47
285 455 167 79 60 48
357 314 230 126 99 70
365 846 378 66 57 52
358 312 228 129 102 74
358 319 232 126 98 69
415 509 282 149 19 47
400 434 208 64 37 35
358 314 237 127 97 69
330 519 147 224 15 48
346 850 348 38 34 32
358 319 237 126 96 67
353 309 245 125 94 64
368 617 305 29 26 29
271 299 306 135 99 75
475 764 258 97 74 67
332 910 343 48 43 42
354 314 246 124 95 65
359 600 185 132 26 41
354 319 247 124 95 66
233 596 230 176 121 83
375 659 287 143 6 44
357 319 243 126 96 68
232 749 294 169 115 84
250 614 292 132 10 41
324 324 210 102 83 62
335 831 395 55 44 37
236 745 335 157 116 87
305 609 337 46 28 32
305 440 182 80 68 56
248 662 264 155 109 86
326 324 209 102 83 62
364 369 257 116 93 68
326 329 209 99 82 63
310 369 307 116 91 62
390 459 83 130 27 35
331 324 210 98 81 63
335 324 209 100 83 65
475 785 217 112 89 68
328 333 209 96 80 63
335 329 210 97 81 64
335 334 210 95 80 64
231 629 267 145 104 72
353 534 350 137 20 46
261 349 301 129 102 74
325 344 210 90 79 67
326 337 209 93 79 65
268 836 306 50 39 37
322 350 209 90 79 69
338 434 357 117 15 40
437 455 225 155 16 39
325 349 210 90 79 68
330 487 67 225 1 50
280 915 243 62 55 54
394 629 252 91 33 43
417 469 312 60 29 35
330 344 210 89 77 66
335 339 210 93 79 63
335 349 210 89 77 65
299 489 127 48 27 30
420 509 292 142 25 48
337 324 210 101 84 66
340 844 242 148 115 89
282 259 325 136 99 74
428 439 300 156 10 48
340 329 211 102 84 66
347 329 215 107 89 70
287 854 259 141 116 91
350 329 217 109 90 70
390 759 308 55 40 32
359 479 344 49 25 28
340 344 211 93 79 65
315 884 322 42 37 36
340 349 210 91 78 65
257 355 295 127 101 71
337 351 209 89 78 66
343 351 209 92 79 66
253 709 267 84 26 36
319 953 268 76 69 72
348 339 214 102 86 69
329 437 176 91 76 62
349 345 213 101 86 70
351 344 216 102 87 71
403 724 269 82 61 44
393 618 228 133 18 45
273 490 146 53 33 38
404 857 317 77 62 55
405 564 177 152 112 80
364 534 345 92 27 38
351 324 252 127 97 70
269 474 140 124 23 41
349 329 256 127 98 69
351 329 253 125 98 67
360 484 107 160 20 43
378 598 305 166 21 57
350 334 256 126 96 68
398 713 270 83 61 45
352 333 254 125 98 67
378 768 304 57 45 36
350 339 257 123 95 66
335 654 216 129 6 30
305 884 248 53 50 51
325 369 206 88 78 68
346 408 291 61 52 44
360 504 123 143 22 40
330 364 208 90 79 69
388 675 230 137 86 71
295 499 127 105 6 31
300 580 201 192 8 43
330 369 206 90 80 70
363 719 205 78 33 31
470 835 312 72 60 49
375 842 223 181 114 94
326 356 209 91 80 70
330 354 210 90 79 69
396 609 263 166 18 53
330 359 209 90 80 70
233 583 243 138 105 71
407 851 306 86 68 59
335 364 208 90 79 69
400 841 292 68 59 55
290 359 315 125 99 69
335 369 207 90 79 70
324 375 204 88 78 68
410 414 333 105 28 40
325 384 204 88 78 68
354 374 213 91 80 69
248 529 312 65 31 36
370 454 102 79 55 40
350 433 172 94 79 63
330 374 205 89 79 69
334 835 241 164 125 101
350 509 131 209 12 43
330 376 204 89 79 70
330 379 204 89 79 70
270 464 162 72 56 44
310 906 359 54 48 45
328 380 205 87 78 69
271 583 213 177 10 45
328 382 205 89 79 70
280 425 222 47 41 38
335 379 204 92 81 71
375 408 307 59 50 40
336 378 205 92 81 71
299 354 311 118 93 63
335 384 204 90 80 71
284 468 349 114 16 37
339 354 209 89 77 66
354 478 77 177 18 46
419 444 219 93 30 36
339 359 209 89 78 67
372 714 304 146 9 47
355 774 202 129 94 58
346 354 210 95 81 68
226 774 322 166 115 84
340 364 209 88 78 68
345 364 211 90 78 67
350 354 212 98 84 70
285 854 261 142 116 90
400 442 126 106 15 32
345 374 208 89 78 67
232 614 262 141 104 71
338 381 204 92 82 72
310 349 297 116 91 60
339 384 204 91 81 70
298 668 235 109 12 29
411 805 232 155 103 80
301 778 244 77 61 55
341 383 205 90 80 70
285 674 326 43 28 29
247 566 205 184 119 98
345 379 207 89 79 68
304 274 316 151 105 81
305 544 353 118 34 48
351 379 211 90 79 69
291 488 134 157 8 36
350 384 208 89 78 68
431 765 236 74 55 48
341 588 193 61 34 38
358 882 249 72 63 63
354 324 222 105 87 67
354 344 218 103 88 71
321 349 277 94 70 49
354 349 217 101 86 72
357 348 221 101 86 71
330 414 342 76 14 26
385 809 306 41 34 32
435 504 232 113 30 43
320 500 92 68 29 36
358 345 224 102 86 70
299 620 225 172 13 48
363 882 330 60 50 45
337 446 344 95 10 32
359 349 223 100 86 71
270 893 337 78 65 55
305 973 302 54 51 51
326 495 87 176 10 43
305 579 198 182 8 41
410 469 156 141 90 71
357 324 226 114 92 68
359 324 237 124 96 66
356 456 108 85 59 43
358 700 209 44 35 36
357 324 244 125 97 67
359 329 242 123 97 65
410 549 252 161 14 52
317 466 119 60 33 32
327 496 96 188 4 57
356 329 247 120 94 64
345 784 208 63 54 52
395 444 331 164 16 51
336 643 214 151 3 37
315 574 345 41 26 31
358 330 245 122 95 64
265 574 328 162 11 51
405 474 187 132 89 80
272 509 158 97 28 35
428 852 327 88 71 58
279 432 211 58 50 42
359 334 242 120 95 65
375 457 91 81 47 36
355 843 308 33 31 31
398 487 109 61 35 36
402 804 205 178 121 94
357 334 248 119 93 63
368 371 251 117 94 68
270 399 253 79 67 54
361 404 210 92 80 69
354 334 251 123 96 66
253 708 270 62 28 38
357 338 225 102 85 68
360 339 232 113 91 68
296 703 224 161 22 46
305 629 330 61 31 35
400 504 207 50 35 34
286 401 244 66 57 48
385 534 319 82 28 37
440 415 277 132 33 46
358 340 224 103 86 69
360 344 227 104 87 69
320 885 222 84 72 64
361 349 227 103 87 70
475 764 212 97 73 58
363 351 229 105 88 70
363 349 237 115 93 69
350 411 331 63 50 40
286 514 355 159 18 51
380 494 111 113 31 42
350 344 258 120 94 65
398 823 213 189 126 98
354 345 255 121 95 66
357 338 249 121 96 66
430 840 297 58 49 40
290 349 313 127 99 68
313 354 264 72 55 39
369 868 356 67 54 47
423 483 239 86 17 30
357 349 253 120 95 67
359 349 251 117 94 66
363 350 242 116 93 67
389 867 298 65 56 54
335 435 177 92 77 61
355 354 217 99 85 71
353 355 214 99 85 71
321 368 283 89 67 48
353 359 214 97 84 71
238 943 311 52 49 49
245 564 202 199 132 107
358 354 219 100 86 72
334 524 152 212 15 47
308 796 240 174 123 99
243 532 253 136 8 39
357 356 220 99 86 72
367 502 119 163 28 51
360 359 222 99 86 73
356 364 216 97 84 71
392 458 156 86 37 31
359 364 218 98 85 72
305 884 371 54 49 48
383 537 139 66 26 36
405 469 325 64 28 33
360 369 218 96 84 72
372 497 114 63 29 31
419 411 327 56 39 36
361 364 221 99 85 72
260 664 272 133 84 67
325 534 358 147 20 50
362 368 221 97 85 72
395 839 373 64 51 41
361 528 344 99 21 37
364 369 223 98 85 72
356 373 215 92 81 70
279 473 349 137 12 42
360 374 217 94 83 71
365 443 132 81 57 42
300 304 306 133 96 68
235 729 286 170 113 81
270 444 197 61 54 47
360 379 217 92 81 72
358 380 214 91 80 70
393 598 281 179 9 55
313 277 296 134 97 70
359 384 214 90 80 70
361 384 216 91 80 71
262 676 310 49 34 28
362 374 220 95 83 72
361 354 226 101 86 71
381 404 232 70 63 55
334 299 260 116 91 64
364 359 228 102 87 72
366 359 232 105 88 70
326 944 322 55 52 52
367 359 237 111 91 69
266 431 227 65 56 47
231 534 206 162 122 99
242 723 279 156 105 74
367 367 230 102 87 72
258 592 271 105 13 35
262 406 315 107 90 72
367 362 235 108 89 69
356 354 257 118 94 66
414 494 307 62 30 34
360 354 252 118 94 67
364 354 247 117 94 68
362 353 248 116 93 66
302 389 214 96 79 60
366 359 242 115 93 69
365 359 247 117 94 68
363 359 251 117 94 68
430 801 255 73 55 44
396 865 312 92 72 66
218 512 146 75 55 51
367 362 244 116 93 68
279 515 155 120 18 39
424 731 219 83 54 45
233 652 279 138 96 69
414 504 187 170 118 109
360 364 258 118 94 67
365 364 252 117 94 68
255 854 306 129 42 65
365 409 327 63 50 40
362 362 254 116 93 68
363 365 256 117 94 68
245 534 172 113 76 70
438 726 249 85 61 46
367 368 249 118 95 68
300 659 329 124 21 44
366 374 257 115 93 68
281 554 345 170 18 54
345 461 102 86 57 39
369 369 232 103 87 70
230 649 272 140 102 69
368 361 241 113 92 68
238 879 307 168 122 103
371 369 242 114 93 68
260 399 257 98 78 56
380 848 257 76 60 56
419 439 219 73 34 36
368 370 228 101 86 72
290 846 314 41 33 33
368 374 224 97 84 72
369 374 227 98 85 71
414 439 247 136 12 43
310 789 237 77 59 55
370 379 227 97 84 71
252 540 187 95 42 46
370 384 227 95 83 72
232 521 205 121 100 79
373 380 232 99 84 69
313 472 364 66 23 30
368 668 215 48 38 40
373 384 229 96 84 72
367 378 258 112 91 66
372 378 236 105 87 68
298 654 235 39 33 40
296 389 247 58 48 38
372 373 242 114 92 68
403 474 120 138 17 44
371 374 247 116 93 68
405 749 307 66 50 37
373 375 242 113 92 68
544 832 293 97 87 78
368 375 255 115 93 68
388 715 189 136 94 57
331 585 339 72 31 37
374 379 242 108 88 67
333 900 231 73 63 62
372 441 129 84 47 40
370 379 252 112 91 67
315 879 247 54 49 53
369 380 256 111 90 66
372 382 253 109 88 65
398 457 130 165 14 52
364 452 111 82 60 42
214 514 182 134 103 77
370 384 257 105 86 64
228 794 328 170 118 92
248 922 337 66 49 49
350 834 305 39 34 32
465 833 287 102 83 65
325 949 317 61 59 60
311 479 77 112 25 32
320 477 71 87 52 33
272 451 184 70 61 51
317 476 74 84 57 12
321 506 121 152 11 42
306 690 219 89 26 31
344 442 151 92 76 57
308 867 341 32 30 32
311 476 82 90 31 36
311 475 87 85 37 30
283 417 231 54 46 40
280 399 323 118 95 68
360 860 332 36 32 32
310 479 82 104 27 31
311 475 92 80 36 28
290 459 152 74 57 42
401 825 232 124 85 70
290 911 359 62 55 52
321 471 88 85 53 37
313 761 225 76 62 54
320 470 97 81 50 30
320 473 82 81 50 36
354 898 277 79 68 65
319 472 86 86 49 36
323 492 74 233 18 48
471 770 221 91 68 55
234 628 273 142 104 73
230 514 201 67 49 45
318 472 92 79 47 37
259 426 266 84 66 54
295 470 128 66 46 39
415 464 267 82 27 38
365 410 337 60 49 41
254 884 265 161 123 94
290 474 128 143 22 28
290 479 127 168 8 45
410 825 376 67 53 40
300 470 128 56 44 36
243 521 227 47 29 33
297 478 124 163 6 41
345 844 381 55 45 40
303 478 120 95 33 25
250 573 238 84 57 46
320 460 127 54 37 39
380 458 87 93 5 32
403 436 209 62 41 43
328 428 352 118 14 36
319 462 126 53 40 39
310 479 112 44 33 28
280 484 352 142 12 44
341 456 118 87 67 46
402 727 268 71 49 36
320 470 107 82 37 28
320 469 112 75 30 31
378 614 185 137 95 65
450 429 232 146 20 44
313 477 103 34 32 32
296 865 372 38 34 32
329 399 273 54 46 37
265 869 262 124 103 81
318 472 102 82 43 31
314 474 112 60 40 30
313 477 107 42 35 30
318 754 340 75 25 32
250 594 307 157 3 48
318 472 106 81 37 31
298 556 185 209 10 40
310 469 122 68 37 33
335 873 313 30 29 30
309 468 126 65 36 35
361 744 204 103 28 29
233 600 231 178 122 83
358 734 315 147 18 49
365 719 312 132 19 46
310 474 118 67 37 30
305 968 312 78 74 75
309 478 116 54 34 33
319 467 116 70 33 30
321 465 117 63 38 38
314 468 121 52 38 33
405 429 212 62 35 34
368 869 232 91 77 66
438 432 219 140 19 37
313 473 116 66 40 29
303 437 190 75 65 55
312 476 114 51 39 28
419 464 273 82 25 35
330 629 324 41 29 32
330 299 260 110 87 61
373 465 79 68 46 41
312 488 78 146 7 39
320 484 67 147 17 42
316 488 73 193 11 45
313 330 276 97 71 50
314 489 77 166 8 42
231 739 292 174 116 88
316 493 78 182 14 45
305 699 218 107 19 40
320 494 77 227 12 57
309 399 258 53 44 35
307 484 88 109 15 33
310 489 82 144 1 40
257 910 264 99 84 78
306 484 92 55 32 32
303 720 225 129 12 39
374 847 229 120 96 76
307 481 97 38 32 31
337 872 370 59 52 49
303 324 300 121 92 62
331 450 370 144 15 45
339 487 87 177 8 43
295 464 137 73 56 43
306 489 92 78 21 30
390 454 202 41 25 29
370 458 92 78 58 43
305 489 97 109 16 37
340 441 158 91 76 59
260 559 247 55 29 34
307 492 89 144 7 27
306 494 92 143 3 37
240 719 328 143 106 78
305 494 97 135 1 36
380 444 192 74 21 33
407 847 372 92 68 45
314 496 86 211 7 46
306 520 132 129 22 42
234 699 281 163 109 79
320 495 82 234 4 51
260 573 237 48 24 28
270 466 158 74 55 41
307 502 94 198 33 55
417 509 286 139 16 43
312 314 282 111 88 60
390 835 217 211 137 106
311 497 89 191 14 56
315 500 90 88 29 38
265 659 273 109 59 50
315 504 97 218 5 40
230 523 152 189 88 92
319 502 93 168 10 40
275 419 330 79 27 35
319 502 97 213 2 52
258 329 292 131 101 71
301 489 112 57 31 29
396 835 283 65 54 50
385 445 117 92 27 29
303 487 110 47 27 28
312 359 266 84 65 50
301 329 303 122 93 64
302 491 104 115 6 39
303 494 101 127 5 32
279 840 302 97 78 61
300 494 362 159 17 51
240 934 327 50 44 44
405 634 197 153 109 76
289 525 141 76 29 35
301 494 107 114 9 34
260 599 242 83 49 44
300 489 117 44 33 29
302 486 113 46 35 35
340 844 307 37 33 32
266 425 238 70 60 50
319 394 302 98 79 57
301 484 122 71 30 29
300 489 122 41 30 33
299 494 122 81 20 30
297 495 127 101 2 33
302 503 103 132 3 33
345 859 314 33 30 32
302 504 107 90 22 31
280 504 147 131 15 41
265 494 343 45 29 29
330 339 265 104 77 55
303 506 105 113 20 30
261 957 320 57 53 53
240 639 248 187 126 93
415 499 277 160 16 45
425 484 225 145 18 37
306 508 103 158 20 42
305 510 107 133 23 43
296 504 122 120 2 33
406 509 167 170 117 92
294 504 127 112 9 30
332 692 329 50 26 28
371 709 193 136 98 64
352 456 109 86 55 42
295 509 122 138 2 34
310 394 207 91 78 64
318 766 220 80 63 56
293 509 127 123 6 32
419 489 301 127 23 46
383 877 304 73 62 61
298 504 115 131 4 36
343 623 320 137 27 50
371 399 263 72 63 54
297 509 117 150 4 40
346 914 277 59 52 50
310 508 103 154 18 46
335 538 163 68 34 38
245 529 262 141 0 40
307 757 344 118 24 44
311 510 112 190 11 54
319 503 107 157 5 41
310 284 297 131 92 68
365 449 117 82 59 42
270 779 349 176 125 98
362 866 217 106 89 77
313 507 104 89 32 35
372 781 310 45 36 33
238 712 324 140 103 76
320 503 112 163 5 44
319 412 319 62 48 41
322 379 284 86 68 48
312 511 116 135 20 38
317 506 116 59 37 32
320 505 117 98 25 41
319 508 122 112 28 44
360 446 128 82 62 44
244 556 276 82 29 38
365 445 127 83 59 43
345 549 352 92 27 40
338 932 316 50 45 42
370 448 117 81 55 41
332 666 214 115 14 30
372 446 119 83 52 40
379 614 182 139 96 66
376 446 118 84 45 39
274 437 206 59 51 45
304 542 169 193 10 50
370 445 122 82 55 41
375 440 128 85 41 37
380 440 127 87 35 34
380 448 112 87 34 32
380 447 115 87 35 34
305 443 177 81 68 55
385 447 112 91 23 28
301 895 237 60 57 58
385 441 124 92 29 29
331 484 64 164 22 33
370 789 188 135 103 64
324 462 121 72 44 40
304 600 210 152 18 45
275 409 252 71 61 50
405 845 363 71 56 41
310 419 327 76 15 26
255 819 297 161 117 89
335 484 63 160 28 29
340 480 64 93 58 37
340 487 64 239 0 42
356 895 277 77 66 63
405 789 301 46 37 31
325 480 68 86 47 40
420 729 292 61 47 34
335 471 79 89 62 30
233 683 299 137 97 66
342 486 77 167 9 52
440 464 227 132 19 38
336 517 144 210 14 53
317 385 299 109 86 60
330 475 73 93 54 34
364 857 335 35 32 32
257 455 330 98 23 37
335 475 72 89 62 35
259 409 256 78 67 57
335 450 137 87 70 51
335 478 67 89 62 35
286 789 258 79 61 55
325 470 92 82 62 43
335 470 82 89 66 34
269 888 351 34 32 32
455 848 332 79 65 52
244 527 159 124 49 63
330 467 97 88 68 40
335 467 92 87 63 41
311 426 198 84 73 63
334 467 96 88 68 45
335 466 97 88 62 41
330 472 81 86 67 43
345 463 97 86 57 39
345 465 92 90 54 38
307 879 318 51 45 41
383 679 281 46 26 28
394 614 232 156 23 48
240 526 160 67 37 42
350 463 92 85 51 35
340 476 68 91 53 30
345 472 75 89 53 37
346 477 70 112 49 31
336 411 330 62 43 37
340 469 82 87 61 35
340 468 87 89 58 37
339 467 91 87 58 38
251 874 268 141 114 87
340 466 92 89 56 37
340 464 97 93 56 38
342 466 89 88 59 38
350 465 87 86 52 34
351 466 84 85 51 38
330 465 107 80 60 36
335 463 107 89 67 45
325 463 117 78 46 37
250 689 317 138 106 77
335 455 127 86 68 49
233 603 258 135 102 71
376 449 344 125 22 45
329 462 116 79 49 43
401 709 268 80 59 44
306 324 297 118 90 61
335 459 117 85 67 47
320 864 248 98 82 65
281 724 336 131 14 42
330 459 122 83 53 41
325 468 102 86 51 24
323 467 111 81 35 25
317 441 174 89 74 57
344 669 320 52 28 29
410 464 157 113 78 53
335 679 211 59 35 37
326 466 108 92 48 32
329 467 101 83 63 33
232 590 246 139 105 72
413 489 164 142 99 69
340 461 107 89 62 42
410 414 232 108 25 36
382 481 105 91 23 25
302 802 254 183 125 101
296 415 219 63 55 47
400 489 117 76 32 39
337 461 109 89 67 44
318 730 340 136 17 45
261 644 266 128 81 64
340 459 112 88 65 45
345 458 112 87 58 42
350 460 102 87 53 38
355 403 277 66 57 49
340 455 122 87 68 48
340 453 127 87 69 49
344 457 115 87 63 44
316 654 223 122 13 33
350 454 117 86 59 42
330 939 267 76 69 71
450 834 302 69 58 48
417 560 235 155 16 38
375 479 102 195 14 38
413 828 280 97 87 79
345 451 128 87 69 48
351 451 123 85 64 45
370 679 207 96 74 52
411 509 177 165 117 91
405 409 252 94 35 41
325 488 68 215 5 46
325 493 77 224 15 48
440 809 271 75 59 51
416 489 272 145 18 44
320 840 373 67 54 44
326 491 75 228 18 57
335 488 67 225 1 52
323 957 311 63 60 61
285 434 202 66 58 50
485 843 297 94 73 54
335 489 77 140 14 37
329 492 82 160 6 44
314 420 211 81 71 61
285 724 338 137 16 43
393 852 356 71 54 46
250 724 333 150 114 86
335 489 82 136 13 41
264 569 328 158 11 50
370 524 343 45 27 30
335 489 87 171 5 45
372 639 208 97 66 55
332 491 92 155 5 43
322 496 85 222 15 64
306 349 261 77 61 48
240 828 327 194 127 102
325 498 97 194 2 48
323 369 277 84 63 50
273 571 200 176 9 43
340 487 72 213 0 51
377 393 237 79 69 60
345 485 67 200 9 43
270 927 355 76 70 69
231 699 307 147 104 73
342 486 68 207 0 39
435 439 221 155 15 37
342 626 319 52 31 35
342 486 72 207 0 54
345 485 72 200 0 51
339 487 77 168 5 44
394 493 325 64 21 31
309 369 262 77 60 45
289 278 265 95 78 60
416 499 272 151 17 45
238 794 339 169 119 93
345 484 77 159 6 40
338 415 336 70 26 29
293 493 359 139 16 44
267 634 315 39 26 30
348 483 72 193 0 42
407 550 284 43 32 37
341 486 82 110 18 42
341 485 87 166 11 46
339 487 97 131 15 42
345 483 92 60 31 36
417 509 252 100 22 38
454 799 246 95 81 74
378 789 310 54 42 35
341 486 97 76 24 39
347 481 88 92 15 31
320 543 173 104 35 40
370 854 337 37 34 33
348 482 82 94 37 37
271 967 287 72 68 70
414 745 305 74 56 41
408 808 218 135 89 66
347 481 90 93 23 35
257 855 273 136 112 88
348 482 94 117 34 43
350 448 132 85 68 49
240 518 227 65 30 34
349 482 98 84 21 34
333 492 103 156 7 43
334 493 107 148 8 41
414 474 236 107 19 36
321 501 102 210 0 46
360 523 138 102 22 38
364 876 211 109 91 80
327 496 100 208 7 46
323 502 113 196 0 48
439 793 253 92 71 54
322 904 231 74 64 63
330 498 112 214 2 47
435 744 247 89 66 51
376 580 171 190 13 40
295 409 327 82 37 34
273 467 155 73 52 50
331 919 337 55 49 49
325 504 122 210 3 42
233 821 324 200 135 110
322 506 125 172 3 62
346 819 217 61 55 55
353 887 214 102 82 69
313 258 284 105 84 58
384 619 286 145 20 51
324 507 128 106 14 34
310 359 302 114 90 61
328 502 119 226 11 43
333 497 114 183 0 40
329 502 122 231 7 40
330 504 127 212 12 43
247 666 305 139 103 73
234 630 246 178 120 86
382 458 192 43 28 30
332 501 125 234 10 30
351 784 204 148 107 68
345 485 102 71 28 37
340 490 107 190 5 45
345 488 107 183 6 48
376 634 192 152 105 80
369 654 216 48 37 40
341 491 111 94 18 34
345 490 112 109 22 38
271 559 336 167 15 53
355 514 133 126 18 37
252 584 311 138 10 46
362 392 215 91 80 70
350 485 107 104 24 37
349 487 109 80 26 34
301 798 253 180 124 99
245 598 263 109 84 60
350 488 112 155 23 46
345 444 338 57 13 22
252 827 304 163 108 81
350 494 117 223 12 42
232 579 227 148 109 73
425 489 292 149 19 46
340 500 122 229 15 47
300 544 353 105 30 44
290 814 267 163 113 83
338 501 125 235 15 48
345 500 122 226 14 44
231 769 299 153 109 73
418 702 278 60 47 34
350 501 125 215 14 41
407 556 274 184 22 57
360 463 87 79 53 35
291 420 218 63 55 48
243 524 212 69 27 36
295 289 258 96 79 59
274 494 147 43 34 38
329 909 352 52 47 46
265 445 198 55 48 41
237 947 316 58 56 57
354 462 91 82 52 34
356 461 93 79 55 35
330 419 366 137 16 43
344 884 218 97 75 63
359 462 90 78 53 37
365 464 82 82 58 38
406 504 221 121 16 36
366 461 88 78 62 44
234 639 278 147 107 78
365 459 92 81 60 42
350 844 237 60 49 51
365 457 96 83 59 41
355 469 77 93 47 26
411 459 324 156 11 47
355 474 73 127 41 30
395 504 152 144 92 74
358 473 74 115 47 20
285 499 356 148 16 47
360 474 77 168 24 37
363 472 78 175 27 39
319 428 333 81 16 29
355 467 81 85 50 33
360 459 348 48 26 30
324 513 138 68 30 36
360 465 82 82 53 33
354 478 82 152 24 43
427 836 285 93 71 59
243 521 287 151 12 49
354 477 87 144 27 49
360 474 87 151 22 45
326 444 362 64 25 32
356 476 82 151 11 46
355 478 92 97 32 42
306 423 329 44 24 25
359 477 98 66 30 37
364 472 87 97 24 36
330 394 202 86 77 67
365 473 92 185 10 49
310 359 263 75 59 44
260 554 203 66 35 34
365 475 97 190 8 45
290 829 332 44 37 33
293 507 130 103 10 38
370 455 97 78 57 41
248 821 339 185 126 102
233 622 269 138 101 71
370 463 82 75 52 42
370 460 87 78 61 37
405 464 157 81 48 32
369 462 85 79 59 35
472 763 259 103 79 69
298 334 305 118 92 60
375 464 81 95 33 39
368 457 95 78 63 47
432 465 240 92 15 30
371 456 94 77 60 41
380 455 92 88 32 35
291 839 258 130 108 87
385 453 97 86 31 29
371 528 138 88 35 40
232 595 251 138 104 72
364 639 301 155 23 53
380 460 82 93 7 33
342 936 286 68 62 61
247 544 292 145 10 43
271 478 138 99 30 38
362 663 304 124 13 41
380 464 82 103 35 32
392 447 138 149 16 45
253 639 254 163 110 86
305 844 318 41 36 35
385 459 82 105 20 25
373 525 135 98 28 39
385 463 82 114 37 42
494 787 203 129 97 73
232 554 207 155 109 78
382 456 89 99 32 15
370 469 82 69 38 36
370 470 87 120 20 42
338 918 330 48 42 40
374 467 83 101 34 43
371 471 90 205 6 50
338 419 352 60 28 29
290 389 321 120 95 67
379 467 88 220 12 52
306 279 272 90 74 58
385 464 87 107 28 43
415 759 202 146 103 75
273 339 309 128 98 71
401 619 181 154 109 75
385 470 96 221 19 48
363 572 330 180 12 57
326 866 250 77 65 54
361 456 103 84 61 42
354 457 106 86 56 42
357 456 104 86 60 42
365 455 102 83 62 41
399 447 116 118 18 21
366 456 98 82 63 41
227 732 304 163 110 81
284 971 308 65 62 62
334 864 371 57 51 47
365 453 107 82 62 43
392 465 134 116 20 47
366 451 113 81 60 42
285 269 271 107 88 68
294 872 342 43 38 37
401 469 123 124 21 42
355 452 117 84 60 44
359 452 115 83 61 44
355 450 122 83 62 45
355 480 101 134 19 40
309 314 292 117 91 62
370 452 106 79 56 40
285 878 342 42 38 37
392 509 193 38 25 27
375 451 107 83 45 36
267 652 310 146 24 47
340 451 133 88 70 50
375 449 112 83 47 37
374 452 105 81 48 36
380 451 103 89 31 30
285 961 324 69 65 66
403 782 305 61 50 42
379 452 101 88 32 33
370 476 100 210 13 40
368 816 309 42 36 32
370 479 102 207 15 41
325 859 373 51 44 41
380 479 103 181 15 41
385 478 103 74 27 32
355 484 107 148 16 42
250 639 252 174 117 91
383 428 345 160 16 50
365 481 105 188 8 44
365 484 107 175 11 37
366 493 114 205 15 42
330 569 188 114 29 42
307 398 319 110 88 62
302 891 243 52 51 53
365 495 116 205 15 42
360 497 119 209 14 43
273 601 329 114 42 51
360 500 121 203 13 40
366 508 123 59 35 34
370 484 106 202 14 41
289 536 156 225 0 52
325 639 218 126 14 35
371 482 104 196 13 38
385 754 190 131 96 56
370 490 110 204 14 40
249 919 272 86 74 67
370 494 113 178 15 42
420 498 224 135 20 39
375 494 111 146 21 41
385 481 105 100 39 44
273 274 314 135 100 72
381 491 110 66 35 37
360 444 132 82 63 45
385 491 110 88 31 36
347 823 218 64 57 55
428 424 305 157 12 48
235 521 152 202 11 49
380 820 382 66 54 43
385 494 111 99 33 41
250 669 307 137 100 73
312 676 224 120 5 28
406 861 331 102 84 71
368 496 115 178 12 22
230 609 252 142 104 70
370 503 118 130 18 41
378 577 169 192 12 43
251 614 297 89 27 39
375 504 118 107 31 40
232 684 278 171 115 84
370 508 123 97 34 40
244 529 257 140 1 39
326 439 357 66 25 33
374 506 120 43 32 33
324 389 286 75 60 44
380 498 114 103 35 42
270 910 364 66 59 57
420 429 217 65 33 36
320 789 228 74 60 56
380 500 115 80 35 40
397 846 282 72 62 61
403 564 173 158 114 82
385 500 115 89 36 44
480 829 282 102 85 68
281 445 188 73 63 53
345 389 206 93 81 70
315 949 258 88 81 83
280 443 192 70 60 50
285 448 181 77 64 51
242 738 284 164 110 79
286 446 184 75 64 52
433 701 275 66 49 35
390 809 303 46 39 37
485 845 309 93 71 53
280 449 182 76 64 52
300 554 350 146 25 53
317 881 239 58 53 54
285 444 187 73 63 53
315 449 157 82 66 49
320 448 157 85 69 52
345 506 130 207 10 32
295 449 172 76 65 54
304 447 170 80 67 53
290 439 192 70 62 53
387 499 143 51 31 32
445 416 227 87 31 34
295 438 191 73 63 53
276 619 326 34 29 32
292 446 179 76 64 54
290 445 182 75 64 53
258 408 313 84 68 53
427 712 279 70 54 43
275 862 324 104 83 59
295 444 182 74 64 55
258 432 236 74 62 50
326 926 339 57 53 53
290 443 187 73 62 53
294 442 185 74 64 54
316 869 374 53 48 46
311 809 248 171 121 97
300 443 181 77 66 56
301 441 184 77 66 56
359 842 355 58 51 45
304 442 180 80 68 55
239 699 318 134 100 71
409 509 172 169 118 94
432 775 256 81 61 50
233 655 260 194 129 102
236 813 303 167 119 90
297 441 184 74 64 55
389 479 136 65 29 32
310 446 168 87 72 55
316 446 163 88 72 54
320 445 162 87 71 54
390 469 97 215 20 47
352 567 169 192 10 36
320 441 173 90 74 56
394 624 242 40 30 34
320 439 177 90 75 59
310 440 182 86 72 57
306 436 189 81 69 57
310 434 192 83 71 59
439 424 239 62 27 29
380 409 327 56 47 38
310 438 186 85 73 60
315 437 187 88 75 61
367 709 309 95 28 40
322 670 219 125 6 30
248 914 334 149 113 94
275 939 347 70 64 61
320 435 187 90 76 62
318 437 186 90 76 61
366 504 345 97 24 39
259 394 256 104 82 55
265 394 252 94 77 57
262 399 254 91 75 57
339 459 342 65 15 27
435 415 267 137 25 45
270 394 253 84 70 54
316 334 272 91 66 47
355 864 236 98 83 77
262 412 254 73 64 55
271 400 255 76 66 57
270 414 256 74 63 53
257 604 315 149 9 48
277 715 330 129 13 41
465 787 234 91 64 57
415 804 237 104 72 59
280 389 252 71 60 49
270 704 242 108 17 27
295 455 157 74 58 43
305 867 342 33 31 33
275 394 252 76 64 53
275 399 253 73 63 53
386 449 147 91 20 40
425 429 262 49 23 30
273 400 255 73 64 56
284 390 250 65 55 45
385 749 190 135 96 56
285 400 247 66 55 45
280 329 310 128 99 71
395 679 227 135 96 69
285 394 251 68 58 47
408 461 174 98 82 64
392 581 299 182 8 58
232 671 290 135 95 65
385 684 189 147 101 66
281 400 248 69 59 48
340 692 205 43 36 37
285 397 251 68 57 47
305 848 315 80 62 49
280 414 237 60 52 44
276 881 353 35 33 33
280 409 242 65 55 46
431 729 232 94 67 51
235 604 232 181 121 87
416 504 282 156 20 47
278 407 250 63 53 43
275 414 242 69 58 48
259 438 216 61 48 40
330 868 327 30 29 30
272 416 247 72 61 50
377 631 289 160 21 56
295 789 252 64 48 49
277 411 244 62 53 44
306 950 333 57 51 50
413 538 268 175 17 54
272 416 252 71 61 50
258 545 218 103 9 34
240 754 288 160 112 79
274 413 252 70 60 50
273 412 255 73 63 52
285 404 243 65 56 48
338 422 365 136 19 44
272 431 219 46 39 34
332 522 152 222 13 50
262 446 199 53 46 39
360 684 212 62 35 39
265 440 207 51 44 38
271 440 203 61 53 47
265 450 192 60 51 43
266 441 204 53 46 41
260 435 222 65 52 42
265 435 217 53 43 36
476 821 280 62 50 40
276 431 214 49 42 37
359 844 378 63 55 51
280 428 217 51 43 37
275 464 346 125 11 38
281 430 212 57 49 42
405 454 326 157 9 48
310 309 267 72 57 40
277 426 224 51 44 40
386 444 338 160 7 49
285 380 320 128 99 71
304 779 241 75 59 53
279 427 221 44 39 36
286 420 223 52 46 42
325 431 193 90 76 63
285 424 217 57 48 41
247 799 345 166 116 90
254 849 282 157 124 96
454 838 323 91 77 63
429 464 296 67 27 32
228 749 317 166 115 83
315 749 341 54 28 31
295 918 234 91 81 80
284 427 216 58 49 42
250 592 259 86 63 49
282 426 218 53 44 38
281 435 203 63 55 47
351 879 237 72 61 57
272 706 239 111 16 32
364 764 197 143 105 70
369 620 195 147 39 53
275 443 196 64 57 50
276 441 198 62 54 47
413 424 237 136 10 42
285 438 197 68 59 51
284 432 206 64 56 49
415 459 218 89 26 35
255 789 287 87 69 57
261 431 232 71 60 49
405 840 362 75 59 47
260 430 237 74 62 51
264 428 236 71 61 51
269 423 237 68 59 50
230 530 162 207 132 117
270 429 227 61 52 45
410 474 322 68 31 35
318 393 205 88 77 65
357 799 199 150 118 84
272 426 229 64 55 46
267 426 234 68 59 50
245 889 272 165 122 96
265 879 331 141 101 88
307 886 369 60 53 50
260 429 242 76 64 52
265 424 242 73 62 52
405 549 177 150 109 82
261 426 247 79 66 54
290 924 353 60 53 50
257 410 315 51 24 29
313 309 259 62 48 34
264 423 247 75 64 52
381 570 166 192 16 42
259 427 252 80 65 53
259 427 257 81 67 56
429 411 302 94 29 36
261 426 252 79 65 52
262 426 256 79 68 55
355 879 222 87 72 64
295 574 345 39 26 30
267 421 244 70 60 49
265 765 346 138 103 74
267 421 248 71 61 50
285 759 348 130 92 73
270 419 242 70 60 51
270 419 247 71 60 50
237 932 310 152 118 101
259 630 302 135 20 44
265 419 258 74 64 55
440 809 275 81 64 51
