ply
format ascii 1.0
comment Created by Open3D
element vertex 2218
property double x
property double y
property double z
property uchar red
property uchar green
property uchar blue
end_header
233 467 243 56 30 31
230 408 290 122 97 69
299 420 157 128 35 36
309 778 336 80 63 54
240 423 256 80 68 55
370 223 258 132 100 61
243 433 253 92 18 28
343 63 265 113 56 47
386 690 187 83 60 45
254 383 263 100 85 69
354 118 280 104 84 62
338 48 270 116 82 62
395 103 240 114 72 68
235 388 280 122 97 67
464 518 333 110 76 60
422 710 268 159 108 77
344 898 355 146 107 85
333 233 280 106 86 63
421 747 211 74 58 48
344 410 180 173 22 34
306 554 414 97 11 36
358 880 329 115 92 71
315 412 313 112 73 60
273 703 336 59 26 32
245 429 252 84 46 35
252 443 239 97 13 33
245 470 364 59 26 27
249 423 251 92 78 61
370 843 210 80 65 58
255 388 261 99 83 67
321 430 168 163 1 37
285 898 315 175 126 103
255 478 170 117 24 41
248 433 249 89 27 29
386 549 244 94 27 37
423 906 375 39 32 34
254 558 211 105 31 40
399 63 255 102 35 39
399 538 458 118 23 38
256 419 246 91 76 61
404 528 430 80 25 28
244 643 366 180 124 100
255 424 241 93 73 61
369 868 305 69 55 46
314 564 203 175 4 40
253 417 253 107 86 63
354 208 306 113 93 71
275 562 207 106 28 39
467 871 292 92 77 68
253 718 339 160 106 85
251 432 242 86 63 57
246 457 170 137 10 41
293 893 305 161 120 93
376 955 294 68 62 64
281 105 249 145 96 79
252 428 245 80 67 58
264 738 260 130 5 32
252 426 248 81 68 58
385 193 275 124 98 67
328 24 285 131 46 56
458 507 321 53 37 40
534 833 309 95 80 67
423 458 287 105 98 96
250 368 319 121 96 67
249 584 346 32 28 31
460 482 331 144 13 40
246 495 341 119 49 50
340 345 262 94 83 72
241 437 228 131 5 41
344 453 319 116 85 64
277 252 257 129 101 69
244 438 229 128 7 40
229 653 310 96 74 46
365 453 204 81 36 40
359 288 314 129 98 64
240 408 262 112 90 65
383 473 294 126 88 69
309 966 345 65 62 62
280 295 323 119 94 66
419 884 290 45 38 32
218 743 310 166 115 88
301 398 275 72 59 46
245 443 228 125 8 39
240 620 346 107 84 59
364 368 265 96 82 68
244 288 295 137 100 77
343 243 312 111 90 67
322 903 239 77 69 69
517 764 312 93 75 56
244 708 342 168 116 90
377 833 217 61 52 53
384 923 385 47 43 42
222 432 302 45 29 33
241 364 281 116 94 69
311 565 453 94 17 33
427 597 299 195 128 102
275 342 268 92 78 64
349 508 201 123 14 34
269 422 185 82 64 50
246 506 384 149 17 47
248 448 231 96 12 33
288 567 395 102 10 35
336 448 318 106 80 57
247 460 179 167 5 39
385 473 291 123 87 68
284 12 307 134 55 62
242 363 301 125 97 69
363 143 259 126 99 67
422 763 197 74 57 50
251 435 233 95 27 37
319 338 269 79 69 59
389 663 260 57 43 42
374 517 385 75 36 32
369 138 255 125 96 62
244 283 280 127 92 64
337 228 295 107 87 65
374 515 345 69 34 36
230 588 330 40 30 34
412 483 270 109 26 41
250 438 234 109 25 38
428 747 218 108 83 63
224 473 220 109 18 38
264 218 249 133 103 67
322 302 321 103 80 55
353 113 270 118 93 67
404 778 200 94 67 51
252 438 236 98 39 41
244 448 340 83 28 36
206 513 280 141 6 38
303 510 308 80 26 34
408 418 226 65 39 39
381 183 263 128 100 64
248 668 335 153 100 83
340 915 243 85 76 77
253 438 240 92 35 38
242 462 231 58 28 33
250 511 350 152 33 54
373 408 300 120 93 60
251 443 234 106 9 33
227 416 285 102 86 68
245 333 290 115 91 65
334 519 400 70 28 26
231 584 330 41 31 33
274 78 275 104 43 45
349 11 265 107 83 66
250 323 309 130 100 75
239 368 285 119 96 69
249 448 235 91 16 33
400 63 250 85 32 30
251 444 241 95 13 30
364 13 280 94 53 52
318 532 192 102 21 36
388 63 269 111 15 39
314 554 380 157 22 54
237 467 239 40 30 29
259 559 376 67 33 37
340 353 261 92 82 72
288 568 390 115 3 36
247 447 244 86 19 28
453 430 283 76 14 32
344 443 321 127 92 69
270 83 225 151 21 47
395 774 199 74 55 44
244 443 249 92 20 25
332 743 228 90 28 36
247 441 248 93 16 27
341 234 308 109 89 68
250 438 245 88 25 28
246 282 272 126 93 62
372 616 242 47 32 31
409 889 295 38 34 34
207 528 275 72 27 38
249 453 160 181 10 44
260 34 251 109 94 78
287 607 355 45 29 30
244 473 189 159 1 37
251 451 157 180 7 38
268 808 269 76 60 54
339 203 270 116 94 70
243 503 380 155 14 49
405 666 267 135 86 68
358 338 309 134 102 69
232 461 337 66 24 32
282 816 333 157 128 100
334 518 304 74 24 31
381 108 276 122 97 70
220 428 285 96 25 36
243 453 175 87 32 41
221 578 270 82 33 41
254 453 157 173 4 37
264 403 338 129 100 72
321 486 303 69 48 33
316 506 302 80 25 30
382 623 293 176 1 56
362 186 257 130 100 63
367 363 299 118 93 64
405 696 205 79 64 50
248 358 311 123 97 69
268 698 331 81 24 36
254 458 160 149 10 40
256 230 303 112 92 71
449 532 380 146 14 47
394 458 219 102 28 37
359 453 201 100 32 39
231 453 192 86 34 39
241 452 181 151 10 39
262 49 277 114 59 56
315 868 285 163 115 86
349 238 259 130 100 63
346 210 262 120 95 63
372 447 207 68 34 37
442 816 252 68 54 40
378 138 255 135 101 64
271 575 400 138 107 85
426 516 345 55 37 27
249 493 190 125 17 38
298 437 157 87 32 38
294 583 214 192 7 41
284 48 281 120 93 71
348 542 425 100 25 42
389 673 260 71 60 59
239 453 185 163 3 40
212 482 316 124 11 40
400 865 280 36 33 31
324 853 345 134 106 77
293 263 285 109 87 63
234 433 325 106 19 38
274 558 205 117 28 41
408 463 227 116 17 29
364 708 230 49 36 37
234 453 190 127 15 37
272 169 288 109 88 65
330 516 397 69 27 26
229 688 301 131 97 63
236 451 187 157 0 42
269 168 290 110 90 68
242 638 310 43 30 34
249 388 325 123 97 70
259 483 385 50 28 28
318 498 187 161 0 34
238 373 290 123 97 68
349 503 200 145 4 33
338 566 465 163 19 46
395 809 219 60 50 45
454 508 340 71 5 26
262 530 198 55 31 38
276 582 358 161 6 49
274 424 161 92 62 47
272 616 384 186 118 98
339 373 252 100 87 74
273 153 251 124 98 66
248 353 310 123 97 68
237 454 188 154 0 38
303 418 305 110 71 56
226 488 210 61 31 34
344 518 303 67 26 28
476 485 343 102 24 39
234 458 191 133 5 35
369 28 260 113 97 80
359 938 265 73 65 68
234 463 191 148 0 34
222 496 233 46 35 31
300 590 357 148 15 50
415 530 421 87 23 33
236 399 272 115 92 67
240 458 186 158 1 39
269 508 180 48 36 41
344 958 274 94 87 90
210 543 285 95 21 38
288 83 265 111 81 61
359 628 240 120 21 37
239 458 189 154 0 35
259 103 271 111 92 71
226 498 202 67 33 34
421 733 193 61 49 43
295 38 265 135 31 44
237 377 290 123 98 69
276 448 337 128 94 71
292 467 167 92 28 33
235 513 344 79 27 37
344 9 280 127 61 63
406 494 268 150 20 49
239 463 189 158 0 35
343 574 476 121 7 39
385 554 321 172 8 52
235 468 192 149 0 35
374 833 285 141 111 91
283 233 299 110 87 61
385 701 190 68 48 39
360 463 203 104 29 39
434 818 250 69 59 52
240 268 290 132 98 71
239 468 190 158 0 36
340 753 221 78 36 35
424 623 280 189 128 99
231 403 285 124 99 70
345 544 376 57 27 29
252 473 175 114 19 38
265 53 278 116 21 43
348 468 197 64 34 36
239 473 191 157 0 37
248 509 380 177 9 50
313 438 166 160 1 33
266 758 257 138 5 35
299 12 285 153 96 95
435 438 255 146 17 37
246 452 162 180 9 44
394 553 315 68 19 33
374 483 303 133 96 79
308 368 280 64 55 45
242 449 174 71 34 40
228 505 215 55 28 31
248 458 165 178 8 44
379 527 391 170 17 53
244 488 191 136 9 36
280 98 244 104 65 45
306 368 285 64 51 37
315 403 313 115 76 62
289 878 330 130 98 76
246 456 166 177 7 39
334 574 478 73 14 27
238 628 290 51 30 36
297 463 314 123 88 69
247 459 170 96 21 34
326 496 303 64 39 27
246 457 175 173 9 47
359 538 210 60 34 38
353 333 267 94 82 70
250 457 162 168 9 44
378 453 212 148 11 35
282 213 293 110 87 60
490 550 364 203 20 54
250 463 165 166 17 45
255 462 161 74 30 38
393 102 236 126 67 62
335 38 275 111 15 38
249 463 170 76 30 37
239 373 280 119 95 68
298 288 300 97 78 57
301 504 183 171 4 38
228 513 218 64 24 29
360 353 310 124 97 66
290 893 355 195 145 127
338 326 268 87 76 66
249 463 175 112 22 41
379 414 230 71 18 27
371 861 292 40 34 31
382 153 279 119 94 63
241 451 177 96 30 34
264 842 315 189 131 105
369 163 295 114 92 68
385 783 190 73 57 47
293 913 300 91 78 69
218 678 320 162 112 84
408 513 267 91 25 35
274 303 267 95 80 65
243 454 180 123 18 41
304 578 480 81 25 33
356 333 312 132 98 66
242 455 183 169 4 34
283 662 253 130 4 32
244 463 185 159 3 38
216 444 299 92 23 39
382 445 288 127 96 71
269 323 321 119 91 64
396 515 248 42 31 33
217 506 234 91 16 28
368 415 234 75 45 38
279 516 182 182 3 31
454 871 277 104 87 79
248 463 180 152 4 40
354 408 185 168 20 35
442 798 241 80 62 51
275 514 342 84 55 44
348 411 191 161 39 37
372 393 290 109 88 64
251 466 167 144 30 40
276 581 217 190 8 42
245 493 192 153 3 35
333 18 264 124 45 35
427 535 362 29 29 31
459 458 311 108 22 36
277 611 371 158 99 84
508 823 225 111 87 72
255 472 166 83 30 38
250 468 175 83 28 38
379 802 191 101 76 53
361 412 239 92 75 55
276 554 419 110 21 41
288 83 255 136 22 40
252 470 169 115 31 43
248 629 274 186 13 50
269 343 267 96 81 65
269 253 255 134 102 67
344 653 330 88 25 38
434 448 260 169 18 44
238 378 280 119 95 67
299 763 346 84 69 63
263 73 272 108 62 56
254 473 170 139 24 45
235 464 344 70 26 32
244 403 325 125 98 71
352 757 208 50 38 37
274 35 287 104 65 52
225 483 223 68 28 34
311 512 307 78 27 30
243 408 325 127 99 71
250 517 364 169 0 53
414 698 271 151 100 75
254 478 175 113 20 37
268 59 277 116 94 75
385 107 237 144 24 40
331 565 458 72 19 29
242 465 188 158 0 39
242 468 188 161 1 41
359 412 205 128 29 30
279 758 345 159 19 50
462 494 332 98 12 28
249 473 185 134 8 39
277 81 237 140 28 49
376 885 343 36 32 31
240 478 192 157 0 35
265 663 329 42 26 28
264 558 209 93 31 39
258 78 212 144 15 33
365 750 327 80 62 54
258 183 292 113 94 75
427 569 301 120 94 62
244 478 190 145 5 35
359 183 300 112 92 71
266 394 338 129 100 71
262 30 287 119 91 76
249 408 330 125 99 71
437 750 233 79 60 41
442 758 228 78 59 44
458 864 312 91 73 64
268 120 278 113 92 70
384 48 250 122 106 90
409 688 271 138 87 67
337 855 328 137 108 80
247 479 188 128 7 34
354 233 312 119 96 71
244 753 285 116 83 53
364 33 255 90 69 53
279 844 295 75 60 58
251 471 176 57 23 28
383 243 290 128 100 67
329 573 470 159 17 45
315 333 320 111 75 57
237 403 269 113 91 66
382 98 278 112 16 42
346 72 274 102 17 37
248 667 345 161 107 86
379 248 270 140 102 65
359 423 190 98 35 40
226 434 314 101 22 38
235 548 333 125 17 43
251 476 182 135 1 35
381 647 251 95 58 50
284 593 445 200 126 111
262 128 242 133 99 61
416 767 193 89 66 55
319 558 371 176 5 56
310 774 337 81 65 56
361 653 248 58 34 31
438 504 305 69 2 25
344 283 266 98 80 60
252 474 179 150 6 38
264 366 262 94 80 66
253 478 180 151 5 40
247 533 347 92 26 36
273 503 330 86 62 46
403 73 250 121 35 49
252 479 183 116 12 31
414 558 320 119 60 63
243 453 227 79 22 34
247 313 300 127 97 70
256 482 176 89 27 38
248 483 188 127 21 38
422 720 174 103 75 54
364 438 200 111 31 41
404 829 266 48 36 32
248 323 305 131 100 73
271 370 262 93 81 69
249 488 189 91 31 37
249 829 336 202 144 119
358 73 254 138 109 84
206 522 276 154 6 40
243 398 264 109 89 66
386 696 327 134 8 41
256 487 181 137 16 42
314 603 355 96 25 41
253 718 280 96 24 35
329 433 315 119 85 66
254 488 185 123 21 40
264 408 339 130 100 72
231 586 246 98 22 39
389 688 310 129 10 40
289 478 169 108 29 41
411 548 295 43 31 33
250 483 186 123 20 39
223 683 304 140 101 67
251 486 187 83 35 36
342 193 280 105 85 64
453 507 335 69 5 27
291 43 258 117 53 43
405 478 224 157 18 39
363 966 291 80 73 74
422 467 255 179 23 53
256 492 186 134 11 39
210 493 255 81 23 34
359 433 320 135 98 69
389 448 216 126 16 34
249 498 191 165 3 37
384 434 259 78 60 45
261 22 294 117 19 42
243 834 320 218 148 123
443 443 275 94 29 38
324 23 275 142 28 50
326 438 313 98 71 51
246 440 338 87 22 33
454 483 325 101 19 33
279 507 343 86 56 46
267 292 317 119 93 65
347 533 202 69 29 35
254 503 192 161 5 39
334 863 265 74 60 56
218 693 320 165 114 87
224 458 205 132 8 40
418 631 278 196 130 103
444 858 305 69 57 45
224 478 215 98 21 35
409 899 285 66 56 56
417 471 250 125 24 46
223 463 254 39 35 35
307 407 297 96 62 49
415 880 343 43 40 38
299 503 405 104 21 37
380 410 223 67 22 28
205 508 290 93 22 35
299 443 310 123 85 65
215 473 256 62 32 31
324 758 231 139 10 36
252 386 327 122 96 69
330 458 184 136 9 37
223 569 235 169 10 45
423 729 183 65 54 46
377 138 284 115 93 68
265 763 257 138 12 33
368 57 243 68 38 27
241 374 276 115 92 67
334 867 351 147 116 84
418 678 235 114 89 57
212 545 269 172 0 45
308 859 290 181 121 91
214 478 255 57 34 34
352 143 270 111 90 66
385 682 305 138 7 43
504 843 270 90 73 60
373 398 285 106 86 64
240 403 265 112 90 65
216 479 252 46 33 34
288 582 472 133 108 88
267 555 392 159 11 48
232 463 193 143 2 33
304 572 456 50 26 25
235 653 358 176 124 100
319 373 320 129 90 74
289 493 174 87 30 41
384 527 395 101 19 40
255 557 374 102 30 44
396 95 252 128 25 51
399 638 232 127 97 63
393 108 240 110 83 74
218 472 254 51 35 33
224 468 250 52 32 32
418 533 272 51 29 34
368 14 280 93 45 47
308 477 177 171 2 37
236 496 368 174 8 53
319 519 409 71 17 30
392 518 227 149 16 35
221 464 256 52 33 33
245 693 303 85 60 43
417 543 330 80 17 33
375 278 290 134 95 65
324 415 170 165 22 29
329 583 485 62 9 27
369 398 305 121 94 62
291 68 260 113 75 58
222 467 253 58 34 34
306 358 285 58 49 42
221 469 252 53 32 31
234 438 259 100 12 30
221 493 220 76 28 35
279 263 260 109 88 65
223 472 249 51 32 30
364 253 311 124 96 63
225 748 296 136 99 67
468 482 327 165 17 39
251 333 277 114 90 64
410 870 264 74 63 62
315 506 359 80 34 33
460 508 349 82 9 28
359 828 301 151 116 95
226 512 333 89 18 37
249 743 340 178 125 100
221 479 246 40 35 34
218 478 250 50 33 33
254 298 270 113 89 63
434 738 230 91 69 47
381 158 282 119 94 63
408 543 335 58 21 30
364 877 211 94 81 72
412 906 315 71 62 62
279 158 275 105 83 58
437 783 269 154 111 79
224 483 215 58 31 34
303 407 265 74 61 50
298 597 450 190 121 116
270 532 405 101 27 41
223 483 220 56 30 33
224 453 320 126 2 37
241 501 374 155 15 50
221 494 224 66 29 33
450 904 375 70 58 51
244 708 299 98 64 47
382 702 200 67 55 46
259 26 258 107 92 78
224 493 225 68 27 34
213 453 280 121 6 33
211 542 265 157 7 44
384 113 255 128 87 69
220 498 220 91 24 35
345 35 257 122 15 34
220 503 221 131 11 36
289 368 329 127 92 64
369 49 247 96 67 48
404 523 370 70 25 34
227 473 198 144 0 37
404 693 271 117 59 52
224 498 215 60 31 32
305 572 380 35 25 30
359 887 336 83 67 51
263 64 217 93 44 21
335 228 285 108 87 64
255 333 313 124 98 71
222 498 218 83 31 35
323 373 322 132 94 75
245 273 299 124 95 69
311 318 285 63 55 46
223 504 218 99 20 32
349 10 290 102 46 53
398 88 254 124 20 46
217 513 223 117 17 36
288 263 266 95 79 62
283 21 303 133 87 70
419 548 310 47 30 31
310 482 298 66 38 30
224 508 219 85 20 30
425 458 289 96 87 88
277 748 342 161 18 51
269 478 166 87 28 40
264 338 268 100 83 63
416 875 324 36 32 34
238 408 265 112 91 67
300 333 276 67 58 50
224 513 220 84 20 31
275 841 290 86 67 62
369 438 204 55 36 40
359 638 244 43 32 36
224 483 240 36 32 31
223 487 239 39 33 33
314 518 410 70 24 32
369 278 305 130 96 66
208 483 300 54 27 30
247 671 339 152 98 81
254 513 400 53 28 32
221 583 305 174 0 49
308 402 245 85 70 56
242 274 280 132 96 66
384 198 285 120 95 67
267 723 258 131 9 36
225 493 230 48 29 31
285 198 260 123 98 67
221 494 236 62 34 30
366 574 355 187 15 58
251 673 302 59 43 43
226 493 202 71 37 38
284 908 335 70 52 56
247 328 284 125 99 71
349 163 280 102 83 63
223 493 235 46 30 29
249 587 231 204 11 49
232 461 248 69 28 29
213 483 255 72 30 36
214 488 250 41 34 35
365 619 239 72 32 38
241 813 338 181 130 102
273 553 411 109 25 43
378 193 261 133 101 60
289 493 320 99 73 57
209 503 255 135 4 36
364 33 290 116 33 49
439 528 390 102 8 35
212 487 254 55 28 30
341 379 247 104 90 74
291 282 311 100 79 55
345 248 261 130 100 63
216 489 246 59 35 30
215 493 245 46 32 32
351 158 267 112 90 66
246 338 304 128 98 71
246 313 295 124 95 67
213 493 249 60 31 34
373 557 486 134 19 42
221 484 242 35 32 34
280 198 291 109 87 61
231 612 300 56 30 35
275 158 281 107 85 59
225 479 241 39 32 29
217 482 249 40 35 34
283 827 328 107 86 72
389 428 256 65 34 31
251 483 343 96 58 48
236 612 324 165 0 48
217 492 243 77 30 30
369 83 283 95 68 52
381 436 268 103 80 52
334 703 231 101 23 30
216 495 242 44 33 28
234 408 305 126 99 71
375 198 295 120 96 68
279 438 154 120 19 37
248 348 279 111 90 68
215 503 240 77 26 33
215 513 226 129 10 34
215 509 230 106 13 31
409 524 400 95 17 32
372 233 303 122 96 65
308 928 260 72 63 63
215 508 235 103 13 30
369 288 280 125 93 64
289 844 306 46 36 38
514 838 315 89 69 50
311 501 369 83 33 33
314 668 240 46 36 36
282 406 257 91 78 64
216 504 236 93 20 29
349 378 248 99 87 74
259 433 341 128 98 71
334 243 270 115 91 61
294 473 170 48 34 41
389 113 240 131 62 58
214 508 240 111 16 33
343 914 358 107 83 65
418 463 236 145 15 34
402 86 243 136 7 46
213 513 235 98 16 30
224 443 266 96 15 28
261 103 273 112 93 73
221 499 230 49 30 29
491 816 229 112 88 64
319 608 354 124 29 48
301 590 458 101 23 45
285 415 221 88 73 55
245 283 275 126 92 64
339 428 321 134 97 72
222 497 230 40 31 32
410 873 281 52 47 43
329 298 271 89 77 66
239 258 290 125 97 68
242 685 302 101 68 47
328 550 434 60 21 29
220 498 235 40 32 31
221 649 325 128 99 68
334 512 360 74 30 32
362 438 318 134 96 67
288 31 288 115 80 62
350 629 327 136 30 51
432 808 227 81 62 52
413 539 326 75 11 28
217 498 239 40 33 32
348 198 263 120 95 65
324 423 314 126 88 72
351 878 335 127 97 71
227 487 351 65 24 31
369 533 425 153 21 50
469 538 425 71 32 38
218 503 234 70 25 29
217 507 230 100 19 34
366 328 283 112 89 64
363 98 253 104 78 53
430 723 250 146 98 64
213 503 245 82 22 34
381 156 263 124 97 64
363 169 298 114 93 71
289 843 275 60 50 50
264 298 316 125 94 69
361 610 327 168 40 68
224 418 280 90 50 42
379 73 229 141 18 36
250 378 324 123 97 70
439 883 345 91 81 73
223 488 345 132 6 38
381 810 297 49 40 37
219 763 305 173 117 92
273 468 352 102 58 48
212 503 248 123 10 34
308 383 285 69 57 50
209 498 255 130 5 34
274 783 255 72 58 51
289 9 290 136 66 70
210 503 250 128 6 34
478 545 367 146 92 97
394 93 231 158 26 50
264 788 341 167 124 91
419 494 289 82 18 29
340 648 332 36 29 31
212 498 249 104 22 37
314 523 189 97 30 40
249 504 345 125 50 51
269 758 255 133 9 34
542 826 310 100 88 78
340 26 294 129 49 56
210 513 245 99 20 33
340 213 267 115 92 66
384 525 410 103 11 31
390 115 245 143 81 80
349 173 290 104 85 64
339 263 266 113 89 62
212 507 244 117 12 32
232 540 208 174 7 41
231 404 281 123 98 70
208 508 255 136 3 35
344 183 275 108 89 68
256 328 272 110 87 61
354 68 284 101 21 40
222 452 263 75 27 29
361 530 392 181 14 56
280 478 353 101 58 49
410 727 277 131 87 69
229 458 195 100 29 39
282 578 366 131 10 44
256 278 308 120 94 68
226 458 200 126 20 39
367 558 217 161 10 38
226 419 271 76 32 25
229 463 195 119 15 35
334 333 328 130 89 63
222 442 311 126 2 37
226 463 200 120 18 39
227 463 198 101 20 37
263 107 227 144 23 45
283 918 320 168 131 108
471 510 358 55 13 24
358 42 253 103 32 26
384 920 383 43 38 37
231 456 192 88 29 35
344 749 331 81 63 55
225 468 335 76 23 33
232 458 193 132 16 40
391 930 294 67 60 58
284 298 269 90 79 68
226 676 343 186 129 104
247 376 317 123 97 69
265 114 240 147 104 75
289 808 256 75 60 53
269 397 258 93 80 67
257 663 280 145 0 39
269 404 250 92 79 65
230 453 219 103 18 37
409 604 257 96 80 63
225 458 209 111 16 37
379 168 260 128 98 59
280 486 392 75 22 31
264 44 241 118 102 85
267 536 336 75 54 50
284 603 365 48 31 32
367 881 220 75 65 65
254 353 271 102 86 68
381 935 283 78 67 67
441 787 245 82 58 44
248 278 302 122 95 68
388 678 285 62 28 36
247 362 274 105 87 68
317 292 295 90 77 63
249 518 360 168 2 52
227 458 211 96 18 33
289 618 344 32 25 27
256 344 272 103 85 65
259 429 235 88 59 49
424 533 435 136 19 45
212 476 263 113 14 32
289 583 473 142 109 93
304 707 357 109 17 39
227 458 215 87 22 35
378 173 289 121 96 67
227 795 310 187 127 100
284 404 260 90 77 63
225 463 210 103 16 35
227 461 212 90 26 34
257 30 282 104 43 43
259 11 280 96 34 41
287 893 342 159 113 97
265 214 303 113 93 72
225 463 215 83 24 33
479 863 349 99 83 69
414 463 280 76 26 33
229 458 220 91 20 35
414 541 341 52 24 26
325 298 271 89 77 64
349 243 259 130 100 63
435 748 211 107 87 70
297 285 298 100 80 57
234 728 296 124 90 58
229 728 297 130 96 63
372 74 233 142 21 42
378 832 283 134 104 87
253 258 258 137 99 66
274 593 355 61 22 30
244 508 360 177 1 53
221 455 262 59 25 29
226 464 219 60 28 32
364 393 255 108 92 75
236 452 223 72 26 31
465 839 310 82 62 50
325 888 265 50 47 50
393 438 217 75 33 40
264 253 255 133 101 66
236 822 325 200 139 110
445 803 245 69 54 47
290 258 295 110 86 59
238 783 284 139 96 64
281 62 243 117 33 33
339 338 266 92 81 70
355 525 317 73 34 33
402 728 305 155 13 47
239 453 224 55 26 31
279 402 250 93 79 64
260 298 314 123 94 68
362 578 222 149 9 34
234 458 222 82 24 35
227 738 332 170 116 92
254 263 306 118 93 67
260 617 251 146 19 47
214 548 260 169 0 43
259 213 249 132 102 66
279 404 246 92 78 63
415 924 350 69 61 62
483 835 328 76 59 47
233 463 222 72 25 32
324 401 234 99 85 70
389 54 245 108 90 74
236 458 223 70 25 34
344 26 294 137 26 53
235 464 224 75 24 33
305 323 290 66 57 48
289 33 259 101 46 36
384 838 271 33 29 28
353 212 307 114 93 71
239 458 225 57 26 31
351 223 257 128 98 62
225 473 200 146 2 38
349 398 241 99 85 69
358 971 325 65 60 60
364 58 284 102 77 60
324 837 256 166 119 91
230 468 196 140 1 35
313 489 297 60 32 27
349 554 465 123 8 40
379 773 176 78 60 51
349 568 364 165 11 52
275 153 280 107 85 59
339 493 310 78 56 38
286 484 326 116 86 69
329 583 214 74 36 41
330 692 342 44 28 30
446 808 245 86 65 51
399 549 315 109 8 35
225 468 205 134 12 38
225 473 205 137 12 40
237 382 296 125 99 70
217 570 279 37 30 34
394 88 229 150 30 47
281 358 268 85 75 65
250 374 267 102 86 69
344 738 222 62 39 34
504 823 231 121 93 76
386 46 266 83 30 31
332 278 278 90 76 60
230 413 275 103 85 66
350 193 299 106 87 67
254 298 309 120 95 70
265 123 243 132 100 65
309 410 221 91 75 59
391 682 276 117 26 45
374 866 301 39 33 32
226 478 201 148 5 39
234 473 194 151 0 36
251 267 262 132 97 63
208 533 295 86 24 35
294 863 340 143 85 80
369 412 215 101 21 31
252 501 392 104 22 40
220 703 306 150 106 76
236 472 192 153 0 37
423 421 257 66 17 24
404 73 240 117 42 47
390 930 348 63 59 60
246 318 290 122 95 68
308 504 399 80 17 34
359 923 255 73 65 67
474 867 308 56 46 37
248 423 332 125 98 70
234 478 194 154 0 36
423 703 265 160 107 76
365 303 305 134 100 70
379 45 252 120 103 87
245 288 280 126 92 64
394 550 317 128 14 44
232 610 278 162 16 52
252 561 353 33 26 30
214 558 270 161 6 44
287 691 248 50 28 32
353 288 318 126 94 61
225 468 210 103 19 36
328 813 244 75 59 52
215 523 319 150 15 48
224 468 215 94 20 35
304 843 266 176 120 93
396 85 228 135 23 41
439 525 381 93 19 33
449 488 320 80 17 29
374 527 395 173 16 53
225 473 210 100 21 35
369 143 290 113 92 68
318 432 166 162 3 33
247 304 296 126 95 70
264 658 330 38 27 29
418 541 465 113 17 41
236 450 333 58 22 29
284 477 167 76 37 39
343 464 317 104 77 55
223 448 265 90 22 26
282 240 303 111 87 60
225 468 220 89 19 35
505 828 245 101 80 64
289 423 155 62 43 47
247 721 288 116 13 28
276 114 253 134 99 68
264 113 275 110 91 72
228 473 222 80 23 35
275 624 345 65 29 34
244 498 194 148 5 35
239 638 365 162 113 89
388 882 252 70 60 59
464 541 369 44 28 30
232 456 332 62 22 30
271 694 257 81 32 33
363 63 244 131 27 33
244 728 290 116 34 39
360 554 474 109 10 35
364 559 484 127 11 40
230 473 223 71 27 34
383 113 270 118 93 65
288 228 285 111 86 59
241 277 290 137 98 73
300 411 257 77 63 50
304 811 252 80 62 54
225 478 210 88 22 33
422 505 277 125 18 32
309 415 206 86 71 55
266 338 267 101 84 65
234 468 225 68 26 33
322 746 348 44 29 30
238 463 226 58 27 32
309 508 405 76 22 32
268 768 337 144 100 76
331 440 178 81 24 25
264 528 405 94 25 40
226 454 256 63 31 29
304 628 240 90 33 38
303 448 307 106 74 57
279 503 176 110 29 40
231 454 252 73 27 30
375 113 281 118 95 71
235 558 334 54 26 32
310 563 425 154 15 50
229 458 250 64 28 32
364 403 250 105 89 69
376 418 295 120 92 60
218 483 330 103 20 36
339 353 325 135 96 67
350 468 198 59 37 40
226 460 252 40 31 28
244 733 290 102 38 40
227 487 234 51 30 27
367 348 281 112 90 66
316 294 295 87 74 62
240 453 246 63 28 27
344 648 330 82 29 39
469 843 294 99 76 61
307 396 282 93 82 80
349 18 302 105 32 44
257 593 342 68 27 35
236 449 252 80 27 24
484 848 325 82 68 57
250 348 276 107 88 66
373 398 280 108 87 64
358 598 344 85 29 39
427 451 247 156 18 41
286 48 253 103 56 40
226 479 343 77 22 31
452 871 337 88 65 62
361 393 317 130 97 67
422 440 268 78 13 24
238 452 248 74 26 27
314 795 243 76 60 51
346 313 322 127 89 63
362 432 197 142 21 40
381 448 213 135 21 39
279 604 396 192 130 108
244 647 363 184 126 101
235 459 246 71 25 31
352 476 318 110 79 60
239 458 244 65 24 28
227 416 296 104 87 70
269 173 291 110 90 68
256 641 272 175 9 42
241 618 364 140 104 75
240 368 295 123 96 68
334 308 328 119 90 62
354 173 295 105 86 65
444 533 394 114 17 37
369 963 295 78 72 74
348 485 312 95 67 54
244 373 310 125 98 69
236 464 242 56 28 27
260 728 336 141 92 77
234 508 197 106 22 36
233 457 249 71 25 33
316 690 237 97 21 27
231 480 228 59 24 37
382 143 270 116 93 65
428 522 316 68 30 36
375 59 236 96 75 59
404 618 245 96 81 65
231 479 237 43 30 30
337 213 280 106 87 65
430 444 274 86 2 27
267 544 361 60 28 34
483 896 385 95 79 66
233 473 226 83 25 36
339 537 315 74 27 31
207 483 274 131 3 36
274 618 370 173 111 94
211 458 285 123 3 35
339 12 303 141 41 64
338 566 462 167 25 44
243 487 376 33 30 30
236 470 228 71 26 32
415 558 324 128 72 70
357 308 313 133 99 68
294 48 270 110 67 57
280 438 337 132 98 73
237 471 230 53 27 33
233 472 240 55 30 30
365 473 311 133 96 78
314 458 174 165 0 36
248 723 285 94 21 33
333 233 285 108 87 63
306 856 295 181 124 95
238 468 235 48 29 30
329 937 256 93 84 86
232 476 238 39 29 27
419 514 345 55 36 29
338 513 197 106 27 35
323 787 328 75 58 50
264 173 246 138 107 69
374 133 286 113 91 67
418 532 295 165 17 47
256 171 247 135 102 62
226 470 247 57 31 26
229 468 245 56 29 29
438 499 296 97 25 22
262 668 327 32 26 27
228 472 244 66 28 30
282 66 278 115 16 45
274 173 251 130 102 67
245 258 299 117 93 66
275 465 163 58 32 38
499 843 285 88 68 56
314 601 222 157 12 44
436 756 256 139 99 62
433 844 248 80 65 61
245 453 240 62 27 29
365 868 220 69 59 61
230 438 262 100 14 28
301 420 168 133 46 38
409 418 240 59 21 24
279 623 341 60 28 32
247 451 239 72 25 28
502 814 235 101 77 60
309 888 360 142 105 88
355 138 266 113 90 62
363 293 309 133 99 68
260 14 290 97 32 42
314 698 350 146 7 45
243 458 230 64 25 33
286 598 465 166 113 103
318 416 170 169 21 30
303 427 301 49 36 26
314 523 415 76 25 29
375 168 291 120 96 69
243 458 235 53 27 31
248 273 302 121 93 67
260 52 229 124 105 86
284 413 335 131 96 68
338 248 268 117 91 60
243 462 235 51 27 31
223 508 330 42 29 32
269 473 165 92 31 38
241 450 247 80 22 35
346 554 208 56 34 34
349 944 371 59 54 52
243 452 244 62 31 28
314 488 184 163 0 33
389 668 275 68 29 34
228 483 199 117 18 35
218 438 280 111 15 34
390 52 255 103 91 78
379 503 212 114 27 40
230 483 196 99 18 35
484 518 350 118 96 73
232 530 203 167 1 36
390 528 235 103 29 41
363 881 205 91 78 73
374 881 325 32 29 30
417 867 270 70 59 55
230 488 196 84 35 36
291 53 258 123 43 46
226 483 201 111 22 38
258 753 338 169 112 89
356 786 192 62 49 43
409 792 222 84 62 51
274 338 326 118 91 64
380 83 276 96 35 39
225 483 205 119 18 39
324 512 350 76 31 34
377 24 271 99 74 60
298 329 279 67 58 50
375 116 247 132 87 61
446 863 295 46 39 35
226 488 205 68 33 36
210 483 260 86 21 33
279 602 399 193 131 110
290 689 343 38 28 30
259 464 369 80 19 25
255 353 319 118 94 67
315 893 280 97 79 62
226 488 201 60 38 39
319 399 240 97 82 67
353 521 329 74 34 32
370 98 246 132 37 42
344 924 370 38 35 36
374 508 210 42 33 38
417 770 187 103 72 52
395 410 224 58 26 28
294 18 305 169 117 103
383 178 265 126 99 65
379 936 374 64 58 55
248 313 305 129 101 74
230 493 197 92 29 36
261 333 318 121 95 68
226 493 205 64 34 36
289 28 260 94 42 34
496 829 254 73 62 51
447 451 292 170 17 42
240 482 192 152 1 36
318 758 344 83 67 58
403 891 319 38 34 35
372 428 308 128 96 66
239 488 193 149 1 32
278 58 240 101 41 28
393 703 324 67 29 34
319 428 310 102 70 53
265 31 288 132 27 52
355 88 283 103 19 38
319 398 250 95 81 65
325 828 252 55 45 47
279 458 354 103 61 51
234 493 195 134 9 35
276 738 252 102 28 39
374 223 260 132 101 63
512 770 302 95 78 61
228 483 225 59 29 32
227 493 212 50 31 30
287 223 289 110 87 61
297 421 160 123 43 39
233 417 264 86 75 64
404 758 175 73 57 47
309 573 460 51 25 26
287 84 252 142 28 43
227 494 214 52 32 28
231 498 197 128 12 37
427 726 213 81 63 46
330 478 188 43 37 38
231 503 197 132 16 37
254 631 373 186 127 104
394 563 254 99 18 31
226 498 205 55 34 36
376 426 254 75 61 47
411 490 278 99 21 25
225 503 205 74 29 35
267 510 183 80 12 30
379 33 280 87 68 54
381 118 276 117 94 70
290 458 325 130 94 74
229 508 200 117 20 36
256 190 293 111 91 71
309 417 200 89 72 54
232 411 301 123 98 71
227 456 327 129 5 39
356 156 262 116 90 57
286 600 395 179 113 95
354 808 201 57 47 42
365 854 202 98 75 64
241 409 323 128 100 71
247 342 283 116 93 66
279 258 310 113 88 59
226 506 202 121 28 48
226 508 205 76 32 37
227 510 203 76 34 34
227 513 205 88 31 40
414 782 200 85 65 49
283 913 335 123 104 92
226 512 206 95 31 43
321 289 281 85 73 61
359 868 315 137 110 87
400 479 288 79 36 37
311 575 448 153 17 40
234 498 196 145 5 36
377 38 283 109 20 40
329 423 316 132 93 75
339 887 216 84 70 68
297 290 304 95 76 53
247 352 278 109 89 66
246 636 282 111 26 43
358 521 324 75 42 37
234 503 196 97 25 36
412 922 359 46 41 39
332 537 197 84 29 39
237 461 342 71 22 30
259 467 162 123 20 41
345 783 205 57 49 45
405 728 285 69 27 37
212 452 290 123 3 35
354 878 330 124 95 72
235 512 197 150 13 36
279 253 259 124 98 68
239 508 196 65 30 37
240 633 305 40 32 35
239 512 197 138 10 36
472 861 285 94 75 68
273 308 322 121 89 62
289 38 284 117 17 43
280 203 254 128 101 68
346 871 342 137 107 79
304 478 176 167 2 36
227 496 213 60 32 34
416 433 233 45 37 41
236 501 359 187 1 55
389 598 290 149 19 50
324 508 375 71 32 32
299 448 310 121 85 65
225 503 210 45 28 31
454 883 300 87 72 67
226 508 210 50 31 31
438 558 335 188 122 96
370 388 300 117 92 63
490 850 299 98 78 64
228 508 212 41 30 30
292 392 328 127 92 67
352 956 272 88 81 83
360 550 464 84 21 30
484 823 302 113 82 57
288 502 314 76 52 38
439 773 260 150 104 69
359 413 186 111 25 33
299 433 310 123 83 63
226 513 210 58 31 34
363 338 275 106 87 68
227 513 210 53 31 34
242 269 274 136 98 68
354 968 285 84 78 80
284 479 168 62 37 39
229 513 215 41 28 28
347 177 268 110 89 66
250 512 390 112 30 46
268 493 339 105 70 56
354 58 285 108 86 64
242 489 193 155 0 37
349 58 284 102 20 38
248 503 193 162 1 35
244 508 195 124 14 35
360 107 256 139 68 60
309 483 181 168 2 35
249 513 195 164 1 34
250 502 192 161 2 36
254 505 193 166 2 41
326 22 271 140 35 51
266 294 318 122 93 68
261 62 273 115 12 39
284 503 405 43 29 31
442 916 363 77 65 63
254 508 193 163 3 38
375 613 310 182 17 59
384 73 270 100 56 50
283 601 399 189 123 105
274 98 240 99 68 44
359 608 230 98 34 40
254 513 195 161 3 37
386 647 272 43 28 32
216 439 290 51 32 30
230 483 230 55 26 31
369 718 215 55 46 43
427 694 254 147 99 65
425 468 299 84 8 26
226 485 237 42 32 28
254 733 340 170 115 90
285 498 322 92 67 51
402 501 245 110 29 42
267 77 217 150 27 47
279 378 334 129 99 68
339 523 330 76 28 31
285 597 460 178 124 111
283 103 260 127 90 70
289 753 245 49 36 39
221 763 320 181 123 98
366 730 201 53 45 40
226 490 230 56 26 31
272 81 226 154 26 52
244 643 305 76 32 35
414 726 193 79 58 45
301 442 306 119 81 62
499 803 221 106 85 63
232 481 231 55 29 32
311 323 300 68 53 39
377 93 239 144 16 43
232 481 234 45 32 32
241 485 373 81 20 37
481 502 338 113 58 42
249 578 224 93 31 40
321 961 277 84 78 81
239 263 285 132 98 68
280 47 248 78 46 30
324 959 274 91 85 86
465 473 321 154 16 40
328 809 243 76 60 52
222 744 327 172 116 91
384 103 236 143 19 39
240 268 285 136 100 70
334 883 220 89 77 68
490 814 229 111 88 63
336 14 262 140 42 38
314 538 324 80 28 34
424 898 343 77 67 63
277 35 252 54 35 29
254 433 340 112 84 60
247 259 263 139 100 67
239 503 360 182 1 53
248 263 264 138 100 67
439 773 230 73 54 44
240 258 294 123 96 68
358 133 263 122 96 66
364 14 270 101 83 73
427 792 283 149 111 83
358 972 295 82 76 79
250 288 305 119 95 69
346 475 198 47 33 38
268 168 247 136 105 67
245 263 266 141 100 69
339 433 180 71 31 37
319 573 209 184 6 38
360 243 312 122 96 65
241 262 272 141 101 70
290 228 270 119 94 64
228 783 295 178 120 89
243 263 269 142 100 70
376 709 215 56 46 40
289 519 183 180 4 40
389 931 383 74 69 69
380 148 281 117 92 63
217 564 305 147 5 43
419 553 305 44 30 30
424 585 312 202 132 110
244 268 270 139 99 69
440 778 255 142 96 62
308 368 275 64 56 48
264 258 256 133 100 65
386 83 271 98 26 35
341 545 203 79 35 39
255 258 257 137 100 66
328 850 263 166 115 90
254 263 259 135 98 66
254 378 264 100 85 69
322 387 248 98 84 70
334 723 229 93 26 33
410 539 330 39 24 28
257 81 212 149 17 37
382 459 293 130 94 70
240 378 275 116 93 67
359 213 256 129 100 65
407 751 167 79 62 51
252 270 263 129 95 63
384 643 245 96 73 53
253 274 263 121 92 62
255 273 262 120 91 61
280 203 291 107 85 58
241 271 277 132 96 66
353 901 237 75 65 65
264 333 268 99 81 62
405 638 233 123 95 62
275 772 252 67 54 48
241 272 280 133 97 68
241 273 285 136 98 70
284 508 178 176 3 36
246 278 271 126 93 64
246 338 286 114 91 65
281 192 287 106 83 57
370 424 199 79 35 38
379 914 354 38 35 36
245 353 305 126 98 70
258 58 271 114 90 74
364 18 265 110 95 80
375 753 175 69 55 46
254 278 264 115 88 60
269 428 341 133 100 73
250 278 267 122 94 64
278 123 256 129 99 67
482 515 352 86 66 40
230 497 355 175 5 53
299 493 395 74 21 30
266 516 187 161 5 37
308 568 390 46 26 34
265 128 244 134 103 68
259 398 256 96 83 68
254 283 266 113 87 59
287 88 265 110 84 60
255 288 267 113 87 58
245 673 340 153 100 82
405 894 305 40 35 35
247 303 300 128 97 71
479 883 352 102 81 60
276 158 253 120 96 68
273 830 278 87 65 59
374 573 330 163 15 52
252 284 268 117 90 62
431 908 351 72 65 62
282 918 335 138 118 106
273 158 284 107 86 62
253 288 268 117 90 62
368 608 236 134 17 38
371 830 212 72 57 56
243 278 280 129 94 65
439 514 310 143 14 39
253 323 274 113 89 62
359 193 303 113 93 71
341 53 279 104 22 41
402 438 222 53 41 41
241 276 286 136 98 71
247 288 274 126 94 64
269 15 262 98 85 70
221 508 328 38 29 29
360 535 377 110 22 41
269 422 210 85 66 53
469 873 346 94 80 68
290 415 216 85 69 52
233 609 274 194 8 50
401 707 300 111 24 42
246 288 276 125 92 64
273 758 253 98 26 34
249 577 353 144 5 46
299 423 310 120 78 60
322 870 278 162 118 88
400 573 270 48 31 33
243 283 285 133 97 68
354 448 320 132 96 70
414 529 430 95 25 34
374 38 285 115 16 42
364 30 292 117 48 54
366 308 279 130 101 72
361 630 243 117 30 45
264 536 349 104 41 55
239 263 290 127 96 68
240 263 294 124 95 68
274 418 340 134 101 72
303 421 175 104 53 40
220 728 325 168 115 90
329 878 359 147 115 84
397 82 227 146 57 64
236 561 217 153 28 50
334 9 295 135 45 65
373 438 305 128 94 66
242 262 297 121 95 67
259 633 265 178 9 44
245 263 299 121 95 67
264 523 195 81 32 37
256 322 272 111 87 61
262 86 217 154 18 45
374 128 253 127 95 57
272 78 225 151 26 51
271 545 388 34 30 25
349 36 258 104 48 37
248 258 301 116 92 66
423 673 250 144 100 66
412 575 277 73 54 36
300 962 354 66 60 59
254 358 270 101 85 69
248 263 302 119 93 67
249 608 335 58 26 33
317 907 254 57 53 54
337 242 306 108 88 66
435 534 450 112 21 37
242 273 296 129 97 73
272 513 334 76 53 39
245 268 299 123 95 69
349 198 300 107 88 68
256 394 333 125 98 70
354 323 315 133 96 68
248 268 302 123 96 69
251 258 303 116 92 67
364 213 306 121 97 70
364 173 257 128 99 62
300 524 188 167 2 35
414 443 271 75 22 26
382 438 212 66 38 40
309 663 343 170 5 52
215 463 310 128 2 38
271 197 297 113 93 73
250 263 304 119 93 67
211 459 294 114 9 35
324 283 285 89 75 61
250 273 304 121 93 68
414 701 204 85 65 44
337 44 270 122 83 64
249 582 349 29 27 31
256 385 262 100 84 67
394 420 248 58 20 23
256 263 308 119 93 66
298 323 324 117 80 59
381 564 322 175 2 55
256 273 308 120 94 68
269 54 235 107 86 67
264 353 325 112 90 64
246 832 307 213 142 111
411 877 263 75 64 65
231 428 261 98 17 32
359 448 200 81 34 40
334 368 254 96 84 72
278 460 368 92 23 38
243 278 295 135 99 76
239 373 295 124 97 68
247 283 302 122 96 69
274 193 295 110 90 68
316 905 257 55 51 51
298 393 260 73 60 45
221 424 280 54 34 36
293 591 410 183 115 98
244 698 340 159 108 83
250 278 304 121 94 68
278 138 270 108 84 55
376 233 263 133 102 63
253 278 306 120 94 68
284 561 202 68 30 35
406 553 263 66 34 38
247 362 312 122 97 68
253 283 307 119 94 68
359 534 420 122 17 41
252 288 307 118 95 70
342 810 213 56 48 47
251 293 271 122 94 65
254 293 269 115 89 62
424 532 425 162 19 51
332 281 278 90 76 60
254 303 270 107 85 60
255 688 325 63 39 37
211 532 313 159 1 48
234 783 336 167 120 91
403 507 305 68 28 30
260 541 358 36 25 32
248 293 275 124 94 65
327 18 268 139 42 40
232 482 356 83 20 34
376 426 251 68 55 42
335 23 261 140 24 38
385 193 280 121 96 68
308 587 435 179 114 106
228 452 326 129 5 39
347 904 353 130 96 77
344 534 316 73 27 30
246 293 280 126 93 66
294 9 290 143 74 77
469 487 332 94 19 34
247 295 278 125 94 66
290 596 436 193 121 106
418 544 311 47 28 33
226 577 240 181 21 56
400 78 256 116 23 45
247 303 279 119 93 63
284 609 234 155 21 45
245 298 285 128 95 69
249 363 315 122 96 68
383 79 273 98 70 55
243 363 305 124 97 70
334 528 310 75 27 31
329 788 239 76 60 52
474 868 345 96 81 67
212 533 240 54 29 31
314 798 245 76 59 52
246 298 281 125 95 66
344 303 269 88 76 63
254 303 310 124 97 71
463 482 336 103 3 30
244 408 260 112 90 63
424 924 360 80 72 73
360 653 321 99 23 39
239 677 344 175 119 97
378 123 280 117 94 69
253 614 254 201 13 50
334 362 259 94 83 71
246 303 282 120 94 64
239 713 342 168 116 92
366 862 301 122 96 75
353 777 323 79 60 52
248 508 370 182 2 55
383 223 270 129 100 63
274 53 240 81 42 29
359 528 310 72 39 37
505 831 312 87 70 56
416 475 274 132 26 41
246 303 285 122 93 65
251 296 272 120 93 64
397 511 236 149 24 49
360 133 288 107 87 64
409 542 320 90 12 32
464 537 435 186 19 63
254 308 271 110 88 63
444 738 215 81 61 44
309 573 435 164 26 53
365 107 251 135 32 39
247 308 279 127 96 68
232 411 274 109 89 67
315 552 447 63 12 29
247 313 280 132 98 72
329 628 340 52 29 33
246 308 285 130 98 71
269 223 305 114 94 71
341 204 289 101 82 61
415 562 294 52 29 29
246 312 282 134 99 74
280 588 450 179 117 103
418 812 278 146 103 81
246 313 285 135 99 75
304 338 319 109 67 55
347 606 348 149 39 63
247 315 283 136 101 76
349 534 390 186 12 57
280 298 323 123 93 66
242 403 263 112 90 64
275 410 242 92 77 63
248 318 280 133 100 73
384 688 320 131 7 40
423 448 241 133 12 32
384 698 329 140 3 44
350 203 303 108 89 69
259 423 195 81 51 41
294 507 344 78 35 33
247 318 283 137 103 77
249 523 199 123 15 35
304 383 285 74 57 45
395 668 231 96 78 57
382 148 278 118 92 62
249 373 320 123 97 68
236 633 363 158 113 88
388 498 294 105 74 60
363 483 206 149 6 36
252 309 273 113 89 62
284 458 331 134 100 81
335 759 332 85 66 58
259 69 212 119 28 32
250 318 276 117 92 65
365 599 331 191 11 60
289 583 385 113 44 49
294 598 351 99 18 36
262 490 173 52 38 37
289 538 191 148 12 37
269 538 370 148 0 46
297 310 323 108 80 54
333 879 358 157 124 94
253 318 274 112 88 62
267 421 238 93 77 61
384 198 270 130 101 64
216 557 308 168 0 50
279 419 205 85 70 55
283 58 246 94 50 41
511 859 290 91 74 62
255 318 272 110 87 62
312 428 162 158 1 39
245 293 295 135 99 75
246 293 299 131 98 74
281 587 430 181 116 99
250 614 340 49 35 29
313 504 394 78 22 34
246 298 290 132 96 72
429 887 343 82 72 63
273 227 252 134 103 68
309 723 360 163 14 52
393 688 275 136 15 42
246 298 295 131 96 73
359 803 196 60 50 44
389 692 192 86 64 49
257 392 332 125 98 71
396 810 228 75 62 54
284 15 262 122 89 58
438 558 330 163 106 75
205 498 290 98 25 38
246 303 290 124 94 69
389 563 250 117 16 32
357 374 318 127 97 64
444 878 335 73 56 58
222 426 292 43 37 38
366 604 326 185 16 60
246 302 294 126 94 70
279 27 299 132 62 62
246 506 348 153 35 55
352 58 254 127 39 35
354 520 330 74 33 31
246 298 299 129 95 73
350 58 256 127 93 70
371 516 382 70 35 31
256 506 192 172 6 42
206 483 280 134 6 35
249 298 305 125 98 71
436 753 250 138 97 61
413 887 294 35 32 31
246 301 298 128 95 72
428 553 316 125 94 58
242 387 269 110 90 67
401 455 273 80 60 38
249 303 305 128 99 73
331 975 327 62 56 53
395 438 218 100 27 38
252 292 307 119 95 69
326 443 313 90 66 45
245 328 295 123 96 67
429 888 266 89 71 67
294 448 161 78 37 38
254 293 309 119 95 70
283 63 245 120 41 41
251 304 308 125 98 72
443 479 328 102 1 30
254 453 354 82 24 33
414 625 282 197 129 105
271 118 248 124 95 62
499 839 253 103 80 64
381 509 213 78 41 45
309 758 349 78 42 47
366 21 263 113 97 81
259 424 180 82 53 42
264 28 255 104 90 76
247 308 296 125 95 69
304 415 206 85 70 52
354 768 325 78 61 51
242 471 362 53 21 28
376 473 302 132 95 75
494 841 311 114 83 58
367 348 295 125 98 67
384 848 280 33 29 28
247 308 300 126 96 69
279 693 251 102 22 35
301 298 300 87 70 52
282 559 414 45 26 32
246 318 295 123 96 67
278 128 270 107 83 57
266 501 177 47 39 40
246 318 298 127 99 70
242 377 273 112 91 67
295 514 183 173 3 38
247 318 300 128 99 71
264 423 175 85 60 45
365 653 316 60 23 29
273 73 225 137 32 48
278 133 270 107 82 55
268 123 246 127 97 62
248 318 305 131 100 73
254 308 310 123 98 72
254 313 311 123 97 71
253 318 311 125 98 72
248 323 280 129 100 72
271 14 303 118 87 78
244 638 290 152 20 49
247 323 284 131 101 74
422 901 295 72 61 59
482 506 340 184 133 115
258 117 272 109 92 76
329 514 395 67 27 26
228 713 336 169 117 92
294 408 325 130 90 68
396 99 240 127 53 59
246 323 286 126 97 71
394 517 385 55 26 28
248 328 280 125 99 70
365 428 316 131 96 67
312 364 317 115 76 60
269 293 266 93 75 56
246 333 286 116 92 65
368 811 303 165 117 97
207 503 264 141 0 37
423 733 184 75 65 60
271 41 248 78 58 38
319 673 239 48 34 35
255 348 271 102 85 67
299 928 275 67 63 64
350 238 313 118 96 71
344 28 290 127 45 55
335 813 230 53 47 46
361 72 247 138 24 47
382 148 275 118 94 65
352 143 275 103 84 62
304 718 360 158 18 51
286 594 384 133 75 70
380 153 260 126 98 63
319 668 341 168 12 53
293 289 314 105 83 58
247 338 284 118 93 66
518 770 304 93 74 55
248 343 280 113 90 66
388 98 265 117 81 67
245 343 285 115 92 66
400 909 289 61 52 52
338 213 285 105 85 63
430 593 295 169 114 81
333 25 291 126 90 70
299 498 400 82 23 32
244 348 285 117 94 68
329 328 329 132 92 70
289 598 445 193 120 112
268 163 247 133 103 67
239 393 270 113 91 67
230 433 261 101 12 32
443 494 306 106 14 27
276 207 297 111 90 67
243 353 285 117 93 67
370 73 235 121 32 41
449 513 340 65 13 26
428 703 250 146 99 64
265 683 266 47 35 39
282 374 333 129 97 68
314 418 180 113 54 43
306 363 290 67 53 44
294 842 309 51 38 40
510 848 301 100 81 66
246 349 282 116 93 68
369 538 214 60 28 36
304 413 295 81 54 42
352 742 217 52 39 35
303 393 280 81 68 59
360 148 261 120 94 60
245 353 281 114 92 68
251 343 277 109 88 65
377 602 313 187 13 59
386 544 234 113 29 43
344 328 267 89 78 68
389 417 240 61 19 24
254 338 275 108 87 64
253 343 274 107 87 65
376 186 292 122 98 71
359 243 259 130 99 61
379 694 329 136 8 43
295 30 286 139 28 55
439 488 325 100 1 34
444 554 350 196 128 109
355 11 285 94 47 49
227 442 263 96 18 27
294 583 395 128 68 65
314 463 305 81 54 35
249 353 275 106 88 68
219 743 320 172 117 93
309 353 275 63 56 50
411 825 267 75 47 38
392 577 294 96 31 40
246 323 290 118 93 65
329 635 238 118 10 32
406 505 308 67 9 25
245 328 290 117 92 65
319 798 326 68 53 47
246 323 299 126 97 69
356 788 317 55 45 42
278 143 270 107 84 56
339 248 310 109 89 67
209 518 250 69 24 32
247 323 301 128 98 70
353 32 258 70 40 33
487 843 255 93 76 71
358 674 328 50 24 31
246 328 300 128 97 70
350 715 227 75 27 30
387 627 255 79 58 41
373 24 266 107 92 77
378 242 266 135 101 64
445 468 315 105 22 40
384 113 240 152 23 41
210 543 290 167 4 47
248 328 305 130 99 72
335 339 327 133 92 65
339 367 253 96 84 73
299 673 245 70 31 35
345 272 317 117 90 63
410 903 340 66 58 59
227 416 280 91 77 62
324 273 295 101 81 59
224 498 340 175 10 53
486 846 247 86 75 69
240 368 280 117 94 68
288 253 300 111 87 59
207 481 292 109 29 44
344 453 190 47 33 38
245 333 295 122 95 66
356 376 253 95 83 70
247 331 302 128 96 69
248 333 305 129 98 72
250 663 345 163 107 86
263 407 253 95 80 64
336 483 193 152 1 33
242 357 296 125 97 67
282 54 247 89 55 41
252 794 273 163 110 74
253 323 311 127 99 73
364 768 185 56 47 43
257 431 153 77 58 31
364 413 240 88 70 53
371 264 268 146 102 69
286 938 310 58 54 54
253 328 311 127 100 74
329 258 290 106 85 63
339 520 336 76 30 31
278 138 256 122 96 65
243 348 295 123 97 68
349 208 304 108 89 69
207 493 305 50 31 34
289 378 267 80 67 54
278 68 236 93 41 41
256 323 313 128 100 74
264 48 279 121 88 75
309 423 159 151 10 32
289 668 249 116 13 29
283 603 385 170 105 89
216 440 281 93 22 35
289 218 265 122 96 66
292 342 328 129 90 64
304 818 324 58 50 48
256 328 313 127 99 73
374 443 305 130 94 67
253 333 311 127 99 72
299 415 210 83 68 50
236 403 271 116 93 67
297 37 270 123 25 41
373 103 244 105 66 48
284 411 238 90 75 57
406 771 187 75 59 47
454 549 361 181 119 111
243 343 290 118 94 67
242 353 295 124 97 68
389 109 238 140 35 42
336 886 217 97 82 75
244 343 295 122 96 67
369 743 330 127 38 53
244 338 290 115 91 65
465 838 255 112 99 88
336 228 290 107 86 64
330 879 261 50 45 49
299 23 295 160 111 90
222 564 233 146 4 35
245 338 300 126 96 69
394 900 353 45 42 41
284 460 368 85 30 32
375 127 252 130 96 57
245 343 300 126 96 69
242 353 290 121 96 67
289 803 255 76 60 52
314 308 310 80 60 41
222 422 275 73 30 36
269 133 246 130 100 66
373 84 239 127 50 53
290 238 270 119 94 63
346 764 327 79 60 51
329 289 275 88 75 62
243 353 300 125 97 69
263 544 357 43 28 31
408 483 235 124 21 42
431 455 293 47 26 25
246 773 277 137 96 63
247 348 307 124 96 68
250 338 309 128 99 71
350 153 270 110 90 67
454 867 267 94 79 71
236 607 266 197 13 51
255 338 314 124 97 70
381 233 269 133 101 62
252 342 312 125 98 71
382 163 280 119 94 66
254 343 315 122 96 68
339 412 185 153 46 39
221 743 302 154 109 80
233 603 325 180 0 53
280 63 240 116 34 37
441 890 307 67 55 54
222 593 290 181 0 48
251 345 313 124 97 69
253 353 316 120 94 67
256 349 318 119 95 68
354 528 205 49 34 39
238 373 285 120 96 68
359 673 239 95 24 26
224 643 335 128 98 64
366 196 302 118 95 70
297 15 267 129 51 44
235 383 285 123 97 67
373 18 285 94 36 43
324 518 405 71 26 28
259 503 340 104 60 51
345 203 299 104 85 64
264 374 261 96 82 69
279 353 265 86 75 65
322 897 243 57 53 55
218 673 325 163 114 84
306 575 392 139 32 52
236 379 285 122 96 67
413 853 265 74 63 54
359 11 280 96 62 58
278 158 279 106 84 59
239 531 202 165 0 34
249 368 269 103 87 70
398 926 342 63 55 54
501 845 270 81 68 51
380 686 322 128 8 39
366 870 223 70 62 64
333 28 265 138 68 62
250 359 272 103 87 69
387 603 290 176 15 57
308 388 310 117 79 67
245 363 276 107 88 68
255 364 267 98 84 70
324 733 230 79 30 36
353 338 314 128 96 64
254 362 269 99 85 70
391 56 262 86 35 36
285 78 250 125 101 79
416 488 285 83 22 26
254 368 266 98 84 70
390 668 235 97 77 55
229 473 345 89 23 34
334 587 217 47 36 40
339 981 302 60 56 57
254 758 265 132 7 34
339 378 324 139 100 71
252 367 268 100 85 70
336 219 284 104 84 63
359 633 321 68 27 35
246 359 277 109 90 69
260 832 286 153 108 85
374 223 300 119 95 67
243 363 280 114 92 69
242 367 279 114 93 69
398 58 240 79 37 27
249 378 266 104 87 69
359 798 194 66 53 46
248 383 321 124 98 69
240 632 290 64 31 38
246 365 272 104 87 68
261 404 338 129 101 71
291 948 344 91 66 58
209 483 265 112 13 34
214 448 280 118 9 31
432 841 257 41 32 28
298 593 365 125 20 43
498 842 280 96 75 62
388 103 265 117 34 46
235 398 275 118 94 67
277 338 327 123 94 66
242 361 283 116 94 70
514 783 314 99 80 60
421 423 239 95 26 37
378 143 256 133 101 65
329 411 214 96 83 68
402 68 250 110 39 44
446 743 215 84 63 47
293 43 261 119 35 37
269 158 286 109 89 67
245 373 270 108 89 69
244 378 270 109 90 68
286 99 260 119 40 49
388 673 280 56 27 34
243 383 269 110 90 67
359 493 205 140 4 32
464 547 363 182 120 113
245 383 267 107 88 67
287 248 299 110 86 58
305 557 405 72 23 36
309 574 465 43 27 23
225 703 334 169 115 91
254 373 265 99 85 70
277 103 242 129 28 37
424 782 202 86 64 52
216 439 285 47 34 35
334 397 239 101 86 71
