ply
format ascii 1.0
comment Created by Open3D
element vertex 2190
property double x
property double y
property double z
property uchar red
property uchar green
property uchar blue
end_header
377 705 308 122 18 42
233 585 309 180 119 90
232 590 318 175 123 87
234 579 305 177 116 86
238 585 305 164 105 76
239 588 305 162 105 75
238 605 314 166 112 80
423 760 308 71 53 47
298 744 219 122 32 48
243 580 306 151 96 69
242 585 305 159 103 74
351 890 197 105 87 73
242 591 306 160 104 75
245 589 305 153 96 70
247 590 306 145 90 66
252 580 311 102 58 47
339 862 235 73 69 68
252 585 309 121 67 51
260 750 363 173 120 91
275 630 308 88 26 37
257 580 308 81 28 35
263 928 351 70 64 62
255 581 311 66 42 37
356 515 215 67 35 36
255 583 311 80 52 40
379 605 253 49 28 33
256 585 308 74 43 38
352 560 211 49 33 36
255 590 306 95 51 44
473 753 330 96 80 70
242 595 308 160 105 76
242 600 309 160 106 77
416 785 298 79 62 52
242 605 312 161 110 77
305 766 231 81 67 62
243 603 310 159 107 78
433 770 367 82 66 52
303 725 360 109 34 41
355 579 356 58 31 35
246 603 310 153 102 72
247 605 311 152 102 70
249 601 311 147 98 69
252 605 311 142 94 68
254 603 310 131 80 61
258 605 309 108 61 50
237 610 318 172 116 86
345 898 341 54 50 49
297 605 234 98 21 38
291 795 298 67 56 54
239 609 315 165 112 80
247 610 312 156 105 75
240 612 316 165 112 81
388 825 364 60 47 42
242 620 318 166 114 82
387 823 380 71 56 47
244 618 315 162 111 81
284 847 326 129 100 75
368 765 323 55 43 38
247 619 315 160 109 78
302 814 371 181 123 97
247 625 317 164 114 79
252 610 312 145 97 69
263 905 263 67 62 63
252 615 313 148 99 72
257 615 314 141 93 70
381 570 243 69 24 34
252 625 317 156 106 76
257 625 317 148 97 72
247 634 320 166 114 79
372 555 353 176 15 55
252 630 318 161 109 78
231 585 323 162 114 85
278 828 358 182 119 95
233 585 328 159 114 86
327 906 364 51 46 44
232 590 323 163 114 84
237 585 333 150 112 84
234 590 331 159 115 85
383 530 205 149 15 36
352 885 258 61 54 56
239 587 336 145 110 82
239 590 336 147 111 83
282 875 342 124 91 76
306 790 376 171 119 88
233 595 328 157 110 83
291 805 303 63 54 53
234 600 328 159 111 83
318 760 210 133 98 64
234 595 331 157 111 84
236 600 334 157 112 85
235 607 323 173 121 90
235 606 328 164 116 86
239 595 336 151 112 84
257 944 303 70 65 64
261 550 365 86 21 34
238 600 336 154 113 84
329 947 310 68 66 67
242 580 334 130 100 73
241 584 335 139 106 78
267 620 351 126 88 66
252 580 334 82 61 43
255 577 331 49 34 25
257 580 332 51 31 27
302 830 309 115 85 66
337 600 183 134 101 63
257 584 335 65 35 28
244 582 336 128 99 72
251 582 336 100 78 55
257 586 337 75 49 34
257 590 339 85 58 42
242 595 338 144 108 81
241 600 339 149 111 83
244 600 341 144 107 80
245 594 340 140 105 78
244 596 341 142 107 81
252 595 342 128 98 72
252 600 344 138 104 77
249 606 346 147 109 82
325 818 356 57 34 29
257 603 345 133 98 74
323 951 313 62 58 58
257 605 346 139 104 78
314 604 201 170 120 99
265 604 345 98 28 33
236 615 328 170 118 88
236 615 333 163 115 88
379 567 236 61 18 26
417 680 296 72 58 44
237 620 328 172 120 90
238 625 324 172 118 88
388 525 354 175 13 53
237 620 333 167 118 89
367 875 194 101 86 70
238 610 337 157 113 85
306 781 242 75 63 59
337 670 349 150 17 48
238 615 337 159 114 86
362 850 373 62 52 47
238 630 328 173 120 90
360 890 313 53 48 47
239 634 328 173 121 91
239 634 333 170 121 91
336 881 212 91 75 65
239 630 337 163 116 90
384 576 318 74 32 39
239 633 336 164 117 89
240 622 321 173 118 86
240 626 322 170 116 86
308 580 198 118 52 49
240 615 340 156 113 84
240 620 340 157 112 84
240 625 340 160 114 86
275 683 277 42 35 37
257 936 339 64 59 58
258 608 310 113 65 54
246 620 344 154 113 85
248 620 347 149 110 81
252 620 349 147 110 80
379 517 225 160 15 52
241 640 328 181 125 94
243 639 324 175 120 88
258 856 303 87 61 51
246 636 321 168 115 83
252 640 323 168 115 84
257 636 321 159 105 78
396 779 229 57 45 41
240 630 339 161 115 88
242 630 342 158 112 85
358 620 329 112 31 46
245 630 345 157 113 84
243 640 342 153 110 82
310 857 326 42 37 34
245 635 345 155 110 82
245 640 345 151 109 79
248 640 347 153 109 81
251 640 349 157 112 85
288 735 233 98 25 43
254 635 351 157 115 89
257 630 353 147 112 81
264 701 285 139 6 41
243 645 328 187 127 97
246 646 326 183 124 91
243 650 333 192 132 105
245 651 331 191 130 101
276 585 268 137 11 41
247 655 333 193 131 103
248 654 330 187 126 98
244 653 334 196 133 107
282 890 353 35 32 32
252 645 324 170 115 86
252 651 326 177 120 91
366 865 263 59 53 54
257 649 325 165 112 85
242 645 338 172 120 95
245 645 345 148 108 78
243 650 338 179 126 100
244 650 342 165 119 92
394 811 292 67 54 48
282 830 348 153 98 75
244 654 338 186 128 103
372 520 212 104 26 30
433 692 296 64 50 34
245 656 338 189 130 104
244 653 341 173 124 98
246 655 343 169 119 94
297 879 340 67 55 46
248 655 347 152 110 80
267 605 348 122 13 37
252 645 349 155 108 83
257 645 353 162 114 90
257 650 353 154 106 82
304 543 180 181 123 95
254 656 351 136 98 69
346 545 210 63 30 33
257 655 353 140 98 71
246 890 318 86 74 66
251 661 332 176 121 95
324 811 360 159 111 85
272 595 278 103 29 41
253 659 329 171 120 93
249 664 335 181 122 94
257 660 329 152 109 83
256 666 331 158 109 83
253 670 334 170 117 87
427 705 258 78 59 41
257 670 332 155 109 80
247 660 338 192 134 105
348 678 186 116 87 52
251 660 350 151 109 81
288 514 225 122 29 40
249 665 347 174 122 97
250 665 350 165 115 90
378 570 233 75 25 37
253 665 352 155 110 84
250 666 337 183 126 99
249 668 343 185 127 100
273 809 371 182 128 104
447 767 343 102 84 69
379 684 237 101 24 38
250 670 348 173 119 95
367 836 223 114 87 68
256 675 333 150 105 75
256 680 333 145 101 71
257 685 333 142 98 69
381 585 218 95 29 38
253 680 338 170 117 87
252 680 343 177 121 93
375 725 312 85 25 36
259 730 366 171 116 91
253 675 352 162 112 86
256 720 343 174 119 89
255 679 355 153 107 81
252 680 348 171 118 92
282 911 365 65 60 58
295 701 356 116 70 58
375 620 244 151 28 50
253 680 353 162 112 86
253 685 353 163 112 86
253 690 343 172 117 88
254 695 339 170 117 86
253 695 343 171 117 88
244 934 318 59 56 58
253 690 348 172 118 89
254 700 340 172 118 86
254 700 343 172 117 90
317 515 179 126 98 67
254 704 340 173 120 89
298 765 380 163 117 83
255 675 355 149 105 79
257 680 358 146 104 77
254 685 356 158 109 83
257 685 358 150 106 78
254 690 356 159 109 83
256 690 359 154 108 80
255 701 355 166 114 87
317 675 218 46 36 39
255 700 358 162 111 85
306 679 222 43 36 35
255 705 354 169 116 89
257 710 338 168 114 84
255 710 343 174 118 90
255 711 348 174 118 90
254 708 351 172 119 91
255 710 353 171 116 90
309 594 213 90 32 41
255 715 343 175 118 90
256 859 288 134 109 85
253 861 288 130 106 83
331 903 366 52 47 44
282 840 283 101 84 67
254 865 285 145 115 86
252 860 293 116 95 75
391 535 313 131 25 46
248 865 293 143 113 87
374 837 247 85 66 57
283 705 253 146 17 47
249 862 294 127 105 82
247 865 298 151 114 90
428 696 297 67 56 45
249 862 302 125 100 76
252 860 303 114 91 69
272 955 313 63 59 58
255 858 298 104 85 66
255 858 303 111 93 75
251 864 308 122 92 72
255 859 309 149 119 96
252 865 313 130 96 76
377 835 368 55 45 40
385 677 276 70 30 32
256 870 282 156 119 92
254 870 285 153 118 90
252 880 288 168 122 98
284 655 355 154 112 84
253 885 288 169 122 101
257 885 283 168 124 100
253 890 288 159 120 95
256 890 283 166 123 98
254 895 285 154 121 93
360 814 375 48 40 34
248 875 293 183 132 110
358 846 229 94 78 80
246 875 298 188 135 118
246 875 303 186 134 118
247 880 303 156 111 94
250 881 291 174 125 103
248 866 308 146 107 88
290 772 276 77 63 58
247 870 308 170 124 107
247 875 308 175 124 108
248 880 308 138 102 85
249 867 311 142 106 86
249 880 312 126 97 84
264 906 347 122 93 79
250 875 314 164 117 103
253 880 318 139 105 91
298 959 279 96 92 96
247 885 298 146 111 92
247 885 303 101 77 69
248 890 294 152 121 95
248 895 293 162 128 101
244 895 303 140 116 101
322 889 371 63 57 53
327 625 357 140 24 50
245 895 297 162 130 106
244 895 300 153 123 103
248 885 294 167 123 101
292 626 360 157 23 53
288 550 235 54 33 33
360 874 342 54 47 45
387 750 309 33 26 23
396 713 268 58 46 48
248 885 313 61 52 53
244 895 313 135 115 103
245 888 308 99 87 78
245 895 319 146 120 101
246 935 328 62 58 58
253 860 328 144 113 92
255 858 323 92 71 54
256 859 329 102 77 61
257 861 331 140 107 88
254 862 331 157 116 98
254 864 331 163 120 102
252 870 323 164 122 102
376 605 303 50 28 32
300 752 232 81 67 61
257 870 331 142 105 88
255 871 330 166 124 109
254 880 323 145 105 88
256 875 329 156 116 102
381 585 298 91 27 41
254 880 326 155 115 96
259 745 348 176 121 93
292 630 358 69 25 33
248 895 328 162 127 104
255 884 329 144 113 91
254 887 331 145 116 93
387 695 293 58 30 29
249 891 327 141 114 91
256 889 334 140 113 90
258 890 337 129 106 86
257 895 338 157 124 103
256 905 277 64 60 60
251 900 288 149 119 92
251 905 288 101 84 70
255 900 282 115 95 77
281 580 248 155 9 44
254 900 284 122 99 78
251 910 283 58 55 56
250 910 287 65 60 60
264 604 300 92 31 43
386 521 206 130 20 32
257 915 268 63 60 62
256 920 268 72 66 68
355 913 310 57 50 46
255 918 271 61 57 59
254 921 270 67 63 64
254 925 270 77 72 73
362 515 217 50 36 38
347 640 192 155 104 70
251 920 278 57 53 55
384 745 213 121 94 66
248 915 288 59 55 54
249 916 285 54 51 53
250 913 286 58 54 54
248 900 293 160 126 98
244 899 300 167 130 107
307 515 175 126 96 62
244 900 303 175 136 113
245 905 298 161 126 101
284 887 371 45 40 41
244 905 303 170 131 107
245 910 298 148 118 95
360 880 265 57 51 53
244 900 313 176 134 113
244 905 308 171 130 108
427 765 339 64 53 42
368 675 227 40 33 39
244 905 313 171 129 106
244 900 317 174 134 110
278 958 312 57 52 52
245 900 319 174 135 110
244 905 317 170 129 105
316 959 308 63 60 60
266 745 323 94 32 43
245 915 298 87 70 63
244 920 303 73 63 59
245 919 303 93 77 70
347 855 309 41 33 31
266 790 369 173 120 92
245 927 303 77 69 67
244 915 308 127 98 85
342 874 211 120 93 73
244 919 313 111 92 82
244 915 318 170 131 110
401 871 180 96 87 80
245 916 319 172 131 109
244 925 308 81 72 68
304 754 225 85 68 61
245 924 310 90 80 76
347 854 317 45 38 34
245 925 313 80 69 64
244 926 312 70 61 59
376 740 188 154 113 84
246 925 318 73 62 58
257 930 268 73 68 69
254 928 270 78 74 74
383 755 198 122 90 62
253 934 279 72 67 68
375 834 372 59 49 42
249 930 284 62 58 59
359 659 221 108 19 32
249 933 285 68 63 64
353 715 344 138 15 46
287 715 374 149 111 78
252 940 288 79 74 75
246 930 293 61 58 59
247 935 293 67 62 63
244 928 303 78 71 68
377 545 353 137 22 49
248 939 298 68 63 63
249 938 290 75 71 72
253 944 293 71 65 66
254 943 301 64 61 62
386 819 238 67 51 46
307 759 370 121 85 59
257 946 298 62 59 59
368 780 319 37 32 30
244 929 308 68 60 58
281 595 258 40 34 38
246 936 313 69 64 63
245 929 319 48 44 44
252 940 308 70 64 65
399 817 375 76 60 51
302 715 357 124 23 42
257 944 313 63 59 62
252 941 318 77 74 77
267 939 343 62 58 57
254 943 318 68 64 68
256 946 293 69 63 64
312 875 238 57 54 56
247 905 328 164 124 103
380 604 243 91 25 37
244 910 321 177 134 111
249 905 331 163 126 104
452 745 324 102 78 59
251 910 334 165 124 104
253 905 337 160 122 103
256 905 339 157 121 103
253 910 337 163 125 105
293 534 201 145 1 43
255 910 340 159 122 102
346 900 338 54 48 46
246 915 323 178 132 111
246 920 323 135 102 86
351 895 333 47 41 38
248 920 328 132 95 80
317 891 370 60 55 52
247 925 323 65 53 50
251 915 334 162 120 99
329 770 180 136 103 64
249 920 331 129 93 80
251 920 333 116 83 72
301 831 318 85 66 53
253 915 337 153 113 95
255 915 340 132 96 83
255 918 340 74 53 50
249 926 337 45 43 44
254 921 342 41 37 39
257 920 348 41 39 41
397 530 343 62 24 33
256 925 349 52 49 48
244 932 322 50 48 49
245 935 323 68 66 68
307 525 175 147 106 71
248 939 323 76 71 71
322 865 348 33 30 30
257 550 358 124 19 43
250 936 334 65 59 58
252 942 323 69 63 63
252 941 328 63 58 57
259 775 353 168 119 88
254 943 322 65 59 60
328 839 343 40 35 32
282 640 278 64 33 39
255 942 328 69 64 63
252 939 333 62 56 55
250 932 340 55 51 51
310 572 186 172 118 87
382 515 207 37 34 38
249 929 341 47 45 46
249 933 336 53 48 48
256 931 344 66 61 58
258 934 342 65 59 58
257 940 337 65 60 60
302 520 175 143 105 73
294 514 180 160 116 85
327 920 348 64 57 56
295 521 181 167 118 95
296 525 183 146 93 76
349 630 191 138 103 69
290 521 192 77 31 38
293 525 188 68 41 41
319 636 225 160 0 43
272 820 343 180 124 98
294 524 185 98 56 47
420 703 290 71 62 54
296 530 188 94 43 40
292 530 193 122 20 41
293 535 193 177 2 46
297 535 188 121 44 44
294 540 193 183 0 47
291 835 278 113 95 78
297 540 189 133 42 41
299 528 180 187 131 109
347 819 360 35 29 28
286 726 258 138 20 46
302 530 178 176 119 93
299 534 185 134 75 61
382 525 207 137 17 32
304 540 180 181 123 93
297 545 193 174 13 44
369 852 252 66 55 54
302 555 208 154 0 42
314 645 355 51 29 30
299 544 190 133 42 44
302 545 188 132 66 55
307 520 174 133 101 67
312 525 175 140 104 69
313 515 176 128 98 65
349 548 211 136 2 29
319 514 181 114 92 67
317 525 177 138 103 68
342 525 208 43 35 39
302 914 244 86 77 77
312 535 176 140 102 66
327 869 228 57 53 52
266 684 365 142 101 75
313 531 176 137 102 65
312 545 176 147 104 68
357 840 377 74 60 49
317 530 177 133 100 64
297 860 334 70 57 43
317 540 177 134 100 64
298 550 194 176 11 45
301 551 192 142 42 45
302 560 193 146 45 47
305 878 344 41 34 38
292 905 237 86 76 74
312 550 177 152 105 73
307 555 183 170 112 86
309 554 180 163 109 79
305 555 186 170 110 87
323 906 242 72 63 62
359 694 335 98 28 41
372 675 308 110 17 38
306 560 188 167 106 85
314 559 180 155 105 69
332 800 178 164 117 80
307 710 212 126 4 30
317 560 179 143 103 66
305 562 191 137 76 60
386 844 279 69 58 55
312 570 183 162 109 76
257 725 358 173 117 92
312 575 183 159 109 75
309 569 185 170 116 83
309 574 189 165 113 81
382 525 222 105 18 39
285 674 257 59 29 34
262 514 254 91 27 32
385 529 356 167 15 50
387 685 253 41 32 35
310 575 188 169 118 86
256 715 358 170 115 91
308 575 193 145 98 77
324 700 193 145 101 71
317 570 179 144 102 62
314 572 180 153 106 69
352 866 326 48 42 39
317 575 179 146 102 63
314 575 180 151 103 65
409 791 305 67 53 43
371 589 214 101 22 34
288 519 197 137 12 43
272 525 238 81 27 36
267 515 248 123 13 36
401 804 324 67 54 50
269 515 244 54 30 35
382 535 205 154 16 34
379 580 238 150 18 47
270 515 241 42 30 36
362 595 214 169 17 41
269 520 244 53 31 31
331 841 343 49 41 34
266 516 252 118 15 32
267 520 253 115 19 38
269 524 244 78 31 37
268 525 253 124 16 37
270 531 248 91 20 39
272 535 243 159 2 40
272 535 253 138 1 37
290 640 257 120 21 40
273 515 234 64 35 41
294 735 220 57 38 42
274 519 235 125 25 38
274 523 235 62 28 27
275 526 236 43 32 37
349 901 329 43 37 36
283 519 230 93 32 43
287 520 229 110 24 39
322 670 352 42 29 30
380 676 291 102 15 34
282 525 232 62 33 35
286 526 231 77 31 35
288 524 230 74 29 34
273 535 239 147 6 39
278 529 235 55 34 38
366 867 212 102 83 62
339 550 203 83 24 34
277 540 238 139 5 35
434 737 286 82 60 47
281 535 236 107 29 41
323 650 193 180 132 109
284 540 235 48 35 38
281 540 236 62 28 34
282 545 236 102 24 33
294 515 391 164 19 52
284 544 235 58 33 32
292 831 358 152 96 74
277 775 380 176 126 97
273 545 248 157 2 42
273 545 252 145 0 39
275 545 254 137 0 39
278 555 240 40 35 41
264 871 275 155 119 88
279 560 239 69 33 36
378 535 224 86 23 36
286 550 236 72 37 40
274 549 244 168 6 42
275 550 255 142 0 39
276 555 243 60 29 39
275 556 248 163 5 44
277 560 243 91 28 41
336 795 357 46 39 37
274 554 253 154 0 41
282 565 238 52 34 37
384 570 312 159 19 49
287 565 236 74 27 35
283 575 239 96 20 36
287 570 237 90 22 35
279 570 248 175 2 46
330 826 242 166 124 98
280 576 248 174 2 46
320 837 335 28 26 28
320 675 213 61 48 43
291 515 199 143 0 44
299 887 240 59 57 59
296 515 204 141 0 42
294 520 201 147 0 42
338 714 355 80 24 33
296 525 203 142 0 42
298 515 208 125 7 39
277 929 357 63 57 55
297 515 218 40 30 33
400 788 340 47 40 36
294 513 220 73 32 35
437 740 304 88 66 49
272 720 274 89 25 36
299 515 213 57 25 34
299 518 213 87 16 34
305 536 216 80 21 37
300 516 212 96 18 37
300 514 210 98 20 36
299 519 218 46 31 33
299 555 223 44 32 34
299 523 220 43 31 28
302 525 218 56 29 35
298 932 256 86 79 81
292 535 198 157 1 45
294 543 197 174 0 47
310 818 366 176 120 97
295 541 200 152 0 44
297 540 202 145 0 43
381 574 332 186 7 61
299 529 206 140 5 43
300 532 205 143 0 41
300 546 205 150 0 43
264 795 366 179 124 96
298 535 224 118 18 41
303 530 218 65 26 35
347 818 184 230 152 127
301 530 221 34 30 37
298 539 224 108 19 38
379 694 231 78 31 29
301 540 222 79 26 33
375 858 351 53 43 42
305 535 213 110 17 38
327 860 248 51 47 50
306 540 213 105 20 38
395 802 381 63 51 40
305 544 210 149 1 39
305 544 212 138 10 40
290 517 226 100 28 47
291 520 227 81 31 36
292 525 228 75 28 36
394 567 283 185 17 55
293 535 229 58 31 38
268 831 308 144 112 90
290 535 231 40 32 37
323 705 198 148 103 72
296 540 227 50 28 36
416 879 167 85 85 85
299 765 243 76 63 58
293 540 229 37 31 35
280 551 375 176 17 56
294 544 230 37 32 35
299 554 201 165 0 49
299 550 224 54 29 34
342 580 367 65 29 35
301 550 218 102 13 34
273 540 268 132 0 36
301 555 213 145 1 38
273 785 328 136 102 70
266 760 338 149 107 75
300 555 221 72 33 34
265 595 292 48 31 37
304 569 199 57 33 37
437 749 329 77 62 46
303 570 208 67 34 39
260 520 317 48 25 27
298 565 223 124 11 36
367 540 368 168 19 55
299 566 220 124 20 45
300 564 221 129 8 43
297 570 223 87 28 37
290 691 362 142 107 80
299 574 220 53 30 37
299 574 223 46 35 36
300 570 217 73 32 34
260 516 313 100 10 35
300 575 218 73 37 42
305 567 196 64 37 45
306 575 198 86 41 43
305 575 203 83 34 39
304 574 205 53 34 35
291 694 222 60 32 37
297 550 228 69 30 34
307 934 348 67 61 60
295 555 232 60 31 34
292 555 234 91 27 36
290 561 236 96 21 38
297 555 228 80 26 32
296 565 228 84 21 31
295 565 231 82 21 30
293 565 234 117 8 33
359 877 340 59 51 48
327 710 357 131 15 42
291 565 236 120 11 35
296 570 228 143 14 43
293 570 234 139 1 33
293 575 235 143 0 31
312 700 356 144 19 48
296 575 232 156 11 44
310 576 191 168 118 90
312 585 188 161 112 82
314 580 180 153 106 69
317 580 179 146 103 63
307 956 319 70 66 67
398 766 240 65 46 41
317 585 179 149 105 64
315 586 181 153 103 66
317 590 179 146 103 63
279 804 325 90 74 58
315 590 181 152 103 67
315 595 182 151 103 65
314 595 184 157 107 73
438 746 313 88 66 52
313 595 193 165 115 87
307 710 357 150 10 45
313 600 188 158 111 79
312 600 193 162 115 87
405 778 239 91 68 55
318 610 180 142 101 58
314 610 188 160 112 80
314 614 189 168 118 88
321 868 242 51 49 54
315 616 187 166 117 83
314 615 193 171 121 94
317 620 183 158 110 74
332 559 381 190 7 61
314 619 194 175 125 98
335 540 199 84 32 30
315 621 192 176 125 99
319 629 184 172 118 86
319 634 185 179 124 94
340 908 341 48 43 40
297 825 288 93 76 57
319 638 190 187 132 104
337 560 379 187 13 61
319 638 193 186 134 109
284 580 240 156 2 42
287 580 237 137 1 33
413 705 288 52 42 33
279 580 255 161 6 43
282 580 243 180 3 47
283 585 243 178 7 48
284 584 240 168 0 43
307 590 213 80 37 41
307 877 376 52 46 41
280 577 252 164 2 44
280 580 253 128 10 40
284 589 244 177 9 49
288 595 239 147 10 39
315 765 211 85 61 48
284 594 249 104 22 39
288 600 243 62 31 37
285 600 252 135 27 45
286 605 253 89 30 41
287 610 253 92 31 40
418 740 267 67 50 43
304 584 223 45 33 37
310 582 196 145 101 80
306 580 203 111 26 41
308 585 203 100 30 40
305 587 218 45 32 36
307 590 218 51 32 37
433 785 345 95 74 63
307 590 223 93 25 40
311 595 203 118 78 67
309 594 209 103 38 49
274 599 361 159 17 50
313 605 198 167 119 95
437 782 371 86 69 56
310 596 213 116 37 48
311 595 218 111 26 43
283 600 258 94 27 40
308 595 224 107 23 39
258 875 331 129 92 79
318 604 218 57 33 38
458 762 337 104 88 76
297 585 234 126 11 33
372 815 384 72 56 44
291 590 236 134 4 34
442 745 308 90 68 53
282 695 253 110 24 42
303 585 228 40 31 35
300 582 231 74 23 26
303 590 229 114 18 35
291 595 237 126 13 35
292 600 238 64 30 38
294 595 235 102 16 34
302 820 368 182 126 99
266 542 276 57 32 35
294 600 235 39 36 40
297 600 233 41 34 40
293 605 238 176 9 48
295 606 236 164 9 44
301 595 231 51 34 37
303 595 229 52 30 37
372 870 318 61 54 52
301 606 231 49 33 34
290 602 242 75 21 34
314 610 198 168 119 96
409 695 293 47 35 27
393 566 278 184 17 53
314 608 201 167 117 98
259 896 341 156 121 102
379 846 268 66 56 53
387 680 278 64 50 43
319 615 206 165 120 101
314 619 197 175 124 101
272 595 358 123 16 43
315 625 198 178 125 104
318 620 203 173 122 102
318 625 202 176 124 105
319 608 212 145 36 64
349 896 334 48 41 39
317 615 224 90 33 42
294 609 240 80 16 35
302 610 232 78 26 38
331 836 246 153 117 88
304 609 230 59 35 37
303 615 234 151 14 44
317 880 373 61 55 52
301 616 237 130 12 40
299 620 240 45 32 38
270 612 296 84 21 28
304 619 235 34 26 36
301 620 237 42 34 38
289 609 249 125 29 46
269 803 329 130 100 70
296 615 242 167 10 46
293 620 248 93 31 41
285 751 276 74 59 55
294 618 245 156 28 54
295 625 247 98 28 38
296 630 247 155 5 42
292 630 253 108 20 39
293 635 253 142 14 43
271 560 277 136 0 34
296 635 248 155 5 42
294 640 250 152 4 42
350 878 250 76 68 69
298 630 243 148 6 41
300 631 241 145 4 40
298 635 244 154 3 43
299 640 244 147 1 41
300 635 241 155 1 41
307 610 228 64 34 38
306 615 232 114 25 40
310 612 226 38 33 36
383 735 218 111 88 65
309 619 230 125 27 44
312 620 228 57 34 37
307 625 233 89 28 35
309 624 230 78 33 34
305 635 236 145 1 38
386 844 293 69 56 50
332 940 278 80 72 73
368 770 177 162 113 80
306 640 236 137 1 36
362 575 353 55 30 35
317 630 226 119 16 39
317 635 227 159 0 42
383 797 359 44 39 36
313 640 229 143 0 35
319 640 225 144 2 39
320 516 180 130 102 68
298 829 319 63 50 46
307 715 357 137 10 42
320 520 180 139 107 74
323 520 182 136 105 77
323 514 188 97 79 59
272 905 367 52 48 49
325 516 188 99 79 59
326 525 188 115 92 69
326 525 193 95 77 59
306 837 323 60 47 36
347 650 192 124 91 53
324 535 181 131 101 68
345 579 366 79 33 37
325 530 184 126 98 68
327 530 188 112 90 67
287 720 376 152 112 81
322 540 179 131 100 65
325 545 180 129 99 64
330 540 189 115 93 69
331 545 188 117 93 66
333 545 193 106 84 61
380 864 318 64 55 53
325 550 180 129 100 64
320 741 206 118 26 37
325 556 180 129 99 63
328 555 182 127 98 65
294 840 269 135 111 87
332 550 188 117 94 67
435 738 288 88 66 51
331 555 184 125 97 65
331 560 184 124 96 64
334 553 191 111 89 66
336 551 194 103 80 58
412 805 358 89 70 56
336 555 193 106 84 60
335 560 189 118 94 66
322 570 178 133 98 59
327 570 179 130 99 61
306 810 268 164 123 96
331 565 184 123 96 64
334 565 187 119 94 66
335 565 189 115 91 65
329 570 181 129 99 65
332 570 183 124 96 63
335 572 185 121 95 64
335 575 184 121 95 63
347 545 382 113 27 44
274 615 356 63 25 32
339 574 192 114 90 63
322 515 199 58 45 38
400 798 280 70 57 50
323 520 194 83 64 52
380 657 260 84 29 38
371 645 239 142 16 42
321 520 199 48 39 36
325 512 200 47 36 38
325 518 200 36 34 39
330 520 204 79 24 29
367 660 313 66 28 34
333 520 207 63 27 30
337 515 208 42 35 37
354 803 350 27 25 26
333 525 207 71 30 29
345 571 204 66 38 33
323 529 198 79 57 45
329 528 201 73 35 32
332 530 203 81 27 27
333 534 203 79 25 29
337 530 208 90 26 31
361 625 323 51 29 33
334 533 206 92 16 27
337 535 207 104 18 28
405 783 274 58 48 44
335 536 204 95 20 29
334 540 197 81 41 33
336 545 199 80 41 34
337 540 203 93 22 27
342 515 209 46 35 36
295 750 242 79 65 59
342 520 208 90 34 36
348 515 211 42 38 37
346 520 210 68 35 34
352 515 213 65 37 35
352 520 213 41 37 40
377 800 358 40 35 31
342 530 208 69 29 36
328 951 293 88 81 83
346 534 210 124 18 31
348 530 211 110 22 34
348 535 211 74 24 30
352 530 212 85 27 31
352 540 212 50 36 35
339 560 197 92 71 53
344 560 206 49 33 35
352 550 211 129 11 26
350 551 210 135 4 30
349 560 211 43 34 39
392 689 290 50 41 36
396 560 274 167 19 50
340 567 195 107 85 62
343 565 203 61 36 33
416 803 363 93 76 61
340 571 195 110 87 62
342 570 198 95 74 55
341 575 194 113 90 64
312 640 356 66 24 31
344 570 202 65 42 36
345 576 199 76 58 45
442 785 368 105 86 72
424 757 299 80 61 53
437 714 309 79 66 52
352 571 209 98 20 29
359 515 216 53 38 37
431 715 263 69 52 40
262 640 324 156 101 78
376 615 243 37 31 34
357 525 214 59 37 37
366 515 217 53 32 35
370 750 322 139 10 43
360 521 215 49 38 40
327 820 233 60 50 54
362 525 216 48 34 35
357 530 214 79 32 34
357 540 213 92 32 36
362 528 216 51 28 32
287 880 343 93 73 59
365 540 211 102 24 29
382 520 207 104 23 28
384 527 205 144 18 36
374 521 210 125 18 28
307 685 219 53 35 38
375 518 211 113 26 34
378 515 209 47 32 33
382 520 222 108 13 38
377 535 207 139 16 32
377 540 206 148 14 33
372 802 343 43 38 35
377 545 206 154 15 37
377 530 207 128 22 34
378 536 205 146 17 35
381 530 206 142 18 32
302 805 374 180 126 98
377 538 205 146 13 37
369 531 210 44 31 36
382 530 222 51 26 31
382 545 222 78 21 33
378 515 228 157 15 50
383 515 238 66 22 32
408 792 364 86 70 56
380 520 234 142 14 43
379 525 232 146 15 48
380 525 234 142 14 45
377 535 228 33 26 29
382 535 238 133 13 42
377 540 228 57 27 35
378 545 233 51 26 35
423 700 293 66 54 42
380 543 235 23 32 34
381 545 238 37 29 33
384 540 243 120 24 44
399 802 286 60 46 42
358 710 181 112 87 57
363 555 209 57 32 32
357 555 212 47 32 34
418 735 267 81 60 51
371 655 303 103 18 39
364 546 210 35 34 37
355 576 203 63 39 40
367 570 209 164 15 37
278 760 293 88 69 63
372 550 206 106 24 36
377 550 207 158 16 35
372 555 206 83 24 34
377 555 207 166 17 39
382 549 205 167 19 40
378 550 224 55 26 31
261 854 282 131 108 86
372 575 210 145 17 37
358 660 214 144 108 81
377 570 209 167 18 36
383 765 198 136 97 67
376 574 210 154 18 37
381 565 210 178 18 44
380 569 210 179 18 45
382 570 213 182 19 44
382 570 223 142 12 40
384 569 218 164 17 45
312 841 318 72 55 46
295 828 293 70 59 47
377 550 228 35 28 30
437 681 283 70 54 41
378 555 224 82 27 37
381 555 238 38 29 34
383 560 243 50 28 33
351 910 288 55 49 47
379 565 225 146 16 47
379 569 225 142 12 45
385 564 306 184 18 52
380 572 226 137 10 42
382 565 243 38 28 34
397 560 278 183 18 52
381 575 243 135 20 43
322 580 178 134 100 58
327 585 178 133 100 60
327 590 178 134 101 59
320 863 251 51 48 50
332 580 180 132 101 63
332 585 179 133 102 64
336 580 183 125 96 63
374 730 187 137 104 72
354 610 212 59 46 42
337 585 183 128 99 64
345 923 312 58 52 49
334 588 181 132 101 63
337 590 183 131 101 66
373 875 288 60 51 49
322 595 178 138 100 59
327 595 178 134 99 59
322 605 178 139 99 59
327 605 178 136 99 59
332 600 180 136 101 62
337 595 183 132 101 64
334 605 181 139 103 64
339 584 186 125 97 64
363 675 323 56 27 31
340 581 189 120 95 64
343 585 193 122 96 67
278 655 360 146 105 77
341 590 188 126 98 66
343 590 193 127 99 68
340 596 185 130 101 65
370 800 189 182 125 94
343 595 192 131 102 68
341 605 185 136 102 66
346 600 193 141 108 73
346 605 193 140 107 72
322 615 179 138 99 57
364 780 176 166 112 79
322 620 179 146 103 62
322 625 180 152 105 66
320 622 181 157 107 67
320 625 181 159 106 70
380 660 278 63 32 32
327 620 179 135 98 58
327 625 179 140 100 61
332 610 179 142 103 63
257 855 313 129 66 70
332 615 179 142 103 62
277 665 293 146 4 42
365 528 376 35 28 30
337 615 183 143 103 64
332 620 180 141 102 61
332 625 180 139 102 62
334 617 181 142 102 59
356 895 318 49 44 43
334 620 181 145 105 62
337 620 183 145 104 65
381 864 288 64 54 51
334 625 181 142 103 62
343 900 257 64 56 55
321 630 182 165 112 78
323 629 180 158 108 72
327 630 180 146 102 63
322 635 183 170 116 80
272 815 368 188 132 109
437 705 273 79 60 45
323 640 184 174 119 85
324 634 180 162 110 69
327 636 181 155 107 65
320 636 187 182 127 96
320 641 193 187 136 110
332 630 180 138 101 60
334 631 181 138 102 61
336 630 183 139 101 61
431 729 313 62 50 38
333 635 181 136 100 56
343 610 187 137 103 65
341 615 185 144 105 66
341 620 185 148 106 67
343 620 187 148 107 69
383 600 263 148 18 43
340 624 185 151 109 69
342 625 187 149 106 67
297 665 238 121 12 36
345 610 190 137 102 65
347 610 193 143 107 71
345 615 189 143 106 68
347 615 193 144 107 72
345 620 189 145 106 70
378 866 313 64 55 53
348 620 192 142 106 68
307 785 376 170 117 86
339 627 186 147 104 66
342 630 188 147 101 65
339 635 186 141 97 62
397 801 378 64 50 39
338 640 187 132 92 58
342 635 189 150 101 65
343 640 191 160 106 73
346 630 189 144 104 67
346 634 190 152 105 71
348 636 191 154 107 72
320 606 218 64 36 35
346 580 198 88 68 51
346 585 198 109 85 60
352 580 204 45 39 38
261 555 328 62 27 34
353 580 207 39 37 37
351 585 204 50 41 38
344 587 196 125 97 66
345 592 195 132 102 70
353 585 208 50 35 34
305 818 266 136 105 76
349 590 202 97 71 53
265 838 309 141 105 80
353 590 207 81 36 35
347 595 198 141 106 79
348 600 198 150 112 82
349 595 202 128 96 72
351 595 204 85 61 49
310 855 256 134 109 86
349 600 202 145 107 82
387 820 381 70 58 50
373 866 203 109 93 77
350 600 204 123 91 71
353 595 207 65 41 37
352 600 208 72 46 41
376 515 367 69 27 35
292 545 384 65 26 34
348 605 198 150 112 80
349 605 201 154 114 85
261 740 303 138 19 47
350 605 204 149 110 85
321 620 208 166 116 100
320 625 205 173 120 105
321 610 213 88 39 43
287 949 332 55 51 50
321 610 218 73 28 37
320 611 221 118 36 50
323 615 218 91 31 40
392 525 253 108 24 40
321 615 222 74 26 35
322 620 213 123 80 72
305 831 310 119 88 67
323 625 213 130 78 69
324 620 218 72 41 43
322 625 222 83 29 41
366 845 228 114 91 72
324 625 218 112 40 49
345 836 370 64 51 39
325 624 218 108 33 41
358 895 313 52 47 46
323 635 208 180 125 109
287 885 358 32 30 31
286 725 238 178 5 53
321 640 203 182 130 113
281 805 323 48 43 45
323 640 208 179 128 111
325 626 211 175 123 108
324 630 218 112 47 44
356 869 357 59 51 48
322 630 224 126 17 39
384 856 297 60 49 43
375 838 250 77 61 55
312 535 392 93 31 44
268 570 283 141 0 34
325 631 222 144 15 42
384 821 262 58 49 47
325 636 214 128 69 67
324 639 211 165 111 94
325 640 213 121 77 68
324 633 216 108 61 52
326 635 218 105 50 48
422 765 328 92 68 57
380 602 246 113 54 52
326 640 218 78 53 51
315 868 361 31 25 32
377 864 203 119 97 77
350 611 199 150 110 79
282 829 343 136 88 68
349 614 196 146 111 76
285 708 241 156 1 47
351 615 198 146 110 77
329 937 325 58 57 58
351 610 203 155 115 86
297 964 288 63 59 60
366 875 333 52 45 42
350 617 195 147 111 74
322 875 328 43 38 35
350 620 195 143 108 74
379 832 369 53 44 40
351 625 194 136 104 72
351 630 194 136 103 70
352 635 193 144 106 72
352 640 193 149 109 74
290 741 253 78 63 57
320 637 226 156 0 39
365 634 230 97 33 41
355 579 204 51 39 36
357 580 209 114 19 33
356 584 210 115 18 33
358 586 211 162 15 39
355 591 209 116 25 31
352 710 179 114 88 54
358 590 212 160 16 39
367 800 328 28 26 26
326 645 218 68 51 48
362 581 211 167 15 37
362 585 212 166 15 37
367 577 211 168 16 33
367 585 212 133 15 35
362 590 213 167 16 39
367 590 214 169 19 41
356 595 209 105 33 38
354 600 212 63 32 34
338 931 318 53 48 46
359 606 216 57 29 28
366 594 215 171 17 42
367 595 216 170 17 41
364 597 216 173 17 32
374 684 309 123 10 39
411 764 228 57 46 43
363 601 216 172 17 40
366 605 328 44 29 32
367 600 218 171 19 45
360 603 215 170 20 48
362 605 217 140 20 41
359 896 288 62 54 50
366 604 219 64 27 35
368 606 221 51 34 35
344 878 225 79 68 61
372 580 212 97 23 33
280 683 261 99 34 43
372 585 213 64 30 35
374 621 242 112 27 41
376 584 214 80 29 36
371 786 322 30 27 26
373 591 216 89 24 32
377 590 218 101 24 36
380 579 214 121 27 43
384 580 223 62 27 33
352 885 343 50 44 43
365 883 298 48 43 42
382 585 223 87 27 41
378 586 216 144 29 44
380 589 220 182 20 41
381 590 223 148 24 46
372 595 218 128 25 42
376 594 220 48 28 29
378 595 223 47 32 35
293 830 278 105 88 72
383 775 193 159 108 79
376 599 224 52 27 34
372 605 223 63 29 37
383 580 228 122 16 39
380 576 231 146 14 43
380 581 232 67 21 31
366 869 342 60 52 48
350 884 347 57 51 50
383 585 228 60 29 35
416 700 262 83 69 56
379 580 234 75 16 30
380 585 238 151 19 48
382 590 228 90 27 38
379 586 243 111 19 39
382 580 248 169 17 48
311 963 303 65 62 64
380 584 243 168 18 50
381 585 248 174 17 50
382 580 253 175 17 49
260 919 261 70 63 64
379 587 247 172 20 47
389 795 222 82 63 57
379 591 251 173 20 47
380 588 250 173 19 47
381 590 253 174 19 48
376 605 228 134 28 47
374 606 227 114 33 49
379 596 227 53 33 35
380 595 228 68 30 37
387 791 317 39 35 32
347 805 354 32 28 26
381 595 233 79 27 35
381 595 238 101 28 42
367 870 338 60 51 49
357 655 218 136 94 75
380 600 238 91 25 38
379 601 232 124 35 46
380 603 238 76 31 32
379 595 244 141 18 42
328 815 203 203 148 117
379 599 245 101 19 38
318 866 360 31 21 34
380 595 242 120 19 41
272 861 333 123 94 75
387 545 313 51 29 33
379 595 251 173 18 48
381 595 254 173 20 47
286 730 248 79 33 44
379 605 248 60 32 36
407 689 271 75 59 44
380 603 246 59 29 33
388 751 311 32 26 25
316 645 227 124 6 33
380 604 255 41 28 35
353 620 203 145 109 77
343 915 272 72 65 66
379 797 315 33 31 30
354 620 208 149 113 84
354 625 203 147 111 78
348 915 283 62 55 52
301 805 283 167 119 90
354 623 208 149 114 83
356 610 214 49 35 37
389 835 348 62 52 49
354 615 212 80 60 53
312 800 238 55 48 51
355 615 214 76 46 41
354 624 212 146 105 83
384 835 317 62 53 52
357 620 218 77 31 36
359 645 208 158 111 82
359 622 221 105 34 44
359 625 222 82 32 36
346 924 308 52 46 43
361 610 219 94 31 38
454 767 353 99 80 66
363 611 221 90 26 32
360 614 220 62 29 34
362 615 222 61 32 38
365 608 220 52 29 33
367 610 223 52 33 36
384 694 241 96 22 36
360 618 220 73 27 38
362 620 223 50 32 36
361 625 224 77 29 34
354 630 198 146 111 78
342 710 352 93 27 38
355 626 205 149 114 82
370 758 321 51 37 33
355 626 208 149 113 82
389 542 310 32 27 35
354 634 196 143 109 78
356 640 198 131 100 69
356 635 203 136 103 72
358 640 208 147 109 75
347 880 223 76 67 60
355 630 213 155 115 89
300 742 216 100 35 41
356 630 218 109 58 51
356 635 213 162 119 92
355 635 218 150 100 86
422 711 302 55 45 35
354 634 216 167 120 99
355 640 218 151 106 88
357 640 223 69 30 35
353 765 344 77 58 48
370 609 224 41 34 35
368 615 228 39 33 37
363 625 227 103 26 37
363 630 227 78 28 36
365 629 230 45 30 31
367 630 233 90 29 39
360 634 225 139 23 50
362 635 228 95 22 34
362 640 228 109 21 36
369 611 226 43 34 38
263 810 348 185 134 106
372 610 228 45 33 35
400 784 263 70 54 46
370 614 229 42 32 40
372 615 233 49 33 38
373 611 232 81 37 43
375 608 230 68 21 33
375 613 235 88 29 42
374 616 237 134 38 49
290 859 266 141 116 91
377 610 238 50 31 35
369 617 231 36 35 40
370 620 234 108 29 44
297 941 262 92 87 90
432 710 263 67 51 39
372 620 238 144 24 47
371 625 238 46 30 34
337 845 368 52 43 36
377 620 248 147 23 47
376 625 248 132 26 43
379 610 248 70 31 38
378 615 248 61 29 38
378 796 198 171 117 87
379 610 253 125 22 41
378 620 253 163 22 50
378 625 253 149 19 43
371 630 238 135 24 41
384 601 278 123 20 44
369 635 237 150 20 43
371 635 239 161 23 47
384 768 208 161 111 84
369 640 237 149 17 43
370 640 239 152 18 44
373 630 243 141 20 43
376 630 248 164 21 48
373 635 243 164 21 48
373 640 243 156 19 44
375 633 245 177 20 51
376 635 248 165 19 47
376 640 248 158 15 47
330 848 316 39 29 27
417 750 268 62 47 42
378 630 253 166 19 49
377 635 253 163 16 48
287 705 223 138 8 39
341 800 177 169 119 82
288 685 238 125 10 38
288 675 248 68 28 34
288 680 243 126 12 38
286 675 253 37 35 39
285 678 252 43 31 35
284 677 255 40 36 38
284 685 249 90 26 38
375 730 193 152 113 84
284 682 250 93 26 37
288 690 233 119 9 39
354 897 276 68 60 58
287 690 238 132 5 40
288 695 228 134 3 40
286 700 233 136 1 42
333 590 369 91 28 40
288 700 223 125 11 38
286 705 228 148 3 43
308 872 359 29 28 35
286 705 233 147 2 44
397 515 348 168 3 51
340 598 361 140 38 57
285 700 238 143 1 43
285 705 238 149 2 43
284 690 248 119 21 43
285 688 246 124 28 47
378 856 343 62 51 45
285 695 243 132 11 42
284 692 245 150 5 43
322 520 399 45 28 30
284 695 245 136 15 43
282 690 253 64 30 41
285 700 242 146 3 44
284 700 244 146 5 43
284 700 248 133 16 45
275 893 256 136 90 74
284 705 244 151 2 44
282 700 253 51 32 37
318 650 224 124 13 35
317 655 224 93 20 35
312 670 223 58 35 36
317 660 223 53 32 37
312 665 224 45 37 39
261 705 332 140 98 69
316 670 221 63 34 33
406 525 278 56 26 33
327 755 188 146 110 74
318 670 219 47 37 40
306 831 313 115 87 67
304 656 234 106 20 32
293 645 253 116 17 40
275 544 263 133 0 35
295 655 247 143 4 40
292 650 253 64 29 38
292 655 253 138 11 41
366 874 336 62 55 53
294 650 250 134 11 41
294 655 249 141 7 41
298 645 244 139 1 36
300 649 241 135 1 37
296 670 238 120 11 36
386 840 353 66 54 48
303 660 234 113 15 32
301 665 233 88 25 33
303 666 230 55 35 35
362 805 363 50 41 34
299 666 235 102 24 38
406 819 373 81 65 52
294 666 244 129 5 37
292 665 248 133 7 38
400 783 319 75 68 63
292 660 253 139 4 40
291 665 253 136 6 40
295 668 241 123 7 36
386 825 338 65 53 49
289 672 249 37 33 39
313 645 229 129 5 31
334 823 218 78 67 64
282 525 383 97 26 39
390 721 239 93 17 32
310 645 232 129 4 31
395 810 283 71 55 47
304 788 250 146 114 97
307 645 234 128 5 31
305 644 236 125 4 31
306 655 232 46 35 39
310 649 231 112 16 29
312 650 229 98 15 31
309 656 230 41 37 42
312 655 228 41 36 40
332 520 400 179 20 57
316 650 226 126 11 36
261 905 344 142 109 91
315 655 226 58 28 34
307 660 229 50 36 37
363 794 333 33 29 29
307 665 228 42 36 38
311 660 227 42 37 39
377 799 363 49 41 35
313 661 225 44 38 40
310 664 226 42 39 41
306 669 227 58 34 37
357 900 293 60 53 50
372 856 358 53 43 37
362 845 227 100 77 65
297 685 223 65 36 37
302 680 223 41 37 39
294 911 365 60 54 53
298 681 224 44 38 41
297 690 219 51 38 38
402 794 314 75 57 50
293 695 219 43 39 41
332 525 397 192 19 62
292 580 373 174 19 56
297 695 217 53 37 39
294 692 220 44 38 45
297 705 215 119 16 35
289 696 224 122 9 38
260 530 365 143 17 53
292 700 219 93 27 35
292 705 218 116 15 33
289 705 220 99 18 33
303 583 376 183 19 60
320 685 211 64 45 38
295 704 216 118 16 41
302 696 215 59 33 33
425 695 280 89 74 61
302 690 218 65 32 35
301 694 216 80 31 34
302 700 214 86 26 34
302 705 214 123 11 30
292 860 264 140 115 91
293 765 258 77 63 57
307 675 223 41 37 38
284 794 314 68 56 52
312 674 221 42 38 39
405 799 289 77 60 50
312 680 219 55 35 35
308 681 220 65 34 36
312 685 217 43 36 40
319 676 215 43 37 38
315 674 221 40 40 38
314 687 215 36 35 39
264 910 259 66 60 61
263 740 294 121 13 41
312 690 215 98 19 29
312 695 213 108 16 27
335 827 232 62 54 56
311 689 216 77 32 35
307 700 213 111 15 29
312 705 212 125 8 30
269 831 311 150 115 94
317 690 213 78 29 34
317 695 212 96 25 31
319 696 210 72 37 36
302 961 313 62 58 58
316 700 211 110 16 30
386 814 224 88 66 54
316 705 211 125 9 30
319 700 210 53 32 34
391 515 352 149 1 47
318 705 210 107 20 31
295 679 232 124 13 34
291 685 357 134 100 75
297 680 228 78 27 33
297 520 391 166 19 52
293 675 238 117 14 34
410 693 294 51 39 29
327 528 396 192 19 61
295 673 236 123 10 35
310 873 348 33 32 35
293 680 233 123 10 36
291 685 233 122 11 36
296 684 227 68 29 34
294 682 230 122 15 35
390 837 325 63 54 49
294 687 225 43 32 33
271 651 326 121 76 61
290 684 236 107 17 33
349 887 344 52 47 47
289 687 234 111 17 34
300 678 226 57 35 33
301 820 298 106 81 62
289 676 244 116 17 35
332 660 183 157 108 74
290 673 246 86 23 37
290 688 232 127 8 37
290 693 226 129 11 39
301 815 288 146 108 81
286 710 228 162 3 48
284 715 230 175 2 53
284 715 231 175 0 54
292 831 338 122 79 60
286 720 228 179 4 52
286 720 233 181 1 52
437 730 283 84 62 48
285 715 238 176 1 53
285 720 238 182 0 53
284 711 240 164 0 48
392 810 258 68 53 47
284 710 253 158 5 46
340 760 361 87 18 34
284 715 240 175 0 52
284 718 240 182 0 55
284 719 243 180 1 53
284 715 253 161 5 47
330 670 351 139 21 47
265 710 327 71 46 42
284 720 253 169 6 51
288 730 228 139 13 45
285 888 352 33 31 31
287 730 233 40 33 38
285 722 247 183 3 56
285 725 248 133 17 47
284 723 250 179 5 54
285 725 253 113 22 44
286 730 243 106 23 44
287 735 243 74 39 44
286 730 253 42 35 39
289 711 220 63 27 38
424 795 358 102 77 63
353 896 328 48 42 39
366 808 323 31 29 28
295 711 216 135 2 36
297 715 214 133 6 34
347 885 203 101 82 67
366 770 175 161 110 75
374 755 181 150 107 77
297 720 214 83 24 35
292 720 218 147 4 40
392 750 313 34 28 25
290 720 221 145 2 48
302 710 213 129 5 32
302 715 212 132 6 30
368 840 228 116 92 74
302 720 212 135 10 35
294 724 215 132 30 55
297 785 380 180 128 100
297 725 214 51 33 38
290 726 221 114 16 39
293 730 219 81 29 39
289 729 224 181 7 51
259 753 351 168 117 86
291 760 268 74 61 56
296 735 217 89 32 42
298 730 214 91 32 40
299 735 215 78 28 35
427 786 353 105 84 67
302 730 212 75 26 34
302 735 213 78 32 40
413 709 293 49 40 33
317 715 209 124 14 33
446 784 368 99 79 65
400 544 292 119 22 43
307 720 211 130 5 33
392 800 378 59 47 38
309 716 210 127 1 30
312 715 210 129 5 32
312 713 211 128 5 30
452 766 342 100 87 78
313 710 210 129 5 30
309 718 210 128 0 32
312 720 210 128 4 30
312 720 211 128 3 31
316 710 211 131 9 32
266 795 338 154 114 83
316 713 211 130 4 33
317 720 209 121 14 28
315 719 211 127 2 30
334 917 340 56 53 53
310 850 256 135 110 84
317 725 209 120 14 28
317 730 208 121 14 30
295 716 367 149 108 83
307 725 211 131 7 32
308 726 210 130 8 30
306 730 211 133 9 33
308 730 210 136 8 35
291 963 293 55 51 52
306 735 211 135 12 40
312 730 209 121 13 29
290 732 226 186 6 56
290 735 228 187 7 55
333 891 242 71 63 63
293 896 238 64 60 60
278 650 293 105 25 41
288 735 253 76 62 56
295 741 221 87 34 45
302 740 213 57 34 38
338 795 355 61 48 40
373 560 349 181 7 57
302 746 218 97 60 58
304 748 219 83 66 60
384 575 313 80 28 36
302 749 223 85 68 61
319 737 205 114 27 30
317 910 243 76 69 68
318 738 205 116 26 33
305 740 211 106 18 36
302 840 262 133 108 82
261 715 288 63 31 39
308 740 209 135 9 35
306 746 212 88 52 52
382 870 192 91 82 75
308 750 214 76 62 58
313 749 210 66 53 50
366 803 374 54 43 36
311 751 212 71 57 53
417 800 348 82 64 54
305 747 216 79 63 61
306 750 218 78 64 59
273 824 362 194 133 110
305 751 222 82 66 60
317 750 209 68 54 47
318 765 209 142 102 67
309 753 215 74 62 58
312 755 214 61 52 50
306 755 223 83 68 61
332 914 353 67 60 59
282 890 348 64 54 48
308 760 223 82 67 59
310 756 216 73 61 58
334 884 219 79 67 60
309 760 218 73 62 56
415 788 294 85 65 58
347 710 349 116 19 41
309 763 220 74 62 54
396 540 333 39 30 33
310 765 218 70 59 54
310 766 222 78 64 56
316 752 211 45 39 39
343 886 248 72 65 67
316 760 211 70 53 41
318 755 210 113 85 58
290 737 231 184 4 54
271 689 319 111 2 36
290 741 233 147 22 50
293 744 228 97 46 52
390 748 310 33 27 24
292 745 233 80 59 57
292 744 238 77 62 58
296 746 228 80 66 61
295 747 232 78 63 58
299 748 225 88 67 62
276 665 308 143 1 39
298 749 229 83 67 62
298 750 233 79 65 60
296 750 238 77 64 59
302 874 363 32 30 30
289 739 243 80 62 56
289 738 248 81 63 58
331 895 244 68 60 60
290 741 243 79 63 57
291 740 248 80 64 57
292 745 243 78 63 57
295 747 241 78 64 58
292 750 248 76 63 58
292 750 253 75 62 56
292 890 374 53 47 45
301 755 232 82 67 62
302 760 233 81 67 63
304 759 230 83 68 63
299 754 234 80 66 61
272 680 288 119 21 41
297 755 238 79 65 61
298 760 238 79 66 61
303 765 233 80 67 62
294 754 244 77 64 59
272 850 323 132 106 100
296 760 243 76 63 58
294 759 249 75 62 57
295 761 248 76 63 57
295 762 252 77 63 59
297 765 248 76 63 57
272 899 358 35 33 34
306 760 227 85 69 61
306 765 228 86 69 62
324 808 204 197 146 116
436 767 366 79 61 47
304 763 230 83 67 62
275 626 302 66 38 45
327 645 182 166 113 79
259 680 330 123 89 59
324 645 185 178 121 89
323 645 188 187 130 101
327 650 183 171 118 84
325 651 187 178 128 100
326 655 188 171 123 93
336 645 184 129 97 58
358 810 368 49 40 34
332 650 183 152 106 71
332 655 183 154 106 72
336 655 184 142 101 68
327 660 188 167 117 85
325 660 193 169 122 96
326 665 193 158 113 85
327 670 193 151 108 76
336 934 274 77 69 70
337 660 184 146 100 66
337 665 183 148 103 64
329 664 185 158 108 74
332 670 184 152 103 70
337 670 183 143 100 62
330 667 186 154 106 72
338 645 187 117 89 55
342 650 189 112 84 50
344 649 191 116 86 53
339 658 186 138 97 61
342 660 188 128 94 56
340 661 185 137 96 60
341 665 184 136 96 58
342 670 184 130 93 56
346 661 190 115 87 53
347 665 188 113 86 52
347 670 187 115 88 54
275 827 353 182 119 95
351 670 189 116 89 56
267 942 339 56 52 51
327 675 193 146 104 70
337 680 183 130 93 54
319 932 261 83 75 78
329 675 189 143 101 66
333 675 185 142 98 64
330 675 187 143 100 65
278 959 303 65 60 62
382 675 283 80 24 32
331 680 187 138 98 63
329 680 189 139 100 63
337 675 183 135 95 58
332 685 184 135 97 59
337 685 182 128 93 53
327 860 318 42 36 32
330 684 186 138 98 61
325 690 191 142 100 67
368 525 374 93 27 43
388 545 220 100 18 37
328 705 188 142 100 64
290 760 271 73 60 54
326 705 192 147 102 69
332 690 184 136 97 58
337 690 182 130 94 53
332 695 183 137 97 58
340 756 361 123 12 42
330 690 186 139 99 61
418 787 369 97 80 69
329 695 185 138 98 59
292 830 288 76 64 52
332 705 183 136 95 56
332 700 184 138 97 58
336 700 181 133 95 54
330 700 186 139 100 62
399 754 238 56 42 40
329 703 185 138 99 57
342 675 184 123 90 52
342 680 183 121 90 51
331 865 328 38 36 35
342 685 182 122 89 50
345 672 185 119 89 54
345 675 185 117 89 53
347 675 187 114 87 52
364 630 314 94 28 42
347 680 184 117 88 52
263 675 361 141 101 74
352 675 189 116 88 54
404 786 246 92 72 57
339 517 400 189 11 61
352 680 187 118 90 55
351 685 185 121 91 54
348 861 369 62 53 50
342 695 181 124 90 51
338 705 180 130 93 52
342 700 180 126 91 51
404 536 283 164 21 49
342 705 180 125 92 51
293 810 303 54 48 49
347 690 182 122 91 51
347 695 182 122 90 52
352 695 184 124 92 53
394 784 316 50 44 40
346 701 180 121 89 51
352 700 182 120 90 55
351 706 180 115 88 54
384 842 347 60 50 46
357 675 193 119 91 59
358 680 192 118 91 59
327 840 248 137 108 81
357 685 189 118 90 56
359 684 191 117 91 60
388 560 333 138 22 48
263 605 303 124 27 42
361 685 193 113 89 61
390 583 274 182 13 55
354 688 186 122 92 56
355 691 185 121 92 56
358 700 186 114 89 56
360 690 190 114 89 62
361 695 189 112 88 59
364 694 192 110 89 63
391 810 263 67 54 48
362 700 188 115 90 60
363 705 187 116 91 61
366 696 194 115 92 66
275 615 283 45 33 36
364 698 191 113 90 64
324 650 203 163 123 103
324 655 203 160 120 100
324 649 206 157 120 100
325 650 208 152 114 94
325 654 205 156 118 97
325 654 208 147 113 93
325 642 210 171 121 105
325 646 209 168 119 103
324 646 220 52 44 42
382 605 273 146 20 46
325 643 221 52 46 46
326 650 213 128 91 73
325 655 213 105 79 64
324 650 220 52 43 41
321 655 221 116 19 34
325 657 196 172 127 104
325 665 198 160 119 92
324 660 208 138 104 83
325 661 201 160 121 101
324 665 203 149 113 88
325 663 201 158 120 98
265 914 256 62 57 58
324 666 200 156 119 91
327 745 188 147 110 74
324 670 200 153 114 88
320 660 221 110 25 38
321 665 218 60 39 39
320 664 221 61 35 36
289 563 376 173 20 54
325 658 216 70 56 52
321 670 213 74 52 48
320 669 217 42 36 39
352 650 194 130 96 61
352 655 194 120 92 58
325 675 197 150 109 78
342 780 172 136 98 57
324 675 199 149 109 81
273 580 367 86 26 38
321 675 208 107 80 61
317 555 384 197 11 64
321 680 208 95 70 56
280 653 320 127 0 45
322 685 198 142 103 74
324 685 194 145 104 71
360 866 220 86 72 62
394 546 267 81 25 35
324 682 195 146 104 72
320 674 216 43 35 33
262 645 357 153 110 83
322 690 198 141 102 73
264 846 289 140 115 89
322 695 198 142 100 72
391 545 218 145 18 45
321 690 203 133 95 70
320 690 208 81 59 48
349 917 291 49 41 38
320 695 207 84 59 45
347 845 318 38 34 32
322 700 198 146 101 73
324 705 194 148 104 71
321 705 203 137 89 67
320 705 207 88 44 39
264 716 371 152 107 81
320 688 211 54 44 42
325 860 358 32 29 29
355 643 195 143 106 76
354 649 196 134 99 68
356 650 198 129 97 66
281 790 318 67 55 51
355 655 195 122 94 61
358 650 203 149 107 77
359 650 208 157 108 81
383 570 303 183 16 55
392 535 213 173 19 46
358 645 213 166 118 88
393 535 218 153 18 47
356 645 218 146 105 84
315 958 312 59 56 58
356 690 338 51 29 30
358 645 223 62 35 35
358 650 213 154 108 81
272 940 268 74 68 70
359 655 213 148 109 80
265 725 323 149 10 46
356 650 218 139 103 79
360 654 212 147 105 74
361 655 224 109 29 40
357 660 198 123 93 62
308 775 375 163 114 83
356 665 194 118 91 58
358 665 198 126 95 64
302 844 323 74 56 44
359 664 202 137 103 70
360 657 208 145 103 70
360 665 203 138 104 71
360 670 199 128 98 66
361 670 208 130 99 68
359 665 215 134 101 74
359 665 218 114 78 62
359 669 217 114 79 61
360 665 212 132 99 71
370 791 327 28 25 25
407 675 279 84 62 42
361 660 224 93 20 32
259 784 352 176 126 96
386 545 221 93 22 36
