ply
format ascii 1.0
comment Created by Open3D
element vertex 2226
property double x
property double y
property double z
property uchar red
property uchar green
property uchar blue
end_header
343 894 210 86 73 70
323 55 209 86 64 46
258 710 303 119 85 62
256 436 317 119 22 42
402 443 201 30 25 26
225 460 264 108 9 31
225 455 274 95 21 30
221 461 279 36 29 31
392 758 232 82 52 50
345 487 308 84 54 42
220 465 279 49 29 31
358 400 205 116 100 83
222 460 284 75 25 35
418 480 209 87 27 38
221 465 284 42 30 33
296 426 185 85 75 65
248 590 309 178 16 55
222 465 290 58 31 34
216 480 269 114 18 39
383 867 287 45 40 36
334 760 170 37 34 40
362 250 216 126 97 63
269 800 233 84 66 57
350 140 245 118 94 67
221 467 264 123 9 37
232 591 243 59 30 37
297 448 162 62 39 40
251 600 308 157 16 46
261 568 161 159 18 50
359 825 144 81 60 52
218 475 259 124 5 33
297 207 312 113 93 71
367 495 166 143 4 33
358 628 181 70 29 38
217 478 258 123 5 34
216 477 260 124 5 34
342 521 275 112 71 65
329 300 330 128 99 70
219 470 274 118 12 36
419 420 194 55 30 24
221 470 288 63 30 34
217 475 274 83 26 35
357 315 263 118 85 55
220 475 284 64 27 32
221 475 289 56 28 34
359 215 214 117 94 68
264 25 274 118 94 73
224 460 294 71 23 31
271 397 317 118 95 72
253 640 254 182 1 50
285 755 330 172 121 91
366 409 256 125 93 69
268 645 294 101 17 40
223 470 294 32 28 29
329 505 314 117 87 75
293 895 177 93 79 77
225 470 299 125 6 39
280 500 149 90 22 24
274 185 310 117 96 74
325 145 234 98 79 59
334 609 166 97 34 42
221 481 292 111 19 43
346 910 249 51 44 44
348 75 239 116 46 50
310 831 179 47 42 40
295 400 238 73 63 52
340 91 193 154 27 47
334 865 159 100 79 67
222 480 294 115 11 39
338 929 303 54 47 44
280 396 255 95 81 67
294 426 189 86 75 64
314 300 229 113 92 71
213 490 259 133 4 37
319 190 234 102 83 62
364 460 161 78 33 35
212 495 259 137 1 37
274 165 306 112 92 71
321 79 252 99 32 40
341 221 257 101 81 59
349 470 134 54 30 33
215 490 269 60 26 32
215 490 274 85 26 37
241 931 260 52 50 51
274 406 249 93 81 68
274 160 304 112 92 72
211 543 240 199 0 53
247 919 252 54 51 53
289 205 269 120 92 58
349 205 255 115 93 68
215 495 274 62 24 31
322 450 147 83 37 38
349 265 210 112 87 56
347 903 311 41 37 36
344 545 264 133 18 43
217 483 276 98 35 45
354 215 209 123 98 67
217 485 279 42 29 32
216 486 277 75 33 41
389 870 264 105 81 68
368 577 247 113 14 37
396 452 157 69 32 31
220 485 289 53 28 32
389 625 190 110 91 69
221 505 293 60 29 32
217 490 280 37 30 31
219 495 289 34 28 30
340 360 299 116 85 60
324 55 262 116 26 45
211 505 259 144 0 40
288 12 281 108 62 45
396 476 162 153 10 26
237 597 224 187 1 50
325 690 181 64 29 33
232 449 264 95 16 30
376 871 239 75 67 67
212 498 256 133 0 37
394 520 170 162 15 36
285 180 273 115 91 62
212 500 259 138 1 38
364 235 234 119 95 66
212 500 264 142 0 40
260 655 324 158 112 85
320 100 219 89 54 39
213 500 269 102 14 35
213 505 269 112 13 37
269 600 184 187 11 48
338 362 201 93 83 74
390 705 254 132 8 42
257 210 283 133 99 65
394 825 244 49 39 32
339 105 250 119 94 66
300 200 284 106 87 67
213 510 269 133 10 37
314 892 179 92 83 78
351 79 230 102 37 40
307 371 251 71 63 57
350 175 251 116 94 69
214 500 274 32 29 31
381 747 134 62 54 46
371 620 240 48 26 32
332 288 266 88 73 58
353 809 121 97 73 55
214 505 274 63 25 33
279 945 328 78 76 78
282 70 271 120 36 44
350 110 234 118 95 69
334 894 301 46 40 37
214 510 274 131 11 41
289 976 269 50 47 48
352 60 223 119 21 40
423 460 180 113 23 38
332 486 128 103 14 28
279 190 312 118 97 76
338 145 211 124 96 60
215 510 279 48 27 34
349 110 239 117 94 69
395 720 249 73 29 37
219 500 289 77 28 37
257 215 294 130 101 70
227 453 273 109 17 33
217 505 284 37 28 32
293 422 342 35 29 26
219 505 289 45 27 32
254 960 299 72 64 61
324 866 144 142 113 106
217 510 285 35 28 30
324 280 324 104 85 63
325 115 229 110 86 58
339 275 211 104 82 57
319 85 244 99 31 39
309 710 184 127 12 32
222 490 296 47 26 29
372 863 216 77 64 62
364 595 258 65 18 25
326 170 242 92 76 60
263 640 229 48 38 40
297 454 157 46 38 39
221 495 293 88 28 39
324 315 215 101 85 66
339 230 257 100 80 57
224 495 299 54 29 32
214 540 269 83 18 34
221 500 293 111 25 41
254 455 320 47 28 29
248 595 304 173 17 55
399 655 179 99 81 61
344 310 214 99 83 65
263 13 311 56 43 37
282 484 157 81 29 27
330 427 105 95 58 47
251 953 313 56 53 54
299 560 145 52 36 40
316 285 226 123 98 70
222 500 295 82 25 35
225 575 239 75 34 40
312 246 317 117 94 68
259 155 268 132 100 64
416 477 177 112 13 29
261 490 327 139 15 43
224 500 299 53 29 32
221 510 294 63 27 32
228 454 264 102 14 30
260 16 312 72 44 31
305 811 296 77 60 52
342 407 186 99 85 70
344 490 113 168 0 35
339 830 254 140 110 90
230 451 264 97 17 30
229 455 259 95 13 28
345 645 280 109 24 42
259 15 309 60 47 37
294 850 229 138 100 77
226 456 265 107 10 31
389 620 193 109 89 67
225 456 269 110 11 31
231 594 250 129 23 47
331 947 247 85 76 76
396 710 244 109 24 42
334 60 189 105 34 23
279 360 314 124 97 70
299 937 331 63 58 57
288 720 198 138 10 39
339 60 190 91 40 19
232 448 267 95 18 35
225 450 289 126 5 36
220 545 202 123 17 41
227 448 287 120 5 38
330 195 210 118 95 67
257 675 324 150 108 80
324 520 319 159 128 108
274 530 140 60 33 37
225 455 294 113 6 35
240 614 259 129 22 47
280 715 205 97 26 40
226 450 298 125 1 37
227 450 300 127 2 38
324 400 325 158 113 88
319 265 319 117 94 68
361 626 271 180 33 65
228 450 304 141 4 42
376 665 195 75 58 48
372 407 219 98 82 65
352 230 206 129 99 61
226 455 299 127 1 38
338 799 273 168 116 94
264 720 339 154 109 82
334 185 211 127 99 63
309 300 331 134 104 70
261 494 152 87 27 28
289 840 279 92 66 52
345 349 207 95 84 74
228 455 304 145 2 42
309 340 331 134 102 74
388 634 187 105 87 67
226 460 299 130 4 39
266 968 282 68 63 62
364 756 154 58 52 48
376 424 208 76 54 48
394 585 234 171 125 95
227 460 301 137 0 40
396 598 207 109 91 73
289 574 155 177 15 47
357 325 221 100 84 67
228 460 304 144 2 43
306 858 300 127 102 75
362 300 234 121 95 63
324 290 328 121 95 66
225 465 299 127 9 40
362 345 239 127 100 68
361 224 218 117 95 69
230 455 307 158 4 49
353 170 215 113 92 70
286 168 277 104 86 67
319 255 244 110 86 61
362 225 239 120 96 67
255 819 250 83 66 57
292 833 293 51 40 38
321 816 145 57 49 45
230 460 307 118 14 41
344 405 189 100 86 72
361 540 148 35 32 35
234 455 309 134 9 43
346 435 119 108 19 35
394 525 170 162 16 36
239 455 311 64 28 33
234 460 309 80 22 35
266 838 251 45 42 49
264 600 189 157 21 47
234 465 309 66 29 34
344 499 116 81 29 40
284 320 304 132 96 72
238 460 311 56 28 30
423 455 217 59 28 33
314 260 224 133 104 70
327 442 126 70 30 32
350 75 199 142 28 48
265 449 177 52 39 39
240 460 312 85 30 37
352 55 223 119 27 39
268 675 295 111 19 40
347 100 209 119 37 43
228 470 305 147 0 44
274 478 167 99 19 26
259 135 265 131 98 61
276 356 303 115 92 66
361 219 222 122 98 72
269 925 326 175 135 113
226 475 302 145 0 42
226 480 302 141 0 41
260 28 312 133 18 49
364 420 168 98 28 30
228 480 305 145 1 43
207 527 223 131 24 45
321 206 216 119 95 67
359 730 176 68 34 34
231 470 307 135 5 40
283 95 284 110 63 53
354 905 284 78 69 68
231 480 307 147 7 44
319 470 147 73 31 34
325 135 224 110 88 63
412 760 204 154 105 75
234 470 309 110 19 39
240 470 313 68 25 32
424 824 219 111 81 65
285 790 214 82 65 56
259 130 264 130 96 60
317 40 254 107 33 39
329 390 269 89 79 75
241 804 285 172 122 89
260 720 337 154 108 81
234 475 309 108 12 38
234 480 309 126 12 41
354 844 249 32 27 26
320 180 229 104 84 62
246 885 302 172 122 106
288 835 227 91 76 68
237 478 311 144 5 42
279 255 272 131 99 62
321 84 216 127 18 37
288 296 320 141 103 81
239 475 313 104 20 39
279 904 326 123 101 87
239 480 313 138 12 43
360 806 128 102 76 58
287 43 292 129 21 53
414 430 164 152 12 40
330 32 197 115 34 21
243 449 311 38 25 29
241 452 312 50 19 27
346 42 256 135 97 82
362 275 248 132 100 66
318 260 218 131 102 68
241 455 312 70 24 30
269 75 295 119 37 47
249 450 315 49 28 29
231 523 161 56 33 34
387 768 238 84 68 60
374 440 152 83 24 34
320 775 300 92 71 61
244 460 314 83 22 33
320 860 286 141 112 85
352 17 268 92 51 43
244 465 315 84 22 33
347 916 253 46 41 41
329 16 274 154 99 106
249 460 318 99 17 33
246 466 317 91 25 34
380 857 209 79 62 56
249 465 319 102 20 37
279 939 221 87 80 81
251 451 317 37 30 28
354 235 208 130 99 61
254 870 274 132 107 82
275 624 200 83 25 38
353 505 124 146 3 36
315 255 239 124 97 70
319 290 328 121 95 64
352 36 236 103 29 29
290 360 323 124 97 70
250 455 318 78 30 36
269 730 339 169 117 91
285 480 155 72 34 32
252 448 316 30 30 30
264 105 294 115 57 55
370 436 273 150 17 47
254 450 319 33 29 30
253 460 320 99 20 37
321 926 222 68 62 63
243 475 316 141 9 46
338 43 262 117 10 41
374 751 149 61 54 47
383 530 244 138 113 86
259 95 258 105 64 45
399 440 155 102 28 37
248 885 304 171 124 108
294 650 334 163 114 82
251 872 276 134 109 84
275 42 301 131 20 48
249 475 320 141 13 44
432 444 186 167 17 42
262 434 321 53 28 31
375 418 289 47 35 28
326 140 237 98 80 60
359 846 140 89 73 65
249 480 320 149 13 46
399 425 169 52 24 26
312 614 302 57 30 36
226 490 302 87 25 36
349 815 129 88 68 50
313 430 153 133 7 30
226 495 302 43 29 32
314 571 147 149 18 42
228 495 305 48 30 31
327 230 251 96 77 56
404 840 263 67 52 39
339 370 199 92 82 72
231 485 307 102 19 36
334 31 270 132 33 54
358 180 234 118 97 75
398 833 179 117 81 66
365 370 229 113 92 69
334 315 213 93 79 65
345 325 325 146 98 79
304 695 314 46 24 29
231 490 307 62 27 32
346 87 197 154 21 49
231 495 307 104 23 40
264 150 299 110 90 70
234 495 310 107 23 41
269 871 318 127 48 59
381 704 266 134 8 41
374 752 153 69 61 54
300 350 328 132 101 72
249 785 333 167 119 90
239 490 313 94 26 38
329 730 174 62 35 35
266 205 307 116 95 71
344 180 209 125 98 63
239 495 314 74 24 35
268 735 218 101 19 36
236 496 312 33 28 31
401 516 211 181 12 58
341 563 141 46 38 40
339 80 253 113 34 47
298 738 322 130 47 49
284 485 154 79 30 28
228 500 305 65 26 31
302 468 147 56 34 33
226 510 302 47 30 31
285 720 200 124 11 38
303 415 193 92 80 69
347 372 201 94 84 74
256 36 271 114 98 81
336 508 121 53 38 39
229 510 304 59 30 34
246 895 275 153 115 93
375 892 288 108 92 86
339 425 124 93 49 49
373 846 164 80 62 56
230 500 308 124 22 44
329 491 298 51 20 24
252 705 269 131 13 42
296 386 332 135 102 76
299 709 316 60 25 29
333 34 227 110 75 57
322 200 241 95 78 61
361 509 157 103 14 35
362 315 244 130 99 65
231 510 307 41 29 29
234 500 310 91 22 38
234 505 310 55 28 31
357 850 169 73 62 60
360 345 254 122 92 58
359 610 170 123 30 43
236 500 312 37 30 32
239 500 314 42 29 31
336 816 121 75 57 44
348 85 199 154 27 52
408 485 170 155 17 40
237 581 296 165 10 49
389 464 156 61 32 40
239 505 314 83 23 38
323 220 213 125 97 64
234 510 309 99 25 39
431 456 204 89 27 39
345 115 218 110 86 58
358 842 226 28 27 27
325 530 289 91 56 52
305 386 205 96 83 71
239 595 214 202 5 55
407 518 185 59 31 32
349 599 161 152 19 46
322 12 297 134 52 57
360 875 214 71 60 59
326 57 196 94 37 21
304 500 325 164 16 51
237 510 311 156 16 50
287 360 321 123 97 70
404 753 95 83 62 45
239 510 313 159 11 48
324 440 139 78 31 34
352 86 232 112 23 37
245 485 318 135 13 41
277 749 337 171 117 84
221 520 293 97 20 37
249 485 320 152 13 48
380 515 259 165 128 103
327 200 212 117 94 68
264 195 304 116 94 70
242 490 316 132 13 41
306 866 179 49 45 46
243 591 203 202 11 52
245 490 318 146 14 47
244 495 318 155 14 48
379 746 166 84 74 65
319 205 219 120 96 69
249 490 320 154 14 48
316 59 252 106 65 51
352 17 259 102 50 46
242 505 316 147 18 50
367 448 284 119 24 43
294 445 169 84 36 24
249 500 320 149 15 48
292 700 328 173 116 89
399 680 176 112 87 59
249 505 320 118 22 43
398 870 274 118 99 103
245 510 318 104 23 41
319 185 229 107 87 64
312 954 317 75 64 58
310 620 324 165 113 85
249 510 320 42 27 31
392 440 223 102 19 35
301 867 206 44 43 44
392 749 239 57 31 35
254 530 144 140 2 29
332 210 251 94 76 56
362 350 234 122 98 71
307 459 327 139 24 51
299 949 231 95 89 92
270 101 262 115 73 52
256 401 279 100 82 63
256 460 322 119 18 45
251 907 254 51 48 49
255 465 322 95 20 34
254 470 323 95 23 38
328 585 293 154 17 49
251 480 322 155 15 48
397 427 186 61 24 29
338 869 165 86 72 67
362 225 220 118 96 70
359 787 107 101 76 57
354 625 279 68 27 32
254 475 323 68 23 34
328 125 239 100 79 57
369 416 293 55 32 27
254 480 323 152 16 49
281 925 190 96 88 85
251 490 322 157 14 49
275 385 265 96 84 71
254 495 323 144 16 46
346 444 152 104 22 26
251 505 322 83 21 32
221 538 210 135 10 41
251 925 317 175 134 116
250 550 314 124 18 44
350 610 270 29 27 27
316 365 267 84 68 51
254 500 324 66 23 31
407 815 224 81 61 50
388 565 204 87 35 43
251 510 322 32 27 31
320 60 209 88 32 26
319 65 204 109 27 37
318 65 209 110 28 40
362 231 247 126 100 72
369 831 140 90 72 61
318 55 224 85 38 31
345 18 242 103 86 72
342 69 252 122 14 44
411 748 141 75 56 37
206 530 244 63 27 32
344 215 206 122 96 63
324 455 145 87 29 36
268 564 327 140 24 50
274 130 270 119 91 59
260 16 289 82 64 58
320 50 224 86 37 30
262 456 171 41 37 40
352 226 257 119 95 68
314 825 169 45 41 40
320 56 214 71 40 28
300 460 150 71 34 34
264 40 305 124 53 59
335 47 211 113 88 56
318 60 214 92 33 35
312 494 308 87 22 37
300 696 191 37 34 39
317 65 214 100 55 47
329 320 274 75 59 43
298 790 199 82 65 57
317 60 219 94 31 33
354 705 289 112 23 42
316 56 225 82 38 35
316 60 224 104 32 38
331 98 252 117 93 69
338 120 211 129 94 57
271 268 286 145 100 76
249 730 254 116 21 42
336 802 271 165 111 89
364 538 262 162 101 75
377 671 238 144 8 44
300 655 195 39 33 40
301 430 165 92 32 27
317 58 222 98 35 36
334 160 211 125 97 60
336 590 286 158 6 49
317 65 219 94 54 44
316 61 221 104 23 32
364 843 159 72 60 53
321 295 221 111 89 63
316 64 224 109 22 37
320 46 229 76 34 29
315 46 239 79 40 37
354 680 185 66 32 32
369 605 179 141 16 41
299 410 332 142 108 79
242 801 278 153 106 77
357 774 103 77 60 47
347 56 205 100 56 27
353 417 185 103 87 71
374 423 175 70 24 28
320 41 235 81 36 30
391 563 233 135 105 73
279 375 318 124 97 70
389 695 244 128 13 41
318 425 144 129 32 33
317 43 239 89 34 33
242 925 306 181 136 117
268 495 331 159 19 51
392 854 204 90 71 63
374 763 99 80 63 52
384 545 172 67 29 37
319 40 244 86 44 36
399 740 119 68 53 40
316 45 244 87 51 42
302 903 182 90 84 80
350 310 270 126 89 63
317 43 244 94 48 43
340 176 252 100 82 61
355 190 250 122 98 73
412 424 189 61 21 26
293 190 308 111 91 69
251 730 249 137 14 44
279 910 328 151 126 105
390 822 163 105 74 57
349 531 270 144 95 79
295 695 195 105 22 31
349 240 206 130 99 60
317 43 249 94 31 31
316 45 249 106 32 34
349 225 206 126 97 60
334 130 211 132 99 60
307 378 242 79 64 49
317 43 254 107 56 45
323 71 256 106 29 44
244 570 184 129 19 41
303 880 169 62 55 56
318 50 229 90 31 36
278 140 275 115 92 64
316 51 230 96 30 35
247 725 274 118 16 41
348 55 209 96 58 37
315 60 229 98 31 35
274 170 307 113 93 72
263 385 289 113 90 64
316 65 229 105 56 52
339 70 255 114 23 43
351 50 224 94 45 39
245 604 215 196 13 58
314 60 239 105 54 47
326 444 110 116 22 39
339 235 206 127 97 59
314 65 234 106 38 38
315 50 244 102 33 37
280 70 269 118 39 41
316 50 254 107 42 44
384 465 255 66 30 34
344 245 260 108 85 59
316 55 254 101 48 45
287 301 287 106 82 56
344 110 214 106 76 54
350 407 282 52 39 30
364 735 278 144 17 45
297 408 207 100 87 74
281 115 279 109 86 60
317 56 255 108 71 57
264 424 244 74 64 54
362 366 221 115 93 68
263 801 238 84 65 55
409 505 204 46 28 33
320 70 254 100 26 38
315 60 249 108 31 36
318 60 254 109 79 61
328 115 219 107 82 54
319 417 166 96 82 69
317 65 251 99 44 41
384 540 249 158 119 90
319 65 254 101 75 57
349 135 244 118 94 67
324 422 144 106 70 55
407 826 238 83 63 50
349 210 256 114 92 67
399 825 244 54 43 34
256 78 252 110 32 29
365 471 289 90 34 39
259 80 253 125 36 35
243 601 214 140 21 49
369 730 276 97 19 36
368 753 139 52 45 40
345 310 324 116 91 62
338 114 209 123 88 58
307 640 327 166 117 91
364 465 259 45 24 26
285 193 311 116 96 74
333 28 232 108 74 60
286 159 283 104 85 64
257 84 250 126 31 33
259 85 254 117 72 58
257 94 256 123 47 43
322 818 142 61 53 51
293 215 271 120 92 58
258 115 256 125 24 34
319 70 209 117 21 40
294 971 254 89 86 88
350 125 239 114 92 68
374 430 194 71 36 38
370 795 245 71 57 49
320 75 204 130 8 40
338 449 298 126 11 40
319 75 209 122 15 40
326 874 286 145 115 93
311 855 170 52 47 46
374 660 198 67 44 44
321 182 221 116 93 66
384 655 217 74 22 26
301 456 151 66 36 38
354 385 204 108 92 75
318 70 214 108 49 47
356 852 168 75 65 62
377 728 177 80 70 61
356 168 241 119 97 72
317 66 224 115 26 43
350 115 229 118 96 73
318 70 219 114 30 41
318 70 224 124 22 42
320 75 214 123 53 56
406 821 174 112 78 60
312 943 226 87 82 83
314 459 147 64 34 37
339 596 158 185 9 41
217 535 187 115 4 34
320 75 219 115 76 68
352 235 206 130 100 62
335 385 289 96 71 47
289 195 311 112 92 72
318 75 224 115 25 39
222 570 249 90 28 38
322 96 217 116 51 49
349 115 239 117 95 71
291 492 326 67 9 24
369 485 289 144 92 85
256 765 240 80 42 46
245 880 279 152 117 91
302 910 317 132 101 77
318 80 224 119 20 38
267 486 161 38 32 37
329 360 329 152 104 79
320 80 219 119 26 40
267 154 301 111 91 70
318 85 224 93 39 37
347 95 205 143 32 50
320 95 219 111 50 47
316 70 230 109 90 72
365 837 243 36 31 28
331 113 201 166 27 51
260 725 229 156 7 45
317 67 227 107 61 51
317 70 227 108 70 57
352 422 175 102 62 46
329 475 139 44 32 35
361 210 224 123 100 73
299 355 328 128 98 70
211 528 216 176 3 40
334 435 97 69 40 39
309 495 143 103 22 31
247 586 310 151 20 52
315 70 234 110 65 54
345 540 260 68 25 32
347 390 196 102 89 76
293 410 235 89 76 62
315 70 239 114 34 41
259 50 300 126 88 74
269 465 329 125 15 41
321 180 224 112 90 65
317 80 229 111 46 47
391 562 182 111 43 46
350 85 204 148 30 52
353 460 155 61 34 34
241 750 323 168 116 92
316 75 234 109 85 67
317 77 232 109 91 71
304 590 160 48 37 41
274 285 304 149 103 79
357 682 277 80 19 31
326 255 211 131 101 65
361 451 272 108 17 42
362 350 230 122 99 72
317 80 239 111 23 38
390 560 234 134 105 75
362 448 292 45 27 30
317 70 250 99 23 39
318 847 282 140 112 84
316 73 247 101 85 67
319 460 324 85 25 37
406 521 194 67 32 37
384 540 172 91 24 37
372 411 215 103 85 68
344 501 117 37 37 44
265 80 258 134 29 40
317 85 229 109 21 37
399 645 223 166 114 84
326 106 206 132 22 44
318 85 239 97 33 38
326 439 104 63 34 37
317 90 229 103 23 33
266 493 157 95 26 28
299 552 142 99 35 47
334 48 209 113 85 54
354 730 174 71 34 30
282 364 277 94 80 66
317 90 234 98 64 51
319 29 273 129 46 57
279 380 319 123 98 70
297 665 197 128 9 33
369 765 109 58 49 44
318 90 239 95 71 53
319 315 219 103 86 68
317 95 234 106 50 46
396 626 226 166 113 86
342 84 191 156 25 47
409 650 199 148 105 74
312 439 332 48 23 27
256 770 337 164 116 87
322 280 256 98 81 64
318 95 239 101 63 55
388 541 244 136 108 77
320 85 248 103 81 63
384 833 254 47 39 33
320 104 224 119 39 44
327 29 239 69 40 30
361 251 251 130 102 70
399 851 273 74 60 51
341 354 276 106 68 51
343 794 273 115 91 77
318 100 229 108 24 35
346 781 120 61 51 43
379 535 173 93 20 32
344 171 252 108 88 65
276 377 271 99 85 71
340 840 249 63 49 38
332 471 113 131 7 38
320 104 229 123 67 56
290 715 195 140 3 37
319 100 234 114 36 43
274 562 152 110 27 41
317 968 266 85 81 85
344 169 251 108 87 64
241 760 323 176 121 96
349 20 244 108 70 62
320 99 243 112 51 48
300 209 310 111 91 69
331 52 191 123 29 18
400 766 134 72 56 45
279 435 334 90 17 33
331 56 191 120 33 20
316 245 220 130 102 67
379 416 159 111 24 26
274 110 264 131 47 49
379 849 174 88 72 64
340 365 274 109 67 53
333 52 191 120 34 17
332 684 182 109 21 27
334 55 191 117 34 18
334 65 188 99 40 24
402 795 159 87 64 52
337 56 191 107 32 23
370 400 224 110 90 67
362 788 257 85 67 57
339 65 188 100 41 30
399 780 164 91 65 49
245 740 274 129 12 41
343 65 190 101 42 27
348 95 209 133 31 46
380 756 114 58 48 43
330 30 194 115 34 21
305 465 146 51 36 38
343 55 253 112 65 56
337 334 286 95 68 51
417 490 184 94 31 42
264 895 320 158 115 100
283 180 270 116 91 59
332 31 194 115 34 21
343 420 145 99 29 29
329 30 234 85 71 60
331 21 240 86 73 59
294 419 334 93 74 54
329 401 186 95 84 73
334 426 109 96 69 57
265 670 333 151 103 81
329 25 239 82 68 54
354 411 289 56 41 33
357 220 252 125 100 72
322 431 138 71 36 34
360 756 271 86 66 54
205 516 238 52 25 29
220 530 289 128 11 41
339 630 288 51 27 30
264 550 325 63 23 30
373 696 191 44 35 35
334 16 240 94 77 62
334 21 236 108 71 54
282 426 336 131 26 43
276 824 236 85 66 57
326 427 110 111 41 44
324 895 303 133 101 80
280 406 240 94 81 67
334 25 233 108 70 55
394 430 260 155 21 52
327 23 248 85 54 36
323 39 234 75 36 29
324 385 274 86 73 64
325 25 249 89 41 34
326 27 245 82 36 28
376 650 235 152 21 48
281 143 296 110 88 64
259 480 325 132 15 44
322 29 253 91 34 28
316 240 238 115 90 64
334 426 114 98 65 55
327 769 298 92 70 60
408 780 179 150 106 74
278 171 307 115 95 74
330 20 244 85 71 58
332 18 244 89 74 60
269 946 233 75 68 69
352 66 209 119 41 45
306 441 336 99 27 42
316 386 331 150 106 79
419 820 204 103 77 62
335 17 249 90 75 62
329 460 139 72 29 35
251 705 315 146 111 80
259 125 263 133 97 63
339 16 249 95 78 65
406 665 182 148 105 77
344 16 244 100 82 68
361 385 213 113 93 71
294 415 332 125 98 73
338 17 241 94 79 65
338 501 117 62 33 37
339 20 239 97 84 70
341 24 237 105 90 75
359 830 150 83 65 58
343 26 235 107 92 76
268 18 277 110 97 83
245 740 328 160 112 88
295 690 195 57 35 34
332 433 96 62 42 39
315 375 259 60 50 40
348 21 240 108 85 70
215 540 199 143 7 43
279 19 317 155 119 106
344 780 134 50 43 40
349 25 239 100 70 54
338 435 314 158 9 48
347 27 236 107 92 77
294 925 324 46 41 39
268 64 297 125 98 71
308 775 308 77 60 52
348 30 235 93 72 56
350 30 238 90 45 33
335 48 200 111 58 33
339 16 254 94 74 60
319 690 313 44 29 31
305 315 276 88 72 54
294 715 193 140 1 35
347 17 249 103 69 60
267 689 336 149 103 78
349 19 249 106 62 57
236 595 229 176 0 48
351 24 243 110 55 50
349 17 254 99 61 52
364 425 174 81 38 39
350 18 253 103 57 51
397 722 217 135 86 65
322 23 262 96 48 39
329 35 194 115 34 21
324 435 124 114 11 35
355 390 204 110 94 79
330 40 194 121 32 21
330 40 197 120 32 22
316 825 155 50 45 43
396 631 226 164 112 82
322 102 241 119 86 69
416 442 217 87 13 24
332 357 276 90 62 45
376 762 113 54 46 40
358 190 224 121 98 73
329 435 323 146 16 48
333 35 194 117 34 21
328 544 322 187 133 116
333 36 197 116 34 21
352 80 214 121 28 44
322 173 231 97 79 59
289 11 284 109 65 50
334 40 194 125 34 19
354 180 214 116 94 69
369 414 274 56 43 29
333 40 197 123 34 20
310 421 160 103 67 49
364 413 284 45 35 29
334 270 260 94 76 55
330 45 194 123 32 19
333 45 195 125 36 17
348 50 249 133 18 50
343 46 215 125 108 91
314 919 319 32 31 33
323 95 214 120 33 41
314 270 234 128 100 71
324 45 224 83 58 40
327 43 223 102 89 77
356 456 157 48 33 40
334 650 290 149 7 47
304 501 141 128 8 32
329 45 219 108 91 72
388 550 248 190 136 112
264 205 275 130 100 64
329 40 224 102 88 73
289 973 283 58 54 54
256 690 311 132 101 71
248 920 249 53 50 52
330 46 215 111 89 65
325 150 219 113 90 63
341 315 303 101 80 56
334 46 214 113 89 60
330 42 221 108 87 65
351 81 209 128 28 46
309 846 283 115 93 70
333 43 218 113 87 60
281 115 284 108 84 57
353 235 257 122 98 69
359 770 139 47 44 43
385 575 199 114 29 45
327 54 198 86 38 22
347 784 113 77 61 51
325 56 199 90 54 23
329 50 204 108 73 40
332 239 256 97 78 57
364 823 140 89 68 56
334 310 213 94 80 64
329 50 209 109 86 58
329 50 199 96 45 29
334 69 257 114 45 52
323 59 198 73 28 25
363 405 257 128 93 69
332 188 212 125 98 65
277 156 271 118 93 64
325 60 194 92 36 24
298 810 303 61 50 46
323 65 194 99 38 30
321 65 199 103 26 34
382 468 277 205 169 160
322 64 197 89 34 27
349 285 214 105 83 57
392 445 229 125 13 40
311 835 169 56 51 48
328 59 193 108 39 25
330 50 194 114 31 21
328 49 213 109 90 68
304 680 310 39 28 28
335 630 290 64 26 32
268 180 306 116 94 71
270 475 168 98 23 24
316 336 216 100 85 69
319 335 332 142 104 73
346 408 287 53 40 33
304 525 140 44 35 38
251 823 261 79 64 58
291 749 196 140 5 45
323 50 219 90 71 51
322 53 217 74 54 29
327 48 217 109 95 80
352 80 224 109 37 45
284 275 323 135 101 75
279 225 318 116 93 67
321 57 210 76 41 26
346 120 246 120 96 69
353 765 159 51 46 44
275 270 318 136 103 78
283 176 307 111 91 71
332 48 212 112 88 59
364 467 264 75 36 40
346 435 109 63 30 34
337 37 221 124 91 52
357 185 248 121 98 72
241 795 274 132 91 70
323 185 240 94 78 60
292 489 327 84 25 37
216 523 204 144 0 40
402 812 232 69 52 38
339 40 219 120 100 77
274 906 327 150 124 101
326 290 216 126 97 67
344 40 224 117 102 86
246 624 259 136 21 45
219 550 224 177 3 47
365 429 183 87 55 47
360 885 219 77 68 68
340 43 217 122 104 84
356 290 260 122 95 63
346 43 222 114 100 86
305 240 278 121 93 61
358 504 303 165 109 97
348 41 225 93 75 57
297 201 276 105 86 64
322 809 148 51 44 42
348 80 239 112 21 43
349 45 224 91 49 33
303 385 209 102 87 72
338 51 195 109 47 15
327 165 241 92 76 59
335 287 267 85 71 55
310 779 185 73 58 50
338 51 199 105 67 31
336 54 192 117 30 16
340 54 198 93 63 25
322 455 147 77 33 38
404 765 144 84 61 45
343 56 200 99 63 24
273 280 299 145 101 76
284 725 334 175 118 90
323 290 285 92 77 63
374 655 199 84 52 49
339 50 204 116 90 61
341 53 202 113 90 62
342 57 196 91 44 22
243 760 299 114 82 54
312 855 167 52 48 47
345 59 198 96 45 23
367 491 260 41 26 28
365 680 265 41 27 29
341 370 304 128 90 66
346 53 208 121 104 86
344 195 255 105 86 63
367 615 180 153 10 39
304 430 160 86 29 27
360 380 214 107 89 70
279 435 185 88 69 51
347 66 195 111 46 40
357 175 234 117 96 73
280 50 295 122 92 69
349 60 204 100 47 32
264 810 337 186 134 107
331 483 125 106 13 26
350 60 209 110 43 41
289 245 271 126 94 58
351 64 209 110 47 45
341 916 233 75 67 66
384 780 121 77 61 53
341 48 212 127 108 89
329 290 325 108 87 62
348 455 114 101 21 35
350 75 229 100 54 47
345 49 214 126 109 91
347 52 211 115 99 82
367 768 92 86 69 57
361 364 222 118 95 70
315 250 289 108 87 64
330 94 195 138 34 42
332 793 139 50 44 41
280 735 335 173 115 86
346 48 217 117 102 86
223 570 244 77 29 38
349 50 219 82 55 36
349 895 308 41 37 35
348 145 247 117 93 66
351 55 219 85 29 34
351 60 214 113 43 46
396 502 167 162 14 37
338 934 294 57 49 45
256 862 281 133 107 78
306 370 249 66 57 54
400 495 167 158 14 39
371 437 277 135 18 42
274 370 309 122 95 69
351 60 225 124 20 41
351 65 224 125 23 45
332 318 276 83 67 49
328 39 228 91 79 66
352 748 277 85 64 55
326 37 231 61 44 29
338 590 284 156 8 48
342 710 176 92 25 33
329 35 229 95 81 69
328 34 233 73 53 43
328 499 310 70 32 33
352 70 212 117 21 42
306 829 206 80 65 57
416 432 207 67 17 26
328 815 133 87 71 61
321 47 226 84 36 30
319 640 185 50 38 40
351 34 237 104 36 31
326 42 226 84 65 51
355 413 265 76 57 38
264 549 145 188 8 43
290 624 190 75 36 41
306 218 305 111 90 67
321 37 245 73 48 38
266 201 307 116 94 70
322 33 248 73 41 36
241 755 274 135 97 70
270 845 308 163 118 99
337 32 226 116 86 67
229 560 185 127 24 41
368 685 190 38 33 36
343 36 226 116 100 83
412 494 176 84 28 36
319 462 146 48 35 37
349 40 229 84 49 36
383 685 210 55 30 35
316 210 225 120 96 69
328 560 146 118 17 33
346 33 232 107 94 80
387 843 272 64 51 43
308 846 217 111 80 63
351 39 233 93 38 40
301 336 271 88 72 54
352 75 209 124 48 56
305 830 209 80 64 57
365 464 274 92 23 37
313 860 159 66 58 54
349 180 210 123 97 64
295 886 175 73 65 64
309 400 254 75 64 53
312 235 304 111 90 67
216 538 277 167 12 48
351 45 228 95 42 36
351 36 255 123 44 51
379 460 155 76 30 36
345 45 254 127 105 82
340 617 172 186 24 46
347 44 252 116 86 69
393 450 204 49 25 27
295 405 214 102 88 75
378 470 284 176 134 127
294 740 194 87 29 37
323 180 219 119 94 65
415 495 184 155 21 46
344 705 178 43 35 37
379 416 154 139 18 24
351 51 240 131 21 47
351 55 234 118 63 62
247 626 254 190 2 52
350 55 239 122 54 59
295 785 315 156 111 75
351 65 229 113 66 60
360 477 303 120 84 72
356 726 281 168 23 59
354 405 199 106 92 78
349 60 239 115 27 44
351 475 129 102 20 35
351 65 234 110 56 54
282 125 281 110 87 61
349 65 239 98 30 37
240 604 229 200 4 55
260 215 279 129 99 64
341 56 256 126 94 74
300 901 189 90 81 77
340 60 255 127 102 77
327 271 212 130 100 64
389 740 259 179 10 57
279 428 192 87 74 61
257 725 238 151 5 45
343 60 253 109 83 63
260 614 307 79 31 38
306 219 288 110 90 69
388 878 276 94 78 68
365 896 289 93 76 67
343 65 252 113 53 47
225 560 219 184 3 49
364 417 167 112 27 27
345 55 249 104 34 41
398 530 209 177 15 56
346 60 246 109 38 45
347 64 243 101 56 51
252 516 321 33 28 31
342 935 274 61 56 54
362 336 239 130 101 67
346 65 244 108 76 64
216 540 274 92 27 40
259 960 269 82 75 75
303 465 147 44 37 41
339 175 251 99 80 60
334 255 207 128 97 60
345 65 249 125 32 52
329 11 289 150 54 71
339 190 253 98 80 60
297 828 293 63 47 44
352 30 240 88 51 39
258 585 179 200 13 52
319 890 159 105 91 80
345 419 149 87 35 30
335 360 284 99 71 49
334 395 273 85 68 59
275 407 245 96 83 70
274 205 313 117 95 70
352 21 249 110 37 47
359 420 153 119 15 34
352 17 256 105 51 48
353 25 254 106 50 45
353 30 244 77 54 42
374 790 124 65 50 39
329 240 254 95 77 56
314 295 330 128 99 65
330 200 248 92 76 57
335 682 181 102 26 30
353 30 249 112 37 44
351 694 182 41 35 36
353 30 254 129 96 79
427 821 215 107 82 65
361 350 224 122 99 73
352 56 220 108 30 39
294 230 320 119 97 73
378 430 204 70 35 35
218 526 208 151 1 40
353 35 239 100 40 39
345 863 148 82 67 57
309 325 229 122 96 70
411 497 206 167 17 55
352 40 235 94 37 36
325 115 224 107 84 57
253 621 234 82 26 42
351 80 204 142 24 49
353 40 239 111 31 39
323 165 234 95 77 57
308 240 280 110 87 60
315 245 299 112 91 69
352 46 230 98 38 37
339 80 188 140 25 40
334 925 230 75 65 65
353 35 244 105 57 48
276 356 291 112 91 69
351 26 265 139 94 85
327 112 218 111 80 56
284 620 334 156 117 89
353 40 244 122 44 52
334 85 255 117 23 44
275 60 296 115 33 47
233 535 169 65 30 36
286 164 301 111 90 68
352 34 253 126 88 75
401 492 167 157 15 37
403 525 179 54 29 36
293 220 271 119 91 55
284 235 269 127 96 59
283 19 317 166 134 131
383 435 209 72 32 33
352 44 243 126 103 85
352 43 247 105 69 53
332 953 256 73 69 72
326 821 130 88 69 57
365 365 249 127 98 65
278 740 209 144 3 36
339 426 114 93 61 53
352 50 229 125 35 46
355 842 269 39 34 31
352 898 244 65 58 57
392 483 161 159 10 32
352 52 225 121 35 40
352 50 234 126 23 43
404 430 155 149 14 39
352 49 238 131 29 46
399 505 169 162 15 37
232 532 167 70 27 35
352 53 234 116 37 48
434 430 184 157 18 40
324 215 245 94 77 58
325 75 190 133 17 37
377 417 239 111 89 63
355 335 218 103 87 71
318 890 174 87 77 75
345 586 152 191 8 38
329 80 188 142 24 44
286 158 296 110 88 62
282 90 288 114 14 42
375 635 239 113 25 43
331 72 186 131 34 41
334 69 187 104 47 28
303 856 303 128 102 73
393 784 120 88 68 52
264 95 293 101 41 41
423 475 194 54 32 36
334 71 186 118 39 36
328 120 218 112 88 60
331 75 186 138 37 42
346 335 309 117 88 61
263 650 330 134 93 74
289 295 283 105 80 53
334 80 187 133 26 38
268 847 269 116 99 97
266 921 216 70 62 61
327 505 142 136 0 28
277 113 271 128 93 65
329 85 190 148 22 43
315 445 325 39 27 28
404 755 153 65 50 38
352 160 247 117 94 66
263 250 304 139 101 76
334 85 189 146 29 50
329 240 209 129 99 61
331 89 191 152 22 44
329 304 331 122 94 64
339 70 188 119 33 28
344 390 268 113 73 57
321 202 216 117 94 67
337 71 186 136 31 44
343 70 190 128 28 31
374 836 254 42 35 30
318 890 169 94 82 79
321 66 196 113 24 39
397 766 222 122 89 63
321 68 196 125 10 38
375 882 264 91 72 64
324 200 244 94 78 60
261 645 314 148 114 89
392 445 224 93 20 32
231 565 292 166 3 51
323 75 194 133 12 40
284 205 268 118 92 61
321 75 199 131 8 41
321 78 200 133 5 39
248 795 254 75 64 59
300 340 328 135 104 76
376 501 275 186 131 113
377 500 273 170 124 103
267 612 197 104 22 35
322 75 197 133 7 42
323 80 199 137 8 41
307 222 285 110 90 68
321 79 209 120 26 43
243 515 315 154 13 48
324 355 204 97 85 74
321 79 214 107 64 58
344 345 304 119 88 61
221 559 229 52 35 38
325 84 194 142 11 43
274 35 305 124 52 56
325 85 199 139 9 44
328 86 193 145 14 44
305 375 214 109 90 70
274 185 268 125 97 62
343 300 319 111 91 70
270 412 322 83 61 42
259 110 292 118 91 69
322 81 204 132 7 41
282 117 285 109 85 58
339 890 300 41 37 36
304 790 195 81 63 56
322 81 209 117 19 36
258 26 311 109 44 48
360 200 239 119 96 69
346 610 276 32 26 29
324 85 209 124 13 38
338 395 304 127 90 66
246 726 323 156 111 84
329 90 194 144 16 44
255 725 299 117 46 47
334 115 209 138 93 66
256 881 266 133 106 77
366 365 244 121 96 66
328 90 199 133 11 41
319 780 299 89 69 58
293 574 325 134 104 83
402 750 166 104 80 55
334 409 274 78 64 57
330 130 244 98 79 57
320 385 263 76 67 62
241 538 156 100 20 38
359 425 153 86 28 35
326 90 204 129 11 41
400 792 90 94 76 55
329 95 199 134 15 40
382 782 122 68 54 46
437 443 200 186 14 53
356 525 132 127 15 37
339 425 129 91 41 46
327 95 203 124 12 38
384 440 209 70 26 29
325 245 211 129 99 62
325 95 209 113 21 37
334 95 194 124 76 63
340 135 212 124 97 65
359 790 259 81 62 55
250 958 303 64 57 55
321 91 216 118 45 50
322 90 217 103 45 39
274 195 268 125 97 63
399 835 184 122 85 69
350 70 199 132 40 49
307 368 217 111 92 70
346 75 193 138 25 42
283 395 253 85 72 59
273 235 272 131 100 63
364 430 153 95 21 34
352 165 247 118 95 69
347 80 195 147 25 47
285 31 300 132 98 77
352 485 129 113 13 36
324 355 273 85 64 47
327 556 292 123 33 50
351 70 224 119 23 41
347 445 123 109 15 38
351 75 224 106 37 40
318 240 218 128 100 66
398 860 269 138 124 124
272 666 222 140 1 37
351 78 218 120 35 48
256 740 337 164 115 89
346 91 198 147 21 47
315 230 234 118 94 67
268 485 330 147 17 47
252 892 316 192 146 132
324 405 324 160 114 90
240 540 308 172 10 53
340 910 224 82 72 72
324 399 187 94 83 73
261 916 225 64 60 62
232 516 306 101 20 40
424 815 199 99 71 55
351 86 214 98 64 56
349 470 149 55 31 35
351 86 217 85 60 44
399 435 189 62 23 27
329 335 210 94 83 71
226 569 199 65 31 37
349 95 214 127 50 56
294 21 309 180 138 128
351 95 219 112 67 58
324 75 255 102 56 49
273 972 274 64 61 60
324 80 254 104 25 41
279 160 303 111 91 70
391 794 87 94 72 58
269 579 165 106 25 41
299 606 172 48 36 39
329 75 255 115 91 67
347 908 245 53 47 48
351 490 119 127 12 37
329 80 255 109 70 57
325 300 283 92 77 62
292 680 332 177 121 95
325 85 253 103 53 51
415 470 220 50 26 29
403 725 213 162 108 80
269 420 234 87 75 64
329 85 254 110 23 42
262 138 266 129 98 61
261 755 230 80 35 41
259 150 294 113 92 70
404 780 224 88 61 45
322 235 246 96 78 58
308 968 293 69 65 67
384 836 273 60 47 36
321 90 247 91 53 44
319 510 144 137 3 32
377 473 287 197 155 152
335 810 266 142 93 71
269 11 294 67 55 49
351 761 166 55 44 42
321 95 247 101 18 34
306 233 316 113 92 70
323 90 250 102 64 52
323 106 234 121 86 65
285 837 294 45 37 35
324 95 250 109 39 48
334 90 254 115 27 45
309 325 331 141 106 78
352 137 242 119 95 69
389 705 175 96 81 65
382 583 181 53 33 37
349 75 234 111 93 73
324 425 129 102 43 40
302 207 307 109 87 61
349 705 293 83 24 37
318 499 300 33 23 24
344 70 249 113 54 55
289 200 313 114 94 73
399 840 265 73 57 43
334 125 248 104 83 59
343 75 249 121 23 46
329 20 285 145 102 80
264 115 294 119 97 74
289 825 309 175 128 101
342 75 252 115 17 43
246 624 274 43 31 37
348 376 201 93 83 73
343 80 249 109 77 59
279 345 304 112 89 64
332 883 176 82 74 73
332 125 246 102 82 60
345 75 245 119 39 48
277 842 242 170 116 92
347 80 242 118 14 43
329 340 209 96 85 73
334 485 114 105 23 38
345 80 245 103 34 41
278 824 327 193 136 109
351 83 231 109 18 38
348 150 215 116 94 69
281 164 272 116 92 62
352 90 220 131 31 47
352 412 298 38 24 28
349 90 239 111 90 69
286 309 291 115 86 61
288 548 311 93 4 28
351 95 235 114 34 45
392 848 214 93 70 65
338 94 252 112 60 58
311 812 291 70 56 50
297 878 195 37 35 37
341 89 251 114 63 55
240 525 150 162 9 42
247 810 264 74 61 56
320 955 299 67 60 56
238 780 279 170 120 88
344 90 248 113 50 51
348 483 294 62 19 26
287 160 289 109 88 66
230 590 274 176 6 49
294 620 335 160 115 84
344 95 248 117 44 52
310 355 332 133 102 71
362 235 248 125 99 70
345 85 245 97 33 37
285 26 311 129 96 72
250 890 270 153 115 91
359 265 254 132 98 66
384 510 233 85 21 35
253 715 330 158 112 88
324 175 219 116 92 64
328 100 204 124 17 39
289 455 169 84 30 27
343 253 206 124 93 57
326 100 209 115 30 41
378 420 289 74 35 32
344 245 206 130 97 57
327 104 207 124 16 39
355 155 234 115 94 71
279 421 204 88 76 64
388 833 264 57 46 35
351 777 111 59 48 37
326 109 206 138 24 45
255 695 329 153 111 83
388 607 196 106 85 60
279 419 209 90 77 65
311 612 312 136 87 65
379 630 194 108 81 58
256 649 268 180 0 53
312 829 169 46 42 41
326 110 209 134 35 46
327 112 209 136 77 65
335 100 196 118 96 85
313 870 154 94 81 77
358 180 229 115 94 72
334 105 197 120 76 70
298 434 168 87 35 26
329 205 210 120 96 68
354 705 181 74 30 31
281 130 279 107 85 60
336 103 196 111 106 101
222 561 275 50 29 34
308 400 194 91 81 70
377 824 146 90 68 58
330 110 200 148 25 42
402 490 166 154 14 37
269 130 267 119 92 58
324 100 214 94 64 45
324 105 214 116 29 39
322 100 217 88 58 38
356 380 208 102 88 73
417 811 186 142 98 74
321 104 219 123 23 40
361 344 251 122 94 59
393 429 151 80 31 34
318 881 298 127 97 71
386 558 227 94 75 54
322 106 219 123 45 47
283 310 304 134 98 74
340 271 262 98 77 52
300 860 219 51 46 45
407 513 176 61 19 24
327 112 214 123 86 63
304 265 326 125 99 69
399 685 175 110 87 59
264 575 164 128 33 46
322 107 224 121 84 62
269 20 274 122 93 63
324 934 319 63 54 49
349 416 154 134 22 22
325 110 219 119 83 60
279 418 219 91 78 64
266 240 280 139 101 69
300 799 200 83 65 58
269 250 314 127 99 71
330 114 209 128 86 63
364 465 269 87 31 38
288 325 289 105 84 60
360 225 249 127 101 72
334 113 201 171 82 84
329 755 309 85 53 54
291 293 281 110 82 53
356 261 212 120 92 59
308 230 313 113 92 69
326 120 221 110 87 61
353 499 312 193 139 132
326 120 224 108 86 60
263 904 321 114 89 69
266 785 231 79 63 54
326 125 224 107 86 61
329 115 214 116 84 56
326 443 130 64 35 34
340 32 266 110 72 57
331 118 211 128 92 61
301 446 156 65 39 33
269 505 331 146 19 49
330 120 214 119 91 58
309 305 275 84 68 50
334 120 210 138 98 64
332 120 212 132 96 60
399 841 224 90 70 64
269 420 219 85 71 59
334 125 211 136 99 61
395 843 266 73 57 45
231 593 277 146 5 43
271 588 171 193 8 46
332 125 212 134 100 60
341 426 315 126 20 43
268 255 284 143 101 70
342 939 264 64 58 56
324 205 214 120 96 67
367 530 165 70 33 37
338 99 196 143 52 52
280 785 336 173 123 92
339 105 198 129 49 51
284 530 138 88 30 35
248 730 259 110 22 41
297 429 178 87 75 64
246 740 264 162 2 47
269 735 339 174 120 93
340 101 197 145 33 46
284 495 330 99 26 40
314 901 159 91 74 68
334 824 131 79 62 53
346 554 265 146 12 45
341 97 197 149 25 49
318 210 239 98 80 61
343 100 199 140 25 42
257 685 312 136 104 74
380 636 190 108 85 60
413 490 209 173 19 56
339 110 199 140 64 63
393 555 204 75 34 40
321 64 257 110 85 65
329 450 129 48 33 36
374 465 257 127 14 42
340 112 204 144 66 65
342 49 257 120 50 55
322 199 217 115 93 68
346 910 244 49 44 43
282 244 321 120 96 70
344 110 204 140 36 49
349 865 288 42 37 35
344 175 252 106 86 63
256 208 297 126 99 71
270 553 146 185 15 45
391 451 229 123 14 39
247 740 262 163 0 46
254 869 294 103 81 63
379 740 170 83 74 66
344 110 209 124 66 58
341 512 306 180 121 101
360 270 218 122 94 60
347 140 216 114 93 69
391 440 225 116 18 37
332 400 271 90 77 71
347 461 133 107 9 37
347 100 206 138 28 45
347 105 209 134 33 47
413 433 206 62 29 23
243 735 314 149 111 81
254 925 320 177 136 119
346 107 208 143 27 50
349 100 214 105 58 48
362 222 221 120 97 71
308 855 199 41 39 40
348 105 214 125 35 46
309 330 244 130 98 76
319 230 244 96 78 57
260 210 279 132 99 64
387 667 211 66 35 31
259 195 300 118 95 71
351 96 222 96 71 53
349 105 219 119 53 52
411 802 210 126 94 70
385 752 104 70 54 45
333 18 259 95 68 55
312 829 179 46 42 40
362 225 224 120 97 72
394 800 230 69 52 41
350 105 224 117 78 60
356 175 245 118 95 69
334 28 273 120 55 55
347 108 211 136 56 58
318 310 259 103 77 58
334 821 120 74 56 43
364 474 299 146 102 95
418 810 189 140 97 72
346 111 218 109 82 56
277 518 142 89 25 27
345 330 212 95 82 70
252 822 326 190 131 105
289 520 139 97 22 31
316 206 229 116 93 68
238 556 178 157 14 43
340 115 213 105 82 55
346 914 254 54 47 46
350 821 138 94 69 51
352 135 234 114 92 69
343 115 215 104 81 54
250 825 274 83 66 59
322 871 287 140 109 83
343 120 215 109 88 62
391 705 229 32 29 34
263 13 294 68 53 47
226 580 249 113 30 44
264 785 233 77 61 53
338 125 211 129 97 59
369 490 168 145 1 31
339 295 271 95 74 51
332 218 207 124 96 59
340 125 212 121 95 64
276 230 317 115 92 67
394 761 109 77 61 48
368 480 293 164 114 104
343 125 215 116 94 68
348 115 220 110 88 63
323 250 213 128 100 66
320 305 220 106 87 66
345 120 218 110 88 64
372 395 239 123 97 65
298 750 316 106 11 31
347 457 127 114 3 35
348 120 220 110 90 67
335 876 288 37 33 31
370 500 284 138 98 79
349 115 224 114 92 68
317 423 147 157 16 23
346 125 218 112 91 68
269 90 263 127 25 36
315 240 224 131 103 70
323 800 164 48 44 42
348 125 220 110 90 68
325 110 239 111 86 63
323 101 245 112 82 63
273 605 319 142 107 88
264 421 229 71 59 51
230 530 303 156 3 47
326 104 247 107 82 61
314 635 300 107 21 39
296 432 175 84 70 58
326 110 243 108 83 62
216 529 186 74 23 30
305 375 229 109 89 68
304 580 330 150 115 84
327 111 245 108 83 61
320 478 147 43 36 41
353 510 124 146 5 34
344 220 257 105 84 61
334 100 251 121 97 70
333 929 314 70 58 49
257 694 276 73 34 37
334 105 250 118 94 69
409 475 169 156 15 39
330 110 248 110 86 64
325 58 262 120 14 45
377 819 146 81 61 51
326 115 239 105 82 60
400 760 164 84 65 51
327 116 240 103 81 59
267 567 157 187 8 45
399 590 224 146 110 74
294 25 304 135 91 71
324 240 249 95 77 58
409 470 169 155 15 37
326 118 237 104 82 58
329 350 205 96 85 75
270 117 267 135 96 66
257 536 321 43 27 30
327 120 239 101 80 58
277 460 336 75 27 33
366 545 162 88 24 38
327 121 236 103 81 57
326 125 233 103 82 58
374 880 303 51 43 38
291 755 320 164 107 82
378 565 177 83 27 32
346 27 271 121 86 69
258 510 146 66 34 39
343 105 248 123 98 71
328 115 244 105 82 59
415 440 168 155 13 38
329 120 244 102 80 58
329 365 199 94 83 73
331 114 247 108 85 62
276 273 281 139 96 69
371 758 131 57 45 40
278 145 276 117 93 66
331 120 247 105 83 60
316 506 307 62 17 26
244 775 259 74 61 56
262 669 331 152 104 83
334 120 248 107 85 61
297 12 304 136 77 66
375 670 196 67 49 49
351 101 229 123 53 54
296 927 327 36 35 37
241 583 196 133 20 38
350 105 229 121 94 69
326 274 309 116 94 70
350 105 234 120 95 68
348 105 239 119 95 68
324 275 319 112 90 66
339 100 250 123 97 69
259 950 244 74 69 70
315 900 170 95 85 80
343 100 248 124 100 72
379 420 169 57 27 29
298 310 281 89 71 50
222 540 209 152 2 43
248 900 304 123 96 79
345 105 245 120 97 72
347 105 242 120 97 71
347 110 243 120 97 73
242 944 301 41 36 38
345 110 245 117 94 68
333 250 207 131 99 60
393 845 219 97 71 67
350 120 229 118 96 74
350 115 234 116 94 68
350 120 239 115 93 70
295 560 317 67 41 40
351 125 229 118 96 73
334 431 96 72 43 41
351 125 234 113 92 69
337 316 277 94 71 48
339 115 249 116 91 64
266 912 220 66 61 62
327 808 138 60 52 49
329 715 318 121 17 42
339 120 249 114 89 63
249 954 274 78 73 73
343 120 248 119 95 67
348 115 243 119 96 71
374 490 283 163 112 100
296 676 324 160 109 83
348 125 244 118 95 69
315 250 234 129 101 71
376 472 256 134 19 44
255 710 244 86 32 42
338 391 191 101 88 74
389 441 198 58 21 25
338 360 284 95 68 45
379 560 176 42 30 34
346 125 246 119 95 68
366 385 223 104 87 68
223 545 214 72 24 37
353 195 211 124 98 66
250 745 294 143 107 77
352 70 205 134 42 52
359 751 171 59 52 51
352 70 209 126 30 46
368 375 244 127 98 65
328 255 255 93 76 56
352 75 205 144 31 52
352 78 206 143 23 51
370 390 244 130 100 67
291 184 306 110 90 69
267 914 218 69 62 63
352 79 210 117 35 46
320 200 239 98 80 61
368 410 254 124 92 68
334 279 211 105 84 59
351 178 212 123 99 69
352 75 212 107 63 58
257 125 291 115 94 71
358 180 239 118 96 71
242 920 306 176 131 111
352 77 223 121 41 51
241 756 284 147 106 75
226 569 284 50 29 32
317 200 229 114 92 68
284 966 300 73 67 66
291 31 294 141 30 52
229 575 199 109 32 44
437 428 186 155 18 42
319 455 324 58 25 29
352 84 214 119 46 51
302 18 308 174 123 111
285 715 200 137 7 38
314 490 319 58 27 31
259 34 272 109 72 49
352 85 224 112 37 45
357 325 262 126 90 57
207 536 244 95 28 40
304 475 145 95 26 32
293 551 142 136 26 43
304 945 324 59 53 50
352 93 221 116 68 60
346 636 281 49 22 28
344 480 110 148 7 35
393 437 192 66 21 24
352 81 228 103 24 36
242 770 262 66 55 51
379 751 159 78 69 59
349 460 294 76 25 33
314 465 146 49 35 38
265 36 271 88 37 22
284 960 239 95 93 97
379 584 242 156 95 73
345 455 129 113 5 35
352 90 229 112 48 50
262 410 257 91 79 67
387 553 247 191 132 109
264 75 258 121 29 36
265 250 309 135 102 76
346 315 312 115 88 58
319 965 259 79 75 80
374 798 132 72 51 37
352 95 233 121 19 44
352 99 225 117 42 46
367 753 168 71 64 58
340 314 331 130 96 66
352 98 232 114 13 31
350 224 207 127 98 61
256 690 249 47 33 36
279 170 306 113 93 72
331 766 295 89 69 59
339 150 249 98 79 58
304 325 275 86 69 50
319 190 224 113 91 67
356 762 156 50 45 42
303 439 158 68 35 36
320 185 234 99 81 61
320 190 238 96 78 58
320 195 220 114 92 67
281 346 290 110 89 67
340 417 149 88 44 34
318 200 224 118 95 70
311 525 142 118 17 33
317 205 224 119 96 70
326 250 211 130 100 64
339 200 209 119 95 66
411 506 189 137 24 46
325 225 248 95 77 57
316 215 224 122 97 68
323 185 218 118 94 66
278 500 153 87 24 24
318 225 219 126 99 67
356 515 133 58 32 34
251 948 317 47 45 47
317 215 222 123 97 68
419 435 214 91 4 28
405 825 179 113 80 63
376 514 244 104 18 36
318 220 219 124 98 67
353 200 253 122 99 73
256 755 240 57 29 35
304 390 333 145 108 81
279 85 269 128 29 41
316 220 225 123 97 68
421 476 205 142 32 52
254 958 264 78 74 74
287 315 316 127 94 71
358 462 272 124 14 40
385 560 246 175 122 96
363 644 191 130 14 34
288 34 297 126 45 53
315 225 224 125 99 68
225 555 289 124 12 41
339 505 119 61 36 40
204 525 234 54 32 34
318 195 229 113 92 68
318 195 234 104 85 63
335 951 259 79 74 76
387 790 232 53 43 38
312 923 211 73 68 69
329 265 210 127 98 62
342 829 252 135 104 85
317 251 295 111 90 66
379 425 289 179 16 55
320 195 239 97 80 60
388 859 255 91 73 64
311 784 186 75 60 52
324 700 180 59 32 35
317 204 229 115 93 68
319 205 239 98 80 61
356 510 134 100 23 38
308 400 250 65 56 47
316 207 233 109 88 65
317 209 235 104 85 64
289 30 279 118 60 51
316 215 238 102 83 61
403 775 154 87 64 48
315 220 229 120 96 69
363 235 239 121 97 69
315 240 229 129 102 70
398 785 145 65 50 41
281 433 187 88 75 59
269 410 320 103 82 62
315 225 229 122 97 69
339 300 273 98 75 49
315 225 234 116 92 66
355 694 286 38 26 30
353 675 278 109 17 41
372 655 247 116 32 46
317 220 240 99 80 59
317 224 241 99 80 58
316 226 221 126 100 69
318 230 219 128 100 66
324 830 139 77 62 53
426 466 205 101 28 42
339 245 258 102 81 57
320 230 215 126 98 64
243 586 198 189 13 50
319 655 187 129 9 32
354 315 219 97 82 66
321 957 295 65 57 57
371 493 267 47 29 22
334 620 290 125 20 43
269 185 269 131 101 65
315 235 224 128 101 69
295 395 238 70 60 51
343 818 119 86 68 56
320 235 215 126 98 64
220 545 284 40 31 33
408 843 249 113 93 84
394 844 204 119 88 77
365 510 164 81 21 34
320 240 215 127 99 65
351 776 114 50 42 36
318 245 218 130 101 67
314 560 144 109 30 41
394 430 184 71 28 32
284 20 275 139 32 28
373 765 259 90 69 60
364 690 188 44 35 36
354 155 229 114 94 71
346 134 217 115 94 70
259 120 259 132 78 60
315 250 224 131 102 69
336 525 129 52 35 39
361 826 241 34 30 31
320 250 215 128 100 66
255 895 318 184 135 122
316 250 221 131 102 68
318 255 218 130 101 68
274 498 332 172 13 55
325 370 273 82 57 42
312 393 192 93 82 71
316 255 221 132 103 68
315 230 229 124 99 69
405 435 158 59 30 37
291 517 327 43 31 29
350 145 245 117 94 68
375 420 209 83 66 57
315 230 239 106 85 60
340 565 144 82 27 38
293 191 275 110 90 66
315 235 239 109 87 62
328 195 245 93 76 58
315 240 234 125 99 69
278 135 274 115 91 62
286 542 320 39 24 29
413 710 189 151 108 74
317 230 241 100 81 58
242 941 258 67 62 62
275 890 327 190 138 123
317 236 241 102 82 59
327 160 241 93 76 59
304 595 163 44 38 41
295 225 272 121 91 53
317 240 240 106 84 60
324 414 174 99 84 69
315 245 234 128 101 70
362 285 226 127 97 64
316 245 239 118 93 66
405 630 219 161 113 79
314 250 229 130 102 70
279 85 290 105 80 59
384 862 282 50 43 39
315 250 239 122 95 68
341 434 130 98 21 42
