ply
format ascii 1.0
comment Created by Open3D
element vertex 2202
property double x
property double y
property double z
property uchar red
property uchar green
property uchar blue
end_header
327 98 219 92 66 42
298 473 294 81 21 32
263 893 309 134 93 83
378 258 239 126 97 61
400 880 247 70 55 38
293 663 214 124 20 28
273 223 230 123 96 63
343 429 174 92 77 61
327 103 219 122 28 42
325 102 221 117 39 44
373 778 300 87 68 61
363 773 199 66 50 46
329 107 219 130 58 55
402 467 285 68 23 32
323 963 234 79 75 78
326 105 223 131 34 42
345 373 272 133 95 72
278 738 220 96 25 35
330 98 215 100 58 47
403 428 179 124 56 55
358 168 209 121 97 67
331 98 213 109 56 50
337 858 283 153 120 95
422 582 224 194 19 50
268 417 209 98 84 69
430 992 309 95 81 70
383 438 114 113 47 44
418 458 285 116 17 40
329 103 215 109 38 39
269 323 241 126 98 66
266 258 286 126 98 74
260 258 282 125 97 72
308 978 289 65 61 61
290 914 220 51 45 45
368 303 209 110 90 68
273 767 222 114 30 37
243 748 249 121 93 62
333 109 214 132 53 55
324 429 298 73 26 33
386 880 272 52 46 43
335 111 214 129 88 67
431 700 277 164 111 77
281 442 182 102 26 22
334 113 219 115 81 55
298 248 244 107 85 60
273 313 240 122 94 63
262 693 294 53 25 30
338 624 202 111 38 45
330 112 225 128 89 67
441 428 272 141 16 46
323 663 310 166 17 54
331 114 223 119 86 59
334 123 219 116 89 59
427 548 210 39 36 40
253 933 259 171 131 107
330 547 303 158 107 90
334 128 219 115 89 60
332 158 229 106 85 62
348 218 202 125 96 61
393 426 199 99 83 66
376 383 206 91 80 70
354 68 199 123 42 45
268 870 266 103 78 47
332 128 224 117 88 61
400 926 296 44 41 40
288 798 214 60 50 44
324 338 229 75 64 52
293 430 194 91 76 61
283 478 294 81 29 37
343 98 195 129 80 71
373 953 319 77 65 56
318 411 269 57 46 34
296 553 312 165 120 93
298 449 124 77 37 35
363 743 199 48 39 36
363 663 220 98 25 28
343 102 196 117 89 76
412 463 179 52 33 35
506 902 263 96 79 63
407 887 244 75 67 61
364 352 207 92 82 72
428 493 210 127 10 31
489 503 249 137 24 49
298 373 233 87 74 59
339 111 200 153 24 50
343 112 199 168 95 90
263 561 161 59 30 40
338 113 209 134 85 67
285 168 243 108 85 56
516 892 263 105 85 64
353 953 318 62 54 49
379 298 229 118 92 62
293 25 296 147 39 61
368 248 205 131 99 57
347 97 196 145 29 46
383 683 209 77 52 44
349 98 198 138 27 42
288 613 200 194 10 43
348 103 198 135 29 40
254 708 244 76 27 32
318 978 284 78 73 71
254 538 164 47 34 33
274 414 206 94 82 70
323 348 239 75 62 49
348 413 189 89 77 64
280 454 103 96 24 38
351 103 201 129 34 41
353 423 278 121 16 41
358 498 128 60 35 39
348 108 199 130 36 41
292 57 274 127 88 74
312 328 254 83 66 49
348 113 209 119 87 61
262 438 192 74 32 37
348 434 134 94 73 55
337 616 311 56 28 30
331 105 246 121 93 74
353 108 209 122 62 58
313 668 311 163 14 52
350 113 213 104 82 58
251 938 294 194 150 129
335 456 101 166 0 25
353 108 219 101 78 55
365 480 122 103 25 39
379 298 234 122 95 62
337 318 265 99 73 50
343 114 204 140 80 65
378 638 224 117 27 42
363 323 210 100 83 64
249 688 264 52 33 30
372 388 201 91 80 69
340 118 210 129 89 59
274 693 225 45 36 36
340 123 211 131 93 56
368 431 129 128 67 52
336 123 217 118 90 60
347 118 210 125 95 60
350 123 212 116 94 67
321 98 228 114 30 41
320 97 238 110 46 45
300 910 210 54 50 52
284 450 89 93 28 35
417 557 277 85 28 37
324 102 239 126 85 70
253 788 303 152 113 78
439 922 255 83 67 56
326 104 234 135 95 77
303 648 308 166 16 53
353 509 133 49 33 37
273 34 285 107 53 49
327 104 239 125 88 71
328 108 229 135 94 74
224 743 302 171 117 92
384 955 279 73 59 50
441 798 251 126 86 62
406 645 263 125 83 70
358 468 109 136 7 37
298 10 274 120 63 55
328 108 239 125 90 70
368 808 290 82 66 60
322 479 117 133 17 38
358 483 119 96 28 39
283 223 233 115 90 60
398 428 264 97 78 57
293 788 189 69 55 46
323 98 244 115 41 50
325 848 191 53 45 47
325 97 247 115 40 49
399 711 271 123 18 40
377 288 219 117 91 60
338 13 279 150 95 101
304 438 291 124 12 39
288 393 214 95 82 69
483 434 239 117 29 30
362 776 197 60 48 46
238 738 259 81 59 47
328 98 248 119 81 68
325 101 242 124 89 73
253 543 164 50 29 30
265 155 272 114 94 72
330 102 247 121 93 73
389 653 276 107 23 40
342 418 303 148 22 49
303 981 283 63 59 58
296 235 241 105 82 54
437 567 229 92 29 41
308 442 114 78 38 33
348 273 205 130 100 65
296 223 250 110 87 60
307 348 289 136 93 72
333 98 249 127 100 74
488 448 255 92 21 33
483 483 229 81 33 34
248 763 299 158 110 82
373 957 318 86 74 64
330 108 243 121 88 69
352 613 308 56 28 32
330 111 242 122 88 69
293 273 244 98 78 55
337 522 311 133 101 74
317 547 297 166 110 93
332 113 244 121 92 72
250 884 290 141 51 73
330 116 229 122 87 67
337 903 209 65 61 64
331 118 229 121 89 66
312 378 269 118 79 61
251 562 281 114 1 33
338 103 248 124 98 70
370 188 218 116 95 72
243 623 259 50 32 35
330 116 238 120 88 67
288 763 214 61 38 38
370 283 251 129 97 63
242 798 242 172 119 82
333 962 318 73 63 58
352 431 192 93 77 60
247 658 275 177 128 111
359 133 229 114 93 70
268 284 237 132 98 65
286 203 273 119 94 66
332 436 144 82 66 50
300 463 139 68 24 30
401 627 246 144 45 56
330 124 228 121 89 65
331 128 229 115 86 61
283 243 234 107 85 58
358 183 207 124 98 63
323 653 309 71 27 34
248 928 284 114 91 76
406 872 246 87 74 66
257 253 280 124 97 71
445 768 252 130 89 65
374 693 209 59 43 35
333 128 239 116 87 66
331 114 241 120 87 68
373 213 239 118 95 70
271 138 231 126 95 58
314 469 295 134 19 46
380 342 227 111 91 68
334 123 243 116 89 68
358 323 209 95 80 63
348 430 169 93 78 61
338 98 249 126 100 72
363 582 180 189 8 42
343 98 248 127 101 73
250 729 241 86 23 32
351 27 263 132 91 78
266 318 286 127 98 70
338 108 248 123 98 71
338 113 248 123 96 70
273 498 119 82 22 33
288 338 301 141 99 77
398 718 209 83 57 46
343 113 248 125 98 67
264 166 231 127 99 64
278 233 231 119 93 62
273 728 320 166 16 53
273 203 230 119 95 65
333 343 214 92 77 62
346 98 247 123 99 74
349 98 245 119 92 70
313 427 184 79 67 57
348 103 244 122 98 72
210 748 288 174 119 93
366 660 302 55 21 27
383 748 199 57 46 38
374 288 245 129 99 64
350 34 256 122 36 46
283 313 239 96 79 60
346 103 247 126 101 73
278 788 199 62 50 43
351 97 242 115 77 62
353 98 239 116 71 62
355 660 217 105 23 25
352 103 239 117 94 68
396 511 171 162 15 39
378 378 264 120 94 63
281 223 282 119 95 67
351 103 242 121 98 73
363 193 248 120 96 70
250 883 298 161 59 86
332 213 214 117 93 65
348 108 245 119 96 70
328 803 190 63 53 48
337 22 282 130 94 72
348 431 164 92 77 60
323 778 185 64 49 43
390 397 234 96 79 63
268 238 230 126 96 60
330 263 234 100 82 62
349 113 245 120 96 69
380 402 207 100 85 70
263 638 289 102 39 41
259 68 259 96 37 39
323 843 293 176 138 111
400 587 274 80 25 31
401 583 206 173 16 42
353 108 239 116 94 69
391 404 230 82 71 61
336 119 246 121 94 70
241 772 242 129 97 59
408 788 288 174 129 94
268 148 231 128 99 65
343 118 248 122 96 67
355 127 218 108 90 70
342 413 193 87 76 64
380 816 287 56 50 49
279 488 105 188 15 41
336 123 246 119 91 69
339 123 247 120 93 69
350 285 262 109 87 63
337 128 245 116 89 67
464 431 250 83 27 34
411 502 196 142 4 34
340 970 257 87 82 85
283 483 119 105 14 35
396 678 264 53 29 31
339 128 247 120 92 67
298 708 322 145 7 45
347 118 247 122 96 66
263 424 196 90 58 46
373 378 205 91 80 70
210 758 269 168 115 88
352 118 243 116 94 70
355 72 225 108 32 39
414 444 282 65 20 28
349 123 246 119 95 67
353 123 243 116 94 68
363 858 184 93 78 69
320 409 249 66 52 40
357 68 204 126 44 47
418 843 239 102 79 61
305 548 306 166 114 90
293 388 224 93 79 66
274 212 281 120 97 71
263 483 290 99 31 43
263 818 300 153 123 96
357 73 209 122 52 56
389 943 269 86 64 53
321 600 302 57 26 29
354 78 199 143 28 48
356 77 201 137 26 49
216 808 278 181 124 93
413 683 244 87 58 41
356 78 204 135 22 46
210 753 269 163 110 84
307 714 180 75 55 45
283 398 209 94 82 69
443 423 254 93 38 37
356 73 214 113 73 64
375 290 217 112 88 61
377 424 195 96 80 62
277 143 235 118 89 52
433 902 231 102 90 79
302 14 304 121 68 60
355 68 224 121 23 43
356 78 214 115 33 43
343 733 194 66 44 42
264 703 234 118 8 32
430 488 212 123 6 30
303 308 294 112 85 56
244 904 289 154 114 93
309 323 248 92 73 56
356 78 219 117 25 42
408 429 199 132 61 53
285 197 238 114 90 59
449 442 266 123 2 41
288 10 304 135 48 58
463 488 225 127 8 28
388 403 259 120 95 64
356 78 224 110 37 45
351 559 311 178 131 107
335 556 297 152 103 93
354 83 199 148 29 52
258 283 279 127 97 71
383 643 234 57 32 37
292 426 202 92 78 63
363 862 265 43 37 34
278 258 288 124 96 63
330 370 267 100 70 53
401 526 186 141 9 36
328 228 234 106 86 64
438 853 235 109 99 92
358 173 248 120 96 68
355 80 202 139 27 48
346 319 213 95 81 66
291 625 207 149 16 39
323 37 267 132 13 48
355 84 202 145 34 51
432 793 279 182 126 97
355 88 204 141 27 49
380 248 234 122 95 63
356 83 204 139 31 49
238 833 264 203 136 106
328 828 194 65 52 47
293 623 205 58 33 38
312 398 254 89 66 50
356 88 209 107 55 49
439 453 217 72 36 35
338 263 248 100 80 59
291 61 272 134 94 78
240 568 204 59 33 36
287 213 274 119 94 64
355 89 208 125 41 49
355 93 209 126 33 45
225 643 297 143 106 75
356 88 214 117 46 51
356 83 219 99 59 51
270 31 287 97 57 46
356 88 219 130 27 46
253 793 234 74 58 52
343 368 205 89 78 68
357 88 224 119 36 47
273 148 232 124 95 59
274 769 221 87 44 44
258 628 229 47 33 37
272 453 183 99 28 21
273 32 288 109 68 58
356 93 214 125 43 50
261 406 217 91 80 69
257 363 243 105 86 67
281 467 172 78 25 29
356 93 219 116 70 59
360 167 246 120 97 70
375 231 241 121 96 67
353 68 229 111 82 66
343 431 167 91 75 59
356 79 228 103 25 36
356 83 229 112 24 42
354 83 234 105 52 50
216 775 262 169 116 86
243 803 308 172 130 97
245 904 302 147 116 96
314 923 206 72 63 62
278 10 269 75 64 58
354 88 235 109 90 69
292 408 292 149 103 79
417 780 287 167 122 85
294 63 264 126 31 49
342 148 246 116 89 65
263 233 283 118 95 71
356 84 232 107 26 39
228 683 265 133 98 69
332 228 240 104 83 61
312 398 259 91 66 51
258 419 204 95 83 71
439 648 269 146 104 70
356 88 233 110 27 41
369 940 284 71 62 58
301 278 264 106 84 57
355 92 236 110 72 57
355 98 209 120 39 46
298 703 320 146 8 47
299 444 165 94 31 27
378 543 165 56 30 37
459 463 227 95 21 30
330 253 220 115 91 62
367 431 139 125 69 54
333 493 305 138 106 82
246 630 267 114 67 60
404 695 206 99 65 44
353 103 204 131 29 42
262 974 284 64 59 60
255 938 256 163 127 100
355 103 209 125 34 44
290 892 316 178 139 113
283 430 190 88 75 60
305 474 118 186 10 33
337 133 214 120 92 59
270 518 125 79 33 38
355 98 213 96 62 49
403 513 288 165 4 50
370 532 300 127 100 81
261 63 265 109 42 48
416 436 176 94 22 41
348 598 188 167 13 42
363 263 204 132 99 60
356 98 215 103 56 50
299 474 112 155 16 34
432 633 259 116 92 64
354 104 219 109 73 57
368 947 266 76 70 71
290 186 261 116 92 66
428 830 256 60 45 32
389 528 169 88 30 38
293 468 99 80 31 37
356 98 219 109 51 48
447 673 259 155 104 75
306 410 287 65 46 37
267 939 310 181 151 136
329 218 234 107 87 66
382 548 170 61 28 36
376 218 219 121 98 72
312 873 203 54 49 49
357 98 224 115 33 43
301 393 287 140 100 79
383 743 309 115 26 44
303 628 304 127 24 47
231 571 262 83 19 36
318 683 211 73 33 35
381 364 253 114 91 64
407 658 269 124 86 71
356 102 219 117 36 44
278 623 294 64 28 33
305 11 286 163 115 128
347 708 204 53 37 33
355 105 223 101 78 52
268 971 260 76 73 75
299 445 109 82 35 35
355 123 218 105 88 69
262 248 232 130 97 59
283 13 310 132 50 57
313 18 289 193 137 140
369 362 266 120 94 61
372 393 272 130 98 64
238 583 269 55 24 28
213 788 289 173 120 90
272 159 272 118 95 69
263 758 225 126 12 34
356 123 224 110 91 71
357 128 224 110 91 70
468 898 248 89 70 60
296 233 259 115 90 61
273 218 229 123 96 64
356 103 229 120 91 69
324 561 161 129 22 39
354 103 234 121 96 70
408 928 295 49 45 43
388 426 198 97 82 66
329 458 284 140 12 45
464 523 228 60 33 33
296 243 241 106 83 55
249 563 279 115 2 35
356 97 233 115 29 44
273 483 293 61 27 32
388 933 304 45 39 36
335 203 242 110 88 64
396 486 156 105 25 33
442 793 254 123 84 62
256 157 266 116 95 73
366 303 257 138 95 67
356 113 229 115 94 73
340 138 211 129 98 61
281 163 268 116 92 65
355 112 236 115 92 67
423 538 279 96 24 40
356 109 233 119 97 71
388 918 263 54 47 42
356 113 234 116 94 69
264 537 140 168 11 38
348 436 118 104 73 53
318 492 125 127 17 34
354 118 240 116 94 71
333 453 284 142 12 46
364 955 311 75 65 57
377 373 210 97 84 72
317 723 199 71 44 42
356 114 237 115 93 69
427 473 210 94 24 35
293 628 208 175 7 39
285 16 262 82 70 58
356 118 234 116 94 71
377 958 304 115 102 91
292 522 301 141 112 87
356 118 238 116 94 70
417 646 287 185 126 97
379 268 219 124 96 60
268 158 272 115 94 71
342 414 294 52 36 28
307 693 200 66 48 42
333 288 250 71 58 45
358 128 229 115 94 70
412 841 269 163 105 82
350 236 201 129 99 63
355 122 240 113 92 69
358 128 234 113 93 71
355 127 241 112 91 67
318 503 296 101 74 58
353 498 300 105 73 59
438 483 282 54 30 33
273 263 233 126 95 60
288 488 292 71 24 30
260 133 236 116 94 68
379 283 229 126 96 62
268 808 299 54 47 44
343 899 218 57 53 54
262 133 233 124 98 68
211 682 281 154 103 79
330 333 216 95 79 61
280 163 237 117 91 56
254 778 231 69 56 49
318 648 309 113 25 42
257 138 239 118 96 71
288 48 281 121 87 68
337 914 297 46 42 40
312 348 274 114 78 58
268 133 231 133 100 63
271 133 231 127 94 57
343 738 191 57 42 40
289 383 228 94 82 70
216 783 263 181 123 91
494 896 261 87 79 72
265 142 231 131 101 64
395 474 152 161 13 37
340 430 296 159 14 50
353 323 209 93 79 65
271 142 231 128 97 60
266 143 232 133 103 66
338 143 244 115 88 65
514 446 233 140 31 27
313 613 303 104 26 40
348 436 114 108 72 52
273 243 230 125 96 62
347 18 278 112 43 50
309 28 259 113 49 49
282 629 212 181 7 43
273 143 233 124 94 56
313 798 188 84 64 51
376 674 297 144 13 45
294 592 186 205 11 44
342 228 250 120 94 68
296 223 259 118 91 63
256 138 243 117 96 73
346 276 256 110 87 63
256 142 242 119 97 74
361 144 225 115 94 71
259 153 235 120 96 67
245 654 272 129 87 71
257 153 238 114 92 68
330 965 300 59 51 49
400 723 279 136 4 41
358 208 254 128 102 72
263 148 233 128 100 67
328 928 213 74 69 71
330 360 216 81 70 59
263 153 233 127 100 66
262 378 228 104 88 71
278 498 159 48 32 29
331 708 202 62 42 37
297 233 249 106 84 58
290 960 232 86 82 86
348 848 188 78 66 61
265 148 231 130 101 65
264 917 312 189 131 117
257 587 306 138 107 78
394 639 249 68 27 35
353 284 207 111 88 62
271 148 231 127 97 63
270 153 231 126 98 63
268 150 232 127 99 65
338 792 194 61 50 50
270 156 231 126 97 62
256 470 291 88 24 36
245 553 176 158 4 38
292 782 217 75 57 48
309 363 243 120 88 75
298 368 294 144 99 77
339 757 312 78 65 56
398 613 224 85 36 43
271 156 231 125 97 61
236 584 227 173 12 45
324 378 239 70 57 42
273 158 232 124 95 61
378 435 114 111 72 56
292 468 292 41 29 30
228 753 258 123 93 58
279 133 238 113 86 52
429 668 236 126 96 66
374 303 245 131 99 66
428 988 314 90 75 62
418 723 214 74 51 40
276 138 236 117 88 50
358 943 319 42 37 36
238 818 254 175 117 85
279 138 238 113 86 51
283 133 254 111 84 58
301 341 297 140 92 76
400 699 210 101 80 63
308 22 279 112 29 44
283 143 244 112 88 61
335 204 211 121 96 66
353 403 274 135 97 74
305 885 226 43 41 45
283 138 254 109 83 57
388 968 309 90 77 65
328 423 203 91 76 59
283 143 254 109 84 57
419 973 314 84 69 58
277 148 235 118 90 54
330 213 220 111 88 62
328 368 264 83 59 41
293 957 230 83 80 83
348 178 251 118 94 67
368 430 154 98 76 60
334 477 286 127 83 76
268 523 144 90 17 30
262 758 304 132 24 49
277 153 235 118 90 53
418 828 283 195 136 109
277 158 235 120 92 55
290 584 301 99 53 46
280 158 238 117 90 56
376 554 299 125 82 68
292 188 249 110 88 64
281 158 240 112 88 56
433 422 249 73 29 35
442 723 235 118 82 54
281 148 241 111 87 57
391 399 239 93 78 63
258 868 279 132 105 82
271 541 146 193 11 40
283 148 244 111 88 60
284 148 249 109 87 62
385 382 229 113 91 67
281 153 241 110 86 56
284 153 249 111 89 63
407 518 287 165 5 50
284 148 254 111 86 58
320 960 232 80 78 81
284 509 128 73 34 38
268 413 297 147 110 85
253 592 194 139 19 43
284 153 254 110 87 59
448 969 308 73 69 66
283 158 244 111 88 59
308 918 311 139 105 86
268 259 232 130 96 60
428 428 204 141 6 32
259 258 235 132 96 60
392 553 184 96 28 36
343 133 210 130 98 60
423 428 194 132 15 38
416 596 258 169 15 50
285 158 249 112 89 64
296 48 269 122 80 71
239 733 301 168 113 86
323 58 259 122 58 60
242 723 263 65 39 30
347 915 297 38 35 33
369 803 193 57 49 47
256 38 266 119 36 47
264 163 231 127 99 64
278 218 230 119 94 62
256 162 237 114 92 67
245 846 282 180 123 94
478 434 249 69 27 32
354 858 179 85 72 67
268 173 232 127 99 64
340 213 247 117 93 68
233 738 261 115 86 60
402 905 236 113 88 82
258 173 234 124 97 65
398 840 276 168 110 86
365 173 241 118 96 72
286 716 201 56 43 37
264 160 231 127 99 63
351 196 207 117 95 69
280 530 143 103 23 39
413 793 213 65 51 44
342 307 266 104 78 53
268 168 232 126 98 63
274 163 232 124 96 61
273 173 232 125 98 64
258 178 234 126 98 64
268 178 232 127 99 64
298 973 310 73 67 65
352 811 191 60 51 46
259 578 303 133 105 77
283 113 259 124 92 67
263 178 232 127 99 63
303 947 221 76 72 74
262 188 232 125 98 63
272 184 231 121 95 63
453 904 254 79 58 52
303 701 176 89 63 49
277 532 140 132 29 44
330 253 224 109 86 59
343 143 210 129 99 63
303 694 317 149 13 46
380 328 239 124 97 66
317 674 312 161 11 51
228 733 261 125 92 61
268 182 232 125 98 64
264 899 313 148 110 86
353 448 94 200 18 41
326 452 297 119 23 43
273 178 233 123 96 63
379 278 229 128 96 63
274 182 232 121 95 62
286 754 197 67 49 41
272 188 231 119 94 64
390 753 301 113 38 50
369 268 207 123 93 56
371 931 266 63 58 57
273 193 231 117 94 66
333 928 314 36 32 33
278 163 234 121 93 56
229 836 293 207 146 118
309 903 200 80 71 70
278 173 234 123 95 59
418 838 254 65 52 42
283 213 279 119 95 67
312 318 254 88 70 51
281 169 236 119 92 58
254 673 274 64 32 37
331 253 218 118 93 63
278 513 288 51 22 26
281 173 236 121 93 57
302 467 110 152 23 42
286 168 245 109 87 60
324 303 239 84 71 57
278 32 288 140 34 57
300 811 205 62 52 49
433 678 275 172 115 85
287 168 249 111 89 64
268 888 310 162 123 98
403 427 244 73 56 46
265 614 306 167 112 89
286 163 254 111 88 62
419 824 229 68 57 54
287 168 254 110 88 61
249 578 184 64 31 35
343 173 249 118 94 67
287 173 244 110 87 60
285 366 227 93 81 69
392 738 299 172 6 53
288 173 249 110 88 63
318 738 316 111 26 43
305 401 225 98 78 59
278 188 233 114 91 62
410 977 306 90 70 51
283 218 233 116 90 59
261 218 232 125 97 62
363 153 229 114 94 71
310 729 187 61 44 39
268 493 169 42 34 32
368 436 108 97 79 60
278 193 232 114 90 62
312 353 239 87 70 56
282 178 236 121 94 58
343 163 248 114 89 64
483 513 249 201 16 58
273 553 290 132 7 42
258 607 205 201 13 51
273 268 233 127 95 60
284 178 238 117 91 59
363 593 302 136 37 49
359 708 189 67 51 39
303 323 234 86 72 57
303 979 294 70 66 65
367 832 191 62 54 51
282 183 235 117 92 60
358 228 256 128 101 71
236 559 208 113 27 41
234 602 263 138 14 45
323 743 315 68 53 49
283 193 234 112 89 60
285 188 237 114 90 60
246 593 279 77 22 35
288 188 239 113 89 61
368 353 209 96 85 73
216 708 296 157 111 85
285 194 238 112 88 59
288 658 304 135 15 43
236 606 289 132 105 76
265 714 231 126 13 35
289 59 275 134 95 80
278 543 294 140 19 46
275 525 132 91 30 30
411 605 287 142 105 69
288 193 240 113 89 59
388 453 282 141 13 44
290 178 249 110 88 64
332 168 219 107 85 58
291 180 248 109 88 64
336 148 241 111 87 65
291 184 246 111 89 63
343 358 207 91 79 68
412 883 249 81 71 61
290 181 254 111 88 62
446 561 239 47 32 30
267 348 238 110 90 68
340 148 211 128 98 59
291 183 254 111 88 61
318 613 194 149 20 43
291 188 245 111 89 63
411 430 156 137 29 38
290 192 242 111 87 59
467 889 234 92 83 75
292 193 244 113 89 62
420 434 188 53 31 35
293 193 254 111 88 62
333 613 305 31 26 28
288 330 237 92 80 66
262 218 280 117 95 72
263 203 231 121 95 63
249 698 289 69 49 34
301 674 151 111 84 66
260 208 231 123 96 62
283 431 188 83 70 56
359 153 214 109 90 69
348 428 279 127 17 43
401 699 258 69 42 31
263 208 231 122 96 64
257 208 233 125 98 64
305 888 224 44 41 45
268 203 230 120 95 65
273 493 165 43 32 31
350 503 280 34 29 32
332 158 234 105 84 61
231 590 243 149 5 43
360 954 293 90 80 77
358 539 157 168 2 33
326 383 256 83 59 43
373 803 199 51 44 41
268 208 230 121 96 65
296 253 241 108 86 59
479 436 251 93 21 35
406 930 297 46 41 38
383 846 267 46 41 40
388 427 194 98 82 66
302 913 312 163 122 95
273 208 230 121 96 66
260 212 231 124 96 62
413 885 238 90 78 67
371 384 201 90 80 69
256 722 237 96 19 31
325 383 253 76 56 40
492 440 231 55 42 42
281 123 263 123 94 67
376 870 177 78 68 63
310 327 248 80 65 51
263 213 231 123 96 63
288 713 325 151 16 48
328 26 279 137 53 59
437 498 216 50 37 41
433 563 269 175 19 58
258 213 233 125 97 63
261 215 232 125 97 62
285 485 127 79 26 33
375 313 218 117 93 66
258 218 233 126 97 62
268 848 274 51 44 43
323 583 175 195 9 42
282 272 236 116 88 58
458 904 233 90 81 73
484 509 254 184 18 56
302 468 295 108 18 36
439 643 259 126 100 69
261 222 232 126 96 59
268 213 229 122 96 65
357 158 210 119 95 66
398 683 254 64 35 39
268 223 229 125 97 62
297 453 125 78 39 36
292 198 264 117 93 65
450 503 276 148 9 40
384 653 238 95 26 31
278 203 231 119 94 64
278 208 231 120 94 63
458 513 224 131 13 32
418 483 286 142 16 46
280 201 232 117 93 63
283 198 234 115 90 60
318 418 283 49 26 27
374 455 112 49 30 38
273 503 114 105 29 38
281 204 231 117 92 61
433 493 214 84 26 31
283 203 234 116 91 59
329 338 263 79 61 45
283 208 233 117 91 60
286 203 236 115 90 58
298 9 279 140 87 90
289 208 238 114 88 56
325 975 242 85 79 82
331 700 198 62 41 34
277 223 231 120 94 63
401 430 146 154 20 27
259 835 296 174 122 96
279 223 232 119 93 62
308 949 222 79 75 78
332 138 224 113 88 60
395 658 264 48 28 34
281 215 231 117 91 60
343 923 302 34 32 34
280 210 232 118 92 60
274 10 269 79 62 57
280 212 232 119 93 61
291 703 211 47 35 34
309 14 264 141 35 27
283 213 233 117 91 59
289 213 238 112 87 56
402 648 269 150 104 91
256 642 302 161 105 83
320 410 254 62 50 38
263 258 233 130 96 59
280 220 232 118 93 63
339 960 295 44 40 40
287 218 235 112 87 58
287 243 236 102 81 56
403 698 244 61 42 39
287 223 235 110 86 56
291 193 263 116 92 65
285 463 112 107 12 36
492 455 257 30 28 30
260 228 231 126 97 61
284 228 280 119 95 67
263 228 230 127 97 61
263 233 230 126 96 59
257 228 233 127 97 61
333 183 239 108 87 64
412 727 276 116 77 55
376 303 220 116 92 63
398 923 294 41 39 40
258 233 234 127 97 59
272 11 268 82 65 59
258 238 234 127 96 58
372 632 215 82 29 36
290 83 259 112 46 49
261 238 232 127 95 57
279 981 293 51 48 47
268 228 229 126 97 61
250 928 292 176 138 120
254 723 239 102 16 32
312 398 239 131 99 86
268 233 230 125 96 62
238 578 270 72 21 32
267 693 233 64 30 37
264 248 231 130 97 58
298 432 184 90 74 58
395 518 173 108 22 36
373 293 214 111 89 63
258 243 234 129 97 58
262 243 232 129 97 58
288 373 298 146 104 75
381 697 205 63 45 36
264 252 231 131 97 60
331 233 217 116 92 62
348 958 319 72 62 55
330 278 220 107 87 65
256 250 237 129 95 58
314 430 175 79 65 52
340 233 248 118 93 68
365 168 240 118 95 70
289 714 190 58 44 37
256 253 237 131 96 59
292 770 213 56 41 40
293 468 159 47 32 29
379 693 304 135 6 42
330 696 191 56 41 35
262 253 232 131 96 59
268 253 230 129 97 59
272 543 290 120 6 37
348 153 209 123 95 61
380 363 255 115 91 64
278 228 231 120 94 62
266 497 291 128 16 42
363 358 268 127 96 63
332 148 224 109 86 58
406 430 151 149 18 31
279 238 232 116 91 60
248 693 289 70 51 40
370 337 212 101 86 70
409 733 209 59 48 43
280 233 232 116 91 60
308 543 305 162 112 89
311 305 256 88 75 61
348 348 272 139 96 73
234 538 273 61 28 35
478 498 230 108 24 35
283 238 233 109 86 58
369 648 222 91 30 36
372 203 214 114 93 70
358 423 279 102 21 36
287 238 235 103 81 55
288 653 303 147 15 46
272 548 291 138 8 44
278 263 233 120 91 58
277 243 231 120 93 61
231 622 278 112 91 68
343 618 199 59 35 38
334 233 243 108 86 64
288 328 235 91 77 64
231 563 259 53 27 33
279 243 232 116 90 60
264 459 186 100 22 27
278 253 232 117 91 60
360 138 229 114 93 70
242 608 265 61 28 34
283 248 234 107 85 57
325 685 201 66 44 35
366 189 211 116 93 67
405 533 197 136 8 34
268 713 228 104 22 34
281 451 94 84 36 35
286 248 236 102 81 56
453 903 233 89 81 74
338 663 309 129 20 46
273 233 285 123 98 72
289 248 237 100 79 55
342 218 250 119 94 68
435 788 244 116 79 63
219 818 294 195 136 109
289 253 238 100 79 55
412 695 224 82 62 47
333 143 234 109 85 61
384 579 192 181 10 45
291 208 240 111 86 55
314 440 155 71 57 44
290 500 127 85 33 37
293 198 254 111 87 60
457 469 226 49 38 35
383 971 304 88 77 68
354 195 206 120 96 67
312 328 264 108 77 55
354 513 283 59 29 35
393 868 234 83 70 60
293 203 244 112 89 62
371 404 196 98 83 68
361 303 262 139 97 70
293 203 249 110 88 63
387 693 210 80 56 42
305 302 280 114 84 55
288 328 302 139 95 77
294 203 254 112 88 61
301 681 151 105 75 62
291 218 240 107 84 55
302 28 284 135 56 60
292 223 240 107 83 53
418 923 284 43 38 35
293 218 244 109 86 58
408 427 179 136 41 47
301 274 257 101 81 58
253 668 269 64 34 30
261 531 287 48 25 28
296 223 254 113 89 60
286 175 267 115 91 62
293 228 240 107 83 54
348 143 209 124 96 61
407 430 195 134 59 52
285 701 208 60 38 35
259 183 272 118 98 77
428 738 278 173 116 85
393 578 294 136 101 71
318 728 209 100 31 33
335 249 211 129 101 67
299 11 304 131 57 68
328 763 184 77 59 43
292 233 240 103 81 54
290 238 237 100 78 53
268 763 223 128 10 33
349 465 102 195 11 37
295 227 243 107 84 57
278 448 180 101 24 22
251 709 292 59 43 31
295 226 248 106 85 59
224 748 302 170 117 91
363 854 261 39 32 30
308 978 245 74 71 73
295 232 242 105 83 57
259 188 273 117 96 74
286 916 222 61 50 48
296 229 245 105 83 58
348 293 208 99 81 60
297 233 244 106 84 57
378 430 126 131 65 52
260 968 288 55 52 53
314 481 121 152 3 36
296 228 254 111 87 58
296 238 241 104 82 55
296 238 244 107 83 56
261 556 286 126 4 41
297 238 249 105 83 57
262 368 233 107 90 71
438 788 269 162 109 75
444 723 264 171 115 84
310 411 208 80 68 56
403 713 269 80 36 39
308 643 308 131 21 46
293 248 240 103 82 57
233 728 303 172 119 91
237 728 302 170 114 86
298 243 249 102 81 57
363 454 103 66 30 38
323 488 299 132 100 87
296 248 241 108 86 60
222 642 273 115 95 75
333 635 207 63 35 38
297 248 249 101 80 57
263 488 289 70 29 34
418 523 283 47 28 31
296 248 254 105 82 56
297 253 254 102 81 57
436 420 277 64 24 41
230 821 261 178 118 85
332 133 224 114 89 59
473 432 244 63 34 28
353 158 209 121 95 63
324 298 229 94 78 63
335 139 216 117 92 63
483 448 229 99 19 29
301 31 279 139 46 61
308 965 233 87 84 89
262 513 168 84 22 29
334 143 215 117 93 63
273 618 208 197 9 44
390 489 152 161 13 39
334 148 215 115 90 60
314 893 196 78 67 65
334 153 214 115 90 60
332 153 219 109 85 56
332 158 219 109 86 58
379 882 276 44 38 36
368 293 210 109 90 68
399 879 225 76 65 57
340 133 211 126 94 56
366 861 198 78 66 63
266 44 276 130 105 84
337 138 213 123 94 61
240 573 209 45 32 32
223 808 303 180 130 102
338 143 213 124 96 62
297 964 233 80 76 79
343 138 210 129 98 61
447 508 221 126 3 31
340 143 211 127 97 60
311 393 240 134 102 87
372 462 115 98 23 36
288 332 237 92 79 66
216 673 267 150 107 75
408 793 209 69 55 46
337 857 187 77 63 56
271 507 162 53 33 30
351 133 211 122 97 67
408 473 289 73 24 32
353 133 214 112 92 68
288 943 219 86 78 81
442 683 269 168 116 86
342 213 250 118 93 68
260 22 288 128 17 45
283 373 224 96 84 71
348 138 210 124 96 61
268 588 185 158 12 41
368 218 249 124 99 71
226 657 301 147 106 77
352 138 211 122 97 66
256 797 232 75 59 51
253 908 259 160 116 94
332 728 190 51 40 38
339 153 211 128 99 62
213 768 264 168 114 85
422 967 313 92 80 69
412 685 241 92 58 46
231 563 254 81 17 35
343 153 209 128 98 61
353 918 295 36 33 33
443 748 244 121 84 60
409 733 204 61 50 42
343 338 208 94 80 66
337 158 212 123 95 60
286 487 130 84 23 36
232 783 248 141 102 63
343 243 204 132 101 64
367 543 307 162 123 93
390 454 133 158 7 38
343 158 209 126 98 61
414 816 211 64 52 44
332 133 234 113 87 63
412 498 287 145 16 47
260 119 262 112 94 76
311 383 272 122 82 65
298 353 225 85 74 63
311 535 152 184 0 45
341 52 257 117 18 42
334 133 239 115 88 67
223 783 254 152 107 70
331 138 229 109 86 61
332 143 229 107 85 60
334 138 239 113 87 65
298 979 304 62 57 55
380 873 223 66 58 57
335 133 242 114 88 67
334 148 239 109 85 64
252 589 193 118 23 40
332 153 234 108 87 63
334 153 239 108 85 64
336 143 241 111 87 65
394 856 237 91 76 68
313 671 311 164 11 50
343 138 247 119 93 66
341 140 246 119 91 66
336 192 212 117 92 63
348 133 247 121 96 66
350 132 246 118 94 66
358 868 182 92 78 71
374 298 245 131 97 65
284 450 104 90 33 34
353 133 245 117 93 67
437 498 282 108 16 40
351 134 247 119 94 65
348 138 248 122 97 68
376 318 220 107 86 64
308 853 296 171 137 112
242 598 284 92 74 56
348 143 248 121 96 67
338 148 244 114 89 65
354 469 107 142 8 40
288 318 239 95 80 65
258 783 229 80 62 52
313 438 289 67 19 26
330 164 228 102 82 59
278 424 199 95 81 67
341 153 246 111 86 63
288 218 274 121 96 67
443 533 219 145 13 38
258 298 249 143 102 76
388 448 282 145 11 45
343 153 248 112 86 63
338 158 244 109 84 63
341 158 246 110 85 63
348 148 248 121 96 68
353 148 248 120 95 67
290 579 306 163 104 86
313 456 106 180 6 30
273 323 240 120 93 63
273 378 225 100 86 71
308 823 204 61 52 49
353 153 248 121 96 67
255 807 236 76 60 53
441 815 257 75 60 46
331 163 224 105 84 59
328 508 129 68 33 37
383 633 289 161 11 48
368 203 209 117 95 69
332 163 219 109 85 58
337 223 245 114 91 67
411 432 156 108 29 40
273 898 318 159 124 97
260 379 230 101 85 69
473 958 295 90 81 73
305 799 302 55 45 45
266 933 238 61 57 60
330 165 225 103 82 59
247 928 274 111 93 84
378 928 304 42 40 41
293 33 259 88 52 38
428 903 233 100 88 77
302 17 304 165 114 100
408 478 179 45 33 36
343 803 298 156 119 102
330 168 224 103 82 59
330 243 224 112 88 60
265 298 241 131 98 66
329 173 224 102 82 59
241 726 262 68 39 30
446 693 263 163 112 83
386 570 294 110 85 62
210 673 275 152 104 78
343 777 195 58 46 43
330 170 221 105 83 57
282 347 232 93 80 67
382 378 259 117 93 63
387 498 290 53 23 27
333 183 214 119 94 63
363 429 179 96 79 60
341 311 266 104 79 55
447 703 244 130 95 68
333 178 214 117 92 62
379 653 289 147 15 48
355 628 306 138 23 49
358 228 202 124 96 61
389 503 158 163 14 40
343 233 204 130 100 63
479 447 256 129 12 39
376 653 293 159 15 49
330 178 220 107 86 61
376 796 196 48 41 39
329 178 224 104 83 61
348 513 309 149 110 86
345 228 252 121 96 70
474 452 261 125 6 41
337 41 262 117 24 44
360 172 246 118 94 66
247 603 219 176 11 49
288 733 326 187 14 60
338 508 129 67 35 39
348 943 234 72 65 67
330 248 239 106 87 68
483 493 230 89 28 35
318 408 224 81 68 58
330 183 224 105 85 61
513 444 234 152 23 21
333 188 214 120 95 65
270 559 292 123 12 40
334 467 106 181 7 38
368 188 214 112 92 70
329 188 219 113 90 65
358 398 274 138 100 70
330 188 216 116 93 67
238 568 275 38 24 27
235 558 210 120 26 43
371 328 252 127 94 62
331 893 292 110 88 71
329 188 224 108 87 63
273 648 293 135 13 42
328 638 310 83 28 38
264 574 307 142 108 80
330 193 219 116 93 67
395 868 256 43 38 37
330 193 216 116 93 67
351 438 276 107 18 38
262 474 291 158 25 56
368 848 179 85 67 59
348 173 207 125 98 65
223 518 239 72 24 33
403 702 249 59 41 37
353 168 208 124 97 65
353 173 208 125 98 64
364 158 224 119 98 76
368 378 271 130 98 65
263 468 183 55 35 34
267 39 280 131 23 50
343 818 290 201 146 121
339 163 211 125 97 62
283 418 205 96 82 68
339 168 211 125 97 62
263 123 264 112 93 74
343 163 209 126 98 61
399 698 264 83 22 36
303 444 119 77 34 31
392 403 234 86 73 61
216 665 291 143 97 72
343 168 209 127 98 63
501 950 291 91 79 67
331 217 217 114 91 64
333 658 309 35 28 32
339 173 211 126 98 62
410 688 262 84 76 68
337 173 212 124 97 61
430 483 212 128 9 31
238 763 303 165 118 85
342 383 271 132 93 74
256 899 306 170 125 108
343 173 209 126 98 63
337 228 245 115 92 68
348 163 209 124 97 62
498 483 234 116 24 41
261 35 276 119 12 38
335 719 191 61 47 41
353 163 209 122 96 64
415 503 202 131 2 34
222 828 279 202 138 109
388 603 300 184 126 100
273 9 279 88 46 45
333 393 266 108 75 60
348 178 208 125 98 63
353 178 207 126 99 64
250 933 292 185 144 127
269 604 306 166 111 89
341 264 207 137 106 68
330 273 220 108 87 63
353 188 253 123 99 72
337 178 212 126 98 62
367 942 279 79 71 70
408 738 197 78 59 43
361 140 234 112 92 70
393 558 189 99 29 39
339 188 210 119 94 64
338 193 210 114 92 65
283 143 259 118 91 64
372 757 313 62 36 41
331 163 229 103 83 60
333 473 285 146 108 100
298 691 316 145 11 46
330 168 229 102 83 61
333 168 239 108 87 63
278 663 300 72 19 34
310 346 247 91 71 56
329 173 229 104 84 63
301 814 208 60 53 50
437 658 274 160 113 80
276 164 272 118 94 68
518 448 255 97 23 39
210 663 283 165 108 90
330 170 232 100 80 58
330 173 233 103 83 61
277 249 287 126 99 68
333 173 239 107 86 62
319 409 244 78 61 49
462 532 230 71 33 35
335 167 242 110 88 65
367 268 253 132 97 65
333 198 214 116 93 65
360 900 232 67 61 62
330 178 234 105 85 63
399 869 239 79 66 56
449 426 243 74 42 42
330 248 229 108 86 61
333 178 239 108 86 63
275 553 308 137 104 84
353 308 208 98 82 66
330 183 234 105 86 64
397 938 283 82 67 62
330 184 237 103 83 62
403 958 323 58 47 37
388 893 248 75 66 58
334 742 192 48 40 38
330 188 237 103 83 63
288 433 293 86 30 36
338 434 144 85 69 52
332 193 240 107 85 62
377 238 239 122 96 66
341 167 246 113 88 65
302 674 168 100 67 55
428 433 204 128 11 35
343 168 248 116 92 66
348 173 251 119 95 67
325 489 302 135 98 84
225 797 256 178 122 87
277 970 257 77 74 76
256 136 256 113 93 72
353 173 250 122 98 70
228 578 239 164 2 40
343 517 135 117 19 39
267 463 183 87 30 30
338 183 244 111 88 63
278 16 307 189 147 149
433 713 235 111 81 53
405 475 167 140 9 38
340 184 247 113 89 63
337 188 245 111 88 63
235 796 246 170 116 80
394 614 218 79 30 40
343 188 249 117 94 68
346 183 251 119 95 69
463 903 264 86 72 59
298 658 215 126 16 30
354 595 187 62 32 39
348 183 252 120 97 70
323 353 234 72 60 48
353 183 252 122 99 72
381 379 215 97 83 69
330 223 219 112 89 63
310 433 286 84 14 26
346 186 251 120 97 71
356 569 311 184 132 108
251 692 258 60 27 31
313 901 305 137 102 78
367 178 215 111 92 70
345 190 252 121 97 71
436 881 232 80 64 46
353 193 253 122 98 72
418 930 268 78 63 55
354 138 213 113 92 68
367 173 219 116 96 74
366 506 141 51 30 34
397 468 150 163 14 42
361 461 106 185 10 39
229 558 259 138 14 41
287 173 264 116 92 64
358 148 214 109 91 70
360 148 219 110 92 72
361 148 224 116 95 73
393 668 269 75 26 35
380 645 232 37 29 37
360 152 218 109 91 71
511 896 262 95 77 62
282 688 203 71 52 41
339 445 96 136 31 29
416 425 226 85 55 48
361 153 219 111 92 72
361 149 221 113 94 73
412 841 264 135 84 65
313 598 301 158 14 49
380 328 229 116 92 66
395 688 229 62 47 44
355 555 162 27 38 40
273 418 204 96 83 70
325 430 290 79 21 32
363 153 224 116 96 74
353 513 135 80 29 37
258 303 279 132 101 75
383 943 284 60 43 36
378 843 199 71 60 57
381 266 226 126 97 62
370 430 135 131 67 53
328 978 259 85 81 83
413 768 209 94 68 50
348 243 202 130 99 61
283 806 297 76 64 56
361 155 216 107 89 69
296 300 297 112 88 61
358 133 239 112 91 67
368 318 254 126 93 60
270 674 231 76 41 42
359 138 239 113 92 67
295 362 225 86 75 64
361 140 231 113 92 70
242 603 229 74 30 36
257 778 301 148 105 78
260 948 246 65 61 62
366 772 197 68 52 49
303 373 233 95 75 57
348 213 254 122 98 72
261 632 302 160 104 82
264 68 268 112 58 57
461 541 236 109 15 36
360 141 227 115 93 69
361 143 234 114 93 70
310 436 286 78 15 24
314 782 185 76 58 45
348 653 213 55 34 39
238 813 309 174 132 103
360 143 240 114 92 68
361 143 238 115 93 69
297 318 302 131 91 67
311 368 235 107 84 68
356 130 242 113 91 68
348 733 324 39 29 32
357 138 243 117 93 67
361 148 239 117 95 70
387 846 267 43 31 32
363 153 234 112 91 69
364 158 229 116 95 72
310 388 275 123 85 65
355 148 246 117 94 67
279 840 281 59 48 46
226 533 219 122 11 37
213 743 294 171 117 91
287 248 283 120 95 65
334 882 197 71 62 60
306 824 208 60 52 50
355 152 246 120 96 68
389 838 214 60 50 47
273 713 319 90 25 38
360 147 241 116 94 68
324 353 249 75 61 44
418 733 215 69 49 39
358 153 244 119 95 69
361 154 242 118 95 69
301 278 269 112 88 59
354 500 127 55 33 40
303 508 138 86 28 36
361 158 242 116 94 68
248 663 299 157 103 81
383 925 298 38 36 38
289 798 218 62 51 45
309 338 284 119 83 58
229 558 224 160 3 43
282 953 311 48 44 45
358 173 209 124 98 66
258 478 290 74 27 38
311 338 243 79 65 51
362 163 214 109 90 71
361 164 211 115 94 70
243 903 299 142 109 88
303 580 177 109 37 46
376 273 242 131 98 65
324 965 310 62 54 51
284 723 204 58 44 35
365 167 218 113 93 73
211 723 268 150 108 77
223 818 269 182 124 92
366 169 220 117 97 75
293 448 94 91 41 40
262 493 173 61 34 34
362 173 210 121 97 68
374 268 245 132 100 64
265 214 282 120 98 75
394 902 244 78 68 61
289 473 124 102 17 35
398 628 244 66 34 37
368 173 224 122 100 77
287 463 168 69 29 30
374 528 157 56 34 37
325 378 254 73 55 37
273 393 299 146 108 82
282 964 311 57 53 53
301 446 162 89 27 27
358 188 207 124 97 62
358 192 207 124 97 65
334 843 285 164 130 107
316 441 120 69 37 29
338 313 265 96 73 50
363 188 209 122 97 66
363 193 208 124 98 66
268 43 278 120 89 72
329 353 263 78 58 41
294 297 296 112 89 63
420 756 219 68 53 47
363 183 209 121 96 65
350 945 242 76 70 71
365 178 212 111 91 69
466 860 244 89 78 68
298 28 289 146 59 69
367 183 214 111 92 69
251 614 223 167 22 46
231 523 271 97 22 37
368 178 219 117 96 74
434 946 280 133 120 111
369 178 224 121 99 76
369 183 219 117 96 73
398 798 205 76 60 53
445 492 222 121 6 24
288 438 180 99 33 23
370 183 224 120 98 74
280 946 221 75 69 70
354 243 201 130 99 59
231 524 202 121 9 32
234 841 284 202 129 101
265 421 202 97 84 70
371 189 220 118 97 74
393 488 154 134 20 38
283 19 305 151 107 87
238 608 299 132 103 72
371 193 219 119 97 74
246 591 288 102 83 62
431 572 263 102 22 43
363 458 280 104 25 40
266 743 311 177 18 57
372 338 214 102 87 72
239 827 260 189 128 97
262 718 233 109 19 35
328 293 244 79 66 54
243 608 304 137 106 77
393 773 204 57 46 41
420 661 282 194 128 100
372 193 224 120 98 73
318 21 283 159 111 90
220 826 287 204 141 114
353 430 174 94 79 61
365 162 229 116 95 72
258 328 279 138 105 78
270 10 271 84 57 53
343 863 184 75 63 63
329 619 308 43 28 29
311 338 274 108 76 51
258 548 280 89 17 36
348 723 204 66 33 34
366 164 229 115 94 71
352 243 202 130 99 60
365 163 234 116 94 71
366 164 233 115 93 71
436 548 216 110 24 36
366 169 238 117 94 70
343 480 112 139 16 38
447 743 258 148 97 67
410 703 209 67 53 44
367 173 234 115 94 70
357 163 248 119 95 67
295 811 216 53 45 42
359 163 245 118 95 69
386 923 254 75 65 62
312 868 204 52 46 46
303 397 214 86 72 57
357 168 248 121 97 70
362 168 244 119 96 70
361 175 247 120 97 70
411 859 232 75 68 63
337 198 245 112 89 65
253 918 299 178 127 115
348 393 273 136 96 75
353 960 303 78 66 58
441 547 272 185 0 59
369 463 282 59 29 33
477 899 272 90 74 60
260 753 298 130 20 43
311 378 244 126 94 77
367 178 239 118 97 73
437 508 216 141 4 39
298 519 302 137 105 81
286 748 197 62 46 38
292 728 182 64 49 39
288 198 269 118 93 64
304 420 196 83 71 58
445 658 260 148 102 71
368 440 101 93 76 61
273 168 273 118 96 71
311 520 302 148 107 80
261 269 237 131 96 61
277 168 272 117 94 68
367 183 239 119 97 73
355 181 251 122 98 70
274 403 210 92 81 70
261 372 232 108 90 71
402 458 280 48 24 26
428 773 234 80 60 49
358 178 249 121 97 70
334 600 187 204 11 42
358 183 250 123 99 72
251 527 172 50 34 34
331 740 191 46 40 37
356 184 252 123 99 70
424 503 207 48 38 39
335 878 286 154 121 97
335 254 247 100 81 60
288 88 264 123 96 71
359 188 250 124 99 72
373 919 278 40 37 36
308 673 312 161 13 52
418 513 203 103 20 34
357 189 252 124 100 72
364 178 244 118 95 70
284 898 240 125 90 65
280 172 271 115 92 65
327 353 222 77 66 55
362 183 248 121 97 70
364 188 245 120 96 70
261 707 237 116 6 32
368 188 239 119 96 70
258 488 288 91 26 38
463 958 298 89 81 74
440 743 271 175 116 87
365 192 246 120 96 70
383 872 169 91 83 82
347 233 202 129 99 63
219 813 274 181 124 93
263 448 190 119 17 28
310 445 144 76 63 52
302 318 298 130 91 67
210 683 279 158 108 82
258 574 173 68 34 37
368 178 229 115 94 70
371 193 229 117 95 70
370 192 231 115 93 67
381 259 228 123 96 62
241 543 183 64 28 35
288 938 313 145 114 95
369 188 234 116 94 70
348 203 254 121 97 70
248 893 294 150 71 84
293 683 314 137 14 43
323 12 274 150 84 90
369 193 239 118 95 70
329 198 219 115 93 68
346 851 187 79 69 65
330 198 216 116 94 68
275 535 142 149 39 57
353 238 201 129 99 61
343 533 313 161 116 87
262 288 242 136 97 66
374 833 204 65 55 55
331 208 217 113 90 64
282 403 297 152 107 81
303 873 243 100 78 58
338 628 204 68 36 42
338 443 99 117 50 35
250 529 287 74 31 35
332 203 240 106 85 63
331 213 218 111 89 62
375 685 211 80 41 30
358 363 271 134 97 68
332 223 214 119 94 64
473 448 229 75 27 36
418 939 298 63 55 49
333 483 113 116 20 39
444 483 222 127 6 30
334 223 210 126 98 65
382 902 268 52 46 43
329 218 224 109 87 63
253 898 304 164 116 100
375 217 230 116 94 68
478 493 229 139 18 36
210 663 275 156 104 81
330 223 216 116 92 63
259 664 282 40 26 26
343 198 207 114 93 68
362 497 130 96 23 35
233 838 274 220 147 120
338 203 209 121 96 65
252 558 280 124 3 37
338 208 208 125 98 65
249 898 265 150 111 87
328 977 249 85 80 83
274 547 292 139 9 44
342 202 207 120 96 68
261 969 284 59 55 55
340 208 206 126 99 65
290 464 166 51 33 31
261 813 302 155 121 88
418 693 273 115 79 58
345 199 206 113 93 69
353 198 206 116 94 69
440 678 271 168 115 87
463 493 270 154 0 49
446 556 258 104 16 36
328 283 229 97 80 61
348 203 205 116 95 70
423 663 280 191 124 97
353 203 205 114 94 70
430 804 281 184 128 101
353 208 204 117 94 68
293 903 316 179 135 109
338 198 209 117 94 66
252 948 289 195 145 128
337 223 208 130 101 65
274 328 293 125 95 67
320 404 238 78 65 53
430 766 231 74 55 46
339 333 211 98 83 67
343 223 204 129 99 62
344 258 253 118 92 67
483 473 263 44 31 31
348 223 203 127 98 61
264 368 230 108 91 72
329 198 234 106 86 66
256 542 157 57 28 32
369 238 250 127 99 66
439 438 275 143 8 43
319 878 196 71 62 59
373 523 155 47 32 37
502 482 254 74 26 34
420 738 217 66 47 36
330 198 237 103 83 62
282 497 130 78 22 32
284 777 307 76 63 58
328 208 229 109 89 66
442 768 263 153 103 74
329 203 234 105 86 64
330 203 237 102 83 62
252 703 249 111 10 32
359 868 270 45 39 37
353 723 325 52 31 34
325 725 204 73 39 42
338 253 208 132 102 67
287 718 214 77 31 35
330 208 238 102 83 63
423 426 228 93 35 35
288 183 264 117 93 65
332 208 240 105 84 63
392 414 220 88 77 66
335 208 242 110 88 64
329 213 234 105 86 65
327 318 255 69 57 43
330 213 237 100 82 62
343 472 106 192 9 37
413 921 274 40 36 35
382 714 317 89 22 36
281 457 106 101 19 36
344 466 101 182 7 39
332 213 240 104 83 62
341 971 266 81 75 79
329 223 229 108 87 63
370 318 251 127 96 61
317 793 188 85 62 45
335 238 211 128 100 65
258 453 190 121 16 28
488 437 249 78 24 30
430 648 281 157 109 78
350 717 195 57 46 42
332 218 240 103 83 61
438 473 218 98 23 33
329 223 234 106 86 65
301 305 297 114 85 57
252 678 269 58 33 31
382 738 313 47 28 32
359 458 103 171 9 44
332 223 240 103 82 61
334 238 243 106 85 63
245 583 274 71 26 35
293 434 292 116 16 40
334 223 242 108 86 64
242 764 302 164 116 83
343 198 250 118 94 68
304 352 239 81 68 56
358 343 269 131 94 66
226 524 256 39 29 33
403 963 324 64 53 44
343 698 195 53 41 37
337 203 245 112 89 65
330 419 303 129 14 41
340 203 247 115 91 66
312 490 127 143 10 36
337 208 245 113 89 65
398 918 254 77 66 59
297 283 284 112 86 58
330 228 219 114 91 64
369 233 207 125 98 63
415 439 177 83 26 34
274 353 231 99 84 69
348 198 253 122 98 72
348 474 108 140 19 40
345 203 252 120 96 69
294 38 258 124 27 36
353 203 254 125 100 73
323 338 234 74 63 51
353 208 254 126 101 73
268 958 304 74 61 59
273 683 304 59 28 33
337 213 245 114 90 66
368 343 210 96 83 71
374 648 295 159 15 50
328 13 264 126 74 72
436 423 277 114 19 40
442 778 264 136 89 62
398 533 184 58 29 36
340 218 247 117 92 68
340 223 247 118 93 69
226 553 239 157 0 44
345 213 252 120 96 70
269 378 297 138 103 78
363 758 198 57 46 43
348 223 254 123 98 71
438 983 305 101 85 72
287 478 124 82 23 33
353 218 255 126 101 73
332 228 214 120 95 65
422 592 239 196 16 52
334 228 210 126 99 66
338 320 211 99 83 67
403 643 264 130 82 72
278 478 104 149 5 38
310 402 271 95 70 52
330 226 216 116 92 62
283 18 259 87 73 58
402 617 234 123 31 46
330 233 220 115 90 62
348 527 145 191 10 42
329 233 224 111 88 60
488 458 258 71 25 34
378 553 170 173 7 38
393 458 280 107 16 34
303 484 123 185 10 39
332 238 214 124 98 66
413 463 286 89 25 37
277 831 292 69 59 56
278 183 275 116 93 66
331 238 217 120 95 64
263 958 299 130 95 85
256 357 248 109 89 67
330 238 224 110 87 60
343 373 271 131 93 71
277 438 297 37 29 29
335 242 211 128 100 66
332 243 214 125 98 65
378 850 261 38 33 30
333 248 214 125 98 65
321 437 300 55 28 29
252 788 233 75 59 51
263 10 279 93 35 39
331 248 218 120 94 64
441 561 262 49 18 30
330 248 220 117 92 63
399 703 214 83 64 56
330 248 224 112 89 61
272 707 316 78 22 35
350 23 269 128 20 47
313 38 259 97 14 36
268 638 290 108 18 35
285 95 266 125 26 50
339 228 206 130 100 63
337 233 208 130 101 65
473 436 232 80 39 36
229 808 255 173 119 84
285 484 123 94 20 35
339 233 206 129 99 61
427 567 216 165 19 45
337 238 208 131 101 65
343 238 204 131 100 63
349 230 201 128 98 62
348 238 202 129 99 62
244 608 269 94 22 36
352 240 202 130 99 62
330 253 229 106 85 60
431 526 211 82 16 33
337 248 208 131 102 66
340 248 206 132 103 67
334 323 263 79 61 43
352 249 202 131 99 59
218 648 289 135 101 72
308 643 210 113 23 35
310 308 253 116 91 66
353 253 202 130 99 60
400 575 276 133 15 42
260 635 300 156 98 80
344 308 267 109 82 58
383 891 252 71 63 56
328 658 211 73 33 34
330 228 238 101 82 61
312 699 200 66 37 38
308 24 274 118 23 43
329 238 229 108 86 62
348 373 272 136 96 72
348 358 205 91 80 70
239 763 249 117 91 59
333 974 269 76 70 70
303 953 224 81 76 80
264 663 240 137 0 36
263 283 284 125 96 70
278 876 257 104 80 51
329 238 234 107 87 64
374 634 218 51 32 36
378 623 214 57 31 37
216 743 296 171 118 91
344 896 210 51 46 47
388 682 219 81 45 43
458 523 225 53 32 36
298 648 214 106 23 33
329 243 229 109 87 61
330 243 238 105 85 65
404 790 202 78 59 48
267 421 202 95 82 69
337 437 294 159 18 52
329 253 239 111 92 73
337 413 198 88 76 65
318 473 115 164 4 38
331 243 241 101 80 60
356 764 202 58 44 40
333 243 243 103 82 61
277 891 316 170 133 105
298 843 234 122 86 69
212 713 269 146 105 74
333 248 244 100 80 60
367 223 205 123 97 64
330 250 242 99 79 58
428 508 209 46 38 39
424 903 234 97 84 71
298 568 170 66 31 37
375 213 219 120 97 71
366 791 176 128 98 71
286 498 291 52 24 27
330 253 242 98 81 62
440 738 270 177 118 91
339 228 247 119 95 70
337 238 245 113 90 66
334 358 267 110 77 58
339 238 248 117 93 68
345 233 252 122 97 70
303 378 233 97 77 61
253 813 305 164 126 93
333 27 279 140 46 59
265 509 166 43 31 30
345 238 252 123 98 71
380 333 229 116 93 66
473 458 229 123 7 29
232 618 294 134 104 71
407 908 248 72 63 56
337 243 246 109 87 64
348 488 294 95 69 61
339 243 248 113 90 66
336 248 246 105 84 62
223 633 284 130 103 71
439 912 236 92 78 68
242 767 243 125 95 58
339 248 248 111 88 65
483 473 229 127 11 31
225 551 238 159 0 44
331 268 218 112 90 64
342 248 250 117 92 68
242 598 294 129 102 74
285 504 123 90 34 40
396 713 288 147 7 45
493 468 260 67 27 31
348 243 255 125 99 72
488 493 231 50 34 37
273 438 298 68 25 34
347 248 255 125 98 71
426 661 282 188 121 96
358 208 204 117 95 69
387 753 303 114 29 46
288 238 279 120 95 67
303 959 227 86 82 86
358 223 202 123 96 63
363 213 205 119 95 66
389 663 275 79 26 35
427 553 210 71 34 35
366 213 206 120 96 66
436 768 226 71 56 47
369 213 208 120 96 68
244 573 194 82 33 38
369 218 208 121 97 68
371 194 216 115 94 71
266 840 247 91 68 60
370 198 213 113 93 70
325 418 203 87 74 61
300 406 207 89 75 60
231 554 218 103 26 42
343 558 160 134 24 41
374 203 224 121 98 72
272 533 285 107 5 35
363 408 195 95 80 65
333 905 204 65 61 63
374 208 219 121 98 72
427 887 234 78 66 55
373 434 114 105 77 58
388 773 203 58 44 42
293 423 203 93 78 63
375 208 224 121 98 73
498 448 254 45 26 29
328 418 283 77 22 33
386 393 258 117 92 64
403 608 224 89 30 40
280 298 297 126 94 68
371 214 210 112 91 68
236 543 198 145 9 36
210 743 269 155 109 79
375 212 224 121 98 71
404 569 276 69 24 34
313 442 149 74 59 46
293 438 293 115 22 40
