ply
format ascii 1.0
comment Created by Open3D
element vertex 2227
property double x
property double y
property double z
property uchar red
property uchar green
property uchar blue
end_header
379 371 228 88 75 62
463 561 284 116 22 42
328 426 221 67 35 31
283 366 282 127 99 68
307 827 236 86 66 58
434 390 225 126 103 78
377 371 232 83 71 59
338 954 320 83 78 78
413 926 252 67 60 58
377 376 232 84 72 60
259 621 307 168 119 92
381 371 225 92 78 65
408 316 283 126 91 66
400 860 254 70 52 42
437 760 281 85 69 62
362 419 201 78 65 55
464 473 284 97 26 40
381 375 225 92 79 67
376 371 237 82 70 57
378 381 227 85 74 62
479 787 202 131 87 65
466 742 155 102 73 53
498 491 235 110 10 28
376 380 232 83 72 60
380 381 224 88 76 64
433 371 237 109 89 67
433 860 248 38 34 31
481 726 227 125 83 53
380 378 224 94 81 67
458 422 277 65 56 48
398 876 267 32 29 29
376 379 235 82 71 60
375 371 247 78 65 52
430 341 237 108 88 67
375 376 242 79 67 55
476 495 194 39 36 41
350 395 277 96 76 55
363 441 147 124 14 34
275 466 224 60 36 36
408 751 296 119 45 56
375 371 257 87 71 54
375 376 257 88 72 55
285 321 287 135 102 73
374 381 242 80 68 57
494 424 213 74 22 28
303 346 323 144 104 80
489 791 226 90 67 52
374 381 257 87 72 56
376 370 241 80 67 55
433 881 307 43 39 38
398 409 185 92 78 64
276 501 221 60 29 31
478 741 128 101 79 59
292 566 217 118 27 43
376 374 240 81 69 57
528 451 252 54 29 33
516 432 227 138 23 38
383 422 127 113 61 43
262 546 282 139 6 38
383 426 127 143 15 29
383 446 127 143 9 35
273 407 252 116 20 38
272 411 252 134 10 38
272 416 247 129 7 34
488 491 276 88 20 36
418 361 218 91 82 72
478 425 232 56 24 23
284 402 253 111 85 70
313 965 273 88 84 86
283 400 257 113 79 64
390 344 224 94 81 67
287 396 257 101 84 67
435 561 304 158 18 51
443 571 202 157 2 37
513 811 272 84 62 47
325 630 300 141 35 56
308 401 232 95 82 68
289 397 253 105 88 72
531 840 257 105 88 76
438 436 292 60 28 34
390 804 174 66 55 49
278 407 238 133 16 30
275 408 239 128 14 33
408 701 303 104 27 41
275 411 239 120 21 31
275 416 238 110 19 32
438 681 222 46 41 48
277 416 236 105 22 24
484 441 202 83 34 40
454 806 177 73 58 50
432 671 271 156 16 48
276 571 261 100 19 34
288 406 232 141 15 21
283 411 232 112 24 22
305 907 286 98 83 76
291 424 325 56 42 32
403 396 203 95 81 66
282 415 231 109 25 25
303 681 257 40 33 37
348 966 237 90 87 92
288 411 228 112 20 27
294 371 316 134 103 77
374 451 133 134 16 34
483 841 257 79 64 57
272 456 242 95 26 37
436 417 154 148 46 40
289 407 229 134 15 28
303 356 322 142 103 80
453 705 194 72 60 49
284 417 229 106 26 27
275 716 295 174 121 95
286 414 230 113 27 24
339 351 266 134 103 77
432 356 257 117 93 67
278 406 242 148 14 35
343 356 282 105 79 55
505 778 250 87 69 53
369 401 257 71 60 49
413 271 268 121 90 60
278 405 247 130 27 35
378 541 301 70 25 34
335 448 189 76 26 29
273 406 257 122 25 39
431 702 295 132 9 41
332 627 304 44 27 31
277 404 257 112 44 46
254 551 327 171 120 97
537 510 261 196 137 116
272 416 257 131 11 38
491 635 245 185 131 101
463 491 188 88 29 34
283 405 242 125 30 30
517 443 246 71 19 26
282 404 251 100 67 53
308 326 327 138 96 77
289 402 249 97 82 68
308 946 297 148 106 89
413 321 223 95 80 65
318 721 216 125 9 30
288 422 223 80 35 32
262 506 307 35 30 29
443 496 280 91 32 40
388 756 295 79 62 56
288 426 222 50 38 36
428 441 157 52 36 40
288 431 220 47 36 35
398 417 147 92 76 58
280 436 224 95 31 31
279 441 223 49 33 36
283 446 344 81 19 31
395 487 146 133 24 43
421 439 137 164 0 42
278 446 222 59 35 37
283 436 222 76 35 30
421 874 199 70 60 59
289 436 219 89 33 31
310 901 259 162 118 97
381 911 189 74 66 64
439 391 257 107 86 63
281 445 220 82 36 37
280 442 344 83 18 32
503 805 267 92 80 70
454 837 217 83 64 59
438 401 227 90 77 63
288 446 217 47 37 38
278 421 232 106 26 26
357 420 206 80 60 52
325 448 214 65 32 33
341 316 282 106 82 59
488 801 252 56 47 38
482 601 224 129 98 62
352 511 167 69 30 35
280 422 229 101 35 28
276 421 235 109 23 28
312 587 210 177 6 42
481 716 222 126 90 57
278 431 227 105 23 27
274 426 237 124 12 32
339 702 315 98 29 40
275 426 234 112 18 30
275 431 233 122 15 32
344 531 314 73 29 36
274 431 237 130 11 33
367 436 142 144 1 34
273 421 242 127 9 34
408 491 159 158 1 33
272 421 252 139 2 38
273 426 242 132 6 35
272 426 247 135 7 37
272 431 247 135 3 36
338 301 282 106 85 62
408 576 185 65 31 39
312 884 303 125 92 76
346 858 235 174 122 91
349 706 204 82 27 32
358 446 152 129 15 37
272 431 252 138 3 37
274 431 257 139 5 39
398 436 304 117 20 40
274 436 232 108 24 34
275 438 229 109 24 31
293 486 201 98 24 29
275 441 228 92 29 38
351 699 205 112 20 34
289 331 272 125 97 66
438 441 293 119 18 40
264 651 292 150 104 71
276 434 230 119 24 33
265 776 280 168 116 88
273 436 237 100 23 34
447 900 282 82 70 63
348 716 203 129 8 31
457 591 281 103 29 41
273 441 237 64 32 35
522 798 261 85 70 53
377 751 195 127 12 30
430 414 180 109 77 63
343 821 215 81 64 56
273 446 232 48 33 36
486 902 306 107 84 63
276 446 225 85 30 37
361 766 200 74 60 51
280 433 224 114 24 27
482 741 207 119 86 56
413 416 297 133 22 41
379 746 194 78 28 33
543 486 272 181 130 122
482 551 240 96 50 42
272 436 242 102 19 33
272 436 247 120 13 35
272 441 242 95 25 36
408 261 214 136 100 61
303 751 222 125 12 32
413 419 140 108 72 57
334 486 169 51 35 39
273 441 252 134 6 37
304 891 297 166 122 103
456 804 142 112 85 63
303 416 223 108 21 26
429 552 185 94 34 43
308 416 222 104 22 26
313 411 223 94 55 43
409 641 210 68 32 35
313 416 222 99 25 27
343 551 181 66 35 38
333 426 323 139 15 43
513 506 268 94 58 56
317 412 224 91 66 52
256 488 355 132 92 72
418 606 301 167 18 54
318 416 222 93 35 32
414 472 155 146 12 36
448 890 309 66 59 55
472 789 127 126 97 71
303 401 237 99 84 69
443 415 177 123 41 42
343 556 318 91 28 40
304 397 238 97 83 68
459 761 254 137 94 69
288 391 257 100 84 67
423 361 222 93 83 74
291 390 255 96 82 67
368 975 287 82 80 81
330 472 169 69 37 36
293 391 252 93 81 67
295 392 249 92 80 69
293 401 247 98 84 70
292 395 251 100 85 70
438 896 252 69 58 56
310 839 248 82 66 63
378 701 199 116 15 29
470 530 274 117 5 35
290 393 254 98 84 68
298 386 248 94 82 69
302 386 245 97 84 70
448 506 186 154 4 34
298 781 297 176 132 99
303 391 243 96 83 69
296 385 250 94 81 68
278 541 232 176 11 47
297 395 245 95 83 71
498 541 236 135 104 70
298 401 241 97 84 70
454 445 289 80 21 31
342 435 207 64 34 29
325 472 187 51 30 30
443 881 308 50 45 42
306 448 214 66 34 28
296 399 245 97 84 72
293 405 232 112 44 23
448 626 236 99 39 42
297 346 318 133 98 74
293 405 237 95 74 51
425 336 230 97 83 70
503 536 236 156 116 80
293 411 226 112 20 25
298 407 227 109 36 29
333 286 292 120 95 66
303 405 232 97 84 69
331 454 195 70 31 27
373 407 307 63 51 39
378 801 281 186 132 110
298 405 237 96 83 66
401 910 218 68 60 60
426 266 223 116 90 60
329 408 229 94 80 67
488 456 207 83 30 33
296 699 255 76 52 39
363 581 312 160 11 50
302 405 236 97 83 69
356 498 160 142 0 38
378 779 290 82 65 56
492 437 276 113 25 42
363 417 152 101 42 32
401 939 292 57 49 48
286 326 292 137 105 75
341 331 297 125 91 66
463 832 232 155 103 84
368 800 189 81 64 56
299 412 224 111 14 25
298 416 224 109 22 26
296 414 225 103 21 23
303 409 225 113 31 23
393 409 186 93 79 65
293 405 242 95 80 60
373 671 205 46 36 36
427 426 132 156 30 42
453 431 179 131 15 33
291 404 245 93 81 64
323 556 187 111 23 38
309 391 239 97 83 68
388 596 307 102 32 43
313 391 237 98 84 69
473 456 288 61 28 31
378 811 276 181 123 102
447 570 204 161 3 37
388 906 188 77 68 66
332 455 182 83 23 30
393 697 199 55 32 33
308 396 237 97 83 69
307 399 235 97 83 70
313 395 235 98 84 69
313 397 233 97 83 68
313 511 327 146 7 45
313 400 231 93 80 67
407 935 287 56 49 46
467 800 188 85 64 53
310 398 234 97 83 70
328 661 221 126 8 32
333 456 326 80 28 36
409 646 294 44 30 34
443 706 167 62 47 36
318 395 236 100 85 69
348 957 318 72 68 68
307 391 241 98 84 69
393 599 194 178 17 43
502 581 242 165 118 78
414 583 190 47 36 42
306 394 240 97 83 69
395 478 299 182 11 57
287 470 340 159 16 50
257 532 302 65 29 35
318 386 241 98 83 68
307 405 230 96 81 65
310 403 229 93 80 66
308 409 225 92 69 49
267 791 282 178 125 97
317 402 229 91 78 66
389 826 268 150 111 91
418 391 208 97 83 68
268 566 328 178 123 101
318 406 227 91 78 65
468 771 248 162 116 86
319 410 226 91 77 63
358 676 206 112 17 29
321 837 231 75 60 56
348 526 173 139 11 36
293 421 223 62 34 30
317 578 324 160 35 59
293 426 221 38 36 40
471 535 229 40 36 38
293 431 220 44 36 37
363 923 321 37 35 36
418 261 216 131 97 59
295 428 219 53 37 29
471 590 256 90 38 39
345 375 276 107 82 57
303 421 222 89 28 27
398 886 177 91 79 72
349 911 198 87 78 77
468 536 276 98 2 30
295 278 305 115 93 69
321 292 311 110 87 61
298 426 220 76 30 30
298 429 220 77 33 29
448 825 246 142 103 82
403 418 142 93 77 61
297 275 304 103 85 65
303 426 220 73 33 30
303 431 218 58 36 35
462 531 198 141 12 36
348 751 201 61 36 39
449 426 176 69 38 38
429 471 166 68 32 36
302 429 220 63 33 34
422 391 285 138 100 69
388 419 140 90 76 57
327 809 285 67 54 50
330 913 224 154 105 71
290 433 219 69 33 34
288 535 331 131 20 47
293 436 218 68 36 35
397 950 243 76 67 67
293 441 217 54 36 35
288 281 297 117 93 66
274 451 232 68 34 39
293 446 216 72 33 30
423 907 297 66 55 48
303 441 216 64 34 32
403 404 195 93 79 64
298 446 215 56 35 33
313 431 219 79 29 30
303 448 214 49 35 33
418 446 147 156 2 38
308 421 221 82 29 28
353 855 287 120 97 73
437 701 182 62 52 44
388 416 152 92 74 56
418 419 137 112 70 55
294 426 339 164 18 53
308 427 219 60 34 35
311 521 330 47 23 28
473 671 248 172 126 98
318 421 221 88 27 28
438 766 277 91 73 65
269 436 322 54 30 32
314 429 220 84 28 27
318 430 220 87 29 24
313 446 215 60 32 33
262 537 297 105 26 42
318 436 218 78 29 28
484 867 277 93 73 57
342 336 287 116 85 62
418 626 293 144 34 54
290 418 224 108 28 26
377 959 301 60 56 57
304 701 294 98 68 60
298 501 193 93 26 31
463 417 217 69 20 26
274 481 227 143 11 38
304 503 189 100 28 28
288 476 207 89 33 34
298 506 192 92 26 30
456 766 256 141 98 70
342 331 292 124 89 66
297 511 191 120 17 31
494 901 287 99 79 71
317 516 326 149 11 46
299 511 188 122 13 31
294 341 316 129 98 71
438 467 294 80 25 34
383 596 193 128 14 37
415 877 191 72 63 60
422 386 213 99 85 70
339 376 307 128 94 70
283 571 242 64 26 36
393 727 194 71 31 33
301 505 190 98 27 30
457 776 256 144 104 73
319 486 177 40 33 34
333 960 316 65 59 57
318 586 318 51 30 34
463 686 213 95 77 56
320 487 174 64 34 32
496 814 249 101 80 62
317 491 177 54 32 36
456 729 155 63 48 43
493 621 232 142 103 69
317 496 177 70 32 36
424 587 304 178 12 55
458 731 152 70 52 44
319 496 173 63 34 36
356 789 290 76 59 53
308 496 191 92 26 27
464 816 197 82 65 59
497 611 242 171 118 84
408 384 210 95 82 70
453 641 247 131 81 71
312 491 191 62 33 31
320 482 182 34 30 32
299 556 203 166 10 41
270 542 334 178 125 103
436 515 179 123 10 30
258 601 312 167 120 93
318 486 182 35 30 31
315 487 189 43 33 31
353 420 167 68 32 35
331 762 205 71 56 53
459 791 254 162 120 91
320 482 187 53 29 28
302 814 290 186 140 111
308 468 204 46 36 39
280 411 292 103 79 59
294 562 314 130 12 40
314 496 182 37 31 30
316 491 182 36 30 29
287 537 328 87 19 32
423 276 223 115 89 58
388 422 123 110 65 43
489 816 267 68 57 46
314 492 188 40 31 30
323 401 232 94 80 65
316 490 186 44 33 30
306 724 225 76 19 26
503 430 223 82 22 31
252 546 317 182 129 107
314 501 177 59 31 30
346 409 225 87 72 58
315 502 174 112 26 32
363 566 178 145 20 43
316 500 175 77 42 37
313 511 177 120 18 39
398 456 122 165 1 33
373 386 252 81 68 52
480 899 289 80 66 59
383 621 204 60 37 41
443 677 222 68 59 53
430 409 200 102 86 68
318 506 174 130 14 37
422 885 213 80 67 63
436 639 229 95 20 25
341 439 172 67 32 33
392 579 184 104 31 42
440 401 247 103 84 64
318 511 176 170 4 36
303 496 193 90 27 28
407 795 275 75 58 53
346 638 215 125 11 30
411 875 183 85 72 64
363 501 152 54 34 39
305 508 184 62 30 33
427 501 285 78 26 34
310 507 179 49 33 36
273 467 349 168 14 54
311 504 180 62 32 34
363 716 199 123 19 34
483 481 273 108 14 37
333 859 261 102 76 53
310 511 179 80 30 37
383 402 282 61 50 37
330 658 300 150 16 45
280 451 219 93 37 35
323 391 319 138 98 73
279 456 218 52 35 37
279 461 218 49 37 38
277 461 222 44 35 39
403 577 185 107 36 45
342 371 302 123 90 64
360 441 149 100 19 32
282 456 216 57 37 36
377 501 300 161 6 50
327 455 202 67 30 29
271 523 245 163 7 43
435 395 225 146 116 87
288 451 216 49 36 37
380 852 202 50 47 49
429 286 242 124 96 63
324 331 323 128 90 69
288 461 212 78 33 34
288 466 210 67 36 36
278 471 217 110 30 37
386 393 274 71 56 39
276 471 221 94 29 36
383 536 165 100 23 37
280 476 214 51 31 38
411 465 149 162 3 37
493 421 207 76 25 33
280 481 214 119 22 37
368 851 221 123 87 68
385 266 224 130 98 64
278 481 217 65 27 35
313 471 202 51 35 34
275 476 223 52 32 38
275 481 223 108 22 40
276 476 221 46 34 38
329 535 179 92 33 39
276 481 221 50 27 33
439 401 237 97 80 62
283 471 212 66 36 37
353 746 201 51 35 39
404 315 284 123 92 67
280 472 214 89 36 34
289 467 209 63 37 37
398 666 206 85 27 32
282 481 211 120 21 36
285 473 209 45 37 43
284 481 209 110 25 36
334 356 313 138 97 72
393 491 296 160 10 48
380 783 189 70 55 49
271 456 252 122 13 36
271 455 257 126 10 34
348 561 183 164 9 39
271 459 251 129 4 35
270 461 252 130 5 35
343 541 178 114 25 38
361 486 151 65 38 40
371 395 252 79 66 53
270 458 257 129 3 36
488 427 232 67 23 24
270 462 249 132 4 34
335 929 209 76 66 64
272 476 232 84 26 36
270 473 239 138 7 40
423 417 152 106 81 64
270 476 238 129 9 36
454 566 211 157 5 39
420 360 220 93 83 74
272 481 232 136 7 38
271 482 236 136 6 36
344 391 297 120 89 65
271 464 246 129 8 34
272 521 237 65 29 37
458 880 303 62 53 45
271 470 240 119 12 37
428 586 302 177 15 56
269 471 247 137 4 36
418 416 296 136 21 43
269 466 257 134 4 37
269 471 252 134 4 36
348 686 208 117 15 29
268 471 257 132 5 35
518 481 236 83 23 32
269 476 242 136 4 35
327 563 190 70 40 35
488 785 244 51 40 29
503 496 281 69 27 33
343 822 278 129 94 79
268 481 247 139 4 37
315 941 310 160 120 102
432 865 203 72 60 56
268 476 252 113 11 35
471 871 290 75 59 48
274 451 227 101 31 38
375 858 209 59 55 56
420 714 304 159 11 49
275 455 224 55 37 37
550 474 260 56 45 34
353 696 311 147 6 46
274 456 227 67 35 37
273 456 232 70 33 38
273 456 237 77 29 36
473 606 224 127 97 61
428 621 212 85 33 40
342 471 165 142 4 33
343 856 237 182 124 94
273 461 232 64 32 36
258 461 356 134 9 41
276 456 225 59 40 40
304 426 334 111 17 39
272 461 237 89 29 38
477 735 130 111 79 51
318 462 208 67 36 32
390 811 178 56 47 45
272 451 242 57 31 36
437 396 237 99 82 63
272 451 252 66 26 35
408 437 115 47 38 41
508 467 237 78 33 37
372 745 305 45 39 38
326 455 206 65 32 30
272 466 232 64 33 37
273 471 227 47 34 36
448 427 232 68 49 42
336 904 225 123 84 62
284 486 208 127 12 33
298 706 298 164 114 95
289 491 203 122 14 31
361 481 150 53 36 36
458 748 140 81 60 46
288 496 202 124 13 32
388 291 227 108 87 64
458 814 250 153 110 86
419 376 215 92 82 71
424 901 314 58 47 40
280 486 214 139 6 35
278 486 217 135 12 38
323 586 203 186 8 42
427 301 257 128 96 63
280 491 214 93 23 38
280 556 242 47 32 37
341 326 277 96 77 56
412 635 209 43 35 40
278 491 217 120 16 36
275 496 223 136 7 36
436 397 275 126 98 67
294 423 323 59 44 32
420 780 154 71 57 47
283 531 212 158 8 40
276 491 221 139 5 35
301 307 260 143 100 72
406 682 300 43 30 33
276 496 221 137 10 36
288 501 202 123 14 34
318 592 210 180 6 42
284 506 207 100 25 35
288 506 202 109 18 33
403 551 174 83 37 40
420 290 269 121 94 61
277 405 262 104 51 48
373 807 279 184 127 105
272 576 291 84 38 36
287 511 202 119 19 37
283 511 342 82 28 36
279 501 213 117 21 37
427 291 232 119 92 60
288 336 307 127 98 69
312 926 247 60 57 59
277 501 217 78 32 36
293 276 302 116 93 67
293 751 297 183 126 100
293 641 273 108 74 48
279 506 213 49 34 37
434 746 162 53 44 41
336 588 200 58 39 37
444 727 164 55 44 41
277 511 217 48 35 38
468 424 262 68 60 52
276 506 220 51 35 35
443 897 282 90 73 65
276 511 220 45 34 36
281 511 210 66 37 39
452 846 262 35 30 28
272 486 232 139 5 36
468 501 191 53 37 38
478 556 242 98 34 36
443 411 227 71 61 53
270 491 237 144 6 38
270 496 237 146 7 38
433 415 157 119 85 66
353 405 232 85 72 58
513 442 247 68 21 24
391 304 225 96 81 64
271 496 235 146 6 38
438 621 222 46 34 37
269 486 242 144 5 38
268 486 247 141 3 37
524 486 274 52 28 31
328 851 292 104 85 65
387 356 226 94 80 66
268 486 252 129 11 37
403 341 287 142 101 76
353 626 210 100 30 40
432 905 282 92 73 61
462 551 212 112 28 43
268 496 247 141 3 37
458 471 287 145 18 50
267 491 252 139 5 37
272 501 232 146 8 39
394 398 204 95 80 66
271 501 235 146 7 38
315 496 324 38 31 31
460 581 237 98 25 33
403 436 115 96 34 41
270 501 237 146 7 38
440 401 257 107 87 64
270 506 237 87 20 34
270 511 237 36 32 35
439 906 312 87 71 59
343 808 284 73 59 53
268 501 247 144 4 37
305 702 238 114 14 35
363 845 278 145 116 90
445 743 148 62 50 43
262 436 372 107 26 39
283 681 265 119 89 54
468 621 224 118 91 59
399 292 276 113 90 66
269 501 242 143 5 37
348 860 298 134 108 80
267 501 252 139 9 39
529 470 246 60 35 43
393 866 182 58 50 49
268 506 247 151 6 40
269 506 242 112 14 37
466 423 235 61 27 29
443 581 206 159 5 38
269 511 242 100 22 40
393 301 276 112 84 60
331 895 241 93 76 57
268 511 247 157 3 41
482 431 193 153 13 39
376 346 262 99 83 66
267 506 252 149 9 43
266 506 257 149 9 43
418 371 216 90 80 71
468 738 142 106 74 50
274 486 227 138 5 35
274 491 227 140 5 37
434 756 152 50 43 41
274 496 227 141 7 35
328 641 222 114 16 35
373 771 195 75 60 51
273 501 227 107 16 37
507 457 280 48 26 29
273 506 227 87 24 36
293 450 215 70 34 32
453 866 252 73 62 61
298 451 214 62 33 33
428 316 257 126 97 63
334 396 241 91 77 60
298 456 212 63 34 32
480 512 236 61 31 33
431 600 295 175 7 55
303 451 213 67 33 32
411 366 285 140 99 72
415 922 272 61 54 52
403 466 303 119 30 47
416 894 219 79 68 65
351 467 160 112 21 34
491 554 260 91 48 45
373 696 308 88 29 41
298 461 210 56 35 32
448 846 232 74 64 62
464 513 290 39 30 32
299 463 209 49 36 34
294 476 204 90 29 31
293 481 203 117 20 27
295 472 204 58 37 35
379 356 271 86 71 57
487 495 242 89 18 33
285 341 291 131 102 70
440 622 226 48 32 37
298 470 205 59 37 33
519 462 246 102 22 33
302 469 205 51 39 36
334 381 313 136 97 76
303 481 198 70 31 33
298 476 202 74 34 32
413 611 201 99 27 37
298 481 201 106 23 27
265 747 254 147 107 75
308 451 214 86 28 29
252 521 312 105 60 57
423 422 132 110 73 53
459 856 247 76 61 58
308 456 212 73 33 29
289 316 272 131 98 68
328 741 208 118 23 35
410 458 140 165 4 41
443 481 283 173 12 54
343 481 167 150 2 35
313 456 212 65 33 30
428 716 302 160 2 50
313 460 210 72 34 30
319 451 215 58 34 35
538 473 239 119 92 58
263 431 362 48 20 25
296 542 200 159 5 40
406 794 170 54 45 43
308 465 206 50 36 37
503 812 276 59 46 34
299 825 238 62 52 51
268 636 282 149 108 74
308 471 202 55 36 36
321 391 320 140 100 74
343 361 277 103 80 55
304 468 204 49 34 41
313 468 204 46 36 34
368 917 196 79 71 69
313 477 198 49 35 34
344 366 292 114 84 60
293 666 300 173 134 107
316 583 319 32 29 31
404 387 209 95 82 69
375 381 262 99 80 59
312 480 196 44 35 35
418 887 306 39 36 35
348 974 248 86 83 84
318 472 198 59 35 33
319 467 203 52 36 33
318 470 201 51 36 34
357 592 195 113 28 40
319 477 194 57 33 28
280 516 213 75 28 37
386 934 325 69 57 50
429 316 252 125 98 65
289 486 204 119 16 29
304 316 326 142 99 81
294 491 198 67 33 33
295 488 199 81 30 29
427 625 213 113 28 40
292 491 201 101 28 33
297 485 200 106 24 30
343 476 166 142 5 33
423 875 259 31 29 27
503 777 247 90 70 52
298 491 197 93 27 28
460 807 185 67 53 45
304 492 194 99 23 25
503 502 278 108 23 40
263 601 318 171 120 96
299 497 194 81 28 29
266 546 296 73 29 34
394 441 119 157 8 34
301 494 195 103 28 31
293 501 197 106 25 34
291 636 305 176 124 104
291 500 200 114 21 38
450 820 149 108 84 69
295 506 194 105 24 32
496 423 208 75 26 33
295 511 193 132 14 34
292 351 313 130 100 73
339 400 308 124 92 72
296 500 195 111 24 31
296 618 245 35 29 40
431 470 169 101 36 41
390 968 267 70 66 66
309 487 194 86 31 26
350 428 159 111 16 31
418 416 157 100 80 62
350 432 159 116 7 29
352 436 156 118 13 30
352 441 156 129 6 36
468 898 302 111 91 72
353 421 162 72 34 37
350 423 163 76 31 32
362 568 180 188 8 47
398 891 297 36 33 33
350 423 167 68 32 30
497 806 243 96 77 62
353 421 177 55 36 35
362 812 205 76 60 54
385 258 255 104 84 62
511 496 240 95 36 28
348 431 162 102 20 29
348 755 311 156 32 58
348 426 172 50 32 31
345 432 168 64 34 31
331 466 170 74 33 29
345 432 172 46 33 35
345 432 177 40 31 32
353 426 187 40 30 33
348 403 229 88 73 58
437 466 173 51 38 39
350 428 185 37 33 34
352 431 192 60 28 30
477 741 241 158 108 78
342 436 172 48 33 32
398 407 187 93 78 64
410 918 307 74 60 54
293 421 317 67 53 39
350 433 190 63 27 33
323 651 296 134 18 45
341 439 177 82 27 34
345 441 163 116 10 28
353 546 312 156 12 48
338 391 247 93 77 60
372 715 310 126 24 49
342 446 166 112 15 25
404 623 205 102 41 50
339 442 177 84 26 30
272 801 288 180 127 99
378 493 140 48 37 41
448 721 166 68 53 44
338 446 172 79 27 28
347 436 162 112 9 33
458 417 222 61 23 27
307 597 221 174 6 40
449 491 279 66 24 32
345 437 164 103 18 27
413 387 209 97 83 69
403 276 217 118 91 60
459 597 273 120 29 47
346 434 165 87 14 22
357 496 157 137 8 36
435 607 211 102 24 39
305 964 282 76 69 68
347 441 161 127 3 31
359 410 314 111 29 37
347 446 160 135 1 27
333 441 212 76 31 27
388 506 157 172 6 39
383 418 138 89 75 58
344 437 187 80 22 29
342 440 187 83 21 29
398 281 219 119 92 62
440 683 213 71 57 54
340 442 182 85 22 29
463 491 276 147 9 45
500 503 279 103 26 44
343 441 192 79 22 29
309 561 198 176 8 44
432 361 237 109 88 66
336 746 205 44 38 40
463 651 250 171 126 103
346 434 184 66 25 31
425 276 259 130 98 64
345 438 190 81 23 33
348 436 192 76 24 29
346 439 193 79 25 29
293 556 317 135 13 41
331 444 210 77 30 26
368 416 157 96 64 47
401 950 276 57 52 50
419 866 186 79 67 60
489 744 163 70 54 41
428 266 252 127 98 62
404 751 188 66 31 33
383 416 157 92 74 58
368 415 177 80 65 53
368 416 162 96 62 48
434 405 216 123 103 81
378 415 162 93 74 59
378 415 167 94 77 60
383 414 172 94 78 62
408 636 208 44 36 40
381 414 175 94 78 62
383 413 177 93 79 63
368 416 182 81 67 55
373 414 182 89 75 61
378 496 300 165 6 52
368 416 187 83 70 57
372 414 192 91 77 62
473 466 191 91 28 35
375 413 188 91 77 63
391 862 266 142 113 89
318 566 329 150 24 52
457 421 179 51 38 41
379 413 178 93 78 63
285 341 282 128 99 69
379 413 182 93 79 63
383 412 182 93 79 64
376 414 185 92 78 63
280 403 267 100 80 62
449 419 262 72 62 51
452 846 252 44 36 30
383 411 187 93 79 64
383 410 192 94 79 65
360 876 228 63 54 50
447 661 225 84 67 48
365 431 144 134 10 34
490 487 227 104 22 38
384 386 276 98 73 55
359 418 153 83 38 43
333 491 318 38 28 30
356 419 156 96 34 34
358 431 151 78 32 37
422 403 204 96 81 65
393 771 188 64 52 46
360 431 149 65 36 35
354 431 154 121 16 29
362 419 150 100 41 49
367 420 146 114 43 34
388 591 191 70 29 39
373 626 206 58 36 38
445 726 283 51 30 35
368 417 152 94 64 44
427 261 223 117 91 60
381 404 205 95 81 67
369 418 148 95 59 44
430 842 186 82 64 56
444 516 186 150 3 35
273 816 262 191 130 101
472 728 174 80 60 42
365 436 144 137 2 33
368 441 142 143 8 36
479 456 196 117 14 30
357 441 151 129 15 38
355 441 154 94 18 30
378 596 308 129 21 46
355 446 154 132 2 31
548 466 257 100 81 65
363 436 147 91 19 32
292 441 340 72 23 30
323 960 311 65 60 59
275 824 272 219 151 124
337 690 309 65 27 33
363 446 147 92 26 36
377 446 131 145 7 35
441 433 290 87 23 32
372 431 136 149 3 37
374 431 133 153 5 37
428 701 297 132 8 40
423 415 167 100 80 62
370 427 139 133 11 38
403 876 177 97 80 70
350 404 294 65 53 40
378 418 142 91 76 57
413 271 217 116 88 56
357 420 182 49 35 34
376 419 140 88 73 54
433 877 277 33 30 31
448 679 216 87 72 57
383 418 142 91 76 58
299 506 333 145 3 44
328 969 302 66 61 60
289 601 308 149 108 90
342 376 258 143 109 80
413 566 301 116 21 41
378 426 132 124 20 32
307 627 236 117 17 42
418 281 221 111 85 56
379 432 129 141 2 31
294 531 198 97 17 35
311 695 230 48 24 30
373 416 152 92 68 53
466 551 228 91 29 37
378 417 147 91 74 57
383 417 147 91 74 56
280 401 272 116 92 67
372 436 136 148 5 36
385 349 229 95 79 61
424 424 131 109 75 53
372 441 136 134 6 30
374 446 133 144 4 34
421 393 209 98 83 67
408 266 215 130 98 62
438 416 282 81 66 49
364 402 232 79 68 58
378 441 131 139 2 33
370 488 304 163 19 54
380 446 129 142 9 32
331 272 285 114 90 61
359 418 177 60 39 36
328 651 223 134 2 31
400 782 178 66 54 50
372 979 257 74 67 69
363 416 167 86 51 42
359 418 181 55 40 36
449 885 251 74 60 58
342 466 165 142 6 33
408 301 280 116 89 62
358 421 192 59 46 39
263 541 282 100 8 27
483 591 226 128 98 63
354 426 192 47 32 30
301 676 295 158 111 94
363 417 182 65 51 43
265 732 276 156 106 77
266 730 266 138 99 67
358 586 314 163 9 50
363 418 187 68 55 45
361 419 188 61 48 41
332 346 317 136 96 72
295 738 234 122 14 40
430 646 274 172 16 54
300 346 320 137 101 77
322 413 224 88 72 58
323 416 223 86 49 41
343 748 314 142 25 51
338 501 172 147 6 33
411 342 285 138 95 70
344 412 224 87 72 57
299 417 332 64 44 31
348 416 217 84 70 56
314 307 260 123 90 58
346 415 220 88 73 56
353 412 217 80 66 55
338 536 177 118 29 42
370 398 255 75 63 51
349 408 224 86 72 57
371 822 210 79 62 54
353 408 223 82 69 57
353 410 221 82 68 57
323 395 236 98 83 68
382 402 300 62 50 36
319 906 305 120 91 77
328 393 239 97 81 65
385 449 309 131 18 46
347 401 248 93 78 62
326 398 234 95 81 65
328 401 237 94 79 64
339 442 202 70 30 26
320 389 240 98 83 69
449 716 262 151 8 46
497 757 231 86 66 49
377 504 144 178 5 36
328 681 301 91 33 42
323 390 241 97 83 68
308 471 331 185 11 58
328 386 243 95 81 67
258 433 367 56 20 25
328 390 241 96 81 66
454 542 282 94 22 36
353 646 306 182 10 57
333 386 247 96 80 63
378 881 182 88 72 60
283 616 313 173 124 99
476 681 245 167 119 90
335 390 246 93 78 61
323 406 231 94 79 64
434 366 252 109 88 64
331 332 264 100 80 55
275 571 324 170 116 93
305 482 329 170 5 54
448 521 188 144 8 35
265 776 272 170 117 87
328 406 232 95 80 65
379 406 271 59 48 36
456 690 249 123 80 65
325 402 235 95 80 65
504 794 249 89 71 54
323 410 227 93 79 65
328 411 228 93 79 65
275 443 294 127 5 34
325 409 230 97 82 66
328 409 230 94 80 65
328 741 312 115 21 45
414 282 220 111 86 57
326 413 224 90 76 60
524 513 240 212 147 116
403 326 223 88 76 64
329 414 226 89 75 61
377 356 267 101 84 65
319 435 329 128 16 39
308 881 267 129 103 77
268 611 318 172 122 96
333 407 233 93 78 63
334 405 236 93 78 62
333 416 227 91 77 62
306 479 330 177 6 56
334 414 230 93 78 62
295 405 315 130 100 77
341 392 248 96 80 62
528 516 247 214 145 115
338 401 242 91 77 61
445 508 185 147 1 34
340 400 245 92 77 61
432 408 207 106 88 70
342 396 248 97 80 60
450 847 222 86 73 73
343 401 247 94 78 60
448 501 279 32 28 30
344 396 250 106 86 65
396 909 209 70 61 62
347 386 257 108 87 68
315 678 229 54 27 36
308 826 281 189 141 116
346 391 253 129 103 76
348 391 257 89 75 61
261 636 297 164 116 84
349 400 252 87 73 60
349 396 257 77 66 55
350 399 256 76 65 54
336 402 239 92 77 60
384 861 277 138 107 87
336 408 234 91 77 61
343 406 237 90 75 58
261 548 334 171 117 97
338 416 227 90 75 60
506 522 264 146 111 90
341 410 233 89 74 58
253 546 312 157 113 89
341 415 226 88 74 59
339 410 235 90 75 59
348 406 227 87 73 58
348 404 231 88 73 58
477 480 275 156 15 51
353 407 227 83 70 57
384 957 232 82 75 74
345 403 236 90 75 58
348 401 237 90 74 58
453 416 176 105 27 35
348 406 239 90 75 58
403 771 289 84 65 56
489 486 212 170 11 44
351 403 234 88 73 58
458 846 267 49 42 36
353 405 237 87 73 58
346 410 239 91 75 59
341 312 291 127 96 68
363 521 156 138 11 36
398 466 127 131 21 40
343 406 242 91 75 58
392 906 202 69 63 64
349 402 240 90 74 58
348 406 241 90 75 59
408 885 292 35 32 33
391 437 120 75 40 40
469 691 249 166 120 92
353 407 242 88 74 59
351 402 253 81 68 56
311 567 200 179 9 48
319 590 209 181 6 41
289 596 237 150 16 44
437 406 276 126 99 68
351 401 257 73 62 51
415 448 132 166 3 40
463 825 241 132 106 92
429 849 244 36 32 30
350 404 250 87 73 59
348 410 242 91 75 59
329 452 202 70 31 28
351 409 245 90 75 60
343 866 242 153 111 80
323 421 222 78 32 28
363 846 221 163 112 87
328 421 223 72 43 35
304 555 198 171 7 41
438 867 221 83 70 66
327 431 220 81 29 28
285 599 262 75 36 43
393 400 202 94 81 67
288 436 341 62 26 30
353 731 201 114 17 33
333 425 221 67 42 38
362 711 200 72 30 35
330 428 219 71 33 34
303 586 217 75 24 35
333 428 219 68 39 35
263 761 262 171 117 89
332 445 207 71 30 27
378 906 186 86 72 68
322 433 219 85 27 26
276 421 282 67 31 35
314 646 233 154 0 40
378 401 282 59 48 36
398 796 279 55 45 43
328 437 218 83 31 28
325 434 220 83 29 25
526 519 257 208 144 116
328 435 220 87 28 26
331 439 215 77 33 26
426 347 229 95 83 72
478 496 277 76 23 33
334 438 213 74 41 36
497 606 237 160 115 79
329 442 213 80 26 27
353 421 207 77 64 54
412 824 260 84 63 53
344 432 208 66 48 40
298 776 297 167 126 92
443 412 202 111 92 73
349 426 207 74 59 50
368 431 312 113 18 37
436 604 209 37 33 41
409 941 262 58 53 52
376 846 215 80 59 48
311 754 215 131 8 33
403 868 178 114 94 80
352 425 206 77 64 54
328 871 252 117 91 57
442 406 252 104 84 61
448 422 228 67 48 42
417 286 271 118 93 64
376 530 159 187 8 38
353 741 201 76 33 36
436 854 199 67 57 52
349 431 202 57 44 39
429 306 247 123 96 65
351 430 201 58 44 37
438 480 285 179 12 56
293 833 273 200 136 110
338 421 222 77 62 50
266 575 296 110 79 50
342 421 221 82 69 57
288 422 332 56 39 30
423 586 305 174 14 54
413 311 222 102 84 64
341 429 216 60 47 41
315 651 234 148 1 38
496 574 255 179 126 100
339 432 213 60 45 40
347 420 216 82 70 58
303 381 321 140 105 80
349 421 212 80 68 56
431 331 247 122 97 66
352 420 211 78 65 54
350 418 214 80 67 54
418 536 173 58 36 40
440 721 294 68 33 38
263 432 367 64 20 26
404 792 279 78 61 54
353 416 212 81 62 52
460 798 155 102 79 61
259 476 302 114 11 31
350 423 209 80 67 55
412 451 127 145 15 41
348 626 212 101 31 40
450 853 286 38 33 29
345 418 219 88 74 59
288 756 297 183 131 104
342 440 201 68 32 26
335 314 304 123 93 63
448 412 217 86 68 57
438 476 288 180 14 57
363 541 307 155 12 48
344 437 202 59 33 26
340 438 204 66 33 24
353 726 202 132 8 33
513 432 227 111 23 33
337 444 201 72 29 26
326 312 316 116 85 58
353 571 186 179 4 39
452 436 179 122 19 34
328 776 205 70 58 51
348 436 197 68 31 28
285 346 278 126 99 68
463 501 278 126 13 40
433 506 282 77 27 35
498 853 279 90 71 55
344 438 199 68 34 25
398 423 117 90 76 58
425 261 220 118 92 60
350 433 198 62 34 30
347 435 201 55 34 30
336 435 216 61 44 38
353 411 317 146 22 47
388 691 200 54 35 37
438 391 247 104 85 64
336 439 210 70 27 27
396 661 300 71 27 34
403 516 165 85 31 37
427 436 153 54 34 39
333 418 224 85 69 52
386 803 180 58 47 44
362 415 206 79 67 58
533 501 233 181 126 99
469 694 211 108 85 57
367 415 201 89 70 56
355 413 214 79 63 55
300 751 294 156 105 84
358 417 208 80 63 55
359 413 213 76 65 56
268 451 307 106 7 29
368 407 212 78 69 60
336 307 301 127 98 67
256 434 368 58 22 26
368 405 217 77 68 60
337 302 296 125 100 70
364 407 218 78 68 60
363 406 222 78 68 59
391 268 220 136 103 68
353 481 312 73 32 37
391 330 279 112 79 59
547 467 252 98 84 68
369 402 222 77 68 59
366 404 221 77 68 59
363 411 212 77 68 59
393 391 208 94 81 68
362 409 216 78 68 60
361 414 210 75 66 58
410 671 294 168 11 53
428 451 299 119 18 37
371 400 221 77 68 60
383 551 300 152 11 47
373 396 222 80 70 60
498 501 282 83 31 38
375 392 224 82 71 60
312 766 299 168 129 100
379 386 223 87 75 62
382 386 221 89 77 64
318 711 218 58 35 37
425 273 225 114 89 58
383 391 217 89 77 65
387 322 225 102 84 66
382 390 220 88 76 65
382 395 216 89 77 65
302 916 287 96 82 74
383 396 212 90 78 66
453 412 177 117 25 31
384 398 208 94 80 66
373 406 207 91 77 63
371 409 206 87 75 63
449 731 272 174 14 54
378 736 304 158 21 54
379 408 198 94 80 65
384 403 203 93 80 66
268 427 347 49 35 25
429 436 157 46 35 39
481 716 208 95 75 51
482 760 157 71 57 46
429 351 232 97 83 68
354 696 204 123 13 28
383 405 201 94 81 67
271 798 255 170 114 83
362 419 197 77 64 52
416 454 148 158 0 35
381 409 195 94 80 66
384 408 194 95 81 66
480 803 220 135 91 67
342 905 217 59 53 50
366 624 310 134 51 66
417 266 266 129 98 64
413 316 223 99 82 64
372 405 211 85 74 62
367 400 232 79 69 59
436 408 213 118 100 80
453 834 235 143 105 86
421 382 214 94 82 69
366 399 242 82 71 60
468 816 246 94 68 52
369 396 242 82 71 60
369 396 247 81 69 57
364 511 304 158 13 49
428 406 207 102 85 68
282 556 232 46 33 36
308 461 336 151 16 49
503 777 241 87 67 50
367 400 247 80 69 57
281 596 280 102 27 38
368 401 227 78 68 59
371 394 249 80 68 55
440 696 267 147 13 45
361 404 238 82 70 59
508 441 227 64 32 35
467 781 251 159 115 87
436 373 248 106 85 63
392 346 283 126 91 70
343 556 182 69 33 35
374 391 227 80 70 60
358 406 247 84 71 58
482 496 202 164 14 41
547 471 271 56 29 30
353 406 257 72 61 50
358 408 257 72 61 50
408 501 162 158 1 33
413 501 164 156 2 35
362 405 247 81 70 58
430 643 225 51 29 29
363 405 252 76 65 54
374 386 232 81 70 60
373 391 232 80 70 59
370 398 228 78 68 59
275 651 274 145 106 70
377 390 225 83 72 61
371 391 242 82 71 59
271 455 287 122 10 36
316 542 185 149 23 43
295 620 252 60 33 36
367 578 185 191 8 41
373 386 242 81 70 59
370 397 252 78 66 53
358 421 197 71 58 49
428 531 178 85 36 42
398 296 222 105 85 63
518 472 273 88 17 33
468 431 281 132 21 44
354 426 197 60 48 41
457 566 217 152 3 37
356 424 202 74 62 52
364 418 197 83 69 56
349 451 159 145 0 33
353 451 156 143 2 32
401 470 133 147 16 43
349 456 159 136 3 33
492 810 262 61 49 37
353 456 157 98 18 32
354 466 158 121 16 32
310 462 334 170 11 52
335 457 169 119 15 27
332 456 177 90 21 28
346 412 320 156 20 52
276 807 250 176 119 88
347 486 165 144 4 31
332 460 171 107 14 29
264 576 298 121 91 57
472 540 232 79 28 32
298 541 198 138 9 38
498 531 236 129 96 69
334 461 169 125 9 33
334 452 182 83 22 28
385 341 275 102 78 54
388 551 171 137 19 41
334 451 187 78 26 28
313 331 327 145 100 78
332 456 187 78 25 28
264 491 348 116 20 38
330 458 179 87 21 30
339 671 214 122 16 30
418 876 262 30 28 27
330 458 182 83 24 29
403 436 302 86 24 34
330 457 193 73 30 26
296 326 318 134 98 73
328 476 172 69 31 35
326 474 175 49 34 35
328 481 171 122 15 31
263 429 357 47 26 24
473 840 277 52 43 34
279 418 306 52 38 32
469 880 298 83 68 57
418 415 167 94 78 60
334 466 168 113 19 31
391 930 325 66 58 53
391 724 305 117 59 65
428 276 247 124 94 60
333 471 168 111 19 30
419 907 247 71 61 59
329 466 172 60 35 33
328 466 177 59 32 33
333 476 169 135 7 33
333 481 169 123 10 30
286 341 281 129 99 69
543 481 238 142 106 79
332 482 170 107 21 29
413 732 304 144 23 51
328 631 301 55 26 31
326 470 182 52 32 29
327 466 187 61 29 29
339 520 174 141 1 30
408 551 296 85 30 39
324 472 192 47 32 29
481 428 252 72 45 40
382 735 195 50 34 34
273 671 303 183 133 108
441 425 168 104 30 40
434 822 148 132 103 82
416 326 224 97 81 65
321 480 182 36 31 32
325 473 178 41 32 34
498 430 227 98 14 35
463 576 282 64 28 35
336 483 170 38 47 40
505 468 238 56 27 30
411 931 252 67 59 56
325 472 182 45 31 30
336 446 325 131 12 41
322 476 192 55 32 28
338 451 168 118 6 30
338 456 167 133 4 30
344 451 163 143 1 33
317 527 180 123 21 39
481 711 227 140 97 62
503 471 237 98 26 36
341 450 166 127 3 33
341 456 165 151 0 38
468 425 247 62 49 42
282 546 222 124 24 43
336 450 171 98 19 28
423 296 228 108 87 63
336 449 177 87 23 30
393 815 271 172 119 97
336 454 170 108 18 30
451 746 266 131 25 47
473 596 252 107 74 62
342 461 165 152 0 37
327 896 313 190 138 123
347 451 160 143 0 31
487 810 258 58 48 39
347 456 160 150 0 35
348 461 161 148 2 32
336 449 182 84 23 28
547 490 266 112 46 54
420 868 190 70 59 57
419 496 165 155 0 33
315 949 239 68 63 65
338 466 167 142 3 29
342 351 297 121 89 64
338 471 167 145 2 31
344 466 164 128 10 34
280 561 247 73 32 38
288 756 237 116 89 55
483 428 242 67 27 27
344 471 164 116 14 32
403 896 307 37 34 34
349 481 164 134 11 37
408 731 305 65 33 38
388 341 226 98 82 65
452 864 248 81 65 67
453 717 167 79 60 46
505 467 221 126 16 39
317 881 256 139 111 82
353 481 161 119 19 36
429 907 287 85 66 57
323 491 171 102 24 33
423 746 296 191 17 61
355 495 159 141 2 34
358 406 297 62 50 38
378 608 200 55 39 41
433 546 186 104 30 40
328 491 171 133 14 38
424 641 282 70 25 35
333 496 171 156 8 37
323 501 172 68 34 36
323 510 174 151 6 37
464 881 282 90 72 63
429 261 247 125 97 62
323 512 175 158 1 32
290 312 310 125 96 65
348 636 213 133 18 37
333 506 174 120 12 36
333 511 175 147 2 32
343 486 167 147 3 32
338 496 171 155 3 33
348 491 166 148 4 33
328 616 216 157 8 39
348 496 167 136 6 34
351 497 165 114 19 37
388 621 203 106 28 39
402 926 312 76 62 56
433 681 272 102 24 40
276 556 262 56 28 32
343 511 172 95 25 35
336 326 305 125 93 64
348 501 168 129 13 34
352 501 166 59 30 32
282 266 272 128 97 67
371 503 145 165 5 36
345 501 169 151 2 32
349 506 168 145 10 34
443 651 232 83 66 53
422 351 276 120 92 59
345 504 169 151 3 32
468 414 202 100 18 26
271 736 289 170 116 91
344 409 319 66 41 32
443 706 196 72 61 52
448 414 187 111 47 42
365 456 144 76 34 41
387 311 226 103 86 68
428 901 247 73 61 58
302 828 240 83 65 60
367 456 141 71 35 38
367 461 141 66 35 39
314 776 212 69 57 50
344 586 319 158 14 49
309 696 232 113 12 33
355 451 154 133 9 34
288 351 307 130 99 70
358 461 152 122 17 35
393 266 218 136 103 66
475 767 156 67 51 42
363 451 147 72 32 36
358 960 312 67 61 60
288 791 232 160 107 73
362 461 147 115 27 38
473 415 202 95 21 26
424 331 231 97 84 70
361 459 150 79 28 31
285 424 319 55 41 32
368 476 142 73 32 37
323 331 262 104 82 56
359 466 152 116 18 35
457 815 188 79 62 55
354 471 158 120 21 37
355 480 159 132 18 37
459 801 156 101 80 64
359 476 153 96 25 37
302 626 241 106 25 43
357 481 156 116 17 35
413 766 288 84 65 57
304 691 293 117 82 72
363 471 147 51 38 38
386 969 254 87 81 84
491 540 266 138 28 46
361 471 150 53 35 36
450 582 215 155 6 38
365 471 144 50 36 38
364 481 148 55 34 38
477 423 226 57 23 23
372 451 136 128 15 34
373 456 136 97 31 39
298 311 263 145 101 73
353 671 306 170 6 54
263 501 287 56 29 34
348 944 325 61 57 57
375 455 134 85 36 40
299 321 263 133 98 67
435 380 241 105 87 66
370 456 139 104 32 38
375 460 134 69 34 34
378 456 132 56 36 40
383 451 128 58 34 37
317 871 262 137 111 85
381 452 130 61 36 38
384 456 129 58 34 37
378 461 133 74 34 39
376 462 135 123 30 41
404 898 311 37 34 35
370 403 287 58 48 37
512 766 234 99 76 62
382 461 131 57 32 36
373 466 137 78 35 40
383 406 302 61 48 35
373 471 137 86 29 39
428 410 192 100 83 67
324 716 213 129 8 32
448 486 181 147 3 33
373 476 138 81 29 38
443 471 178 105 28 37
413 437 300 35 30 30
377 471 135 42 37 40
383 471 131 71 36 42
377 481 136 68 36 41
299 761 223 45 40 42
281 396 287 132 102 72
265 766 280 167 117 88
383 480 134 55 37 39
270 664 305 185 138 112
355 486 159 46 30 36
355 491 159 117 21 38
359 491 153 54 37 40
544 465 268 59 31 29
474 766 167 64 49 42
243 521 327 213 149 128
357 491 157 86 27 37
256 552 329 168 117 94
360 496 154 62 30 37
378 871 283 147 115 88
344 656 214 128 5 30
427 520 174 110 30 40
513 860 274 105 87 76
367 486 146 78 31 37
369 486 143 88 35 40
408 361 217 90 80 71
458 841 262 37 32 29
335 770 205 69 56 51
336 356 311 135 96 70
367 491 146 45 36 40
322 800 290 71 57 51
447 740 156 62 51 46
360 500 154 106 23 37
338 491 316 84 29 37
359 511 158 79 30 37
332 276 282 113 89 61
307 475 330 183 8 58
378 939 219 81 75 77
368 501 147 106 22 36
311 920 255 137 111 85
449 421 247 78 66 54
366 506 150 132 16 38
283 271 277 128 96 66
443 416 267 93 74 54
367 511 150 161 3 34
322 311 322 131 89 67
372 486 141 49 35 39
370 491 144 42 36 41
344 366 287 110 81 57
372 491 141 65 37 39
374 490 139 85 36 41
318 656 292 47 27 31
378 486 136 70 34 39
383 483 135 53 36 40
400 793 279 79 61 53
384 536 299 51 29 31
418 281 267 122 95 63
529 485 235 99 77 55
383 492 140 59 35 42
337 916 216 56 50 49
383 496 141 79 35 41
385 302 266 87 69 49
418 571 187 164 3 39
378 501 143 141 21 42
274 436 262 133 3 36
389 841 188 56 49 50
383 500 143 123 26 41
287 424 326 55 42 31
370 500 144 155 12 36
361 875 222 51 45 47
433 516 177 108 20 35
373 511 148 175 4 37
327 266 287 114 90 62
378 506 146 178 6 36
418 471 297 91 29 40
393 316 222 95 80 64
463 720 194 65 50 36
383 505 147 186 10 39
443 431 289 119 17 40
329 351 318 140 99 75
358 964 306 68 61 58
466 616 225 119 91 60
384 507 151 182 10 42
382 510 153 176 8 41
292 771 231 133 95 57
354 501 162 120 18 35
508 524 265 164 119 97
491 645 241 192 133 104
415 442 120 105 31 41
354 506 163 62 31 36
356 506 160 88 28 36
356 511 161 85 27 37
441 554 194 156 3 38
447 666 226 76 61 46
325 462 198 68 29 29
423 441 152 95 31 40
338 967 307 62 58 57
327 461 196 71 30 27
420 593 195 60 32 35
317 843 247 70 57 58
506 438 251 63 20 22
323 461 202 68 32 30
325 458 202 68 30 29
400 478 145 173 6 41
288 691 304 177 128 101
286 301 298 128 96 68
338 356 262 116 92 68
418 391 286 140 101 70
333 972 287 72 68 68
333 451 197 69 29 27
330 453 198 70 29 27
433 606 208 107 28 39
322 451 215 60 33 34
331 286 273 104 82 58
324 451 213 63 33 32
326 450 211 65 34 30
321 459 210 71 40 34
322 471 196 56 35 29
326 469 195 55 35 26
322 466 201 59 34 32
278 531 222 165 9 41
375 863 203 57 51 55
321 469 200 50 36 34
390 265 219 137 104 67
391 271 220 134 102 68
496 509 239 117 15 32
434 371 262 109 87 62
397 262 215 138 105 66
394 275 219 130 99 65
398 276 218 126 97 63
335 440 324 140 11 41
328 801 212 82 64 55
396 278 220 124 96 64
312 282 311 103 85 65
267 561 296 120 25 43
396 282 220 121 93 62
304 906 282 94 82 77
402 851 251 120 90 72
403 261 214 136 101 62
419 646 287 108 26 43
488 741 142 90 71 51
409 262 215 135 99 61
327 470 325 93 26 38
450 881 257 74 60 58
423 366 221 92 82 73
403 264 214 134 100 62
488 426 197 77 38 40
483 736 187 65 51 42
413 331 222 89 78 67
305 708 234 85 22 35
547 505 257 194 130 115
403 266 215 133 100 62
406 264 214 134 100 60
408 470 300 133 32 53
408 271 216 121 93 60
413 262 215 135 98 60
343 897 232 86 72 57
413 266 216 126 94 59
353 541 312 146 18 48
463 748 141 86 66 51
430 344 254 120 96 69
403 281 218 112 88 59
424 286 226 110 86 57
358 971 297 69 65 64
408 276 217 113 88 59
408 281 219 110 86 58
453 726 162 52 43 38
454 714 176 77 57 42
403 285 219 109 87 61
358 967 302 70 66 66
293 401 313 137 103 80
408 287 220 110 87 62
413 276 218 112 87 57
413 281 219 111 86 58
398 566 302 37 29 30
445 432 175 52 33 42
434 541 185 100 27 37
438 687 208 64 52 50
268 456 297 121 3 33
514 477 238 96 25 33
458 681 213 89 74 58
413 286 221 110 87 60
388 261 257 104 84 63
302 331 323 139 100 76
313 436 331 137 15 43
280 392 280 130 102 71
387 276 226 129 98 67
385 281 228 122 95 65
393 296 223 98 81 60
398 291 221 112 89 62
326 651 225 136 2 31
393 306 222 96 80 62
389 321 224 99 83 65
360 964 234 89 85 90
398 316 221 95 80 64
306 607 225 130 17 37
398 321 222 93 79 64
345 864 239 180 131 99
398 631 206 106 25 37
290 778 229 148 101 64
403 291 220 105 85 62
276 430 306 54 30 33
502 435 219 160 9 41
393 910 208 70 62 61
408 291 220 105 85 63
408 301 220 97 82 65
290 316 310 127 97 68
457 836 222 92 67 63
303 631 292 73 47 44
413 291 221 106 86 63
321 326 325 127 89 68
292 626 272 81 41 43
408 486 291 171 13 53
413 301 221 102 85 66
342 402 306 104 80 61
403 311 221 95 79 63
403 321 222 90 77 62
493 742 151 93 69 51
408 321 222 90 76 62
463 414 197 106 20 25
413 306 221 103 85 65
348 516 171 80 26 34
383 756 296 82 65 57
385 292 229 113 91 66
388 296 227 102 84 64
480 521 241 79 29 32
391 296 225 97 80 62
390 308 224 97 82 65
338 711 318 62 29 35
387 316 225 102 85 67
398 856 183 65 54 51
430 346 236 108 88 67
422 261 218 125 96 61
421 265 219 119 91 58
498 436 217 110 24 39
338 581 196 179 6 41
371 874 195 51 47 48
424 266 221 116 90 59
252 531 312 106 76 59
421 269 219 116 89 57
383 691 201 81 25 31
336 608 210 76 27 30
426 270 224 115 90 59
416 279 219 112 86 55
429 261 227 118 93 61
333 421 323 152 15 48
431 261 233 121 95 64
384 884 284 106 87 71
430 261 237 122 95 61
462 418 221 63 19 25
318 408 325 102 79 62
299 616 237 130 30 46
428 271 227 120 93 60
432 666 271 68 23 32
430 266 232 123 96 63
484 429 252 73 43 39
269 584 267 169 25 49
278 536 330 63 40 37
430 266 237 124 96 62
264 761 272 174 120 92
430 271 237 125 97 62
450 694 182 78 59 40
497 426 207 70 34 37
441 624 271 191 12 59
430 261 242 124 96 61
265 551 278 137 4 38
363 486 307 109 30 45
427 261 256 126 98 64
429 261 252 126 97 61
401 432 115 69 41 35
418 467 299 69 25 33
430 266 242 125 96 60
396 813 175 55 47 44
429 266 247 126 96 61
429 271 242 125 95 60
554 481 252 137 99 77
429 271 247 125 95 60
479 731 237 153 101 71
393 470 129 93 34 40
427 266 256 128 98 61
305 661 254 110 24 40
429 276 237 126 95 61
408 560 299 90 26 36
426 286 228 114 89 57
422 446 153 98 31 41
428 286 232 121 93 59
448 496 279 39 27 30
423 566 187 123 16 39
418 784 159 67 53 47
429 276 242 126 96 61
294 565 213 57 30 34
429 281 247 125 96 61
427 276 257 130 98 64
428 286 252 125 97 62
361 871 226 74 61 52
448 691 248 93 25 33
418 306 223 108 89 68
313 962 302 63 57 56
483 756 177 90 67 51
305 337 259 111 89 62
417 311 224 107 87 66
420 292 225 110 86 61
450 472 180 59 30 37
294 555 208 57 35 37
428 851 245 35 31 29
420 301 225 109 89 68
427 356 227 91 81 70
461 658 219 91 74 55
425 297 230 108 87 63
311 925 251 65 61 62
427 296 232 112 89 61
507 561 242 154 110 75
262 433 370 60 17 29
306 931 260 114 96 81
448 436 177 99 27 35
363 571 182 188 7 42
425 301 230 106 85 62
343 601 318 187 13 59
408 410 182 92 77 60
264 566 298 116 79 54
428 301 237 116 91 62
466 771 250 161 115 86
410 641 294 97 32 44
345 635 214 112 27 38
428 296 242 122 95 63
495 526 239 120 81 55
403 336 222 87 77 67
428 296 247 124 96 62
312 875 272 151 118 90
428 296 252 126 97 62
430 326 242 119 94 66
428 301 252 124 96 62
498 485 273 47 27 31
423 416 162 100 82 64
443 830 193 69 55 51
271 532 262 169 4 45
416 321 224 101 84 65
438 876 302 44 39 36
266 547 292 81 30 39
419 321 226 105 87 68
352 451 320 134 14 43
302 686 257 43 33 34
473 766 172 58 46 44
285 346 282 126 98 68
464 503 280 66 20 27
422 316 228 105 86 65
453 516 287 52 29 32
403 417 147 95 76 60
373 741 196 127 14 33
422 321 228 100 83 66
507 500 276 82 21 33
388 407 193 93 80 66
438 536 297 56 27 30
508 440 257 60 21 27
303 761 294 134 89 69
424 321 231 98 82 66
426 311 233 102 83 63
426 316 233 99 82 64
426 321 233 97 81 64
297 516 191 124 22 40
349 550 314 153 16 48
429 306 242 119 94 65
487 766 192 90 66 53
437 685 221 50 40 48
429 311 242 120 95 67
423 414 172 100 77 60
442 421 167 126 18 38
430 311 247 123 96 65
330 280 293 119 95 66
429 306 252 127 98 64
430 321 247 120 95 65
286 331 289 132 102 71
430 321 252 125 97 65
368 566 178 159 15 42
393 326 223 94 80 64
393 351 222 91 80 68
393 346 223 91 80 68
343 601 203 84 34 40
478 596 254 145 101 81
398 346 222 90 79 69
424 839 159 123 95 73
398 351 221 91 80 70
287 461 345 53 27 29
383 496 299 162 6 49
408 326 222 87 75 63
408 331 222 86 76 66
338 916 318 155 126 103
373 836 213 149 107 80
413 336 222 89 79 69
408 341 221 89 79 69
278 826 267 223 149 121
336 853 240 197 133 102
403 351 220 90 80 70
351 890 226 52 48 49
413 346 221 92 81 71
300 376 320 137 102 79
485 770 234 70 53 40
423 418 143 114 75 60
434 796 159 76 58 48
440 405 242 98 80 61
363 546 308 157 8 48
388 326 226 102 84 65
427 855 184 81 65 58
387 331 226 101 83 64
331 266 267 106 83 55
288 646 272 107 78 44
388 336 226 98 82 64
383 531 164 168 2 34
368 845 279 156 124 97
388 346 227 95 80 65
385 346 229 97 81 64
390 356 224 93 80 66
470 486 190 126 23 37
484 857 270 88 70 55
448 834 236 144 106 91
333 595 320 102 31 45
388 361 223 92 79 65
393 361 221 93 81 69
393 366 217 92 81 69
433 356 252 116 93 67
392 364 220 94 82 70
285 361 274 125 98 68
412 397 204 96 81 66
398 355 220 91 80 70
398 366 216 90 79 68
387 501 148 167 13 42
390 374 214 90 78 67
314 589 209 179 6 40
335 300 298 123 98 69
386 371 221 91 78 66
408 421 127 98 75 55
386 375 220 94 81 67
418 561 301 73 26 34
423 636 216 66 31 36
398 746 191 87 24 31
388 381 216 93 81 70
393 381 213 90 80 69
358 936 213 84 77 78
385 377 219 94 82 69
385 381 218 93 81 69
368 736 197 43 36 39
400 787 174 59 50 47
328 431 326 135 15 44
400 368 214 89 79 69
469 696 249 169 122 94
