ply
format ascii 1.0
comment Created by Open3D
element vertex 2219
property double x
property double y
property double z
property uchar red
property uchar green
property uchar blue
end_header
352 535 133 87 26 39
345 531 141 135 16 44
347 540 143 168 4 41
352 540 138 172 3 42
350 542 141 174 3 47
335 900 176 94 83 76
342 535 147 171 2 38
322 550 155 72 35 38
327 549 155 115 26 38
327 552 156 97 33 44
322 552 156 80 33 35
370 883 264 61 53 56
297 895 328 174 124 101
261 775 247 70 58 53
322 555 157 119 26 39
337 550 154 48 35 38
332 555 157 111 25 39
337 555 157 114 21 37
352 550 143 125 14 41
392 855 212 69 54 48
340 525 312 165 119 97
342 550 153 60 29 37
338 553 155 48 35 31
413 660 188 150 104 78
341 556 156 149 12 41
342 560 158 176 1 39
349 548 145 152 0 38
347 555 152 106 17 36
373 885 315 73 60 50
349 554 150 142 4 38
268 901 249 88 71 56
346 561 156 151 5 37
350 605 286 90 28 41
349 564 155 152 12 45
398 745 253 69 33 41
350 567 156 179 6 41
348 569 159 181 5 41
349 574 160 181 4 42
352 575 159 195 8 43
322 566 161 97 25 38
327 564 160 87 24 39
366 803 142 55 47 46
404 648 186 97 82 66
327 570 163 177 4 39
327 575 164 165 1 34
365 739 286 107 33 44
332 564 160 100 24 34
332 566 161 101 16 36
332 570 163 169 1 36
307 686 316 47 25 28
337 570 163 166 0 33
341 567 161 181 1 43
342 575 165 171 0 35
346 571 162 180 4 41
371 835 272 58 46 38
323 820 173 58 51 48
357 540 133 190 6 41
362 541 132 192 8 42
337 869 290 37 32 30
377 539 129 193 16 43
382 540 133 99 27 38
382 545 138 67 29 37
384 542 136 108 21 37
355 552 141 174 37 61
292 977 263 64 60 59
357 555 142 77 31 38
367 615 182 146 17 39
322 590 318 159 105 80
357 559 144 81 35 42
407 800 158 69 53 42
367 548 135 161 18 44
362 550 137 44 34 40
402 838 260 186 170 168
367 559 144 103 28 42
357 565 149 132 23 43
359 573 155 203 12 42
362 565 148 163 20 44
367 562 146 129 24 40
362 568 150 199 16 49
367 570 152 83 24 34
372 556 142 69 34 38
372 559 144 85 34 37
377 555 143 63 34 41
381 549 139 50 34 36
382 551 142 43 34 36
377 559 145 45 32 38
347 740 177 72 35 35
372 561 146 94 37 42
372 565 149 99 26 37
378 567 151 79 27 35
292 951 231 89 82 84
328 795 178 55 48 46
372 570 152 171 23 46
377 570 153 85 28 37
372 573 155 184 20 44
405 774 170 94 69 51
312 795 198 82 64 57
382 566 152 103 23 40
382 575 158 183 18 41
377 520 243 143 12 47
381 526 255 96 69 52
381 530 253 98 74 56
327 580 166 136 9 34
322 590 169 72 35 39
332 585 167 67 29 34
337 580 165 160 2 36
337 582 166 162 5 35
328 966 278 67 62 61
332 590 168 126 21 38
322 594 170 100 27 34
327 596 171 123 28 44
337 598 170 81 28 29
322 606 176 87 35 41
365 655 271 129 24 47
326 607 176 53 28 33
342 590 168 138 9 36
347 584 165 172 0 33
352 585 164 186 6 40
347 586 166 170 1 36
352 587 166 184 6 43
352 590 167 181 6 40
265 679 285 63 28 38
342 601 171 104 31 42
345 739 306 151 22 55
342 605 173 124 26 43
347 595 169 149 11 39
352 595 169 178 6 39
351 599 170 176 5 37
352 600 171 166 10 38
352 605 174 129 24 41
386 805 242 67 51 45
307 530 318 76 25 32
328 608 175 42 26 30
332 608 175 59 37 40
312 975 278 62 59 59
323 614 180 96 34 41
327 617 181 46 36 39
327 620 183 57 35 38
323 624 185 127 25 43
332 611 177 110 28 41
337 615 179 101 35 41
372 860 283 47 40 36
334 618 180 38 33 39
368 855 248 50 39 42
306 704 320 98 12 31
416 685 188 137 100 67
337 618 180 119 35 44
337 620 182 90 29 36
264 660 282 146 10 45
337 625 184 134 24 39
326 627 186 150 17 36
322 635 190 65 34 38
327 635 189 62 36 38
329 628 185 139 48 67
332 628 185 61 31 36
337 635 189 114 22 37
352 608 175 100 30 40
400 738 256 65 22 30
352 615 179 129 34 46
371 815 257 51 40 34
292 790 218 82 64 56
354 628 290 55 28 29
346 618 180 152 20 39
307 580 333 149 117 88
347 620 182 118 22 36
347 625 184 52 34 37
404 603 216 125 99 68
352 617 181 137 28 43
342 639 190 97 29 37
344 627 186 105 26 38
347 635 190 80 28 35
342 641 191 70 31 34
325 575 326 176 127 103
350 638 190 113 51 55
261 890 268 127 101 75
327 940 229 76 69 70
367 580 159 202 14 43
289 833 235 72 54 55
377 579 159 194 15 41
289 790 220 82 64 56
380 578 160 188 15 40
357 590 167 189 10 41
358 588 165 195 11 45
266 935 325 168 128 110
362 590 167 193 11 40
323 725 185 121 16 31
367 588 165 198 13 42
357 595 169 176 11 40
360 598 170 37 26 31
362 600 172 40 34 40
288 826 329 183 132 104
367 597 171 37 30 37
285 870 257 118 92 61
367 600 172 72 34 41
357 607 176 92 31 40
367 606 176 107 32 41
266 816 340 183 129 102
372 590 167 193 14 41
347 810 268 142 99 77
376 588 165 191 15 42
382 580 163 185 16 43
286 750 337 174 120 92
384 581 166 185 18 42
381 589 169 182 18 44
372 594 169 131 18 42
366 875 208 83 68 63
376 594 170 178 16 43
377 596 172 182 18 44
407 825 178 96 71 56
377 600 174 178 20 46
372 603 175 47 32 35
381 595 174 183 19 42
282 630 338 152 113 84
380 598 175 183 19 46
383 596 177 185 18 47
302 976 257 72 68 69
357 617 181 81 33 36
357 620 183 84 33 38
362 614 180 102 29 42
362 616 182 118 26 37
357 630 189 113 30 39
267 715 233 135 15 42
357 634 190 88 35 37
372 610 179 77 29 36
282 961 242 85 81 84
348 650 289 86 25 36
377 615 188 166 14 43
277 910 223 54 50 52
371 619 185 147 17 43
373 620 187 126 20 40
377 620 193 98 19 34
292 585 328 127 101 80
376 625 193 128 14 34
382 610 193 156 17 42
371 628 190 142 17 42
374 626 192 160 12 36
378 582 255 148 84 71
380 594 251 131 51 54
362 640 194 116 22 36
384 611 197 88 30 33
362 620 283 46 25 28
383 615 198 70 48 41
313 526 315 56 23 27
380 618 195 50 29 32
260 709 290 150 3 45
383 620 201 90 63 51
371 889 243 71 64 63
380 624 200 72 44 42
371 634 195 44 32 36
373 635 198 62 31 33
375 633 200 66 27 28
332 725 324 128 20 47
379 626 202 77 42 37
382 640 203 106 71 54
378 615 248 102 19 37
412 755 153 81 60 44
379 616 245 99 18 37
306 978 268 63 57 57
365 868 186 75 62 58
382 610 244 101 42 43
275 765 226 139 35 55
377 610 253 156 17 49
377 620 248 62 24 32
379 620 245 151 20 51
377 625 248 113 21 41
346 650 292 140 18 48
372 561 265 154 93 74
278 650 224 148 2 37
383 640 233 140 22 46
378 630 248 71 29 35
422 789 103 71 57 42
380 636 247 114 23 40
381 640 243 76 26 36
380 640 248 139 25 48
317 690 193 59 34 35
300 810 216 86 67 59
316 699 191 53 35 35
312 700 193 70 36 36
360 903 310 74 63 62
312 705 192 64 32 35
357 650 194 73 29 34
319 697 190 99 40 42
278 655 224 152 3 40
264 685 287 61 25 33
284 644 215 103 19 35
282 645 218 115 21 40
372 750 148 54 44 41
285 646 216 146 17 43
288 650 214 125 13 37
288 655 214 120 13 34
283 650 219 142 4 36
280 650 221 145 4 37
326 949 234 80 72 74
283 655 219 144 4 38
285 655 216 128 9 35
350 831 141 65 54 51
278 660 224 149 0 39
359 683 285 108 21 44
278 665 224 141 3 36
278 670 224 121 11 34
288 660 214 68 31 35
282 819 336 185 131 102
283 660 219 135 8 38
400 764 125 73 58 46
283 665 219 147 3 37
340 953 259 72 67 71
281 665 222 143 2 37
285 660 216 80 23 35
285 665 217 148 7 39
281 670 222 102 19 34
269 650 235 157 12 43
271 650 233 158 7 43
269 654 235 162 8 44
263 645 248 164 6 43
317 974 273 72 70 72
261 645 253 167 3 43
263 650 248 174 9 50
279 911 219 59 55 57
264 655 249 169 6 46
268 650 293 160 7 51
392 600 203 77 41 35
262 655 253 173 2 47
335 622 301 150 18 47
264 645 245 162 9 44
266 650 243 126 21 45
264 649 245 158 17 46
265 652 246 173 13 54
267 655 243 172 10 47
346 740 303 121 26 46
402 690 178 104 83 60
265 655 247 168 9 46
269 660 238 164 7 44
271 665 233 161 6 45
269 665 239 149 1 39
269 670 239 98 20 37
264 660 249 168 5 47
262 660 253 165 3 47
292 890 331 182 132 109
390 584 184 118 33 42
332 695 187 42 36 37
263 665 253 124 16 40
264 670 249 120 19 39
302 815 308 54 45 43
263 670 253 95 28 40
286 889 238 66 58 54
267 665 243 154 7 43
265 665 247 158 9 44
262 695 283 84 25 35
265 669 246 135 14 41
330 793 176 53 47 45
275 642 226 147 20 43
276 655 227 153 2 39
376 645 258 52 29 33
276 660 227 148 0 39
276 665 227 146 2 39
274 665 230 154 7 43
278 680 224 142 5 37
278 685 224 142 2 39
289 785 335 169 123 90
288 675 214 69 32 35
281 674 222 98 20 33
283 680 219 71 29 34
285 675 216 73 29 33
292 976 278 62 59 60
302 870 319 157 125 91
308 890 179 93 78 69
282 685 218 131 9 36
390 534 241 106 23 41
280 684 221 139 5 39
372 859 188 86 69 62
285 685 216 111 15 32
382 760 263 94 72 64
276 700 223 136 1 36
279 700 220 134 2 34
287 690 213 115 11 32
399 808 94 107 80 61
286 695 213 120 10 33
373 675 263 129 15 42
282 690 218 135 4 37
280 690 221 135 4 36
285 690 216 127 4 34
284 700 214 113 18 36
277 915 331 111 95 87
410 538 216 88 35 45
286 700 212 101 17 32
288 700 209 115 15 35
272 675 340 147 101 77
288 705 209 56 34 37
281 700 217 132 4 35
281 705 217 140 3 37
317 770 189 135 17 39
268 680 238 55 33 36
362 609 273 37 24 26
268 675 239 58 35 38
270 675 236 73 36 40
341 919 229 72 63 61
271 680 233 123 9 36
264 702 240 50 40 39
271 685 232 122 14 35
267 685 238 102 24 38
269 685 235 127 14 37
308 810 304 73 60 52
264 675 248 73 31 37
263 675 253 115 31 46
263 680 248 53 36 37
263 680 253 52 33 36
262 685 253 46 33 37
264 676 245 47 35 37
353 700 186 37 34 38
265 685 242 75 32 40
270 690 232 65 28 36
273 690 229 42 35 38
266 690 238 142 15 42
268 700 233 129 19 41
276 878 261 119 97 74
289 897 205 54 51 51
268 705 233 81 35 41
364 698 191 37 34 37
271 705 228 89 22 37
266 700 238 77 31 40
262 695 248 52 35 37
409 744 155 60 50 39
261 690 253 39 34 37
261 695 253 47 35 37
263 700 243 78 33 40
263 705 243 67 38 42
261 705 248 77 33 39
259 705 254 46 32 37
259 560 321 82 20 37
260 700 253 59 35 38
265 690 242 142 19 46
265 695 241 81 31 37
267 655 337 141 96 78
264 705 240 50 38 40
276 675 227 150 1 39
276 680 227 143 0 38
274 680 229 138 2 36
273 685 229 113 12 33
274 696 225 124 20 45
274 700 225 138 6 37
292 645 208 103 27 40
298 645 204 90 31 39
295 646 206 92 32 38
332 655 192 117 15 31
296 650 206 126 21 41
296 655 207 90 31 38
303 644 200 145 15 43
383 690 208 91 37 40
302 650 203 50 33 39
290 650 211 106 25 37
297 665 207 98 25 34
297 660 207 77 33 38
299 658 205 67 33 42
302 665 204 132 12 35
300 661 206 66 31 32
300 664 206 126 19 37
286 933 330 46 39 37
299 670 205 69 28 33
293 660 210 72 27 34
372 711 188 69 30 42
291 670 212 66 37 39
263 690 288 82 30 39
307 645 199 132 14 37
296 594 335 144 111 86
312 645 197 121 19 36
305 646 201 57 29 36
344 829 264 56 46 38
312 650 197 74 34 38
308 655 200 44 33 39
382 745 273 179 18 57
314 643 195 117 24 33
317 645 194 79 29 37
316 655 196 135 12 33
308 665 200 143 2 36
312 665 197 131 9 33
305 660 201 116 19 36
404 594 228 138 107 72
308 670 200 131 8 33
316 660 196 123 17 31
291 650 341 162 111 84
264 750 239 139 22 45
318 660 195 115 17 30
348 761 158 49 42 38
318 665 195 98 19 31
309 893 180 94 78 70
295 680 206 46 36 37
378 710 280 117 33 49
293 685 209 73 33 34
302 675 203 44 33 37
275 610 319 124 81 71
302 680 202 52 35 36
304 686 200 45 34 35
290 680 211 48 35 39
290 685 211 49 35 39
407 645 227 171 120 91
297 690 204 80 27 35
292 695 207 122 7 32
297 695 203 111 16 32
295 693 206 122 10 28
291 700 207 122 11 30
293 705 204 111 20 34
292 855 317 166 130 100
296 705 202 115 17 34
301 690 201 63 34 37
303 690 200 48 35 37
299 701 200 125 8 31
347 870 143 90 77 65
299 705 200 120 12 33
289 695 210 120 7 31
263 710 298 134 13 41
308 675 199 129 15 34
308 680 199 78 30 35
307 685 199 48 36 37
305 683 201 57 34 37
317 675 194 101 24 34
317 680 194 62 32 35
411 794 128 98 74 55
315 615 328 165 114 85
415 695 184 126 93 62
314 685 195 60 34 32
317 685 194 49 36 36
307 695 197 39 35 38
313 691 195 69 33 35
302 805 313 76 59 51
311 689 196 60 36 35
310 694 196 40 37 40
391 730 272 174 15 59
340 691 306 138 11 43
356 523 296 180 114 98
306 700 196 40 34 37
308 701 195 68 34 38
308 705 194 73 31 34
399 547 225 44 32 33
309 697 195 45 36 33
312 710 192 102 22 32
413 810 193 168 115 86
311 715 191 115 18 31
357 535 283 171 112 94
307 610 337 163 117 86
311 720 191 106 18 34
314 710 190 129 11 31
317 710 189 123 13 31
410 810 189 156 106 78
314 715 190 131 10 33
317 715 188 123 13 33
314 720 190 118 18 35
317 720 188 126 16 34
311 730 191 90 29 36
310 735 191 96 26 36
317 725 188 132 11 32
302 710 321 73 26 35
313 730 190 125 16 35
311 740 191 124 17 38
311 750 191 71 30 36
313 740 190 72 30 35
317 740 188 106 24 35
317 745 188 103 25 34
317 760 188 133 15 36
312 765 192 141 3 37
406 720 168 93 75 57
317 765 188 138 6 36
274 710 224 135 6 38
265 685 311 120 89 67
273 715 224 141 2 36
376 849 154 89 73 64
276 715 222 115 16 38
402 670 219 134 87 67
276 720 222 145 4 39
278 715 219 95 25 37
283 710 214 126 14 39
285 710 211 75 33 40
288 710 209 63 32 36
283 715 214 118 22 41
285 715 211 70 28 35
288 715 209 129 19 42
373 849 274 53 44 35
280 715 216 133 16 40
296 840 232 161 118 92
276 725 222 143 1 37
278 725 220 144 1 36
277 730 222 142 0 37
276 735 222 130 7 36
279 730 220 143 0 37
294 814 225 84 65 57
284 725 214 123 12 35
420 763 131 76 61 51
393 530 138 78 32 40
288 725 209 115 26 44
281 725 217 142 5 39
331 825 158 65 56 53
281 735 217 142 2 37
269 706 230 86 39 46
267 710 233 85 29 39
377 780 131 80 61 50
335 533 290 147 94 76
269 710 230 104 32 46
265 710 237 79 35 41
271 890 257 111 91 71
363 891 223 72 60 58
264 710 240 63 31 36
271 715 227 140 6 38
269 715 230 139 10 39
279 808 235 85 66 57
271 720 227 151 2 41
387 685 188 95 78 61
269 720 230 156 6 44
265 715 237 147 14 44
264 715 239 154 10 45
260 710 248 106 30 43
259 710 253 62 35 41
259 712 250 82 34 45
260 709 251 59 38 41
260 715 247 57 31 38
259 715 250 48 35 39
258 715 253 101 33 43
259 720 250 99 32 45
258 720 253 87 30 40
377 745 278 164 27 59
266 725 233 155 7 44
271 725 227 147 0 39
269 725 230 150 4 41
360 904 313 68 56 55
265 725 237 157 7 46
267 730 233 153 7 43
271 735 227 126 15 41
269 735 230 115 12 35
265 730 237 155 7 44
265 735 237 141 13 42
260 725 247 154 9 43
262 735 243 62 29 38
288 755 334 176 124 95
260 735 247 158 9 45
365 852 128 113 93 75
259 730 249 157 9 46
371 775 268 88 67 59
259 701 315 130 102 71
257 730 253 147 10 42
382 816 113 98 75 61
259 735 249 159 9 45
257 735 253 155 11 45
309 808 205 87 68 59
370 649 266 33 29 31
274 735 225 121 15 39
279 745 220 101 30 37
276 750 222 91 28 38
279 750 220 88 26 33
272 969 273 81 76 77
287 745 212 79 25 38
341 945 288 55 47 43
281 740 217 135 5 39
281 745 217 106 17 35
284 749 215 95 23 37
357 617 281 31 25 24
277 755 222 61 33 38
279 755 220 56 32 39
363 896 238 63 52 51
383 535 263 167 127 99
316 575 331 158 117 87
279 760 220 48 35 36
287 755 213 138 7 38
282 755 218 69 31 39
378 695 273 48 27 30
282 760 218 68 32 38
287 765 213 132 11 40
282 765 218 83 31 38
280 767 221 130 36 49
271 740 227 86 30 39
267 740 233 64 30 37
271 745 227 56 33 38
267 745 233 144 20 46
264 740 239 99 33 44
422 750 144 92 70 47
271 750 227 67 32 37
265 750 237 126 23 43
262 740 243 79 31 40
262 745 243 96 28 41
260 745 246 149 18 47
257 745 253 99 19 41
262 750 243 117 28 44
396 785 122 62 49 39
290 589 330 131 105 83
260 750 246 123 35 49
370 776 136 72 58 51
272 755 228 75 30 40
268 760 233 63 34 39
272 760 228 62 32 40
265 760 237 106 27 42
268 765 234 105 35 44
401 600 214 107 89 69
322 675 193 112 23 31
270 762 231 48 36 39
272 765 228 74 35 40
270 765 231 103 43 51
264 765 239 134 26 45
259 755 249 134 20 42
262 755 243 89 28 39
301 978 260 64 59 58
260 755 246 116 29 44
262 760 243 107 27 42
412 745 138 95 66 45
260 760 246 129 19 42
368 785 139 71 56 48
262 765 243 101 33 44
274 755 225 139 19 44
274 760 225 134 26 43
290 715 206 129 10 34
290 720 207 136 10 38
382 685 203 68 47 44
296 715 201 140 2 33
281 829 331 193 135 107
299 710 200 134 4 35
302 710 197 134 5 34
298 715 200 142 2 36
302 720 197 121 12 35
272 876 321 145 76 83
291 725 207 79 29 37
312 630 313 80 41 40
293 724 204 89 23 35
296 725 202 102 25 37
291 730 207 49 32 38
294 730 205 41 35 39
397 810 103 99 78 63
273 609 316 110 30 41
407 700 178 115 89 60
294 735 205 41 34 40
299 725 200 70 30 37
396 712 162 91 71 53
302 725 197 114 19 38
299 730 200 72 35 40
302 730 197 93 23 37
355 914 268 60 54 51
299 735 200 87 28 37
289 730 210 76 23 38
342 902 158 99 86 80
307 710 194 71 30 36
305 710 196 110 16 36
304 720 195 140 4 36
321 775 187 82 52 47
307 720 194 140 3 35
304 725 195 138 3 35
307 725 193 134 6 35
307 730 194 120 17 36
307 735 194 124 16 37
304 735 195 140 7 38
292 740 208 58 34 40
307 965 308 78 72 70
294 740 205 81 29 32
258 690 319 142 108 76
297 740 203 105 25 37
294 745 205 75 31 38
297 745 203 76 33 39
333 860 158 78 65 62
292 750 208 101 19 37
294 749 205 110 19 37
302 740 198 97 25 38
302 745 198 79 31 38
299 740 200 79 28 36
299 745 200 64 33 35
272 785 344 175 126 94
302 750 198 73 32 38
299 749 200 122 30 46
300 752 201 138 17 38
289 740 210 64 30 37
302 690 317 67 24 30
268 591 320 57 24 27
289 745 210 40 33 41
289 750 210 77 23 37
314 640 310 130 25 44
295 755 206 145 0 38
297 760 203 146 1 38
292 765 209 147 1 39
432 792 86 100 81 59
302 760 199 135 8 40
303 765 199 142 4 38
300 765 201 143 2 37
289 755 210 146 0 37
290 762 211 148 0 42
305 737 196 145 9 34
305 745 196 65 29 39
357 716 185 81 28 29
305 750 196 62 31 38
307 755 194 128 17 37
308 760 194 140 9 37
305 760 196 144 5 39
308 765 195 143 3 37
322 645 193 43 35 38
410 756 216 170 119 89
327 645 192 76 32 36
332 645 191 84 30 36
337 645 191 81 29 35
327 650 192 77 29 33
332 650 191 121 15 31
337 805 158 54 46 44
327 655 192 119 17 33
337 655 192 100 21 31
327 670 192 51 33 36
337 670 191 97 23 28
342 645 191 44 34 37
342 650 192 71 32 34
356 744 172 56 45 40
347 645 192 63 35 36
352 645 192 55 33 34
342 665 192 94 25 31
342 670 191 97 24 29
354 650 285 111 26 43
327 675 191 67 32 35
290 972 256 82 78 80
322 680 192 83 30 34
326 680 191 97 26 34
322 685 191 96 27 33
327 685 190 116 18 27
331 674 191 74 32 32
332 675 190 98 24 30
332 680 189 113 17 27
334 672 190 72 27 35
332 685 188 113 17 27
321 690 191 47 30 35
323 690 190 71 30 33
322 695 190 74 34 37
327 690 189 93 26 33
327 964 288 67 60 57
322 705 188 75 28 33
258 940 317 136 98 85
320 850 182 52 48 47
327 700 187 50 35 37
332 690 187 87 26 31
337 690 187 88 28 30
337 695 186 56 33 35
311 895 317 154 117 93
332 700 186 71 30 33
336 699 186 103 26 32
342 675 190 99 23 29
330 564 322 175 122 100
411 530 173 189 14 50
342 680 189 90 25 28
342 685 188 106 21 29
351 723 181 81 29 27
347 675 190 47 36 35
348 674 191 47 36 37
281 899 233 64 53 48
352 670 192 67 33 34
352 681 190 40 36 38
428 774 114 86 78 72
382 650 203 96 68 54
342 695 186 48 36 38
342 700 185 101 23 30
342 705 184 111 16 27
347 690 187 60 36 34
317 690 318 49 27 30
347 695 186 64 36 38
346 697 185 44 37 37
347 700 185 44 34 38
296 850 237 150 106 82
347 705 184 70 28 32
351 701 185 38 36 38
357 680 192 47 33 34
356 686 190 50 34 34
358 685 191 43 34 35
362 685 192 51 33 33
381 858 207 76 59 52
357 690 189 67 34 34
357 700 188 42 35 38
354 705 186 35 33 38
357 705 187 51 30 34
360 690 190 68 37 40
363 694 191 39 33 35
367 695 192 47 35 35
266 915 325 118 103 91
329 812 285 163 113 92
287 630 340 152 113 84
362 705 189 77 27 30
367 700 192 38 33 35
366 705 190 59 30 31
336 730 321 176 14 56
322 650 193 111 22 36
308 977 263 73 69 71
348 529 287 111 67 60
322 660 194 123 12 31
324 581 324 174 120 95
327 660 193 125 10 30
327 665 193 114 17 29
322 670 193 85 26 33
332 665 192 112 17 30
337 660 192 99 23 32
413 655 219 162 115 82
347 650 192 92 27 32
347 655 192 72 28 30
317 850 198 46 43 44
342 660 192 61 34 35
347 665 193 93 25 30
352 660 193 59 32 35
329 821 275 142 93 78
380 535 267 166 119 94
392 575 213 135 25 48
352 665 193 70 31 34
372 875 223 73 59 56
364 642 196 132 10 33
363 645 196 125 19 31
421 823 254 103 79 62
367 645 197 126 17 32
363 650 196 121 12 30
402 740 168 58 49 42
360 655 195 124 16 31
271 679 306 100 73 57
363 655 196 110 17 32
367 650 198 123 15 29
357 670 193 51 34 35
360 660 195 68 25 31
362 665 196 74 29 33
367 660 198 57 32 34
362 670 195 62 33 36
365 671 195 38 34 37
364 668 196 78 30 30
386 849 183 84 66 60
373 645 202 90 18 29
376 645 204 76 22 31
384 641 199 109 81 60
383 645 198 107 79 58
378 645 208 144 66 56
381 645 208 128 67 63
391 566 234 88 71 52
383 650 198 104 78 58
386 869 274 98 80 82
378 650 208 122 63 52
382 650 208 111 58 52
382 655 203 91 62 52
381 641 214 130 65 64
382 646 213 129 69 66
383 645 223 106 18 37
415 655 213 141 102 65
382 650 213 121 62 58
382 655 213 93 48 47
382 650 218 93 28 41
382 650 223 122 21 42
282 964 317 63 57 55
370 660 200 39 35 37
373 660 202 48 34 36
289 865 250 143 101 74
278 892 240 98 67 43
373 665 202 66 30 36
279 626 336 150 113 86
377 665 203 66 39 38
377 670 202 70 43 41
384 660 193 113 88 67
392 846 173 105 78 66
383 660 198 100 77 62
386 700 188 87 74 60
384 665 198 88 70 56
379 664 206 96 49 46
352 890 198 87 75 70
382 660 208 82 49 44
382 665 208 74 52 47
384 670 194 96 78 60
384 670 198 82 67 53
318 860 183 54 49 50
382 670 208 75 62 62
382 665 213 51 35 34
382 660 223 100 31 42
262 695 337 151 106 82
382 665 218 52 27 30
383 670 223 125 23 43
383 645 228 138 20 45
335 928 331 49 42 38
383 645 233 150 20 48
381 645 238 139 18 45
286 919 331 169 134 110
360 893 223 66 55 54
257 705 273 138 5 39
383 655 228 87 26 37
338 801 284 160 113 94
288 937 221 87 79 81
381 655 238 154 16 47
380 645 248 140 24 48
378 645 253 69 29 35
380 641 251 132 27 50
380 643 251 107 20 35
268 844 288 62 52 52
380 650 243 156 15 48
341 814 152 60 51 51
380 650 247 149 22 47
379 650 249 111 27 43
378 655 253 117 28 46
320 958 311 72 65 60
383 660 228 61 28 34
287 835 318 167 114 89
382 660 233 73 23 36
383 665 228 51 26 31
383 670 228 143 18 46
362 880 203 85 71 66
383 670 233 143 17 45
267 740 344 166 115 89
382 670 238 148 15 46
268 855 293 150 114 90
407 789 229 157 115 83
381 660 243 153 15 46
380 660 247 148 17 46
379 660 249 109 19 39
379 665 250 58 23 31
380 670 248 149 14 46
379 668 250 148 17 54
397 670 179 132 102 69
378 670 253 149 14 45
380 672 251 144 15 44
362 680 193 75 28 30
366 675 195 36 33 37
367 685 194 42 32 34
422 775 107 82 71 62
372 675 198 38 34 37
356 846 286 59 48 39
316 825 207 85 68 59
369 679 196 38 31 32
312 770 316 79 64 54
326 895 188 92 84 81
372 680 197 44 33 35
417 805 213 161 115 85
356 754 168 60 51 45
377 676 200 63 52 54
377 680 200 57 46 50
370 682 195 61 33 34
305 860 231 85 64 53
370 685 195 39 32 33
350 826 141 74 61 56
294 828 230 83 64 56
373 685 196 40 34 36
382 675 203 90 63 59
290 584 324 108 81 68
418 730 188 148 103 71
383 675 208 98 84 82
371 847 156 83 66 58
383 680 208 78 61 62
365 863 175 79 65 59
383 685 198 75 59 50
383 685 208 63 44 44
382 680 213 74 48 49
384 675 223 78 27 35
347 745 298 57 45 44
384 679 217 91 46 51
351 650 287 108 30 44
371 690 195 45 34 35
372 695 194 50 31 33
408 710 176 115 89 60
377 690 198 42 31 35
374 695 196 52 30 33
372 700 194 40 31 35
374 698 196 45 33 36
377 701 195 44 35 39
377 705 193 51 38 40
379 692 201 68 39 41
379 694 201 57 32 36
384 690 198 76 60 51
382 703 196 63 45 39
366 885 219 83 69 64
382 699 202 87 40 38
330 953 301 58 53 52
384 675 233 131 17 44
372 885 238 72 63 60
382 675 243 144 8 45
384 680 243 141 6 43
379 675 253 140 12 43
379 678 255 137 11 43
325 810 172 57 51 47
381 680 253 134 9 42
322 710 187 122 15 30
322 715 187 122 15 31
316 845 218 95 72 60
324 720 185 112 17 29
327 715 185 117 16 31
337 710 183 94 27 32
328 707 185 119 11 28
332 710 184 95 22 29
332 715 183 100 23 31
307 730 325 156 21 50
337 715 183 59 35 37
337 720 182 74 33 36
327 725 183 127 13 29
321 725 186 124 16 33
327 735 183 117 17 32
319 820 193 61 53 49
321 730 186 91 26 33
323 730 185 93 26 33
323 735 185 103 22 36
337 725 181 54 34 38
332 730 182 96 25 32
332 735 181 116 19 31
336 730 181 68 36 37
335 734 181 103 26 33
260 694 274 117 22 44
337 735 180 85 31 35
342 710 183 105 20 30
342 715 182 81 29 32
312 860 198 48 45 46
342 720 181 72 31 35
329 561 325 181 131 108
352 710 184 65 30 32
347 720 181 59 33 34
352 720 182 79 28 29
338 726 180 49 35 41
341 724 181 69 34 34
342 725 180 57 34 35
338 730 180 57 37 37
342 735 179 57 36 37
347 722 180 85 26 30
407 845 273 92 77 66
347 725 180 82 29 31
353 722 180 83 28 31
347 730 179 49 36 37
347 735 178 55 37 37
352 730 179 78 32 32
348 760 153 60 51 45
397 715 172 97 78 57
350 758 153 63 52 47
288 920 199 87 78 74
349 765 150 70 55 44
347 765 153 56 47 41
346 765 158 53 44 41
327 740 183 115 20 34
389 790 127 47 39 33
327 745 182 61 34 38
320 740 186 94 23 32
322 745 185 70 33 37
327 750 182 78 34 38
412 825 254 120 97 80
322 750 184 100 25 34
268 845 293 55 46 46
320 750 186 118 20 34
334 740 180 108 25 31
337 745 179 84 32 34
303 571 327 132 102 80
331 750 181 62 36 38
333 750 180 70 35 37
327 755 182 73 33 37
336 898 194 81 73 70
327 760 182 73 35 37
320 755 186 119 18 35
320 760 186 127 15 37
392 864 208 82 64 57
323 765 184 126 13 36
357 914 323 70 59 53
327 765 182 92 32 37
320 765 186 136 5 35
335 803 286 165 117 95
333 755 180 59 36 39
330 760 181 73 35 38
333 760 179 71 34 37
342 916 228 76 66 65
337 755 178 73 34 37
332 765 179 78 33 36
320 968 255 84 78 79
336 765 177 60 39 38
353 745 174 59 44 40
352 750 173 55 43 38
259 730 303 110 38 44
347 745 176 82 33 34
399 807 172 65 47 42
351 744 176 61 38 37
347 750 176 56 40 40
342 755 175 50 38 40
342 760 174 56 40 37
343 766 164 59 47 42
339 761 175 55 40 38
387 616 240 132 73 59
341 764 172 68 40 38
351 759 168 53 44 41
350 930 273 45 39 36
312 660 311 114 18 39
347 756 175 53 40 39
347 761 168 57 46 41
350 758 172 52 42 38
347 765 163 60 49 42
344 762 170 59 41 37
341 754 176 49 37 38
368 736 155 63 50 39
367 734 158 63 48 40
283 750 339 173 117 88
375 734 151 66 54 42
372 735 153 65 52 41
377 735 149 65 52 40
377 731 153 66 54 41
377 729 158 64 50 41
354 912 306 84 71 69
378 732 150 68 55 42
382 730 153 74 58 43
383 731 149 76 59 46
382 735 147 72 55 41
382 729 158 69 55 43
270 665 295 136 16 45
357 720 182 80 30 29
367 709 191 71 28 35
363 721 179 65 39 39
387 875 309 68 57 49
368 717 180 71 43 43
359 732 175 65 42 38
390 599 199 65 34 30
359 735 175 63 43 36
363 726 174 67 46 45
367 725 173 70 46 46
264 887 265 120 96 70
368 721 174 72 43 45
363 730 168 67 48 47
354 605 280 86 19 36
367 730 163 71 50 47
364 731 165 68 49 47
409 531 172 189 17 52
360 735 173 62 45 42
374 762 270 90 69 61
367 728 172 68 49 47
356 725 180 76 34 29
357 730 178 73 35 33
282 860 318 157 122 98
357 735 177 67 39 36
349 906 232 75 64 62
319 887 170 109 88 72
360 723 181 70 33 33
301 865 233 85 68 56
372 720 173 69 43 43
377 716 174 66 45 45
382 720 168 71 57 46
322 759 317 90 71 66
382 715 174 75 60 49
267 602 315 55 27 29
382 720 172 72 59 50
373 712 184 68 35 44
377 709 188 65 41 41
347 925 293 55 48 45
376 708 191 58 39 40
372 714 182 69 37 42
317 851 291 133 108 83
377 714 178 69 44 44
306 885 321 165 126 102
375 713 181 69 41 44
367 565 262 95 26 35
378 712 179 67 48 43
398 580 243 164 121 88
382 709 183 76 60 48
308 885 320 165 125 101
379 707 190 60 40 38
382 706 188 77 61 51
384 707 184 86 71 55
381 714 177 71 56 47
368 727 165 71 47 49
306 895 322 161 118 95
372 726 168 69 47 43
373 727 164 67 52 45
377 725 168 68 51 44
265 842 303 162 106 78
377 724 171 69 49 44
371 729 163 69 50 43
370 728 166 70 45 43
377 728 161 65 48 40
383 721 165 71 55 43
319 880 305 135 102 75
382 726 163 69 55 44
426 791 93 87 70 53
258 690 328 154 110 83
381 724 171 69 56 46
411 645 193 105 85 63
358 746 159 57 47 40
362 741 154 58 47 37
364 737 155 58 45 39
321 780 187 73 58 50
364 737 157 61 49 42
364 740 158 55 46 38
363 745 155 61 49 41
269 798 240 79 61 51
367 740 154 59 47 39
367 745 154 61 50 41
360 749 156 63 51 40
354 766 144 59 49 43
359 761 144 56 47 39
364 684 280 36 27 30
358 766 140 62 51 41
361 760 142 58 49 41
363 756 144 57 49 42
363 761 139 58 47 40
388 785 244 81 64 55
367 756 144 57 48 41
367 758 141 53 47 41
409 801 113 73 60 46
367 765 138 54 45 42
357 754 153 72 54 40
314 957 320 74 64 58
357 756 149 62 49 39
357 760 148 56 46 39
392 782 124 79 52 44
355 754 158 54 45 40
362 542 275 160 101 79
405 553 179 174 30 59
356 764 147 56 48 43
362 755 148 59 49 42
362 753 152 61 51 44
366 753 152 61 49 43
371 740 152 59 48 39
371 745 151 60 49 39
382 875 273 97 76 65
374 737 150 63 51 42
392 664 218 70 38 35
374 745 150 60 50 40
270 865 315 131 67 80
377 745 148 59 48 41
371 749 151 58 48 41
288 840 239 162 117 94
377 750 147 51 42 42
382 740 148 62 50 40
382 745 149 58 49 43
345 928 298 52 45 41
383 744 151 63 51 44
382 749 147 52 42 43
382 752 143 51 45 45
409 810 187 148 100 72
377 760 135 61 49 41
372 760 138 53 45 40
408 545 208 88 35 42
371 758 141 49 44 41
377 755 138 52 45 40
298 947 330 59 53 47
376 758 136 57 49 40
373 761 135 60 51 44
372 764 135 59 49 40
378 765 134 59 49 42
363 912 320 76 65 58
319 802 300 82 65 55
371 766 136 57 48 41
260 904 262 77 68 63
378 757 135 60 49 40
370 753 146 50 44 42
373 752 145 49 43 41
368 824 264 55 44 37
396 770 233 79 61 51
377 752 145 50 45 42
354 742 175 56 40 36
357 745 168 69 58 53
359 742 170 58 50 46
399 588 226 127 102 73
363 740 163 57 48 43
368 575 259 95 15 33
361 744 162 64 54 46
356 738 176 67 40 38
354 757 163 54 46 38
353 756 168 55 47 40
385 513 115 176 15 44
386 514 118 173 14 40
389 512 121 168 16 48
393 515 128 135 19 37
389 521 126 48 30 41
384 522 121 176 24 53
268 943 235 75 70 71
388 526 127 101 27 40
390 524 129 67 29 34
406 745 168 67 54 45
389 527 131 168 18 39
421 773 118 69 58 48
392 525 133 69 28 37
395 514 129 168 17 40
375 519 281 175 117 94
396 515 133 152 17 41
393 520 132 83 30 36
395 519 134 130 35 44
397 520 138 85 29 33
399 517 141 169 28 42
396 525 138 75 32 38
399 526 147 114 18 37
316 525 315 61 19 26
385 534 130 50 27 38
390 534 135 54 41 43
421 860 287 100 84 70
389 536 136 59 30 41
391 535 138 74 31 35
387 540 138 77 29 35
386 544 139 130 26 44
390 538 139 78 32 37
280 846 251 173 118 92
389 542 141 164 28 54
397 530 143 98 30 39
394 536 142 131 32 43
395 534 144 102 24 39
397 535 148 108 32 43
399 535 153 73 31 35
395 538 145 56 30 33
396 540 148 126 27 45
397 540 153 98 32 40
395 545 153 40 32 37
399 537 157 43 34 32
398 540 158 90 24 39
400 514 139 158 18 44
400 519 144 115 19 40
355 577 276 147 13 42
403 520 153 179 19 46
405 514 149 173 18 45
404 517 151 174 20 45
408 516 157 137 20 39
416 665 203 134 97 62
405 519 154 178 18 49
400 524 145 54 35 33
310 648 328 161 106 80
402 525 153 176 19 47
404 522 156 183 16 48
405 524 159 158 17 41
411 514 159 91 28 39
298 700 323 105 70 54
400 529 149 132 15 36
401 530 153 98 28 42
378 846 153 85 71 65
402 530 158 51 27 33
401 535 158 49 29 33
399 541 162 176 20 49
277 965 313 64 59 58
398 545 163 114 23 42
397 875 309 69 58 50
408 521 162 184 16 47
412 515 163 158 16 47
288 556 323 153 14 48
409 517 161 190 12 44
411 519 164 187 14 49
351 820 263 75 57 45
416 515 168 190 13 50
414 517 167 189 13 49
415 518 170 189 13 51
416 520 173 192 12 52
411 525 168 188 15 49
415 524 174 192 13 53
416 525 178 192 12 52
414 527 176 191 13 53
404 531 162 46 27 30
339 600 295 155 15 49
402 535 163 115 21 40
404 536 167 177 17 47
407 530 168 184 18 51
406 534 169 185 18 45
408 535 172 187 16 49
400 543 165 144 20 48
407 540 173 180 18 48
404 542 171 65 24 17
347 890 313 39 35 34
258 640 263 168 7 48
390 594 194 179 19 51
404 546 172 35 32 35
286 865 258 120 93 65
405 544 174 67 26 34
288 849 244 161 111 86
410 528 170 189 17 46
410 534 174 188 14 49
407 545 178 154 22 49
412 535 178 189 12 50
413 530 177 190 12 50
415 529 179 190 11 52
416 530 183 185 14 51
269 644 296 164 8 54
414 532 181 190 11 52
297 550 317 69 13 26
415 534 184 189 12 52
265 703 340 154 109 84
409 762 168 73 54 42
415 534 188 195 13 54
414 536 188 197 13 55
409 537 176 188 13 48
410 539 179 190 12 51
411 540 183 192 12 54
322 545 324 137 109 89
410 544 184 192 11 54
413 540 188 195 11 55
266 902 320 124 90 74
410 545 188 194 11 56
396 850 203 80 62 53
411 545 193 194 12 55
413 540 193 193 12 55
414 537 192 196 12 53
386 550 144 49 32 35
388 551 147 72 29 39
292 900 330 184 133 112
259 930 321 181 139 122
405 786 161 62 48 39
391 549 149 104 32 43
313 830 213 86 67 60
385 554 145 38 32 35
388 556 152 131 24 42
391 835 254 100 82 79
318 756 320 50 31 34
387 560 153 64 26 36
390 553 150 160 30 48
390 558 155 36 33 39
393 555 158 90 23 39
353 751 285 88 68 58
391 560 158 93 24 40
394 546 152 41 33 38
283 854 258 182 123 95
395 550 158 126 23 44
395 553 160 147 14 39
384 562 151 120 20 35
262 964 283 72 65 68
386 564 154 164 18 43
310 614 336 165 116 86
389 561 156 80 34 40
390 564 159 186 17 44
397 550 163 176 20 48
398 550 168 156 19 44
394 556 162 164 24 51
385 691 196 81 68 57
393 560 163 177 20 49
397 555 168 162 20 46
262 836 323 193 126 102
394 561 167 96 21 36
341 950 278 60 52 49
395 559 169 94 24 37
399 552 171 138 23 34
397 560 173 64 31 38
399 561 177 40 30 35
375 883 245 64 57 56
391 565 163 185 19 46
389 567 161 184 19 48
388 570 162 183 19 46
387 575 163 180 18 45
390 569 164 181 20 46
322 890 303 130 100 74
391 570 168 126 24 41
261 720 340 157 110 84
390 574 169 42 30 34
391 575 173 48 31 35
395 563 170 117 40 50
407 835 263 93 72 57
396 565 174 60 30 35
394 566 172 97 31 40
395 568 175 54 28 26
298 800 318 169 121 87
392 575 178 162 20 44
297 956 325 86 81 80
388 549 247 103 72 47
394 571 177 140 26 45
277 910 329 147 122 101
396 570 179 123 31 42
395 573 180 180 27 47
377 849 158 81 66 60
396 574 184 161 25 51
399 571 188 100 27 42
398 575 193 58 29 34
400 549 169 95 23 39
402 550 173 58 30 35
292 974 288 59 54 53
405 548 175 31 32 36
401 554 174 71 26 33
274 834 250 85 66 58
400 558 175 53 30 32
425 784 111 82 66 51
404 551 176 106 41 51
406 550 178 70 28 37
408 550 188 147 18 46
277 895 327 186 134 119
401 560 179 93 30 39
405 554 183 143 26 47
412 777 131 54 45 37
406 555 188 53 26 33
272 795 344 185 137 107
406 555 193 79 28 40
404 557 186 152 23 44
405 558 189 69 22 30
320 770 186 135 14 37
405 559 193 37 31 33
337 925 330 51 45 42
298 760 319 124 81 60
409 550 193 188 13 54
410 548 190 192 11 54
392 871 283 84 66 58
410 548 193 193 12 56
371 748 281 79 63 58
401 564 183 167 22 51
404 561 193 45 29 33
402 565 193 103 31 41
400 568 189 185 25 55
370 885 256 57 52 52
385 844 237 69 52 47
401 570 193 133 31 47
418 515 173 192 12 52
420 513 174 192 10 53
265 837 266 87 67 60
419 516 177 194 11 54
418 520 178 194 11 54
419 521 182 186 15 52
421 514 178 192 10 54
420 518 180 193 11 51
420 519 183 185 13 54
391 825 238 78 59 51
421 520 188 97 25 40
418 525 183 168 16 50
419 526 193 41 29 33
420 523 189 48 32 34
261 875 313 152 98 92
420 524 193 59 32 38
400 585 241 163 120 86
417 530 188 178 21 54
418 530 193 77 26 36
415 519 222 99 31 43
322 765 313 90 72 63
416 525 213 58 30 33
414 526 214 60 25 30
321 635 306 97 28 39
411 525 223 185 9 58
416 520 218 48 28 31
415 523 217 88 30 37
413 525 218 129 24 46
416 530 203 189 17 55
414 531 209 179 17 55
416 529 208 127 24 46
411 545 198 166 24 52
414 537 198 194 13 55
410 544 202 64 29 34
410 543 206 40 27 32
407 535 223 156 21 52
318 820 198 77 63 54
403 541 224 30 27 32
304 887 185 64 59 60
413 530 213 128 22 46
342 595 292 151 7 46
411 535 213 141 23 48
415 528 212 36 29 32
277 966 308 56 54 54
337 850 285 66 52 44
412 530 218 179 13 56
408 530 224 184 8 58
392 645 228 112 56 45
410 529 222 184 9 57
276 850 314 170 125 107
409 535 219 142 27 51
410 534 217 150 18 49
410 539 213 48 29 33
282 895 329 190 139 123
407 545 213 54 30 35
397 525 238 167 16 53
363 575 264 144 8 44
387 516 241 69 21 28
390 513 240 79 26 36
394 836 162 103 74 59
392 515 241 63 24 30
392 520 242 97 23 37
267 966 283 71 67 68
387 525 243 55 24 29
287 615 338 149 112 85
396 515 241 89 22 34
392 540 238 130 20 46
272 755 343 174 121 91
389 541 240 106 15 38
388 545 238 103 21 41
396 535 236 173 17 54
398 531 235 177 12 56
398 535 234 176 15 55
306 810 307 66 53 47
397 540 233 163 20 53
260 947 251 69 65 66
344 795 155 59 48 45
396 544 232 50 27 31
395 538 236 176 18 56
394 541 235 109 26 42
362 549 267 141 84 72
393 545 234 40 28 31
387 535 244 132 22 47
282 930 217 81 72 71
385 536 246 84 21 37
387 540 243 158 20 51
313 845 220 121 88 70
384 538 248 90 43 41
386 540 248 117 52 47
386 545 243 142 31 48
318 971 283 69 65 65
388 545 248 114 68 50
390 538 241 169 17 53
387 540 253 116 82 59
389 543 253 118 77 54
391 545 253 131 91 65
406 520 232 176 4 56
402 515 237 169 15 53
347 845 286 48 40 35
402 796 103 102 73 46
401 520 237 175 13 56
405 514 236 172 11 55
405 524 231 179 2 55
407 525 228 183 3 59
372 870 253 56 47 50
409 516 230 178 5 57
412 515 228 181 11 58
415 514 226 170 26 60
414 516 225 184 16 58
431 850 283 90 83 78
409 526 225 184 4 59
392 610 242 158 104 76
402 530 233 178 7 57
259 907 258 53 49 50
340 753 307 89 71 64
404 531 230 179 8 56
282 710 342 168 115 84
401 540 228 103 29 44
400 544 227 40 26 31
393 555 224 91 31 41
397 560 218 55 31 36
395 558 221 89 27 35
412 760 148 87 65 47
399 566 209 83 30 38
399 572 198 72 36 40
398 575 198 50 30 34
398 570 208 80 31 37
390 564 222 124 29 49
329 561 302 81 37 37
389 566 224 110 31 47
366 894 284 71 61 58
342 845 147 64 54 53
391 570 218 91 32 42
396 565 217 64 31 35
387 880 298 88 73 67
393 571 214 149 32 56
408 550 203 42 28 33
286 855 253 172 117 89
406 550 208 63 33 38
408 550 198 163 19 50
297 660 339 168 117 87
406 555 198 144 28 49
405 559 198 97 31 41
403 560 203 88 30 39
406 555 203 99 28 40
405 554 208 38 29 33
404 557 204 62 26 31
392 868 300 59 49 43
410 548 198 156 23 50
406 550 213 56 31 35
362 900 298 67 57 56
404 551 214 41 30 32
405 548 216 34 30 35
405 553 211 36 27 32
392 645 187 115 91 65
401 555 218 88 32 42
400 554 221 54 21 27
404 561 198 79 34 39
401 564 208 91 32 42
401 570 198 108 31 44
400 569 202 138 26 51
302 954 234 91 86 90
400 568 206 64 14 30
327 960 298 67 60 58
400 563 212 84 30 40
346 536 274 102 63 55
389 552 230 71 18 32
386 549 237 164 20 53
389 547 235 75 25 32
391 554 227 95 26 40
389 556 229 101 33 46
389 560 228 75 29 37
390 559 226 78 19 31
388 560 233 50 30 29
384 553 238 94 13 32
407 685 179 116 89 59
396 549 227 111 29 45
395 548 231 53 25 38
393 695 179 94 79 62
384 550 241 109 22 39
368 650 269 31 28 32
390 546 249 113 62 48
392 550 253 149 113 86
392 555 248 122 93 66
389 558 241 99 77 53
393 555 253 171 126 99
375 880 243 61 54 54
388 564 232 51 37 29
419 521 208 60 30 32
390 562 235 70 53 37
390 561 238 97 78 58
340 785 161 66 53 47
391 571 229 65 48 36
392 575 228 87 70 52
396 575 233 123 98 71
396 570 238 127 101 70
388 571 255 179 126 99
387 575 254 177 121 96
391 570 252 177 126 100
391 575 252 176 125 97
394 564 243 127 99 70
395 567 240 125 98 68
396 570 243 151 113 79
395 570 247 166 120 90
395 575 247 171 124 94
397 575 243 158 117 83
386 686 252 115 10 34
393 575 249 175 126 98
301 750 320 101 4 31
385 682 241 140 7 44
421 520 198 59 31 34
421 520 203 72 31 38
419 526 198 115 35 49
312 575 332 149 114 86
419 522 204 58 28 31
366 894 238 72 60 57
417 525 208 70 31 36
420 514 213 48 30 32
418 515 218 63 32 34
420 513 216 37 26 32
402 820 228 149 109 86
385 578 164 181 19 48
385 584 169 186 17 45
386 585 173 160 24 46
291 720 337 176 122 94
389 577 171 47 40 35
390 579 174 39 33 31
283 775 339 169 122 90
384 587 171 177 18 53
321 585 327 174 125 99
392 580 183 110 24 41
260 725 303 120 35 42
389 581 178 66 27 28
388 585 178 91 30 38
389 585 183 86 29 37
391 585 188 122 33 45
386 590 178 129 24 45
395 579 189 117 29 42
396 580 193 65 33 38
394 582 191 36 34 32
384 592 176 159 23 44
385 594 179 187 15 46
352 829 279 49 38 30
370 587 261 72 17 27
386 595 183 182 17 48
384 597 181 184 18 51
385 598 184 184 16 51
387 600 193 176 21 48
384 601 188 165 17 45
292 925 208 81 74 73
419 710 203 159 109 76
385 604 194 161 17 43
392 635 193 109 86 59
392 640 189 109 87 61
288 785 219 82 64 56
394 637 190 106 86 63
397 635 192 106 87 65
397 640 189 107 88 67
300 973 250 92 89 93
402 635 193 107 89 69
402 640 189 109 90 70
403 638 191 108 89 69
407 640 193 103 85 66
391 585 208 49 29 34
391 591 208 57 30 33
312 555 323 126 98 80
395 583 194 49 33 39
396 580 198 53 31 33
395 583 197 97 34 44
394 585 198 131 29 47
390 580 212 121 30 45
378 807 119 57 49 44
389 580 214 90 27 39
390 585 214 63 29 32
393 580 223 73 57 41
389 586 209 53 29 35
402 730 142 114 79 53
389 586 212 60 26 31
308 856 218 47 43 42
389 588 209 57 28 33
394 583 222 88 71 51
428 856 292 93 83 75
396 585 223 106 86 65
395 591 214 84 69 52
259 720 309 124 91 66
397 590 218 98 81 62
398 589 223 116 94 70
390 595 198 62 26 34
389 597 196 139 28 52
378 828 260 51 41 34
392 605 203 96 62 43
394 600 206 91 60 44
397 605 207 103 84 61
324 825 170 60 52 49
396 606 205 103 81 53
381 739 277 102 25 44
394 593 211 66 48 34
408 813 150 90 68 57
397 595 213 91 76 60
396 596 209 83 60 46
398 594 217 105 88 68
426 800 92 92 76 58
274 887 249 187 144 115
401 591 223 126 101 73
385 685 192 87 73 59
400 597 215 106 88 70
367 842 146 109 80 63
400 592 220 116 94 69
346 945 273 66 59 56
403 595 223 131 104 73
403 736 164 60 53 47
405 600 223 133 104 69
405 601 219 132 103 70
407 605 223 136 105 68
391 630 197 112 86 57
394 579 227 100 81 62
395 576 230 114 93 69
398 580 233 129 103 72
398 585 228 123 99 72
399 579 238 145 111 75
386 585 252 173 116 91
390 580 251 175 123 97
431 746 141 94 73 51
392 585 248 176 125 96
387 590 249 170 112 88
392 590 246 174 121 95
423 815 253 97 73 54
395 580 246 172 126 98
395 585 246 175 127 98
397 585 243 170 124 93
397 590 243 172 125 95
399 600 240 173 123 91
397 605 239 172 120 90
397 862 291 52 43 37
387 595 247 166 106 81
313 972 256 90 85 88
387 600 246 158 98 77
329 782 300 88 66 56
388 601 245 161 105 79
393 596 245 174 121 92
390 598 246 167 112 81
387 605 244 150 91 71
397 595 243 174 125 95
396 604 241 173 121 89
334 585 299 155 13 48
400 586 229 130 104 73
302 555 319 116 26 42
402 590 228 132 104 72
401 590 238 161 117 83
338 917 226 69 60 60
400 582 241 157 117 81
404 595 233 152 112 76
405 597 228 141 108 72
349 746 295 86 68 60
405 600 228 142 108 71
405 597 231 149 110 74
277 540 329 59 29 32
405 600 232 153 112 75
402 595 238 165 118 85
404 600 234 160 115 80
324 952 309 59 56 56
401 600 237 167 118 87
407 605 228 147 108 72
405 605 232 158 113 78
401 605 237 168 118 89
387 615 200 94 65 47
352 810 147 48 42 45
391 611 200 102 67 45
393 610 202 105 75 47
392 615 200 110 79 51
392 625 198 112 86 55
392 620 200 112 84 54
391 620 201 113 84 53
397 610 203 108 86 58
394 613 201 110 81 48
329 689 315 115 15 38
397 616 200 111 88 59
390 702 266 128 4 39
398 614 201 111 89 62
399 608 206 108 89 67
397 625 198 110 88 62
364 532 285 184 126 104
397 620 200 110 88 61
387 630 199 115 85 57
387 635 198 113 85 58
378 780 259 84 64 57
358 605 274 107 19 38
388 640 193 115 89 60
389 636 194 113 88 59
393 631 195 111 87 59
415 781 221 164 118 85
390 633 196 113 86 57
404 790 164 68 51 42
385 638 201 111 81 60
397 630 194 108 87 63
313 520 318 121 20 41
401 611 205 111 91 68
402 610 208 110 90 67
403 725 163 77 65 54
402 615 203 112 91 67
260 940 320 113 83 73
402 625 198 110 90 67
400 617 200 113 91 68
403 619 202 113 91 66
408 620 208 119 94 65
383 841 152 90 74 65
404 623 201 112 91 66
407 625 203 110 89 66
409 624 207 121 96 66
404 608 211 112 91 66
406 610 213 123 97 67
405 611 210 114 91 66
334 962 268 76 71 72
408 610 218 133 103 68
409 614 217 136 104 67
410 616 219 140 106 67
313 880 179 54 49 50
409 614 224 146 108 71
411 820 164 105 76 57
410 621 213 138 105 68
387 878 293 80 65 60
410 626 209 130 101 66
410 622 210 133 104 68
344 829 266 56 44 37
411 620 218 143 106 68
410 620 223 150 107 73
272 824 337 196 137 108
411 625 223 153 109 73
337 870 159 76 61 53
402 630 195 107 89 68
403 629 196 109 90 69
365 893 234 75 64 61
406 626 200 109 89 67
407 630 198 106 87 66
406 636 194 106 87 66
408 635 197 104 85 65
410 631 204 117 93 63
411 630 208 132 102 65
410 636 199 108 88 65
411 635 203 125 98 66
413 640 203 136 105 69
412 630 218 147 106 70
272 685 341 150 107 78
413 635 218 149 105 70
413 640 218 150 106 71
392 620 239 148 94 69
406 800 178 142 93 67
392 625 237 143 89 67
326 918 319 36 34 35
397 620 238 164 111 83
313 630 328 163 111 82
397 625 236 162 108 80
387 610 242 140 83 66
387 614 241 133 75 60
384 617 240 130 51 51
394 610 240 164 111 83
377 866 293 49 41 36
387 631 235 122 44 45
265 670 283 82 30 39
387 628 236 126 51 49
323 915 203 94 90 90
392 628 236 140 87 65
259 701 336 153 110 84
385 637 230 97 11 29
332 889 299 60 51 45
387 635 232 115 33 40
387 641 229 100 17 31
370 850 254 62 50 50
388 638 231 111 35 39
308 640 334 160 112 84
392 640 232 126 71 55
397 630 234 162 107 79
395 628 236 157 101 75
398 626 235 166 113 82
326 795 297 80 61 52
397 635 233 156 102 75
286 771 217 92 54 52
406 615 232 162 114 82
403 610 234 164 115 85
417 795 213 170 122 88
401 615 236 169 119 90
406 620 232 165 117 85
408 620 228 158 113 78
405 624 231 169 118 89
405 710 221 139 89 65
408 625 229 162 114 81
402 620 234 170 121 91
410 620 226 155 111 74
317 635 307 72 25 33
410 625 226 158 111 75
402 630 232 169 115 87
310 869 191 57 51 55
333 541 297 101 53 47
407 630 228 166 116 85
309 630 335 164 115 86
417 749 132 102 71 41
405 628 231 170 119 88
401 635 232 166 112 83
401 640 231 163 109 80
368 695 284 71 25 33
403 640 230 167 113 85
407 635 228 165 115 83
410 630 226 160 113 77
334 897 168 111 98 91
398 751 128 64 50 39
398 754 127 60 49 39
398 761 124 69 52 42
398 761 127 69 53 45
373 864 244 52 41 41
402 751 127 66 50 37
393 814 153 87 65 53
297 929 214 86 79 79
406 751 129 72 51 38
401 759 129 71 51 41
365 879 208 84 68 63
407 754 129 83 60 45
407 759 123 87 63 48
407 760 129 84 61 42
413 758 123 100 74 53
412 755 129 98 70 47
439 795 74 110 89 67
413 757 124 91 66 45
342 925 327 61 53 49
417 755 124 99 72 47
417 760 124 110 82 58
319 898 165 114 97 86
416 759 128 84 61 43
375 888 284 70 60 56
417 765 123 96 73 56
260 962 282 73 67 69
417 765 128 83 68 56
360 911 326 73 63 58
405 838 212 96 65 54
438 762 92 87 74 60
439 763 93 88 72 54
438 769 103 82 65 49
446 766 89 90 77 65
443 765 93 89 74 58
418 751 129 113 83 54
422 750 123 104 81 56
402 790 118 87 62 44
426 746 124 91 75 59
426 746 128 95 75 56
427 766 113 87 67 47
432 766 113 80 64 47
428 767 110 99 73 45
363 806 138 52 48 47
363 742 285 72 54 49
418 753 119 101 77 49
421 755 123 108 82 54
422 760 124 93 73 56
423 760 118 112 89 65
420 759 126 110 86 67
422 765 116 94 75 54
376 879 263 63 55 54
403 805 138 91 71 61
421 763 121 79 66 60
426 767 116 88 70 49
433 762 112 80 63 46
438 762 98 82 68 53
438 764 99 83 67 51
321 835 207 67 56 52
436 765 108 72 56 40
436 766 112 73 59 42
442 765 98 87 71 54
440 761 111 83 73 63
440 767 110 69 53 40
388 645 189 117 93 65
389 642 190 116 91 60
392 650 184 119 94 66
262 870 298 92 59 55
392 655 183 125 99 72
383 540 263 166 124 96
396 656 224 111 64 49
388 650 188 120 95 69
385 654 191 117 93 69
389 651 185 123 97 69
390 648 186 120 95 66
389 655 185 125 100 73
265 842 278 78 62 57
406 775 143 75 61 50
397 644 186 108 88 66
374 872 311 49 43 38
397 650 184 115 93 67
307 860 308 123 99 71
397 655 182 122 97 69
351 920 273 56 49 50
392 660 182 131 104 75
381 759 267 92 70 61
391 665 182 132 102 73
268 645 314 119 91 67
387 660 188 124 97 72
412 806 87 103 83 66
385 660 191 118 91 68
387 665 188 121 94 71
385 665 191 111 88 66
389 660 184 129 102 75
389 665 184 130 100 74
387 670 188 110 87 63
330 692 316 122 16 45
389 671 185 118 93 67
356 575 273 144 9 44
397 659 181 122 97 68
286 947 330 72 67 68
394 661 180 129 102 71
407 806 229 150 111 83
397 661 180 121 95 65
397 665 179 132 102 70
376 851 277 60 49 40
402 720 153 85 66 47
401 647 185 105 88 69
407 645 189 99 83 66
402 650 184 105 87 67
402 655 182 112 90 65
407 655 183 104 82 58
408 649 187 93 78 63
410 647 190 100 83 63
411 655 184 113 87 63
411 650 189 103 84 61
413 650 193 122 94 65
407 660 181 129 94 67
406 662 180 129 94 64
406 665 180 121 90 59
402 670 179 118 91 59
414 660 192 154 106 79
437 792 79 100 80 61
413 665 188 147 101 76
414 665 193 147 101 74
411 670 184 135 99 69
413 670 188 135 96 68
372 825 263 57 46 37
342 840 148 59 50 49
391 680 182 108 86 62
385 675 192 93 76 59
387 680 188 98 79 60
385 680 192 89 74 59
321 615 306 41 28 29
389 675 185 113 90 65
389 680 185 103 83 62
391 685 183 100 82 62
389 684 185 99 81 62
397 680 179 110 87 62
394 681 180 109 87 62
397 685 179 99 81 61
391 695 233 134 13 42
391 690 183 95 79 63
313 815 299 70 56 47
419 710 198 152 106 73
391 695 182 94 79 63
