ply
format ascii 1.0
comment Created by Open3D
element vertex 2225
property double x
property double y
property double z
property uchar red
property uchar green
property uchar blue
end_header
430 548 181 162 113 84
344 63 256 113 60 60
313 293 242 70 56 40
329 73 311 109 33 39
300 413 202 69 60 51
239 493 121 86 23 39
304 498 56 93 30 37
235 495 122 93 35 31
294 513 56 157 17 44
365 238 226 124 94 61
331 61 332 100 20 36
234 598 220 193 124 93
415 508 172 150 63 61
307 521 72 205 7 44
234 494 126 77 32 29
324 398 291 62 53 44
284 19 241 183 130 123
392 631 240 116 18 36
359 887 366 62 53 48
254 764 339 160 117 87
245 543 126 142 10 42
338 461 85 79 60 43
349 298 205 107 87 65
201 494 181 139 104 83
263 819 290 146 109 85
385 668 261 83 26 37
334 68 336 84 56 44
276 425 212 62 53 45
240 490 127 74 35 31
241 388 242 124 97 64
414 753 196 134 96 59
414 703 288 56 44 32
334 828 237 181 133 111
238 499 120 85 33 36
400 708 260 74 43 42
330 342 199 85 76 66
254 449 187 68 59 55
274 943 251 84 76 75
417 413 266 103 22 37
266 240 253 105 91 76
302 105 333 114 77 67
320 590 169 134 23 40
240 498 117 129 24 36
208 497 156 100 89 79
275 429 207 82 75 71
298 388 210 95 74 48
254 447 191 70 40 34
344 206 204 114 94 71
397 528 290 161 22 53
270 469 147 66 56 46
305 228 302 145 105 75
305 971 277 91 85 86
310 268 231 70 62 53
396 633 228 69 48 41
275 455 168 73 61 48
242 402 267 125 97 68
234 498 122 110 25 39
419 848 336 74 60 55
300 283 230 81 71 60
283 606 201 84 27 36
354 583 167 93 34 41
415 488 266 120 23 43
233 499 124 158 17 50
359 218 206 122 97 68
439 844 361 85 66 54
314 43 257 125 76 69
365 908 286 76 66 63
240 501 122 90 25 39
289 13 231 190 139 138
239 502 126 120 15 39
272 643 308 148 17 47
307 600 184 183 6 41
276 810 338 190 136 107
326 499 75 180 4 46
313 482 70 87 43 30
247 473 308 136 13 43
344 449 101 88 73 58
402 633 184 153 107 71
404 402 271 80 39 35
363 173 231 123 96 63
334 18 246 85 72 59
257 431 308 43 32 31
250 378 271 127 99 70
279 248 302 148 108 81
355 348 206 97 84 73
301 88 330 105 83 64
249 494 111 85 50 50
250 528 221 54 24 30
309 363 261 98 73 51
245 393 236 115 90 61
356 589 308 120 32 47
319 88 299 109 81 55
314 58 251 128 89 76
255 495 102 74 50 48
396 510 293 168 18 53
379 763 305 50 40 33
419 883 395 94 82 72
329 394 261 60 54 49
344 508 145 137 13 37
344 412 184 98 85 72
399 698 190 135 94 57
302 270 248 95 78 59
254 398 226 106 83 56
244 488 126 76 35 33
233 492 136 69 31 33
305 11 300 116 55 52
409 458 156 69 34 37
238 507 256 90 16 33
329 268 246 104 81 57
249 487 126 77 37 36
344 513 146 139 12 34
256 510 78 181 8 49
244 494 116 112 29 37
253 473 317 86 20 35
320 218 236 80 70 60
339 398 271 64 58 53
279 607 192 198 6 39
243 492 120 82 29 37
381 80 248 125 15 47
240 484 166 61 50 41
373 404 202 101 87 74
296 853 253 156 128 101
307 476 89 67 55 47
310 48 236 124 58 50
348 643 300 144 15 45
240 458 205 54 30 34
349 653 301 131 19 45
378 410 350 59 50 41
329 13 241 75 65 56
377 102 237 114 69 62
248 492 115 89 37 38
408 836 318 46 39 34
247 448 231 107 20 38
261 485 118 72 48 46
290 940 244 81 71 72
243 472 184 52 34 37
389 688 277 54 40 29
439 753 291 85 60 50
259 402 296 72 54 43
394 406 246 72 55 47
329 308 252 133 101 74
244 463 185 72 39 33
244 433 236 41 31 34
400 684 281 79 62 49
203 493 191 109 77 59
329 858 244 116 95 73
379 833 301 39 36 35
275 488 335 143 15 45
287 412 308 102 10 33
295 479 96 73 46 35
376 697 288 63 25 30
302 394 294 79 66 53
249 489 121 77 36 39
482 720 342 97 83 73
274 617 221 119 31 44
210 498 151 90 77 61
241 493 300 128 15 43
366 812 202 167 129 97
202 503 160 170 121 104
344 493 136 136 20 42
326 18 258 112 24 42
386 62 242 101 24 38
264 280 228 99 88 77
246 495 113 82 25 32
297 349 274 114 90 61
322 98 236 128 101 73
305 313 257 117 87 61
238 443 271 144 2 41
247 452 213 62 27 33
241 403 242 127 99 67
264 443 216 77 62 45
388 68 241 114 33 45
314 283 241 70 57 42
255 561 132 240 16 62
264 523 77 81 18 32
354 123 222 121 98 73
340 455 92 77 63 53
382 23 236 82 16 35
252 461 179 52 45 38
315 773 226 80 64 57
317 430 329 133 8 40
235 490 171 63 45 38
255 708 256 98 19 36
359 88 222 119 50 45
232 758 318 169 119 89
245 490 122 76 31 33
360 273 221 118 91 60
404 843 286 61 50 48
221 551 207 171 120 89
297 297 215 85 72 58
304 713 212 68 30 39
250 485 127 76 37 38
238 408 261 110 81 58
383 598 276 177 6 55
379 48 233 95 72 66
329 663 207 143 1 35
453 838 373 92 77 63
302 398 199 81 69 56
324 49 258 124 47 58
397 423 311 93 23 36
252 436 220 106 19 36
482 721 343 95 82 70
327 365 259 92 69 50
249 808 335 177 124 100
256 485 123 72 44 45
229 492 161 87 48 45
356 864 315 31 29 33
335 114 352 151 20 59
259 538 320 54 30 32
297 116 304 105 88 68
403 802 303 46 38 32
337 228 248 98 78 55
334 143 241 101 82 61
294 883 251 152 125 98
314 823 245 145 110 82
282 648 313 134 22 49
252 718 255 81 35 41
309 53 246 121 56 56
319 12 256 97 59 48
381 406 224 75 60 52
472 802 363 106 86 65
250 358 266 129 100 70
254 489 116 74 42 42
387 443 321 171 13 51
219 502 137 182 14 48
309 10 236 103 71 67
409 882 395 90 79 70
241 488 299 141 5 43
252 491 114 82 47 43
237 411 256 68 51 39
354 258 201 129 99 64
314 813 246 159 111 85
349 206 204 119 97 72
406 544 262 75 26 36
359 468 345 94 28 40
250 488 315 140 17 47
301 358 203 102 81 56
343 98 341 128 12 41
249 498 106 77 56 48
320 131 340 131 39 59
274 611 198 114 30 47
301 631 213 49 34 35
324 703 325 156 18 51
241 719 319 141 104 77
237 643 277 143 106 77
234 513 256 107 17 39
384 693 281 51 37 29
278 539 95 157 31 46
222 488 203 124 4 39
354 883 367 63 55 51
245 498 111 144 23 48
434 448 186 102 40 46
317 18 264 122 32 52
282 182 308 116 93 68
382 437 123 145 22 45
364 513 338 157 20 52
252 323 261 130 100 73
371 387 209 106 92 77
400 843 280 57 48 48
374 431 126 97 82 63
349 38 241 101 87 73
274 428 311 53 27 29
248 496 110 101 54 44
419 458 251 117 11 37
316 236 234 73 64 56
342 96 338 128 14 41
385 688 196 119 89 58
242 778 333 169 120 92
344 873 221 116 90 69
238 433 246 121 24 43
296 10 319 45 42 43
374 434 116 100 81 64
335 292 248 131 102 73
299 8 311 64 41 43
322 810 239 188 133 109
299 683 323 81 24 37
443 767 282 92 67 51
306 41 250 124 29 44
247 502 104 120 25 51
418 710 263 72 55 41
339 723 189 144 4 37
378 728 196 128 85 55
324 758 206 85 67 59
410 849 326 71 64 67
265 308 274 128 94 71
237 473 259 47 31 32
364 83 222 139 34 41
319 633 315 139 20 47
385 658 251 147 12 45
329 88 250 112 46 50
246 507 107 123 23 40
276 777 257 92 70 61
234 463 196 63 30 33
358 93 222 139 44 48
335 87 363 103 24 38
284 598 176 222 12 46
327 228 242 80 66 51
374 498 326 126 23 46
257 491 109 73 41 48
247 509 105 100 19 39
247 510 109 90 23 38
326 510 89 188 3 42
240 473 211 56 27 33
253 623 291 61 27 34
319 308 251 122 92 71
244 403 237 115 90 60
277 341 213 80 68 55
394 848 271 63 54 53
309 358 200 96 81 65
417 797 313 49 41 35
361 361 209 93 83 72
236 537 152 45 34 38
247 513 110 82 26 38
311 520 80 204 9 47
276 17 248 112 60 42
391 473 149 95 24 33
292 11 299 130 41 48
325 168 235 92 77 62
253 949 296 70 65 66
269 448 181 63 53 44
450 793 337 107 96 88
267 218 286 117 94 69
240 388 246 128 99 67
253 748 266 91 31 41
354 42 236 95 85 75
355 298 211 106 86 65
303 298 205 99 82 64
262 575 164 140 30 43
268 734 234 179 6 45
243 503 121 137 18 42
241 498 246 87 16 34
488 861 404 83 72 61
314 273 202 107 88 66
363 743 197 138 10 36
225 499 133 195 3 53
299 233 256 102 84 64
257 466 169 55 46 37
389 843 256 82 61 54
416 844 300 75 63 57
403 604 239 44 27 28
271 568 324 163 16 52
352 941 306 57 52 52
237 456 263 132 42 58
284 248 302 154 109 81
207 486 185 88 60 50
365 213 221 118 94 65
324 578 166 82 32 37
385 859 274 64 55 54
491 805 366 100 84 68
242 504 125 167 2 45
304 273 276 143 104 79
277 250 243 99 87 74
241 454 205 81 28 35
359 263 236 134 100 72
324 218 241 79 68 57
323 104 358 143 20 55
230 748 306 169 115 86
314 308 250 83 64 45
289 598 325 48 26 32
323 208 238 82 71 61
269 923 347 53 50 50
245 508 116 93 25 34
317 59 253 127 94 77
233 509 216 61 26 32
238 540 214 47 18 28
407 537 265 177 16 53
329 73 254 123 94 77
402 588 190 112 75 53
224 503 141 175 2 44
244 508 121 55 31 33
243 443 240 45 31 34
249 664 294 134 98 72
325 208 240 80 69 59
362 835 224 84 69 65
289 668 318 54 26 30
251 432 218 109 37 42
261 268 284 132 99 71
284 613 321 91 33 42
344 903 241 72 65 66
229 503 226 136 3 41
420 618 185 152 105 72
244 513 121 107 14 35
389 608 203 74 35 37
446 810 336 69 53 50
412 452 158 124 19 34
259 933 336 50 47 48
344 900 363 66 58 55
269 298 278 136 99 78
329 53 223 136 62 57
379 753 304 45 36 31
359 883 370 67 58 52
315 113 300 120 89 56
304 673 221 121 7 31
241 506 128 167 1 46
237 418 245 128 17 38
413 583 231 149 17 45
349 108 246 118 81 61
230 592 218 192 125 95
414 498 261 161 18 51
249 468 176 56 47 41
319 808 240 181 128 104
324 73 252 124 32 49
432 521 194 161 115 98
429 887 396 92 80 73
304 113 298 109 89 64
429 498 162 156 109 82
237 497 272 136 5 39
230 733 291 167 112 83
298 883 249 144 119 94
276 238 304 135 101 73
425 743 221 152 107 78
358 856 335 33 30 31
436 800 294 74 58 58
246 419 232 78 59 44
284 949 256 78 74 75
349 763 315 73 55 49
284 313 211 73 62 50
245 428 291 65 28 34
239 589 249 108 85 63
344 68 255 117 96 83
349 858 355 51 42 35
243 513 126 117 9 37
378 466 143 88 34 37
314 833 317 49 40 36
310 11 305 72 45 42
273 203 296 115 92 67
404 773 190 128 95 54
354 123 242 118 90 61
331 57 326 70 52 44
243 473 226 32 29 32
247 386 268 125 98 69
325 52 337 115 99 82
275 653 310 123 27 47
394 563 276 170 14 53
247 918 306 178 133 110
249 448 191 82 35 29
430 734 269 80 60 49
246 445 202 36 33 37
329 629 200 131 13 35
334 253 198 120 95 64
409 823 276 67 53 47
295 408 321 123 16 39
240 398 246 130 102 69
264 484 116 75 51 46
374 678 210 55 36 39
354 893 246 76 68 68
321 184 212 112 93 74
280 21 254 166 121 115
355 118 243 118 87 62
281 208 309 125 97 68
253 590 210 164 13 44
241 423 238 88 29 36
241 438 242 92 31 40
327 796 324 83 65 57
394 415 182 96 55 50
282 171 303 116 93 69
307 462 339 71 18 26
365 388 205 95 84 72
289 582 152 202 11 44
354 93 220 131 78 60
252 538 96 102 30 42
353 333 240 122 96 66
322 526 125 90 33 35
438 788 292 57 44 42
292 297 274 130 94 70
209 493 195 100 64 55
230 673 271 162 111 84
237 492 266 75 26 33
284 328 276 121 94 63
348 44 250 85 31 34
239 398 251 130 101 68
239 403 246 129 101 70
359 138 240 114 89 61
242 398 240 123 97 65
408 798 192 151 104 67
382 669 269 92 29 38
344 108 247 130 91 69
252 437 216 98 28 39
395 869 341 63 52 53
284 573 136 216 15 45
302 556 124 166 0 46
211 491 193 80 42 40
245 474 176 63 50 45
239 408 246 126 99 69
239 518 276 109 25 42
352 323 239 126 97 68
409 404 261 101 36 39
312 426 184 82 71 60
419 583 211 149 107 83
247 393 234 113 89 60
359 49 227 71 53 43
339 178 208 120 98 73
241 443 243 116 19 37
248 608 281 130 5 40
245 479 166 59 45 36
308 183 315 142 103 77
461 785 344 82 64 48
244 588 250 84 63 51
339 122 219 115 96 74
239 403 251 132 102 70
491 793 385 103 82 66
274 403 301 82 44 36
209 513 160 179 115 102
311 82 354 98 38 42
388 706 288 56 40 29
239 403 256 130 100 69
417 533 174 130 83 66
239 408 251 122 97 70
238 408 256 113 91 67
272 692 239 53 33 33
279 893 256 145 114 85
334 713 322 156 18 51
347 93 354 115 22 40
345 88 341 118 26 41
351 865 309 32 29 31
245 448 206 107 23 39
324 879 315 62 54 47
410 408 278 85 30 38
316 382 262 63 50 36
258 258 256 116 93 67
409 458 256 46 26 30
364 833 303 36 33 33
300 956 262 90 87 90
238 413 246 105 64 49
240 498 251 122 11 39
246 454 233 132 11 41
236 413 256 50 30 32
358 858 358 43 36 32
291 43 321 118 45 48
247 476 166 56 44 35
294 588 166 178 8 41
237 412 251 83 63 48
249 433 226 115 21 38
320 148 316 124 95 65
309 768 231 82 65 57
375 688 287 108 21 38
250 373 270 126 98 69
374 453 352 110 29 43
319 433 181 90 77 63
414 618 182 141 100 61
239 448 246 141 9 39
245 373 261 124 96 66
284 193 311 120 96 69
239 574 240 88 66 49
242 825 316 210 146 119
362 349 230 116 93 66
269 898 260 152 114 85
304 9 241 144 100 97
201 507 162 174 118 100
320 437 180 90 77 63
284 558 116 159 19 45
230 733 301 165 111 83
277 789 264 96 73 62
328 18 255 99 31 40
332 528 143 145 0 31
236 415 248 132 25 49
309 153 291 114 92 66
242 393 240 123 96 63
387 415 354 64 32 30
399 723 295 58 45 33
329 418 183 87 77 66
254 428 306 88 25 35
209 509 156 113 55 55
359 863 316 32 29 32
231 514 250 108 14 40
265 652 258 121 54 48
269 753 332 120 86 62
352 809 214 82 67 62
251 440 211 66 27 33
358 483 343 38 28 30
430 782 250 139 94 70
384 783 188 134 102 64
249 388 231 114 89 60
313 448 335 132 10 41
249 393 231 113 88 60
252 434 219 102 32 37
334 288 199 96 82 68
270 213 291 116 94 69
360 353 236 115 92 65
241 474 215 37 28 30
251 938 321 49 46 46
489 818 367 113 90 68
253 472 165 58 45 38
315 378 261 75 58 40
370 658 282 134 10 42
309 48 241 130 98 72
364 363 236 115 92 66
314 43 299 125 18 36
324 233 241 76 64 50
279 933 347 61 56 56
244 398 236 114 90 61
243 520 208 92 15 31
393 407 306 80 32 40
318 29 334 101 86 72
237 453 271 139 5 40
429 854 379 89 78 68
259 551 106 199 24 55
315 243 231 74 65 56
331 78 319 115 89 76
290 475 112 71 46 35
284 598 325 83 34 41
355 53 224 91 54 41
315 564 151 110 34 46
434 877 387 94 76 64
340 77 341 85 36 33
354 403 190 95 83 70
223 503 202 107 8 35
412 658 211 142 91 65
392 567 188 153 7 39
291 15 264 110 55 56
247 398 234 111 87 60
329 458 325 138 13 43
355 323 211 98 82 65
388 547 162 61 32 39
359 78 253 104 45 50
251 393 228 111 86 58
420 839 315 68 57 54
279 267 294 164 114 89
284 668 315 53 28 30
241 393 242 126 98 65
242 408 239 122 95 64
236 418 256 76 31 38
394 419 166 89 45 38
240 393 246 130 101 69
324 893 362 60 54 52
349 218 202 119 96 70
328 208 243 80 69 57
242 387 257 126 97 67
302 364 204 103 81 55
331 509 106 186 3 44
279 222 259 101 88 75
227 485 172 73 49 21
314 848 246 132 108 84
241 393 256 126 98 67
363 158 231 120 95 65
245 408 236 112 88 59
253 893 311 158 122 102
329 188 207 118 97 73
391 840 314 36 33 34
328 73 224 110 58 46
247 403 234 111 87 59
327 792 324 85 66 58
274 643 310 107 25 42
300 935 348 74 67 64
396 424 317 51 33 36
210 485 172 106 90 74
413 599 219 133 91 76
328 78 225 142 24 41
386 554 293 163 19 50
241 508 131 148 0 39
289 418 206 60 52 44
242 413 239 112 90 63
290 464 136 80 64 51
252 372 273 127 101 71
378 55 228 102 83 78
256 722 323 146 111 82
339 58 256 124 25 46
374 793 305 60 49 42
237 480 265 101 25 35
250 423 226 86 51 42
344 758 320 122 21 44
299 9 251 110 63 55
315 223 286 125 97 66
294 10 260 100 56 46
249 413 231 107 84 59
252 404 229 107 84 58
425 503 211 68 30 36
240 478 216 43 25 29
324 643 206 168 1 39
423 847 337 74 58 54
315 920 234 81 72 71
312 10 232 92 57 50
276 694 233 50 39 40
256 280 238 118 94 68
250 827 325 197 132 109
454 833 372 84 71 58
349 163 244 110 86 58
309 18 290 151 84 76
328 39 219 143 36 45
392 406 256 65 54 45
207 496 159 99 89 80
354 498 147 95 28 39
230 491 170 67 45 38
254 408 226 102 80 56
277 338 213 79 67 54
286 465 138 79 63 50
284 967 306 67 62 61
346 485 125 178 1 41
289 189 273 101 86 70
228 498 131 168 10 47
276 15 248 96 30 35
231 518 254 154 2 48
252 408 229 106 83 57
251 533 96 113 33 42
239 413 276 107 16 39
299 93 321 103 25 38
296 310 208 98 81 63
374 52 231 119 111 106
252 414 229 103 82 59
263 677 264 82 38 33
296 42 339 55 42 35
381 600 189 81 25 37
334 478 327 116 19 39
344 418 183 98 85 73
352 40 236 93 82 72
288 876 254 132 106 80
346 463 329 91 19 33
332 814 229 180 131 110
330 103 245 135 100 82
286 890 346 37 35 35
294 9 246 143 85 78
327 32 324 105 12 35
362 148 236 121 95 65
363 353 231 114 92 67
240 408 241 126 98 67
329 368 193 90 80 70
255 469 166 57 45 37
410 413 278 72 25 32
300 248 297 153 109 82
469 733 322 82 71 61
295 828 271 134 99 74
316 178 295 117 91 61
252 441 204 65 36 36
254 424 222 76 63 52
291 449 344 108 27 42
309 393 286 75 64 52
242 422 283 140 14 43
236 480 178 69 29 29
209 518 162 191 127 111
309 138 295 117 91 59
292 366 214 64 52 41
252 361 268 128 101 71
240 568 281 122 18 42
419 852 346 89 69 61
402 508 284 153 17 48
254 429 217 71 57 45
333 664 314 49 27 28
304 24 221 157 22 45
274 898 335 81 69 60
296 314 207 99 80 59
219 512 157 194 119 107
225 593 236 154 111 79
331 834 308 38 33 30
251 425 223 66 51 41
250 428 222 104 37 41
269 507 75 97 15 34
246 503 309 151 5 46
324 308 252 131 99 76
368 107 228 144 22 38
337 674 314 58 30 33
231 507 216 68 24 30
270 254 242 99 86 73
308 486 70 91 32 33
410 834 327 85 74 63
461 731 290 69 52 34
251 430 218 104 39 41
259 388 222 100 79 53
349 748 195 135 16 38
289 208 312 139 103 74
320 58 227 123 92 68
335 278 199 102 84 63
237 508 281 52 31 33
320 118 305 123 93 65
436 505 164 184 126 102
353 53 223 104 49 35
364 511 153 40 35 38
414 713 262 60 46 39
264 863 306 114 59 61
273 467 328 119 14 36
251 433 221 118 30 40
250 408 296 51 31 32
327 86 363 99 30 39
326 36 218 153 22 38
356 56 253 61 34 24
224 492 161 88 61 57
239 478 181 63 35 36
394 688 277 72 48 36
306 510 54 199 5 44
247 382 268 125 97 68
248 539 240 54 21 32
423 777 271 60 47 38
202 498 187 134 96 76
344 243 249 119 92 64
254 427 220 68 57 48
260 258 251 108 88 67
243 483 231 79 25 33
324 17 316 65 53 46
366 919 301 63 56 52
278 846 303 126 95 75
359 163 216 112 93 73
409 457 251 54 26 30
244 448 201 46 33 34
297 201 314 145 104 74
279 663 241 116 14 36
299 558 131 161 5 43
339 58 222 137 23 34
334 28 251 90 29 34
329 263 246 98 77 54
354 378 253 113 91 67
343 333 249 133 99 74
369 788 308 48 39 33
333 779 214 84 67 59
364 223 211 124 97 65
335 533 144 134 5 32
354 358 202 90 81 72
268 960 286 72 67 67
394 438 141 178 7 42
249 443 201 61 35 35
379 638 210 150 12 38
288 163 312 118 94 67
289 863 256 133 110 87
387 447 320 170 7 53
294 143 292 103 87 69
309 613 320 95 29 42
224 503 156 91 10 34
304 931 237 89 79 78
354 888 367 65 55 50
246 445 205 65 31 29
297 53 315 120 85 65
254 438 206 60 42 40
294 683 322 49 27 32
231 487 174 62 45 37
269 811 339 192 137 110
362 218 208 117 93 65
235 490 136 65 32 32
364 543 160 121 15 33
313 462 116 75 60 46
209 507 151 129 23 42
426 469 169 61 38 39
341 41 253 88 30 31
437 445 159 53 34 40
240 438 286 111 18 40
315 228 286 128 97 67
419 790 251 105 75 63
351 925 328 54 48 46
455 823 365 105 86 65
254 442 201 63 37 37
224 498 206 147 0 44
409 833 366 46 38 33
274 808 276 70 58 55
251 440 207 51 36 30
261 441 210 78 63 45
256 440 203 60 50 38
339 564 164 150 21 43
227 515 159 79 33 38
274 487 101 81 55 43
419 798 281 52 43 40
360 392 200 94 82 71
318 498 339 144 19 48
308 547 112 45 33 40
285 13 311 93 38 39
304 401 326 110 36 38
434 453 166 148 18 41
234 501 136 201 2 44
450 783 341 85 75 66
244 498 306 130 14 43
429 538 196 162 117 97
298 729 224 155 12 46
344 58 221 133 42 41
393 553 286 109 25 42
231 668 275 139 100 71
349 58 221 144 23 37
216 502 138 152 25 42
419 473 251 34 26 28
237 478 272 59 28 33
246 449 210 61 27 32
321 450 138 90 75 59
382 33 236 85 27 38
384 843 310 35 32 33
394 418 171 91 49 41
365 553 311 113 21 42
411 520 263 53 23 28
243 478 231 82 24 34
247 446 208 114 30 47
339 148 243 95 77 59
267 688 308 103 28 41
321 173 217 113 93 73
240 418 241 122 22 35
419 798 286 61 49 46
410 855 340 77 62 59
321 787 228 82 65 57
259 487 116 71 35 45
299 27 236 149 52 62
339 693 197 42 37 39
349 393 192 92 80 69
432 719 268 88 66 45
235 768 326 169 120 92
268 491 100 81 42 29
269 713 316 133 19 43
251 323 259 129 100 73
341 99 218 133 25 34
371 875 374 51 44 40
254 832 316 183 116 92
434 883 396 98 86 75
423 793 226 191 127 99
336 372 194 92 81 72
442 786 297 70 54 47
240 413 281 42 31 32
300 648 222 89 31 40
334 233 200 119 96 70
214 498 146 74 57 43
374 548 160 158 2 34
360 273 216 120 92 61
248 448 212 67 28 34
324 383 190 88 77 68
374 613 281 67 27 36
264 811 339 191 135 109
354 163 242 118 92 62
230 513 236 137 1 39
329 768 327 81 62 53
251 439 216 95 22 36
209 484 186 90 68 50
421 820 338 37 28 21
230 507 226 125 8 37
307 312 204 89 73 56
274 193 281 109 92 75
344 293 201 109 88 65
388 881 373 86 73 70
314 393 189 88 76 64
251 438 221 92 23 35
397 591 249 165 17 58
250 443 216 102 19 38
237 448 261 142 7 42
290 267 239 95 82 68
230 758 306 162 112 81
231 490 151 79 57 49
249 448 216 109 17 37
402 523 284 164 16 49
234 566 233 110 86 63
249 453 186 64 51 43
249 448 221 119 12 37
433 428 231 75 30 37
279 343 215 77 65 52
240 493 231 115 3 36
247 456 230 128 13 38
327 649 314 117 24 43
274 253 299 146 107 81
236 418 247 117 22 38
237 793 294 168 120 86
251 503 315 109 18 40
264 698 246 105 12 33
232 754 294 163 113 78
236 418 251 81 31 37
316 61 233 128 101 67
379 888 281 78 67 63
273 457 323 84 13 29
434 493 199 93 21 34
284 22 255 159 114 101
374 870 222 94 78 71
240 428 241 68 31 34
280 183 305 117 94 68
344 597 173 103 39 48
330 123 240 120 92 70
260 238 271 118 95 68
389 753 191 136 98 62
364 878 227 84 70 66
238 428 246 84 29 36
294 458 146 79 66 53
237 438 251 144 6 42
339 213 203 114 93 70
333 918 236 74 67 66
260 470 157 61 50 43
236 428 251 67 30 34
407 443 153 141 10 33
402 822 198 213 147 119
312 118 298 123 92 56
379 405 256 65 57 45
245 453 211 39 28 30
409 878 396 91 78 68
338 34 250 77 26 31
319 828 245 148 116 90
311 389 278 81 66 52
350 308 236 123 93 64
364 405 296 57 47 41
237 429 249 74 36 39
335 503 121 171 1 42
244 813 296 169 120 90
248 393 272 125 98 69
364 118 236 127 97 66
236 433 256 103 19 38
306 83 344 104 23 36
249 718 322 142 109 79
344 198 205 117 96 71
324 127 344 135 28 54
348 513 148 92 29 37
237 434 250 144 12 42
234 603 222 191 125 93
249 463 181 57 48 41
324 14 221 92 50 44
407 831 222 205 134 103
251 603 266 74 18 30
374 708 205 53 35 36
401 830 266 77 60 50
236 436 256 151 3 43
253 363 271 126 99 70
237 438 256 149 2 41
239 443 246 130 12 40
389 438 136 180 11 45
329 378 192 89 79 69
245 423 232 117 26 39
232 732 313 156 108 81
414 854 346 89 70 61
247 530 234 54 26 36
336 22 247 93 67 54
306 733 218 144 11 41
251 608 295 168 6 51
262 327 273 125 97 69
299 328 206 98 77 52
237 443 256 148 1 42
243 824 321 200 136 109
316 875 349 40 36 37
444 889 398 88 83 79
238 448 251 143 5 40
394 413 331 101 33 46
325 672 318 69 31 35
279 850 267 101 85 67
227 481 203 41 31 26
284 513 338 95 28 41
318 800 235 177 124 101
400 824 291 52 42 43
243 418 236 92 50 39
280 508 66 166 2 41
246 428 232 72 28 34
243 428 236 62 32 37
318 58 230 135 104 73
306 243 264 109 85 58
232 778 299 167 116 82
244 468 185 67 31 36
242 429 239 50 31 33
264 510 73 75 43 29
324 603 317 60 29 33
349 893 236 69 59 60
229 613 256 145 107 77
470 828 380 97 82 69
308 248 267 119 91 63
282 221 259 101 87 73
269 477 131 76 49 47
320 764 333 79 55 50
203 498 191 122 80 67
255 438 309 119 9 38
317 495 339 153 12 49
246 438 233 93 30 39
249 692 308 134 105 74
273 491 95 82 41 22
444 798 351 42 34 31
334 113 244 128 94 75
444 808 326 86 70 61
412 483 274 139 17 44
329 443 151 91 76 60
459 857 375 104 91 78
223 496 140 87 15 47
252 550 114 96 8 40
201 495 167 146 112 86
404 869 306 77 66 64
300 474 101 69 47 36
319 358 195 91 80 70
301 866 313 82 69 55
276 334 214 80 68 56
283 919 353 57 51 51
247 423 293 77 29 33
308 288 237 64 55 45
246 433 233 63 32 35
252 416 229 93 77 60
269 293 279 144 102 80
479 793 372 91 76 62
238 486 146 64 43 37
448 793 351 55 46 37
364 404 276 65 56 47
410 660 189 174 120 87
276 240 248 102 89 76
252 593 265 31 29 32
296 105 324 102 69 46
419 533 211 82 28 36
297 770 239 80 63 57
253 422 225 78 65 54
340 27 226 98 84 70
303 278 275 141 102 78
381 473 322 168 15 51
267 216 283 119 96 72
339 543 334 103 29 45
204 498 196 142 105 87
412 496 163 169 13 37
266 281 284 154 107 86
323 292 248 116 90 66
411 820 271 65 50 47
322 829 244 147 118 93
245 438 236 73 31 33
401 830 343 36 33 32
238 503 256 131 5 39
243 438 240 62 32 36
357 804 209 51 50 53
315 27 218 145 33 45
247 443 231 58 30 33
316 71 238 128 100 72
452 729 303 65 53 40
433 414 221 136 24 44
408 673 225 147 101 74
364 68 221 127 33 34
274 556 117 210 17 52
219 497 141 73 47 36
399 404 266 83 40 36
243 448 240 44 32 33
278 462 328 50 28 30
257 918 274 157 120 95
279 238 305 138 101 74
325 173 235 92 78 63
246 442 233 58 33 32
244 484 141 65 34 31
228 501 141 188 1 42
308 817 329 73 56 49
334 323 197 88 76 64
299 949 337 73 66 63
215 514 204 129 105 86
328 168 237 90 76 62
342 907 226 78 74 74
344 258 247 134 100 71
236 463 261 85 30 38
226 501 133 188 9 42
246 447 233 62 28 27
236 478 266 130 20 43
249 443 226 68 29 35
252 318 262 129 99 73
226 486 169 96 77 53
348 830 229 53 44 53
280 854 309 132 101 75
401 483 154 65 39 40
373 82 223 146 19 37
241 448 243 114 23 42
353 318 236 124 96 66
204 497 161 110 88 66
226 623 241 169 117 84
390 855 369 54 44 38
245 488 306 148 3 45
472 763 339 98 77 58
297 103 326 105 62 54
201 517 181 162 114 91
205 499 157 111 90 67
300 108 330 108 66 57
232 491 141 66 40 34
376 742 197 122 76 51
309 78 302 118 91 64
375 388 216 85 74 62
207 503 154 101 71 63
287 346 214 65 55 44
339 673 203 76 32 37
203 508 160 186 123 106
305 108 336 113 56 57
303 293 241 74 65 55
414 463 160 140 17 38
369 83 253 123 13 46
374 407 201 102 88 74
364 698 301 122 14 40
298 58 316 126 24 42
205 507 157 182 120 103
205 513 162 194 129 111
294 473 344 81 26 37
285 18 236 175 117 100
329 48 311 107 31 39
358 886 369 69 58 53
488 718 328 103 83 66
372 379 221 101 84 66
348 493 332 143 17 45
325 148 221 116 94 71
474 778 356 102 79 58
324 398 286 61 52 42
334 348 252 128 96 73
247 476 169 55 45 35
295 589 171 182 6 40
309 308 251 82 60 43
268 437 313 35 29 28
373 632 202 102 29 41
358 169 213 117 97 74
254 553 311 118 23 45
224 495 141 99 46 32
314 944 250 93 86 88
328 108 242 125 96 74
399 808 186 151 106 67
219 494 156 117 89 76
350 293 205 111 89 64
284 638 315 63 29 33
376 90 248 126 16 46
215 495 152 102 79 60
385 411 200 94 79 68
224 493 151 106 83 75
236 421 264 144 1 42
313 258 205 113 92 68
359 703 197 94 29 35
304 502 50 97 17 33
425 876 399 90 73 59
269 513 71 86 25 33
300 856 308 89 73 57
309 448 156 85 73 60
241 493 247 119 13 37
311 228 216 97 82 67
224 493 156 115 78 70
374 404 266 69 55 41
214 503 141 99 29 42
336 124 218 115 95 75
302 88 332 111 89 71
261 234 275 117 95 70
290 357 283 114 90 63
228 492 151 88 63 54
286 448 330 83 26 36
320 445 157 90 75 60
268 284 283 151 103 82
344 178 247 105 84 60
219 499 136 119 25 46
309 972 306 53 50 50
249 587 248 38 24 25
314 9 251 97 59 48
393 418 346 120 36 49
251 353 265 128 100 71
429 417 181 106 32 39
289 243 249 95 82 69
325 98 227 128 92 70
224 497 136 125 27 37
206 490 167 101 90 81
216 500 138 92 32 37
201 503 162 162 115 97
354 707 194 102 21 29
219 504 141 154 17 42
214 533 191 192 132 103
460 733 281 89 68 50
248 493 311 150 4 45
290 33 331 110 25 43
319 963 267 85 82 84
253 453 312 91 23 35
416 513 176 124 44 48
217 506 143 77 33 32
452 470 168 128 93 68
325 28 326 107 76 61
380 849 246 93 74 63
344 548 156 186 10 35
434 733 270 76 60 47
241 488 248 96 24 35
317 218 231 81 69 58
240 493 296 145 7 44
373 583 295 151 26 52
255 308 266 131 100 73
324 442 161 92 76 60
359 338 221 113 91 66
249 479 151 74 38 34
319 638 315 75 28 36
211 499 147 80 67 49
310 524 85 149 19 46
328 15 222 91 54 47
244 473 181 55 39 38
301 68 311 124 101 76
375 808 192 148 114 80
373 111 240 139 64 79
476 725 304 114 85 55
210 503 146 89 41 38
237 413 266 140 8 43
354 544 159 187 6 36
346 98 351 128 4 46
250 428 301 42 32 32
323 876 335 34 31 34
232 638 268 152 111 81
376 396 238 72 63 54
247 378 267 127 99 69
480 723 311 94 75 57
304 18 265 115 45 51
213 496 150 92 74 50
272 198 291 116 93 69
314 946 252 95 89 91
417 409 261 123 25 46
212 503 144 75 37 43
362 153 223 113 92 69
249 403 286 79 61 48
272 495 68 171 15 40
352 253 244 133 102 73
314 83 299 123 31 33
225 568 206 179 121 91
253 383 276 127 99 70
405 678 228 132 91 65
279 297 279 146 106 80
404 488 156 77 32 38
320 178 226 102 84 63
305 881 322 60 53 46
212 496 154 104 95 87
414 758 246 118 72 55
304 513 56 205 15 46
210 507 147 104 19 39
249 633 240 164 106 83
252 328 262 130 101 72
236 418 261 128 17 42
214 507 146 119 36 50
214 509 151 211 146 142
334 298 198 95 81 67
348 333 245 128 97 69
235 616 228 183 122 87
284 813 336 182 129 100
328 43 306 110 29 42
326 53 304 104 80 59
404 837 235 123 88 71
284 966 291 70 66 67
240 403 261 128 99 68
419 533 201 57 34 36
305 128 329 124 91 72
388 411 311 70 35 37
329 313 253 137 104 77
210 511 158 164 91 87
213 510 155 200 132 129
327 790 224 79 63 57
241 533 286 52 32 35
397 527 162 61 35 35
243 463 211 64 27 33
214 513 161 162 92 83
354 208 204 121 98 71
321 92 241 124 40 51
383 426 154 96 67 54
228 504 155 61 31 37
415 448 261 119 21 44
333 173 242 89 75 61
217 496 149 85 70 52
220 505 146 106 8 38
230 503 216 116 12 40
220 504 151 104 1 29
305 98 340 100 40 44
314 503 56 178 8 44
344 268 247 138 104 76
223 502 151 130 3 35
247 451 303 131 13 43
221 504 154 104 0 30
312 282 238 68 56 44
384 503 307 148 20 48
344 228 249 115 90 60
354 163 212 113 94 74
323 163 226 112 91 67
224 502 159 71 11 28
404 448 152 129 17 34
304 468 111 68 51 43
300 128 325 120 94 70
380 463 336 139 23 47
218 506 146 101 32 37
371 373 226 109 89 68
416 707 215 139 97 68
374 399 245 71 62 54
359 404 296 60 52 46
294 24 256 141 46 59
419 748 301 43 35 29
484 697 298 98 83 68
219 508 151 175 109 108
220 509 154 170 100 106
320 42 223 137 91 70
361 113 229 106 82 53
450 839 374 90 76 63
224 508 156 91 31 44
418 503 226 67 25 34
374 453 136 127 17 39
348 88 218 125 53 43
247 520 220 130 3 41
299 10 236 172 124 123
294 939 245 77 69 70
205 489 171 101 87 74
283 615 219 40 34 40
314 10 241 88 65 55
357 204 244 120 95 66
204 488 176 87 75 63
237 753 284 171 118 86
321 77 249 125 19 47
309 608 322 109 27 44
328 502 81 48 29 36
413 683 211 136 95 59
250 904 316 159 123 101
269 398 296 100 81 62
415 458 160 56 34 37
314 563 331 183 16 59
207 486 175 89 78 67
381 839 369 64 52 41
382 86 244 127 6 42
269 553 325 168 16 53
347 700 314 143 14 45
334 188 245 88 73 58
209 488 166 105 93 82
237 662 278 133 91 61
334 358 197 89 79 70
454 468 171 133 97 75
208 491 164 93 84 77
294 10 241 164 106 101
294 873 251 147 121 95
339 183 247 96 77 57
349 358 250 125 99 70
248 453 221 114 13 36
201 494 171 133 106 81
329 353 197 88 78 69
341 401 296 60 52 43
204 488 181 103 86 68
295 10 237 178 123 121
428 453 246 161 6 51
314 10 236 86 62 54
255 923 276 122 99 82
481 719 310 100 80 62
205 488 186 93 61 49
205 488 191 109 85 62
403 678 229 125 86 61
209 484 191 107 86 65
350 488 335 90 28 40
308 48 246 129 98 77
355 353 205 94 83 73
285 894 252 107 87 66
299 278 221 93 77 60
209 487 192 106 79 62
411 860 304 75 63 61
286 27 311 149 12 51
351 742 313 142 13 44
233 793 321 171 119 93
301 31 247 137 36 50
374 425 162 100 84 68
309 628 318 67 29 34
202 491 182 129 102 82
232 512 247 48 26 30
360 103 224 144 31 44
201 495 184 138 108 86
202 496 164 125 97 75
202 510 164 173 120 98
250 348 261 128 101 72
289 779 250 81 64 58
356 122 224 116 95 71
246 455 214 46 23 22
352 892 223 94 80 73
248 458 307 108 21 38
200 508 176 150 110 88
359 63 254 97 66 54
319 83 360 104 36 43
413 808 311 40 37 36
244 468 216 64 26 34
201 513 171 157 108 85
349 48 251 91 25 37
418 803 216 179 119 89
232 513 150 41 35 37
410 707 228 135 96 71
200 513 176 154 111 86
358 374 249 116 93 67
332 118 332 124 18 41
200 498 181 143 104 82
314 518 81 189 8 43
239 666 253 197 138 109
201 503 181 142 100 81
419 789 261 78 57 51
359 88 252 100 47 48
412 458 158 61 36 38
201 503 186 150 110 90
335 367 194 89 79 69
420 788 266 86 64 52
422 487 169 51 32 29
201 513 181 140 104 80
359 883 231 81 70 67
298 510 50 216 17 47
220 480 184 61 37 33
298 98 326 95 71 54
353 113 244 113 81 55
406 733 246 74 27 39
236 473 266 86 28 38
409 483 277 150 14 46
304 863 310 78 65 53
241 629 274 124 94 67
279 208 306 120 96 69
249 564 146 218 12 55
201 508 185 144 106 82
246 609 229 168 101 79
334 243 199 119 96 68
408 703 230 123 85 63
243 428 287 47 29 32
429 528 171 162 110 80
354 228 201 124 99 69
202 508 187 144 110 85
279 218 307 129 99 70
387 597 197 118 26 36
321 179 213 111 93 74
230 728 306 156 108 79
222 482 197 90 20 29
372 868 211 101 86 76
291 895 354 39 36 35
351 430 167 99 84 68
202 508 191 135 103 80
357 349 240 117 93 66
319 413 184 85 75 65
220 491 164 72 64 60
362 384 249 107 87 65
362 551 324 44 30 32
274 283 285 158 110 89
284 22 246 180 129 108
370 464 140 86 29 38
377 497 319 171 15 53
409 783 191 140 100 60
263 678 303 48 32 28
296 16 287 179 112 100
203 513 191 151 111 86
445 754 315 68 54 44
307 267 271 135 98 70
435 463 167 101 79 62
251 480 143 68 9 22
266 592 172 92 35 43
329 398 188 88 77 66
252 558 307 133 18 45
361 919 290 68 59 57
384 728 298 59 33 29
215 485 167 109 98 88
379 893 296 62 55 54
339 158 211 119 97 74
325 123 226 120 96 71
254 564 141 235 12 60
237 622 268 130 99 70
327 97 307 96 70 55
269 743 237 178 4 45
214 487 165 101 89 78
212 486 169 110 97 85
409 548 191 98 23 35
325 599 318 121 36 50
449 443 166 88 32 41
323 188 209 117 97 76
313 247 228 72 63 54
397 841 238 96 71 58
435 823 326 78 67 58
334 33 218 110 60 44
295 293 221 88 73 56
421 743 227 156 109 84
334 112 355 149 22 61
249 448 306 122 16 40
249 358 261 126 99 69
214 490 163 80 66 50
374 88 250 124 5 44
360 832 222 83 68 65
219 488 165 102 88 73
260 418 222 75 64 53
339 104 248 138 97 78
463 811 367 97 79 59
214 529 171 222 150 127
262 595 189 180 9 44
339 353 198 86 76 67
248 477 161 62 44 39
293 587 162 200 11 47
338 28 221 79 50 35
399 683 267 65 45 39
219 483 171 91 73 53
438 439 155 53 35 36
219 481 175 90 76 64
382 447 137 178 6 43
329 798 225 70 57 55
363 188 216 121 96 68
244 483 146 67 40 37
224 484 171 88 50 34
240 798 292 164 117 84
315 253 235 73 63 54
230 500 141 201 0 41
439 719 281 96 82 68
378 438 117 101 54 52
349 68 222 123 23 30
223 485 168 117 99 82
250 538 101 56 34 37
329 403 186 88 77 66
331 21 219 120 38 44
357 318 230 128 98 70
218 490 163 73 61 48
405 703 232 108 62 50
246 433 295 67 30 36
225 491 164 79 48 48
229 663 266 156 111 82
254 481 136 74 34 35
214 482 181 97 80 63
408 828 240 133 94 72
334 518 336 125 20 44
329 559 156 121 31 47
349 303 205 102 85 67
314 33 222 138 50 51
253 581 243 33 29 26
329 291 199 94 80 67
374 573 167 177 9 40
443 507 199 168 117 106
284 527 76 110 34 44
252 342 263 127 100 71
214 484 186 81 59 50
266 621 223 203 21 59
239 483 291 85 23 37
344 278 199 113 89 61
423 753 300 51 41 35
212 484 190 93 63 53
404 768 300 47 39 32
437 516 172 182 126 98
351 764 313 75 57 49
289 944 342 70 63 62
339 203 248 100 80 59
323 268 242 81 64 45
304 678 220 133 5 34
364 203 231 118 93 64
242 482 166 62 48 38
298 98 321 95 68 53
214 487 187 71 46 38
364 528 158 55 34 38
237 463 256 82 32 40
288 198 313 130 99 70
394 433 311 175 17 53
214 492 192 64 30 31
382 866 231 82 69 61
220 480 181 97 81 69
279 957 266 76 73 75
303 192 314 146 105 74
327 20 320 90 78 65
220 480 177 88 74 63
313 63 241 147 18 50
278 959 270 78 75 77
319 283 200 99 82 64
459 813 375 87 74 63
294 248 248 97 81 64
223 480 177 95 76 60
373 98 249 122 5 43
279 309 218 73 62 51
224 480 181 76 47 33
255 593 305 61 28 33
235 489 166 65 46 39
416 808 216 160 104 74
329 318 253 140 104 78
389 415 182 101 73 62
364 728 197 126 10 32
219 483 186 63 38 34
245 783 334 172 122 95
356 885 240 65 58 58
229 653 251 185 125 97
275 434 314 45 26 27
239 463 186 72 39 31
307 241 294 149 111 85
237 443 266 147 1 41
268 653 256 119 21 33
316 303 249 91 72 51
247 451 234 120 15 41
325 214 203 119 96 71
376 662 277 123 15 39
463 777 317 101 77 58
401 433 293 154 0 47
294 522 67 92 35 37
308 258 226 79 70 61
249 368 266 126 98 68
326 441 323 135 12 42
240 528 271 40 28 32
359 403 271 67 58 49
284 233 307 142 105 76
478 722 303 113 84 57
220 488 191 97 9 31
283 417 221 68 59 50
331 154 213 118 97 75
327 33 259 115 17 43
296 971 305 72 67 68
222 481 186 48 24 23
371 61 253 86 36 34
354 444 106 96 79 61
321 178 230 93 77 60
303 516 62 109 40 48
283 564 124 217 15 48
291 475 108 70 45 34
309 363 197 96 82 66
293 432 185 68 59 51
354 848 306 33 31 31
242 646 283 125 95 67
412 783 193 143 101 64
218 492 192 94 17 31
314 513 71 155 11 43
310 372 273 105 83 59
408 881 388 99 84 72
222 488 190 103 0 28
354 783 202 55 49 51
427 468 236 108 22 39
315 68 241 131 57 56
254 479 141 74 34 35
444 844 366 89 70 57
366 223 221 120 95 64
232 533 256 155 1 45
409 468 157 80 30 38
331 150 213 117 97 74
324 613 315 45 28 31
306 228 264 102 83 63
279 348 215 76 64 51
246 480 157 67 43 41
306 269 271 136 99 72
411 469 159 72 32 36
365 223 216 123 97 65
272 436 200 142 138 138
245 479 161 65 45 38
245 722 268 145 99 71
354 418 331 86 21 35
374 458 350 129 26 47
344 233 249 117 91 60
359 408 336 98 27 38
254 478 146 73 37 34
237 428 266 104 19 38
259 273 241 112 92 70
397 522 158 54 36 35
332 127 336 136 18 48
314 440 173 88 75 62
310 168 318 143 101 77
433 414 216 148 23 48
420 708 286 55 44 34
244 708 266 157 107 75
237 504 140 121 15 33
403 836 330 56 49 43
312 193 282 106 86 64
294 423 341 62 28 33
274 438 191 55 47 40
248 747 333 153 115 86
254 477 151 70 42 35
232 471 198 127 18 51
250 475 162 60 42 40
374 723 202 64 37 36
231 693 276 164 111 80
243 473 221 32 27 30
390 443 311 165 15 51
254 473 161 59 46 39
236 670 285 138 98 67
305 15 218 112 60 48
359 643 201 135 12 36
234 488 175 61 44 37
351 283 204 117 92 65
302 43 343 112 21 42
236 473 270 107 22 38
417 791 254 113 79 64
283 458 331 67 27 33
242 476 218 84 29 41
244 713 267 157 107 77
252 476 155 66 44 36
234 463 191 60 34 29
236 494 266 108 20 38
362 188 231 120 94 62
245 793 287 160 115 81
310 413 337 131 10 41
286 966 273 86 83 85
329 188 241 86 74 62
238 473 256 36 30 32
252 418 303 41 32 32
390 568 186 147 5 35
249 698 263 142 96 67
439 808 301 88 69 61
335 504 111 63 27 35
239 458 191 63 35 28
315 621 198 55 30 34
237 428 262 94 30 39
213 495 194 64 30 31
339 403 186 91 80 70
235 464 187 67 39 25
304 33 241 133 42 52
369 713 300 134 11 42
359 445 98 90 73 62
439 453 186 111 83 66
320 940 338 58 52 49
237 453 261 92 27 37
359 728 195 139 5 34
455 726 290 79 59 44
229 473 186 77 48 41
349 178 246 114 91 64
250 556 127 215 12 57
299 401 331 133 18 41
351 782 203 75 63 57
423 783 211 175 119 91
354 533 156 143 9 33
314 873 247 123 102 82
339 178 246 94 76 57
249 573 166 73 35 40
403 828 246 97 71 56
228 473 191 105 43 45
334 18 231 86 73 63
343 89 219 125 34 34
303 287 232 68 59 50
391 870 362 83 68 62
317 69 248 124 21 45
419 833 366 59 49 40
239 533 210 72 20 30
395 553 281 182 15 57
300 289 212 90 78 65
269 913 346 46 43 43
362 178 235 125 98 65
324 921 354 59 54 51
319 15 218 95 49 38
400 558 266 57 30 34
357 927 278 75 67 67
334 353 252 120 90 67
336 918 241 71 63 64
229 478 182 81 41 25
309 583 166 78 33 39
379 638 266 162 12 51
377 857 252 72 59 55
273 233 302 122 96 68
370 599 179 109 34 45
418 618 215 166 121 94
380 633 266 161 7 51
349 238 247 126 96 67
359 798 308 47 38 33
260 263 247 104 86 66
257 702 256 103 11 33
358 853 307 34 32 32
230 474 183 78 39 32
418 548 236 160 14 51
234 489 161 68 45 41
231 738 291 169 112 83
409 733 236 68 46 43
358 178 240 122 96 66
434 857 377 95 80 67
419 793 241 180 118 91
235 672 258 190 130 103
266 420 218 76 64 52
326 494 70 142 10 38
313 29 220 144 63 60
299 283 216 85 73 61
299 513 340 91 29 40
226 475 187 76 50 42
235 502 141 129 14 40
274 313 215 75 64 53
309 464 116 74 59 47
238 503 286 55 30 36
319 288 200 98 82 64
427 462 168 53 38 40
226 475 191 96 33 35
414 553 216 166 21 52
240 458 291 136 4 41
304 18 331 48 44 41
241 409 280 55 27 31
280 822 282 76 62 58
227 477 184 77 43 31
376 875 269 58 51 52
238 473 183 65 42 36
354 439 126 98 83 66
419 703 286 56 43 33
312 236 289 140 103 76
415 568 230 141 17 41
376 104 241 124 45 54
297 471 114 68 46 35
234 553 222 110 84 63
289 323 212 69 57 46
244 678 297 132 97 69
367 452 112 135 15 39
232 466 191 69 30 30
254 603 231 96 40 43
240 454 201 53 29 33
247 481 150 73 44 38
269 598 316 66 30 35
317 173 306 129 99 66
257 651 253 147 95 76
442 811 328 77 64 54
371 414 359 156 18 51
232 512 251 51 25 31
330 763 328 83 55 50
316 504 60 191 9 45
249 873 310 146 112 93
319 648 317 108 25 41
293 33 336 112 29 44
234 472 184 73 45 29
309 518 71 192 7 47
289 793 255 76 60 56
260 313 213 116 90 60
241 475 299 144 3 44
289 539 91 237 14 51
300 133 325 122 96 72
393 848 313 33 31 32
259 408 302 70 28 32
315 108 350 135 23 52
308 922 354 71 64 60
239 468 184 69 39 34
331 510 131 186 2 41
388 583 191 79 32 38
443 772 318 71 59 48
233 473 201 84 24 35
421 748 269 46 38 38
316 36 338 94 82 69
303 154 288 102 83 62
229 663 261 178 123 94
340 803 312 79 62 54
239 473 184 61 38 37
295 254 298 154 105 79
225 578 216 173 121 89
349 833 231 87 69 68
284 757 237 83 65 58
234 478 181 73 36 36
344 708 316 132 15 43
353 55 254 89 27 32
419 743 269 51 42 39
434 723 286 90 79 68
233 501 233 107 6 32
303 223 305 142 102 72
333 63 331 106 29 40
347 319 203 107 90 73
417 793 246 157 104 83
394 411 206 70 56 53
284 308 276 135 95 69
240 476 184 63 36 37
422 836 306 67 55 54
383 583 181 63 33 39
326 713 193 127 8 31
309 958 326 83 78 78
392 506 153 152 3 35
254 463 176 53 45 38
295 58 326 134 24 49
245 454 187 84 44 34
236 481 268 122 16 38
354 488 141 88 30 38
241 495 240 118 0 33
397 856 282 68 56 52
249 458 182 58 49 42
284 243 249 97 84 70
337 501 116 128 12 37
377 856 244 89 73 61
450 839 360 91 72 55
317 39 339 93 80 67
334 563 326 192 6 61
247 451 190 80 36 30
246 463 183 61 44 36
218 502 198 39 24 26
301 354 203 100 80 56
420 498 216 142 16 45
359 858 231 97 78 68
298 819 265 179 123 95
330 78 316 120 97 79
241 511 299 65 37 41
338 952 277 81 74 75
333 728 324 144 19 47
340 483 86 119 20 38
244 458 186 74 42 38
482 764 333 109 92 77
479 817 373 99 80 63
232 693 291 144 101 71
254 452 185 68 63 61
334 367 255 101 78 57
349 437 146 97 80 62
365 358 221 107 89 70
397 567 266 99 31 44
352 447 333 118 12 36
242 456 189 100 36 30
261 263 285 126 96 66
248 457 184 59 49 42
250 455 183 57 49 43
285 14 316 78 50 38
243 713 317 137 103 75
365 218 216 122 96 66
289 23 241 156 107 80
364 898 331 56 48 46
424 518 241 91 28 39
251 450 188 66 49 40
299 368 206 103 80 53
359 273 211 125 95 64
402 674 229 124 86 59
295 289 277 140 99 75
398 618 244 82 27 36
444 838 372 82 67 52
319 683 322 48 28 31
366 845 343 42 37 33
243 473 231 41 29 31
331 23 253 95 20 35
369 733 302 82 38 37
379 843 367 60 48 40
318 163 306 126 98 66
279 13 246 115 44 47
440 509 198 172 123 109
322 15 218 85 48 40
299 423 345 102 28 42
474 703 297 104 87 68
386 73 229 127 25 39
251 464 178 55 47 40
305 192 274 107 88 67
296 177 319 125 93 68
424 869 391 72 57 48
359 123 226 110 91 70
239 448 286 126 12 39
229 473 196 122 6 38
243 393 266 125 97 67
254 823 297 190 129 100
249 474 166 57 43 38
230 503 151 80 27 35
459 783 336 106 87 73
350 944 291 67 61 60
250 749 334 153 115 86
229 513 205 37 28 27
290 294 277 138 97 72
451 478 191 133 92 76
246 485 131 73 33 34
234 488 216 95 18 35
384 778 306 51 42 35
243 478 176 59 49 42
238 486 156 70 50 45
229 501 145 163 3 34
318 43 340 92 79 66
274 533 76 153 0 38
378 658 271 133 15 42
249 473 171 55 44 38
298 73 331 117 24 44
294 178 318 123 95 67
419 826 351 43 38 34
247 472 175 59 50 44
329 918 221 59 51 47
387 437 331 167 12 49
320 213 235 83 71 61
372 405 319 63 54 45
251 470 172 55 44 40
361 162 220 112 92 70
239 438 281 127 16 42
314 228 281 122 95 65
301 31 251 152 21 53
450 433 166 96 29 40
420 768 201 146 103 69
343 78 356 102 28 37
358 168 240 125 99 69
329 83 363 94 29 36
238 468 286 141 2 41
250 493 315 113 19 41
254 468 171 52 43 35
424 869 386 66 55 47
230 474 200 86 21 34
316 178 307 131 99 68
373 752 199 101 73 43
419 419 166 88 19 31
258 521 79 58 24 25
344 118 244 113 86 59
343 733 319 85 28 37
252 466 175 51 45 38
398 518 290 165 15 51
264 298 215 100 85 71
284 313 276 132 93 66
236 454 260 64 28 32
456 794 364 89 81 75
256 464 172 53 45 36
448 890 406 92 81 75
229 623 236 175 118 86
454 733 320 55 44 32
248 453 216 89 25 37
224 478 196 104 18 37
394 678 255 71 26 34
314 363 195 92 81 69
229 539 180 191 123 99
293 481 95 76 45 35
252 471 169 46 39 33
317 780 229 83 65 57
337 30 249 86 30 37
297 58 337 108 71 61
299 27 231 165 15 53
462 796 353 98 77 64
254 673 260 141 93 71
360 57 253 71 29 29
299 448 345 79 23 36
360 758 308 108 27 40
247 467 180 55 44 38
337 41 218 130 33 37
254 678 300 129 99 73
206 490 194 120 98 76
318 278 199 104 84 62
240 480 177 59 44 37
242 477 180 57 42 41
274 274 232 98 85 73
252 388 277 126 99 70
400 443 296 159 10 49
229 508 206 56 23 28
374 658 210 48 36 39
298 878 249 156 128 101
231 469 195 118 14 39
342 102 342 130 12 44
229 494 136 82 37 30
299 18 221 135 88 85
396 539 175 153 4 33
242 443 292 48 27 33
329 343 252 122 90 68
226 495 138 108 31 33
295 688 222 63 31 34
364 868 220 99 81 69
229 493 141 75 51 41
470 733 305 89 65 45
319 48 341 92 78 65
239 487 141 67 38 33
219 538 191 203 139 107
392 436 315 52 25 30
316 36 223 151 9 42
302 251 294 154 112 87
354 427 171 99 84 70
239 489 131 73 31 34
273 688 312 66 30 35
365 218 221 119 94 65
255 278 261 125 97 65
255 273 261 122 95 63
386 860 369 54 46 41
237 458 256 84 29 39
272 295 218 90 78 67
236 817 311 204 139 109
374 458 140 83 36 39
376 560 164 179 5 39
303 24 263 134 31 54
234 489 141 67 39 32
290 38 326 123 32 48
242 518 130 147 4 36
334 28 219 94 57 33
289 488 86 94 41 37
379 23 236 82 16 35
363 868 226 95 76 65
229 492 146 79 59 49
349 395 259 68 59 51
231 490 146 72 52 44
264 668 301 59 30 31
269 523 330 162 17 50
257 760 265 71 58 55
303 30 257 134 95 81
421 618 212 166 118 88
394 453 146 102 26 36
379 823 302 38 34 34
242 436 288 71 25 32
255 508 320 95 25 40
385 688 278 47 35 29
344 401 291 59 50 42
231 490 156 78 51 46
281 459 329 62 29 30
314 13 301 96 54 47
460 729 320 61 48 34
298 492 70 84 42 35
234 489 146 71 48 42
384 443 136 182 7 41
304 293 206 95 80 65
299 11 296 137 53 55
374 723 299 89 33 35
243 478 302 145 4 44
294 223 259 98 84 69
365 464 135 70 33 35
309 303 203 94 76 55
346 80 218 117 30 28
261 946 268 73 68 67
288 310 212 78 65 52
307 93 343 102 49 50
234 488 151 72 46 41
294 503 51 128 9 36
398 568 261 114 33 47
468 847 381 98 88 79
248 803 289 161 117 84
240 485 151 72 49 41
416 848 305 65 54 53
266 399 294 88 72 57
365 111 245 107 71 55
356 470 124 176 0 45
324 328 253 133 96 77
354 473 341 42 27 29
300 540 99 193 12 42
303 208 309 145 104 72
285 904 355 47 43 43
299 14 222 138 97 95
234 489 156 72 47 43
371 594 292 98 20 41
266 821 334 201 143 119
314 877 341 33 33 34
238 513 141 130 7 37
238 487 161 64 50 43
379 818 196 194 144 115
239 633 236 181 123 90
297 410 219 58 52 48
229 501 131 204 2 55
229 501 136 202 1 47
363 258 221 122 91 60
255 383 280 124 98 71
428 448 226 78 29 35
234 501 131 195 0 47
244 648 245 183 124 95
302 359 274 113 89 62
280 512 67 165 1 39
348 441 131 97 81 63
294 148 291 104 87 70
239 503 131 168 2 43
371 62 224 116 44 24
294 488 342 165 13 51
363 72 224 130 66 58
459 809 361 101 81 60
323 498 66 154 8 39
371 717 298 131 11 42
251 473 314 51 29 32
438 828 337 66 53 46
238 504 136 181 0 41
309 93 346 105 74 63
232 500 138 197 0 43
293 384 294 117 92 63
294 927 232 94 82 82
252 333 262 131 102 72
302 190 273 101 84 65
373 897 282 79 68 64
324 388 189 86 77 67
242 488 302 141 5 42
419 853 377 92 77 65
309 528 338 67 31 38
355 378 199 90 80 70
309 396 291 70 61 51
364 248 231 130 98 66
292 416 204 60 52 45
480 769 366 113 93 71
232 500 140 205 0 38
236 508 143 51 28 32
325 163 216 113 93 73
240 538 141 162 12 44
424 412 201 129 22 42
359 148 240 119 93 63
374 463 141 77 31 38
229 500 146 176 0 43
302 84 332 123 98 78
444 813 336 73 56 49
297 102 316 107 34 43
360 693 302 124 12 40
226 500 148 159 5 20
231 513 152 65 34 33
425 563 202 157 113 89
271 460 324 86 18 27
419 508 166 151 100 84
294 443 175 73 63 54
356 410 334 75 28 36
339 63 222 113 40 35
325 184 208 120 99 77
314 963 316 70 68 70
237 463 202 64 25 33
228 508 155 71 32 37
339 368 195 88 78 69
255 778 277 93 68 54
233 503 146 75 28 34
408 704 289 66 48 36
232 504 149 86 31 43
238 538 146 93 30 42
309 123 297 115 88 55
234 508 146 54 32 36
449 503 181 189 129 108
426 751 214 154 108 80
232 509 150 50 36 40
303 29 231 145 38 54
235 513 146 47 33 36
237 433 271 144 7 42
309 898 236 59 56 57
251 817 334 184 126 103
335 78 326 116 33 42
244 487 131 72 34 34
294 13 292 146 54 57
446 794 314 98 77 69
353 238 245 129 99 70
