ply
format ascii 1.0
comment Created by Open3D
element vertex 2212
property double x
property double y
property double z
property uchar red
property uchar green
property uchar blue
end_header
330 411 198 93 77 63
334 437 176 146 7 33
390 175 254 130 101 64
333 385 288 119 81 73
305 265 251 116 91 62
311 285 308 106 84 59
389 205 254 124 99 69
357 452 170 39 38 37
387 210 251 127 100 67
370 365 242 93 82 71
282 437 143 132 4 36
269 390 258 114 93 69
320 380 308 133 93 76
389 210 253 125 99 67
320 814 311 129 98 84
431 520 273 38 31 34
390 215 253 127 100 66
360 29 292 131 40 57
285 415 318 107 78 62
330 880 358 125 98 73
387 221 251 130 100 62
353 95 263 125 19 43
380 305 259 117 95 69
429 530 224 155 16 41
390 220 253 129 100 64
247 788 282 178 123 96
444 835 310 39 34 31
427 598 326 130 101 67
439 410 248 132 13 39
390 225 253 131 102 65
292 369 321 141 103 81
258 453 294 113 18 41
388 225 291 117 93 64
355 595 322 95 29 41
386 230 251 133 101 63
260 685 311 173 124 99
299 455 337 65 21 28
376 30 284 103 34 44
313 962 316 78 74 77
390 235 254 131 101 63
295 195 273 106 85 61
379 964 289 82 77 78
389 240 254 132 102 64
388 254 255 137 103 66
265 15 258 85 45 40
393 868 245 59 53 57
330 630 316 60 25 33
284 166 266 107 88 67
350 255 298 111 88 63
425 855 262 57 51 52
254 540 333 127 23 44
355 510 168 110 14 29
355 386 239 95 82 68
264 15 263 83 44 36
270 14 258 80 43 40
370 140 284 114 92 69
307 953 303 81 75 74
266 12 268 76 42 33
415 400 278 114 23 39
365 520 310 111 21 43
332 439 176 140 0 32
264 15 268 69 45 35
257 565 228 166 5 41
295 436 128 84 25 28
305 360 322 143 98 76
315 839 287 118 90 72
265 585 218 168 11 41
283 413 201 94 73 60
270 819 302 201 145 119
265 800 308 181 133 106
266 15 273 83 47 39
262 554 209 108 24 40
463 742 250 57 48 43
395 615 224 108 27 43
359 380 243 93 81 69
267 12 272 81 48 37
264 430 203 134 6 40
268 13 275 88 48 39
433 402 239 93 34 28
398 577 355 182 125 105
271 12 277 96 43 40
271 15 282 111 31 42
437 460 233 140 9 37
375 340 250 99 86 73
410 935 313 56 48 45
290 460 133 69 34 40
260 20 263 98 59 39
260 25 263 116 82 67
288 381 246 97 84 73
402 385 268 110 89 66
262 17 258 93 53 44
300 310 263 85 72 59
262 20 267 105 60 54
274 715 262 81 55 42
262 17 266 85 38 19
385 545 306 156 13 49
425 456 220 57 35 35
263 19 269 92 26 34
354 195 283 106 86 63
281 43 261 137 15 51
426 600 348 160 112 79
265 20 273 125 75 73
264 26 269 115 22 39
365 275 254 132 102 68
358 436 363 83 19 35
391 340 278 123 97 68
300 745 229 153 6 38
264 32 264 130 38 54
398 249 282 131 99 63
266 25 272 126 83 76
269 31 269 138 13 51
350 635 318 75 31 38
368 512 180 96 12 25
428 500 288 136 10 37
270 20 278 161 124 115
334 972 323 60 54 53
418 656 335 169 125 102
326 401 238 89 76 63
269 26 274 122 90 69
420 846 302 37 33 32
399 240 273 125 97 63
271 24 277 139 98 80
271 19 281 145 103 93
339 410 313 82 46 40
275 15 258 82 47 43
320 360 313 131 91 72
468 876 346 65 50 39
405 876 223 79 69 63
280 14 263 90 48 43
433 445 225 113 18 29
472 819 300 89 72 61
280 12 273 106 40 45
400 70 257 105 23 40
375 796 211 59 48 44
285 14 268 109 51 53
390 735 343 124 25 46
285 12 273 111 41 50
259 816 300 196 138 112
332 436 176 145 4 33
326 582 186 153 8 37
259 460 198 128 7 38
286 13 272 113 49 55
275 12 283 112 32 44
434 510 248 156 16 44
426 595 273 167 17 49
261 410 288 118 94 68
446 684 292 77 57 46
280 15 288 132 29 53
285 536 353 120 24 44
264 500 192 59 25 32
285 12 278 115 36 49
285 12 283 117 34 49
262 585 224 167 10 42
307 517 170 56 35 28
279 665 263 86 30 38
315 500 167 84 26 33
365 160 258 118 92 59
411 740 227 56 45 43
282 18 256 81 59 51
255 545 323 168 9 53
284 17 259 89 55 48
285 18 257 86 58 49
380 80 275 106 24 40
257 770 255 157 108 75
390 950 333 61 55 54
280 31 273 139 69 68
520 785 312 96 85 75
435 435 228 45 36 38
370 290 257 111 87 61
520 793 315 113 95 77
285 30 273 133 46 57
305 700 329 136 7 42
286 465 349 60 19 29
284 626 227 48 32 36
374 17 278 98 50 49
285 32 269 136 55 62
445 810 323 166 106 81
315 745 225 131 13 36
279 22 280 151 111 100
378 25 278 87 43 41
330 315 288 71 58 46
307 303 325 112 89 64
297 471 141 115 28 42
316 15 288 156 100 86
253 535 338 90 25 37
390 85 268 111 22 41
280 25 278 138 96 74
375 278 255 136 102 69
280 20 283 149 97 97
275 30 273 134 74 67
246 560 353 162 112 88
313 315 326 130 92 68
435 455 303 76 26 33
303 397 230 104 90 76
287 322 265 107 85 59
460 795 248 79 59 49
287 357 255 98 85 72
376 174 290 117 95 70
461 739 253 58 47 42
282 18 286 104 14 37
290 415 323 82 57 44
285 15 289 127 35 52
418 475 352 111 25 42
328 492 170 105 19 22
295 340 259 92 80 67
460 760 259 63 48 41
242 516 343 114 25 41
285 25 278 141 101 80
355 740 334 73 60 54
365 38 286 131 11 49
376 411 230 95 82 69
385 491 349 49 19 28
286 23 283 186 140 138
416 415 329 122 15 41
284 28 276 132 92 72
239 515 357 127 96 76
359 890 352 154 118 93
287 27 275 106 70 49
369 397 316 106 82 56
265 35 258 134 33 54
370 15 283 95 56 51
435 805 328 172 120 92
266 39 257 130 34 54
293 252 301 114 92 68
361 13 289 91 44 45
270 35 263 125 66 64
294 463 135 151 20 49
267 510 188 129 5 35
326 779 321 68 57 52
261 490 193 80 30 37
297 598 316 161 21 53
287 412 316 113 81 64
414 888 338 35 33 32
400 780 328 74 61 56
350 40 283 114 51 54
292 695 239 67 31 38
382 295 261 124 98 68
367 423 178 118 17 31
425 580 283 161 14 50
270 40 258 119 36 49
404 455 358 92 9 30
344 592 320 176 23 57
437 467 243 150 15 41
415 920 318 61 53 53
298 186 266 105 84 60
395 788 203 61 50 43
380 820 222 70 58 54
355 680 222 64 32 38
341 345 311 133 91 72
267 33 266 134 33 54
286 422 362 109 41 49
501 810 317 91 77 63
285 820 303 207 159 131
270 33 268 141 12 52
465 770 267 74 59 50
372 743 200 70 53 42
258 468 201 48 20 28
459 700 273 75 58 44
435 490 303 121 22 39
280 36 264 120 70 60
371 390 234 94 82 70
280 33 267 140 85 77
275 45 258 123 17 45
330 16 299 163 89 99
280 635 303 147 95 82
280 45 259 122 37 52
375 417 328 60 48 37
369 430 178 115 14 33
285 40 262 126 30 50
347 365 311 134 94 75
366 130 281 112 91 68
285 46 260 123 63 57
281 54 256 114 73 59
399 402 301 70 61 51
285 50 258 131 100 77
260 760 304 175 129 100
285 55 257 126 99 75
370 120 280 116 94 70
391 500 353 142 7 46
340 45 273 115 35 46
286 59 256 119 82 66
420 610 308 99 59 36
361 355 249 89 78 67
295 15 273 131 71 78
385 90 274 106 48 49
315 375 314 137 97 77
288 12 275 116 48 56
290 12 278 118 44 54
247 716 279 145 101 69
401 897 352 35 33 33
295 14 278 120 51 59
393 899 260 57 51 55
290 15 288 117 37 47
318 301 313 104 79 52
297 887 319 168 120 100
299 341 325 145 101 80
292 13 285 118 38 50
310 412 193 100 86 71
312 523 334 32 27 28
294 15 287 109 35 45
469 805 268 79 61 53
408 510 189 88 18 30
298 494 164 56 34 33
298 16 281 106 35 43
353 210 288 106 86 64
330 560 328 188 10 59
340 480 318 32 24 27
304 499 176 48 34 31
464 754 260 73 55 47
301 470 163 68 31 32
295 17 264 130 79 84
305 350 255 89 79 69
480 824 318 78 64 53
423 590 351 158 112 79
281 366 255 103 88 72
296 18 262 125 76 78
290 31 269 129 40 53
295 31 268 131 21 52
504 805 318 92 76 62
485 814 314 82 68 55
345 440 173 126 15 35
264 435 338 139 5 44
272 417 183 67 40 39
303 25 258 119 35 41
388 82 271 103 20 36
283 439 132 151 15 37
408 490 195 47 33 32
387 962 297 84 78 80
302 25 263 110 39 48
301 20 268 114 51 58
365 365 314 131 99 66
425 876 322 32 29 29
405 451 383 96 76 59
392 210 285 116 93 66
345 340 263 79 70 61
307 945 294 66 62 64
380 300 299 131 98 67
298 17 273 131 75 80
369 27 260 111 96 80
262 230 262 119 96 69
350 432 171 61 31 30
422 596 242 74 32 39
298 24 272 122 42 52
385 415 318 58 49 39
328 853 311 83 66 47
370 385 237 95 83 70
365 495 323 90 23 40
300 30 263 123 48 54
356 703 204 75 58 48
247 785 278 175 120 91
360 16 264 106 93 79
319 415 325 112 33 41
400 605 338 180 126 109
378 485 186 54 35 36
281 325 313 128 97 69
346 55 277 116 51 53
295 24 278 147 101 81
396 180 263 124 98 67
404 935 333 62 53 51
345 408 216 88 75 60
290 20 287 133 87 69
360 14 293 89 38 42
406 625 338 185 129 111
290 24 283 197 147 162
293 20 286 129 89 65
400 425 224 85 32 30
295 20 283 138 93 75
335 419 177 83 53 46
319 14 283 154 95 83
317 18 289 190 131 126
415 795 234 64 56 56
395 170 263 121 97 69
358 195 256 124 97 64
300 500 338 137 1 43
393 800 215 88 65 54
316 15 293 138 80 67
425 705 234 64 47 38
321 12 288 140 70 66
395 854 299 31 28 27
320 12 293 135 54 58
337 39 272 122 7 42
462 779 262 60 48 44
425 440 224 117 16 28
372 898 345 143 112 85
419 848 250 53 49 53
317 14 296 131 57 55
355 310 311 126 90 61
350 415 178 92 50 46
248 526 232 155 1 40
320 15 298 140 53 62
415 560 208 137 29 46
320 19 293 201 145 155
295 35 263 123 79 70
375 280 303 126 96 61
428 500 283 128 17 41
383 175 286 119 95 69
290 33 266 128 42 54
290 46 260 119 53 55
290 44 261 133 12 50
272 651 310 184 127 108
273 645 276 92 54 43
437 480 248 121 13 37
293 43 261 126 5 43
415 430 225 79 32 32
296 40 260 109 34 43
350 565 318 118 4 35
383 347 250 103 90 77
300 35 258 117 38 50
364 746 335 71 60 55
297 37 260 107 54 50
307 959 342 51 46 48
418 570 296 111 25 42
300 413 192 102 88 73
360 225 299 114 93 71
277 681 265 63 38 36
305 540 349 179 16 57
262 455 189 136 6 35
321 19 278 143 55 58
340 820 313 178 132 108
436 450 313 121 20 41
377 338 251 100 86 72
395 430 358 80 25 32
355 545 174 100 28 37
384 260 254 138 104 66
289 650 290 41 21 22
290 50 259 121 90 70
415 584 322 96 67 43
295 50 258 107 26 41
284 576 182 83 28 36
295 55 257 110 15 40
293 63 256 116 77 65
268 281 268 153 106 77
298 49 256 111 72 62
330 320 278 65 53 44
243 535 361 146 101 74
330 11 273 141 53 44
251 515 218 79 30 36
375 772 330 70 60 56
361 413 328 62 47 33
273 450 383 152 10 49
390 470 189 74 33 27
331 12 269 141 43 35
426 844 184 132 103 78
370 720 344 187 17 59
380 120 277 115 93 69
332 12 265 141 37 30
284 330 267 111 90 66
389 140 272 116 92 64
335 10 278 137 50 46
400 809 219 61 49 48
330 11 283 138 63 59
273 495 161 62 23 35
335 10 283 134 48 53
326 20 268 140 46 52
324 20 273 136 73 65
393 944 284 81 71 72
327 24 269 146 15 48
326 24 273 143 16 49
408 452 382 113 95 77
330 20 264 127 42 39
295 819 249 71 58 57
320 565 329 197 2 63
393 366 254 102 86 71
428 461 376 150 110 90
333 20 261 154 28 34
272 341 279 122 97 68
280 635 238 129 21 46
430 620 313 109 86 61
336 16 260 151 24 25
279 475 357 136 6 41
375 465 373 51 31 29
336 20 260 158 18 34
334 25 262 142 34 41
304 408 333 95 38 40
406 474 201 94 34 28
353 215 289 108 88 66
430 725 334 184 131 101
336 25 260 134 21 34
408 498 376 185 130 105
466 810 308 70 57 47
385 965 313 64 58 56
329 25 268 142 23 46
334 30 263 143 62 60
342 276 270 89 73 56
419 585 229 148 19 40
328 27 273 143 89 78
451 842 286 70 55 48
331 29 268 137 31 52
332 28 265 137 100 74
380 970 303 85 79 82
333 32 273 128 82 73
465 780 263 60 46 42
322 19 275 136 68 58
295 385 319 145 106 86
460 770 323 167 112 80
378 156 286 115 92 64
274 665 306 173 128 104
323 22 278 146 28 55
389 686 336 123 6 37
298 500 169 55 33 34
326 24 278 148 13 53
384 418 340 54 43 30
325 764 225 107 26 34
324 22 283 170 126 101
389 924 371 48 44 43
393 146 259 120 97 70
345 11 268 119 66 52
281 216 286 111 92 72
325 21 288 160 114 95
345 455 332 122 3 38
459 745 323 160 110 76
326 24 283 142 64 66
305 406 322 93 50 43
327 23 287 139 107 86
405 530 352 116 86 58
329 27 278 145 25 55
317 299 271 90 75 58
345 407 219 88 74 60
330 26 283 145 30 55
476 756 276 96 76 62
255 695 273 122 92 58
314 879 350 117 43 58
363 880 231 91 76 72
383 777 201 74 56 44
311 380 242 98 86 74
407 842 236 51 47 49
271 485 364 37 23 27
412 468 206 44 38 40
332 28 281 135 34 55
340 13 261 133 42 30
366 866 234 61 53 54
296 649 230 150 4 37
340 12 264 131 45 32
350 285 308 111 87 64
345 15 259 134 34 28
287 628 225 37 35 37
471 785 300 69 53 42
340 10 278 129 53 50
426 797 179 96 78 64
267 437 380 77 7 28
345 12 264 120 60 45
340 11 268 132 48 37
337 39 264 135 10 42
335 842 261 173 120 94
350 12 263 112 72 58
350 11 268 108 79 65
305 480 333 135 4 42
363 896 351 138 104 78
372 438 196 114 20 30
345 11 288 111 44 54
388 120 268 115 92 65
336 860 284 165 114 85
350 11 278 103 76 67
350 11 283 99 62 59
360 416 358 62 38 29
340 20 259 117 26 29
411 570 360 172 118 84
345 475 173 101 26 33
361 595 319 81 26 35
340 30 259 127 88 69
395 870 228 68 53 51
462 735 314 160 109 76
291 366 250 96 85 73
246 640 322 177 124 100
320 510 167 58 34 37
430 745 333 182 133 102
312 368 251 93 81 70
337 30 260 144 16 42
257 715 306 175 121 96
394 509 381 183 127 97
350 25 257 108 33 30
355 11 283 94 61 58
337 28 286 154 107 88
298 517 346 118 0 40
360 505 169 99 21 31
260 410 248 113 16 33
340 28 287 138 98 79
285 405 314 123 92 71
285 805 309 187 144 114
345 755 225 87 31 40
387 300 266 121 97 70
325 11 293 140 49 59
325 11 298 149 35 60
425 401 243 75 35 39
321 12 301 152 31 60
330 340 281 65 56 50
325 16 298 142 49 64
345 290 308 107 84 60
273 335 300 132 101 73
348 62 275 114 22 38
386 664 231 79 30 30
325 13 302 169 28 67
362 443 378 140 7 41
370 35 287 119 44 53
335 295 298 75 60 42
406 730 217 65 49 45
335 10 293 137 36 61
482 745 276 91 71 54
321 402 228 97 83 68
339 345 309 129 87 70
341 40 259 144 30 46
360 785 218 61 49 44
335 11 298 145 31 63
269 365 293 126 98 67
334 16 299 171 128 128
307 520 170 43 35 34
325 19 293 178 129 113
325 380 303 129 86 71
325 18 296 175 121 110
407 449 345 118 5 35
328 22 289 122 77 61
300 455 138 66 32 37
335 25 293 128 82 67
416 459 344 117 10 37
280 816 305 198 145 117
335 20 298 137 94 74
389 320 283 122 95 63
393 275 278 135 96 63
345 12 298 116 41 56
336 419 342 56 22 29
340 11 293 125 36 58
405 536 349 109 80 54
383 48 276 126 10 46
300 560 183 170 1 38
479 730 294 84 69 57
275 200 277 109 91 73
434 904 333 77 66 64
376 425 203 61 39 35
345 11 293 113 41 54
375 135 282 115 93 68
340 11 298 132 34 60
340 15 302 137 68 76
371 424 359 67 38 31
414 480 204 47 33 37
355 585 322 57 28 32
263 502 376 33 23 27
388 337 265 113 93 70
307 963 328 75 69 69
305 510 174 44 35 35
437 434 253 140 4 40
350 15 302 101 38 44
341 408 342 72 41 33
253 815 288 208 144 116
417 565 217 172 21 45
296 412 347 118 24 43
340 20 299 131 92 73
280 790 243 167 113 80
288 304 320 118 91 63
270 420 313 79 58 44
416 675 258 74 32 42
325 615 204 149 18 44
396 90 258 122 22 47
340 17 300 134 90 81
349 75 263 129 18 45
345 25 298 131 50 58
287 423 166 98 68 57
361 418 363 63 35 28
315 834 292 62 43 38
361 667 326 33 30 32
315 445 328 58 17 24
299 705 232 131 5 34
346 20 301 115 68 60
315 406 213 101 87 72
347 23 301 115 43 46
472 791 282 80 65 56
350 20 302 111 29 43
259 785 304 176 130 101
379 250 301 123 96 63
282 202 281 111 93 74
350 28 292 131 39 56
358 745 217 56 42 40
258 452 406 146 14 46
271 195 272 112 92 73
463 785 317 153 101 70
353 412 205 93 78 64
380 330 299 137 103 73
414 524 312 156 11 49
350 26 298 142 19 55
303 950 318 72 64 63
335 35 273 118 52 56
424 460 333 133 3 42
441 830 307 40 34 30
340 35 259 131 47 49
351 235 293 110 89 67
268 438 377 85 9 32
338 36 261 143 12 41
405 650 253 66 31 35
320 400 242 95 81 67
465 775 313 151 99 68
262 245 268 123 97 68
308 272 301 109 85 57
337 40 268 122 16 44
342 45 259 137 101 81
252 523 281 29 32 34
433 525 243 43 29 33
338 42 268 120 59 58
384 280 296 127 95 63
352 722 336 140 9 46
420 465 213 99 28 29
261 470 388 78 15 31
459 720 313 154 104 70
338 41 274 114 21 40
415 611 304 106 32 36
340 635 317 71 29 36
409 554 194 53 33 37
375 375 238 97 84 73
289 807 246 183 128 98
458 720 316 159 107 72
340 40 278 119 31 49
326 831 256 95 72 64
434 430 262 147 5 46
449 789 240 79 60 51
342 38 281 130 12 49
341 45 277 125 98 76
366 636 221 99 36 42
346 39 282 120 36 51
380 481 358 66 17 31
253 565 253 42 30 32
246 645 299 150 104 72
385 571 196 183 11 39
375 185 292 118 95 69
345 45 279 131 101 77
431 480 298 105 15 32
348 32 285 120 31 48
344 50 258 142 41 53
335 410 208 89 75 62
262 509 195 129 23 44
343 51 261 141 20 47
354 95 258 120 41 45
475 730 293 87 77 69
269 500 183 138 3 38
341 50 268 118 28 45
475 824 313 78 65 56
341 50 273 118 23 44
380 511 180 116 14 27
365 270 253 133 103 67
342 54 272 120 20 43
413 483 356 36 29 33
352 339 255 84 74 64
375 610 312 92 21 34
344 55 273 127 38 54
345 455 174 136 6 29
445 695 262 90 68 46
302 263 300 111 90 66
310 345 257 88 77 66
350 395 234 91 79 66
290 750 319 105 36 47
346 60 258 124 19 38
347 65 259 135 12 44
310 465 167 129 3 29
348 57 256 114 53 36
445 875 298 74 60 56
282 241 296 113 93 71
257 583 240 146 2 38
406 865 213 90 74 63
391 135 258 120 96 68
348 60 256 124 28 40
441 770 247 72 55 48
405 525 368 175 122 95
375 664 325 116 12 38
277 171 266 107 89 71
333 304 293 75 61 46
280 170 268 108 89 69
347 64 272 118 78 66
340 295 269 87 74 60
340 805 239 81 63 55
342 49 276 115 88 67
349 50 279 114 74 60
262 440 193 131 6 40
352 49 281 114 42 47
320 670 317 132 9 41
350 60 278 121 14 43
350 411 363 78 30 26
406 496 379 185 128 104
351 64 276 117 15 43
377 566 191 175 6 44
355 11 268 103 86 73
376 505 378 184 132 118
421 405 278 109 21 38
476 830 298 89 69 58
290 430 148 64 51 45
376 399 315 116 90 64
355 11 273 101 85 73
246 540 348 147 107 83
253 520 216 129 20 43
356 13 266 104 88 75
383 432 210 50 38 37
270 190 268 115 96 76
313 396 311 125 88 73
422 575 349 152 109 74
355 11 278 98 77 69
381 295 299 130 99 66
355 12 288 92 46 47
466 852 306 98 76 62
350 800 317 191 139 121
312 393 241 105 91 75
359 12 288 91 45 46
255 665 313 188 136 112
305 245 288 112 89 62
286 789 240 166 111 78
404 640 318 141 95 85
363 12 278 98 72 63
365 14 288 93 49 48
441 845 273 59 48 46
366 56 280 113 87 69
345 320 263 80 70 60
354 30 256 69 41 31
360 28 256 80 32 28
364 22 260 112 95 78
365 25 258 110 94 75
272 445 389 147 5 46
296 695 234 91 27 38
367 23 261 109 94 79
388 352 255 101 87 72
366 29 256 102 87 72
355 31 289 122 62 59
322 662 316 151 12 47
251 545 233 167 1 43
370 16 288 94 58 53
371 19 268 106 83 71
374 21 268 101 74 64
366 418 213 86 66 55
375 20 273 97 48 49
334 455 325 107 0 35
378 827 226 75 62 56
373 22 265 106 89 74
326 849 278 192 130 99
284 645 293 67 34 36
286 454 130 105 27 39
406 464 368 58 25 30
396 175 263 124 99 70
370 30 257 113 97 81
375 31 259 111 96 81
434 865 273 61 52 51
461 733 278 106 86 79
322 434 171 47 47 45
409 580 213 81 29 40
377 23 272 86 37 34
305 360 252 92 81 70
264 600 233 173 14 49
378 26 269 91 74 55
350 475 324 40 27 26
290 820 253 169 121 97
379 25 273 84 32 29
295 225 287 109 88 65
381 30 273 97 24 41
371 20 289 93 33 42
494 716 284 92 68 48
366 579 310 105 3 32
440 745 239 74 56 45
355 425 168 114 31 37
304 402 220 104 90 75
370 30 289 124 79 71
313 247 281 113 89 61
378 27 281 51 38 32
356 13 294 92 41 43
358 12 291 90 40 43
334 594 195 159 14 41
300 372 245 99 86 74
345 670 220 108 23 30
318 293 270 91 75 57
315 822 305 61 47 47
405 630 303 90 30 37
387 254 295 121 93 57
355 14 298 94 48 45
354 16 301 108 87 73
368 16 291 106 34 44
427 435 320 61 27 28
360 690 213 77 44 38
369 315 306 132 98 64
360 16 297 89 35 40
365 15 293 89 41 43
385 433 364 54 31 26
368 425 187 113 12 40
275 431 357 62 31 29
407 530 323 37 27 30
354 20 301 110 87 70
281 136 256 107 87 65
428 445 321 47 30 29
405 615 302 117 20 43
353 23 301 112 28 46
427 435 269 114 15 38
356 21 300 113 61 55
280 500 150 100 17 39
354 27 294 125 78 68
366 20 294 101 31 43
385 385 237 99 85 72
365 25 293 116 58 59
363 24 296 113 25 44
474 849 334 75 59 46
315 411 193 99 85 70
394 175 258 125 98 66
434 510 312 181 6 57
444 860 283 68 56 52
361 720 341 47 27 31
291 730 322 64 24 36
365 31 290 128 38 55
354 36 285 134 11 48
325 620 316 122 27 45
357 38 286 136 12 53
351 220 263 118 94 65
355 45 283 111 14 39
380 35 258 117 102 87
360 805 317 193 143 122
275 411 228 101 86 71
308 612 315 61 22 27
357 185 287 107 88 68
365 41 285 133 90 76
368 447 366 136 6 38
376 418 326 58 47 37
418 711 230 56 44 37
354 56 280 112 57 55
355 54 281 112 55 53
268 424 221 85 29 33
360 60 280 130 104 78
414 814 193 96 72 56
355 60 279 115 85 66
412 931 308 61 54 52
426 805 173 109 88 70
385 770 197 68 54 46
355 65 277 115 25 46
315 245 273 114 90 63
360 65 279 117 73 62
365 615 317 145 23 49
360 57 280 129 103 74
365 50 282 119 21 44
287 391 240 96 85 74
355 180 273 107 87 65
365 125 279 112 91 68
305 340 258 86 75 65
440 755 334 171 123 89
280 220 287 111 92 72
395 940 283 82 72 71
344 431 171 72 34 35
365 55 281 114 83 67
318 354 316 132 92 73
345 785 232 82 62 53
365 65 279 115 54 53
345 305 312 120 89 64
397 546 345 123 71 63
364 60 280 117 93 72
376 34 256 114 100 85
410 625 343 188 133 110
406 645 253 71 32 39
378 32 260 113 98 82
371 875 224 97 79 67
383 36 263 90 71 48
388 196 286 116 93 66
383 36 273 96 22 33
277 479 145 106 24 41
369 38 286 131 11 50
318 333 321 119 83 65
419 530 208 51 29 33
372 37 285 128 9 45
262 443 206 130 0 37
375 35 284 119 21 44
391 495 180 121 9 27
412 516 320 164 17 53
416 443 221 43 39 41
375 40 283 115 36 49
434 465 262 92 25 37
426 701 234 61 47 37
376 46 280 118 75 67
383 37 276 103 22 37
287 679 245 96 30 41
385 190 287 119 95 68
342 281 269 88 73 57
378 35 281 110 44 50
360 425 168 149 25 40
246 730 283 159 107 80
413 614 296 143 13 48
373 48 281 133 10 48
407 604 351 182 130 106
315 590 322 79 23 36
370 65 279 117 43 53
416 455 339 136 8 41
308 580 326 168 12 52
375 65 276 103 71 59
370 389 236 94 82 70
299 251 297 111 90 65
379 54 276 124 98 83
432 495 269 40 30 32
298 897 323 196 139 123
382 51 275 117 9 40
385 55 272 116 53 59
380 60 275 111 16 41
409 690 229 67 51 39
384 65 272 113 75 66
355 295 310 125 95 62
319 285 273 87 71 53
289 405 315 116 84 67
339 967 287 88 86 88
364 923 255 90 81 81
371 856 234 62 53 50
349 70 258 130 82 68
397 592 211 52 34 39
347 68 267 108 74 55
348 70 268 120 24 45
380 290 259 131 102 71
351 75 258 122 79 65
398 452 362 90 3 30
304 281 312 102 83 61
330 535 173 151 0 32
280 140 257 108 88 67
350 640 319 85 29 39
399 588 210 39 33 39
352 80 258 130 25 44
345 935 371 51 46 45
305 810 306 64 54 51
349 75 268 117 28 45
351 75 272 108 88 66
332 715 330 166 17 52
395 490 182 104 20 25
253 564 327 103 56 38
312 890 300 155 116 89
353 80 256 135 17 46
390 886 322 35 32 32
476 704 282 108 81 55
318 374 245 88 77 66
420 401 303 71 24 28
353 67 275 116 87 73
346 837 321 143 114 90
358 110 268 122 95 69
257 651 280 146 102 73
356 70 276 112 67 61
360 70 278 112 28 46
248 606 335 180 127 102
303 182 256 108 87 65
383 527 315 137 9 40
365 80 277 104 69 55
401 492 344 133 13 43
353 85 257 130 26 42
254 520 213 108 21 39
430 810 323 161 112 86
432 535 258 50 32 34
358 200 256 123 97 65
411 670 328 149 103 87
375 356 245 99 86 74
405 541 345 98 68 44
354 90 258 126 25 42
438 884 299 73 61 58
350 740 223 94 31 37
353 91 269 107 56 52
256 760 254 143 105 69
379 160 286 118 94 68
355 90 273 107 23 41
296 412 333 70 38 34
283 435 157 127 7 31
429 864 315 31 29 29
354 95 268 115 39 49
356 413 348 68 38 31
342 388 248 76 64 53
356 95 273 108 68 57
356 85 276 114 24 43
330 735 222 129 18 37
289 161 262 107 86 63
314 869 302 126 97 69
430 405 303 86 24 35
315 780 318 65 56 54
357 89 276 112 14 40
360 90 277 110 24 43
400 385 278 115 92 66
361 95 276 108 83 65
365 85 277 114 94 71
397 256 278 131 96 62
271 155 257 110 91 73
265 700 312 174 125 100
270 230 283 115 94 73
410 771 330 64 55 52
431 610 338 147 105 68
305 395 234 104 90 76
385 375 241 102 88 75
365 95 277 111 74 62
397 246 266 134 102 64
351 210 263 119 96 70
375 90 277 104 34 42
257 457 303 50 35 31
380 95 276 109 24 41
401 495 357 108 37 42
406 625 299 109 13 41
295 530 359 130 25 49
359 105 258 140 99 76
357 105 263 127 95 69
395 595 307 48 29 30
301 445 148 108 5 33
348 269 300 107 85 60
257 774 255 165 113 78
323 545 336 170 11 54
392 175 256 125 98 64
358 106 262 131 98 72
262 484 190 56 25 33
358 110 263 129 97 70
388 948 280 76 67 67
357 108 264 127 97 70
414 873 260 54 52 54
363 110 257 135 100 72
380 695 344 141 7 43
263 255 274 125 97 68
385 920 372 50 43 40
252 680 306 181 125 100
440 819 313 108 65 48
412 832 231 51 46 50
430 809 179 105 84 68
415 585 307 123 23 43
361 100 276 116 95 72
270 625 283 43 34 29
369 440 183 115 6 34
256 558 306 177 0 52
423 420 321 48 26 28
304 425 337 49 24 28
393 264 265 143 101 67
365 100 277 120 98 75
362 105 276 112 91 70
460 865 347 52 45 40
359 115 263 125 96 68
360 120 263 125 95 67
395 784 199 71 58 49
353 220 261 120 94 64
375 395 314 117 92 65
426 780 237 62 50 46
360 125 263 124 95 66
319 315 269 85 72 60
364 115 257 127 94 65
415 889 343 34 32 32
313 216 257 116 93 65
365 125 257 124 95 62
296 589 321 163 17 52
360 125 273 108 86 62
415 440 222 43 38 39
306 399 315 123 87 72
362 115 276 111 89 66
365 170 289 111 91 69
255 605 307 115 89 58
365 115 278 114 92 68
248 542 319 62 25 31
458 843 290 73 58 51
365 120 279 112 90 67
386 508 336 83 9 29
367 126 281 114 92 69
404 505 183 88 13 29
370 100 277 121 98 73
388 320 291 131 99 69
280 665 303 160 109 94
295 430 153 59 29 43
281 320 313 124 95 67
297 506 172 89 15 31
370 105 278 119 97 72
375 100 277 116 92 66
254 554 278 50 30 35
406 830 188 106 80 60
375 105 277 118 95 70
330 350 264 69 63 57
265 450 183 140 4 35
272 375 306 133 102 74
248 563 336 141 105 71
378 105 276 115 92 67
398 838 301 133 96 72
273 262 251 150 103 70
385 105 272 121 96 70
255 575 253 66 26 34
394 451 210 56 37 34
294 450 342 72 24 33
375 115 278 116 95 71
375 120 279 115 93 69
391 725 345 119 20 43
370 126 281 114 93 69
352 212 286 108 87 65
411 507 325 58 28 31
384 115 272 117 94 69
277 395 311 137 102 79
345 500 313 54 22 29
315 403 228 100 86 72
428 518 311 181 14 59
435 500 238 154 15 43
405 487 354 105 27 41
309 865 323 173 133 108
382 120 275 117 94 69
385 120 273 116 94 69
374 465 383 121 84 75
277 509 155 150 8 41
389 45 258 84 54 38
321 882 356 130 101 80
290 792 310 112 90 75
267 601 299 48 33 28
380 125 278 113 91 67
305 345 256 88 77 67
382 123 275 114 90 63
340 570 326 184 15 58
254 575 323 107 80 48
418 632 300 89 57 37
270 160 258 111 92 72
313 286 265 100 78 53
359 461 339 142 0 44
361 909 355 91 72 61
276 610 323 158 111 96
285 140 257 110 88 64
278 434 381 146 7 48
325 605 318 111 31 46
351 225 283 111 89 65
400 510 177 133 8 29
431 906 328 71 61 60
285 145 258 110 88 64
435 675 283 76 61 48
357 180 283 105 85 64
314 573 326 180 4 54
319 531 337 52 28 28
264 505 192 37 33 35
275 150 257 108 90 72
275 155 259 107 90 72
264 425 228 62 31 33
377 849 320 148 118 92
278 154 260 107 89 69
280 155 262 108 88 67
440 795 333 184 135 106
277 157 261 107 89 69
432 792 176 102 80 55
370 245 303 124 98 67
355 210 258 121 96 67
413 626 345 188 134 110
425 450 222 108 23 25
280 400 242 95 82 70
263 585 222 168 9 41
430 881 292 59 50 50
272 385 306 134 102 75
309 335 326 137 91 72
385 416 328 58 44 35
285 155 262 108 88 65
300 409 208 103 89 75
285 160 263 109 88 66
393 99 266 113 16 43
287 153 260 108 87 64
290 545 178 137 1 32
245 595 323 148 109 74
270 165 258 112 92 72
394 80 263 105 37 45
439 715 253 62 45 38
280 455 158 123 9 37
267 175 258 116 95 72
269 535 183 48 29 34
269 170 259 113 93 73
356 345 254 89 78 67
257 514 204 46 32 35
303 236 286 110 88 63
271 170 262 111 93 75
309 440 164 126 8 29
266 180 258 116 95 72
258 484 381 155 8 44
355 954 275 92 85 88
269 425 213 91 21 34
305 280 258 104 82 57
266 600 278 72 26 35
269 180 264 116 96 76
281 450 363 153 8 50
415 880 323 30 29 29
266 190 258 117 95 71
267 190 263 118 96 73
308 385 240 104 90 76
275 165 263 107 90 72
279 164 265 107 89 69
365 421 178 120 27 34
325 520 169 129 9 32
460 829 279 88 70 59
409 845 213 123 96 72
290 815 249 174 123 98
310 690 225 44 35 37
273 174 265 109 92 74
275 175 267 108 90 72
308 437 165 126 10 31
403 913 280 64 55 57
272 177 266 112 94 76
456 700 298 69 48 36
281 245 297 114 93 70
275 180 268 108 90 73
369 750 207 64 49 42
290 418 176 99 83 68
340 795 318 188 140 122
365 620 214 129 25 44
334 623 210 66 37 31
274 184 269 112 94 76
315 960 303 88 82 82
279 179 270 107 89 71
280 180 272 108 89 70
405 416 338 63 32 30
277 182 271 106 88 71
307 871 318 165 127 98
427 551 231 162 19 46
397 214 280 121 96 67
361 439 363 127 9 40
252 755 296 164 115 87
345 854 338 121 96 69
276 186 271 109 91 74
415 425 225 119 22 32
288 755 236 134 58 49
273 188 270 112 94 76
364 465 169 105 31 35
275 190 272 109 92 74
290 421 174 96 76 54
415 405 313 49 21 26
284 177 271 107 88 67
399 240 283 127 98 64
285 180 272 109 89 69
363 490 174 63 39 40
266 220 273 115 92 68
280 190 274 108 90 72
285 185 274 109 90 69
285 188 275 109 90 69
272 624 244 51 34 34
281 191 276 108 90 71
285 190 276 109 90 69
401 885 261 57 52 54
282 437 134 137 7 37
325 470 169 130 4 29
228 521 372 182 127 105
455 805 323 175 114 89
436 887 308 65 55 55
288 137 256 109 87 63
289 145 257 109 87 61
257 510 204 38 33 38
310 530 171 151 1 32
342 379 306 128 88 76
290 150 257 109 87 63
290 155 258 107 86 61
283 373 251 102 87 71
291 160 259 106 85 62
430 850 309 33 30 29
386 936 272 62 55 57
438 676 288 72 58 46
295 529 174 126 3 31
361 720 214 60 45 39
288 156 261 108 87 64
293 156 256 105 84 58
294 160 257 105 84 59
345 660 320 140 9 43
290 165 263 107 86 64
335 740 222 83 32 37
281 455 359 142 10 45
295 165 258 105 84 60
264 400 263 115 93 69
405 525 328 118 18 40
316 436 330 91 2 29
360 675 223 53 37 37
293 166 261 105 85 62
350 370 252 84 73 63
291 170 264 107 86 63
349 393 236 89 77 65
296 170 259 105 84 59
337 413 352 73 29 34
269 570 203 40 33 39
390 495 353 129 7 42
353 383 246 95 82 68
314 250 282 114 90 61
294 171 262 105 83 58
295 175 263 106 85 60
289 171 266 108 88 66
265 390 288 128 100 69
256 675 311 179 127 104
365 651 321 154 17 49
368 767 216 65 51 46
380 340 252 103 89 75
290 175 268 107 87 66
393 361 259 111 92 71
424 410 273 96 24 37
292 174 265 107 86 63
355 665 324 57 30 34
347 251 286 107 84 59
347 429 352 30 26 26
298 166 256 107 85 60
262 445 328 45 31 31
262 630 285 96 73 45
300 490 337 139 1 43
362 141 281 108 87 64
392 882 256 57 51 54
298 170 257 106 84 59
433 476 321 165 1 53
280 531 359 51 25 29
407 694 226 62 48 38
436 405 258 138 13 43
299 175 258 105 84 60
315 340 262 83 72 63
335 510 316 57 19 28
289 181 271 107 88 68
294 180 267 105 84 61
252 550 261 62 24 32
295 185 268 104 83 59
394 375 288 126 99 68
292 184 270 106 85 62
350 880 258 43 40 42
408 826 193 87 73 65
293 187 271 105 85 62
257 415 248 85 28 34
394 160 258 122 97 66
294 190 272 106 86 63
288 561 175 109 17 29
318 665 221 142 4 33
298 177 261 106 84 60
326 495 320 58 21 28
268 210 274 115 94 70
330 360 268 60 54 50
299 180 262 107 85 61
429 835 300 30 27 26
395 605 308 124 12 39
385 585 203 74 29 37
301 180 258 107 86 63
371 749 336 71 60 56
325 381 250 85 73 63
300 185 263 107 86 62
335 365 258 60 52 45
452 882 328 83 64 56
302 184 260 108 88 65
365 185 293 114 94 73
330 400 298 103 69 58
297 183 265 106 84 60
264 255 258 145 105 73
255 625 332 185 131 107
246 770 273 172 118 89
325 720 221 153 11 39
303 187 261 108 86 62
358 173 261 114 91 65
301 190 264 108 87 62
348 518 311 92 18 42
364 455 349 108 8 34
305 190 258 107 86 64
468 759 265 83 66 54
458 725 317 161 109 75
303 191 262 109 88 64
262 406 283 120 94 67
265 195 258 116 94 69
330 359 281 69 62 57
265 200 258 116 94 69
267 195 267 116 95 71
264 265 268 141 103 72
397 450 367 85 29 38
268 200 270 115 94 71
351 728 220 114 23 32
248 569 331 137 104 71
411 925 319 58 49 50
356 195 288 108 88 67
265 205 258 117 94 69
351 210 273 109 88 65
382 728 190 67 50 40
267 206 271 115 94 70
271 206 276 112 92 72
402 430 344 45 28 30
263 220 258 119 96 69
320 495 323 89 14 32
438 858 275 66 57 55
429 794 170 109 85 61
320 365 312 132 92 73
262 225 258 121 96 69
320 403 223 98 84 70
263 224 260 119 96 69
290 266 306 114 92 68
264 220 263 116 93 68
321 324 271 82 70 59
263 225 263 115 93 67
271 305 283 127 94 69
286 680 248 72 31 36
264 215 263 115 93 67
392 920 271 71 64 65
310 520 170 71 27 33
266 210 268 117 94 69
408 863 211 91 71 64
267 210 272 116 93 69
424 878 333 35 32 31
265 215 268 115 92 66
392 373 290 125 98 66
267 215 273 115 93 68
305 470 333 108 14 39
345 710 332 115 29 45
266 225 273 115 93 68
269 435 178 71 35 36
331 385 283 117 81 74
270 210 278 112 93 72
300 395 317 137 100 82
263 567 298 180 0 54
267 220 276 116 94 70
438 456 247 138 13 41
397 796 223 55 49 47
286 273 250 131 94 63
267 225 277 117 94 70
352 770 326 72 59 54
297 272 251 106 82 55
327 844 298 180 130 104
289 354 257 96 84 71
269 220 279 115 94 71
303 659 305 29 27 28
271 220 282 113 93 72
270 225 283 113 93 71
275 195 274 109 91 73
334 319 277 65 52 41
335 665 319 153 6 47
274 199 275 110 92 73
344 430 343 83 21 35
434 905 338 76 63 58
261 445 358 84 26 32
376 888 235 74 61 57
320 720 222 117 22 39
278 193 275 108 91 74
370 810 317 190 138 116
275 205 278 109 91 73
389 681 218 62 47 44
350 411 208 92 78 64
389 105 267 121 92 68
277 207 281 108 90 71
272 346 275 116 93 68
427 907 350 68 54 48
280 206 282 109 91 72
280 600 323 82 32 40
285 202 281 110 91 72
285 205 282 110 91 72
340 930 258 91 80 79
274 209 280 110 91 73
370 200 296 121 99 74
273 213 280 110 91 72
300 436 138 99 28 31
280 210 283 109 91 71
409 489 382 186 126 104
279 215 285 110 92 72
330 500 318 59 21 27
362 146 281 107 87 65
274 224 285 112 92 72
320 305 308 106 80 52
276 225 287 111 92 72
303 415 341 71 23 31
277 221 286 110 92 72
345 385 307 123 86 72
282 765 240 142 100 64
345 411 198 94 72 60
316 379 247 92 80 69
254 565 258 123 22 45
265 270 268 144 104 74
285 220 288 112 92 72
387 105 270 120 96 69
285 224 290 112 92 71
262 230 258 122 97 68
263 230 264 117 94 68
262 240 258 130 101 69
262 240 263 125 99 69
340 410 203 90 75 61
263 234 265 120 96 71
270 455 388 46 25 28
421 464 216 96 28 25
263 235 268 117 94 67
434 640 308 135 104 71
426 585 248 102 23 41
262 236 267 120 96 69
306 399 232 104 89 75
298 890 316 182 129 110
484 750 303 63 51 41
264 240 273 118 94 67
325 650 314 42 28 32
388 315 283 121 95 64
414 550 303 99 22 39
265 230 273 116 93 68
273 546 176 133 5 32
365 420 183 119 25 35
436 490 253 110 25 40
267 230 278 116 94 70
306 609 316 157 24 55
268 229 280 117 95 71
244 541 373 201 135 113
315 960 308 87 81 81
265 561 359 151 86 82
265 240 278 118 95 69
416 606 295 146 22 48
326 719 220 154 7 38
267 232 281 117 95 72
257 533 210 117 8 28
410 402 253 82 56 49
267 240 282 117 95 70
272 231 286 113 93 73
282 772 311 128 92 62
248 710 278 144 101 69
268 240 284 116 93 70
271 240 288 114 93 70
400 785 203 57 46 39
262 465 189 118 17 37
262 245 263 128 100 68
333 314 282 66 54 42
279 570 183 67 32 34
263 246 256 139 105 71
263 245 273 119 94 66
457 832 281 84 65 54
262 249 259 137 103 70
360 510 312 82 22 35
263 250 257 141 104 71
269 445 177 98 24 37
393 560 354 165 108 94
262 250 263 132 102 69
262 254 264 135 102 70
454 715 322 164 109 78
430 680 336 176 120 90
263 256 262 138 103 71
423 478 375 196 142 128
296 422 169 72 33 40
322 684 220 57 34 37
369 460 354 112 7 39
262 250 268 126 99 68
300 890 333 152 110 94
432 530 248 57 31 37
380 270 254 140 106 68
403 526 337 164 18 51
262 250 271 124 98 68
263 250 273 122 96 67
460 820 312 58 48 40
262 255 268 129 100 69
400 416 338 49 34 28
271 450 173 137 1 34
282 583 190 66 24 35
262 255 272 127 99 69
247 529 239 77 21 30
264 245 278 118 94 67
422 420 288 57 29 32
409 525 188 57 33 33
303 278 255 103 82 57
264 255 278 121 94 66
424 425 293 94 19 33
268 245 285 117 94 70
270 245 288 116 94 69
266 255 283 120 95 67
269 525 178 56 29 33
255 550 223 167 7 44
279 796 246 168 114 80
391 200 284 116 93 67
386 345 293 134 103 72
269 250 288 118 94 68
275 230 288 111 92 72
318 401 239 98 84 70
275 395 248 101 86 71
360 140 268 111 89 64
274 235 289 112 91 71
300 404 218 104 89 74
279 229 290 110 91 72
273 239 290 112 92 70
400 625 308 99 37 39
277 236 291 110 90 70
317 323 266 83 73 62
253 694 276 131 95 63
285 780 239 159 109 74
280 240 294 112 92 71
282 227 291 111 92 72
285 230 292 112 92 71
365 405 233 94 81 68
285 235 294 113 93 71
272 554 184 172 11 43
335 885 364 164 126 102
252 513 323 160 0 45
265 495 189 63 30 34
283 238 295 113 93 72
364 740 208 66 50 42
392 49 258 81 42 39
315 240 268 122 97 67
356 449 342 140 1 44
325 405 332 114 23 39
331 335 278 67 57 50
410 817 315 57 48 46
286 237 296 115 95 73
419 446 220 58 39 37
361 231 301 118 96 73
314 275 264 101 80 54
268 500 186 138 6 37
272 246 291 116 94 70
303 632 305 57 23 29
439 415 248 111 18 37
275 250 294 116 94 70
280 255 299 115 93 70
279 454 367 156 10 51
262 800 306 184 136 108
407 569 308 51 24 28
285 250 300 115 93 70
304 195 263 108 87 64
276 441 378 147 1 45
276 280 302 118 94 67
297 193 270 102 80 54
327 687 326 98 24 43
345 665 220 106 21 29
300 195 268 105 84 59
296 598 194 116 26 40
302 194 265 107 86 61
460 885 337 94 75 57
270 605 333 169 119 99
305 205 268 107 86 63
392 379 294 121 97 68
290 195 277 109 90 69
290 200 279 108 88 67
455 790 243 78 59 51
423 574 286 159 16 51
320 630 214 174 2 38
296 199 274 107 86 61
420 460 338 129 4 41
293 197 276 107 88 66
375 680 334 49 27 31
254 770 257 164 110 79
320 805 313 48 40 40
320 820 244 90 69 61
294 200 277 109 88 65
285 355 318 133 100 74
291 204 280 107 87 65
430 821 238 56 48 49
420 790 234 64 53 51
295 205 278 108 87 63
438 460 238 133 17 40
350 419 173 80 54 46
288 202 281 107 88 68
343 378 261 79 67 55
247 535 313 58 32 35
278 620 313 150 97 86
293 207 281 108 87 64
384 944 353 64 57 56
320 790 316 66 57 52
283 444 156 139 5 39
297 203 275 107 85 59
438 736 240 62 49 41
298 206 276 108 86 61
336 305 307 83 63 40
296 210 279 109 87 63
245 585 338 161 112 85
290 210 283 110 90 69
291 214 285 111 90 68
297 886 323 168 121 102
310 725 334 180 15 58
433 515 238 152 12 41
294 453 130 65 38 42
289 216 286 112 92 71
290 575 179 114 21 39
296 220 284 109 88 63
451 834 309 52 45 40
413 670 330 151 109 90
305 555 337 188 13 59
294 221 286 110 89 66
335 380 302 126 82 71
300 215 278 109 87 61
370 220 299 123 99 72
302 445 143 73 25 36
302 209 274 109 87 61
393 250 259 137 102 64
390 600 307 97 17 35
333 376 291 124 92 88
375 140 283 116 93 69
305 215 273 111 89 63
303 216 276 110 88 62
286 372 250 100 86 72
390 858 300 38 32 30
297 213 280 108 86 61
304 220 277 112 89 63
399 225 278 121 96 66
300 225 283 110 88 62
370 360 244 95 83 71
358 355 251 87 76 66
308 196 257 106 86 64
309 200 258 105 85 64
438 455 234 144 6 39
405 460 207 49 39 38
361 440 381 132 9 47
253 689 276 128 92 61
311 725 225 120 14 32
307 204 264 107 87 65
480 801 315 83 66 48
310 205 258 108 88 66
355 205 258 122 97 67
286 301 317 118 90 63
350 485 319 52 23 29
393 273 286 139 100 66
251 550 288 120 12 36
400 822 211 96 81 71
248 586 345 180 124 101
308 201 261 105 85 63
311 210 258 112 90 65
265 705 312 176 125 101
348 348 261 79 70 61
388 846 221 79 66 59
438 410 253 145 9 42
312 215 258 115 92 66
357 912 246 82 71 70
395 544 185 169 13 37
267 275 287 127 96 70
360 911 247 85 75 73
311 215 263 109 88 64
394 200 259 120 96 67
306 209 269 107 86 63
389 448 385 105 73 63
308 210 267 108 87 63
350 680 222 93 25 33
308 216 271 109 87 62
247 515 233 94 14 33
311 220 268 110 88 64
268 571 207 48 33 35
312 224 269 111 89 64
310 225 273 113 90 64
312 219 264 109 88 65
394 395 302 113 91 66
305 590 324 177 18 57
314 225 263 117 93 66
252 514 292 161 2 47
345 580 324 52 30 33
313 222 266 110 88 64
351 854 264 80 64 60
415 720 331 140 49 54
307 223 275 113 90 64
277 460 164 130 5 35
231 530 378 202 135 114
275 780 244 153 106 70
290 225 289 110 90 69
350 385 248 91 78 66
298 226 286 111 89 64
436 455 313 59 30 34
295 230 289 110 89 65
299 230 287 110 88 63
368 140 256 123 95 62
303 226 281 110 87 60
362 833 320 160 126 96
304 230 282 109 86 58
370 275 254 135 103 69
367 583 310 107 3 34
324 530 322 63 21 29
312 228 270 111 88 62
311 230 273 113 89 62
290 280 252 111 83 54
324 295 288 85 71 57
313 231 272 110 87 62
270 815 304 191 139 112
432 615 323 140 108 70
277 714 310 134 77 67
340 620 317 92 30 41
285 505 152 107 24 38
245 755 273 167 114 86
474 795 278 72 56 47
315 235 268 118 94 67
314 235 273 111 88 62
307 230 279 110 87 61
317 813 311 38 36 38
308 226 276 113 90 63
355 785 223 63 50 44
312 234 275 113 89 61
302 935 310 86 72 66
273 404 246 99 86 72
310 235 278 113 89 61
267 375 274 127 100 70
266 380 273 128 101 70
423 786 330 182 136 107
360 180 288 108 88 68
276 624 233 101 33 43
282 603 210 184 5 46
307 234 280 111 88 61
320 416 308 106 66 56
313 241 277 112 88 61
352 713 215 79 44 40
315 245 263 116 92 62
252 551 335 105 47 37
315 245 268 124 98 69
300 365 249 96 84 73
334 909 268 67 53 50
295 270 249 109 83 55
384 443 380 89 67 50
305 570 184 170 1 35
480 839 319 93 75 62
316 250 263 111 88 60
252 565 273 167 3 47
447 887 327 81 64 56
397 190 263 126 99 65
474 784 279 69 55 49
311 945 348 120 84 74
315 700 223 80 35 41
330 334 267 63 55 47
316 255 263 105 84 58
325 405 218 95 81 66
316 250 268 122 97 67
337 496 315 35 24 23
316 250 273 116 92 64
433 500 268 76 30 37
308 246 286 113 89 62
443 845 275 59 48 47
418 607 309 101 51 35
309 250 287 113 89 61
272 325 283 125 98 68
311 250 284 113 89 59
314 245 278 113 89 62
397 185 268 122 97 68
312 244 280 113 89 61
320 675 319 110 17 38
300 419 173 83 70 60
407 505 368 186 136 111
288 827 261 195 134 107
315 250 278 113 89 62
394 510 348 150 31 50
315 255 278 113 90 63
312 254 285 113 88 59
289 226 291 112 92 71
277 400 311 136 101 79
274 480 163 125 8 37
314 320 264 86 74 63
296 485 340 138 0 44
295 405 316 109 78 62
365 560 308 69 19 29
290 230 292 111 91 70
406 816 187 104 83 64
386 524 376 181 127 105
292 228 290 110 91 69
300 760 320 66 58 56
420 440 224 75 33 31
294 231 291 110 90 68
368 460 179 61 34 33
450 780 333 175 123 91
290 235 294 112 92 69
300 640 223 174 7 42
292 239 295 112 91 68
296 234 290 110 89 65
295 240 294 109 88 65
411 460 377 105 69 57
438 407 240 43 37 37
386 325 293 135 101 73
288 237 296 114 94 72
375 409 316 91 72 53
400 575 202 180 19 44
290 240 297 114 93 70
315 844 273 76 68 65
299 240 292 109 88 63
290 245 298 114 93 69
295 245 297 112 91 67
296 254 300 114 92 67
265 444 369 79 9 30
302 243 290 112 89 65
430 399 258 94 23 37
392 218 256 126 99 67
376 825 315 164 131 104
303 246 291 112 89 63
335 395 283 113 73 62
395 165 268 119 95 67
401 390 253 81 71 61
245 640 303 145 103 69
304 250 292 111 89 62
471 796 263 70 55 47
431 866 317 31 29 28
305 255 293 111 88 61
342 407 316 81 50 42
300 255 298 113 90 66
375 928 260 84 76 76
403 721 215 68 50 46
355 390 237 95 82 68
295 424 168 84 27 38
303 256 296 111 89 65
306 250 289 112 89 62
352 210 283 107 86 63
280 380 314 137 102 79
284 426 372 147 14 47
412 596 226 71 31 38
307 254 290 112 89 62
378 402 316 112 88 65
406 600 352 183 130 106
367 432 176 122 2 35
361 130 263 122 95 66
301 514 339 122 2 38
362 130 260 119 92 61
351 927 371 44 40 40
365 135 258 120 94 63
404 604 224 66 32 38
361 135 263 122 96 65
293 420 357 83 16 32
360 130 268 116 91 65
336 290 288 86 74 61
360 130 273 107 86 61
250 660 313 194 137 112
299 606 201 214 12 51
280 265 248 148 101 69
360 135 268 114 90 63
445 690 263 104 78 52
360 135 273 107 85 60
359 811 241 66 57 56
406 690 227 60 47 40
365 140 258 120 94 64
361 140 263 119 94 65
362 140 260 118 93 64
392 144 263 115 93 68
441 861 332 38 34 31
365 145 258 119 93 62
338 298 272 87 74 60
266 425 223 71 29 34
362 145 260 116 92 64
360 145 273 107 86 62
362 130 278 110 88 64
335 890 283 92 69 43
361 135 278 108 86 62
380 530 313 146 5 45
365 140 282 110 89 65
445 829 268 61 50 49
376 972 313 66 62 63
365 145 283 110 89 67
359 150 268 109 88 65
317 892 295 137 106 73
359 160 263 116 93 65
360 150 263 116 93 66
266 385 283 126 99 68
360 155 263 116 93 66
306 655 307 132 8 42
263 420 232 90 27 29
375 840 318 149 120 93
335 575 323 183 16 58
350 375 252 89 77 64
359 155 268 108 87 64
359 155 273 105 85 63
380 165 287 117 94 68
389 711 205 65 49 41
358 160 273 103 83 61
364 150 258 118 93 62
257 490 380 146 7 46
275 540 168 75 33 36
337 622 211 44 31 42
362 155 260 116 91 63
328 835 300 177 127 102
376 475 373 80 34 38
280 670 258 131 8 37
364 155 257 118 92 60
311 855 342 179 135 114
360 150 278 103 83 61
359 155 278 101 81 60
298 440 159 43 34 31
332 702 331 46 33 32
355 270 304 116 91 65
410 856 306 39 35 35
350 605 319 34 30 31
359 160 278 96 77 56
483 769 280 85 63 48
424 645 300 87 68 44
327 354 261 67 58 51
420 455 218 100 28 29
387 378 241 102 88 74
459 865 313 76 60 52
362 150 281 104 84 62
365 150 284 109 88 66
367 152 286 113 92 69
330 510 318 42 22 26
253 540 222 164 6 40
350 290 263 95 80 65
254 560 328 105 39 38
302 916 342 139 116 97
421 530 213 102 26 38
361 155 282 100 81 60
364 155 284 107 88 66
306 279 309 105 84 62
355 500 169 122 12 30
310 340 324 136 89 71
295 375 320 144 104 83
401 829 194 109 85 64
363 159 285 108 89 68
366 156 286 111 91 68
310 395 312 131 92 76
368 137 256 123 95 61
314 405 308 121 85 70
277 387 250 104 87 70
370 130 282 113 92 68
413 467 361 70 37 35
314 402 226 100 87 73
370 135 283 114 93 70
420 684 262 59 41 39
370 145 285 113 92 69
509 799 314 129 96 72
417 565 355 159 113 81
384 130 277 115 93 69
272 335 280 121 96 66
396 856 301 33 30 29
392 240 256 131 100 62
381 135 279 112 90 65
366 390 235 94 82 70
384 135 277 114 92 68
377 129 280 113 91 66
294 266 306 114 92 69
395 421 348 55 35 27
348 248 284 109 87 61
280 370 254 104 88 71
320 940 359 105 77 70
378 132 281 114 92 66
379 135 281 112 89 63
380 140 282 114 91 66
399 610 224 157 26 48
389 558 190 136 10 34
382 140 280 113 90 65
356 413 343 64 42 32
407 515 363 148 111 82
385 595 208 48 36 40
285 445 128 163 4 38
385 140 277 115 92 66
247 610 310 138 104 67
368 160 256 118 90 56
423 420 277 100 14 35
369 148 285 113 92 69
370 150 286 114 93 70
285 480 142 126 25 42
386 625 310 79 20 31
400 575 358 184 126 105
367 424 172 126 23 37
374 151 286 117 95 70
346 339 260 80 70 62
389 432 361 53 35 25
370 155 287 114 93 70
276 601 324 102 73 63
370 160 288 114 93 69
325 760 225 104 28 37
324 310 303 97 74 53
330 412 188 90 73 59
429 509 317 113 17 42
375 160 287 116 94 69
316 315 267 87 75 62
380 150 284 117 94 68
274 375 309 134 103 75
392 232 256 129 100 64
431 470 298 109 11 32
377 153 285 117 94 68
270 825 298 210 148 122
422 540 217 38 34 39
384 155 282 115 92 65
371 485 383 154 108 94
329 325 304 76 58 46
318 924 276 65 59 61
300 426 165 72 30 33
359 165 263 116 92 65
414 920 299 72 63 62
431 430 264 145 6 43
361 165 259 114 90 63
358 165 273 105 86 64
311 528 170 150 1 34
468 782 306 87 61 46
284 434 143 115 15 37
357 166 268 111 90 67
357 167 273 106 85 63
273 490 163 129 9 38
360 170 259 115 92 63
356 175 263 118 95 69
333 385 263 63 52 43
299 685 232 93 27 37
355 175 268 111 90 68
356 175 273 106 86 64
288 402 315 124 92 73
313 280 265 101 79 52
380 700 198 75 53 50
365 165 258 117 90 57
421 410 278 64 27 33
325 963 347 65 60 59
395 887 231 74 64 59
284 725 243 122 10 33
365 170 257 116 90 56
390 615 307 115 5 37
358 165 278 102 82 60
357 167 276 104 84 60
279 745 248 92 71 53
274 399 246 96 84 71
311 270 258 112 87 58
356 175 278 105 85 63
350 280 263 103 83 60
357 172 281 105 85 63
359 170 283 107 87 67
380 620 219 59 34 38
358 175 284 107 87 66
324 405 339 123 3 37
276 465 148 34 33 35
365 165 288 111 91 69
362 166 286 108 89 68
361 170 287 107 88 67
438 826 305 37 30 28
356 180 263 118 95 69
357 185 259 117 93 66
376 870 325 148 117 96
428 422 225 39 40 44
355 180 268 111 90 67
355 185 268 111 90 65
437 470 243 155 15 42
430 470 219 116 18 31
355 185 273 106 85 62
389 720 346 146 18 49
285 625 298 92 25 38
337 408 336 77 44 38
354 190 263 118 95 68
354 190 268 108 87 64
325 910 273 143 100 76
330 411 329 100 28 35
413 460 378 117 81 67
354 190 273 106 85 62
363 183 256 120 93 58
320 827 300 128 94 75
290 495 148 90 31 39
245 536 388 206 143 127
355 185 278 103 82 59
356 185 283 105 85 64
357 181 286 107 88 67
324 909 277 97 75 61
414 462 375 100 68 57
331 860 289 173 120 91
355 190 278 103 82 59
355 190 283 105 85 62
371 504 322 57 24 28
307 877 333 110 39 51
406 484 196 51 39 38
356 190 288 107 88 67
365 965 343 75 69 69
361 699 189 76 56 42
258 445 293 81 25 35
282 460 134 122 12 34
375 165 288 118 95 71
248 720 272 144 103 70
417 705 331 149 106 87
382 165 285 118 94 68
431 540 248 102 28 41
385 165 283 119 95 69
346 876 279 87 70 55
360 416 193 111 43 41
380 170 287 117 94 68
416 665 332 157 115 93
409 605 229 105 30 43
380 180 289 118 95 70
384 180 287 121 98 73
320 465 168 132 1 28
297 435 153 76 25 33
364 175 290 109 89 68
