ply
format ascii 1.0
comment Created by Open3D
element vertex 2226
property double x
property double y
property double z
property uchar red
property uchar green
property uchar blue
end_header
261 609 315 80 30 38
445 746 232 51 42 37
372 239 251 134 103 65
377 234 251 134 102 63
344 239 285 108 87 63
381 229 252 134 102 62
384 725 202 70 57 51
381 234 252 134 102 63
383 234 253 132 101 62
407 604 250 82 31 38
448 749 235 57 47 40
282 49 279 117 89 68
358 164 261 113 90 63
242 679 305 164 113 85
383 239 254 134 102 64
371 253 252 134 104 67
435 877 300 63 54 54
242 524 320 117 15 39
272 769 321 175 124 95
332 899 363 177 130 111
427 599 305 104 85 63
295 245 298 111 88 61
377 605 223 72 36 39
252 549 210 162 11 43
424 497 305 70 20 24
372 254 253 135 104 66
352 654 232 64 32 35
350 71 272 90 48 44
362 369 245 96 85 74
432 519 320 170 8 54
269 524 197 103 23 37
254 617 261 87 34 46
242 544 295 170 2 50
349 241 257 116 92 62
287 804 320 179 137 106
462 889 370 85 70 58
398 439 220 41 30 32
378 250 253 138 104 64
377 254 254 138 104 66
254 569 225 76 30 39
318 424 305 101 69 54
268 506 384 38 27 31
337 434 139 53 35 41
424 743 312 105 44 48
380 242 252 136 103 62
382 244 254 136 102 63
377 299 299 132 99 70
382 249 255 139 103 65
382 254 256 139 103 66
391 214 260 124 97 64
260 424 239 68 36 32
267 729 270 84 45 38
387 64 225 96 37 23
302 509 185 147 2 31
397 59 225 111 37 25
361 149 281 100 80 59
447 774 234 81 60 49
397 64 223 105 43 29
421 635 316 174 118 100
343 33 283 114 33 47
393 44 226 106 40 34
367 479 405 74 27 28
275 815 263 190 129 99
316 294 280 86 75 65
395 35 229 93 31 33
387 224 255 131 101 65
347 11 295 103 35 45
396 46 233 83 67 50
432 514 305 78 25 37
395 39 227 98 31 32
397 44 230 94 31 31
276 555 439 56 24 31
398 49 230 93 29 31
331 13 269 134 64 65
307 586 347 162 17 55
389 403 296 125 98 68
273 529 465 151 16 48
397 50 234 88 62 50
387 48 245 118 103 88
390 640 308 154 12 47
393 404 250 81 49 41
387 45 250 113 98 83
269 68 273 100 41 38
392 49 250 103 91 79
319 324 268 67 59 50
392 49 255 82 62 47
298 462 344 74 27 30
323 314 300 84 60 40
364 434 169 124 12 33
390 46 256 86 70 54
324 957 287 73 69 71
415 561 330 54 38 28
387 54 230 112 92 77
261 708 278 114 79 50
367 39 285 119 37 52
371 289 304 129 99 64
389 51 231 126 115 108
327 520 381 110 18 44
393 54 226 101 29 20
390 54 228 83 35 22
326 899 280 175 123 100
278 284 309 119 92 66
375 582 212 43 34 42
268 419 319 135 102 76
388 60 227 88 37 25
351 189 280 101 81 59
263 557 374 102 15 40
397 54 226 111 35 27
367 174 292 113 93 70
319 911 282 81 67 57
395 51 240 100 85 72
272 304 305 128 99 72
357 944 369 67 59 55
412 809 305 68 54 47
397 53 240 94 76 64
308 399 316 131 93 74
392 50 245 108 94 82
397 53 245 98 85 76
395 51 250 96 86 75
395 544 365 126 83 78
397 54 250 80 58 47
304 954 348 54 50 51
396 54 255 84 30 31
365 852 228 68 58 57
367 89 277 109 52 51
462 724 249 100 78 61
287 699 245 52 34 38
394 52 256 86 34 32
399 57 252 92 28 39
248 584 241 97 21 38
393 444 365 69 19 28
341 254 275 103 84 62
446 734 236 59 45 36
288 33 258 83 62 45
390 380 269 126 99 67
293 44 260 110 37 33
285 150 266 103 82 56
364 99 278 114 94 71
398 59 256 98 33 39
328 23 289 117 77 58
400 51 231 90 25 32
335 287 302 98 78 56
401 54 230 90 32 33
409 806 307 72 58 49
332 413 180 91 76 61
401 54 235 80 34 28
265 647 338 180 121 96
352 959 355 81 76 74
386 709 209 65 51 43
257 623 359 189 128 106
401 59 226 92 42 29
404 58 235 81 36 31
402 614 309 112 45 49
324 19 272 138 65 60
346 564 344 118 20 42
405 61 235 86 33 34
406 64 235 93 37 34
413 644 300 154 104 92
336 402 244 86 73 60
405 61 240 89 35 37
381 882 326 36 33 31
258 655 337 185 127 101
387 493 430 95 18 34
407 64 240 100 39 39
310 429 313 119 84 66
403 59 245 83 32 30
449 714 245 84 64 47
330 293 280 80 69 58
258 84 263 97 36 40
282 119 265 108 82 55
333 399 244 84 70 57
285 206 293 111 91 68
405 61 244 90 41 35
404 62 247 101 34 45
400 878 322 33 31 30
400 56 248 74 21 32
354 667 327 119 19 43
391 444 315 92 0 31
277 20 302 123 87 69
420 578 354 190 126 102
497 849 300 121 93 75
312 421 161 87 73 57
280 800 253 168 116 83
404 63 251 108 33 41
349 77 268 104 4 33
244 592 256 184 0 46
408 624 310 160 102 93
364 510 183 45 36 35
235 530 296 133 14 45
405 65 249 111 35 44
367 401 205 95 82 68
384 946 278 71 63 62
386 69 224 141 18 34
262 684 321 164 115 91
352 476 404 55 33 24
277 209 297 114 94 72
381 857 212 96 75 65
277 169 285 111 90 68
256 585 321 60 23 34
389 66 222 108 35 26
344 57 262 114 84 63
267 575 410 183 121 102
392 65 222 101 38 22
357 878 232 78 67 66
303 491 424 71 17 26
392 69 222 132 25 34
405 628 266 103 21 36
259 145 273 111 92 73
389 73 222 146 13 39
327 339 311 111 71 57
387 224 289 117 93 66
287 38 284 123 17 46
412 489 375 102 10 33
390 76 223 147 13 37
387 79 225 153 13 42
387 84 270 101 26 36
334 558 352 134 18 41
275 638 329 161 107 92
392 79 223 149 14 38
397 74 222 138 22 34
312 595 213 85 31 38
283 114 260 108 85 59
352 376 242 101 88 75
287 16 307 144 90 86
397 79 223 145 25 42
397 84 225 152 22 45
328 904 275 143 97 81
261 24 290 118 21 44
367 968 339 65 62 62
400 71 222 136 29 36
400 73 222 135 34 35
361 760 327 77 63 54
248 679 286 129 94 60
384 104 272 119 95 67
367 24 260 111 95 79
376 334 261 109 91 71
296 250 299 113 90 62
326 11 303 158 26 63
352 769 325 76 61 55
402 74 224 121 44 38
458 708 232 68 54 41
271 13 301 95 47 45
402 79 225 126 33 41
235 554 260 167 1 44
249 524 200 74 23 34
347 27 294 145 18 54
294 44 265 109 85 63
337 699 228 102 21 31
458 709 280 139 97 63
398 79 255 107 33 43
312 423 155 87 72 56
263 11 276 94 50 47
266 759 264 117 87 55
385 81 228 151 13 42
386 84 229 152 13 44
332 10 295 139 40 59
386 94 233 139 14 37
283 134 265 105 82 54
322 629 328 79 31 39
384 569 326 88 14 30
267 709 275 84 49 41
252 513 385 60 24 28
342 417 155 95 75 58
347 484 460 159 17 51
329 296 277 80 69 58
283 823 262 158 112 90
263 573 211 66 28 35
397 90 228 158 25 48
273 469 202 96 13 25
399 95 252 105 25 36
413 517 429 171 17 53
446 848 325 47 40 35
250 606 286 181 0 54
357 23 258 103 37 22
404 67 228 82 43 26
406 69 230 102 35 35
408 69 235 115 39 45
401 464 350 67 28 34
241 724 285 151 106 74
329 857 282 190 129 93
407 74 240 125 23 47
406 79 235 138 29 51
408 69 240 115 39 46
407 69 245 120 36 48
347 469 380 49 37 24
306 269 270 92 76 59
310 688 233 133 10 28
299 224 272 113 90 63
286 454 325 100 68 50
424 584 346 183 126 96
271 509 395 107 11 35
296 209 280 108 85 58
402 69 255 108 27 40
451 808 303 142 92 70
403 470 390 59 24 25
371 410 181 121 35 35
368 901 243 75 66 65
356 860 335 123 94 68
404 68 252 118 34 44
403 79 251 121 17 44
245 574 244 53 29 31
400 470 221 120 16 36
229 522 275 102 22 40
358 859 326 141 108 80
366 19 294 95 30 39
358 454 164 147 4 34
359 482 427 50 32 26
362 345 252 96 85 74
410 603 256 121 25 41
405 74 250 126 25 49
297 604 220 116 17 40
405 78 249 125 16 47
305 281 308 99 77 52
276 822 318 190 136 108
508 856 338 81 67 52
448 669 285 133 98 61
404 85 229 134 34 48
402 89 230 146 28 50
244 635 316 128 98 63
377 595 321 191 12 61
404 81 228 123 41 47
485 791 296 96 75 59
263 299 285 141 100 78
463 868 362 66 51 40
390 113 253 114 86 60
405 84 235 142 22 51
399 450 216 69 30 34
400 108 245 127 25 45
234 549 265 173 0 48
405 84 240 137 19 52
321 939 367 47 44 45
417 904 315 63 55 56
352 29 290 108 62 54
289 456 187 82 24 24
400 565 360 184 125 110
404 85 241 135 19 51
282 734 246 127 11 34
275 608 363 184 125 105
266 444 325 109 18 39
362 379 240 100 87 75
383 44 276 105 35 44
367 178 292 114 93 71
276 689 265 81 31 40
231 534 255 42 30 34
403 89 240 133 15 49
259 409 309 131 101 73
426 654 307 167 115 96
405 87 238 138 9 50
357 379 239 101 88 74
402 94 235 123 52 54
401 94 240 134 22 49
296 11 285 119 53 48
323 319 295 81 59 44
364 877 332 112 88 67
417 697 214 78 56 44
403 89 245 129 14 49
302 471 320 87 63 48
273 249 304 119 94 69
247 573 335 186 0 56
404 84 245 134 23 53
417 569 325 79 60 40
423 500 397 66 24 26
272 53 278 112 26 44
290 684 243 43 32 36
404 81 246 130 20 51
352 397 223 96 83 70
266 820 274 192 130 99
283 534 192 160 2 36
451 863 321 80 62 57
400 82 253 109 30 42
302 739 340 131 33 53
401 94 250 123 21 47
387 99 234 137 17 36
283 411 225 100 85 69
351 229 259 125 97 64
268 490 350 66 26 31
349 74 265 119 14 40
389 98 232 142 16 38
342 614 334 114 28 45
378 865 224 89 75 70
357 94 274 98 69 56
433 693 219 73 59 46
305 255 274 109 88 64
390 101 233 143 24 40
442 884 369 64 52 44
332 496 412 93 21 36
400 675 309 95 20 36
360 178 258 119 94 62
341 29 258 127 100 76
340 300 263 91 79 67
262 294 280 144 102 78
392 104 233 146 21 37
258 809 318 181 131 105
384 108 237 144 22 42
243 589 270 179 0 48
302 562 197 100 24 35
352 69 275 96 64 52
392 109 235 148 25 41
336 844 315 77 59 41
332 889 285 105 81 57
266 754 265 110 82 51
395 102 232 146 33 43
399 96 233 104 100 93
416 479 255 132 14 37
385 206 288 117 93 64
373 449 184 127 17 33
430 635 272 111 88 63
432 794 311 171 131 103
397 109 236 123 95 83
387 555 340 147 14 48
320 409 250 76 60 42
372 923 261 73 68 69
307 819 312 60 52 49
392 109 250 120 81 64
293 12 274 121 51 44
390 542 207 132 41 56
327 473 390 53 40 26
284 766 323 160 118 92
439 689 307 170 115 84
390 108 254 118 85 64
431 529 320 178 12 54
389 109 256 115 84 63
399 99 252 110 37 43
398 105 252 116 34 47
362 269 255 109 87 63
352 695 338 57 26 31
367 498 420 163 17 54
397 110 245 117 49 55
369 422 317 109 84 63
298 823 256 86 66 60
282 134 260 103 83 59
274 379 318 129 100 72
393 106 252 102 66 54
286 199 289 106 85 62
392 863 305 31 29 28
378 29 280 72 53 43
332 799 320 54 44 44
362 910 379 46 41 40
387 113 240 144 86 71
392 112 237 159 34 51
448 800 307 159 111 83
430 529 330 129 24 47
358 269 256 106 86 62
405 441 246 121 16 37
395 112 240 152 61 74
252 548 360 38 25 28
357 11 275 101 86 75
297 344 255 90 78 66
343 34 256 115 61 46
242 729 305 170 115 90
357 401 210 96 83 69
388 115 244 143 98 69
298 419 322 138 100 81
260 389 302 125 99 69
325 422 154 84 68 51
362 908 244 82 72 70
411 913 360 67 58 54
451 689 295 156 105 73
387 119 246 141 100 67
272 158 282 111 91 70
345 339 259 84 74 65
250 664 288 141 101 70
261 569 395 181 122 101
304 457 159 136 1 38
391 113 245 137 94 71
458 709 260 59 46 33
254 622 279 136 23 46
392 454 311 63 22 28
386 109 270 117 94 69
389 194 258 126 98 63
390 114 250 125 91 65
248 550 360 40 30 31
337 804 240 76 60 52
385 128 247 138 101 66
267 498 365 39 30 31
294 432 172 127 14 31
298 488 182 145 0 34
311 466 368 60 42 30
388 124 250 133 98 64
393 629 245 103 26 38
443 496 397 114 89 66
387 129 250 134 100 65
362 454 170 142 5 35
350 468 162 52 36 37
325 422 150 86 68 52
354 98 265 115 56 53
375 189 293 118 95 69
389 124 255 120 95 66
322 409 255 74 58 41
372 926 264 73 68 70
262 719 275 109 72 45
412 569 310 65 32 36
400 99 240 131 32 48
390 254 266 140 103 67
400 104 237 108 66 56
404 630 264 123 22 40
283 124 260 105 83 57
400 108 241 122 36 41
360 71 277 92 26 33
382 888 340 34 31 31
387 134 250 132 100 63
257 563 360 141 13 48
389 134 255 125 99 68
462 700 244 80 65 53
470 725 254 75 61 44
400 409 218 138 16 39
382 401 215 106 67 56
322 488 430 60 24 35
404 442 243 105 18 30
389 139 255 125 99 68
397 499 440 62 22 25
262 504 200 103 12 29
432 889 364 73 62 54
387 149 251 128 98 60
281 554 434 89 22 36
392 659 310 145 15 44
389 149 254 125 97 63
246 554 365 77 26 36
388 159 254 125 97 62
269 546 482 183 17 58
273 603 227 104 9 33
385 444 192 65 35 39
385 169 252 133 101 62
448 712 238 80 57 40
393 757 202 60 47 40
378 324 296 139 103 76
388 169 255 127 99 63
282 269 253 133 98 65
314 906 292 107 87 72
387 184 255 132 102 63
357 403 200 96 82 67
272 309 305 128 99 72
354 440 154 51 36 35
387 199 256 126 99 67
240 719 295 152 103 75
259 632 272 43 30 35
339 43 266 131 89 73
322 413 200 93 78 63
324 911 272 166 113 86
390 99 268 111 19 42
387 214 255 126 99 66
384 219 253 130 100 63
297 598 216 192 10 42
392 874 246 65 58 58
329 309 266 75 65 55
312 430 135 82 70 55
387 219 255 128 100 64
384 224 253 133 102 63
387 234 256 130 100 62
345 228 263 119 94 64
409 488 369 60 23 29
386 239 256 132 100 61
388 244 259 136 101 63
302 19 300 175 124 116
264 130 273 109 91 73
375 516 382 125 25 46
399 484 214 153 15 41
386 244 256 135 101 64
346 874 250 44 41 42
367 869 325 132 105 81
412 494 235 47 36 36
247 534 215 69 30 37
262 14 265 93 75 64
258 16 266 95 69 59
272 416 216 88 71 59
262 13 270 93 63 55
323 329 275 59 53 47
364 482 417 65 34 28
267 15 262 96 82 68
272 13 265 97 83 71
272 234 301 114 93 70
341 397 230 94 80 65
250 526 350 173 0 52
395 426 333 91 31 38
287 234 301 115 93 69
322 324 275 59 52 45
264 324 290 126 98 69
258 14 285 93 36 40
262 11 285 92 31 35
369 429 317 94 72 51
336 279 275 86 73 60
412 543 405 200 137 118
267 11 280 94 46 44
393 929 360 60 53 50
310 465 149 114 26 43
272 10 280 93 56 51
267 11 285 91 37 37
263 274 261 143 101 71
325 417 292 98 63 51
358 911 378 44 40 39
291 390 248 100 86 71
373 299 301 130 97 67
262 19 260 101 88 74
261 23 258 106 91 77
307 434 135 117 41 36
263 25 257 105 90 76
423 515 378 106 24 36
267 19 259 105 90 75
285 88 268 100 59 49
325 959 288 74 70 73
416 630 316 170 112 97
295 816 253 81 64 58
257 724 321 179 125 100
380 508 192 53 31 27
362 659 232 112 17 28
265 22 258 110 96 81
268 21 257 110 94 79
401 419 210 88 30 37
272 534 456 145 13 44
272 18 259 106 91 77
397 682 224 69 50 44
392 522 405 68 26 33
358 500 178 161 3 33
258 28 284 110 24 42
242 634 330 147 107 74
341 701 227 52 36 36
260 26 287 114 72 66
402 508 435 144 11 45
402 864 305 28 26 27
307 379 255 89 78 66
417 544 395 188 123 97
317 309 270 77 67 58
277 13 264 101 86 76
415 479 250 81 25 37
250 680 322 179 126 101
277 15 261 106 92 80
426 869 275 69 58 60
282 12 264 109 84 73
240 555 243 113 24 37
342 694 229 88 24 29
383 538 365 79 30 36
287 15 261 129 66 44
394 428 238 85 30 47
534 887 327 95 77 59
272 509 435 63 18 23
267 40 282 117 20 43
433 519 330 180 17 52
262 505 375 31 30 32
347 834 316 155 119 96
310 357 318 129 88 64
282 11 270 107 80 71
322 578 350 191 8 60
461 759 295 151 104 70
259 364 285 129 100 70
332 974 320 69 64 62
286 11 267 115 75 65
378 734 206 62 50 44
347 314 316 129 90 64
277 10 285 92 49 45
449 733 302 163 113 80
282 10 275 106 75 67
351 28 258 75 49 41
347 971 294 89 85 87
282 10 280 104 65 57
389 173 277 118 95 67
378 379 248 109 91 71
367 778 211 65 51 43
342 411 180 93 78 63
282 10 285 101 50 47
367 109 279 112 90 67
312 488 435 97 21 39
274 17 303 174 140 144
277 21 257 101 81 63
351 199 259 120 96 67
297 842 290 51 45 45
353 29 257 65 46 35
317 14 295 139 79 74
400 908 272 68 61 62
282 19 259 100 56 40
304 431 142 88 69 39
281 24 257 103 38 29
326 399 245 77 60 47
342 404 311 132 92 76
292 404 323 140 104 76
287 24 259 106 41 35
382 34 270 88 21 30
266 417 238 99 83 66
417 815 302 59 49 45
287 29 259 63 48 38
420 556 346 132 100 64
240 734 296 165 111 85
332 664 231 116 17 32
285 31 257 61 48 31
350 411 167 95 73 60
268 360 262 104 87 70
287 31 287 115 85 67
267 11 290 87 37 34
337 10 285 126 59 62
265 12 292 86 36 34
272 11 290 86 39 37
272 49 279 114 31 45
271 384 316 127 98 71
266 524 450 127 9 40
352 184 280 101 81 59
268 14 299 90 42 43
422 831 287 27 23 24
259 19 289 87 58 47
306 406 245 93 78 63
365 304 308 134 97 67
310 904 298 163 120 96
294 54 265 105 38 40
490 839 325 87 72 59
287 434 325 132 98 79
435 882 322 65 56 53
259 23 288 111 25 38
427 524 280 44 31 36
345 262 302 108 86 60
292 34 285 128 34 54
277 64 275 105 51 47
478 725 261 79 62 42
290 189 280 103 81 56
375 114 278 114 93 69
386 159 279 117 93 66
262 19 295 106 64 55
263 23 294 120 29 46
268 23 298 115 23 42
268 27 294 120 75 64
277 11 295 94 33 39
391 414 196 130 17 32
362 935 269 79 73 75
232 534 275 160 1 45
244 704 286 143 102 71
273 14 303 109 66 59
257 640 347 194 133 109
302 504 184 146 5 33
332 665 328 159 10 49
299 686 237 43 36 36
278 11 304 110 38 42
282 10 290 101 37 43
282 10 295 106 30 41
366 16 293 85 38 39
411 514 235 134 20 41
282 10 300 112 30 43
350 461 330 56 43 29
349 209 265 113 92 68
362 834 315 157 120 94
277 174 286 111 90 69
369 726 227 78 31 34
287 10 300 122 28 47
393 599 229 81 33 41
287 10 305 129 27 50
284 11 308 129 31 52
282 15 307 138 86 80
243 558 416 181 117 105
382 539 360 98 22 39
366 481 414 76 32 29
330 26 282 133 13 44
367 404 317 139 103 75
288 11 309 139 31 56
421 574 355 178 120 95
414 593 290 123 15 38
384 928 378 63 56 53
287 13 309 132 35 53
423 765 223 70 53 46
305 459 160 142 4 39
366 907 377 42 38 38
274 27 298 146 19 57
257 614 295 71 27 34
331 543 358 85 21 36
277 27 298 134 37 55
406 714 334 63 34 38
282 24 300 131 95 72
248 545 380 114 14 35
285 441 193 135 0 33
287 21 302 140 98 74
413 491 406 63 16 25
282 30 290 122 81 67
282 28 295 143 38 60
282 769 321 141 97 73
287 27 295 141 32 55
382 401 205 110 63 51
362 462 360 69 27 26
318 379 257 69 54 45
390 169 257 124 97 64
285 27 298 119 81 63
264 309 280 135 99 76
352 24 300 127 23 50
406 604 245 121 32 47
381 858 215 85 70 64
259 38 279 117 30 46
342 689 335 89 24 37
376 501 420 72 18 30
358 444 159 117 22 38
296 15 266 114 42 35
325 12 284 149 84 73
317 629 229 70 38 41
262 33 284 109 63 57
291 841 290 44 37 41
388 374 280 133 102 69
261 35 282 117 19 43
261 45 277 119 90 74
263 43 279 120 79 67
354 601 218 67 26 27
312 848 280 117 96 82
262 49 275 115 55 57
403 504 220 115 17 35
307 269 285 106 85 62
267 34 285 121 36 50
414 545 380 184 121 94
272 569 435 181 121 113
272 35 286 105 45 46
392 889 255 62 56 59
267 44 279 121 93 74
362 154 284 103 84 63
266 46 277 128 106 84
279 134 272 107 85 59
476 814 296 80 61 49
436 654 272 110 88 62
272 44 281 111 34 46
322 417 175 87 73 58
250 581 322 44 24 34
321 863 299 116 82 53
270 41 282 115 20 41
324 11 286 146 76 67
396 439 230 45 35 35
272 524 475 93 12 35
277 804 256 174 119 85
283 389 323 132 99 75
261 59 271 109 21 40
432 646 312 189 132 105
262 54 274 115 14 41
322 404 285 113 71 59
277 419 205 73 60 51
271 55 277 112 72 62
267 59 274 107 85 67
348 800 317 174 126 106
385 282 288 139 97 69
272 59 276 121 96 72
371 467 328 64 38 28
272 64 274 116 91 70
368 833 312 153 119 92
312 314 266 85 74 64
274 42 283 113 14 39
357 459 165 153 4 35
277 44 282 106 64 54
282 34 286 118 34 48
282 39 284 121 17 45
364 180 293 113 92 71
323 910 275 111 82 66
360 439 161 120 12 33
302 758 333 76 59 57
287 34 286 118 46 53
348 204 265 115 93 68
287 44 280 117 85 66
280 42 283 111 73 60
437 619 295 126 99 69
337 519 169 174 5 37
485 874 339 102 86 74
382 119 274 117 94 69
421 884 280 63 55 57
288 40 282 116 15 41
430 719 216 75 57 45
282 54 278 108 66 55
443 634 305 148 107 70
322 854 346 163 128 104
381 324 290 136 103 72
346 23 258 122 19 30
342 11 270 127 60 57
286 53 278 111 87 68
380 44 278 106 86 70
419 498 280 50 29 32
357 715 337 74 34 39
282 59 277 112 16 40
393 681 226 55 32 52
312 429 311 112 79 62
297 788 323 59 50 46
332 848 265 169 114 86
401 414 215 97 22 33
287 59 276 106 41 47
290 584 355 134 24 48
432 643 314 194 132 104
302 459 175 143 0 33
286 64 274 109 51 52
413 589 275 127 16 40
432 533 424 182 105 106
313 898 353 171 122 106
285 459 334 71 33 31
372 544 350 71 23 34
352 559 194 183 7 39
268 32 288 128 29 50
390 89 268 107 68 57
327 444 136 164 1 35
281 32 288 123 37 50
337 848 335 116 91 64
298 899 315 187 134 115
248 809 290 189 129 101
261 614 310 82 29 37
370 67 278 102 71 57
404 926 332 59 53 51
290 11 270 120 57 50
312 309 319 114 87 59
289 12 268 119 63 55
261 354 280 122 97 69
460 792 303 154 111 83
302 285 314 102 84 64
293 12 270 122 51 44
339 441 143 162 2 33
277 824 316 193 138 112
252 557 369 183 11 59
297 14 270 123 45 40
418 555 296 84 32 42
292 11 280 118 54 47
347 501 401 164 16 53
351 402 209 95 81 67
273 490 360 40 26 28
292 184 265 108 87 63
430 496 405 65 25 24
295 11 281 118 53 48
487 819 305 91 70 54
346 219 270 108 87 65
423 870 264 73 60 56
297 14 275 121 49 43
259 385 262 114 92 66
297 13 280 118 53 48
292 11 285 118 51 47
387 503 440 70 24 33
362 134 280 104 84 61
300 16 276 120 49 43
462 831 303 78 61 51
302 14 285 120 54 53
429 536 315 185 13 56
252 662 333 190 131 105
371 29 289 115 86 70
332 429 309 87 61 47
261 570 350 176 0 53
317 966 335 63 59 59
351 11 267 112 82 70
291 20 262 124 28 26
292 434 324 134 99 79
288 198 286 108 86 61
325 324 288 67 54 43
342 829 251 59 48 48
250 816 300 199 140 112
293 19 263 106 30 26
302 324 322 133 94 71
252 569 230 83 31 39
326 445 318 42 35 27
398 414 220 138 13 41
491 845 330 93 76 61
274 481 353 46 22 30
291 24 261 104 28 25
333 309 313 109 82 57
387 558 334 140 13 45
320 477 402 60 35 27
377 401 215 99 78 64
294 24 263 115 37 35
276 524 435 173 14 53
389 209 258 122 97 67
292 29 261 109 44 32
427 868 350 37 35 34
358 154 261 114 91 65
340 283 307 100 80 60
425 892 315 64 56 56
359 160 283 101 82 61
297 29 265 122 63 54
256 512 386 93 24 29
393 174 270 119 96 68
304 880 306 159 121 94
299 19 269 128 38 39
337 304 265 88 77 65
300 24 271 124 45 45
361 493 177 157 5 32
308 486 418 64 22 25
292 23 299 132 90 70
264 319 282 121 94 67
422 639 272 84 69 51
346 244 295 109 88 64
299 30 269 123 53 49
257 534 380 148 2 41
300 29 271 117 84 67
234 513 313 45 24 30
302 24 275 135 31 47
297 339 256 90 78 65
367 520 370 65 24 33
386 389 251 113 92 69
302 24 280 143 29 49
302 24 285 145 26 50
300 27 285 140 58 62
397 419 305 98 23 36
305 18 285 123 47 55
354 89 257 123 27 36
254 608 251 128 32 46
318 18 286 166 110 102
377 209 295 119 95 68
274 597 222 196 13 53
262 513 395 50 26 30
292 10 290 119 48 47
254 680 282 124 92 55
395 496 430 84 18 31
292 10 295 122 42 47
326 412 200 93 78 64
288 486 452 181 8 56
297 11 290 119 52 48
376 48 278 113 25 45
307 883 351 100 69 59
338 889 270 56 50 49
420 511 440 84 14 25
297 11 295 121 48 48
375 395 242 101 87 73
256 569 220 54 35 37
297 11 300 122 42 49
357 174 285 105 85 64
295 749 238 36 37 42
300 11 295 119 51 49
244 654 296 154 108 80
281 688 312 56 26 30
303 14 295 128 69 61
373 484 184 84 24 37
397 717 199 70 54 41
302 14 305 116 59 53
269 650 331 172 112 94
293 189 265 108 87 64
276 494 375 43 27 29
292 10 309 144 36 60
296 591 213 198 10 41
380 526 377 75 30 33
402 579 330 126 77 72
264 339 280 112 90 65
297 22 299 160 109 90
297 319 321 129 92 70
377 744 205 50 43 41
311 504 179 153 1 35
297 20 305 189 136 138
339 47 267 122 98 84
291 27 294 151 22 56
304 914 349 165 129 110
292 28 290 126 54 58
289 571 366 100 41 54
337 489 430 146 18 48
375 304 262 116 94 70
356 194 291 108 89 69
436 509 386 72 55 45
296 28 289 146 23 53
260 69 267 102 82 69
272 577 404 194 127 109
274 803 257 171 115 80
298 26 291 150 23 56
395 205 274 123 97 66
372 519 189 90 31 35
394 409 235 119 20 38
301 24 290 145 38 57
507 854 330 94 78 63
301 22 295 163 117 93
406 479 335 86 25 36
382 495 450 85 13 28
369 464 178 135 9 34
301 18 305 170 121 113
297 774 327 70 59 54
405 435 260 50 33 34
376 119 278 113 92 69
300 17 308 133 90 70
373 319 301 137 102 73
296 509 420 180 16 57
347 339 316 131 92 64
391 401 219 124 38 40
250 669 288 130 93 60
294 54 270 105 38 44
319 11 295 139 62 63
484 711 251 98 74 51
319 13 299 131 41 53
348 838 252 90 67 57
305 18 289 124 47 55
433 729 224 60 46 40
395 224 279 121 96 68
292 34 260 103 43 31
351 429 312 119 87 70
293 39 260 119 33 36
295 34 262 108 73 55
345 234 285 110 88 64
295 38 262 130 33 48
262 498 203 84 20 29
344 26 257 100 26 24
395 219 279 122 96 67
284 837 277 217 154 121
296 552 405 154 18 50
309 875 302 140 106 79
296 39 265 129 36 44
243 684 315 181 123 99
295 43 270 113 75 59
277 84 272 105 29 39
294 46 270 114 82 66
359 134 262 119 94 65
312 435 313 107 76 60
327 904 361 105 80 71
297 39 270 122 27 42
279 506 410 119 3 36
240 555 420 181 124 112
296 34 280 114 59 55
246 799 305 184 129 101
295 38 278 111 19 44
279 153 277 107 85 60
425 818 241 62 50 47
296 39 275 117 17 40
292 39 280 117 23 45
290 37 283 113 24 41
327 463 325 55 42 29
242 574 285 122 10 41
383 489 193 141 13 32
284 573 207 121 24 39
358 234 303 117 95 71
357 15 299 88 39 39
347 555 346 92 22 37
418 561 287 155 16 36
271 469 204 102 14 28
294 35 281 122 97 79
291 44 279 104 48 48
367 424 318 111 84 65
294 45 276 109 20 42
252 739 315 177 123 97
356 407 184 95 80 65
427 889 315 66 57 56
293 49 275 105 27 41
299 442 172 157 0 42
407 489 409 52 24 24
375 110 278 114 92 67
457 879 369 75 61 49
293 59 265 102 74 55
321 534 180 77 32 37
269 550 475 179 12 56
342 304 315 122 92 64
367 259 253 127 100 67
347 374 245 99 86 73
292 59 270 113 79 62
289 65 271 112 82 66
413 589 270 50 29 34
432 499 410 60 23 27
291 58 274 109 74 62
293 194 275 105 83 58
341 522 172 171 5 38
289 61 272 115 83 67
260 65 267 101 24 42
298 643 237 162 3 39
246 573 305 101 26 36
315 872 298 129 98 68
263 69 269 108 81 67
335 492 157 57 30 34
258 79 264 112 24 42
263 74 268 107 76 64
286 598 364 152 34 57
287 569 375 43 27 32
451 847 332 42 35 31
244 724 309 170 116 90
259 186 283 117 97 76
382 401 235 98 78 65
482 824 321 81 67 53
387 523 400 97 25 38
262 79 266 115 17 42
357 514 380 56 25 30
264 78 268 116 18 44
357 749 229 125 9 31
278 429 205 92 27 35
404 667 258 38 35 38
432 869 289 71 61 62
285 563 414 170 28 58
312 374 315 131 92 70
277 279 255 138 101 70
362 926 377 57 51 50
267 69 271 108 17 40
267 79 269 103 35 44
500 846 306 112 93 79
272 75 272 110 21 40
420 496 291 92 17 30
413 859 260 57 51 52
272 79 271 104 27 41
341 49 265 124 66 63
302 389 246 96 82 69
322 339 266 62 54 48
272 69 273 108 37 45
399 419 204 55 34 36
394 217 268 124 98 66
347 462 335 54 42 29
399 444 345 100 22 36
368 883 332 82 68 54
345 425 142 103 37 37
376 29 284 103 25 40
355 854 244 57 49 49
258 89 264 101 85 67
262 84 266 97 23 35
412 910 350 71 63 64
315 314 318 121 86 62
372 124 280 114 93 70
262 744 321 179 126 102
261 94 267 101 41 43
314 418 238 86 73 59
265 81 267 89 49 42
318 851 312 109 82 61
267 89 269 96 63 50
392 79 265 100 31 39
342 494 165 63 34 39
265 269 258 140 99 68
252 534 425 53 27 28
272 94 271 103 30 42
245 689 317 179 123 97
307 294 316 106 85 61
272 84 271 101 69 56
381 79 274 102 33 42
265 653 333 175 117 93
391 103 264 112 61 56
297 474 390 65 44 34
272 89 271 104 72 57
457 853 316 82 62 56
282 74 272 109 86 61
335 34 265 130 83 69
239 569 270 165 0 45
343 470 158 85 35 40
282 79 271 106 84 62
245 571 243 42 36 38
288 79 265 104 27 40
286 624 320 63 28 33
302 610 223 182 9 46
362 379 315 137 101 69
405 504 222 53 30 36
277 69 274 101 33 41
286 534 414 50 25 29
484 828 308 98 81 68
260 497 352 93 29 43
393 402 210 138 31 36
413 499 240 51 35 35
245 754 273 141 100 73
375 394 313 132 101 66
329 27 279 142 16 53
272 594 220 202 14 50
357 384 235 99 85 71
277 76 272 105 81 61
309 854 330 176 128 107
277 79 272 101 61 49
394 219 281 122 97 68
387 404 195 145 28 29
282 839 285 214 146 115
281 73 273 113 89 66
428 654 308 170 120 99
277 89 272 106 25 39
384 357 268 125 100 71
268 454 329 112 13 37
340 40 277 103 21 38
325 858 299 106 69 53
412 500 425 57 18 26
287 84 265 105 66 53
416 501 424 50 22 23
292 294 261 116 90 62
387 504 420 170 14 54
298 613 328 31 24 27
288 89 260 100 70 51
286 89 265 109 82 60
287 94 260 107 25 39
356 314 257 96 83 70
487 869 340 104 86 69
392 404 230 124 30 45
286 94 265 106 20 40
337 959 279 86 82 86
455 755 303 152 109 75
282 94 269 103 43 46
362 468 380 61 28 24
321 529 175 61 31 35
258 103 264 114 91 69
423 849 299 35 31 29
308 298 317 106 84 60
261 104 266 112 93 73
332 444 312 53 42 29
264 104 268 113 94 74
258 109 264 115 95 73
267 104 269 115 95 76
396 486 408 54 20 25
272 104 271 115 95 73
415 904 300 62 55 56
267 109 270 112 94 74
347 859 265 88 66 58
467 814 275 78 63 57
277 379 250 97 84 71
381 29 275 87 32 38
259 609 305 46 28 32
272 109 272 113 93 71
274 464 343 127 17 44
331 382 253 77 63 48
258 114 264 116 96 75
409 479 320 76 25 34
322 14 300 138 29 55
258 119 265 113 93 73
416 474 260 136 13 37
264 564 370 132 15 44
261 119 267 112 94 75
305 919 303 140 111 87
382 453 314 62 32 26
482 862 336 85 66 50
310 484 170 80 28 33
260 122 267 112 93 75
420 489 265 140 17 41
312 644 324 178 15 56
380 364 295 132 102 67
311 368 256 77 66 56
262 124 270 109 91 73
280 119 269 109 85 59
262 129 270 109 91 73
369 444 317 85 62 42
346 439 146 62 37 38
378 289 264 128 100 69
267 114 271 111 92 73
400 451 328 135 10 42
358 609 331 51 28 32
272 113 272 115 94 72
368 398 234 98 85 73
275 494 193 41 36 40
404 916 350 66 59 61
287 529 190 153 0 31
270 117 272 113 93 72
257 545 485 78 3 28
327 679 332 58 23 33
276 334 263 117 93 64
464 766 228 90 68 54
315 903 293 118 92 70
337 389 245 91 77 64
272 119 273 113 92 70
299 251 258 118 93 63
297 649 239 130 14 37
264 439 323 102 23 38
268 124 273 110 91 71
285 679 312 85 24 34
265 128 272 110 91 73
267 129 274 111 92 72
404 577 354 189 128 111
333 24 262 139 26 40
381 494 192 141 12 33
382 796 317 108 86 75
362 139 280 104 84 61
341 415 307 128 89 76
323 319 290 73 59 47
277 104 271 112 91 66
292 554 410 148 22 49
264 324 282 116 92 64
277 109 271 112 90 65
361 439 317 101 76 56
359 109 274 104 85 63
346 59 260 115 44 40
313 934 358 160 120 104
393 189 275 119 95 69
284 99 266 111 82 60
377 493 460 82 18 31
340 259 280 106 85 63
439 881 344 80 66 57
283 104 265 110 82 57
244 631 321 132 100 64
281 99 269 109 86 62
294 339 257 90 78 64
380 210 293 121 97 71
244 553 412 160 109 93
332 324 314 122 84 67
282 474 190 93 26 29
283 109 265 108 82 56
371 379 313 131 98 66
278 600 366 165 107 95
317 434 130 172 19 37
284 109 260 107 82 56
278 114 271 111 88 63
352 84 260 105 62 48
250 540 209 169 8 45
274 267 252 136 100 64
411 529 417 157 103 98
278 124 271 108 86 62
422 492 417 64 23 25
461 818 271 78 63 60
279 129 272 108 86 59
282 124 265 106 82 55
284 428 187 48 37 38
250 530 330 60 25 32
448 701 233 75 57 45
281 129 270 106 83 56
276 119 273 112 91 67
242 574 455 179 122 113
307 469 170 143 1 39
276 124 273 110 88 65
276 129 273 109 88 64
338 406 206 93 79 65
301 939 340 177 128 107
291 69 260 109 49 47
327 773 328 77 63 56
398 424 220 82 29 36
298 224 285 108 85 58
290 67 268 108 82 62
347 459 155 153 3 34
354 844 247 65 54 51
252 566 351 42 30 33
289 70 267 105 41 45
244 570 325 137 14 46
280 778 322 148 108 78
289 74 265 111 9 40
393 249 280 130 98 64
289 76 262 115 6 42
290 73 264 109 9 38
327 498 157 54 36 42
325 21 273 133 45 42
398 459 215 68 31 35
249 699 282 123 94 57
330 462 320 53 40 28
352 934 261 86 78 80
268 374 256 107 89 70
446 755 308 161 115 82
376 462 334 67 37 35
437 754 310 171 122 91
289 79 260 107 36 43
290 77 259 119 15 42
382 374 251 115 94 72
452 768 240 64 49 46
285 473 188 111 18 31
394 224 264 129 100 65
377 79 275 106 17 37
400 414 206 93 27 35
262 169 281 114 94 74
289 595 361 151 20 50
328 299 285 77 67 57
288 84 260 103 78 57
401 863 246 58 49 51
337 29 260 131 43 46
392 558 335 101 17 38
323 409 275 95 63 51
401 424 215 78 28 37
404 472 341 35 27 31
388 580 218 62 38 42
323 369 307 117 78 66
402 579 340 174 114 104
407 859 250 60 54 57
337 15 261 139 36 38
329 16 267 131 55 54
264 529 449 79 21 33
440 648 308 188 126 99
322 14 280 152 91 78
270 733 264 110 20 35
322 894 360 189 136 122
412 803 308 68 54 48
307 408 225 93 78 61
368 466 378 65 23 24
351 443 312 86 66 48
364 857 322 139 106 82
273 244 303 119 95 70
327 13 275 144 83 75
347 424 311 123 88 72
342 454 150 162 2 36
326 12 280 149 88 77
430 496 382 74 30 35
337 344 315 134 93 73
372 724 342 39 29 31
380 968 319 58 54 52
347 480 430 56 24 25
322 13 285 152 83 72
316 519 180 90 27 35
386 114 270 117 95 70
332 11 275 139 77 73
310 476 165 125 8 36
309 508 182 156 0 37
330 12 273 139 77 73
415 494 246 137 21 45
327 24 270 144 22 45
305 922 303 99 82 69
351 244 302 111 90 66
302 709 235 109 26 37
322 478 410 60 26 30
317 470 380 57 43 28
331 19 264 103 58 35
373 358 306 127 100 67
365 439 171 131 12 34
275 612 359 183 123 105
249 546 372 86 22 28
462 839 325 56 47 39
312 485 440 124 19 46
333 19 261 122 43 32
376 457 345 62 28 28
334 286 271 84 72 60
286 159 265 105 84 60
337 19 259 140 24 36
378 474 189 59 35 38
252 584 320 32 29 33
333 29 265 137 81 66
267 549 485 170 16 54
248 575 451 151 92 91
329 27 271 138 69 63
355 488 172 137 25 41
323 23 280 138 53 60
333 481 439 77 23 33
285 236 303 118 96 72
327 500 158 49 37 41
416 864 258 54 46 47
244 563 293 175 1 49
353 244 303 113 91 67
269 422 213 103 59 53
279 486 462 157 17 51
347 408 190 94 80 65
326 25 275 140 22 50
312 434 131 148 24 28
283 489 187 58 36 37
393 584 310 45 28 31
305 450 149 72 24 24
324 22 284 162 121 98
327 24 285 131 73 68
250 556 408 186 133 114
248 528 385 57 28 32
421 734 315 120 29 43
349 220 293 107 86 64
428 744 215 46 40 39
352 404 316 137 97 78
387 714 206 55 45 41
349 892 357 154 113 91
329 27 275 143 84 75
336 30 281 124 43 53
331 26 286 137 33 56
314 298 311 107 82 53
376 419 186 125 13 31
417 693 219 84 53 41
337 28 285 130 86 71
342 14 260 139 41 38
412 505 435 79 6 27
291 826 263 87 68 64
340 31 282 111 82 64
267 134 275 110 91 71
287 269 254 132 100 67
487 795 300 97 78 64
347 14 260 133 51 41
384 591 322 179 15 55
387 79 269 97 33 39
437 535 420 197 128 113
311 934 356 168 128 111
352 12 264 115 80 67
347 11 266 121 70 60
353 905 243 76 66 65
352 11 270 108 85 74
381 948 276 72 64 65
391 872 312 28 26 27
342 10 275 123 66 64
264 314 285 124 95 68
331 508 162 130 20 33
261 502 366 59 32 30
342 10 285 115 50 56
378 644 238 96 25 34
244 519 375 50 30 33
263 334 290 129 97 70
347 10 275 111 78 70
384 469 193 78 35 40
347 10 280 109 70 66
425 506 282 37 33 36
407 690 220 61 45 35
445 800 248 86 63 53
340 894 255 54 49 49
352 11 275 105 85 74
338 317 262 84 73 63
352 11 280 101 75 68
362 402 204 96 82 68
352 11 285 96 56 55
260 398 306 127 100 71
291 279 257 130 98 67
300 224 270 114 90 63
317 644 232 113 18 34
306 259 270 109 87 63
342 19 259 126 28 32
404 580 233 140 19 41
322 399 265 65 51 40
318 409 230 79 66 53
372 324 260 112 92 69
343 29 257 110 54 44
346 17 257 149 19 20
432 694 230 71 56 43
416 510 455 112 23 39
457 824 280 74 59 55
347 19 258 139 21 30
406 719 334 60 31 35
311 474 155 110 19 38
387 424 194 59 37 37
347 24 257 107 24 26
364 353 312 123 96 62
347 29 257 99 36 30
429 507 293 85 21 27
349 28 258 74 46 35
329 300 304 84 63 41
342 29 285 121 80 66
364 284 307 126 96 61
367 384 315 135 99 68
347 548 355 63 24 31
365 27 293 121 78 70
477 850 340 75 62 51
387 719 342 187 15 60
351 813 313 171 119 99
346 30 286 126 24 49
348 440 148 56 37 42
313 474 150 140 21 42
297 466 337 71 30 31
322 11 290 142 67 63
247 572 458 97 70 65
302 474 179 146 3 33
322 11 295 141 52 60
292 264 306 118 93 64
293 249 301 112 89 63
344 235 262 113 91 65
321 12 289 146 74 67
270 449 331 62 21 29
450 877 347 85 65 55
337 379 250 90 76 63
312 410 220 88 74 58
248 604 265 170 15 50
322 11 300 146 37 60
399 563 364 183 126 111
420 832 242 63 51 49
422 894 305 67 59 59
260 566 356 178 1 55
332 955 361 65 60 58
427 859 326 35 31 30
327 12 303 159 26 63
419 749 317 77 61 51
314 288 285 94 79 64
353 584 336 79 22 35
357 376 242 100 87 75
360 814 228 68 56 53
337 10 295 128 36 57
442 703 240 64 48 39
378 569 336 156 14 51
243 519 360 125 16 44
458 779 239 74 54 45
332 14 301 147 51 69
373 585 213 46 36 38
413 799 219 88 67 51
362 498 425 167 17 55
441 508 390 172 121 103
462 734 280 146 100 64
394 539 385 167 115 106
337 11 300 136 35 60
267 434 324 95 44 39
285 630 238 176 4 42
307 539 400 98 10 34
407 568 364 198 135 114
393 940 284 83 75 75
345 344 258 85 75 66
350 41 282 106 81 66
307 644 323 173 17 55
394 542 384 184 130 117
381 359 256 114 94 72
397 414 295 69 25 33
337 15 301 157 96 102
392 505 450 59 24 29
400 506 212 138 10 34
262 139 274 108 90 72
292 484 455 179 13 57
370 489 182 147 9 38
389 119 260 105 82 55
322 20 290 186 139 141
397 634 255 52 32 35
327 19 295 163 112 104
312 499 415 112 21 42
365 429 171 120 13 32
326 16 297 129 50 59
248 724 314 172 118 93
333 23 294 133 94 73
424 507 279 44 34 33
463 744 280 138 94 62
442 789 311 166 124 93
337 19 299 145 105 94
345 923 377 49 44 43
342 11 300 122 35 55
302 804 317 61 51 46
297 209 265 110 88 64
347 11 290 101 38 45
416 807 226 82 56 47
390 807 313 159 126 105
367 14 275 98 71 65
283 519 426 174 13 55
352 11 290 92 39 42
438 502 414 63 36 29
282 434 326 128 94 74
296 724 238 108 19 35
353 364 247 92 81 69
417 755 214 56 44 40
263 359 270 111 91 69
349 12 297 99 35 43
267 509 199 90 22 30
300 894 340 171 126 107
319 404 302 123 80 65
339 27 293 133 46 55
244 694 314 177 119 96
342 27 290 132 61 61
454 826 283 75 60 55
255 539 360 151 0 44
259 444 199 109 9 31
333 389 308 130 89 76
347 19 301 110 56 56
352 19 302 102 52 54
307 514 184 112 11 34
336 404 306 127 87 75
260 138 272 109 91 72
347 26 297 147 22 56
473 786 288 68 57 46
451 759 240 66 50 41
422 499 421 52 20 23
352 26 296 127 51 59
338 876 358 148 117 87
362 354 250 94 84 73
272 689 275 49 34 39
393 459 315 62 15 26
367 965 341 61 57 56
334 32 274 128 88 75
336 35 275 115 67 60
314 920 282 66 61 64
359 396 222 98 84 70
297 554 194 55 33 36
338 33 280 119 17 45
275 419 209 80 68 58
351 74 259 118 75 60
337 39 265 130 20 38
375 493 187 143 12 34
389 189 258 126 98 62
379 266 258 135 103 67
341 44 260 133 95 73
402 467 382 58 23 25
267 169 284 113 94 74
265 423 226 102 20 34
343 39 257 132 19 36
267 740 322 181 126 102
383 369 290 133 102 68
322 412 205 92 77 62
491 860 348 55 44 35
390 144 260 119 95 68
281 412 230 99 84 70
339 42 262 128 57 54
343 44 256 120 35 42
272 184 289 113 93 73
344 48 257 131 49 53
409 480 384 134 12 40
454 694 290 151 103 69
386 863 231 67 59 57
338 44 270 110 29 44
302 369 254 88 77 66
339 47 270 110 30 44
338 39 275 111 7 37
339 38 278 111 0 37
297 434 160 46 35 34
342 39 280 110 19 41
307 288 273 89 77 64
339 43 274 102 25 36
452 694 295 158 106 73
302 479 179 144 1 32
447 843 320 53 45 39
291 664 243 139 7 36
422 649 271 85 71 56
249 527 370 129 12 43
279 606 357 141 99 87
342 49 275 106 54 51
309 334 263 81 70 61
337 349 315 135 93 74
264 424 231 104 23 33
430 739 200 59 50 46
399 921 366 63 57 56
347 40 281 107 56 53
293 361 252 92 81 69
337 329 316 130 93 70
348 38 283 116 15 42
338 919 370 42 37 36
352 39 284 111 21 43
362 699 229 108 15 28
351 879 234 84 71 69
494 863 332 100 78 60
347 44 280 119 93 71
363 844 231 60 51 49
295 492 417 77 19 29
490 866 338 89 69 51
349 486 168 69 34 40
419 484 265 127 15 36
417 809 305 59 49 44
347 49 279 113 87 66
351 44 282 104 59 50
371 294 304 131 98 64
359 823 232 65 55 53
344 54 261 133 26 41
240 520 321 139 20 49
345 51 258 147 30 44
362 224 302 118 96 71
344 58 265 131 97 75
369 566 203 179 5 32
263 224 294 115 94 72
334 563 357 135 10 44
346 64 260 126 30 42
356 484 171 138 20 37
416 653 273 70 57 44
345 60 270 133 95 77
343 54 275 106 17 41
312 304 265 89 78 66
317 839 260 75 59 57
345 55 277 105 40 45
378 359 254 111 93 73
309 412 232 88 75 60
414 602 338 192 132 111
348 54 279 105 74 57
231 514 300 177 5 52
352 54 280 104 13 37
526 847 325 95 80 66
383 456 369 75 15 26
349 58 278 108 9 38
408 536 332 42 31 35
374 294 302 130 98 65
375 489 187 142 12 32
352 59 279 103 32 42
373 439 184 74 32 35
249 587 242 41 32 37
352 279 309 120 96 68
350 61 277 109 0 37
340 402 218 94 80 66
252 665 331 192 133 107
318 394 250 69 57 45
431 893 355 81 69 60
356 16 262 108 92 76
415 561 326 40 28 24
337 404 215 93 79 65
357 11 280 97 77 68
441 508 395 195 135 124
335 489 157 55 36 40
360 11 274 101 86 75
362 12 275 99 82 72
428 497 403 63 25 24
362 12 280 95 69 61
282 644 246 169 7 43
367 14 280 94 59 54
267 269 299 123 95 69
397 454 220 98 27 38
388 439 340 83 11 31
367 14 285 90 51 47
357 19 260 112 82 55
393 499 199 140 11 34
362 25 257 96 64 40
299 224 280 109 86 59
443 734 306 168 117 86
278 498 455 149 15 47
368 27 258 109 93 76
328 947 272 79 73 74
377 948 355 64 57 56
254 622 271 77 26 34
274 764 252 131 95 60
401 429 210 125 20 39
495 753 269 105 80 62
370 16 276 98 61 58
372 15 280 95 51 50
250 804 312 180 128 99
255 810 278 186 125 94
285 459 330 85 51 38
398 444 234 74 28 33
287 584 212 179 9 38
315 291 281 87 76 65
341 407 199 94 80 66
371 15 285 92 51 49
368 22 263 112 97 83
371 25 261 111 96 80
332 472 309 51 37 27
267 464 330 118 9 39
371 20 266 109 91 77
388 439 330 96 2 32
310 480 169 98 25 35
369 17 268 106 85 74
359 862 327 142 109 83
370 16 271 101 75 67
273 674 270 60 30 36
376 25 266 103 87 73
346 239 295 108 87 65
360 459 317 67 51 34
272 319 266 130 99 68
383 74 271 108 90 70
372 759 329 78 64 57
377 24 270 87 59 46
371 31 257 111 97 81
378 29 265 104 90 76
407 454 310 83 24 34
379 28 269 84 64 48
257 679 323 175 122 99
377 480 404 65 24 26
380 30 270 81 42 34
479 760 258 101 73 54
373 19 286 96 38 44
355 188 258 120 95 67
268 559 446 77 24 35
382 499 465 79 31 38
379 644 317 84 31 42
358 119 270 106 84 61
374 24 286 95 34 37
332 974 310 86 80 81
381 64 274 94 19 33
373 29 287 109 68 59
391 696 338 145 7 45
265 774 259 131 93 59
379 27 276 78 40 36
437 799 309 169 125 100
380 30 278 70 48 40
399 454 204 81 32 33
267 544 440 93 21 38
387 574 216 142 18 40
354 12 292 90 37 40
241 719 300 159 108 80
448 674 295 157 108 73
362 15 295 87 37 40
250 576 428 193 120 102
381 159 284 116 93 67
357 19 300 104 60 55
402 569 230 151 15 39
245 559 296 141 9 46
357 23 299 121 20 46
322 566 367 191 8 62
407 864 305 29 27 27
357 26 296 127 45 57
417 669 300 121 75 66
363 19 296 90 46 44
362 24 296 114 40 53
420 521 434 132 90 85
268 779 256 143 98 64
305 884 304 159 119 91
277 484 360 65 28 33
366 24 294 105 37 45
385 459 192 88 26 35
296 729 238 132 9 33
361 19 298 97 28 38
404 473 365 113 14 34
360 23 298 111 20 41
362 28 294 122 62 64
274 779 252 148 101 66
357 679 332 58 30 35
396 424 315 88 23 34
367 29 291 120 29 48
302 459 313 107 77 61
392 468 385 68 10 23
413 484 240 42 34 35
332 674 231 75 31 34
259 798 267 182 123 90
371 24 289 95 42 39
356 35 287 116 16 41
258 269 265 150 103 74
318 365 258 67 58 50
357 44 283 101 34 40
267 544 455 103 18 40
459 826 295 83 67 59
254 548 202 183 13 50
327 466 364 54 42 27
272 369 255 101 86 71
357 48 283 108 17 40
252 545 445 61 40 31
378 397 243 100 87 74
297 344 321 133 98 70
367 79 277 100 71 55
281 429 195 93 27 35
394 485 198 142 16 36
362 36 287 119 10 40
394 956 310 62 58 58
244 669 296 154 107 78
514 862 327 91 74 61
367 43 283 121 96 77
306 489 179 140 1 34
337 419 150 94 76 58
242 669 320 187 130 104
367 45 282 111 86 70
327 788 323 71 59 53
492 822 318 89 71 58
357 50 282 109 6 39
261 459 320 72 25 35
348 219 290 106 86 63
382 269 261 137 103 69
357 54 281 105 62 54
282 169 280 107 86 62
328 564 366 189 5 60
375 491 457 76 20 22
362 54 281 107 67 55
256 624 275 63 31 38
367 64 279 108 34 43
374 32 258 114 98 81
252 804 314 178 127 99
277 414 220 93 78 64
261 364 295 129 99 71
265 192 287 113 93 71
317 558 380 170 17 54
378 33 259 114 97 82
415 471 298 60 27 31
381 35 260 106 92 77
408 714 331 82 30 39
423 509 270 38 33 36
376 359 252 108 92 75
480 728 242 110 82 58
383 38 260 100 86 70
322 470 380 55 42 27
384 37 265 84 39 26
372 34 286 112 51 55
322 480 148 152 18 41
376 34 284 113 17 40
376 38 283 117 15 44
278 287 257 133 101 70
337 542 358 114 27 45
242 779 300 174 120 92
241 774 285 180 125 97
371 43 283 105 37 44
262 184 284 116 97 77
473 869 356 74 59 47
372 49 280 118 14 43
407 449 295 99 20 34
342 564 350 91 19 36
352 944 369 67 61 59
307 439 314 115 81 65
352 724 336 134 24 48
374 41 282 107 17 41
297 204 260 116 94 69
246 799 300 187 129 102
274 500 451 152 15 44
378 39 281 107 36 47
256 719 321 177 124 100
399 460 210 84 31 35
265 572 438 156 96 91
378 34 281 102 58 52
383 39 275 99 23 37
283 704 250 135 2 35
522 846 328 93 79 65
292 259 254 127 99 66
382 49 276 115 14 42
279 490 375 31 27 28
302 249 290 109 86 58
300 904 313 169 125 102
338 279 300 101 80 58
371 54 279 102 26 40
374 59 277 100 42 44
342 592 343 82 33 40
404 841 218 93 80 83
377 59 276 104 34 45
307 959 345 58 54 53
243 569 245 45 33 37
347 69 265 110 45 46
382 54 274 106 16 38
381 59 274 109 13 38
262 269 260 144 100 70
337 968 340 67 63 63
302 244 285 110 87 60
327 422 145 87 67 51
318 478 147 57 33 35
384 60 272 109 14 39
372 199 296 119 96 70
281 200 293 114 94 74
437 865 355 37 35 34
350 210 268 108 88 66
415 470 398 63 15 30
354 32 288 109 69 60
320 311 313 113 79 58
362 34 289 103 45 47
477 853 326 84 69 55
529 847 321 96 81 67
253 619 285 171 4 48
370 32 288 111 86 70
364 201 298 119 98 76
431 589 330 140 102 67
233 514 305 138 9 42
456 754 250 72 56 43
391 829 226 89 68 52
431 505 320 141 18 43
272 505 390 108 12 33
350 70 258 126 99 72
260 435 217 147 0 43
322 455 138 169 0 34
246 724 279 129 95 63
348 69 270 102 23 39
294 483 182 105 23 35
350 80 265 110 40 45
358 864 225 85 70 62
349 68 273 99 15 36
247 514 380 85 22 34
292 420 180 92 79 67
377 174 289 115 93 69
427 499 305 76 21 27
353 74 274 104 84 63
309 863 339 157 54 82
352 471 388 51 34 25
355 66 277 107 7 43
250 536 321 105 22 45
302 508 414 62 20 31
399 479 210 153 21 44
357 74 276 102 83 64
268 416 236 101 85 68
480 851 323 91 75 59
362 69 278 107 26 41
241 542 424 119 74 61
357 476 403 54 34 25
357 479 170 158 7 36
268 724 271 91 40 36
253 577 426 203 131 114
368 70 277 102 53 46
418 714 315 147 17 48
287 274 255 132 98 67
337 894 364 176 128 105
270 502 377 32 35 26
362 74 278 103 22 39
353 89 270 97 59 52
353 94 260 120 21 38
342 274 305 103 82 59
276 514 444 66 19 32
377 839 310 145 116 92
354 94 257 105 65 44
353 94 265 108 32 42
298 754 237 62 31 36
367 654 324 130 22 46
285 449 193 122 3 29
354 94 270 99 19 38
300 900 313 182 131 110
240 754 280 163 111 84
297 464 340 72 28 31
357 84 276 101 24 39
244 572 458 179 125 115
317 418 175 89 75 60
289 355 259 93 81 69
423 584 314 94 76 54
479 801 293 105 79 66
354 88 273 97 13 35
332 409 205 92 78 64
304 659 237 137 1 36
264 579 350 141 5 43
250 610 270 82 27 38
337 409 195 94 79 65
304 287 268 90 77 63
353 579 336 146 16 47
352 809 229 64 54 52
411 859 256 57 52 54
362 84 277 98 56 46
358 625 327 159 31 58
283 139 265 106 83 57
250 765 268 146 106 71
279 621 336 113 76 68
367 84 277 115 96 74
366 93 277 99 35 41
306 349 259 81 72 63
383 69 270 117 96 75
306 929 351 174 133 115
361 434 161 92 31 38
442 724 231 73 53 37
462 724 275 129 91 57
447 664 290 138 99 63
368 474 179 144 8 34
384 79 272 100 51 46
314 962 301 85 80 80
250 602 356 157 115 85
372 69 276 106 86 70
260 582 358 109 62 43
393 234 285 121 95 65
301 663 238 138 4 33
344 422 143 83 53 43
300 496 183 41 33 42
239 762 282 171 117 89
248 689 319 177 123 98
305 296 318 109 88 64
297 601 218 189 4 38
432 846 247 76 62 57
342 472 390 51 36 27
372 79 276 95 37 41
278 539 426 107 17 40
377 74 275 112 16 41
346 453 152 162 3 38
329 460 143 46 35 40
295 259 303 114 91 65
372 84 276 93 53 47
402 500 435 85 18 28
292 399 323 139 103 73
288 679 246 64 33 37
238 564 445 180 129 117
377 84 275 95 37 42
352 894 237 80 68 67
400 449 214 97 32 40
372 94 277 104 29 42
448 865 319 78 62 57
382 84 274 94 62 51
355 100 260 126 53 49
317 405 240 76 62 48
262 526 203 126 1 30
355 100 265 120 89 69
356 104 265 118 91 66
276 614 234 185 9 43
356 99 270 106 85 63
356 104 270 107 85 63
320 467 323 58 43 31
309 859 320 176 134 108
262 729 323 178 124 100
402 630 302 102 19 35
318 494 156 50 35 36
324 417 258 73 59 47
358 109 260 128 98 69
357 109 270 108 86 63
292 709 241 63 32 37
246 549 229 170 12 43
382 339 275 125 99 69
403 494 220 125 9 33
360 110 258 131 98 70
317 740 342 83 25 37
309 694 232 116 23 35
250 547 369 73 23 26
361 99 276 111 91 70
367 569 340 139 26 50
391 953 325 56 51 49
267 429 210 97 20 32
364 104 278 110 90 68
421 558 290 163 26 54
429 886 330 58 50 49
382 502 460 99 20 41
286 513 430 171 16 56
337 864 351 154 125 95
417 533 335 156 21 52
364 96 278 109 91 70
279 700 257 120 18 43
262 729 272 100 68 43
367 104 278 115 94 72
312 414 232 87 73 59
293 684 242 48 34 37
357 784 216 71 57 51
391 924 276 68 61 62
350 248 302 112 90 66
333 617 222 154 26 52
270 788 322 175 134 102
379 434 188 44 38 39
359 119 261 122 95 65
358 119 265 117 92 65
483 794 294 87 66 52
307 489 435 102 18 41
359 129 262 119 94 64
342 814 314 175 123 102
364 129 257 123 96 65
329 549 361 119 15 42
282 779 246 100 76 61
407 481 403 51 22 23
359 119 274 104 83 61
361 114 276 105 85 63
386 384 255 121 97 71
261 494 202 50 34 37
327 659 327 87 25 40
300 945 325 93 81 75
357 429 316 117 86 68
377 603 222 118 36 45
361 119 276 103 83 62
414 585 265 74 24 34
311 279 280 99 83 66
