ply
format ascii 1.0
comment Created by Open3D
element vertex 2220
property double x
property double y
property double z
property uchar red
property uchar green
property uchar blue
end_header
287 164 245 102 89 77
304 155 332 102 85 67
304 65 251 120 56 50
300 64 257 124 27 44
318 125 270 124 91 65
388 600 241 91 30 40
308 90 250 119 79 56
395 485 261 127 19 44
308 35 231 155 29 49
310 33 228 159 19 43
328 65 317 92 58 41
412 710 263 63 48 39
353 565 361 176 12 57
323 165 362 117 92 63
313 34 228 150 45 46
308 40 236 154 31 52
311 172 243 128 101 72
318 65 346 98 62 52
361 868 212 122 99 76
380 689 308 130 9 41
334 29 251 106 89 73
313 40 232 141 78 64
353 805 351 36 32 31
340 710 203 148 102 73
301 710 220 167 6 47
309 45 237 150 21 46
358 885 207 95 83 73
281 416 191 120 14 40
297 210 357 115 94 72
283 400 362 115 93 70
300 488 189 142 3 41
324 430 377 41 25 27
306 205 363 119 95 66
307 46 240 153 18 49
301 243 243 158 111 81
333 464 383 54 28 29
312 41 234 132 90 69
313 45 235 141 30 44
383 393 306 82 42 43
318 36 229 141 34 42
361 624 325 75 23 34
318 40 231 144 38 46
287 601 363 97 26 40
316 46 234 151 17 41
347 67 270 98 82 67
414 425 371 99 26 38
310 48 238 147 33 47
328 205 360 122 94 60
313 55 240 137 104 77
347 124 257 153 20 43
280 681 257 88 38 43
314 54 238 145 115 83
287 439 143 167 0 32
317 51 235 152 39 52
338 40 236 112 56 42
308 40 331 125 73 61
293 385 231 101 88 75
318 55 236 143 70 64
276 844 323 118 59 66
336 22 320 99 25 38
436 418 217 171 18 46
419 400 311 129 20 44
353 895 201 102 83 64
413 525 236 57 25 33
264 430 156 175 2 47
309 654 354 170 28 60
269 345 326 117 92 63
314 70 242 121 55 46
319 60 238 150 18 41
350 896 203 96 79 66
275 182 256 102 85 69
418 495 236 47 27 33
338 595 186 149 104 68
318 65 240 143 16 40
284 690 252 106 21 39
376 640 243 42 32 34
299 60 261 109 43 47
305 48 243 135 22 42
306 51 244 141 12 43
298 404 386 94 26 34
312 455 391 59 26 30
337 900 262 64 56 56
298 255 261 141 97 71
306 55 244 142 13 43
310 60 243 143 25 43
288 655 266 103 18 33
303 230 365 123 95 65
263 725 370 156 114 85
263 425 366 73 24 30
326 17 340 86 75 65
391 672 268 84 23 28
338 55 370 79 33 32
402 475 371 64 29 35
264 730 282 143 5 41
314 393 235 108 94 82
310 64 243 129 89 63
369 610 216 150 110 84
318 495 171 190 126 104
305 64 248 119 84 58
360 545 214 71 27 29
313 445 191 72 38 34
368 80 272 103 18 37
268 430 220 49 29 31
394 780 318 47 41 37
319 115 355 111 91 69
307 775 251 64 53 53
301 70 256 132 20 44
268 225 236 120 97 71
315 447 176 63 41 36
292 475 206 74 29 34
304 70 252 120 49 48
304 75 252 126 29 44
268 365 231 97 84 71
349 871 346 50 44 43
327 50 362 89 28 35
400 465 360 120 19 39
303 80 256 117 95 69
320 453 383 42 28 27
382 829 316 55 48 47
267 504 237 64 29 39
302 90 256 116 47 45
254 655 345 136 98 71
248 685 351 147 105 76
296 725 241 58 33 40
304 95 252 104 57 44
330 370 331 104 86 67
309 70 247 129 102 71
248 635 306 165 112 80
311 70 244 124 93 71
322 361 303 139 120 106
350 90 345 137 45 53
398 445 380 44 28 30
337 780 201 165 128 93
308 190 321 101 82 62
355 107 254 162 19 49
295 338 271 98 80 61
291 556 234 156 13 43
306 70 249 117 89 61
278 872 268 102 85 65
332 420 369 129 4 39
288 445 145 170 0 36
313 75 244 145 31 46
415 420 313 150 0 47
254 755 327 144 106 71
318 80 346 99 19 36
327 20 266 85 69 55
293 827 347 85 58 44
309 80 247 139 17 39
323 760 365 55 41 38
306 74 249 121 41 43
373 490 382 154 18 50
258 494 227 74 33 41
288 450 147 173 0 38
306 504 191 143 0 38
296 31 262 124 95 76
436 682 289 63 46 35
393 415 375 101 15 35
400 510 276 166 16 46
306 81 249 129 36 44
318 70 241 140 22 38
300 28 326 126 41 51
306 688 219 41 39 38
309 205 271 129 97 67
314 74 243 153 17 49
297 480 182 132 0 40
368 95 256 151 18 47
258 360 290 119 83 67
318 75 242 143 45 51
394 425 351 116 17 36
318 80 244 132 97 75
312 190 270 130 98 72
313 85 246 144 27 43
318 440 181 52 30 37
263 370 230 112 92 68
274 424 213 149 14 47
344 430 220 45 37 37
383 445 231 134 10 30
313 90 247 123 65 53
313 95 246 102 53 38
403 405 282 101 23 31
410 786 326 77 61 52
360 861 256 53 47 46
329 120 329 132 97 69
389 520 331 112 20 42
396 474 379 60 30 32
283 180 242 116 98 78
295 847 353 32 29 28
274 909 242 87 76 74
264 440 227 98 16 32
291 655 348 59 26 30
403 480 226 54 32 35
310 156 354 110 90 68
307 95 250 111 92 67
395 515 251 159 13 48
310 90 248 121 94 66
313 575 232 137 4 32
316 46 314 120 91 64
290 156 247 102 88 74
309 96 248 105 86 61
318 85 245 136 39 45
300 29 269 110 25 44
292 435 386 53 31 31
413 775 316 78 58 50
321 557 194 182 9 46
301 100 256 118 61 55
348 520 386 46 28 31
273 230 284 109 88 66
260 447 216 108 39 41
346 465 182 110 89 65
266 224 277 113 93 73
304 105 251 114 86 65
259 476 224 159 0 37
333 635 230 131 4 32
301 110 255 111 92 72
391 490 348 147 18 44
340 901 332 43 36 34
304 110 252 113 94 73
400 416 333 151 11 47
299 120 256 111 91 70
328 68 238 152 59 59
299 115 256 110 91 71
264 744 291 76 63 61
301 115 254 110 92 72
303 120 251 114 95 74
279 290 301 82 67 51
306 105 249 120 80 62
288 775 373 175 123 93
304 125 247 115 95 74
394 445 351 150 13 45
313 935 335 57 53 52
295 221 318 93 77 61
419 495 231 118 31 46
402 745 246 87 48 44
313 14 306 133 98 76
299 125 252 108 90 73
348 450 207 46 29 29
289 470 211 60 32 34
298 125 256 109 90 71
245 680 322 158 107 77
362 840 236 91 76 74
399 500 271 47 29 30
284 171 265 104 86 67
309 100 247 120 48 36
381 614 242 39 33 36
358 435 227 56 39 37
313 100 245 119 40 37
243 930 306 67 62 62
326 687 354 162 16 53
369 520 219 47 37 37
308 105 247 126 49 47
325 794 233 79 65 60
243 595 325 135 102 75
301 516 214 72 29 35
301 27 314 131 62 63
334 125 255 135 96 73
293 195 280 117 94 69
318 100 245 103 81 54
303 590 372 97 26 41
318 110 243 133 32 39
239 915 296 58 54 54
369 832 372 72 58 51
327 290 321 123 100 76
363 395 326 59 39 32
271 418 159 84 28 37
278 885 367 55 50 48
275 335 339 130 102 72
271 582 363 170 15 52
308 115 247 123 101 76
308 120 247 119 98 75
316 105 347 113 93 72
383 791 336 45 38 35
375 817 204 229 153 125
391 676 262 47 30 33
313 115 245 125 101 73
306 114 249 118 97 74
267 350 326 117 92 63
305 121 248 118 98 76
434 682 276 88 65 49
301 128 249 108 92 74
262 370 326 121 95 65
247 680 347 146 103 75
303 908 243 88 77 74
308 125 246 118 97 75
299 24 302 146 101 75
261 937 274 71 68 71
260 475 370 101 19 37
313 125 245 123 100 74
261 255 283 109 88 66
331 476 389 126 20 42
318 115 244 130 103 71
240 920 340 48 45 47
262 569 358 65 26 32
318 120 245 130 103 71
322 16 256 58 52 48
313 185 245 132 103 68
364 100 255 161 18 48
291 174 244 126 101 72
364 85 277 111 17 41
423 750 321 87 65 55
323 21 236 124 67 51
323 770 226 85 69 60
325 569 197 56 37 38
323 19 241 107 73 59
284 335 251 97 84 71
390 781 331 44 39 36
381 886 191 97 88 82
328 25 236 128 64 52
260 465 369 143 10 43
418 749 337 60 47 35
363 740 331 109 18 38
268 645 311 113 64 53
289 19 264 114 27 44
327 22 242 105 72 60
323 30 228 131 31 34
386 430 229 83 34 35
408 440 221 100 31 37
289 335 261 99 83 67
311 119 342 109 89 69
324 29 229 81 38 31
328 140 330 123 96 64
328 30 230 124 44 40
316 96 347 104 56 52
301 737 253 76 62 56
332 30 232 125 49 43
413 495 240 45 25 30
353 900 311 54 47 44
347 853 369 63 53 49
331 27 237 122 69 57
369 845 256 67 56 52
347 60 246 100 82 66
313 454 186 84 35 36
334 29 240 109 85 70
325 136 249 135 105 73
303 831 341 38 32 32
368 65 356 105 30 34
273 390 225 97 80 68
321 17 242 103 75 63
337 129 270 132 93 70
322 17 246 89 72 65
339 851 373 63 54 47
327 21 246 89 73 63
347 46 351 86 77 69
338 50 261 100 72 59
324 18 256 71 64 58
372 854 203 113 94 76
399 706 300 44 33 27
291 268 256 134 93 68
318 80 336 111 88 67
383 845 296 68 55 50
314 379 249 91 81 72
404 510 291 162 17 44
327 21 256 79 68 59
330 24 251 87 75 62
390 680 256 96 24 34
329 25 256 95 82 69
390 489 229 41 39 41
390 436 274 61 26 28
313 165 324 108 86 61
331 27 255 100 86 71
331 551 184 159 101 76
333 30 256 108 92 75
336 32 237 116 92 73
246 895 289 151 119 91
335 168 334 119 96 69
298 936 264 93 88 91
314 195 251 146 108 75
324 36 229 138 53 48
321 797 239 46 46 52
338 70 275 100 23 37
323 40 230 134 77 68
358 495 385 110 13 34
328 40 232 131 44 44
330 428 184 93 82 70
395 430 243 114 20 40
298 235 237 136 104 68
340 547 378 188 18 59
338 175 341 126 99 67
328 45 232 132 69 61
243 880 311 66 57 56
343 510 196 78 55 45
240 532 264 178 109 93
359 68 267 95 84 73
333 38 233 125 51 43
333 40 234 103 56 43
343 392 271 79 70 61
249 875 321 137 101 83
358 392 261 81 65 59
268 600 286 75 33 38
333 45 234 110 58 48
334 35 257 114 97 79
310 440 401 82 23 34
332 545 180 162 103 75
304 202 318 96 80 62
283 240 285 105 83 60
323 55 235 144 48 51
407 545 232 162 18 41
328 53 233 155 31 52
319 384 300 86 73 60
311 32 309 122 42 47
436 714 268 89 65 49
328 56 234 137 87 72
323 60 237 148 41 53
314 545 206 162 4 40
247 800 346 184 132 104
308 670 231 111 17 29
315 26 349 56 32 27
355 428 229 84 36 37
329 51 364 63 30 29
324 64 238 153 31 49
345 102 340 138 28 44
379 605 306 78 30 38
289 250 282 125 91 69
278 490 226 137 12 37
328 60 236 138 88 72
334 50 234 137 35 38
282 15 258 126 92 72
369 60 264 100 50 54
340 620 187 162 112 79
333 55 235 144 34 41
304 220 240 138 105 68
323 185 363 127 96 62
382 439 373 124 9 38
310 122 344 109 90 70
333 65 237 153 21 42
391 818 342 76 60 53
337 35 236 113 78 57
315 195 256 141 102 72
357 91 248 149 24 39
283 760 374 166 120 86
307 210 242 138 107 71
323 33 353 75 29 26
243 665 336 155 107 81
341 46 241 117 95 74
393 435 246 43 27 30
393 820 371 81 64 53
338 35 246 113 96 79
344 540 209 90 38 42
323 45 311 104 20 33
332 82 244 139 112 84
323 120 357 110 89 65
308 365 286 92 75 56
383 760 315 36 29 25
340 40 246 117 99 80
326 25 264 95 57 47
293 380 236 99 87 74
399 490 276 77 26 35
339 40 251 111 94 77
331 255 336 133 103 71
306 366 292 98 81 64
337 40 256 111 93 75
271 339 328 123 96 66
389 816 331 68 55 49
325 58 273 111 38 48
378 520 371 189 9 60
340 43 244 123 105 86
244 895 291 153 121 93
323 380 356 121 94 63
337 880 220 112 88 68
333 20 306 101 23 40
257 224 262 109 90 70
348 66 379 107 35 44
253 730 326 159 108 78
309 210 246 145 109 74
416 412 373 142 28 51
335 40 314 91 26 31
341 45 246 117 99 81
339 45 256 110 93 75
247 650 337 134 94 66
310 211 250 144 107 73
293 11 261 100 46 45
293 957 313 64 60 60
307 835 366 50 40 33
442 691 291 85 64 46
323 255 356 144 103 76
249 514 257 82 32 36
376 690 315 119 17 40
285 554 252 145 0 37
341 45 251 107 89 70
280 560 263 144 0 34
273 425 140 127 32 40
341 47 254 111 95 78
339 445 181 110 88 68
383 480 382 75 28 35
279 520 246 118 16 35
353 690 341 65 25 31
337 55 237 131 41 40
343 392 286 77 68 59
304 937 338 54 49 47
311 531 186 174 0 46
292 20 311 142 97 75
256 415 358 133 6 42
356 884 306 55 49 47
339 56 239 120 50 46
445 690 270 83 62 45
277 305 251 104 82 58
340 52 239 97 36 30
343 55 242 100 52 39
374 397 344 55 26 27
337 60 238 99 58 44
270 337 322 114 88 57
400 797 272 70 56 49
318 13 321 93 71 58
324 230 319 111 91 68
317 75 341 110 24 43
324 65 356 116 94 76
275 286 316 113 88 58
342 50 256 109 93 76
317 550 201 161 1 41
333 15 321 93 70 54
343 65 241 139 30 38
322 375 257 96 85 74
345 55 246 108 93 77
374 831 366 58 48 44
306 826 352 38 32 29
345 54 251 110 96 82
265 681 287 91 22 36
353 550 186 126 98 66
295 435 400 51 25 30
344 54 256 105 90 74
285 434 179 90 23 40
288 285 301 89 73 56
272 942 333 70 65 64
345 59 244 96 68 51
254 580 290 119 66 50
359 855 351 52 46 44
297 195 325 96 80 63
346 65 243 125 38 43
353 98 248 140 20 38
278 355 235 93 82 71
348 65 246 107 61 44
328 75 241 145 16 34
437 400 226 52 30 33
333 75 241 147 22 42
241 932 320 75 71 72
387 610 271 168 18 52
293 195 237 128 101 70
323 85 243 132 55 47
327 84 243 130 95 69
345 480 180 143 101 74
313 920 347 58 53 51
329 86 244 125 102 77
303 25 270 111 30 44
322 89 244 123 44 40
298 475 157 67 36 37
348 800 191 179 129 99
323 575 206 75 29 37
308 55 271 105 45 50
274 600 277 55 36 39
313 12 321 98 64 54
342 615 224 73 34 39
309 491 169 89 42 41
292 450 182 58 18 30
321 95 244 122 49 43
303 465 158 57 38 41
328 91 243 101 80 54
330 82 244 139 108 78
243 915 341 46 40 42
296 130 256 108 90 70
298 12 306 140 59 55
354 716 188 140 98 59
333 90 243 111 40 33
396 691 262 80 30 35
338 70 240 135 89 73
333 495 172 146 107 73
393 797 384 74 60 49
326 150 328 120 94 62
282 251 233 132 102 68
301 89 261 108 26 42
263 240 236 121 97 68
281 416 196 123 12 40
318 548 384 82 23 36
338 75 241 151 22 45
282 315 271 85 69 53
274 320 245 101 85 69
338 80 242 142 31 43
341 446 182 72 58 46
413 490 219 77 34 38
282 250 341 119 93 61
343 75 242 148 20 40
343 79 243 141 39 45
308 375 363 128 100 66
302 14 338 96 34 40
346 70 243 93 44 32
249 885 287 153 116 90
360 643 194 125 96 62
346 50 328 104 28 34
326 335 321 100 82 62
357 56 346 66 47 37
300 111 257 110 91 71
378 855 291 68 56 54
348 70 245 97 52 40
258 485 225 146 1 33
348 396 326 54 44 36
343 805 376 41 34 30
349 75 244 119 40 35
261 209 251 106 91 75
348 81 244 124 78 65
266 450 373 67 25 31
300 354 255 98 86 73
275 620 296 79 35 39
316 766 234 78 65 62
318 20 294 115 41 47
353 80 246 126 51 44
302 336 354 124 98 68
311 35 348 104 30 43
257 695 311 63 43 38
316 108 348 113 92 70
257 601 294 122 74 57
299 344 265 103 85 66
407 800 356 97 80 67
348 95 248 118 63 50
391 465 348 134 16 40
257 890 351 45 40 39
288 830 331 41 32 35
323 100 243 115 81 55
270 444 165 114 16 44
268 250 284 107 86 63
313 31 306 127 30 47
273 300 281 81 69 57
321 100 244 114 94 70
315 563 222 152 20 48
320 81 354 96 51 43
323 105 242 125 52 43
346 494 195 126 93 81
295 415 161 71 42 42
288 475 396 136 16 44
328 100 242 128 29 34
328 110 243 133 70 54
331 108 243 140 108 74
232 595 311 151 108 78
337 190 341 119 94 66
398 455 331 57 30 33
249 919 350 65 59 57
308 215 246 145 109 73
320 380 358 121 95 62
343 396 326 64 54 45
403 810 362 93 76 63
333 110 246 134 96 72
247 545 343 68 23 31
399 410 379 126 15 40
358 823 213 224 157 128
323 116 244 136 102 70
316 323 303 89 78 68
260 410 227 136 4 37
327 114 243 146 23 42
393 470 351 129 18 38
300 91 261 114 20 43
353 460 196 118 86 69
266 383 299 103 67 50
323 125 246 138 109 75
303 625 357 91 33 43
327 125 247 143 112 77
406 455 379 51 27 30
231 523 288 113 80 61
290 455 208 114 16 40
359 69 256 103 81 67
326 66 358 115 93 78
329 125 250 140 106 78
322 12 258 53 47 42
400 445 359 104 14 32
235 513 322 159 0 43
255 773 314 110 83 59
307 435 182 91 32 35
300 125 264 110 88 65
331 119 248 141 71 65
295 686 238 135 8 41
336 190 332 129 104 77
418 490 236 38 27 31
339 100 245 112 65 49
304 494 190 142 0 38
302 215 362 115 92 67
292 225 356 115 94 70
289 809 301 47 41 44
310 44 331 123 98 76
336 104 243 147 25 39
420 491 231 51 26 33
316 735 214 52 34 41
338 105 246 142 33 44
288 850 270 122 102 82
312 560 226 147 13 43
343 100 247 135 62 54
248 625 336 144 109 80
341 104 248 119 60 46
418 435 236 133 3 42
343 710 351 133 18 44
361 88 363 146 14 45
298 11 316 107 44 42
283 470 161 176 3 45
335 785 207 168 129 96
343 105 250 131 58 51
344 102 249 137 84 70
294 430 391 88 17 33
338 111 250 140 77 68
429 727 315 77 62 46
340 106 249 154 30 47
390 601 246 148 32 51
329 145 256 133 104 70
244 552 304 83 59 51
335 818 242 155 118 100
303 410 407 124 18 42
353 101 249 150 21 42
352 109 253 155 20 42
257 400 281 143 100 84
418 395 291 111 22 35
292 420 382 69 29 36
343 115 253 124 62 50
274 285 282 95 78 60
336 122 254 142 94 72
243 515 341 169 2 52
324 926 265 76 69 70
338 125 256 143 91 71
281 414 178 161 0 50
269 750 291 79 63 58
280 247 328 114 90 62
344 121 254 147 24 43
304 160 331 101 84 66
270 872 346 52 45 40
343 125 256 152 38 51
273 740 280 83 63 57
344 90 279 119 35 51
347 114 253 150 26 44
373 55 262 99 51 55
383 800 361 74 63 53
365 606 328 36 26 29
310 39 345 99 27 35
383 821 361 82 67 58
345 117 254 143 27 45
245 720 349 167 113 85
289 255 281 124 91 69
314 550 206 160 5 41
354 111 255 157 19 49
258 880 276 142 110 81
339 34 331 68 29 30
288 180 240 123 101 78
284 699 258 84 24 34
321 304 308 101 86 71
353 115 256 154 19 47
343 845 374 62 53 49
403 706 280 58 48 43
354 69 250 99 87 75
332 250 341 136 104 72
222 515 276 171 122 98
357 71 252 97 82 67
356 81 248 135 36 37
256 693 358 142 102 75
266 354 293 103 66 53
257 595 331 103 23 36
264 320 239 119 93 63
356 76 248 103 41 29
309 220 256 133 98 65
362 71 257 100 68 50
397 490 361 163 18 47
250 530 349 55 28 34
321 808 371 45 38 33
380 688 234 98 24 33
357 81 279 113 21 43
318 65 274 104 80 66
244 545 275 153 89 73
301 407 182 110 45 35
292 265 256 135 93 68
362 81 253 127 39 29
418 705 276 81 64 49
366 104 270 141 6 55
377 410 368 71 28 32
373 635 221 164 119 87
363 79 255 115 42 30
357 95 248 157 19 45
283 905 361 65 59 57
403 470 366 104 26 39
359 96 249 158 19 43
363 85 251 137 35 36
368 80 257 98 39 27
369 85 255 103 35 32
309 16 344 101 30 43
363 90 250 148 27 44
363 95 251 157 18 48
288 155 256 106 87 69
452 701 282 101 75 55
328 80 276 106 60 56
367 90 252 139 34 46
285 12 259 108 60 51
353 455 375 137 7 41
347 445 211 41 34 34
357 57 374 81 34 32
246 860 321 158 116 97
366 94 253 152 19 50
420 407 289 135 15 40
359 106 255 161 18 46
283 460 171 85 24 35
308 250 363 140 102 71
282 469 388 103 7 33
360 102 254 163 18 46
287 914 278 79 63 59
350 811 327 28 26 27
362 104 257 161 18 46
309 365 294 105 88 72
324 19 261 66 58 50
366 99 257 158 18 49
403 530 227 154 16 35
340 95 374 114 17 42
289 155 251 107 90 73
408 409 376 54 38 32
286 159 251 105 90 74
230 573 300 156 111 80
293 365 241 95 84 75
288 160 246 102 89 75
416 470 309 72 26 34
338 905 331 46 40 38
286 159 256 106 88 69
325 80 360 99 24 36
272 190 251 104 90 75
305 33 340 114 72 62
280 413 188 159 12 51
285 407 178 91 69 55
400 481 366 74 32 37
270 191 256 105 88 71
293 625 261 109 27 39
343 120 356 123 90 61
395 411 342 84 30 40
318 350 351 117 93 65
271 189 256 106 89 71
279 175 256 103 86 69
373 825 376 78 63 53
310 13 314 128 88 69
322 285 312 108 92 75
396 420 353 123 8 33
250 902 348 60 49 48
377 825 227 100 80 69
285 166 247 103 89 76
285 162 252 106 89 71
308 435 405 114 20 40
286 163 249 104 89 75
370 841 259 67 57 53
285 162 256 105 88 69
334 429 201 75 55 49
366 613 324 113 19 37
284 170 246 102 89 76
348 80 377 134 20 51
278 305 256 107 82 55
284 175 243 114 97 78
342 610 221 76 34 40
282 175 246 101 88 76
318 245 362 140 98 68
360 53 354 92 84 76
288 170 243 117 98 78
247 745 346 164 113 82
442 716 309 81 63 47
334 424 210 73 33 29
287 169 244 108 93 77
333 25 306 97 35 39
410 481 299 103 20 32
241 884 316 76 66 59
384 797 355 62 53 44
313 13 311 129 94 74
281 173 249 106 90 75
320 188 363 125 96 63
333 100 370 102 20 39
254 670 350 137 98 70
398 809 371 76 61 50
283 185 241 120 100 79
283 190 240 122 100 74
279 180 246 102 89 76
338 165 341 125 98 67
448 696 301 92 71 53
256 693 296 70 25 34
317 110 351 114 94 72
274 780 306 72 59 53
364 715 331 62 26 33
277 185 246 102 89 76
255 911 262 70 65 68
274 185 251 105 90 74
326 442 168 105 85 64
425 465 233 62 31 35
368 845 356 67 53 46
352 600 183 140 102 61
277 180 251 105 90 75
288 445 206 47 31 33
276 179 256 103 87 70
283 389 225 100 87 75
275 186 248 103 89 75
313 110 336 112 91 69
327 345 331 111 89 65
308 230 365 130 98 67
308 850 372 40 36 35
293 11 301 148 50 56
294 145 247 105 90 74
283 540 251 146 0 35
400 535 228 149 15 37
344 393 291 76 67 57
373 840 266 67 58 57
328 25 301 94 44 43
303 455 161 65 40 38
345 755 193 137 106 70
294 580 246 61 31 37
278 190 241 114 96 77
397 480 376 61 30 36
276 188 244 102 89 78
290 15 321 102 35 43
300 65 261 114 85 66
317 95 351 104 35 43
268 282 284 90 72 54
273 404 361 77 65 51
294 135 256 109 90 69
347 490 196 122 90 80
313 165 244 131 103 70
316 805 255 183 132 110
340 141 350 122 96 65
295 136 252 106 89 72
276 527 260 99 14 35
294 140 251 106 90 73
323 13 321 90 73 59
318 105 331 106 85 62
293 140 256 110 90 69
403 420 239 131 5 40
311 50 331 116 18 40
364 105 271 140 5 53
299 135 247 111 93 76
300 131 248 109 93 75
308 12 336 87 38 41
310 126 345 107 89 69
349 520 186 131 99 72
303 135 245 116 97 77
423 734 322 68 54 39
340 145 351 122 95 63
298 130 251 105 89 72
398 525 316 148 22 50
317 85 341 94 53 44
278 290 276 91 75 60
354 575 184 131 100 64
314 410 200 91 35 24
302 35 268 107 51 50
297 135 251 104 88 72
313 465 156 191 129 116
356 95 357 133 14 41
296 133 254 109 90 71
296 761 264 77 62 57
338 165 346 123 96 64
263 360 232 111 91 68
300 117 264 113 91 67
311 450 395 54 27 30
400 460 360 101 22 37
398 550 306 108 26 43
323 125 271 120 87 62
303 140 245 118 97 75
304 444 171 51 35 41
397 450 356 135 14 41
388 675 291 102 21 37
296 138 250 103 88 72
394 430 350 133 13 38
317 470 162 164 112 92
255 534 304 113 8 37
278 665 345 105 76 62
290 151 252 108 91 73
408 396 291 114 17 32
290 150 256 109 90 70
374 841 205 133 105 79
397 750 211 146 103 74
291 148 254 111 92 71
354 761 337 81 62 54
424 409 233 69 26 34
319 454 165 48 32 33
292 155 245 108 92 76
308 205 318 98 80 59
316 264 359 142 100 71
378 816 188 188 128 102
376 655 305 133 9 42
305 754 242 75 63 61
315 65 331 112 72 58
278 440 172 49 26 31
295 152 243 114 96 77
405 796 318 72 58 49
294 156 243 115 97 77
395 570 252 143 27 50
399 500 322 165 10 51
298 150 243 116 97 75
345 818 218 115 74 66
302 490 162 140 25 42
296 149 244 113 95 75
412 425 368 57 30 34
273 520 381 159 14 49
303 147 243 118 96 73
308 370 291 92 76 59
263 775 372 173 121 92
298 155 243 119 98 75
350 872 261 57 50 54
303 155 242 124 100 73
316 180 247 131 102 69
303 160 241 127 101 71
368 808 390 68 53 44
385 766 189 159 109 77
308 135 245 119 97 74
316 189 251 145 108 72
293 350 251 103 91 79
313 130 245 123 100 73
268 944 326 68 63 63
294 187 279 113 91 68
318 379 287 83 71 58
288 831 336 44 34 34
300 424 174 85 33 25
343 455 376 124 12 38
313 135 245 124 100 73
329 650 228 38 38 43
318 475 392 69 27 33
302 85 266 107 26 44
389 580 302 172 13 54
264 445 212 109 31 33
256 807 334 179 128 100
368 821 211 222 147 117
308 140 245 121 98 72
313 140 245 127 102 73
306 36 331 128 13 45
366 581 203 148 111 82
331 37 354 99 87 75
361 94 279 134 5 49
304 215 240 135 105 68
332 390 321 70 61 52
407 799 336 82 65 58
286 506 224 64 34 36
284 360 354 125 99 71
351 738 344 84 26 36
313 105 274 109 21 42
303 882 368 60 54 51
426 713 314 57 45 34
314 145 244 130 103 71
318 130 245 127 101 71
398 460 243 141 7 44
267 403 352 89 74 59
301 737 236 77 62 57
332 230 355 136 101 70
353 889 204 94 80 71
417 728 269 62 47 42
331 616 229 44 33 34
318 135 245 130 103 72
331 385 326 87 73 58
308 150 242 125 100 72
291 198 338 114 93 71
246 726 346 170 115 86
308 650 354 99 27 39
341 135 351 119 92 61
363 75 351 152 17 47
312 146 243 130 103 71
308 155 242 128 102 71
289 890 361 59 53 50
377 670 221 131 98 71
314 160 244 133 105 73
264 502 234 43 38 41
298 175 239 128 102 71
318 397 217 107 94 78
303 175 239 130 103 72
301 796 279 169 118 89
290 162 243 112 95 78
384 839 312 51 44 44
369 545 219 126 17 34
293 165 241 119 98 76
318 945 316 62 57 58
333 850 255 52 46 47
293 170 241 121 99 75
380 802 194 167 112 77
293 175 241 130 103 72
283 435 141 170 4 37
393 815 350 82 62 52
290 174 244 127 102 74
298 165 240 124 100 73
280 323 255 90 76 61
335 186 353 130 99 67
278 245 234 123 98 70
396 540 266 60 27 33
303 165 240 128 102 72
394 505 361 96 28 42
293 190 238 129 102 71
411 773 253 106 81 62
280 463 161 135 10 39
303 180 239 129 102 70
300 190 239 129 101 69
281 390 358 122 97 72
444 710 308 80 62 47
308 165 242 131 103 70
337 30 326 84 26 32
398 520 230 144 14 32
336 114 333 132 98 71
406 505 224 148 18 34
258 385 326 123 96 65
312 164 243 132 103 70
349 450 196 47 35 34
307 225 251 141 103 70
310 169 244 129 102 71
370 540 219 132 14 36
293 420 151 87 30 36
383 590 306 135 24 48
338 130 266 148 105 82
313 170 244 128 102 72
273 305 301 89 67 43
327 305 316 118 96 74
329 365 331 105 86 66
298 220 236 132 103 69
342 879 246 72 63 62
390 591 277 176 15 50
363 35 361 83 46 36
371 856 214 119 96 73
311 175 243 126 100 70
314 175 244 128 102 71
328 91 324 118 32 38
275 549 374 78 24 36
317 175 247 128 102 70
238 635 326 145 103 74
308 180 242 127 100 69
311 180 243 128 101 69
415 441 294 103 20 33
311 190 243 132 103 69
343 740 350 90 24 37
283 620 276 84 27 37
320 180 256 142 105 71
288 385 362 125 99 71
338 895 341 52 48 46
294 705 241 159 7 46
317 185 251 143 107 72
351 79 343 141 35 51
314 190 246 137 106 69
366 833 374 79 62 49
263 205 256 105 87 70
432 718 308 62 50 37
272 195 246 102 89 77
394 405 275 86 17 36
268 939 335 68 65 65
285 895 261 62 54 48
332 102 361 101 73 58
313 195 246 140 107 71
273 200 241 112 95 76
417 775 331 88 69 53
279 841 325 128 98 76
362 89 366 144 17 51
260 387 228 137 101 67
340 623 219 107 63 53
268 200 246 102 90 78
267 370 293 109 68 56
362 89 371 144 25 58
268 895 365 54 49 48
267 199 251 105 90 76
245 775 346 173 121 91
268 195 256 104 87 71
313 456 156 84 56 49
258 305 238 130 98 64
388 725 227 79 65 52
290 12 320 103 42 45
266 421 219 57 33 33
266 199 256 103 87 70
248 770 331 156 114 78
270 201 243 104 90 77
295 504 212 46 26 31
433 740 281 80 60 50
342 50 322 108 27 37
321 913 349 70 64 63
358 823 216 205 139 109
273 205 241 116 96 74
246 775 356 173 121 93
261 909 255 62 58 58
415 716 270 64 50 46
288 398 219 101 88 74
265 201 252 105 90 75
417 779 336 87 67 54
373 825 226 76 62 58
270 215 238 120 97 70
418 701 305 57 44 31
328 85 323 118 86 62
387 830 296 64 52 48
273 215 238 123 98 70
387 705 215 118 91 65
265 222 238 115 95 72
313 220 365 127 98 64
314 45 316 124 95 69
324 85 360 96 38 41
269 221 238 120 97 71
278 230 235 122 98 70
290 743 363 118 82 60
260 216 247 104 90 77
295 666 247 39 36 40
264 420 221 50 34 34
242 616 299 166 114 81
258 215 251 106 90 74
286 430 201 90 22 39
258 215 256 106 89 71
317 380 296 83 70 57
353 814 322 26 25 25
282 185 272 107 89 70
258 220 246 102 89 76
309 40 341 113 32 44
286 522 229 55 35 37
335 131 259 127 97 61
284 265 350 126 97 68
341 640 344 135 24 49
259 225 242 106 90 74
406 515 298 137 18 40
260 222 242 102 88 74
368 480 381 49 24 28
267 398 215 93 62 53
273 514 247 91 27 36
257 225 245 101 88 75
390 506 333 156 4 48
242 865 296 183 131 114
257 219 251 106 90 74
278 195 240 119 98 74
331 755 214 79 58 45
366 55 366 103 23 38
278 200 239 119 98 72
278 510 386 137 18 45
415 411 317 151 6 46
340 715 203 149 102 72
305 498 189 137 0 46
251 867 328 147 108 95
279 206 238 122 98 71
327 225 360 132 99 65
283 195 240 123 100 73
278 790 372 187 136 112
286 193 239 125 101 73
346 494 187 146 110 85
336 228 336 129 102 70
273 256 233 126 99 67
368 393 286 100 40 42
333 110 330 138 102 75
284 201 238 126 101 71
317 380 291 80 68 55
353 865 241 68 58 54
288 200 237 128 102 71
334 25 311 96 39 41
394 770 331 46 40 37
283 205 238 126 100 69
288 205 238 126 100 70
335 548 178 162 109 78
338 60 372 89 33 36
316 89 335 107 31 36
283 210 237 127 100 69
302 45 267 105 45 48
247 552 335 89 26 39
283 220 235 121 96 68
343 900 216 93 76 64
282 520 387 166 17 52
323 730 211 134 16 37
280 436 208 123 8 34
339 135 357 131 97 69
299 245 271 140 102 75
258 879 336 95 78 63
298 700 231 148 1 44
287 424 138 79 37 34
329 488 393 139 12 43
283 225 235 120 96 69
296 203 353 112 91 68
288 225 236 121 98 72
322 65 321 105 37 42
288 856 365 37 33 32
257 230 240 109 91 73
405 796 349 79 62 54
327 940 311 63 60 62
259 231 238 117 96 73
277 255 283 100 80 58
312 120 335 108 89 67
259 235 237 118 96 71
311 210 251 140 105 71
395 689 261 84 27 35
273 230 235 124 98 69
269 570 277 116 13 36
268 235 235 124 99 70
298 325 352 124 97 69
384 800 201 190 129 99
270 221 279 111 91 70
338 398 331 72 61 51
271 737 279 77 56 50
273 235 235 125 99 69
273 240 235 124 99 68
258 245 237 121 97 68
253 642 309 158 108 83
318 130 329 110 85 54
263 245 235 124 98 68
358 393 241 78 39 39
289 245 355 120 95 67
258 255 235 124 97 66
393 810 266 74 59 53
262 249 234 124 98 66
293 265 261 137 93 71
246 666 319 162 111 79
327 535 181 135 77 60
263 250 233 124 98 67
343 475 176 148 105 77
389 505 346 86 27 38
289 490 212 115 12 39
260 254 233 125 98 65
373 425 233 95 31 34
276 460 229 72 29 40
398 730 314 50 38 31
308 250 313 97 80 60
291 495 398 54 26 29
268 245 234 125 99 68
264 247 233 125 99 69
267 247 233 125 99 68
273 605 357 174 16 56
300 50 264 101 14 34
339 496 201 83 9 34
408 425 221 122 30 38
331 42 264 62 27 29
308 185 322 101 83 63
264 304 288 81 66 51
403 805 346 88 69 59
273 245 234 122 97 68
288 225 284 113 89 63
268 255 233 125 98 67
270 250 234 124 98 67
278 235 234 122 98 70
347 460 186 115 91 71
278 240 234 122 98 69
407 435 288 89 26 35
346 579 359 151 40 62
286 240 233 129 102 70
288 745 271 74 59 53
278 250 233 127 100 68
276 249 234 124 99 69
339 84 375 115 36 49
283 244 233 128 101 68
288 245 234 137 105 69
312 12 317 114 78 62
276 411 200 165 2 45
283 250 234 134 103 68
415 766 255 95 72 58
219 514 251 216 145 118
358 85 376 135 15 51
293 200 237 127 101 70
370 59 263 100 50 54
308 685 354 37 29 30
293 205 237 125 100 72
390 522 358 64 22 36
270 515 379 159 12 49
413 420 236 127 6 38
301 441 163 85 35 26
283 320 281 81 66 51
247 860 326 176 131 113
303 195 240 126 100 70
288 785 286 60 50 51
301 196 238 125 100 71
263 500 232 47 37 42
301 169 330 99 83 65
301 200 238 125 100 69
263 671 354 140 104 75
298 205 237 125 100 71
304 204 239 132 104 70
440 731 280 81 61 49
293 210 237 123 99 72
432 741 329 79 59 43
293 215 236 122 99 72
303 955 281 82 79 82
302 210 238 132 104 70
326 385 354 122 95 66
301 225 238 135 104 67
353 392 281 78 67 59
302 746 249 75 62 57
290 191 279 110 89 66
303 225 241 139 104 68
332 30 306 100 36 42
256 908 264 60 56 60
315 111 333 106 86 63
358 829 236 62 54 53
390 698 244 75 30 37
311 195 243 135 106 70
281 522 239 51 29 30
414 766 296 68 53 48
310 205 245 141 108 72
358 51 356 91 81 73
294 500 211 131 7 37
289 260 277 137 98 77
346 914 287 62 55 54
311 205 247 146 109 73
315 192 255 144 104 73
313 200 251 146 108 74
393 565 306 179 7 57
293 170 272 104 86 67
373 515 377 191 6 62
313 200 256 138 100 69
329 911 260 62 57 59
312 205 256 136 100 67
268 735 373 162 121 91
307 215 242 140 109 72
436 419 221 168 18 49
330 375 311 97 79 61
312 210 256 133 99 66
309 215 251 141 107 73
310 216 255 133 99 68
311 164 358 110 91 70
307 220 246 144 107 72
389 500 346 125 21 44
395 806 285 71 56 48
293 220 356 114 93 71
306 225 246 145 107 72
334 24 331 93 79 64
421 480 234 32 29 31
265 371 334 123 96 67
350 448 199 69 58 48
295 710 237 174 6 51
318 16 301 117 76 61
395 495 260 59 27 33
381 650 295 134 13 44
308 220 251 140 104 70
323 20 296 105 35 42
261 450 368 135 10 42
345 582 358 78 38 47
310 364 260 109 95 82
278 392 223 99 85 73
308 225 256 136 99 68
264 846 278 121 101 80
438 682 266 110 77 51
293 230 235 129 101 68
337 100 373 107 30 43
241 899 328 163 125 103
223 520 276 161 115 89
263 690 361 142 105 77
293 240 236 138 106 69
308 365 257 103 91 79
390 674 281 55 29 29
298 230 236 134 104 69
358 470 378 145 11 44
301 228 238 136 105 68
340 892 338 51 45 44
299 240 240 152 109 75
309 20 344 99 23 38
393 475 229 128 11 29
356 114 274 137 18 50
302 235 241 148 107 73
409 790 302 74 58 49
303 235 246 153 109 76
303 240 246 155 108 77
304 235 251 143 103 70
340 725 353 72 24 35
303 240 251 143 102 71
329 645 348 169 17 54
363 500 217 61 36 37
343 785 345 58 46 38
343 70 326 128 68 59
286 812 309 60 52 51
303 240 256 139 99 70
293 245 236 146 109 73
282 421 205 153 5 45
242 605 327 143 106 79
293 250 236 154 110 77
292 255 237 159 111 81
313 230 317 100 81 60
315 157 359 109 89 68
295 252 239 161 113 82
296 245 238 155 110 76
296 259 256 139 95 71
338 205 341 122 97 68
338 165 351 127 97 64
296 249 238 159 112 79
238 920 306 75 67 63
354 610 184 144 104 63
268 349 234 107 88 69
302 244 246 154 107 77
300 247 251 143 100 72
334 475 169 154 107 77
361 796 329 30 26 27
279 485 390 42 29 31
296 253 242 159 110 81
311 445 396 59 27 29
299 250 251 142 100 71
308 13 268 77 49 41
342 447 374 126 10 37
323 375 302 107 90 73
297 255 251 140 98 69
305 226 244 146 107 73
371 655 233 121 29 42
268 310 242 102 83 62
247 860 311 132 98 77
305 231 245 150 108 74
371 863 316 67 59 54
397 465 356 87 29 36
292 690 245 73 28 39
280 177 264 104 86 67
386 599 295 46 27 32
306 230 251 142 102 71
421 698 303 67 54 40
333 155 360 125 94 63
243 629 303 166 114 82
322 11 260 55 49 45
306 230 256 138 99 69
326 869 374 66 57 52
348 785 185 145 108 68
305 235 256 139 99 69
243 630 331 153 110 83
306 233 256 138 100 68
274 400 355 111 89 67
293 946 331 82 77 77
404 695 295 47 38 31
323 130 246 139 109 75
413 510 240 115 17 37
394 560 307 179 10 56
256 431 244 120 2 35
321 52 314 117 1 37
353 660 189 155 106 71
326 129 248 139 109 75
399 575 246 154 23 52
328 130 251 137 106 73
322 140 247 136 107 75
327 140 252 129 102 71
411 414 384 153 19 49
331 128 253 132 97 68
375 635 240 137 22 43
304 13 305 144 81 69
316 90 346 101 37 43
254 705 291 144 15 45
247 735 336 171 117 87
330 132 254 126 98 66
414 470 312 82 25 37
390 456 343 160 12 50
285 245 350 116 92 62
330 140 255 129 102 70
251 558 348 47 27 31
328 40 310 106 68 55
363 680 190 124 91 52
341 626 218 123 77 66
313 11 261 59 51 46
232 570 306 149 109 79
338 680 211 82 61 44
273 440 375 36 29 28
321 150 248 134 106 73
390 444 256 82 28 37
298 822 353 86 57 43
388 800 211 172 118 86
371 89 258 124 29 41
328 150 256 137 105 70
350 63 263 104 90 77
316 100 347 111 91 69
321 159 248 130 103 73
293 450 186 125 6 38
294 230 360 115 92 66
324 160 256 139 105 71
326 154 253 134 104 70
263 380 231 116 92 65
408 530 227 167 18 38
336 200 332 126 103 77
266 393 343 119 94 65
325 157 255 138 104 68
424 732 320 69 54 38
302 195 279 123 96 65
281 260 324 112 87 56
321 165 251 132 102 68
323 610 361 71 28 35
323 165 256 140 105 72
286 305 348 126 97 71
423 752 339 75 60 45
276 184 262 103 85 67
321 170 252 134 103 66
243 560 278 163 101 77
378 824 375 84 66 53
343 80 377 123 23 48
321 173 253 138 104 69
253 685 315 127 87 61
349 75 336 132 31 45
321 175 256 138 103 70
279 406 187 113 43 44
399 490 281 133 21 44
320 176 255 141 104 70
302 630 250 140 6 36
352 119 274 134 17 49
284 15 260 113 78 60
373 805 346 46 41 37
288 20 261 117 71 61
289 24 260 126 36 52
378 460 380 52 27 30
314 30 349 70 49 41
308 315 302 84 71 58
289 12 297 153 42 56
289 11 306 145 35 52
253 914 355 64 59 58
289 14 306 161 63 80
362 750 331 137 12 45
303 530 390 177 20 59
289 15 264 104 46 47
249 939 291 74 69 70
332 225 326 120 98 74
252 720 362 155 110 83
357 675 335 51 27 30
294 12 264 100 45 45
442 701 309 79 62 46
312 620 240 66 29 37
298 11 261 96 46 44
308 345 354 121 95 65
423 394 226 67 27 30
359 880 301 53 48 47
303 10 261 84 48 43
265 720 277 174 7 48
298 15 267 101 45 45
265 832 314 133 92 72
295 690 238 128 13 40
303 12 265 86 48 42
288 220 326 106 86 64
326 290 334 132 100 73
303 570 377 179 12 56
303 13 268 91 50 43
345 755 348 119 25 44
277 275 321 113 88 57
300 16 269 103 47 47
343 393 311 63 54 45
303 460 159 90 35 39
295 15 288 163 93 82
248 550 277 133 50 47
340 887 343 49 45 43
291 22 263 114 21 39
293 20 265 93 45 43
308 403 401 113 19 35
392 814 256 77 60 50
303 566 378 187 12 58
264 465 375 109 18 37
316 410 395 120 14 39
306 646 354 96 22 36
294 30 261 118 51 54
295 28 264 116 62 56
313 40 316 120 68 56
321 280 313 109 92 75
245 924 281 68 64 63
358 615 331 81 25 36
297 20 267 97 54 49
297 25 267 116 28 46
300 25 269 118 27 47
257 235 271 111 92 72
340 104 374 121 21 45
332 509 394 85 29 39
277 520 251 78 28 38
299 755 256 74 61 55
303 30 270 102 52 49
343 392 261 84 75 67
454 705 286 87 64 49
421 763 306 80 62 53
337 610 191 162 113 81
369 405 234 109 27 34
301 32 268 104 26 42
390 480 341 152 18 50
285 575 258 146 2 37
284 280 246 137 97 70
339 50 320 102 25 34
308 10 261 69 51 44
303 635 353 56 26 30
308 11 265 72 51 42
279 320 256 92 77 60
308 15 270 90 52 45
246 795 346 176 124 96
412 815 365 90 72 66
265 433 152 185 8 44
313 11 265 62 52 45
313 200 319 107 86 60
380 830 265 68 54 50
291 268 251 133 92 65
363 69 266 90 69 54
397 490 371 38 28 32
313 16 270 70 45 40
313 534 389 97 34 43
314 195 266 134 99 69
321 30 269 103 18 37
315 328 304 89 79 68
308 25 271 106 31 43
312 55 273 109 29 43
305 104 270 104 62 56
352 874 336 57 51 50
313 25 271 110 24 41
303 30 321 121 69 59
287 160 261 105 87 68
313 30 271 104 30 42
318 20 270 98 43 44
320 19 268 81 60 49
380 832 316 53 47 45
290 753 368 132 92 67
342 610 216 102 67 58
315 330 348 124 97 67
274 880 369 49 44 42
273 500 237 94 19 33
315 60 344 105 23 39
384 826 316 58 52 50
260 841 291 145 116 88
293 780 372 173 121 91
318 25 270 92 31 38
384 640 266 149 10 46
259 379 234 133 100 63
315 59 328 118 95 68
328 14 321 90 72 57
318 30 270 105 19 40
294 15 291 157 81 73
279 430 174 120 6 38
368 70 356 141 21 48
293 12 296 150 55 60
378 389 256 93 41 35
408 410 237 130 11 42
406 439 288 96 25 31
289 13 297 156 39 57
266 244 283 110 89 66
260 390 306 108 77 51
303 890 236 65 61 60
348 725 347 95 22 36
298 15 291 162 94 84
299 13 301 147 72 66
289 11 311 133 33 47
332 938 301 46 42 42
380 506 378 185 0 57
289 15 311 146 74 78
256 556 330 38 26 28
293 11 316 114 42 47
290 197 333 117 96 75
394 440 280 40 29 31
300 187 354 113 93 71
298 11 311 127 50 49
337 821 244 162 121 97
232 590 311 151 108 78
303 12 311 131 69 58
326 305 334 131 102 74
302 12 307 140 74 63
308 705 215 115 16 35
303 11 321 92 42 38
295 19 302 166 119 111
287 840 274 117 98 77
405 480 294 42 30 31
298 18 292 177 116 100
383 393 301 105 33 41
393 585 237 110 25 39
275 443 148 178 2 44
266 505 378 40 24 31
323 515 176 142 100 74
339 60 321 109 36 36
307 155 352 110 90 69
298 19 296 172 117 98
313 130 351 110 91 71
353 60 337 116 27 37
301 17 293 168 109 97
336 883 234 54 43 42
350 60 334 125 30 43
381 579 320 104 34 46
303 20 296 156 107 85
373 403 361 49 24 25
297 21 300 156 106 83
304 23 298 120 79 55
255 847 310 104 63 50
338 490 391 145 12 45
303 25 301 124 67 57
253 660 346 138 99 71
291 17 311 151 104 97
380 866 192 97 89 83
295 23 307 141 101 78
363 775 322 45 36 31
294 24 316 142 40 56
298 26 311 145 39 57
298 26 321 136 57 60
250 799 332 164 120 88
314 696 213 74 29 34
359 111 272 140 20 54
300 28 321 131 57 58
409 485 317 51 25 29
310 67 274 107 6 37
294 393 229 104 89 73
303 29 316 132 27 49
343 440 371 126 6 38
235 553 273 189 125 94
292 751 269 73 60 55
375 572 343 185 13 58
304 28 312 130 83 69
342 392 301 70 61 51
423 396 301 108 27 46
430 742 286 70 53 42
323 375 261 86 77 68
390 802 226 130 86 64
367 765 320 46 36 31
308 13 306 144 97 78
326 325 334 125 99 69
307 12 312 134 85 68
318 270 355 145 103 75
309 13 310 137 93 74
300 450 160 43 36 42
308 12 321 98 53 46
325 922 264 75 68 69
388 565 311 181 7 57
318 14 306 118 83 66
288 890 364 57 52 51
282 285 246 136 96 70
270 335 306 117 83 58
344 59 262 106 90 75
278 500 231 148 6 35
318 14 311 113 83 65
308 25 301 131 40 46
310 20 299 126 84 66
293 820 356 136 92 71
323 575 375 41 29 31
344 63 267 97 80 63
311 20 299 128 61 60
400 747 330 56 45 35
312 210 261 130 96 65
314 17 297 121 73 61
258 380 233 134 100 64
354 811 322 27 25 26
387 430 373 129 11 39
258 720 286 152 0 43
367 71 269 93 25 33
244 875 306 125 95 82
270 681 277 75 33 38
315 19 293 119 52 51
287 890 281 87 74 62
269 435 217 72 26 34
278 851 336 97 73 54
279 285 244 131 94 66
268 370 296 102 64 50
258 815 341 195 131 106
314 23 297 125 15 43
353 56 374 74 36 25
293 555 381 193 15 62
318 24 297 110 25 40
230 569 287 176 121 90
306 27 305 134 70 59
355 866 261 50 44 47
308 29 306 123 83 66
308 30 311 116 74 58
350 660 338 145 16 45
306 31 316 131 25 50
402 470 244 139 9 42
334 95 370 109 69 60
306 32 320 110 75 58
320 75 327 98 74 56
366 50 365 102 25 35
318 31 305 112 76 61
341 764 349 84 63 55
351 455 204 75 42 43
372 85 266 117 23 41
372 416 233 87 28 32
295 33 260 115 59 52
297 35 261 123 91 74
300 40 265 110 15 39
273 315 296 90 60 43
302 40 267 104 29 41
401 509 244 136 12 43
383 530 362 100 26 40
305 40 269 104 46 47
299 45 261 111 23 42
305 837 366 47 37 32
345 454 184 118 94 68
380 620 297 50 30 31
300 55 265 106 10 38
366 853 256 61 51 48
353 580 182 136 103 64
302 50 267 109 83 65
302 55 267 103 27 40
323 340 311 94 79 64
328 20 341 91 77 64
302 60 267 105 69 57
269 730 277 162 3 43
300 64 264 115 87 68
313 865 374 64 59 57
342 690 349 109 21 40
345 44 330 71 37 36
362 875 306 55 49 47
354 695 188 134 95 55
298 397 221 102 89 77
302 65 266 115 88 68
303 295 353 125 97 64
305 45 269 108 41 48
336 667 349 114 16 39
343 44 351 86 76 67
288 210 282 111 90 67
370 625 200 140 103 72
330 240 353 138 100 71
366 99 274 129 0 49
313 45 272 115 23 43
305 55 269 107 33 46
368 495 220 92 34 37
379 442 374 123 10 38
429 714 263 74 54 47
331 170 359 129 98 64
313 64 273 103 38 44
396 755 203 161 112 83
314 55 274 116 22 44
318 50 273 91 46 42
270 443 153 64 33 43
397 415 352 118 12 32
293 850 346 31 30 30
368 705 187 120 88 51
282 418 146 96 21 32
418 700 276 76 59 47
436 418 225 141 19 46
317 52 274 93 34 40
400 464 289 120 9 34
360 67 344 126 33 41
320 54 273 87 74 59
294 450 401 119 23 42
323 397 221 104 90 74
406 790 257 98 75 58
282 500 225 167 3 40
314 59 274 110 17 40
422 465 235 58 27 32
401 474 362 95 21 37
384 675 297 54 24 30
365 102 273 133 3 51
325 244 319 111 91 69
260 804 364 180 128 104
318 60 274 113 45 50
348 398 336 62 52 43
282 610 271 97 27 39
348 56 374 74 32 27
313 35 311 119 15 40
394 410 276 40 27 30
256 239 272 112 92 71
311 37 315 129 10 44
399 745 216 141 100 72
288 375 232 96 85 74
340 678 348 78 29 38
309 40 321 110 35 42
360 493 383 135 16 42
311 41 320 113 85 64
323 180 363 126 97 63
397 460 229 143 11 33
409 465 321 38 29 32
358 685 336 109 19 40
317 85 346 92 41 40
268 405 361 71 54 43
333 740 211 105 31 36
272 362 233 94 82 70
315 40 312 115 56 48
318 195 320 116 92 63
318 45 312 109 78 57
282 864 367 38 34 33
312 45 321 106 67 51
307 450 181 51 34 42
335 200 329 125 102 77
328 95 324 125 64 53
313 50 321 109 42 43
321 296 308 105 90 75
274 385 351 124 98 70
317 50 316 114 82 62
319 49 313 112 57 52
379 514 224 64 34 38
317 55 320 111 28 40
288 300 350 125 96 71
319 60 321 114 18 39
363 485 381 148 15 45
291 14 322 93 59 45
397 515 246 154 14 47
301 100 266 105 27 42
392 490 351 88 19 34
418 405 286 131 15 34
303 525 216 61 32 38
318 540 386 112 30 46
295 15 330 91 34 37
385 617 278 169 5 53
368 390 241 73 50 56
282 330 251 94 80 67
299 12 331 89 37 36
273 625 346 146 21 47
299 15 336 93 42 43
328 560 377 169 17 56
300 12 334 90 36 37
373 660 311 92 19 35
303 11 331 89 36 37
337 760 355 79 59 50
395 540 251 61 29 34
346 100 341 138 53 55
295 420 391 108 15 37
303 12 336 88 36 38
292 20 326 115 51 53
390 759 319 43 34 29
266 423 150 110 33 44
328 315 331 126 99 70
328 886 236 58 48 47
294 24 326 134 25 50
299 20 335 106 25 43
300 454 159 64 55 50
294 20 330 110 22 41
295 23 329 123 15 46
280 286 303 85 69 51
331 65 367 103 36 45
298 25 331 119 52 56
349 445 207 83 68 61
314 364 358 122 95 64
278 806 368 190 134 109
398 770 216 176 121 90
299 25 335 113 53 55
301 25 337 108 22 42
272 310 311 122 86 61
394 406 375 80 16 30
260 906 258 63 59 60
308 160 274 118 95 68
338 640 226 58 35 36
302 31 331 122 64 61
300 28 334 132 89 80
319 85 331 110 41 43
333 843 253 88 71 55
373 420 368 33 30 30
249 785 360 171 118 92
308 915 251 85 77 78
289 450 207 126 14 42
373 393 291 108 31 40
322 948 301 57 52 51
315 325 348 128 96 68
363 826 225 70 59 61
301 20 338 104 19 40
287 450 210 127 16 40
303 20 340 99 26 40
287 274 275 122 89 70
331 375 321 75 65 55
332 230 326 121 99 74
304 25 340 96 63 53
308 12 326 89 40 40
352 109 361 154 33 55
297 660 250 118 14 33
292 455 205 84 28 38
308 12 331 87 38 40
277 310 251 100 80 57
256 438 247 119 3 33
261 445 368 140 12 46
313 12 331 87 49 47
342 40 326 89 27 31
307 835 341 32 29 30
276 331 243 95 82 70
313 12 336 89 47 47
313 855 257 108 90 72
308 875 246 52 50 52
317 12 331 87 60 55
338 515 391 36 28 32
292 445 391 95 21 37
337 595 211 146 52 58
319 13 331 86 66 58
323 695 213 114 17 30
362 50 369 88 24 33
317 12 336 90 58 55
309 540 216 98 27 38
271 446 155 77 31 39
239 890 311 160 131 113
348 466 379 127 11 37
319 13 336 90 63 58
318 110 331 105 84 59
337 185 351 128 98 64
305 12 339 87 37 40
282 290 261 124 86 64
319 85 351 109 88 70
260 789 369 173 121 95
308 12 340 88 39 43
342 690 201 142 101 70
308 14 342 88 39 43
408 525 242 44 28 30
313 12 340 90 47 48
370 619 204 144 108 75
318 398 215 103 83 59
316 12 339 91 54 53
338 804 391 59 47 37
318 16 345 89 66 57
307 20 343 98 26 39
368 395 326 59 41 32
313 25 347 62 40 34
373 392 271 103 26 35
306 30 343 107 54 51
363 785 181 138 102 61
338 55 266 86 31 32
312 30 347 75 56 46
305 90 269 114 92 68
358 785 182 136 101 60
428 735 326 74 56 40
271 622 348 78 22 35
318 20 347 90 55 48
394 455 246 116 15 39
416 420 376 159 17 49
318 30 351 90 28 35
298 810 286 144 106 79
330 897 249 63 55 55
323 205 363 121 94 60
305 33 323 104 70 54
307 36 326 127 12 44
300 812 278 133 106 79
262 440 230 92 14 31
305 34 331 115 36 44
236 607 299 170 117 84
372 459 378 36 27 30
308 40 336 129 72 65
366 83 366 143 8 52
310 44 323 103 24 36
400 455 228 142 17 34
311 47 326 119 20 43
318 330 305 90 78 67
333 485 390 131 12 39
295 640 354 159 17 48
340 54 262 102 84 65
317 453 186 82 37 37
311 47 336 117 50 49
245 916 278 57 54 55
375 827 373 70 56 47
311 46 342 123 16 43
313 450 391 50 26 30
280 958 288 85 80 82
264 865 273 153 118 84
332 45 265 61 30 27
312 45 346 115 49 54
314 40 350 99 57 52
300 504 176 78 27 37
350 828 238 55 49 51
302 435 176 84 33 25
314 45 350 111 50 53
316 46 353 115 14 42
300 489 186 142 0 41
315 54 322 113 17 39
282 235 331 115 92 65
314 55 326 114 75 57
312 55 336 106 76 58
268 360 296 102 64 51
283 929 350 87 81 79
339 890 221 87 75 69
321 17 344 92 79 67
317 60 325 111 60 52
320 64 322 106 40 43
424 751 291 82 63 52
379 615 301 39 29 31
268 205 266 108 89 69
318 65 326 109 31 43
244 544 327 147 1 34
373 700 190 118 89 54
314 60 331 123 99 73
416 461 239 67 23 31
313 60 336 102 64 54
400 450 359 109 15 38
314 65 336 114 28 44
313 50 341 121 15 43
368 393 276 99 39 42
352 640 335 34 28 31
345 66 329 126 106 86
328 70 319 112 27 34
314 50 346 115 34 46
315 49 349 115 14 39
368 710 187 122 89 51
316 52 348 120 88 75
398 485 281 152 16 43
253 625 302 152 102 74
328 20 300 99 30 41
273 610 355 164 17 54
313 410 401 107 18 36
318 55 351 111 31 45
320 374 270 82 73 64
275 407 188 139 17 45
315 64 341 112 42 48
331 52 269 82 32 35
317 60 346 98 32 39
345 85 331 127 28 43
308 246 363 138 101 70
319 60 351 94 25 35
243 934 321 74 69 68
320 64 350 86 37 36
343 40 341 91 81 70
320 36 354 89 25 36
363 71 270 86 71 53
321 192 364 126 97 62
319 40 355 80 31 34
418 396 211 124 30 32
288 450 387 121 11 38
301 67 261 112 85 66
301 70 261 115 53 53
382 723 308 57 23 24
256 545 306 37 25 29
302 70 266 112 89 69
303 75 266 107 40 47
423 400 306 85 28 38
241 514 307 141 0 42
298 290 301 90 74 57
411 794 338 80 62 53
429 741 263 87 62 49
301 85 261 104 66 53
390 678 259 70 31 35
300 95 258 124 22 41
287 905 271 66 57 52
273 540 267 102 13 32
305 70 269 103 79 60
323 670 352 158 16 50
371 665 315 91 20 36
285 438 201 147 0 37
327 840 254 124 100 76
307 70 272 107 26 43
305 80 269 109 8 36
332 16 326 87 73 60
313 66 274 106 53 50
295 430 155 114 8 32
310 74 274 108 89 68
368 460 226 130 9 28
307 782 261 183 128 106
339 110 336 140 101 75
397 565 296 181 10 55
310 80 274 102 83 66
365 503 219 55 33 35
313 80 275 102 58 55
341 740 204 145 100 72
371 612 208 142 107 76
318 70 275 110 22 41
343 560 181 142 101 63
318 80 276 108 39 43
314 285 352 142 104 75
310 84 274 106 19 40
244 520 261 152 91 82
310 90 274 105 7 39
310 95 274 98 11 34
384 555 230 124 18 35
333 120 331 131 100 71
313 95 275 95 52 47
282 530 241 147 3 39
379 760 184 146 103 66
318 85 276 113 76 65
273 822 306 86 73 60
270 206 270 108 90 70
280 319 261 96 79 60
394 392 228 106 35 37
226 540 281 162 114 84
300 98 258 123 24 48
288 195 279 110 89 67
320 105 354 115 94 72
327 21 344 96 83 70
301 101 261 109 73 54
301 105 261 116 95 72
300 110 261 112 91 69
303 110 266 112 91 68
403 435 327 148 5 45
299 115 261 112 91 68
326 305 313 115 95 75
303 120 266 113 91 67
326 176 323 122 97 67
303 125 267 112 89 65
287 235 321 97 79 57
388 465 382 60 31 33
307 100 273 104 10 37
323 270 351 146 105 79
243 530 340 128 14 42
