ply
format ascii 1.0
comment Created by Open3D
element vertex 2235
property double x
property double y
property double z
property uchar red
property uchar green
property uchar blue
end_header
199 424 263 76 34 37
324 218 192 117 96 72
374 693 178 119 93 66
194 428 263 74 51 42
383 473 303 77 24 31
197 426 262 75 35 35
349 543 322 166 21 54
384 413 339 36 29 31
318 10 233 81 62 52
360 388 234 117 93 65
195 428 268 112 25 39
324 73 339 101 68 56
194 433 268 153 7 48
314 88 289 101 41 33
322 103 221 122 99 75
405 753 218 124 84 59
309 228 218 81 69 57
196 425 267 89 38 32
304 468 129 51 37 41
249 661 280 156 106 85
330 865 395 68 61 58
319 13 218 75 44 36
359 414 138 102 80 66
279 628 233 110 25 40
260 812 337 187 127 102
374 83 214 153 20 44
198 428 270 115 18 40
238 428 294 109 10 36
259 358 277 125 97 69
414 415 174 84 33 31
315 128 292 107 84 58
321 732 180 104 19 34
314 967 264 97 94 98
200 428 271 119 20 43
204 422 258 75 31 31
208 421 257 69 35 35
253 564 252 147 0 35
342 338 190 95 84 73
393 753 354 66 52 43
383 82 219 141 19 40
206 420 260 68 33 31
203 421 268 80 30 32
314 378 182 88 78 69
323 98 238 133 97 79
206 420 268 77 29 30
404 478 248 114 18 39
264 419 148 107 52 41
416 758 205 170 119 91
209 418 268 66 33 27
276 888 255 165 125 95
191 581 260 197 129 99
299 198 304 143 103 73
324 798 217 81 67 64
280 502 155 90 26 38
206 420 272 97 28 35
305 547 165 91 31 37
201 431 271 84 17 39
292 34 318 127 24 48
301 476 335 126 15 41
324 12 233 78 66 56
204 428 273 86 26 37
346 838 342 43 38 37
284 713 222 46 35 38
394 458 253 102 20 38
417 820 250 80 64 61
204 433 272 50 26 30
309 32 257 128 41 57
208 428 275 65 24 32
195 437 266 109 15 38
349 498 329 34 28 30
319 748 187 62 36 41
194 448 264 143 6 45
197 444 265 64 18 31
200 448 266 137 10 45
439 418 193 67 20 25
259 265 235 103 91 80
364 98 216 144 28 43
266 503 174 156 5 36
203 434 270 102 22 40
368 418 294 83 20 33
204 438 269 110 23 43
307 281 224 72 59 44
388 546 144 51 28 34
296 531 160 104 48 48
355 923 263 72 65 64
247 508 300 70 30 35
204 443 269 68 25 32
389 428 313 113 9 29
237 406 279 68 58 47
421 595 180 162 116 89
364 110 235 111 69 56
273 851 294 117 78 62
204 448 268 106 13 38
428 568 158 164 114 84
333 394 253 66 54 43
391 599 224 174 14 54
350 253 230 135 103 75
208 448 270 58 25 30
351 831 215 88 71 66
219 538 278 122 3 37
293 433 333 71 26 34
214 418 258 59 42 33
334 128 234 118 91 68
214 417 263 59 43 32
463 787 338 84 64 52
400 773 383 119 97 76
285 250 295 152 106 76
437 512 171 39 25 30
262 770 286 58 48 49
374 523 148 109 25 35
213 416 268 57 47 38
369 828 357 52 45 40
365 905 337 124 113 125
417 508 197 124 7 39
234 388 258 120 93 65
302 68 301 107 56 47
356 655 191 39 38 37
329 498 334 90 24 38
212 416 273 59 51 40
378 889 242 68 58 54
461 482 110 39 34 43
339 411 143 99 84 67
465 464 177 150 20 42
319 148 218 117 94 69
219 417 258 61 48 36
424 714 379 104 82 61
299 14 223 130 94 92
184 518 221 124 21 42
299 959 257 90 85 89
379 853 308 59 49 51
342 483 331 156 7 49
222 416 256 64 51 39
242 386 270 116 92 65
433 434 124 106 16 24
401 559 222 67 29 38
210 419 276 142 6 45
214 418 278 130 14 42
224 604 296 142 107 77
349 400 328 89 35 32
317 800 226 177 139 114
214 423 278 140 9 46
370 56 240 93 80 64
247 387 275 117 93 67
329 63 298 103 45 40
344 829 404 100 77 58
210 427 276 106 22 44
212 430 275 34 24 23
256 571 254 181 1 51
372 413 341 74 30 35
214 433 277 89 27 38
307 188 275 104 84 62
218 423 280 146 11 45
290 268 242 103 83 60
379 734 372 59 47 38
303 898 242 87 76 67
364 893 303 50 42 45
224 423 284 101 17 34
337 79 305 94 66 53
199 583 283 153 113 85
332 43 318 101 49 46
250 553 297 91 13 31
283 353 207 72 57 40
389 684 343 79 60 44
219 428 279 91 26 38
219 433 279 137 5 44
327 98 345 119 27 47
274 433 128 157 1 38
242 498 294 135 8 41
323 403 250 60 50 40
303 298 191 113 88 59
224 428 283 89 24 37
426 779 263 69 54 49
221 431 281 74 19 28
266 904 341 55 49 48
365 110 221 141 51 50
352 829 350 46 39 36
324 198 232 84 71 58
283 964 293 73 67 68
383 53 228 108 28 38
330 817 219 118 93 83
378 73 241 123 15 47
224 433 282 114 9 38
278 508 334 49 27 32
331 26 309 85 69 60
210 448 271 35 27 30
349 501 140 183 3 26
214 448 273 89 17 36
290 709 321 118 12 36
214 543 278 144 13 46
263 232 252 106 92 78
135 532 253 180 119 101
373 55 236 95 86 77
366 895 326 54 44 47
321 619 315 110 39 49
223 438 280 145 0 44
308 34 228 153 24 51
286 826 305 44 37 38
239 483 288 113 14 40
334 303 187 101 85 68
338 76 216 100 85 65
334 474 127 138 18 38
222 434 280 140 3 44
380 848 327 55 49 51
291 403 325 103 14 32
225 438 281 147 0 44
298 764 237 78 63 58
217 444 275 139 1 40
234 393 258 117 91 63
423 583 177 159 113 86
357 262 217 126 94 65
283 903 354 52 47 47
380 57 235 84 27 30
349 443 328 168 3 53
317 823 241 152 112 85
235 393 262 116 91 64
256 940 280 61 57 58
237 393 264 116 92 65
314 258 228 74 62 50
404 833 254 81 60 46
239 393 268 114 91 65
318 98 338 109 24 43
309 468 128 133 14 36
236 398 263 113 90 64
200 603 283 163 115 89
344 108 211 127 101 70
237 396 265 115 92 65
261 618 278 143 9 37
354 653 293 98 23 37
238 398 268 114 91 65
472 782 332 82 61 49
348 904 218 79 64 57
240 399 272 112 89 64
266 200 275 110 94 77
267 365 210 74 62 51
377 622 256 176 16 56
299 12 228 146 109 109
395 742 262 71 50 46
228 411 263 69 56 46
365 653 278 145 15 46
228 412 258 70 58 46
229 513 278 88 15 34
294 173 308 123 96 68
408 773 233 107 79 65
274 273 287 159 111 85
230 410 258 71 59 47
386 744 310 65 55 51
409 713 374 93 75 57
361 118 229 130 97 70
459 512 124 197 121 107
285 153 288 103 87 71
230 410 263 70 58 47
424 434 119 97 19 30
379 533 148 103 19 30
228 411 273 61 52 43
230 410 268 66 55 45
235 403 263 106 85 62
352 354 227 119 94 66
309 288 229 77 61 44
394 443 117 143 8 37
337 106 310 101 30 41
233 408 258 81 66 50
339 108 313 97 25 30
234 408 273 67 57 46
399 733 378 76 61 47
227 411 283 61 52 41
395 866 345 47 41 38
371 401 218 72 64 55
225 414 286 55 27 31
300 83 313 106 62 54
393 708 223 40 29 33
230 410 283 61 54 45
300 28 294 133 52 51
376 648 254 148 12 46
354 400 258 73 62 51
351 338 202 102 86 68
357 81 341 111 34 41
358 238 223 127 99 67
285 284 274 147 103 78
355 403 182 101 86 69
414 757 256 59 46 43
236 405 276 74 62 50
253 598 287 112 13 31
269 543 193 81 25 37
446 421 182 64 32 26
320 11 232 79 61 52
444 483 199 54 17 25
234 408 283 62 54 45
319 278 186 123 94 61
368 399 223 73 64 56
247 483 300 117 11 39
386 554 280 86 20 44
291 536 165 172 15 43
294 420 128 87 66 43
238 406 283 65 56 46
339 922 353 63 57 55
240 405 283 71 60 49
331 38 303 110 24 39
315 799 340 141 98 74
310 268 189 123 97 65
234 408 288 66 51 42
393 463 258 65 26 36
371 707 290 78 23 33
361 749 356 51 40 35
312 78 335 108 74 65
349 218 234 123 96 67
291 144 285 105 87 68
244 393 273 114 91 66
364 401 248 71 60 49
360 218 208 121 96 66
454 428 158 111 22 29
334 103 212 123 97 67
329 683 189 46 37 38
349 658 298 63 26 31
268 211 261 104 91 78
249 393 278 115 91 66
401 535 161 41 36 32
444 419 193 51 27 22
314 523 153 143 10 37
246 394 276 115 92 67
409 788 228 162 108 83
457 791 346 79 63 52
248 398 279 110 88 65
314 273 186 124 96 63
252 392 280 115 92 66
292 888 251 124 100 76
254 393 282 116 91 66
295 351 230 77 56 38
250 400 282 104 84 63
241 507 292 145 12 49
252 396 280 113 91 67
329 406 256 58 50 42
289 963 313 62 59 60
285 328 204 85 65 42
329 399 323 80 40 30
255 400 288 95 78 60
409 733 208 155 110 83
243 402 278 96 78 60
399 743 319 60 45 36
244 403 283 78 65 52
249 703 328 142 101 74
379 868 323 59 52 53
309 383 179 88 77 67
250 463 302 144 1 44
311 194 288 128 96 64
357 502 326 163 12 52
332 825 400 71 55 44
247 401 280 100 81 61
401 553 253 181 17 57
363 688 292 101 17 34
382 742 316 78 53 52
249 402 288 75 63 51
323 78 222 122 59 48
302 70 320 112 24 42
270 463 327 137 15 46
239 408 298 101 29 36
266 684 258 128 5 37
259 593 308 147 14 47
390 568 268 175 16 55
237 414 295 136 11 37
236 411 296 157 0 52
316 586 180 196 9 47
297 11 303 76 52 52
297 520 156 115 18 26
311 203 213 99 82 65
244 404 293 66 56 46
242 406 295 61 57 52
321 170 226 95 80 65
245 405 298 64 56 50
244 408 303 96 19 33
249 404 298 64 57 50
246 405 302 73 53 33
304 10 261 96 60 50
344 73 214 90 33 27
469 493 128 168 119 105
249 404 303 66 57 47
307 233 213 85 73 60
309 866 352 38 34 34
289 958 258 83 77 81
354 504 141 137 7 32
283 308 213 82 67 52
241 409 301 56 25 27
241 412 301 40 31 32
384 404 247 105 21 31
384 723 329 57 38 31
400 855 343 79 65 54
244 413 304 50 26 33
341 609 305 59 29 34
322 104 340 132 29 54
374 473 124 100 27 37
254 402 298 66 58 49
325 135 306 106 76 56
375 858 308 57 49 50
379 505 141 145 8 36
254 402 303 67 58 49
289 157 281 105 88 70
324 410 145 96 81 65
329 103 214 123 100 73
247 406 305 107 37 33
263 544 232 147 14 41
366 883 268 53 46 48
271 653 254 88 23 38
359 97 240 103 71 56
390 859 349 62 53 48
246 409 306 142 8 45
346 37 222 105 92 79
339 308 233 129 102 72
248 413 308 123 14 41
389 413 168 94 64 53
268 863 273 160 126 98
312 20 299 94 59 60
405 538 218 110 16 38
263 263 289 138 102 76
209 478 264 84 23 34
250 404 308 70 53 43
334 823 329 37 32 31
328 367 240 96 74 50
373 838 352 40 34 32
444 478 158 94 18 38
338 257 236 132 100 70
341 109 316 110 19 32
354 75 245 113 74 67
254 403 313 66 54 44
252 408 314 64 44 39
375 85 216 152 21 45
254 408 318 66 38 37
287 147 288 101 85 70
251 413 312 95 17 36
372 811 325 51 46 44
252 413 314 70 22 31
304 964 263 92 88 92
355 268 218 129 94 68
381 765 320 55 43 39
225 418 286 82 20 35
306 238 198 109 90 70
390 463 324 144 28 51
334 422 113 94 81 61
229 418 289 136 5 46
419 463 121 75 27 36
364 883 222 108 86 70
326 366 240 97 74 51
226 422 286 140 14 45
434 743 418 107 90 75
229 423 288 132 7 42
414 730 282 71 52 42
227 425 285 109 8 28
330 83 297 100 30 34
227 429 285 100 19 36
354 523 325 163 14 51
299 268 263 131 95 67
407 709 201 148 104 74
280 893 352 56 50 49
294 383 182 87 75 62
379 563 293 177 13 55
228 433 284 124 8 42
292 337 225 66 51 35
264 653 302 133 93 69
319 308 240 134 101 77
339 428 328 168 8 54
414 448 118 152 6 34
314 22 298 104 55 56
379 729 337 58 48 41
228 438 284 149 0 45
264 252 242 107 92 78
386 440 116 154 12 37
345 228 235 124 97 67
231 438 286 149 0 48
268 663 283 71 45 45
290 878 250 132 107 82
225 443 281 151 0 45
229 443 283 152 0 47
444 498 200 55 21 28
226 446 281 146 0 46
382 43 225 99 32 33
344 193 195 119 98 74
231 441 286 151 0 46
234 438 288 148 0 46
294 683 316 62 29 35
264 285 225 99 84 68
372 873 274 56 50 52
334 85 341 106 91 76
309 223 278 126 96 63
308 233 273 127 96 64
364 498 138 77 32 38
234 443 287 152 0 46
297 324 242 92 67 48
339 288 189 123 94 63
233 448 285 149 4 48
258 483 314 136 6 42
336 854 321 32 29 30
341 48 250 125 22 45
263 453 318 142 13 46
231 417 291 137 4 42
354 98 214 100 52 41
232 424 290 93 12 34
329 513 147 174 0 36
414 758 398 91 75 64
237 418 295 149 3 48
348 323 223 123 94 67
355 98 333 121 32 46
272 692 236 45 37 40
265 622 306 122 27 45
361 128 223 120 93 61
238 423 294 129 13 40
194 568 278 157 116 89
289 853 303 129 100 76
240 428 297 78 25 35
236 436 291 146 0 46
419 418 168 93 20 30
237 443 290 154 0 47
364 873 350 39 35 35
403 440 116 147 7 37
240 443 292 152 0 47
251 436 306 119 11 38
375 778 377 69 55 44
271 643 254 85 26 38
238 448 289 150 1 46
242 418 300 94 11 33
243 423 299 122 14 41
349 238 189 126 99 66
281 437 125 80 26 34
248 423 304 109 16 38
294 416 142 85 67 49
315 870 328 36 33 32
369 903 344 64 54 56
320 158 222 110 89 67
246 428 302 67 27 30
246 416 306 93 21 41
265 613 258 105 18 39
451 476 150 69 15 24
249 418 308 138 11 44
308 877 333 46 40 38
255 423 313 70 25 33
478 434 168 140 26 42
255 418 318 62 30 33
358 783 182 144 108 69
256 422 317 42 30 29
267 682 264 127 3 36
251 428 306 48 29 30
344 183 197 116 96 74
307 43 335 103 33 44
349 446 115 69 33 34
392 882 350 65 56 49
376 38 225 85 33 30
307 143 285 115 90 58
209 558 274 67 27 32
344 399 318 68 50 33
253 428 308 77 26 35
349 414 138 101 85 69
424 568 149 173 113 85
254 433 308 86 24 36
288 318 253 117 86 56
372 512 321 180 9 57
295 353 189 90 76 60
264 533 208 91 26 37
302 82 297 100 81 62
379 518 318 129 22 45
242 435 295 145 13 46
341 843 328 45 41 40
394 408 244 94 23 36
242 438 295 148 1 44
446 727 286 82 57 44
344 663 303 107 21 39
289 419 133 84 61 45
335 120 210 114 95 75
244 438 298 144 5 45
260 364 210 77 65 52
247 438 300 151 4 47
243 448 294 153 0 46
225 558 287 55 24 30
194 548 272 137 108 83
264 803 344 174 122 97
189 553 247 167 116 92
254 608 304 143 20 48
283 454 131 171 0 39
245 443 297 149 0 44
247 443 300 155 0 47
252 574 272 40 28 32
245 448 297 153 0 47
320 68 224 131 24 37
402 434 241 66 21 29
319 193 197 117 97 75
252 448 304 109 15 39
386 518 299 156 19 48
399 740 265 84 69 57
254 438 308 119 22 43
382 728 291 101 67 60
332 323 185 89 78 68
252 440 305 143 13 39
252 443 305 85 17 31
312 258 225 73 63 53
266 467 155 169 5 44
255 448 308 88 24 36
309 38 253 123 31 50
196 463 261 35 25 27
403 568 172 102 21 30
400 728 288 69 46 41
202 455 265 144 8 48
356 940 281 65 59 58
203 458 264 130 11 44
304 553 168 82 27 39
311 47 251 122 7 43
204 463 264 85 18 33
205 458 266 142 7 43
264 753 349 169 124 95
395 748 328 56 41 37
209 463 267 130 6 39
320 137 323 112 44 53
315 78 337 114 27 45
452 729 281 81 59 42
196 472 261 36 24 30
463 492 198 49 21 28
298 323 238 69 54 38
199 473 261 31 27 27
194 478 259 67 23 31
200 478 261 44 26 28
287 830 317 124 78 60
322 158 225 107 88 67
312 109 330 101 69 58
361 367 218 114 91 66
364 409 298 54 46 39
363 597 291 127 24 49
338 390 170 97 84 70
204 468 263 46 27 30
296 347 254 112 87 59
353 823 353 55 46 42
185 561 250 204 139 109
335 18 233 85 74 64
204 473 262 32 27 27
375 564 162 187 0 38
207 464 265 110 9 40
324 93 293 103 41 38
392 603 222 158 21 52
318 622 316 57 30 31
234 552 290 88 22 37
208 473 264 44 23 27
212 455 270 112 9 41
389 834 203 217 146 117
312 50 250 126 14 46
443 759 343 85 67 53
404 798 178 169 114 83
213 458 269 124 11 42
343 79 332 111 73 63
215 458 271 65 22 34
292 128 298 111 92 72
349 538 324 156 21 53
282 323 206 73 58 43
409 548 163 52 32 28
218 453 274 132 9 43
394 688 348 82 60 43
220 452 276 91 12 34
227 458 280 88 22 35
412 633 159 158 109 74
377 878 284 58 51 53
391 628 164 137 101 69
224 453 278 102 18 38
406 533 253 39 28 34
411 761 251 70 41 45
305 58 332 114 30 47
302 30 247 137 84 73
352 626 180 56 38 36
300 27 257 151 22 57
299 163 311 127 99 72
356 46 222 95 86 77
274 673 307 49 34 33
214 549 263 153 2 34
389 428 114 95 28 30
219 463 273 46 26 29
259 788 344 169 117 91
341 954 304 63 60 62
344 488 133 162 1 35
324 313 184 96 82 67
427 558 189 126 11 36
321 144 302 117 90 60
283 724 333 137 100 74
349 38 228 95 84 73
222 459 275 98 29 40
338 28 218 88 75 61
333 252 186 120 96 67
339 558 164 168 1 36
221 456 276 74 22 35
310 58 243 128 26 48
224 458 277 100 19 38
297 342 230 67 49 32
292 884 251 137 109 83
317 79 232 115 70 52
351 707 310 57 20 23
350 47 244 88 27 34
259 873 298 94 72 56
328 198 234 87 72 57
421 563 179 115 63 61
294 422 118 81 56 41
400 738 392 68 54 41
222 463 275 77 31 40
305 273 194 119 94 64
407 484 219 120 14 39
210 468 267 108 20 40
214 468 269 64 24 30
211 476 266 95 16 30
259 493 183 165 5 41
212 479 265 84 27 34
339 448 329 157 12 50
271 508 326 143 14 46
369 98 239 121 16 44
219 478 269 95 14 34
241 493 292 142 1 42
400 553 258 122 25 45
287 259 240 100 80 57
221 477 271 87 27 36
340 819 437 81 67 52
304 947 337 72 64 60
364 438 114 90 27 36
339 158 202 119 97 73
222 468 275 71 21 32
334 918 228 80 71 70
358 918 308 67 60 61
306 391 275 71 62 53
225 468 277 107 28 43
244 558 248 195 4 48
269 878 259 153 120 89
265 224 255 105 92 78
320 304 185 107 88 67
272 548 191 157 7 38
359 428 334 60 25 31
409 773 353 86 70 55
223 473 274 101 25 41
194 483 258 93 18 35
204 527 224 208 12 48
357 907 250 65 56 55
280 175 275 104 90 78
274 223 298 121 96 70
389 668 168 143 111 80
194 488 258 91 17 34
264 693 273 102 5 35
246 478 297 64 23 30
440 529 143 218 140 116
449 503 126 82 42 35
194 493 258 110 12 38
373 712 308 73 60 52
279 173 278 101 88 74
204 488 261 85 16 34
354 420 115 102 80 61
259 918 333 47 43 44
209 483 263 69 18 32
439 508 182 66 22 33
209 488 263 101 10 34
334 848 236 149 118 89
384 849 236 89 67 56
309 509 146 139 16 40
324 353 183 87 77 68
296 25 326 99 47 45
373 618 267 64 26 35
204 493 262 122 9 40
469 433 206 40 29 28
305 898 238 67 60 57
280 752 240 85 65 60
194 503 262 123 7 39
317 206 196 118 97 74
199 497 260 125 10 42
334 398 313 60 50 36
433 733 274 100 79 61
344 123 235 114 87 59
337 601 311 102 22 35
294 123 298 111 91 71
354 416 123 103 86 70
199 499 261 128 10 43
198 563 254 148 99 76
196 500 261 128 13 44
275 703 228 48 36 39
194 507 264 121 8 38
264 313 214 85 72 59
329 224 190 116 94 71
414 753 393 109 87 66
265 270 230 103 90 77
198 506 265 122 7 37
284 458 342 129 19 43
219 483 268 74 21 32
376 830 304 58 47 47
230 678 293 192 131 101
260 382 215 74 61 48
204 503 264 124 7 40
207 502 265 126 8 40
302 277 196 112 90 64
269 283 282 154 106 83
209 503 268 123 5 39
271 573 208 157 4 39
202 506 265 122 5 40
325 407 253 60 50 41
221 526 276 155 11 52
324 98 218 121 85 62
261 731 245 185 10 52
184 533 267 142 115 87
256 416 321 50 31 30
357 354 217 116 93 67
274 718 339 137 104 70
203 512 270 124 7 38
206 505 266 123 5 41
322 393 250 56 47 36
309 863 244 138 113 88
209 513 272 127 8 41
283 693 222 58 36 38
352 143 231 113 87 58
333 53 303 106 35 39
214 588 289 138 106 78
213 488 265 102 17 40
384 78 233 128 12 45
309 598 188 179 3 42
216 488 266 102 19 40
279 238 299 140 104 76
341 56 250 123 24 49
358 50 219 85 76 67
213 492 265 125 6 40
358 138 218 114 92 66
459 829 354 81 65 53
215 494 266 125 6 39
299 213 259 111 91 67
241 512 287 113 12 39
269 399 209 66 54 40
194 538 238 85 32 36
416 762 205 172 121 89
219 488 268 97 17 37
224 483 272 76 24 34
357 901 237 74 66 63
365 750 349 46 38 34
339 172 235 104 84 60
222 484 270 65 16 27
222 489 270 130 11 46
224 488 273 112 15 40
330 870 390 61 55 52
277 749 241 107 50 52
449 803 349 77 64 53
339 143 205 117 96 74
406 668 184 136 90 59
290 358 274 111 88 63
309 533 158 100 27 37
219 493 267 125 7 40
363 63 343 103 41 44
361 530 320 31 29 33
410 426 127 107 10 22
223 493 269 129 6 41
322 711 181 64 36 40
260 255 240 105 91 77
210 498 267 124 5 39
450 453 201 100 0 30
219 498 269 116 5 38
424 424 148 103 13 21
330 42 215 134 84 68
219 502 270 121 7 39
285 343 222 69 57 45
343 862 329 30 29 30
301 264 200 101 82 61
219 504 271 119 12 37
282 965 304 64 60 59
281 281 231 96 82 67
352 664 296 51 27 30
223 498 270 73 13 30
432 551 159 160 111 83
297 704 206 150 5 39
364 98 240 91 59 44
241 598 297 56 32 30
220 574 281 68 39 36
334 399 268 51 43 36
279 908 254 101 80 63
324 203 232 84 71 58
383 603 253 176 17 54
361 775 180 110 81 39
294 417 138 85 68 49
214 513 274 126 8 41
282 886 328 51 44 43
404 420 148 111 7 20
225 498 272 130 10 43
345 765 347 35 29 28
310 243 222 75 65 56
359 908 343 100 91 95
353 123 214 117 95 71
224 503 272 93 14 33
324 128 213 116 97 76
316 415 135 92 75 57
249 638 278 130 85 59
219 508 274 110 16 37
291 290 212 113 90 79
268 392 290 106 85 63
291 32 313 141 14 52
291 270 280 148 104 80
429 733 413 99 83 68
324 493 137 172 1 34
218 512 275 97 18 35
203 541 244 70 30 34
264 433 137 150 7 39
415 553 148 149 100 75
338 698 317 97 15 33
224 508 274 53 22 29
241 473 291 109 19 37
219 514 276 55 18 29
288 347 224 67 55 43
329 183 197 120 99 75
352 830 212 86 69 65
413 803 267 75 58 52
224 513 277 41 24 27
334 463 330 91 24 38
451 462 115 177 15 40
314 29 332 83 73 64
260 713 244 132 3 36
227 454 280 101 24 39
364 458 331 49 24 29
304 488 337 143 4 45
275 844 292 151 112 95
361 658 285 76 20 31
227 450 280 122 14 42
228 463 280 70 24 29
351 278 197 127 96 64
230 463 281 49 27 28
371 743 366 60 48 38
233 453 284 94 23 36
396 583 218 95 22 41
252 473 305 113 11 35
319 788 342 101 73 58
265 243 292 121 96 69
453 473 168 119 21 41
233 458 284 75 24 33
331 806 215 83 69 65
346 119 326 123 16 38
381 630 230 180 20 58
340 362 186 89 79 69
256 473 311 146 5 44
410 513 243 136 19 47
236 462 286 139 21 49
238 458 289 54 22 29
314 38 223 150 25 47
314 73 291 114 85 57
386 800 298 53 40 43
228 468 279 41 27 30
228 473 279 38 27 29
384 618 188 79 33 40
345 98 316 105 24 34
242 510 290 97 11 32
327 146 206 115 97 76
446 820 340 76 61 51
294 962 317 64 61 61
264 633 293 134 28 47
354 448 329 165 13 52
231 473 281 52 28 28
287 19 238 161 104 84
231 476 281 69 22 28
391 720 363 82 67 52
243 458 294 79 23 35
284 228 250 104 89 73
300 278 217 69 60 51
234 468 284 61 24 31
329 933 238 83 74 74
405 458 223 72 26 34
294 358 268 110 88 62
234 473 284 86 21 35
408 763 223 145 100 68
339 858 236 105 84 66
274 353 277 119 95 67
293 128 303 113 93 71
319 78 243 119 47 54
221 522 226 64 26 34
239 478 288 91 16 35
298 224 255 111 90 66
238 453 289 136 6 44
243 733 308 188 128 100
481 444 177 97 24 37
279 248 242 102 87 71
399 805 333 53 44 44
240 453 292 139 6 43
240 458 292 96 24 36
432 771 355 79 60 51
399 403 223 126 19 40
398 415 164 83 40 28
285 17 238 176 126 115
245 453 297 130 6 40
335 83 303 98 41 42
412 752 383 77 63 50
429 733 287 64 46 37
248 453 299 140 2 44
266 591 235 145 0 39
241 463 292 111 19 40
371 426 274 41 29 33
364 468 122 166 1 33
369 819 453 78 69 61
344 138 207 117 96 73
354 52 216 79 40 31
372 428 273 93 15 34
245 463 297 105 9 38
334 719 181 130 11 32
309 9 253 97 61 50
250 453 302 149 1 46
334 58 318 82 32 30
252 458 304 144 2 45
316 78 233 115 94 69
255 453 307 134 8 42
279 733 344 141 106 72
357 936 275 79 72 72
289 238 298 148 104 73
429 558 193 166 19 46
301 67 322 122 12 44
342 330 190 99 86 73
400 614 198 81 49 47
252 463 305 142 2 44
302 242 255 102 81 57
290 303 238 93 73 52
417 791 207 196 134 105
348 943 303 50 45 44
409 480 126 116 28 37
241 467 291 119 14 42
354 495 136 165 11 39
280 383 217 66 54 42
352 922 254 65 59 60
243 468 294 89 18 35
319 57 252 125 85 73
243 473 293 110 21 41
333 98 304 110 21 37
409 598 153 143 102 63
313 198 218 93 78 63
354 88 212 121 42 40
248 473 300 76 21 36
282 363 219 73 61 49
348 89 210 128 25 32
394 404 243 96 20 36
372 567 301 177 12 56
243 478 293 111 18 40
346 218 235 122 96 65
458 508 162 156 110 99
429 758 283 62 48 40
381 672 217 44 28 34
250 468 302 146 1 44
301 788 245 80 63 61
359 108 238 115 79 61
250 473 303 86 17 36
258 338 211 81 69 57
252 468 305 148 3 45
329 98 243 129 57 65
434 473 193 109 3 32
254 468 308 136 8 44
304 977 293 54 51 51
251 480 306 30 28 31
225 493 272 145 6 44
332 53 313 99 26 37
361 228 218 122 96 63
256 433 311 85 23 35
350 253 192 127 98 64
227 488 275 75 19 32
379 438 337 170 5 53
229 483 277 116 13 40
384 848 328 58 53 54
227 493 275 144 6 45
304 623 318 147 23 51
405 758 368 69 54 45
283 373 219 70 58 45
352 277 221 136 101 78
319 873 242 122 101 80
407 668 169 177 118 89
275 198 296 119 97 72
319 868 242 132 108 86
444 458 118 170 13 39
289 313 198 103 80 58
394 598 218 90 19 36
229 493 278 125 14 43
288 693 217 85 30 37
232 483 280 131 13 40
294 313 233 68 56 44
360 123 228 128 96 69
188 561 250 191 131 104
324 68 249 120 34 50
439 434 128 109 16 27
353 83 339 114 32 40
234 488 283 92 21 36
383 758 328 50 40 36
275 393 193 66 55 44
278 203 299 118 95 70
234 493 283 61 19 30
251 498 306 39 26 30
344 415 133 101 85 68
325 97 242 124 53 59
400 753 262 61 49 39
406 456 226 81 34 41
302 267 215 75 67 58
238 493 289 133 4 39
322 843 241 150 123 98
426 578 158 166 114 84
227 498 275 157 3 50
296 234 295 147 104 74
441 854 338 90 69 56
357 409 179 103 88 72
229 498 278 155 4 51
380 554 152 75 31 39
230 503 277 142 1 41
227 507 275 65 13 28
320 78 224 118 70 52
334 623 180 80 35 40
402 704 331 75 55 43
329 433 327 114 27 45
363 903 308 59 52 55
229 508 277 92 9 32
324 867 323 29 28 28
359 78 212 96 39 33
384 404 338 84 42 37
314 308 239 129 97 75
408 776 394 92 75 62
303 383 277 77 67 56
232 499 280 135 2 34
455 473 173 91 20 32
280 303 222 89 76 62
233 503 279 155 2 46
296 104 303 108 28 39
362 117 227 134 100 71
280 937 240 81 70 68
234 498 283 142 7 48
282 799 282 81 68 64
235 503 283 171 1 53
219 523 276 165 11 53
387 492 321 27 29 29
324 253 234 99 78 55
238 498 289 135 2 41
335 298 234 131 101 75
297 841 273 74 60 45
307 15 298 89 63 65
331 42 320 114 99 83
444 468 197 98 0 29
238 503 288 159 4 51
374 713 288 96 24 34
310 78 290 112 29 33
363 50 232 97 86 75
252 535 236 55 30 32
274 358 212 70 58 45
237 504 285 173 1 54
271 687 315 125 94 67
470 426 193 41 29 27
326 945 330 59 56 56
401 584 165 127 84 59
267 298 220 95 82 68
233 513 280 130 4 41
235 508 282 145 0 43
302 248 259 118 90 60
340 42 250 111 23 42
393 418 332 157 14 48
297 11 236 181 136 134
387 495 296 148 18 47
397 720 231 124 14 43
240 508 288 132 10 44
329 399 293 65 56 48
339 596 165 106 35 43
309 396 308 69 61 51
315 164 304 137 98 74
324 733 180 148 15 42
240 498 292 110 8 37
283 697 315 70 34 36
384 83 228 136 19 51
391 600 175 102 72 57
241 483 291 136 9 46
437 547 197 152 19 44
359 243 203 125 96 62
405 730 275 70 53 45
247 493 300 89 14 34
251 488 306 147 2 46
299 333 247 105 76 54
364 618 181 72 35 40
269 623 253 123 21 42
414 783 273 65 51 45
317 157 306 137 98 73
339 117 236 126 92 67
309 18 298 92 62 64
390 598 179 77 34 32
330 368 181 88 78 68
254 698 329 137 100 71
253 483 308 100 18 38
304 368 183 87 77 67
339 728 323 39 25 24
389 803 326 63 53 47
253 488 308 146 2 44
256 493 312 128 13 38
263 238 289 117 95 71
329 78 248 134 35 55
382 517 316 84 22 36
439 429 143 107 13 28
358 118 219 112 90 65
310 870 322 59 49 42
351 313 208 122 95 68
242 503 294 69 26 33
410 473 203 89 20 34
315 68 233 133 36 49
245 498 298 118 16 41
344 848 377 78 62 54
458 483 117 122 88 74
441 451 115 175 14 28
319 837 317 38 32 32
329 397 268 56 46 37
247 498 300 45 25 28
352 40 231 98 86 74
249 498 303 41 28 32
317 121 290 109 82 54
247 503 300 41 29 29
244 513 293 67 23 34
266 528 193 36 31 34
359 502 140 109 16 34
308 253 192 120 96 67
259 423 138 142 32 40
386 692 254 114 29 45
322 114 230 130 97 76
245 508 298 49 28 30
246 512 297 55 28 32
439 728 284 98 59 51
345 939 314 55 50 49
451 458 201 101 0 29
249 508 303 92 24 37
269 399 333 99 30 34
322 868 241 133 109 86
250 513 303 49 29 29
218 518 225 61 29 29
158 524 227 137 24 47
376 15 224 83 47 45
334 503 334 105 27 43
334 243 187 118 96 70
256 498 312 86 27 37
253 503 308 123 20 44
314 398 243 55 45 34
357 388 236 118 93 66
256 503 312 91 29 38
441 759 352 85 65 50
349 882 371 50 43 40
399 842 354 65 55 48
251 512 306 39 27 28
264 628 273 150 8 39
285 279 279 147 101 79
418 598 154 158 108 70
400 718 171 144 98 58
332 576 321 43 31 31
345 875 220 65 50 45
340 388 245 106 86 65
279 868 255 122 100 78
347 85 324 93 74 51
253 508 308 70 22 32
344 548 323 135 26 49
276 840 284 100 81 62
256 508 312 68 24 31
351 87 332 87 58 39
307 975 276 72 68 67
285 14 238 179 126 117
319 38 291 125 37 43
346 121 211 125 102 75
363 378 199 101 87 72
289 12 238 179 127 118
402 687 170 164 106 76
325 11 248 94 76 60
304 593 326 76 25 34
298 479 136 67 32 35
280 14 248 128 53 54
377 526 316 67 23 32
308 78 291 118 33 35
155 517 225 44 35 40
338 268 185 129 99 63
284 13 243 164 102 89
424 593 163 163 114 82
406 810 223 171 113 88
331 785 346 32 28 27
296 441 330 54 31 32
281 14 245 150 80 71
395 588 218 163 21 52
279 188 298 119 95 70
269 648 278 118 21 44
274 398 208 62 51 40
413 493 203 153 11 47
289 873 363 50 45 43
284 12 248 140 76 69
292 465 131 148 22 52
277 300 220 91 78 66
358 153 213 112 92 70
283 11 253 124 56 57
364 563 154 162 0 35
402 463 246 95 20 37
324 406 152 95 81 66
329 108 214 120 99 76
359 128 228 124 94 66
285 10 253 125 58 58
362 906 335 122 113 118
294 958 258 89 83 87
305 38 248 131 26 49
289 10 253 127 67 61
334 102 242 143 101 86
280 18 253 135 85 62
279 313 218 81 67 54
371 428 278 46 29 32
443 435 130 111 12 23
324 58 253 117 60 59
342 79 319 53 35 25
354 838 348 40 35 34
281 17 249 134 62 51
462 440 134 118 36 31
293 156 281 108 89 67
334 393 249 81 67 52
284 19 248 168 111 97
367 894 270 53 45 48
282 20 251 166 113 94
310 773 345 153 105 77
323 108 233 130 98 76
329 118 338 152 16 58
406 569 164 125 75 62
335 103 308 105 42 44
284 22 253 193 140 147
285 21 250 184 137 115
344 253 234 131 101 72
299 348 233 76 56 38
449 426 163 101 23 30
289 23 253 159 110 92
397 578 223 44 25 31
320 88 223 111 79 59
294 18 224 140 73 79
421 770 366 75 60 50
299 898 245 99 84 69
359 72 246 112 36 49
239 544 236 123 21 39
338 43 251 113 32 48
297 367 186 88 76 63
295 22 224 140 19 41
411 827 241 83 64 53
297 18 221 146 112 111
438 726 291 78 57 46
354 68 247 113 29 45
399 477 125 70 32 40
299 23 223 151 22 45
404 738 174 136 95 60
375 448 278 132 7 41
300 22 220 155 20 44
339 98 347 113 28 44
260 508 317 146 14 48
319 58 223 116 69 53
304 27 223 153 32 52
419 743 398 89 71 57
372 778 375 66 52 42
309 12 223 83 51 41
309 9 243 109 78 69
344 167 201 114 95 73
346 812 346 47 40 38
373 668 193 90 42 28
264 953 288 66 62 62
314 12 223 79 47 36
269 308 217 89 76 64
319 12 223 77 48 38
313 233 192 119 96 70
310 18 215 149 21 21
311 22 215 145 13 32
414 728 398 78 61 44
372 111 228 151 98 98
385 759 325 47 37 34
309 23 217 147 39 49
310 27 219 140 72 65
317 198 225 88 74 61
354 416 128 102 86 70
398 816 271 65 52 50
274 618 312 161 24 55
329 68 251 123 53 57
479 433 173 115 25 43
271 895 321 112 85 67
239 648 307 157 114 87
306 26 220 156 25 43
307 222 265 110 88 63
340 875 229 55 49 55
260 330 271 124 96 67
436 428 196 106 6 34
358 183 226 124 97 65
308 29 222 143 53 57
219 563 279 101 15 35
310 33 223 124 55 52
386 68 233 109 20 41
382 669 224 60 29 35
194 568 253 170 117 89
334 399 273 58 48 38
407 734 211 146 103 79
260 528 218 100 17 35
314 19 215 131 33 23
375 48 228 92 75 71
319 23 214 125 32 29
295 617 204 59 31 37
319 63 248 127 94 77
311 250 190 123 97 66
314 16 216 110 41 26
465 482 143 88 60 44
361 233 218 122 95 63
427 777 264 69 53 48
328 962 259 87 81 83
469 432 163 99 28 39
314 877 386 63 56 53
334 38 253 104 28 42
260 578 311 132 14 44
402 728 298 64 45 37
320 16 216 76 43 37
318 178 202 114 96 77
315 26 215 130 74 61
266 603 311 169 18 53
310 874 333 42 38 36
359 107 241 108 58 54
312 24 216 142 22 37
334 753 184 149 15 42
334 388 247 89 73 55
383 87 228 142 20 53
267 197 278 111 93 75
384 828 183 236 164 138
292 19 301 159 122 121
362 429 335 42 29 29
314 33 219 150 27 47
318 30 216 143 90 79
319 33 217 132 69 58
371 738 366 55 44 35
357 198 199 122 98 72
293 222 301 146 105 72
294 12 233 182 138 136
292 25 243 157 117 90
292 304 236 78 64 48
293 11 238 183 134 129
319 399 323 112 33 38
298 11 232 165 125 125
310 203 283 127 98 64
384 678 169 128 101 70
304 11 228 111 80 76
304 9 238 141 106 102
304 333 189 86 75 64
254 733 258 90 27 40
361 822 190 209 155 128
269 453 143 75 32 36
344 328 193 102 87 73
290 10 244 167 111 96
349 798 193 128 95 75
294 10 243 169 118 108
246 728 331 163 111 85
292 11 241 176 124 113
294 403 183 88 73 57
236 670 311 136 98 69
408 783 178 159 110 76
294 9 253 120 70 61
288 171 276 100 86 71
299 9 243 158 115 109
394 778 169 134 98 58
379 404 208 80 62 50
339 218 238 111 88 61
270 612 311 154 19 51
304 9 243 136 100 95
299 8 253 110 68 60
359 458 118 123 16 34
291 18 229 180 139 138
371 570 300 172 15 58
291 21 230 140 102 74
294 23 228 145 43 54
326 133 210 117 97 76
290 22 238 155 104 81
429 543 168 163 111 98
385 721 347 75 65 55
398 648 201 152 110 79
375 863 278 59 50 52
295 26 233 155 34 56
298 884 327 92 71 60
289 242 246 100 82 62
355 98 328 112 32 38
473 437 206 100 12 37
292 25 238 141 105 78
296 821 279 152 108 85
229 578 287 69 26 32
348 253 189 129 99 64
290 492 145 51 32 40
355 348 213 117 94 67
327 814 223 176 128 106
305 38 243 143 23 51
340 528 330 170 16 54
369 903 377 62 52 45
299 27 233 160 19 53
331 184 236 92 75 57
419 558 201 77 23 32
314 593 184 174 3 37
409 558 204 60 26 31
299 27 238 149 60 64
290 23 243 148 103 76
309 328 187 88 75 62
430 426 147 103 11 20
299 27 243 160 73 73
359 52 217 79 59 42
443 521 130 225 149 131
358 818 193 203 153 124
303 73 323 115 88 72
429 713 383 108 84 62
304 492 140 69 30 36
309 138 287 110 87 58
420 748 408 105 88 71
302 29 243 139 103 82
334 68 251 114 68 62
304 33 243 127 56 56
405 828 236 67 55 49
371 836 355 46 40 39
252 570 263 139 10 38
302 30 254 149 27 56
362 911 371 65 57 52
310 389 174 87 76 66
382 860 325 66 59 59
291 881 250 138 111 84
305 32 253 137 65 67
324 128 298 110 76 58
290 782 253 82 65 61
315 117 331 125 30 51
222 563 270 37 31 38
344 627 180 145 19 39
439 422 168 93 26 27
309 11 227 87 58 49
291 771 245 84 66 60
306 10 230 107 78 73
359 168 223 123 96 63
417 739 270 69 56 48
290 423 333 105 20 37
309 10 238 109 82 74
334 716 180 126 12 33
369 87 241 125 18 47
194 588 263 198 129 102
321 126 226 122 95 70
314 11 228 79 50 40
314 208 197 115 95 74
378 863 297 52 42 44
276 513 331 158 19 49
314 10 229 81 53 43
379 53 234 81 34 33
264 298 219 96 81 66
319 10 238 85 70 57
268 653 288 88 46 49
362 400 257 73 62 51
239 693 318 149 104 76
359 893 214 98 80 68
342 415 330 161 19 51
325 129 302 104 60 47
401 422 240 139 12 41
348 592 164 119 31 40
319 10 243 91 73 59
416 633 168 176 122 92
319 407 152 95 80 64
379 663 253 105 21 40
408 798 228 157 109 84
304 248 273 134 98 68
302 379 235 72 55 39
359 698 189 79 29 32
319 10 253 97 66 51
305 33 233 112 47 48
319 38 218 152 20 46
319 405 155 95 81 65
362 373 209 108 90 69
315 42 224 133 101 73
306 313 236 73 56 34
309 298 188 119 92 60
343 853 333 38 34 35
354 93 242 97 59 47
308 778 228 84 68 63
318 43 222 132 104 79
319 48 222 130 51 50
406 522 255 161 14 49
307 35 233 136 30 51
324 556 165 131 24 41
334 673 313 67 26 32
289 473 342 143 17 44
307 212 291 139 102 72
355 383 192 98 86 74
308 38 233 138 21 45
342 853 325 35 30 31
329 850 300 64 45 35
354 453 329 162 13 51
306 37 239 147 21 49
421 613 173 158 114 82
275 438 337 63 28 34
299 258 253 112 85 58
346 944 308 57 52 50
307 38 238 133 28 43
344 198 236 109 86 59
420 769 363 74 57 48
309 48 238 120 89 65
269 223 254 106 92 77
419 593 154 158 106 70
319 98 228 124 100 74
368 830 192 218 156 127
312 39 227 135 44 49
312 45 231 125 23 36
298 328 191 86 74 60
312 49 231 138 15 43
458 497 201 69 23 31
462 474 107 52 32 37
316 48 225 128 56 52
364 402 323 79 44 36
294 191 266 107 89 70
307 40 242 125 28 38
339 353 187 90 79 69
308 34 254 117 75 69
275 622 311 99 21 34
383 53 232 89 22 31
305 924 227 92 80 78
302 855 306 98 76 57
306 36 251 120 95 78
364 508 144 127 22 39
370 109 222 138 32 45
375 428 302 93 12 36
383 864 325 66 58 57
307 43 243 130 94 71
357 100 215 107 44 34
395 478 268 43 27 30
344 422 113 107 77 58
360 103 216 125 29 34
381 466 280 81 22 36
306 41 246 122 22 34
329 653 312 128 20 43
332 131 331 149 23 56
256 588 273 90 26 35
357 203 199 122 98 72
303 393 177 87 75 64
376 863 282 55 47 51
309 48 243 128 98 75
307 15 302 61 51 51
307 43 296 127 20 35
310 48 248 114 57 56
312 39 255 129 20 49
310 58 238 131 28 44
269 398 328 76 46 36
360 763 366 61 47 39
311 62 238 142 22 47
349 938 263 78 69 70
314 53 228 133 56 53
263 583 248 154 0 42
314 688 320 120 24 43
444 426 158 104 17 25
313 58 233 120 83 61
316 62 230 126 96 69
283 273 234 100 82 63
376 628 254 170 16 53
317 59 226 128 102 75
329 373 181 90 79 69
317 171 215 109 89 66
317 63 227 122 91 68
299 473 133 135 17 39
312 60 236 119 49 44
268 478 157 50 31 36
312 64 238 141 24 49
351 338 219 120 94 64
358 213 199 119 95 68
311 57 246 118 14 38
311 61 241 140 18 48
349 488 329 154 13 47
348 852 344 40 35 36
314 58 248 126 84 73
354 43 233 100 88 76
286 618 214 142 18 43
312 60 245 127 78 69
472 467 184 184 18 50
322 103 290 83 65 48
431 522 178 51 27 32
314 63 243 128 65 64
296 752 230 75 60 56
364 412 158 103 82 69
202 520 270 181 21 62
352 148 231 114 89 59
266 923 264 69 64 66
409 412 178 92 34 28
315 62 247 133 95 81
383 483 326 69 28 36
394 753 323 52 39 34
279 846 272 108 87 62
288 308 220 73 58 45
284 338 203 90 69 45
402 709 302 63 45 35
322 500 336 39 30 37
379 33 223 86 27 27
364 93 215 137 26 36
420 762 417 95 78 63
459 453 143 101 25 35
316 68 230 129 29 40
349 103 243 109 46 49
317 73 228 130 33 47
359 113 233 124 89 64
320 73 224 134 23 41
404 448 119 156 0 34
365 402 197 105 89 74
318 688 191 88 24 30
313 153 289 102 83 62
374 63 214 110 43 26
316 73 230 116 69 55
306 233 207 95 80 64
429 912 394 66 53 45
318 78 228 121 34 42
393 788 293 49 39 41
465 472 100 41 37 44
213 589 265 145 99 75
316 78 238 118 94 68
257 540 236 92 20 37
317 79 240 111 91 68
315 476 130 97 28 42
299 183 308 135 99 72
467 432 205 38 26 28
308 238 218 76 66 56
319 68 247 119 83 70
318 73 244 115 39 50
320 73 247 127 19 47
318 88 228 111 56 48
338 402 330 132 18 38
317 88 233 132 22 47
329 133 328 148 21 57
352 155 205 115 97 78
316 83 234 114 72 56
288 494 340 164 19 51
329 471 125 91 30 34
316 83 237 113 82 63
319 937 342 51 47 47
464 513 143 197 131 113
319 298 186 114 91 65
284 578 194 179 10 45
345 939 257 81 74 74
374 63 243 97 29 36
294 14 308 74 54 47
316 86 234 130 21 43
348 755 326 37 28 26
324 12 253 99 73 57
394 623 198 72 56 49
384 543 298 151 24 51
320 93 223 128 35 47
299 323 229 55 42 27
369 83 213 149 19 40
307 102 325 101 23 37
235 562 274 103 27 36
318 93 233 123 63 58
269 398 308 70 60 51
320 93 238 124 30 50
356 406 181 102 87 71
320 98 233 129 101 76
320 103 228 125 100 75
320 103 232 129 98 75
316 178 204 112 93 74
424 503 194 126 1 39
299 753 342 132 97 67
301 362 259 98 77 52
324 13 223 80 54 45
274 353 214 71 59 46
333 927 234 77 68 68
244 550 241 52 27 36
264 415 173 80 59 38
327 15 219 90 50 41
324 698 322 113 20 39
324 18 214 130 31 21
354 458 118 103 28 37
323 58 336 117 99 80
324 23 214 116 32 27
280 917 351 54 49 47
293 318 243 109 81 57
327 19 215 104 34 23
324 16 216 112 39 29
303 243 258 110 86 58
334 928 338 57 53 53
324 28 214 122 59 48
318 248 229 79 65 51
306 48 299 121 41 44
385 834 357 79 69 60
290 138 293 106 89 70
293 205 260 107 90 74
321 33 215 149 36 47
324 33 215 137 43 44
324 421 121 91 74 55
274 949 323 55 52 53
332 20 219 94 67 49
333 19 223 93 74 61
334 407 153 99 84 69
398 638 156 149 109 68
335 22 223 97 82 68
332 25 215 85 42 21
334 28 215 98 45 31
335 27 217 76 53 33
379 68 213 125 40 35
338 34 215 79 31 24
275 658 243 109 23 38
257 232 257 103 89 75
319 93 338 106 78 68
341 31 221 106 93 81
297 112 296 107 89 70
309 73 333 113 34 47
276 451 135 67 26 38
342 298 226 133 97 75
371 740 175 146 102 71
242 723 323 171 116 92
344 33 223 104 91 78
271 696 325 130 98 67
324 12 228 80 61 51
263 623 304 58 25 31
329 14 228 82 66 57
229 613 268 144 101 76
429 738 408 98 81 67
329 13 233 79 68 59
360 411 158 103 85 71
269 598 313 76 25 36
339 93 245 109 74 59
322 10 238 84 71 59
324 11 238 82 70 59
284 172 276 104 90 75
282 301 266 138 98 73
323 10 243 90 74 60
297 773 241 80 64 59
314 283 187 122 95 62
325 11 243 88 74 61
346 348 191 96 85 74
406 584 155 138 98 63
324 833 319 34 29 30
319 283 235 112 85 63
344 178 235 115 91 63
329 13 243 84 72 61
380 817 174 186 134 105
295 728 218 101 23 40
293 219 255 104 87 68
259 458 313 146 8 44
329 13 248 93 78 63
280 389 203 62 52 42
397 724 248 97 25 36
321 11 254 99 67 52
282 318 214 77 63 49
299 283 218 66 57 47
319 643 193 149 3 36
306 741 195 35 38 38
224 541 280 121 2 38
424 768 342 89 71 55
328 14 253 98 69 55
310 198 283 127 98 64
332 15 243 78 69 60
349 393 242 115 92 68
334 18 228 88 75 64
354 43 228 96 85 75
336 21 226 93 79 68
274 418 337 75 24 32
414 509 199 128 9 38
415 768 182 155 108 76
432 771 270 79 57 47
330 18 253 104 29 41
345 885 370 58 49 44
284 240 245 102 87 71
219 583 269 121 64 48
245 523 288 73 26 34
450 472 120 179 14 43
334 18 243 85 73 60
340 757 330 39 28 25
307 176 306 142 102 76
281 722 334 137 102 72
330 23 254 111 20 41
408 478 208 58 23 33
333 18 248 102 55 51
331 17 250 108 59 55
354 183 228 123 96 66
403 723 303 67 43 35
318 113 334 107 52 55
379 643 218 153 18 46
347 551 321 165 21 55
348 408 335 158 21 51
372 425 272 50 18 22
332 23 251 106 24 40
388 405 246 134 14 42
336 849 313 35 29 30
390 468 324 76 29 35
339 773 347 31 27 25
330 33 255 110 24 43
286 807 284 79 66 62
327 138 230 116 91 69
327 168 230 92 78 64
336 33 250 66 38 35
338 23 228 93 81 70
337 20 230 89 77 67
454 517 161 184 124 116
337 20 233 90 78 67
280 168 297 115 93 70
342 29 228 92 80 68
356 133 230 113 85 56
320 204 195 117 96 72
408 513 203 85 22 36
335 492 135 170 0 30
345 33 228 93 81 70
342 29 233 97 84 72
333 912 219 78 70 68
401 718 320 62 49 39
260 878 269 127 103 77
342 30 237 100 86 71
284 351 221 66 55 44
343 33 238 98 81 63
326 26 315 71 63 56
454 484 157 117 71 64
337 24 242 93 56 47
300 248 283 146 105 80
344 818 208 82 67 62
398 503 268 129 17 42
324 38 215 152 27 45
395 513 278 133 3 41
299 728 208 171 9 49
326 41 215 130 73 62
324 48 219 145 22 39
294 973 283 81 78 82
219 542 248 123 27 46
374 93 219 144 19 41
377 828 308 44 36 40
258 448 152 111 13 37
269 254 240 103 89 74
321 47 220 138 22 38
454 474 147 108 64 61
329 68 217 123 54 45
329 48 218 140 36 45
294 293 198 99 81 63
227 663 305 154 110 83
314 338 185 87 77 67
334 273 235 136 103 75
317 167 214 114 93 70
304 868 318 107 84 70
123 518 248 166 118 104
334 48 214 150 22 42
339 113 211 117 96 73
332 48 216 147 21 43
353 508 326 137 22 45
324 53 219 131 34 42
321 850 383 45 38 33
367 728 187 59 44 37
285 328 222 74 62 49
410 518 238 164 14 51
378 683 268 52 25 31
364 495 325 178 3 54
321 54 220 128 16 36
329 53 218 135 72 62
455 431 152 120 20 29
460 459 105 129 30 32
329 58 218 109 65 46
249 532 234 122 16 36
437 507 179 138 36 55
324 58 219 111 42 33
384 653 204 110 60 56
384 880 227 96 80 69
433 488 195 71 9 25
359 473 124 171 3 37
312 268 225 72 60 48
279 893 254 157 121 89
459 927 389 88 71 56
314 849 299 106 76 58
324 63 219 131 43 45
321 108 224 123 99 73
454 430 153 115 20 28
363 523 321 165 17 53
309 113 327 123 25 48
321 62 220 145 20 45
277 176 281 104 89 74
339 433 112 126 17 34
322 64 221 131 39 42
343 853 328 38 33 35
318 522 336 70 29 34
329 63 218 108 36 31
314 923 229 88 78 76
373 414 299 59 26 27
335 52 215 133 30 35
392 526 141 114 0 26
347 86 246 123 23 46
341 37 216 103 39 29
373 59 241 80 30 29
373 853 229 80 63 54
280 517 164 169 6 43
344 38 218 88 63 47
483 814 346 98 79 64
339 43 214 104 76 54
239 628 302 140 105 73
257 227 262 109 92 74
389 483 128 54 33 39
349 108 237 122 83 62
334 713 322 87 18 30
284 268 288 155 105 79
369 415 143 103 66 55
269 198 288 117 95 72
387 498 296 147 21 45
339 48 213 139 36 39
400 828 232 69 56 53
348 43 219 87 64 48
381 520 315 81 27 32
269 283 226 97 83 67
340 58 215 127 46 40
345 63 215 141 21 37
194 534 233 179 14 49
475 463 188 185 14 54
339 63 216 124 66 53
374 658 188 100 73 55
301 73 317 109 15 40
174 539 264 182 128 106
405 738 396 71 55 40
326 175 231 90 76 62
294 153 309 121 94 68
230 668 307 156 109 84
352 369 190 94 83 72
394 423 128 110 5 21
349 54 215 112 41 36
315 178 293 128 99 65
346 51 216 116 32 27
329 643 189 133 9 34
356 504 325 163 17 51
349 58 214 138 34 35
304 148 283 115 91 61
366 540 315 113 20 44
233 537 280 122 8 38
294 18 263 104 68 56
244 578 282 60 29 34
378 658 208 53 31 36
335 875 233 54 50 51
349 63 214 109 42 38
274 233 249 106 91 75
330 48 255 126 26 50
339 398 168 99 85 70
334 43 253 107 59 59
293 448 337 58 25 30
314 27 261 120 49 54
324 53 254 135 25 52
240 718 303 189 129 100
386 421 250 131 9 40
329 53 254 135 20 51
336 511 145 174 0 37
314 748 339 91 26 35
352 204 195 124 100 70
384 63 233 97 25 35
376 779 310 73 57 50
321 61 251 122 93 75
324 63 252 115 58 56
237 693 315 157 108 81
291 290 205 81 70 58
314 733 183 171 5 43
354 643 187 151 13 37
354 758 348 42 36 31
323 64 250 112 81 66
408 458 198 108 16 37
329 58 253 123 36 48
230 535 231 100 7 35
329 63 252 132 21 48
334 58 252 116 96 77
382 665 247 102 21 39
382 473 299 105 24 37
276 174 288 109 90 71
300 448 329 61 26 30
315 198 222 88 74 60
298 697 320 97 20 38
402 744 217 110 71 54
468 779 332 85 64 50
334 63 252 126 32 51
269 213 293 118 95 70
347 35 231 96 84 73
274 483 153 45 30 35
412 643 178 166 113 82
309 223 273 119 92 61
345 37 238 95 77 58
268 528 323 35 27 31
374 88 217 146 19 40
282 161 295 110 90 68
286 373 200 71 59 47
272 704 331 129 100 67
334 434 112 138 10 34
350 42 238 94 77 60
299 308 228 57 45 29
315 168 303 138 100 76
307 218 264 107 87 64
453 462 148 57 25 33
342 34 242 90 29 33
438 523 185 89 25 38
407 473 207 116 17 37
425 583 173 158 112 84
260 243 287 119 95 69
349 498 139 105 15 38
369 583 171 74 31 35
324 428 327 70 30 36
344 38 243 86 23 32
390 488 318 33 29 31
207 619 271 184 126 94
279 898 353 56 51 50
341 36 244 71 24 27
439 493 127 77 33 31
374 829 354 48 42 39
256 903 308 143 115 91
402 412 210 137 17 48
385 633 178 127 95 71
346 104 345 118 25 46
342 848 328 43 38 39
339 38 248 96 25 36
406 674 172 179 117 88
406 443 200 75 22 32
314 58 337 99 21 35
342 39 247 96 21 35
258 608 283 156 15 42
319 868 392 60 54 51
414 783 364 84 67 54
449 522 138 227 148 126
368 708 188 65 43 36
383 463 277 57 27 31
336 36 250 80 38 36
344 43 247 79 43 42
263 228 288 115 92 68
179 518 265 53 28 31
422 587 155 160 107 74
352 85 335 87 48 28
338 48 251 112 45 51
334 493 333 117 19 41
361 553 155 122 2 25
309 233 218 78 67 56
270 899 328 55 48 47
342 71 216 81 64 45
359 58 213 112 41 29
443 762 339 86 66 52
354 818 353 58 49 44
379 528 314 116 25 44
344 48 249 89 27 37
282 454 340 145 18 46
269 398 318 76 57 47
394 429 114 135 15 20
364 797 361 63 52 45
379 653 218 149 18 48
346 42 244 85 36 37
340 81 335 114 53 57
348 49 247 85 23 32
309 313 239 102 75 55
427 568 171 162 113 92
454 463 203 113 2 34
329 108 298 108 30 39
280 288 227 94 80 65
283 558 183 173 8 43
329 128 232 120 92 71
339 53 251 121 26 47
253 713 273 70 28 35
421 578 179 154 106 87
372 664 271 143 12 44
341 53 250 118 25 44
306 197 272 107 86 61
346 955 286 86 80 81
339 358 239 119 93 65
392 642 161 151 112 78
342 60 251 128 23 50
414 743 399 84 68 51
344 63 249 116 32 48
367 741 325 59 50 41
198 524 264 144 16 48
342 61 251 127 21 49
473 468 116 56 31 29
264 348 212 76 64 53
349 53 247 95 34 39
382 556 155 166 5 30
309 965 315 79 74 73
261 491 174 162 0 24
349 58 247 100 36 43
407 448 237 80 21 36
420 767 251 53 45 40
376 18 224 83 45 43
304 698 198 123 7 34
286 621 215 43 21 29
458 458 107 150 19 36
314 313 186 100 83 64
266 458 322 131 13 41
378 18 226 83 47 45
376 21 225 87 26 28
366 880 268 55 48 50
386 63 228 101 25 35
379 23 226 86 27 28
407 553 168 64 30 32
353 44 223 100 90 81
379 417 143 105 47 43
354 48 218 83 62 50
306 37 336 116 28 47
359 54 215 86 38 26
362 55 215 81 46 19
361 51 221 90 83 78
279 411 183 73 57 39
348 905 209 82 65 56
306 278 222 71 60 47
307 223 203 105 88 71
364 53 218 90 78 74
279 268 289 156 108 81
334 818 218 67 58 58
380 883 350 40 36 36
364 63 214 120 36 27
362 379 227 114 91 64
250 641 305 120 88 62
297 682 211 74 28 34
408 808 203 185 122 91
379 38 223 89 31 30
367 60 215 106 44 22
344 608 302 92 32 41
382 38 224 91 29 30
257 740 274 121 19 38
345 598 304 38 28 30
324 33 291 114 51 48
373 598 277 79 27 37
330 38 298 108 51 49
379 48 222 95 42 33
375 48 223 101 87 85
387 426 336 163 15 51
415 738 198 145 104 74
262 401 325 67 55 39
374 53 219 113 102 102
373 52 222 110 104 104
374 58 217 92 43 28
405 768 368 61 50 43
269 328 212 79 67 54
281 164 297 112 92 69
381 52 221 84 37 23
360 63 346 104 41 46
398 783 288 52 40 40
454 473 203 115 5 37
319 21 303 85 52 52
378 64 215 96 44 23
304 34 298 151 103 75
380 62 216 92 43 24
384 58 223 94 32 30
383 63 218 95 41 32
314 946 245 96 88 91
352 40 230 97 86 75
352 773 360 61 46 36
357 154 210 108 91 72
309 595 325 43 28 33
334 323 239 137 102 76
339 863 348 36 32 32
359 47 228 95 85 76
365 768 179 125 94 60
357 45 232 100 88 77
414 423 192 127 10 40
359 48 233 98 87 77
359 373 228 116 92 64
319 21 308 69 57 54
293 28 303 133 65 59
353 44 237 101 88 75
344 88 210 122 51 43
433 861 330 88 73 59
279 333 214 76 62 48
355 47 239 94 79 62
430 735 405 95 78 64
358 49 238 101 88 76
341 401 293 61 52 42
272 528 177 158 4 40
334 858 299 35 31 31
255 758 299 151 103 78
377 873 284 55 48 51
341 101 210 137 64 56
285 518 159 175 5 43
353 49 242 87 27 32
355 358 223 117 93 66
351 283 220 132 101 78
429 772 278 79 59 50
273 933 248 67 62 64
270 783 351 171 120 92
404 899 388 56 46 40
360 51 239 99 87 72
