ply
format ascii 1.0
comment Created by Open3D
element vertex 2212
property double x
property double y
property double z
property uchar red
property uchar green
property uchar blue
end_header
379 753 316 161 123 94
382 759 315 154 116 86
384 758 312 150 112 83
381 764 319 157 118 87
382 769 319 159 116 84
327 709 340 138 5 43
320 712 337 141 7 42
322 714 339 148 8 47
322 719 340 153 14 49
327 719 342 163 11 52
336 711 343 140 10 44
261 929 249 146 115 87
332 714 343 152 8 47
329 719 343 165 12 53
337 714 343 124 14 42
322 734 336 192 16 61
322 724 340 120 19 44
327 724 341 178 14 57
323 743 333 190 17 62
327 729 340 186 15 60
295 886 308 146 115 85
326 736 337 192 16 62
329 723 343 175 13 56
332 724 344 178 13 56
333 728 343 184 13 59
373 854 233 59 52 51
337 724 344 114 20 42
337 729 343 121 20 44
337 731 342 100 24 41
337 734 342 126 20 46
352 859 280 39 33 32
342 709 341 83 21 34
343 713 342 90 26 38
341 715 343 62 27 32
347 709 339 119 11 38
350 711 338 84 23 34
347 719 341 83 26 36
352 719 339 98 27 41
341 724 343 41 30 32
341 728 343 36 31 32
343 725 342 38 30 32
431 709 308 166 111 79
343 729 342 43 31 32
347 724 341 64 31 35
347 729 340 81 32 40
349 933 233 59 52 55
351 724 339 80 33 40
350 733 338 58 27 31
320 741 332 192 16 63
327 739 336 192 16 62
324 747 333 163 39 64
327 749 334 83 22 37
326 750 332 47 30 35
331 744 337 187 16 60
332 749 335 184 20 60
357 936 321 70 59 53
337 749 336 159 20 54
329 737 338 193 14 61
332 739 339 189 14 61
330 740 337 189 15 61
337 744 338 162 18 54
321 755 326 82 66 61
324 757 328 83 67 61
328 758 329 83 67 61
327 764 325 80 65 59
428 774 265 67 52 42
409 585 301 139 21 48
327 770 322 79 64 58
328 768 323 79 64 58
331 756 332 90 54 56
332 759 330 82 67 62
361 949 270 55 49 48
337 756 332 63 29 35
330 761 327 81 66 61
332 769 324 75 62 58
337 763 328 81 67 62
352 744 335 113 29 46
342 744 338 117 28 47
349 740 337 127 30 50
352 739 336 163 21 55
342 754 334 75 31 38
341 766 327 80 67 61
342 769 326 78 66 61
342 764 329 82 69 63
347 754 334 91 32 41
347 759 331 92 57 59
351 753 333 111 30 44
387 910 329 56 48 41
352 755 332 162 25 55
347 767 328 79 66 60
358 708 331 43 27 30
356 710 334 40 29 30
357 714 335 57 29 32
283 973 308 68 63 62
357 719 336 89 28 39
347 859 180 82 72 63
445 518 344 190 13 59
363 709 326 140 3 43
365 706 323 143 0 44
366 709 324 142 2 43
360 706 328 112 13 38
337 836 292 182 140 118
364 712 327 145 6 45
362 714 330 109 15 38
473 829 267 114 90 63
360 715 333 44 28 30
361 719 333 54 29 34
411 584 300 175 16 54
366 719 329 76 22 33
357 936 306 69 57 52
447 659 270 120 95 69
357 734 334 173 14 56
367 729 329 178 13 57
360 733 333 180 12 56
350 963 265 55 51 50
297 935 313 72 63 59
369 713 322 147 3 46
371 724 324 144 5 45
369 724 327 136 9 43
395 867 261 63 53 53
436 808 280 87 64 51
369 729 327 174 10 54
372 729 325 163 10 50
372 734 325 161 15 52
351 963 270 63 59 59
357 739 334 183 13 58
359 739 332 182 10 57
358 744 332 179 15 58
355 748 333 85 32 40
357 749 332 82 29 37
368 744 326 128 17 44
360 792 222 75 56 61
362 739 331 178 7 56
366 739 328 173 8 54
430 769 267 70 53 42
365 744 328 165 13 52
368 749 326 155 15 48
357 759 330 75 55 53
357 767 328 80 67 61
412 624 315 140 101 67
368 754 327 137 16 46
367 764 326 87 71 61
372 749 324 126 21 45
372 759 324 155 113 91
375 760 323 166 127 98
372 764 324 166 129 100
420 625 304 132 101 66
378 769 321 169 125 93
415 544 268 96 24 42
414 535 279 133 18 43
415 533 281 144 11 39
413 539 275 34 30 35
414 539 279 49 28 34
402 539 320 44 28 30
407 539 320 94 22 38
407 544 319 36 27 31
446 729 270 111 78 56
415 547 268 24 28 28
414 550 267 53 28 32
413 906 311 107 85 61
416 554 260 119 17 43
367 846 287 36 32 32
415 553 264 55 24 33
412 559 265 124 21 45
412 554 270 70 28 35
411 559 270 153 17 48
411 549 275 107 23 38
415 549 282 52 34 34
411 554 275 97 22 37
411 559 275 120 15 39
413 554 279 81 30 36
413 559 280 67 27 34
417 559 285 95 28 39
412 564 260 183 14 51
409 565 270 165 11 45
409 569 265 170 10 49
409 571 260 173 10 50
352 934 235 58 52 53
408 574 260 169 10 49
408 574 265 169 11 48
411 564 275 103 17 36
396 894 305 68 53 49
409 566 273 149 8 40
409 569 275 150 7 38
410 568 277 125 7 36
444 744 267 95 68 51
413 564 280 101 23 37
412 569 280 149 12 40
425 769 261 64 49 40
414 564 283 141 16 39
345 967 256 82 76 78
408 574 275 153 8 41
414 574 284 168 12 45
387 559 319 51 30 33
410 827 308 166 107 81
297 954 225 86 81 84
392 544 320 49 31 34
397 544 320 45 28 31
399 551 317 62 35 39
343 779 209 50 43 42
396 553 318 41 30 33
397 554 317 34 29 31
397 559 316 40 28 30
387 564 318 52 30 33
326 954 226 79 75 77
391 562 318 40 27 31
407 634 286 100 75 49
392 569 314 59 27 32
387 574 314 142 20 50
314 864 215 58 54 54
391 573 313 42 26 28
371 841 297 44 36 35
392 574 312 83 30 39
397 574 312 50 26 30
412 550 317 112 21 44
402 550 317 41 28 30
402 554 316 36 27 31
402 559 315 70 26 35
407 554 316 87 22 38
407 559 315 133 22 47
417 544 321 170 11 54
417 549 319 162 11 51
412 554 316 158 13 51
415 789 242 79 61 52
412 559 316 90 20 36
414 559 318 81 22 37
407 569 315 97 26 38
342 849 205 52 50 53
400 570 312 119 28 43
412 564 317 39 30 33
269 794 207 77 61 54
412 569 316 116 21 43
416 574 305 49 27 32
419 514 272 67 18 33
421 519 269 72 26 36
273 889 313 177 140 111
422 524 265 86 23 39
312 979 245 78 72 75
418 524 270 171 11 52
425 519 260 81 30 39
425 518 264 45 27 30
425 522 257 42 29 34
397 790 239 61 47 43
425 522 260 75 32 38
424 521 262 67 28 39
418 519 284 123 13 39
421 514 286 42 31 33
329 872 182 71 59 59
420 519 287 72 18 34
416 524 275 158 8 45
418 524 285 136 4 37
377 889 255 66 56 55
418 529 285 134 5 36
420 524 287 116 13 38
420 528 287 108 11 34
420 534 263 179 12 52
418 534 266 178 12 56
420 539 260 176 13 52
420 542 258 177 14 53
422 519 290 55 28 31
422 524 290 68 29 36
422 529 290 72 26 34
402 764 317 164 120 85
425 513 292 86 24 32
427 514 295 120 17 35
425 518 292 79 24 36
432 514 300 57 31 36
427 524 295 40 32 37
427 529 294 45 33 35
407 814 231 67 54 46
358 879 228 53 49 53
429 522 298 41 28 37
430 529 297 60 38 43
422 534 290 54 31 35
419 539 288 42 33 37
419 544 288 36 33 36
424 544 293 38 34 39
427 534 295 98 29 41
472 834 280 93 78 64
362 874 288 36 32 32
424 535 293 80 26 39
429 535 298 118 29 43
431 534 300 60 32 35
358 944 285 57 50 47
432 534 305 79 30 38
426 544 295 47 33 37
429 539 299 75 34 41
430 538 301 51 30 36
428 544 300 71 32 38
429 545 305 38 33 37
430 542 302 46 35 36
339 898 197 70 62 60
432 539 310 112 29 45
430 544 310 81 28 40
434 519 304 41 36 36
434 524 304 70 32 36
438 519 310 114 22 37
436 529 310 109 27 41
437 524 320 167 11 48
262 919 250 145 111 84
436 529 315 148 20 49
440 514 312 144 12 44
441 514 315 173 13 45
307 933 206 85 75 75
441 514 320 189 15 58
440 517 318 183 30 57
434 531 308 104 28 35
434 534 310 112 26 40
435 532 311 155 34 48
434 535 314 70 24 31
435 538 321 93 20 28
417 554 285 59 32 37
406 878 286 87 67 61
419 548 288 37 35 38
410 616 309 132 101 68
421 549 290 38 35 37
419 559 289 49 31 35
421 554 290 85 31 40
423 554 295 95 27 39
420 559 291 89 26 37
422 559 295 129 25 44
426 549 296 63 31 39
427 549 300 134 23 44
425 552 296 139 27 49
313 926 313 50 44 43
424 555 300 37 34 37
424 559 305 157 26 51
422 554 320 173 11 54
429 546 309 48 30 35
443 719 295 174 117 87
429 549 310 81 28 40
425 557 310 127 20 43
436 837 298 66 52 40
264 929 308 112 97 95
424 560 310 128 23 45
417 905 310 103 82 60
427 554 315 101 24 40
426 553 319 186 13 59
304 778 308 81 65 58
419 569 295 181 15 47
420 563 292 57 26 32
421 564 295 154 17 46
420 567 296 176 13 48
422 564 300 195 16 54
420 568 300 197 16 53
417 574 295 189 14 52
419 570 300 198 17 58
418 569 310 90 25 37
422 564 310 115 24 43
388 515 327 183 9 58
362 934 255 67 58 57
387 519 326 182 5 56
386 513 328 183 10 58
392 512 328 173 17 57
429 769 305 175 118 87
387 529 323 176 8 53
392 529 323 173 10 53
411 794 323 178 126 94
432 649 274 106 88 69
397 519 325 100 22 41
350 875 195 62 53 55
397 513 328 75 28 34
257 949 255 156 121 103
387 531 322 174 11 53
306 831 219 52 45 45
400 733 307 143 101 78
392 531 322 170 11 53
392 534 322 137 21 48
401 864 266 72 59 54
387 544 321 33 29 30
397 534 322 122 16 42
397 539 321 57 30 34
401 516 327 41 25 30
407 519 326 53 27 29
402 529 323 81 21 36
446 709 271 132 93 67
407 524 325 53 28 32
407 529 323 75 20 35
412 514 331 60 24 31
413 512 333 124 13 42
412 518 329 67 25 32
416 516 332 88 27 40
412 529 324 143 19 50
417 529 326 117 19 42
414 522 328 77 27 38
322 899 299 130 104 82
318 916 307 123 84 73
400 532 323 170 15 53
423 534 329 60 27 34
407 534 322 170 12 52
409 532 323 173 13 53
411 535 322 173 12 54
416 540 322 166 11 53
317 794 189 73 57 45
419 518 333 54 26 28
428 845 282 63 50 42
422 514 336 118 15 43
422 519 334 61 27 33
423 524 333 49 26 27
432 524 336 182 12 58
446 684 295 168 118 90
423 512 338 177 14 53
426 516 337 168 15 51
429 512 344 181 15 54
287 944 215 83 74 73
432 514 345 157 12 51
432 519 340 173 14 55
433 523 338 186 11 58
421 535 327 45 24 30
284 940 217 72 66 66
418 542 323 170 10 54
422 539 326 134 12 46
424 537 328 129 21 48
396 873 301 46 39 34
428 532 333 49 25 29
351 880 221 57 54 58
432 535 332 152 16 51
427 544 325 189 9 60
433 541 326 187 11 60
431 543 325 193 10 61
432 538 329 190 12 61
438 514 325 111 12 38
272 982 270 74 69 69
439 516 321 176 13 54
437 519 325 79 20 33
438 514 330 81 20 31
438 524 324 140 7 40
439 529 325 118 14 37
440 512 323 175 13 52
442 514 335 136 6 36
441 519 331 86 17 31
286 880 308 143 116 86
440 516 332 132 25 34
441 524 330 109 12 34
442 524 335 151 7 46
440 528 334 192 13 60
434 517 343 172 14 49
437 518 344 179 13 57
436 520 341 186 11 59
437 515 346 175 14 56
438 744 295 172 114 84
437 523 339 200 8 64
443 513 339 130 9 32
355 942 315 78 64 61
446 514 345 153 8 46
270 961 239 77 71 71
445 518 337 112 8 25
445 518 340 135 4 38
442 514 350 204 17 67
446 513 350 189 12 59
443 521 341 190 11 60
405 848 249 70 58 52
437 534 325 111 12 33
437 534 330 193 12 60
446 824 285 102 79 54
439 531 331 171 12 56
350 884 206 57 52 54
435 538 325 155 9 48
438 512 353 206 22 73
445 512 353 200 11 62
421 545 322 172 10 55
422 549 321 174 11 56
424 547 323 180 9 55
399 610 260 59 31 38
411 643 318 177 120 89
408 579 260 170 11 48
406 589 260 172 13 46
406 589 265 169 11 47
409 584 270 158 8 44
409 579 270 157 8 43
408 589 275 169 12 46
410 584 276 163 10 46
411 584 280 165 10 47
409 589 280 173 13 48
385 670 266 81 38 36
403 599 260 88 25 39
403 599 265 178 19 51
405 593 260 177 15 49
404 596 264 183 15 51
404 600 269 127 18 44
400 608 261 86 34 43
400 609 265 88 32 41
408 594 280 118 21 43
405 599 275 41 31 37
408 594 285 119 18 41
406 599 285 128 27 47
404 604 275 54 30 39
402 609 280 122 31 47
405 603 280 40 33 37
403 604 285 63 32 35
401 609 285 98 32 42
388 901 323 56 47 41
387 584 310 69 23 31
369 929 280 67 59 59
392 579 311 85 24 34
307 819 200 59 49 46
386 577 313 139 22 46
398 599 305 123 19 45
357 813 185 75 64 59
388 593 311 95 23 36
319 797 308 47 39 38
392 594 310 67 25 33
384 592 315 84 53 42
387 594 315 100 68 52
386 595 320 128 92 66
389 598 321 134 97 68
391 600 320 134 98 67
397 594 309 73 24 35
365 888 240 59 52 55
393 604 320 139 101 69
337 879 181 92 76 72
396 605 319 136 99 68
302 784 304 80 64 58
404 591 302 114 9 35
407 589 300 133 18 45
406 588 305 72 23 33
352 789 320 71 60 57
414 580 295 191 14 54
412 584 290 178 12 51
415 577 304 48 30 35
409 590 290 182 14 52
408 584 305 68 25 34
402 579 313 43 30 31
400 580 312 42 30 30
403 582 313 48 30 32
407 579 313 61 27 34
408 581 311 88 29 38
417 734 312 169 115 82
402 589 309 90 26 40
405 587 308 53 30 33
410 577 313 83 32 43
406 599 290 170 19 53
405 598 294 179 12 55
332 948 329 68 61 58
403 594 300 152 8 48
401 594 305 145 10 46
302 854 231 91 67 57
400 597 304 154 11 49
402 604 290 47 31 34
400 609 295 79 30 32
400 592 308 160 17 54
400 606 309 117 88 59
402 609 315 133 98 66
397 614 260 152 32 52
398 615 270 110 35 46
416 626 287 107 86 63
393 620 260 92 30 40
332 899 200 72 63 63
392 624 265 65 31 37
394 621 268 132 30 49
395 622 271 70 27 36
333 886 188 77 66 62
359 831 213 62 56 57
399 615 275 101 33 42
402 649 315 174 119 95
396 623 275 44 31 35
398 619 280 62 29 36
399 618 284 80 24 35
387 629 260 92 29 39
388 630 265 82 31 39
385 632 261 113 23 40
386 934 325 83 71 61
417 869 295 84 66 56
387 634 270 54 31 34
385 639 267 63 30 32
386 639 270 66 33 36
393 629 280 67 34 34
301 819 287 190 134 118
393 630 284 67 41 38
388 634 275 73 34 37
387 639 280 79 30 37
282 814 211 79 63 55
389 635 280 66 38 36
423 809 270 67 55 49
390 632 277 99 34 44
386 638 285 73 31 33
391 634 285 68 46 45
395 627 281 63 40 35
397 629 285 84 49 41
398 632 287 78 52 39
380 907 281 83 65 60
400 613 271 76 36 43
467 829 270 107 84 61
400 613 275 78 33 40
400 613 280 105 29 43
400 613 285 105 30 42
262 774 286 83 67 60
401 619 286 74 39 35
401 629 287 73 54 35
403 639 286 93 62 43
413 626 287 103 81 54
388 779 229 57 46 40
417 629 285 103 84 62
349 951 292 59 54 53
412 639 280 106 80 54
297 869 295 168 132 104
412 633 284 104 80 53
417 633 283 102 83 61
417 635 282 102 82 59
399 613 288 120 23 42
331 911 309 48 38 34
384 636 295 46 27 26
267 784 206 67 56 50
387 639 300 63 42 38
393 636 294 118 84 84
385 631 317 171 108 90
387 630 321 186 125 101
385 636 306 96 43 42
388 638 310 144 86 71
388 638 314 160 100 82
392 639 315 166 110 89
302 824 286 179 132 113
401 614 290 81 34 33
406 615 295 90 70 47
412 684 290 104 72 56
407 614 300 100 79 55
264 773 288 84 68 60
403 618 288 79 53 38
407 619 290 94 71 45
415 678 278 165 120 118
408 617 295 97 77 54
411 616 301 108 86 60
412 620 291 101 81 57
398 713 290 94 65 51
412 623 289 103 82 57
417 624 290 99 81 61
413 618 300 107 86 60
296 947 217 85 78 80
416 620 300 113 90 62
413 618 305 126 98 66
405 611 310 128 98 66
404 821 238 53 43 39
428 633 295 116 92 64
408 614 310 131 100 68
403 613 316 135 99 65
401 614 319 142 102 69
406 620 319 145 103 71
407 624 319 150 105 72
339 822 198 51 47 47
410 620 314 135 100 64
403 625 288 79 61 41
406 629 288 89 68 42
400 636 288 81 51 38
410 630 318 152 106 72
387 889 270 78 61 56
415 626 313 138 100 66
407 634 320 168 114 82
411 634 318 159 109 76
421 630 286 102 84 66
422 633 284 102 85 67
302 794 301 75 64 61
422 639 280 103 84 63
397 854 255 63 53 51
333 976 249 81 77 80
272 840 229 89 68 61
425 631 287 101 84 65
428 637 283 103 86 69
431 640 281 101 86 68
430 636 286 104 86 65
418 623 300 118 94 65
421 625 300 122 96 65
422 628 290 101 82 62
423 628 295 111 89 63
422 714 310 167 115 83
422 629 305 133 101 64
386 868 292 34 30 29
403 851 264 70 60 57
426 630 291 105 85 62
425 630 299 127 100 67
325 977 288 79 74 74
425 631 303 132 101 64
431 635 290 106 85 62
433 639 295 121 96 65
428 634 300 129 100 64
426 635 305 133 100 62
286 785 199 70 55 46
431 639 300 129 99 63
429 637 302 130 98 62
430 640 304 136 101 63
424 633 306 134 100 64
445 828 288 100 79 55
352 924 327 52 46 43
422 634 310 141 103 67
419 632 312 143 104 67
425 636 308 139 102 64
277 779 294 76 62 56
426 639 309 145 104 68
435 640 290 108 87 64
363 864 234 51 47 49
303 894 235 63 58 57
390 601 323 143 102 71
391 605 324 146 106 73
392 609 324 152 109 75
394 608 322 144 103 70
387 624 324 194 137 109
392 619 324 173 120 86
264 963 251 92 82 78
358 894 234 55 50 54
396 614 323 155 108 76
396 619 323 164 112 79
404 691 274 103 96 91
396 624 323 174 120 85
384 627 323 194 132 106
396 628 323 182 125 95
352 914 326 46 41 40
397 634 321 189 132 104
342 846 175 97 79 68
402 624 321 159 109 76
402 629 321 169 114 83
402 634 321 178 122 91
408 663 309 163 110 87
402 639 320 187 130 104
385 649 280 80 22 30
385 644 285 110 14 32
362 904 320 40 36 35
384 642 287 120 22 37
369 938 328 73 64 57
385 649 285 111 16 32
422 794 315 182 125 95
385 652 282 109 23 34
385 669 270 74 37 38
384 659 275 69 29 37
344 834 203 42 41 45
384 659 280 88 30 36
384 669 275 68 30 35
327 929 200 77 68 68
406 644 284 116 79 60
408 644 281 116 81 60
406 649 284 135 94 82
356 939 241 74 67 67
312 960 228 89 84 87
407 654 285 165 117 103
338 879 195 54 45 47
320 847 193 63 52 49
404 652 287 167 117 105
411 644 279 110 80 55
417 644 276 105 82 56
417 649 275 106 82 55
411 654 280 137 98 84
414 653 277 110 75 57
409 653 281 146 105 91
366 909 251 59 51 52
413 659 281 161 118 105
402 819 324 190 133 103
339 864 191 51 41 43
418 659 276 115 81 64
414 664 282 155 113 100
416 664 279 154 114 106
324 822 298 206 153 132
414 669 281 113 82 67
382 929 330 80 65 53
415 669 287 107 73 60
384 649 292 71 25 31
392 644 296 150 109 100
392 644 300 104 68 57
392 644 305 127 77 64
385 652 290 127 20 41
396 644 294 186 130 119
300 981 259 98 96 99
336 958 231 65 62 65
397 649 295 135 94 80
399 652 296 122 83 68
398 653 300 122 78 64
399 652 305 143 91 73
290 801 292 176 131 112
390 641 306 131 79 65
393 644 310 151 96 77
424 759 312 171 116 83
397 644 316 170 115 93
395 641 317 174 118 94
338 965 291 60 54 52
398 642 318 179 121 96
399 652 309 155 102 82
401 649 289 172 121 108
400 651 293 129 91 76
403 654 290 141 99 84
405 656 289 142 101 85
401 655 305 145 94 75
358 950 281 59 52 50
445 753 272 88 64 53
402 644 318 185 126 100
401 646 317 178 120 95
405 911 328 77 61 47
407 649 317 186 128 102
400 651 312 163 112 89
403 653 313 170 116 93
433 759 300 178 118 86
407 654 314 180 122 97
413 645 317 177 120 88
417 644 316 167 114 80
412 654 315 189 130 104
404 658 296 120 81 65
407 659 290 130 92 75
408 663 295 122 82 66
403 658 300 131 86 68
403 659 305 148 97 78
405 661 305 151 100 80
412 669 295 117 78 63
415 670 289 107 71 58
409 667 301 143 96 75
403 658 309 158 106 84
407 659 310 167 114 91
408 658 313 178 121 96
411 660 312 181 123 97
342 899 299 33 30 31
417 659 313 189 128 100
417 664 311 191 128 99
410 666 307 159 107 86
432 689 265 123 93 63
417 669 309 187 126 98
283 778 195 67 53 46
386 676 260 68 45 40
388 679 260 58 46 40
379 890 259 64 54 53
387 679 265 59 43 40
385 674 270 78 36 37
387 679 270 72 39 38
389 684 260 45 37 31
389 683 265 47 35 33
411 869 309 67 53 44
389 686 257 45 38 33
389 688 259 44 38 33
391 689 260 49 42 38
393 688 265 51 43 40
390 685 269 49 32 26
385 675 275 66 32 33
386 679 275 66 31 33
388 684 275 57 32 29
388 689 281 63 30 33
385 684 285 64 28 34
386 689 285 49 29 32
392 694 260 60 53 49
394 694 264 66 60 56
395 691 268 81 74 69
373 890 309 36 33 33
396 694 266 58 51 47
306 826 213 55 49 48
396 695 270 63 56 51
432 651 272 108 88 66
397 699 265 65 57 51
397 699 260 69 61 55
395 702 257 65 56 52
395 702 260 64 56 50
390 690 279 48 32 32
391 694 280 42 35 35
389 692 282 41 31 31
390 695 283 38 33 33
388 699 286 56 29 31
338 845 287 163 121 98
393 698 281 47 40 39
395 695 274 53 45 40
394 697 277 49 42 39
398 702 281 51 42 39
395 701 283 58 50 46
351 854 170 89 78 69
404 688 261 96 79 74
407 684 265 100 78 74
403 689 265 96 84 79
405 687 265 102 86 82
407 684 270 97 78 74
404 690 270 101 91 87
412 681 269 115 79 82
416 680 269 124 82 78
409 681 265 96 67 65
408 686 273 88 75 69
274 967 247 95 88 87
417 674 277 155 111 105
414 674 285 94 68 52
413 774 239 94 68 51
413 679 285 84 63 46
413 685 275 97 76 71
412 688 275 85 72 66
417 684 274 111 79 74
415 688 274 91 74 68
408 689 285 72 61 52
278 779 201 79 60 51
410 687 287 79 56 43
407 694 260 97 79 73
402 700 265 82 74 69
406 699 261 86 71 64
406 703 261 81 67 59
406 702 264 83 71 64
402 703 267 73 66 60
401 703 269 73 66 60
403 694 275 95 87 80
403 695 280 100 93 87
405 692 276 104 98 92
406 694 285 77 69 61
401 699 275 56 50 46
385 684 288 50 28 29
384 692 290 76 27 33
273 788 288 76 62 55
385 694 290 79 27 35
385 695 294 80 25 35
386 699 290 48 27 31
385 699 295 56 28 32
388 704 290 82 25 33
386 835 227 65 54 48
392 705 289 94 29 37
362 794 224 72 56 54
384 699 297 61 29 33
414 673 295 118 76 61
415 675 295 117 75 61
414 679 290 108 73 57
420 812 260 65 53 50
415 679 295 121 80 64
414 672 304 155 106 85
411 689 295 119 81 63
414 685 299 128 86 68
368 909 255 60 53 54
416 684 301 130 87 67
413 689 299 129 89 68
404 700 289 75 62 53
402 704 290 72 56 47
406 698 290 81 64 55
403 705 295 82 58 47
407 704 300 122 83 64
343 855 167 103 84 77
382 779 225 53 44 42
415 692 302 135 94 70
413 699 304 137 97 72
412 704 304 141 99 74
423 654 272 116 90 62
427 654 271 116 91 62
339 822 195 57 50 45
422 645 276 107 85 60
422 642 278 104 84 61
438 652 273 106 90 74
427 643 278 105 87 67
432 643 279 103 87 71
423 659 271 122 92 65
427 659 269 124 95 66
282 979 270 54 50 50
430 669 268 132 97 70
432 658 268 121 94 66
432 661 267 125 98 68
322 963 231 89 85 89
432 664 267 129 99 70
430 664 268 129 97 70
427 669 270 128 92 68
450 674 276 170 120 92
421 659 274 116 85 61
418 669 276 155 115 105
424 670 272 121 85 63
441 656 272 110 92 73
436 645 280 96 81 66
277 789 204 77 58 51
435 641 285 100 82 63
298 957 227 86 81 84
436 651 272 106 89 71
442 649 280 95 80 64
441 651 276 98 84 69
447 654 285 132 100 71
437 661 267 125 100 72
437 664 266 127 100 71
494 835 259 105 87 70
437 669 265 123 94 63
442 658 269 121 99 74
281 805 208 80 62 54
442 664 266 124 99 71
322 809 190 77 59 48
442 669 265 131 103 73
446 656 272 100 83 64
449 658 273 119 92 68
421 644 314 158 109 75
422 649 314 166 113 81
423 655 312 171 116 84
433 649 306 149 105 71
373 881 244 71 61 58
430 646 308 151 106 71
431 654 309 158 109 76
422 664 311 187 123 95
418 661 312 190 128 99
422 669 309 189 123 95
427 659 311 172 116 85
428 671 307 184 118 91
432 669 306 179 119 90
437 644 295 129 101 67
394 901 308 77 57 64
439 648 296 135 104 68
433 643 301 132 100 62
436 645 299 132 100 62
435 649 303 147 104 70
440 646 293 131 104 72
441 649 295 136 104 70
444 652 291 136 100 69
425 837 273 71 57 42
443 654 295 141 103 70
441 654 299 147 105 71
437 659 304 159 111 78
270 932 312 153 125 106
439 658 302 156 108 76
437 669 304 178 121 90
439 669 302 177 123 91
448 659 290 146 104 73
444 658 296 150 106 73
446 664 295 154 106 75
444 662 297 156 107 76
442 669 300 175 121 91
445 666 298 165 115 83
434 659 307 162 113 80
433 664 307 175 121 90
423 680 271 111 76 62
476 851 273 100 88 77
419 682 259 103 73 55
420 681 262 99 70 52
422 684 270 101 70 55
420 687 270 98 67 55
427 679 270 111 78 56
433 674 266 127 92 65
430 677 268 118 83 59
425 686 261 101 70 48
425 689 261 98 69 44
426 689 265 101 73 46
422 674 275 127 88 74
422 678 274 117 79 71
420 682 273 106 70 62
343 888 200 59 53 54
425 677 273 118 79 60
424 694 259 87 64 43
423 694 266 91 58 44
425 694 261 94 69 45
427 694 265 97 69 47
424 698 265 79 57 42
372 824 316 193 149 123
426 705 261 78 59 43
423 804 260 63 51 45
432 704 266 130 98 70
437 674 264 133 101 71
358 804 225 75 57 56
437 679 265 136 102 71
413 824 260 72 59 54
437 684 265 142 106 75
306 869 240 71 58 50
437 689 266 146 108 78
305 881 298 150 114 87
442 674 265 159 121 87
447 674 270 163 118 89
444 680 268 164 118 89
441 684 266 161 118 88
441 689 267 161 117 88
444 689 268 163 117 89
446 689 271 164 116 89
449 684 274 168 118 91
448 689 275 159 111 83
437 694 266 149 110 79
437 699 267 150 110 79
436 703 267 142 106 75
438 704 268 136 99 69
424 757 258 70 52 43
443 694 269 153 110 80
445 699 272 118 81 56
448 694 275 140 97 70
447 699 275 134 93 67
418 679 304 149 101 79
422 672 308 188 125 94
422 684 305 160 112 86
422 689 306 159 112 84
427 679 306 170 117 87
427 684 306 168 116 85
432 684 306 166 111 80
432 689 306 166 111 79
422 694 307 157 110 82
331 820 302 204 155 132
427 694 307 166 113 81
432 694 307 166 111 78
372 879 240 67 58 56
427 700 308 163 110 80
432 699 307 167 111 79
433 704 307 167 111 80
431 704 308 166 110 79
261 784 282 77 62 55
439 674 302 174 118 88
436 679 303 167 113 82
436 684 304 164 110 80
327 969 305 70 62 59
438 684 302 164 111 80
436 689 304 165 110 81
439 689 302 165 111 82
442 674 299 175 120 90
441 679 299 169 115 87
271 970 301 56 53 53
446 689 295 172 120 91
442 684 299 166 113 85
442 689 299 168 114 86
444 689 297 169 117 90
439 694 302 166 112 83
439 699 302 167 113 83
342 948 325 76 64 60
436 704 304 168 113 81
439 704 302 167 112 85
446 694 295 173 119 91
442 694 299 168 115 87
444 694 297 171 118 92
446 699 294 174 118 89
442 704 300 170 116 88
398 707 280 58 48 42
346 819 189 64 55 49
437 759 270 79 59 46
400 707 286 75 54 46
389 707 292 87 19 33
392 707 292 103 26 38
386 719 304 125 14 41
390 712 297 117 25 39
392 719 300 115 21 40
396 706 289 80 42 37
394 711 298 112 22 37
274 921 237 72 65 65
398 714 296 80 50 40
473 825 266 107 84 60
398 718 296 77 51 43
397 714 299 94 31 35
388 724 302 119 19 41
392 724 301 90 23 33
387 729 305 115 19 39
389 728 302 107 18 37
392 729 301 73 24 28
412 874 305 77 62 50
391 734 303 89 22 33
398 724 303 100 62 49
398 729 304 114 75 59
397 734 305 119 82 63
378 881 249 58 49 48
384 723 307 121 14 42
402 709 295 75 50 41
404 706 298 98 68 51
406 709 301 124 83 65
261 924 305 125 92 85
408 710 303 136 95 72
400 713 296 65 44 35
402 714 300 99 64 50
403 719 303 129 86 67
404 716 303 128 85 66
420 844 299 65 50 40
281 959 311 43 42 43
405 713 302 127 86 67
407 714 305 140 97 75
409 706 303 136 95 73
412 709 306 146 104 77
417 709 308 159 113 85
410 718 307 152 109 82
412 719 309 157 112 86
434 784 286 92 66 49
406 723 306 147 104 80
407 734 310 160 116 88
412 724 310 160 115 87
417 729 312 168 114 83
262 799 208 110 85 66
385 739 308 89 24 34
408 833 270 64 54 51
392 744 305 79 56 42
272 898 248 126 97 66
385 751 308 150 113 88
398 740 308 144 103 80
284 881 252 85 64 41
397 744 309 145 104 80
393 750 309 131 94 71
388 753 307 75 54 38
386 754 309 111 82 60
387 759 311 114 82 59
390 752 307 100 72 50
392 754 310 133 97 72
388 762 312 111 80 54
416 774 318 163 116 81
384 768 317 152 110 80
260 894 307 152 115 92
396 753 312 155 113 86
398 755 313 163 119 91
397 764 316 163 122 90
429 807 290 68 52 40
402 744 311 159 115 88
272 949 309 185 143 123
405 846 248 70 58 51
407 739 311 164 118 89
406 743 312 166 120 90
407 744 313 167 119 88
404 746 313 167 120 91
407 749 314 168 119 87
412 740 313 168 116 84
420 789 318 179 125 95
417 738 312 170 116 82
417 744 313 170 115 83
417 749 313 171 117 84
402 759 316 167 122 90
407 759 315 166 118 84
402 766 318 163 119 84
407 764 317 163 118 82
405 766 318 162 119 83
407 769 318 161 119 82
412 754 314 168 117 84
324 918 200 89 80 80
412 759 315 164 115 81
376 914 280 62 52 53
373 896 318 39 36 34
412 768 317 161 116 80
417 764 315 163 113 79
417 769 317 161 114 79
425 709 257 82 61 42
377 924 330 73 61 51
432 709 266 116 87 62
428 714 260 79 60 44
430 712 262 88 67 51
327 794 311 67 59 57
432 714 265 112 84 58
425 723 257 78 56 44
425 730 257 77 56 45
429 790 269 74 58 47
433 724 264 101 72 50
284 860 288 133 109 85
430 734 262 92 64 45
437 708 268 128 91 64
437 710 267 121 85 59
437 714 266 116 83 57
441 710 267 109 77 55
443 709 269 125 91 65
444 714 268 131 95 69
446 714 270 126 88 65
487 825 271 94 77 62
447 719 270 119 85 62
282 784 201 75 57 49
448 709 280 129 91 63
402 840 301 58 42 34
447 714 275 117 83 62
447 714 280 121 85 59
447 719 275 103 77 59
447 714 285 159 106 76
446 719 285 154 103 74
437 734 265 108 78 58
447 724 266 117 82 58
446 728 266 108 76 54
441 735 260 100 73 55
272 832 268 61 43 40
442 734 270 109 76 55
326 943 221 74 70 72
445 732 267 108 76 54
446 733 270 111 78 57
446 729 275 116 80 60
444 726 278 109 74 57
444 734 280 114 78 58
446 732 280 120 82 61
445 732 284 132 90 63
418 705 308 156 111 82
422 719 311 169 115 83
363 929 250 66 58 58
427 729 311 172 114 83
432 724 309 173 115 86
431 729 309 174 116 87
427 734 311 173 115 85
280 863 275 116 93 72
431 734 309 176 118 90
439 709 302 171 116 87
437 714 304 171 116 86
439 714 302 173 118 88
439 719 302 176 120 92
445 708 293 175 118 87
446 714 290 173 115 85
445 719 290 169 113 82
444 719 292 171 112 84
441 719 300 176 119 90
438 734 300 178 118 91
436 734 304 181 122 96
443 729 290 163 107 78
282 799 290 57 46 46
442 729 295 173 114 86
445 724 289 165 109 80
440 728 299 178 118 91
440 732 298 177 116 89
434 724 307 174 117 88
434 734 307 179 120 94
424 741 258 71 53 42
423 744 259 70 53 42
423 749 259 69 52 43
264 890 252 134 105 74
426 744 261 76 56 43
428 744 264 88 63 49
429 740 263 86 62 46
430 738 262 87 61 44
384 906 283 96 73 66
432 739 264 97 69 50
425 749 261 78 57 46
431 749 266 110 75 52
427 759 260 84 61 48
425 760 257 77 59 46
430 760 262 82 60 46
347 784 321 74 63 58
432 754 266 91 64 47
425 763 257 72 54 43
424 769 258 63 50 42
433 769 269 86 66 52
437 744 271 104 72 51
438 739 269 107 74 52
441 739 265 98 70 52
383 789 229 55 46 43
442 739 271 100 71 53
373 817 233 69 56 55
447 743 267 97 68 52
447 741 269 97 70 52
439 751 287 140 92 65
443 739 275 100 69 48
443 739 285 136 90 62
443 749 280 90 64 46
445 750 278 94 67 50
440 749 285 123 83 59
437 754 269 91 66 48
437 764 270 85 65 49
439 759 287 115 81 59
439 765 274 99 74 60
416 823 265 69 56 52
438 769 275 105 75 59
439 762 287 113 80 61
441 759 272 90 70 59
305 898 224 50 46 50
447 754 275 103 73 57
443 753 281 93 65 49
277 886 313 169 137 107
446 759 276 115 80 63
441 754 284 104 73 54
442 764 275 112 79 62
444 765 279 125 87 66
442 769 280 112 78 57
445 764 284 97 67 48
422 744 312 173 115 84
272 794 285 75 61 55
422 749 312 172 115 84
419 745 312 172 115 84
420 751 313 171 116 83
427 744 310 176 117 89
402 814 229 67 53 46
431 739 309 178 119 92
430 749 308 181 121 93
431 759 304 180 121 90
312 978 295 71 66 65
432 764 300 176 116 85
431 769 300 174 115 84
430 769 303 175 118 86
427 759 310 175 119 90
429 755 307 180 122 94
362 849 284 38 33 32
432 754 305 181 121 93
402 789 236 65 51 47
430 752 308 181 122 94
398 870 310 42 35 32
429 759 306 179 122 92
324 971 300 66 60 61
426 764 310 174 118 88
426 769 310 172 118 86
424 764 312 170 115 84
302 959 230 83 79 83
424 768 312 169 116 83
439 746 292 163 106 78
438 749 295 170 111 82
436 749 300 179 118 89
435 748 303 182 121 92
434 750 302 181 119 91
441 739 290 162 105 76
440 744 290 159 105 75
440 743 293 168 110 80
440 748 289 153 100 71
433 739 306 181 123 96
436 759 295 166 109 79
438 754 290 150 99 71
307 944 219 81 75 77
437 754 295 168 110 79
348 896 298 32 30 32
438 759 290 137 92 68
435 753 299 178 118 88
434 754 301 180 119 89
382 905 323 45 40 38
435 757 298 177 117 87
434 760 297 175 116 84
434 764 296 171 114 82
437 764 290 121 83 61
440 767 288 99 74 58
450 656 280 138 104 76
451 664 275 174 122 97
451 664 280 167 117 91
450 669 275 172 120 94
451 669 280 166 116 87
449 671 273 165 116 88
449 664 291 152 106 74
285 830 277 179 130 107
406 785 237 70 54 47
450 661 288 151 105 76
450 665 289 156 106 76
450 669 289 161 109 79
449 674 273 168 119 91
451 679 280 162 113 84
450 684 276 166 116 88
449 694 280 155 108 77
449 691 287 166 113 84
450 692 284 162 110 81
450 684 289 167 114 83
457 714 271 117 83 59
394 897 317 56 47 39
456 710 276 136 94 68
452 713 279 112 82 60
341 874 190 64 55 55
451 719 275 113 80 58
318 940 323 40 37 37
306 943 217 81 75 78
457 706 277 135 91 60
457 708 280 149 103 74
452 721 267 124 87 63
455 720 267 119 84 61
455 722 268 121 87 61
272 869 295 100 81 61
452 722 277 116 81 62
301 976 248 91 82 84
450 724 278 120 82 60
450 729 281 137 94 71
455 745 273 81 56 42
284 775 187 73 57 46
297 774 190 71 54 46
297 779 189 65 52 46
300 776 186 80 61 49
302 774 190 74 55 45
330 923 211 82 72 74
298 778 186 72 53 47
302 779 187 74 56 48
298 789 191 62 49 43
308 780 187 88 66 47
347 814 185 73 60 56
307 784 186 83 63 48
309 776 187 90 67 42
312 784 187 85 65 51
407 774 320 162 119 83
380 917 292 79 61 57
317 774 186 64 50 41
312 799 189 83 64 49
314 789 188 72 55 45
312 809 192 77 60 50
366 783 227 76 58 55
272 774 204 64 53 47
262 774 206 124 94 59
262 779 206 130 97 66
464 830 292 89 74 61
262 784 206 126 95 70
267 774 205 64 55 50
272 784 205 82 63 52
272 789 206 80 61 52
262 794 208 110 84 65
391 904 305 89 77 73
267 794 208 64 55 52
279 771 202 67 52 46
278 784 202 79 60 51
283 775 195 69 54 47
282 771 202 71 53 49
328 945 224 71 67 69
286 777 192 61 52 45
277 794 205 76 58 50
277 799 207 78 61 52
288 788 201 69 54 47
286 789 204 72 55 47
287 794 204 71 55 47
326 815 302 206 157 135
287 799 205 73 57 49
262 804 210 90 71 58
258 813 212 128 95 71
262 816 213 64 55 54
267 804 209 71 58 53
267 809 210 76 61 54
418 819 265 65 54 50
271 801 208 77 60 53
414 821 254 72 60 55
272 804 209 78 62 55
471 819 276 98 77 57
272 809 210 82 64 56
266 816 213 80 64 57
272 814 211 80 63 56
260 826 218 78 64 58
269 817 212 79 62 54
272 820 213 80 63 56
267 827 217 88 69 60
283 803 207 79 61 53
282 809 210 81 63 54
286 806 208 79 61 53
287 814 211 76 59 53
277 818 212 79 62 55
277 820 213 78 62 55
277 828 216 83 66 57
277 830 220 88 70 61
292 889 310 159 125 95
282 824 214 77 62 55
286 816 213 77 61 55
287 819 213 76 61 53
287 828 217 79 63 54
287 830 219 80 63 54
465 824 293 88 68 49
291 773 194 70 54 48
290 772 198 75 56 50
297 769 200 67 52 45
393 774 234 64 50 46
273 949 230 70 66 67
292 784 195 67 53 45
296 785 193 66 52 46
293 794 196 64 52 45
291 794 199 66 53 46
292 799 200 64 52 46
297 798 196 63 51 45
291 800 204 67 53 47
300 796 193 65 52 47
340 932 197 104 103 107
371 863 232 63 55 53
306 773 193 73 50 41
297 809 205 61 50 45
298 813 207 61 49 45
298 808 201 60 49 43
331 972 289 62 56 53
292 814 209 69 55 49
299 817 207 60 49 45
303 819 205 58 48 47
289 818 212 75 59 53
292 819 211 71 57 52
292 824 215 72 57 50
296 821 213 63 51 46
292 829 219 72 56 49
297 829 219 63 50 46
301 820 209 58 48 46
355 947 252 67 60 59
302 825 214 54 46 44
299 827 217 57 46 43
457 837 293 82 70 61
305 801 193 64 52 44
305 805 194 69 55 47
309 807 192 73 58 49
306 814 199 60 49 45
356 954 265 53 49 50
308 814 196 75 58 48
390 902 296 89 71 64
311 810 193 73 58 49
317 813 192 81 63 50
309 823 201 55 46 43
304 818 202 59 49 48
312 829 200 56 47 45
335 864 206 56 50 52
310 826 203 54 46 43
374 936 323 78 68 60
307 829 210 56 50 49
457 853 276 88 71 56
318 854 191 69 58 52
318 859 190 68 57 53
319 872 187 71 60 56
317 884 190 77 66 65
262 832 222 91 72 65
262 835 224 93 73 67
267 834 224 92 72 65
273 832 222 91 71 63
277 835 224 94 73 64
260 841 233 82 63 58
264 842 232 84 63 59
267 840 229 89 69 61
332 974 245 78 75 77
272 838 227 92 71 63
267 842 232 85 63 58
267 844 235 77 61 57
267 845 240 65 54 58
271 845 234 72 58 56
272 848 240 58 53 54
267 845 245 50 43 45
272 839 255 57 40 34
272 842 253 65 47 40
277 839 226 90 68 62
278 843 227 78 61 55
273 848 236 51 49 53
287 849 230 152 103 78
276 845 251 168 121 91
278 847 249 174 122 93
281 850 250 177 120 91
280 845 256 167 116 91
281 849 255 169 119 92
277 850 240 187 135 105
282 850 235 184 125 96
259 900 252 134 104 73
283 852 237 180 119 92
287 852 236 165 109 84
287 854 240 178 118 90
454 850 282 82 65 52
283 853 245 191 130 96
282 854 255 178 128 99
285 856 249 173 117 88
288 858 246 175 120 87
284 858 252 177 126 95
402 844 245 65 53 49
282 859 255 179 131 102
287 864 250 161 115 86
382 919 331 72 59 49
261 889 254 134 106 76
307 819 290 190 139 119
263 885 256 129 102 73
260 893 253 138 109 79
267 889 251 130 101 70
283 788 293 74 60 55
268 885 252 123 96 67
272 879 256 105 81 50
272 882 254 110 87 58
367 849 165 86 75 71
267 894 250 134 105 73
272 894 249 126 97 64
287 869 250 149 111 82
285 870 253 145 109 82
287 874 250 139 106 77
285 874 253 127 96 69
317 981 286 66 61 61
287 896 236 133 102 72
396 864 260 63 53 52
276 882 253 105 81 51
283 890 247 95 76 55
284 896 241 97 79 60
280 893 248 111 89 67
292 834 221 73 56 50
341 905 209 63 57 59
308 834 207 57 50 48
311 834 204 57 49 47
316 839 199 58 51 49
318 834 196 58 50 47
318 839 196 58 50 48
315 844 199 60 53 50
315 849 199 61 55 53
318 844 196 62 54 49
390 893 281 72 60 57
314 849 205 59 53 52
307 834 210 57 50 48
306 839 215 54 46 44
311 840 209 60 51 48
307 839 220 50 45 45
307 839 225 70 60 56
332 950 228 77 73 76
307 844 216 67 52 47
312 844 210 59 50 48
311 845 214 66 53 48
312 849 215 57 48 45
351 914 231 75 67 69
307 849 220 67 51 47
316 854 195 66 58 55
315 851 203 60 55 54
336 888 292 43 39 38
316 859 195 63 57 56
370 816 317 177 141 117
315 859 200 56 52 52
316 864 195 60 54 53
315 864 205 54 50 50
352 817 183 80 66 62
314 865 206 54 51 51
354 888 292 33 30 31
310 851 219 65 50 47
308 853 225 65 50 46
315 855 210 45 43 45
313 854 215 51 48 49
314 860 211 50 47 48
315 862 209 52 48 47
313 859 220 59 54 54
313 864 220 58 54 55
292 847 227 140 95 70
297 844 226 123 84 63
391 824 229 56 47 45
367 839 216 63 56 57
302 839 225 70 57 51
292 850 230 139 94 72
297 850 229 117 80 62
293 852 232 135 90 70
432 904 309 81 71 63
297 852 231 118 81 64
290 851 233 141 91 73
292 853 235 136 87 69
336 912 307 32 30 30
305 912 214 55 52 54
292 855 239 153 99 76
347 869 180 94 79 71
303 859 235 95 71 58
300 856 238 108 75 63
301 860 239 103 73 59
303 863 240 93 68 56
293 858 241 159 106 79
289 862 247 151 100 68
296 860 243 147 101 73
297 864 245 155 109 78
305 851 229 68 50 47
357 857 155 92 79 72
310 860 228 56 47 45
308 864 231 52 44 44
306 864 235 68 56 52
311 879 205 49 47 49
312 874 205 49 46 48
315 869 195 60 53 53
314 869 200 52 48 49
315 867 204 50 47 48
315 879 193 68 59 58
311 879 210 50 46 48
314 869 213 56 53 54
315 869 215 57 54 54
315 869 218 58 55 55
313 879 215 53 49 52
312 874 225 52 48 50
471 830 268 116 90 65
314 879 219 53 49 53
315 880 221 52 48 52
311 889 200 61 57 58
297 981 300 60 56 55
311 894 200 66 61 61
314 889 192 72 62 62
313 894 195 71 64 64
314 894 192 82 72 70
311 884 215 49 46 47
310 889 210 47 43 47
347 809 210 59 52 56
310 893 209 47 44 47
277 873 260 105 78 42
311 893 220 47 44 49
310 892 223 49 46 50
364 861 234 51 48 48
313 884 219 52 48 51
315 884 221 50 47 51
315 884 224 49 47 51
312 884 226 51 48 51
424 856 268 86 68 57
318 976 296 71 67 67
297 869 246 134 95 68
297 879 245 102 80 57
280 836 261 146 105 84
302 874 245 111 83 59
291 896 236 90 70 45
293 884 246 106 86 64
292 889 245 105 86 67
355 953 260 63 57 56
297 884 244 97 79 60
290 884 248 114 93 71
291 892 244 97 79 58
303 884 241 66 57 50
263 784 284 82 65 58
310 869 228 51 46 48
305 865 239 76 60 52
310 874 228 52 47 49
302 804 294 204 149 129
308 879 230 53 49 51
271 980 290 70 64 62
277 819 281 159 119 101
307 879 235 51 48 49
304 867 242 90 69 53
305 874 243 92 72 55
309 884 227 51 48 50
309 890 226 50 46 50
305 887 238 51 47 45
325 770 187 62 51 45
327 774 189 66 53 43
322 779 187 68 53 42
322 784 188 78 60 44
327 779 189 73 57 44
322 789 188 76 57 40
288 944 313 87 74 67
322 794 190 77 58 44
322 799 190 83 62 46
327 809 189 75 58 48
322 814 190 77 59 47
391 873 260 61 51 49
328 814 187 75 59 49
390 872 256 61 51 52
326 813 188 78 61 49
337 804 190 67 55 49
338 809 191 66 51 46
328 811 187 72 56 48
336 813 187 101 83 70
337 814 190 69 54 47
323 818 191 80 61 49
329 818 187 79 62 51
326 819 189 79 62 49
327 824 190 80 62 51
327 829 190 72 57 50
329 824 187 83 66 56
332 824 186 80 64 51
334 821 188 89 71 53
334 823 188 85 68 52
337 823 188 60 52 47
329 829 187 88 69 60
472 819 289 92 72 52
337 829 185 71 59 51
342 808 185 87 68 55
341 805 190 81 65 57
342 814 186 69 55 49
346 809 184 89 71 58
348 809 182 92 73 58
348 806 189 76 62 53
340 806 207 59 48 52
347 814 190 71 59 51
352 809 191 67 58 53
352 815 185 85 72 70
352 813 189 69 60 54
341 903 206 66 59 60
352 816 176 81 67 56
377 894 260 64 54 53
350 829 171 76 62 52
342 819 189 61 50 47
341 824 190 62 52 48
340 826 187 67 57 52
342 829 186 73 61 52
349 818 179 78 66 62
292 919 221 66 52 48
352 818 180 71 59 52
345 828 188 65 59 58
356 809 189 72 62 56
362 934 325 70 61 54
357 810 182 80 68 60
356 813 182 76 65 58
366 809 184 77 66 63
334 775 193 72 57 46
422 864 280 81 65 56
337 774 195 67 53 43
347 819 306 70 59 56
332 779 195 62 50 43
337 779 200 54 46 44
333 784 200 55 46 44
335 783 202 53 47 46
329 789 194 62 51 47
328 799 194 71 57 52
329 785 193 67 55 46
330 788 196 59 48 46
331 789 200 55 48 47
329 791 198 57 50 50
333 789 203 55 47 45
334 786 203 54 47 48
337 789 205 52 44 43
434 776 273 94 70 54
330 796 197 65 55 54
335 796 202 54 46 45
335 800 202 52 45 47
386 831 317 205 151 128
339 776 199 56 46 42
340 773 196 69 52 45
342 774 200 60 47 43
341 779 206 54 44 44
281 918 234 74 64 57
341 784 206 54 45 44
345 772 202 51 42 39
272 964 305 49 46 48
347 773 206 57 48 43
307 983 250 68 64 65
347 775 209 56 45 42
328 890 188 82 70 67
352 774 209 55 46 45
346 783 212 52 45 45
347 784 214 57 48 49
340 788 207 50 43 43
340 794 207 48 44 45
340 799 207 53 48 49
342 794 210 48 43 44
341 799 210 53 48 51
343 799 215 57 50 52
352 790 219 72 57 53
346 794 216 62 52 51
333 803 195 66 53 49
334 804 199 58 50 49
334 809 196 61 50 46
340 811 307 71 60 56
336 809 194 64 52 47
347 804 215 63 53 57
335 804 201 57 49 49
337 804 205 56 48 52
336 814 200 56 46 42
322 829 194 60 50 47
375 841 297 44 30 29
325 825 193 77 60 53
325 827 193 72 57 53
338 809 205 61 49 46
338 814 204 56 47 44
342 814 205 53 48 48
316 939 321 39 37 37
351 807 193 69 59 53
347 814 206 51 49 51
343 803 215 64 55 58
481 829 274 95 78 61
343 808 208 66 53 54
345 806 212 73 63 66
352 805 216 57 52 51
353 808 214 53 48 50
347 802 218 63 53 57
351 810 211 49 47 51
352 814 210 51 49 53
337 819 195 59 52 49
267 869 280 108 84 54
342 819 204 53 50 52
341 829 195 50 43 41
344 829 200 46 43 45
347 819 206 53 52 55
347 824 205 49 49 54
347 829 205 48 48 52
338 828 299 167 124 107
349 818 208 49 49 53
312 909 310 158 110 91
352 819 209 55 53 56
356 772 207 48 42 43
357 774 210 52 44 45
416 910 324 80 64 48
359 771 208 50 42 42
356 777 212 54 47 47
356 782 216 62 51 47
333 900 298 43 38 37
359 781 218 60 48 46
362 774 214 57 46 44
367 774 220 62 49 46
362 779 220 62 51 48
364 776 218 60 48 45
365 929 256 62 55 54
361 783 221 69 56 53
364 780 224 69 56 53
265 918 248 147 112 84
362 784 225 73 56 55
359 786 223 67 55 53
354 793 223 71 54 51
353 945 295 64 55 52
359 795 223 74 56 56
412 770 318 160 117 80
359 799 224 78 58 58
362 789 225 73 55 53
372 774 224 58 47 43
372 779 224 62 50 48
377 779 223 54 45 43
376 784 224 58 49 48
377 785 221 58 49 49
340 854 188 64 54 48
380 781 222 53 46 43
382 784 225 53 46 43
365 788 227 74 58 53
363 800 228 65 54 53
367 794 226 69 56 52
368 793 228 69 55 52
366 797 227 65 54 51
381 775 226 56 46 43
383 773 228 57 45 42
369 786 233 71 58 53
370 786 233 70 57 52
371 798 231 71 59 56
372 799 234 72 59 55
377 797 232 66 54 51
377 799 234 67 54 50
381 788 226 54 45 46
384 785 229 54 46 43
356 804 220 66 55 54
393 889 317 55 45 40
356 810 216 54 48 48
359 856 283 38 34 33
358 808 219 61 50 51
359 807 223 69 52 51
354 812 213 48 47 50
369 916 263 70 63 65
355 816 212 56 49 53
359 812 218 53 49 50
361 810 221 60 53 53
362 814 220 56 50 52
368 832 308 83 60 55
364 812 224 66 57 58
367 814 225 68 59 58
366 815 221 61 54 54
356 819 212 54 52 54
358 818 214 55 51 52
389 824 238 62 52 51
357 829 211 54 49 52
362 819 216 55 51 52
362 824 214 57 53 55
312 944 219 82 76 79
369 817 224 67 56 56
431 794 280 82 59 47
365 821 217 58 52 53
366 824 217 57 53 56
372 820 225 64 52 55
371 821 221 63 52 55
374 822 224 60 51 48
429 796 280 74 53 43
378 823 225 57 48 47
373 831 219 55 49 48
377 825 216 58 51 50
382 820 225 63 49 46
383 819 222 64 51 44
382 825 217 59 50 46
382 824 225 61 50 46
360 805 226 66 53 53
362 804 229 66 55 52
363 809 229 66 56 58
368 805 233 71 57 52
367 814 230 70 59 59
372 804 235 73 56 54
397 795 236 64 51 49
277 919 235 73 66 66
372 809 234 69 56 53
326 854 184 59 49 47
377 804 235 71 55 52
377 809 234 69 53 49
372 814 234 69 57 55
370 815 231 68 60 59
367 894 310 34 32 31
382 804 235 66 48 44
382 809 236 69 53 47
384 814 232 76 58 52
378 822 228 61 50 48
383 823 230 59 48 45
382 819 234 66 52 49
383 830 228 62 51 45
343 855 155 96 75 63
343 858 161 104 82 68
347 851 154 102 79 67
346 854 155 99 77 66
347 858 161 108 87 74
352 859 160 91 75 65
327 834 190 63 52 49
326 839 190 56 48 46
323 844 191 57 49 47
339 880 191 59 51 51
322 849 190 63 52 49
340 776 322 74 63 59
328 839 186 68 57 51
326 844 189 57 49 48
327 849 185 60 51 47
331 839 184 81 67 59
337 834 184 78 63 50
332 799 310 69 60 58
332 849 181 81 67 62
357 914 325 44 40 38
336 859 174 121 106 99
337 864 175 89 74 70
322 864 185 66 56 54
322 859 186 62 51 49
320 864 188 63 53 50
329 854 182 69 59 56
332 854 180 94 78 67
332 859 180 107 88 76
331 864 179 110 91 82
334 863 177 108 88 83
342 839 169 78 65 57
338 849 176 117 97 84
344 845 170 92 73 64
360 943 283 58 51 49
342 848 175 98 82 72
350 836 166 89 70 56
348 834 170 75 62 52
346 834 174 69 55 46
345 838 173 77 65 58
352 834 170 84 65 56
300 961 233 78 74 76
347 844 167 91 75 66
344 845 167 95 75 67
344 850 166 95 75 69
351 850 165 88 74 65
347 849 175 94 82 76
351 849 170 83 69 61
341 839 190 59 51 46
341 845 180 90 74 63
344 834 178 73 63 57
339 855 171 105 89 79
339 859 166 102 82 68
341 862 161 79 61 51
338 862 172 80 66 59
277 949 310 160 123 104
342 861 169 79 63 54
348 850 162 100 82 71
351 853 164 96 81 71
432 784 270 84 63 50
348 853 176 86 77 69
350 854 174 75 65 56
347 774 325 75 64 59
352 860 164 86 71 61
350 858 175 77 66 57
405 882 291 86 65 57
335 847 288 165 123 99
350 863 174 89 76 66
278 961 233 71 67 69
339 850 191 67 57 51
271 954 307 137 102 90
339 854 184 71 58 48
355 957 266 56 52 52
343 858 181 81 72 64
342 859 185 71 58 51
340 860 188 58 48 45
343 864 185 69 57 51
427 905 306 103 86 71
345 863 180 82 69 59
421 809 305 140 91 68
322 869 185 82 68 64
326 870 183 93 77 71
327 874 184 83 70 70
322 874 186 85 70 66
320 875 188 84 70 67
335 866 178 83 68 66
343 813 308 74 63 59
337 869 180 79 66 64
330 875 183 90 79 78
337 874 181 95 80 76
323 884 187 81 67 64
323 889 187 83 68 64
390 923 306 126 104 103
327 884 186 87 73 69
322 894 188 87 73 70
327 894 190 83 71 69
337 881 184 90 77 73
336 882 182 90 76 71
332 889 190 70 61 60
337 884 190 70 60 59
342 874 211 61 57 61
337 888 191 66 57 56
384 916 298 84 69 60
341 873 172 96 80 75
312 954 225 85 79 82
347 868 176 97 80 70
352 867 170 82 70 66
342 869 185 82 70 64
339 867 192 53 44 46
307 799 300 196 148 128
337 878 177 89 74 69
342 878 181 92 78 74
362 849 166 83 71 65
341 879 190 66 57 55
351 868 180 88 75 68
346 873 177 97 82 76
347 874 180 92 79 74
347 879 185 77 67 65
351 874 186 84 73 68
350 877 181 85 76 74
350 877 185 82 74 70
348 878 188 71 61 61
350 877 188 73 62 61
333 935 219 67 62 64
342 883 186 78 69 67
267 814 276 67 55 50
340 888 185 77 67 66
341 887 191 65 58 59
346 883 190 68 59 58
357 854 156 91 77 70
354 856 156 82 67 59
368 899 250 64 56 57
354 857 156 87 72 62
357 860 160 82 71 63
361 850 160 86 75 70
362 853 160 95 84 79
356 837 167 75 59 55
363 839 170 85 85 85
366 840 170 64 59 56
363 844 166 65 57 53
363 846 168 66 57 50
366 849 169 85 70 66
356 864 166 85 73 65
363 854 165 81 71 68
366 853 161 88 79 76
366 853 165 79 70 68
322 976 243 84 79 83
363 853 169 77 67 62
366 853 169 80 69 64
352 871 188 77 66 63
321 834 194 58 50 48
321 839 194 56 49 47
335 859 200 49 42 46
336 854 200 51 45 47
337 854 204 52 47 49
334 860 202 49 44 48
342 834 195 46 41 41
343 834 200 43 40 43
288 968 313 59 54 53
342 839 195 46 40 41
338 844 200 46 41 44
286 862 292 145 118 93
339 845 196 46 39 41
338 849 195 50 42 44
336 849 200 50 44 46
419 853 287 68 53 44
340 844 194 49 42 43
340 847 193 56 49 44
338 845 203 47 45 47
342 844 204 47 45 49
347 834 205 44 43 48
350 839 207 50 49 53
347 844 206 46 44 47
350 843 207 46 45 49
353 834 209 50 49 53
353 839 209 48 47 51
352 844 209 47 45 49
349 845 208 44 42 46
349 849 208 50 49 54
352 849 210 48 46 51
336 854 195 51 43 47
346 853 207 52 48 53
338 859 209 59 57 60
272 819 279 53 44 43
351 853 215 49 45 50
384 823 323 199 150 126
352 854 220 53 48 53
348 864 213 64 61 65
350 861 216 55 51 56
349 856 220 51 46 50
350 860 219 55 51 53
352 859 225 58 53 56
336 869 205 56 51 53
336 874 205 55 50 53
336 884 195 57 49 52
332 889 195 64 57 58
317 919 308 116 78 66
332 889 200 59 52 53
336 879 200 54 46 49
332 894 200 64 57 57
336 879 205 52 46 49
333 889 203 57 51 53
337 889 206 58 52 55
329 895 195 74 67 68
331 893 194 67 60 60
332 894 204 64 56 55
337 894 200 67 59 59
340 870 194 51 41 43
338 874 196 49 41 44
340 873 194 51 42 44
351 875 198 63 55 56
342 869 211 68 66 69
342 879 211 59 55 59
347 870 215 59 54 58
344 871 213 64 61 64
344 871 220 55 50 55
348 869 224 55 52 57
351 868 219 52 46 51
