ply
format ascii 1.0
comment Created by Open3D
element vertex 2229
property double x
property double y
property double z
property uchar red
property uchar green
property uchar blue
end_header
270 481 230 58 29 34
341 875 185 141 125 115
298 347 321 131 96 71
270 495 225 156 21 54
274 482 237 58 30 33
275 487 236 48 27 32
276 484 239 54 29 27
276 493 234 108 32 47
278 497 237 62 26 33
350 577 344 111 31 42
380 417 348 129 6 40
277 482 242 89 26 36
279 482 246 108 25 41
278 487 242 105 24 40
366 662 342 131 95 62
338 707 157 116 90 60
280 486 245 105 20 40
410 829 320 42 37 32
405 537 293 62 29 36
300 545 94 189 121 93
279 492 242 75 22 33
350 666 195 47 28 31
379 817 197 69 53 46
368 518 349 191 3 59
349 441 172 97 81 63
329 617 337 158 108 89
281 483 248 99 27 42
283 482 252 83 23 35
285 481 256 69 23 34
392 441 108 167 11 47
284 487 252 153 3 46
286 483 258 126 7 41
287 487 257 153 0 45
426 845 320 75 64 54
339 357 324 126 98 65
301 626 149 152 113 93
329 697 145 134 94 59
287 607 282 73 30 37
286 488 254 154 1 45
281 493 243 75 21 34
345 806 322 49 42 43
284 497 247 120 12 40
285 492 251 147 1 44
288 492 257 151 0 45
301 552 119 113 64 61
333 347 325 128 100 67
466 742 291 94 75 58
289 497 257 151 0 44
400 443 136 182 9 46
286 662 206 94 21 35
273 502 227 126 14 44
369 492 348 142 12 42
279 502 237 101 26 40
274 507 226 156 1 46
375 685 343 129 95 60
271 593 209 46 25 34
275 512 225 154 2 46
370 608 319 54 26 31
384 677 297 54 22 30
277 507 232 149 1 45
338 562 112 136 22 39
278 512 232 150 1 44
328 632 362 181 131 102
347 823 303 43 36 38
363 447 367 63 26 30
280 507 236 148 5 47
391 767 194 66 54 49
282 507 238 144 3 43
395 497 314 150 0 45
371 477 340 136 7 45
280 500 240 39 27 32
330 855 298 71 57 40
324 884 325 54 46 39
282 502 242 88 16 35
304 708 176 124 87 77
312 733 324 122 24 48
284 502 246 147 2 43
336 799 309 69 56 51
286 502 248 146 1 42
297 886 368 48 44 44
286 498 249 149 3 46
338 873 352 52 48 46
284 507 242 136 5 41
376 261 297 145 101 72
284 512 242 145 1 43
373 840 397 83 65 49
285 506 245 146 1 43
399 807 232 56 47 46
286 507 247 146 0 43
343 422 337 71 54 38
431 406 276 122 21 44
286 512 247 143 1 42
357 425 141 97 80 64
288 507 252 146 0 41
288 512 252 144 1 41
338 797 317 66 53 49
290 502 257 147 0 42
325 422 157 100 85 68
400 698 254 78 34 38
289 512 257 143 0 42
322 413 159 100 84 68
328 342 325 129 101 68
323 397 176 99 86 73
358 717 360 164 113 86
413 406 207 118 21 25
322 398 174 97 85 72
359 875 307 31 29 30
323 388 179 99 86 73
324 386 181 99 86 72
303 717 177 104 70 63
327 393 179 99 85 70
329 392 181 100 85 70
358 868 352 63 57 54
328 622 366 167 118 92
275 882 274 176 127 105
328 397 178 101 86 71
330 387 186 101 87 73
331 388 188 100 86 72
333 387 192 101 87 74
402 707 297 57 38 32
332 798 303 67 54 50
410 457 308 68 28 34
301 819 170 200 142 112
334 872 308 52 44 37
333 392 187 101 87 72
332 393 183 100 85 70
324 918 353 59 55 55
414 467 217 125 20 38
334 391 190 100 87 74
385 632 267 104 25 40
449 743 309 75 56 46
330 396 180 99 85 71
322 404 169 101 85 69
310 531 364 122 87 70
431 412 247 51 31 35
325 400 175 99 85 70
325 405 171 99 85 70
327 409 168 100 84 67
327 387 240 89 71 55
298 552 137 134 4 38
322 409 163 99 85 69
313 978 287 55 52 53
324 411 162 100 84 68
325 410 165 98 84 68
301 702 169 156 110 96
328 412 167 100 84 68
419 708 330 56 45 33
326 413 164 99 84 68
292 447 297 53 28 29
325 417 161 99 83 67
331 408 174 99 84 69
296 492 282 108 7 35
341 704 178 65 40 45
354 393 228 86 73 61
331 411 173 98 84 69
328 622 137 150 108 78
328 417 172 99 84 69
329 417 177 100 83 66
352 895 316 31 28 33
378 409 326 78 37 26
332 403 178 101 85 69
412 772 247 63 50 45
335 407 181 98 83 68
368 617 317 57 25 33
333 417 182 99 82 65
343 417 187 96 80 64
334 413 181 98 82 66
336 697 338 154 106 85
386 870 244 86 72 67
380 768 185 63 50 42
349 532 112 140 11 40
381 674 229 125 13 41
354 587 177 76 23 35
335 417 185 98 82 66
347 567 351 94 41 40
337 397 188 99 85 69
319 477 417 94 69 54
339 397 191 101 87 73
343 511 357 77 14 31
345 582 363 157 114 82
415 422 303 98 10 33
408 702 250 60 42 36
336 407 183 98 83 67
338 402 187 99 84 68
299 727 153 164 110 74
340 401 190 99 85 71
343 407 188 98 84 68
350 798 160 165 111 79
388 512 182 166 13 40
465 799 319 43 34 27
341 404 189 99 84 67
369 917 322 56 49 48
336 411 183 97 82 67
376 855 218 70 60 58
305 362 274 83 66 46
446 786 294 76 62 49
347 405 190 96 82 68
331 478 396 135 16 46
348 404 192 92 77 62
324 822 272 162 121 98
353 407 186 94 79 64
429 858 322 68 55 43
403 401 312 111 18 31
307 632 298 112 22 42
353 403 192 93 79 64
288 477 387 132 1 31
335 909 359 68 65 64
348 412 188 93 77 60
390 676 267 60 30 35
323 434 357 59 45 33
347 418 189 91 76 60
348 414 190 92 78 63
348 417 190 91 76 60
323 429 132 102 87 72
328 429 132 101 86 71
302 492 327 48 28 30
328 430 130 101 86 71
328 428 137 101 86 71
393 832 312 43 39 39
397 694 256 71 28 31
360 554 329 37 24 33
439 834 348 68 57 50
407 422 192 135 10 35
323 426 142 102 87 72
328 427 142 100 85 70
322 742 328 90 23 36
333 429 132 100 85 69
299 752 158 165 113 80
335 429 129 100 85 69
271 537 127 112 13 37
434 772 302 84 68 53
333 427 142 100 85 69
302 623 166 79 45 42
322 424 148 101 86 70
340 879 179 154 141 130
288 452 332 94 26 36
337 357 325 126 98 66
321 419 154 100 86 71
396 576 238 183 12 51
320 425 145 102 87 72
346 547 356 61 22 32
328 426 152 101 85 68
325 427 158 100 85 68
333 427 147 100 85 69
333 432 156 100 84 68
288 402 267 67 44 34
350 721 180 99 30 31
340 298 319 134 97 62
273 712 242 137 2 42
325 437 159 101 86 69
284 427 287 133 10 42
280 490 414 135 75 78
328 437 158 101 85 68
284 483 425 65 36 30
325 440 159 101 86 70
293 562 147 161 0 37
333 437 158 100 84 67
368 692 356 147 100 67
414 447 212 93 26 36
338 429 129 99 84 68
307 276 307 90 77 64
338 428 137 99 84 68
275 707 246 136 4 42
343 428 132 98 83 66
338 427 142 99 84 68
374 452 353 171 13 55
280 469 400 97 22 36
353 427 132 95 79 62
390 798 348 151 104 79
353 425 142 97 82 65
435 771 305 80 66 55
338 427 147 99 84 67
306 803 227 79 64 59
313 872 323 96 76 60
270 557 197 84 19 34
338 428 152 99 83 67
338 432 156 99 84 67
344 428 156 98 82 66
303 532 292 92 20 34
348 426 152 98 83 66
352 425 147 98 82 66
289 906 360 56 50 48
301 530 69 228 146 128
431 411 272 35 28 32
348 426 157 97 82 65
303 497 322 96 29 40
408 757 331 63 44 31
351 425 157 97 82 65
333 443 161 100 84 67
341 436 159 99 84 67
383 399 222 103 64 51
445 802 302 58 47 42
337 440 159 99 83 65
324 422 162 100 85 69
391 591 243 46 30 33
413 807 257 54 45 43
324 423 167 100 85 68
338 793 150 176 119 85
374 918 267 65 56 54
338 437 176 98 82 65
326 421 168 99 84 67
364 524 344 72 10 25
328 422 172 100 84 67
396 586 277 81 31 39
323 427 162 100 85 70
317 506 411 193 130 108
322 432 162 101 86 71
351 536 128 45 28 32
322 432 168 101 86 71
360 848 172 114 80 60
339 387 243 86 70 56
324 432 170 100 85 70
293 577 307 94 22 37
419 752 247 83 64 55
325 427 170 100 85 70
328 427 171 99 84 68
328 432 171 100 84 68
390 478 161 111 18 35
408 418 137 120 21 36
330 420 175 99 82 63
453 747 327 79 57 45
333 422 177 98 82 64
289 637 272 92 28 39
332 427 173 100 83 64
332 432 173 99 83 66
335 427 176 99 82 64
279 941 252 75 70 70
335 432 175 98 82 65
334 421 182 97 82 66
320 437 164 101 86 71
328 437 167 100 85 68
291 378 302 138 100 75
320 378 264 76 59 43
400 568 247 183 5 52
360 862 195 87 76 69
327 434 169 101 85 68
323 441 165 101 86 70
301 503 302 108 19 37
318 837 277 75 61 46
289 352 302 138 100 74
387 462 132 117 24 41
320 440 166 101 86 71
300 546 317 47 29 34
350 844 392 53 43 37
334 632 327 143 88 76
328 446 163 101 85 69
333 437 172 99 83 67
331 438 169 100 84 67
335 437 175 98 82 65
333 446 167 100 85 68
333 442 172 100 84 67
333 602 370 168 119 90
353 722 358 165 113 88
328 677 316 64 25 30
335 441 175 99 83 67
353 422 167 98 82 66
353 422 172 98 83 66
350 424 177 98 83 66
348 427 162 97 81 64
387 816 341 116 71 54
344 432 161 97 82 65
388 400 277 65 57 48
373 712 359 152 104 72
392 797 347 150 102 77
346 432 163 97 81 64
295 494 369 28 24 26
413 842 282 56 48 47
351 425 162 97 81 65
345 347 319 125 98 66
349 427 167 97 81 65
296 964 284 84 80 81
371 910 340 58 53 51
351 425 166 97 81 65
355 804 165 160 106 75
347 426 177 98 83 66
323 694 320 109 1 35
350 424 169 97 82 65
336 424 179 98 81 62
338 420 185 98 81 64
402 486 310 186 3 60
338 427 178 98 81 64
343 426 181 96 79 62
338 516 57 109 20 36
351 421 182 97 81 65
348 422 187 97 80 63
368 874 338 34 31 30
353 417 182 96 81 65
351 417 190 92 76 59
327 592 341 127 82 69
348 420 190 92 76 58
323 298 269 94 77 57
347 425 182 98 81 64
408 832 282 47 41 43
421 416 291 156 4 48
343 437 161 98 82 66
360 660 349 136 93 59
333 727 332 129 4 41
406 451 159 181 18 46
344 437 173 98 82 64
299 692 307 118 7 38
342 437 176 98 82 65
323 497 412 166 119 98
338 442 161 98 82 65
338 447 163 98 82 65
337 448 168 100 84 67
343 442 162 98 82 66
309 557 126 68 11 34
343 447 163 98 82 65
338 444 174 99 83 66
338 446 171 99 83 66
343 442 175 98 82 64
343 441 174 98 82 64
320 565 375 174 120 96
342 447 173 99 83 66
345 446 175 98 82 64
286 711 200 42 37 40
328 792 147 168 115 79
355 392 319 116 92 65
346 437 164 97 81 64
347 437 171 97 81 64
452 742 322 74 55 42
288 893 348 48 46 47
438 783 323 53 41 32
358 277 312 140 99 73
346 442 164 96 81 63
447 762 316 64 50 41
346 447 164 97 81 64
343 727 157 120 94 65
349 447 166 98 81 64
416 412 301 154 0 49
363 822 180 92 71 57
385 691 230 97 28 36
348 443 176 98 82 64
351 444 169 98 82 64
269 902 282 149 123 103
352 443 172 98 82 64
368 577 324 158 7 51
353 443 177 98 82 64
395 474 324 53 26 28
347 447 177 98 82 64
350 447 180 98 82 64
353 447 182 98 82 64
394 862 251 61 51 49
383 416 152 86 42 44
403 405 202 111 32 26
274 732 212 179 9 50
391 806 212 66 56 54
382 415 156 83 44 43
469 834 327 80 64 55
399 457 327 66 29 33
380 414 159 81 48 44
357 415 176 97 82 66
309 622 301 114 18 43
358 417 172 97 82 66
331 538 90 77 20 32
368 415 167 94 79 63
404 472 172 64 37 38
363 417 167 96 81 65
441 845 318 97 80 67
364 414 173 94 80 65
363 851 400 80 63 51
360 414 174 95 81 65
315 264 307 104 86 67
288 312 307 130 95 67
366 415 170 94 79 64
368 411 177 90 76 62
358 406 187 93 79 64
358 408 183 93 79 65
280 662 222 96 16 37
358 404 192 91 77 62
458 762 307 97 74 57
323 885 331 45 39 36
354 412 183 94 79 65
280 642 217 131 8 41
354 417 177 97 82 66
357 411 181 94 80 65
354 409 184 92 77 63
368 407 187 91 77 63
403 712 302 51 35 29
406 718 229 62 44 40
363 409 183 92 78 64
360 360 304 116 92 62
368 410 180 91 77 63
368 417 162 94 78 63
333 602 157 94 26 36
372 415 165 91 75 60
373 414 167 90 73 59
324 503 407 194 131 113
373 410 177 90 74 61
421 734 344 56 46 35
300 521 373 163 118 95
378 522 342 159 5 49
373 412 172 89 73 60
408 522 227 71 30 32
379 414 163 83 56 48
378 413 167 85 60 50
397 792 222 60 50 47
383 413 162 81 41 40
383 412 167 79 43 40
326 439 405 64 15 23
378 411 172 87 64 53
302 473 332 167 0 47
383 411 172 80 46 42
282 867 292 150 116 93
383 410 176 82 50 45
373 406 192 91 76 62
441 723 336 66 50 38
340 710 165 112 86 59
324 462 388 122 3 35
373 409 179 90 74 60
383 406 192 84 54 46
360 736 180 115 28 35
378 409 178 89 67 56
388 706 222 90 51 46
368 382 297 109 86 61
427 831 400 91 74 63
294 493 373 31 28 29
391 679 282 51 27 35
378 408 182 90 68 57
383 409 178 83 50 46
358 426 132 95 75 58
369 587 196 175 14 43
327 442 406 77 19 30
358 425 137 96 78 61
426 404 229 116 26 38
360 424 139 96 77 62
358 424 142 97 79 63
363 424 137 97 71 56
391 678 277 42 30 33
360 730 360 161 111 86
410 462 211 102 23 37
368 422 142 96 65 52
268 572 177 131 2 33
367 425 131 101 63 49
318 528 87 170 109 99
365 424 134 97 67 53
355 523 135 43 30 35
441 781 289 55 45 39
358 422 152 97 81 65
279 868 311 135 105 86
354 423 157 97 81 65
358 422 157 97 81 65
284 472 261 105 13 37
371 271 297 140 95 67
276 930 255 71 66 67
437 742 283 52 44 38
354 424 147 97 82 66
363 422 147 96 76 61
368 421 147 93 69 55
437 707 312 79 62 43
364 419 158 95 80 63
362 420 156 96 80 64
373 423 132 102 51 40
292 357 292 125 95 66
300 426 332 52 37 24
371 425 130 103 56 43
378 421 137 97 43 40
383 421 132 101 37 35
377 420 141 94 46 43
307 457 412 49 22 26
300 767 256 83 65 58
413 399 257 83 49 37
353 778 151 128 92 60
384 419 138 93 37 39
383 418 142 89 40 42
330 879 202 47 43 43
387 432 94 170 38 46
370 419 149 91 67 53
374 419 148 91 57 48
373 418 152 88 62 52
300 821 186 190 140 113
340 494 374 124 0 38
466 741 289 94 75 58
372 420 146 92 60 49
378 418 147 90 48 45
383 417 147 88 42 44
339 282 270 93 71 44
397 737 207 63 47 43
359 418 167 98 82 66
270 554 161 126 0 37
353 422 362 70 29 30
358 421 162 97 82 65
355 418 173 98 83 66
335 740 145 124 93 56
375 579 200 179 15 44
281 742 205 159 3 43
363 418 162 96 81 65
293 462 297 51 29 31
354 447 172 98 82 64
280 682 218 52 38 40
375 844 210 67 53 48
355 445 176 98 82 64
357 447 177 98 82 64
356 448 174 98 82 64
355 351 286 90 78 65
335 386 195 103 89 76
338 387 196 102 88 75
336 388 194 102 89 76
380 642 289 158 11 49
342 388 198 103 89 75
341 392 194 103 90 76
343 392 197 102 88 74
340 874 189 82 69 57
349 527 107 157 8 40
344 542 358 74 23 36
340 386 200 104 90 76
325 577 332 47 29 33
343 387 202 98 84 70
344 396 196 100 87 74
333 877 232 52 47 50
345 385 207 89 74 59
348 387 207 88 74 60
441 841 360 79 58 43
414 527 272 170 11 49
291 460 407 44 30 27
345 391 201 94 80 65
348 392 202 89 75 60
351 393 203 89 75 60
383 507 332 49 27 29
290 692 199 50 35 37
353 392 207 88 75 61
348 398 198 91 76 61
272 562 232 43 27 34
305 283 293 109 89 68
352 399 199 93 78 62
353 397 202 89 75 60
345 385 210 82 69 55
349 884 181 110 92 91
348 386 212 84 71 58
292 509 363 82 19 29
355 553 156 71 27 36
352 388 212 87 74 61
352 388 216 83 71 59
349 883 197 86 74 69
285 475 384 120 3 44
345 385 219 80 68 56
349 390 219 82 70 59
297 472 367 154 5 44
352 392 217 83 71 60
349 395 223 83 71 60
385 690 299 77 13 28
351 394 220 84 73 61
280 642 241 142 5 45
308 523 357 63 28 34
335 476 384 142 14 45
348 401 196 92 77 62
281 706 205 113 17 35
303 542 118 53 24 31
353 402 197 92 77 62
329 387 238 86 70 54
348 876 342 39 36 35
265 922 297 132 103 87
335 386 227 78 65 52
352 622 357 164 117 87
318 955 325 90 87 88
332 388 236 84 68 53
295 419 330 65 50 33
330 391 239 85 69 54
373 917 312 49 43 39
335 391 234 82 68 53
371 842 199 73 59 54
324 387 243 88 69 52
322 387 246 82 64 48
414 813 318 39 33 30
483 795 305 107 82 61
395 742 205 56 44 43
323 391 247 83 65 49
338 808 156 177 120 86
380 908 262 77 66 64
374 652 298 94 17 36
325 390 244 88 69 52
351 615 189 146 27 53
320 390 249 77 60 45
336 692 172 67 53 40
413 822 317 44 37 33
321 390 255 76 60 44
319 812 262 185 129 110
380 909 272 62 53 51
402 462 321 55 26 29
297 797 197 178 128 101
324 388 254 80 63 47
299 761 262 80 64 57
328 387 252 86 67 50
314 382 268 74 57 42
333 392 247 91 72 56
311 560 130 45 8 45
332 387 250 90 70 53
330 395 244 91 72 56
333 396 242 85 70 54
427 412 222 137 13 36
356 824 318 58 43 43
335 395 246 89 71 56
288 442 322 140 0 38
272 612 212 47 31 35
467 731 335 93 75 60
331 518 70 172 11 37
275 877 274 156 118 93
338 387 227 78 66 53
375 395 273 61 52 44
283 897 323 110 93 78
437 807 316 62 51 47
337 388 231 79 66 53
340 390 229 80 68 55
338 392 232 81 68 55
343 395 232 82 70 58
312 505 416 199 137 117
284 462 362 53 27 30
378 397 227 89 72 59
338 394 237 83 69 54
299 298 321 107 86 60
343 395 237 82 70 57
309 447 392 64 26 24
349 388 234 84 71 59
338 727 148 124 92 57
417 766 252 65 51 44
354 385 236 84 72 60
334 311 270 89 72 53
302 575 310 138 0 41
352 392 231 86 73 61
288 682 202 52 34 39
284 761 222 88 71 65
404 457 161 121 13 37
300 563 302 60 29 33
299 703 316 89 9 31
348 395 227 83 71 60
352 395 227 85 73 61
335 845 217 182 130 102
363 823 332 139 94 73
347 395 236 83 71 59
363 752 361 155 111 82
338 393 242 85 70 55
336 391 245 87 71 56
365 880 302 30 29 31
342 387 241 83 69 55
411 825 275 59 48 45
402 471 168 62 33 36
342 392 241 83 69 55
337 395 242 85 70 55
346 385 240 83 70 56
403 732 327 43 32 26
410 415 152 38 33 30
357 399 204 90 76 62
356 393 209 89 76 62
354 396 217 86 74 63
358 394 224 87 75 63
352 317 283 96 76 53
329 657 167 135 96 73
363 398 212 90 78 64
368 399 212 91 78 64
308 307 324 124 91 63
368 397 217 91 78 65
314 755 316 76 63 57
363 395 221 89 77 65
358 402 197 90 76 61
354 400 201 89 75 60
358 401 202 89 75 62
294 622 177 74 32 41
363 403 197 90 76 62
409 701 338 92 61 53
362 404 194 90 77 62
363 401 202 90 76 63
369 414 343 88 24 31
369 483 131 68 31 34
368 401 207 91 77 64
408 702 282 75 55 40
368 400 210 91 77 64
337 652 322 61 40 39
358 737 359 161 112 87
346 722 353 171 119 94
373 399 213 91 76 63
373 398 217 91 77 63
373 682 312 47 26 30
373 397 222 90 76 63
378 399 217 94 72 59
272 532 162 125 8 39
378 398 222 93 73 60
356 864 169 128 104 86
382 399 218 102 65 52
338 667 322 62 34 35
408 857 366 56 45 36
360 262 314 125 95 63
373 404 197 91 75 62
353 832 182 91 69 59
294 746 287 84 53 51
373 405 195 90 75 61
303 652 125 180 123 83
373 401 207 91 75 62
378 405 196 86 63 52
373 858 357 44 37 33
273 558 146 196 7 49
378 403 202 90 67 55
344 568 121 74 24 35
377 432 357 88 18 32
378 402 207 94 69 57
337 889 191 86 71 68
373 482 337 67 20 32
378 400 212 95 70 58
295 537 323 67 26 33
353 907 352 49 44 42
313 323 325 127 98 65
358 392 227 87 74 62
356 384 234 85 73 61
403 717 312 49 33 29
358 386 236 86 74 61
362 389 233 86 74 61
363 393 227 88 76 64
294 457 297 47 26 32
367 389 238 83 72 60
304 738 181 91 60 51
368 391 237 83 72 60
325 879 239 93 75 64
376 621 306 66 21 28
368 394 227 88 76 63
366 394 224 89 77 65
348 807 327 136 104 84
368 388 242 81 70 59
365 385 246 81 70 59
368 387 247 78 68 58
323 587 322 71 25 33
369 386 252 77 67 57
371 394 228 87 75 62
373 394 232 85 72 60
374 395 231 86 72 60
378 396 232 84 69 58
304 377 326 131 96 72
383 398 227 99 64 51
383 397 232 87 64 53
328 956 253 95 90 93
376 394 234 83 70 59
377 394 237 79 68 58
383 396 237 77 61 53
290 512 260 143 0 43
373 391 242 78 68 58
374 391 247 76 66 57
379 873 302 38 35 37
369 386 257 76 66 55
372 388 252 75 65 56
375 390 257 71 62 52
378 393 247 74 64 55
378 392 252 74 64 54
428 847 367 75 60 48
378 393 257 69 60 52
378 394 242 75 65 56
380 395 241 74 64 55
393 701 312 67 33 30
302 865 313 100 81 59
383 396 242 71 59 52
389 427 338 96 10 35
286 452 273 32 29 31
358 477 357 118 3 34
381 394 247 73 62 53
303 973 277 96 91 92
337 518 61 69 26 31
324 627 347 176 125 102
338 956 253 76 71 73
287 861 272 141 115 88
383 395 247 71 61 52
396 734 345 153 111 79
382 394 252 72 62 53
384 395 252 71 62 52
381 394 257 69 60 51
312 657 304 141 0 42
288 447 382 55 35 26
363 892 231 66 58 59
335 454 164 99 82 64
324 524 88 88 7 30
335 455 164 99 82 64
338 455 163 98 82 63
353 272 316 130 96 63
303 626 168 56 41 41
343 452 163 98 81 63
295 470 367 121 18 43
342 453 167 98 81 63
480 784 303 109 87 62
343 456 167 97 80 61
296 400 286 86 64 48
343 452 172 98 81 62
347 456 168 98 81 62
313 622 162 80 56 51
374 908 338 58 53 52
409 437 312 75 25 34
282 528 101 142 50 54
371 511 153 168 11 42
345 450 175 98 82 64
397 452 331 81 23 34
295 770 236 85 67 59
348 452 177 98 82 64
346 453 174 98 81 61
299 732 172 163 112 91
325 573 120 124 62 56
297 472 307 50 28 31
349 457 177 98 80 60
483 787 312 97 82 67
353 457 172 98 82 64
348 462 177 99 81 61
296 611 138 151 109 87
299 757 177 160 111 85
321 598 364 172 123 97
419 869 353 62 54 48
318 322 324 128 99 67
388 398 232 95 54 45
353 462 173 99 81 63
350 451 180 98 82 64
335 322 270 82 66 48
358 871 347 51 46 45
314 497 419 169 118 98
290 647 271 52 27 32
352 452 182 98 82 64
352 457 178 98 81 63
350 459 180 98 80 60
349 462 180 98 80 61
353 462 181 98 80 61
308 637 121 167 112 74
363 612 202 140 17 41
349 467 173 99 81 61
386 451 345 100 0 34
352 466 173 99 81 61
353 467 177 98 81 61
325 422 340 90 70 48
350 465 180 98 81 61
418 477 257 45 30 32
411 477 302 146 4 42
349 963 292 71 67 67
352 465 180 98 80 61
290 702 292 128 10 40
332 867 236 101 77 65
290 357 298 134 98 71
373 477 132 102 23 40
392 872 252 64 53 50
384 622 287 61 29 33
375 474 130 179 20 50
412 537 267 154 13 44
313 887 332 48 42 39
378 472 132 74 27 33
383 467 132 139 23 44
381 470 134 55 36 30
391 412 335 112 9 32
315 454 399 120 9 31
382 471 137 50 33 35
384 472 142 70 31 38
301 487 312 84 21 33
399 727 262 81 20 35
376 476 133 86 29 36
378 477 137 78 30 38
349 557 127 38 28 32
379 478 141 109 27 41
382 476 143 134 26 43
383 477 147 64 32 36
385 478 151 62 35 37
356 452 174 98 82 64
400 889 332 56 47 44
356 455 174 98 82 64
357 457 177 98 83 66
355 463 176 98 81 63
325 547 347 77 24 36
357 462 177 98 82 65
293 526 58 226 142 127
359 452 182 98 82 65
377 892 248 63 54 54
358 457 182 98 82 66
287 467 272 62 27 33
354 449 186 98 81 64
354 452 186 98 81 64
357 462 181 98 82 65
321 608 358 176 127 100
357 866 162 110 88 73
356 465 177 98 80 60
365 702 359 158 107 76
368 487 132 131 20 41
361 488 360 137 5 43
364 493 131 156 13 39
344 498 368 134 7 42
361 862 198 77 66 63
365 489 130 116 10 42
367 491 133 147 10 46
367 497 137 165 13 43
359 507 132 102 17 35
364 662 332 103 78 51
363 887 367 51 45 42
362 502 132 135 13 38
413 727 232 62 46 39
392 562 307 164 5 50
360 504 130 116 7 32
326 632 357 183 132 103
364 502 137 167 14 39
365 498 136 166 13 38
308 327 324 122 91 64
363 507 137 164 14 41
365 508 141 175 18 39
280 596 184 77 28 37
328 397 335 127 98 70
364 512 142 146 16 41
292 464 356 64 26 29
295 470 364 114 14 40
428 427 257 132 16 42
367 507 143 169 15 39
367 512 147 140 16 39
323 959 255 95 90 95
313 934 230 78 71 71
372 481 133 80 32 37
373 482 137 96 21 37
414 693 338 75 54 37
316 327 270 100 75 52
370 488 136 167 14 45
340 811 306 72 57 52
372 486 138 173 16 42
375 483 141 175 18 47
371 541 169 166 10 40
452 767 299 97 77 61
374 487 142 175 14 42
372 492 142 139 12 36
370 493 140 164 12 40
363 868 348 47 41 39
376 480 139 62 16 26
377 482 142 126 22 41
405 523 220 136 20 35
325 457 389 157 3 51
375 488 145 171 14 41
302 297 292 95 76 56
375 498 151 53 29 35
302 396 277 76 59 43
379 483 146 88 21 35
377 487 147 150 13 40
503 802 316 96 75 61
291 317 300 112 87 57
379 488 151 168 14 43
290 304 315 115 88 62
381 486 153 181 15 44
361 530 149 167 14 38
385 483 156 126 17 37
376 491 148 162 13 45
355 855 395 61 47 40
376 497 153 111 21 38
323 508 397 191 130 106
370 392 297 85 71 56
354 297 307 130 92 70
379 497 157 125 15 38
380 489 155 178 16 42
382 491 158 175 15 41
381 495 159 172 12 45
311 896 241 91 75 61
319 637 126 170 115 81
370 503 146 171 15 43
345 629 190 175 17 47
312 372 270 83 62 40
295 492 276 143 0 38
372 502 148 120 18 37
374 409 326 71 52 28
374 502 152 124 17 39
323 297 323 127 97 62
375 508 156 139 15 42
373 512 157 164 10 38
421 421 290 159 6 50
289 852 287 124 84 70
380 498 160 134 16 39
379 502 162 153 12 42
283 637 202 86 29 37
384 497 167 147 15 41
381 501 163 168 11 41
323 964 260 98 95 100
443 762 283 60 49 42
378 507 162 146 9 37
369 422 363 71 20 27
379 512 167 160 10 40
382 507 168 133 14 37
290 592 168 85 25 38
313 434 357 61 35 30
348 577 137 84 28 37
424 702 330 63 49 37
384 507 172 99 24 37
287 592 172 89 27 36
362 451 366 68 22 33
372 556 178 176 13 43
396 790 347 150 101 79
381 511 169 160 9 40
388 432 96 159 27 39
388 436 97 194 12 48
327 788 302 72 56 51
391 429 99 85 0 22
349 863 182 97 79 71
392 432 98 187 31 44
392 429 102 92 21 36
417 487 237 146 15 43
270 551 220 41 29 35
388 426 107 101 48 36
384 424 109 102 51 39
389 425 110 101 50 39
393 427 107 96 31 27
396 432 103 207 23 51
303 956 253 83 79 82
329 822 281 141 104 82
398 426 112 109 44 35
388 422 117 103 48 35
331 864 310 64 53 42
393 423 117 102 46 35
388 421 127 106 38 34
294 482 382 115 4 31
393 421 122 105 43 35
398 423 117 103 41 34
357 281 278 107 81 52
398 422 122 106 37 34
294 602 127 148 105 75
398 420 126 117 34 39
317 552 107 154 92 81
399 425 115 102 40 34
389 438 101 135 7 38
410 711 235 63 48 39
278 552 242 134 0 40
391 435 99 194 12 48
393 437 102 184 12 45
325 610 149 114 79 60
370 918 256 78 68 68
388 441 103 73 22 31
385 444 105 50 22 22
357 876 385 56 50 46
387 446 108 46 28 33
388 447 112 117 23 40
301 823 177 204 144 113
390 444 110 143 17 50
397 436 108 198 6 49
398 437 112 190 7 47
393 447 117 163 18 44
331 368 330 127 98 64
283 561 148 194 3 43
400 438 121 192 6 50
395 443 116 187 12 51
395 448 126 167 20 50
345 805 325 62 47 42
398 442 122 175 9 45
399 442 127 189 7 49
278 532 112 133 20 41
320 835 200 70 58 57
401 431 109 198 16 42
402 424 118 99 19 24
277 697 242 140 0 42
311 567 104 167 113 82
408 422 127 121 26 40
404 427 117 100 26 31
407 427 122 65 36 35
408 427 127 89 36 37
404 432 122 95 30 42
406 431 127 89 23 37
396 461 153 172 15 37
374 527 166 161 9 38
298 467 423 106 85 66
400 434 115 98 27 40
350 557 147 147 10 39
401 435 118 90 19 35
300 524 324 37 35 33
400 439 126 195 6 50
388 452 117 141 21 44
351 316 310 125 95 67
386 455 119 92 19 35
396 772 213 62 51 45
304 552 302 88 20 35
390 449 116 158 15 49
446 729 320 75 57 42
391 450 119 154 18 48
387 456 122 94 27 38
389 453 121 124 23 40
290 849 287 130 100 76
392 451 122 108 29 42
388 457 127 159 24 48
294 637 128 156 109 75
393 452 127 136 24 45
390 454 125 125 14 45
278 407 262 61 33 32
358 839 398 59 48 39
290 474 425 110 84 59
385 459 125 204 9 57
276 536 229 61 27 33
393 416 142 92 29 36
398 415 142 97 26 35
322 627 124 164 114 81
388 416 147 85 36 41
366 388 305 112 89 63
309 900 370 70 63 60
301 657 190 49 34 34
389 414 153 85 35 41
285 495 394 26 26 28
351 885 187 105 88 81
394 414 148 80 29 36
487 801 299 109 85 63
416 751 234 78 57 49
397 415 145 82 26 33
398 414 147 77 27 32
282 667 252 155 1 45
386 605 239 179 17 49
394 572 303 116 17 43
418 402 232 102 32 40
400 414 144 84 26 32
403 414 143 85 28 33
302 846 299 125 98 75
403 412 152 66 28 29
292 921 240 71 60 55
406 414 144 74 29 31
407 414 147 58 30 29
347 557 351 49 27 28
416 462 286 152 7 40
409 415 146 52 32 33
302 512 297 103 21 39
383 612 237 93 26 41
403 411 157 77 28 33
365 929 314 53 47 44
408 413 157 57 28 30
415 487 287 146 5 43
295 303 299 103 81 52
387 702 229 88 46 41
410 415 157 65 26 37
379 731 190 71 45 37
388 412 162 83 32 37
294 547 115 127 75 71
409 447 312 45 24 28
393 411 162 84 28 37
393 410 167 80 28 34
388 410 172 76 32 35
393 410 172 76 28 34
274 531 113 93 23 37
388 409 177 76 34 37
267 527 177 161 0 43
325 597 344 152 108 88
318 969 308 66 60 58
348 782 152 165 112 79
393 409 173 75 29 34
398 410 167 84 25 34
398 410 172 79 25 33
388 407 192 87 46 43
299 587 132 143 96 81
356 804 349 164 119 96
393 407 192 89 43 39
388 408 182 79 38 39
462 749 300 94 72 53
393 408 182 77 37 38
398 408 187 80 36 37
339 827 291 126 95 75
303 948 247 79 73 75
403 410 162 85 25 36
273 562 237 123 10 39
403 410 167 89 24 36
407 413 162 79 29 34
337 408 335 87 69 49
407 413 167 67 28 31
403 412 177 81 26 36
275 950 297 69 65 65
406 414 171 44 30 27
406 417 177 61 29 32
371 931 277 62 55 52
306 591 146 120 37 48
410 417 162 56 30 34
409 417 167 41 31 35
315 556 375 174 122 98
375 750 174 101 68 51
336 960 315 54 50 48
403 412 182 77 32 35
354 387 318 121 94 66
405 416 182 103 26 40
401 409 188 78 33 36
403 408 192 85 31 32
404 410 191 65 33 31
405 416 185 117 28 41
409 417 192 108 17 34
305 765 281 81 64 57
388 418 137 96 32 37
387 420 131 103 34 35
393 417 137 105 27 37
300 502 297 113 19 38
401 540 300 127 33 34
304 826 173 218 149 115
391 420 130 109 32 36
398 418 132 125 28 44
346 482 375 120 17 41
398 417 137 115 25 41
400 443 132 184 7 48
353 516 351 37 26 25
399 447 137 165 11 47
403 418 132 134 27 47
403 416 137 121 28 44
406 431 132 144 21 48
408 427 137 175 14 49
313 662 175 99 70 63
306 695 181 52 42 38
406 431 137 181 13 50
301 672 142 177 129 102
409 427 142 167 13 45
411 418 143 72 29 38
355 882 326 30 29 30
318 607 116 162 113 79
391 532 193 119 23 40
356 895 223 75 65 65
411 422 143 142 15 41
411 422 147 117 14 35
286 546 258 132 2 41
411 426 148 151 8 40
270 592 207 42 30 32
303 567 103 171 113 83
411 427 152 149 7 41
409 432 147 166 13 43
328 312 268 87 69 45
328 603 156 80 22 35
318 717 329 37 30 32
410 433 151 162 11 41
411 432 152 156 8 44
411 427 157 144 8 41
314 874 364 81 80 81
290 322 303 123 93 63
410 432 158 144 6 40
349 522 102 156 7 43
403 437 132 195 6 53
340 476 379 101 2 32
354 647 201 131 4 33
301 595 139 135 93 76
401 755 219 67 52 46
403 437 137 182 11 45
304 920 355 72 65 62
401 441 132 186 6 47
407 437 147 177 16 46
405 439 145 184 18 48
409 437 152 170 13 45
402 447 147 185 13 47
350 459 364 77 15 24
274 527 157 58 27 32
347 547 107 163 12 43
404 442 147 185 10 49
390 473 156 114 22 38
406 441 148 181 12 49
280 556 260 132 3 40
407 442 152 176 14 48
396 752 350 171 121 89
408 442 157 165 11 44
353 482 367 104 13 36
488 813 317 86 67 56
370 273 292 129 89 61
303 672 191 63 35 38
373 832 312 39 30 32
335 790 321 61 50 45
406 445 154 178 15 45
411 436 154 163 10 44
371 674 345 130 91 62
418 873 348 62 55 52
407 442 316 90 27 37
286 667 263 145 1 44
411 436 156 155 7 43
410 422 167 54 31 33
409 422 172 65 36 38
295 647 129 172 119 88
362 461 356 136 10 44
410 427 162 139 10 40
356 378 315 122 96 66
411 427 163 138 13 42
363 839 298 87 67 55
411 427 167 75 22 31
410 432 162 145 9 40
363 881 380 55 50 48
395 412 328 75 14 29
410 427 172 39 32 32
373 890 331 31 29 31
375 544 175 169 10 38
411 428 171 47 32 33
410 432 172 101 21 35
287 457 272 61 26 33
411 430 171 72 26 28
333 272 319 118 93 62
406 422 187 130 16 39
434 767 281 53 45 40
295 592 118 164 112 78
405 424 190 142 10 40
408 427 182 86 29 38
465 814 293 94 76 65
315 263 302 106 88 70
406 427 187 130 15 42
395 772 211 61 50 43
286 534 92 199 132 108
405 426 189 142 15 45
430 739 339 70 52 43
352 362 316 122 95 63
407 432 187 120 17 39
405 432 191 139 11 40
406 431 193 139 11 38
294 772 227 85 68 62
413 532 267 166 13 47
409 432 182 62 26 33
410 437 162 146 5 42
358 292 297 121 83 59
401 466 163 136 23 48
364 877 212 79 69 68
409 437 167 144 8 39
409 437 172 144 14 41
410 442 172 126 12 38
299 502 292 104 20 35
405 433 189 137 14 39
393 507 317 146 7 43
369 267 308 144 101 79
423 817 317 44 37 32
407 442 187 141 10 41
350 894 210 74 66 65
409 437 182 116 19 39
408 442 182 138 11 41
323 327 324 129 101 66
287 652 202 106 19 42
285 531 92 198 135 111
387 399 223 112 53 41
393 406 197 100 44 38
388 404 202 104 48 41
391 861 244 78 65 61
276 691 233 137 1 40
384 405 200 93 51 45
297 566 297 41 31 30
334 923 344 56 51 49
333 762 144 148 104 69
308 357 328 126 95 69
394 807 222 60 51 49
389 405 201 102 47 41
393 404 207 117 43 35
416 506 259 147 7 40
286 438 278 67 22 31
398 406 197 103 41 33
319 831 207 76 61 58
388 400 217 115 50 39
350 375 319 124 97 63
307 707 178 66 53 47
393 402 212 119 43 34
373 702 356 141 97 64
393 401 217 118 43 32
385 400 220 112 55 43
313 772 147 148 104 63
388 400 222 114 50 38
371 662 214 82 28 33
295 439 328 124 23 37
403 404 204 116 35 25
313 633 165 100 81 73
406 404 204 112 30 26
466 731 334 92 74 58
409 405 206 117 32 33
413 408 202 115 34 36
292 327 317 131 94 71
393 592 272 55 32 35
388 717 347 144 104 70
410 410 195 67 34 42
413 412 197 76 33 37
378 412 347 117 6 34
412 409 198 95 43 38
411 416 194 43 33 30
304 826 182 202 144 116
412 417 197 79 24 34
415 412 201 101 31 38
414 417 202 96 26 40
403 403 212 116 38 26
325 517 379 169 121 93
415 497 288 119 10 35
373 722 360 161 109 78
320 498 414 178 124 102
408 404 212 111 29 30
276 949 303 62 59 62
388 542 322 99 22 34
408 403 217 110 28 29
303 612 116 164 112 73
376 688 346 131 94 61
298 622 122 156 106 70
415 405 215 117 25 33
388 397 237 80 55 48
393 398 237 84 47 45
416 422 301 140 4 40
297 506 346 42 27 25
397 399 233 95 40 40
376 600 214 141 36 47
388 397 242 71 54 48
349 792 156 165 111 79
380 711 354 144 102 66
388 397 247 71 59 51
388 397 257 67 58 48
383 627 287 40 30 33
355 846 400 89 70 57
393 397 252 72 58 49
346 440 390 145 9 40
393 398 257 68 57 48
352 322 292 109 86 60
398 398 257 71 55 47
395 400 230 104 43 38
398 400 232 99 36 38
355 949 304 57 52 50
446 772 320 56 46 38
333 627 332 151 99 83
403 399 247 79 50 44
406 399 244 81 42 39
408 399 247 86 44 38
403 399 257 75 54 45
348 522 346 71 16 30
408 399 252 86 49 40
418 452 277 162 9 47
408 399 257 81 52 41
403 401 227 105 31 33
349 268 270 109 79 47
403 400 232 95 32 38
408 401 227 100 29 37
305 482 347 141 0 40
408 401 232 92 32 39
400 400 235 87 37 42
303 911 360 65 58 55
403 400 237 84 36 42
392 707 330 114 6 36
413 401 232 93 33 40
318 367 268 81 61 42
413 401 237 96 31 38
405 400 241 79 39 41
413 400 247 93 37 32
402 701 250 58 40 34
414 400 251 87 41 34
403 512 207 164 18 44
408 432 197 134 9 37
410 418 196 121 10 36
321 562 113 141 81 70
409 422 197 127 11 33
293 757 247 81 64 57
411 421 199 126 14 31
288 532 257 64 23 32
287 486 392 32 27 29
415 422 206 47 33 38
281 695 210 38 36 39
353 947 312 59 56 56
410 428 200 109 5 37
340 874 349 50 46 44
303 547 118 58 22 30
412 432 203 86 18 29
323 451 397 97 11 33
414 432 207 132 15 35
415 433 211 74 22 32
408 437 197 138 10 35
410 448 197 143 9 42
348 262 267 109 79 45
281 718 259 167 5 54
411 446 198 142 10 41
410 440 200 136 10 37
314 465 409 56 30 31
313 439 370 59 34 28
281 652 237 156 0 44
308 537 377 176 122 99
411 447 208 98 23 38
311 945 335 63 57 56
313 427 337 68 54 39
344 928 236 74 67 68
414 437 211 89 29 35
414 442 212 54 27 35
446 800 305 63 53 47
416 412 203 71 35 39
416 409 204 71 25 34
305 555 134 107 5 40
417 408 208 92 32 39
418 412 207 68 32 36
306 387 275 74 57 37
416 415 203 44 31 34
341 684 184 45 35 38
417 417 207 53 31 35
393 492 176 112 27 40
418 407 212 140 23 37
424 447 257 93 27 39
329 573 125 101 32 32
419 406 216 135 28 25
303 557 137 112 11 35
422 408 217 146 17 35
443 832 307 92 75 62
331 543 97 93 15 31
304 487 347 140 0 37
418 404 222 105 34 38
417 404 218 111 36 31
357 877 202 74 65 64
420 405 220 123 24 31
377 572 197 180 14 45
423 406 222 129 26 33
291 440 369 54 42 30
419 417 212 125 16 33
368 862 288 34 31 31
424 412 217 128 14 33
309 372 273 83 65 45
302 782 242 79 62 56
400 873 272 61 50 47
421 416 214 142 9 33
423 417 217 144 9 34
271 557 222 60 24 35
351 662 360 168 113 86
368 887 361 57 49 45
425 412 220 133 13 33
392 467 331 76 26 34
425 418 221 151 11 37
273 527 112 113 12 34
427 417 223 152 11 38
310 775 285 77 62 56
383 527 177 154 7 38
418 399 252 82 39 34
306 667 173 133 91 83
423 404 227 100 40 35
423 402 232 107 39 41
381 791 179 65 53 47
405 742 220 65 50 42
418 401 237 103 27 36
325 914 218 71 65 63
423 401 237 113 23 36
427 403 232 121 23 38
287 472 267 123 6 40
272 597 242 49 30 33
428 407 227 135 20 36
328 562 118 115 19 31
429 406 231 147 21 39
347 582 357 150 111 79
281 442 259 150 1 45
431 407 233 150 19 40
429 412 227 144 11 37
416 487 282 147 5 40
430 412 232 146 10 36
327 622 132 159 113 81
429 417 232 149 9 39
363 872 386 60 51 44
277 687 222 89 30 40
431 410 233 151 12 42
281 423 283 100 11 35
385 792 191 55 45 42
431 411 237 151 12 41
430 413 237 150 11 41
390 682 251 84 21 32
418 400 242 102 26 32
423 400 252 82 32 32
359 391 313 114 90 63
288 537 97 175 114 90
428 402 242 116 22 40
431 412 242 58 28 34
307 372 329 129 95 71
430 414 240 97 22 36
430 417 242 138 16 41
395 469 160 166 22 53
431 415 243 51 23 33
431 415 248 130 15 42
344 397 328 109 87 62
430 726 285 89 66 50
431 412 252 92 25 39
431 415 252 157 9 36
468 827 318 113 85 62
284 458 392 106 7 34
431 412 257 104 28 40
299 894 330 92 80 70
432 407 247 49 34 36
352 935 330 59 55 55
433 407 252 61 33 36
420 422 215 144 9 34
305 279 298 102 85 67
420 419 215 142 8 37
321 834 203 74 60 58
424 422 221 148 12 36
417 427 212 124 13 34
367 697 198 64 39 38
344 953 255 73 68 70
420 427 216 147 10 37
416 430 209 128 20 46
421 427 218 151 12 38
363 567 327 156 3 50
421 432 219 114 9 27
423 432 222 84 23 33
273 897 312 143 114 89
444 746 292 62 46 39
426 422 224 145 11 38
417 452 282 164 11 45
420 438 220 86 28 30
318 434 361 56 43 32
303 492 337 146 0 38
438 787 287 53 46 44
416 442 214 37 33 35
418 442 217 84 25 32
353 896 217 80 70 68
315 842 257 128 103 78
360 858 187 131 116 105
416 445 214 71 36 38
417 447 217 99 28 35
420 447 220 102 27 37
422 442 222 77 33 39
271 546 152 111 5 34
422 447 223 63 30 34
429 422 232 150 8 39
429 422 237 160 10 43
426 427 224 142 12 35
425 433 226 147 12 32
426 432 227 155 10 39
428 427 232 153 8 41
334 702 327 115 6 37
358 452 367 61 23 30
360 454 364 140 23 53
356 561 163 60 29 32
429 427 237 147 11 38
428 432 237 72 26 33
429 422 242 159 10 44
429 422 247 158 9 44
430 418 257 88 28 38
305 519 318 61 26 28
429 422 252 160 11 44
429 422 257 87 26 34
397 552 218 103 19 36
294 602 122 156 109 77
429 427 242 136 8 37
308 582 107 169 112 79
310 791 149 160 109 68
429 427 247 153 7 42
338 487 382 130 8 42
428 432 242 74 28 35
427 432 257 168 13 47
323 407 338 111 87 65
429 427 252 163 10 46
367 917 336 62 56 54
423 447 227 65 31 35
427 437 237 36 32 35
346 425 344 69 54 36
345 736 345 174 124 100
388 477 157 74 28 36
425 443 237 75 30 38
305 502 327 48 24 32
424 447 237 61 28 35
427 437 242 91 26 40
426 437 252 166 13 45
426 441 242 85 27 38
296 290 313 103 83 62
279 882 268 157 117 92
426 441 247 162 12 43
425 447 242 64 32 37
425 443 252 112 18 35
408 552 267 169 14 50
426 441 252 151 11 44
289 627 272 113 21 41
423 826 370 64 53 44
390 459 135 54 36 33
352 796 158 158 106 75
393 457 137 130 27 47
391 461 138 65 31 33
406 456 164 152 15 38
332 961 316 56 52 51
390 463 142 114 31 42
392 461 142 111 30 42
300 742 177 154 108 85
395 449 130 78 18 26
426 835 299 62 54 54
272 948 288 67 63 63
396 451 137 163 17 50
343 429 390 80 22 30
389 862 242 83 68 63
330 532 93 67 26 31
394 457 142 155 16 44
397 452 142 181 11 47
396 455 143 187 10 47
336 654 359 182 128 105
336 692 342 170 122 99
399 452 147 185 14 48
353 572 162 76 28 35
394 458 147 178 15 46
294 541 93 199 127 101
395 459 150 187 19 45
387 612 267 77 30 38
432 866 323 79 68 63
394 462 152 147 20 43
386 412 340 76 21 31
395 464 155 174 20 50
471 815 296 77 58 55
400 458 156 180 16 44
369 647 216 133 10 36
387 466 137 160 25 49
388 467 142 79 32 36
347 897 207 81 74 74
356 864 389 66 54 41
386 470 143 72 27 34
292 452 292 97 23 38
389 467 147 94 31 39
294 531 341 85 26 34
387 471 147 112 28 41
424 853 363 56 45 38
316 537 99 131 78 68
390 464 145 73 32 32
391 465 148 99 35 44
390 468 151 140 29 49
327 881 236 64 54 53
298 657 137 187 137 110
392 467 152 131 25 44
388 472 152 127 27 44
391 470 154 125 30 46
392 471 158 141 17 43
321 896 206 92 82 80
385 473 146 97 26 41
422 462 247 46 31 33
387 476 153 75 30 37
391 475 159 120 7 45
280 517 236 140 2 41
402 451 152 181 15 44
404 452 157 181 16 47
360 366 309 121 95 64
401 455 154 183 15 48
353 542 142 166 15 41
388 402 287 67 58 46
323 487 412 119 84 69
369 632 308 89 20 35
402 456 158 169 16 41
401 460 159 167 20 51
392 477 162 146 17 40
398 467 162 73 26 35
386 437 345 42 28 30
298 572 313 153 2 47
283 493 417 175 123 116
397 471 163 85 29 40
363 927 322 51 45 43
348 307 282 99 78 54
353 872 172 139 110 101
390 893 272 58 51 49
400 469 165 93 21 30
399 472 166 56 34 36
323 433 347 63 49 34
394 478 166 72 18 34
280 611 188 118 19 36
354 836 184 96 74 61
292 307 301 114 87 56
375 824 195 80 62 55
397 477 168 44 34 37
399 478 171 58 33 37
369 662 212 60 32 35
406 452 162 171 16 44
405 453 161 171 16 42
407 457 167 147 13 41
291 447 312 161 0 42
285 960 273 83 79 82
403 462 162 116 20 35
346 317 315 127 94 63
298 342 322 129 95 70
406 461 168 113 21 39
409 457 172 162 12 44
409 457 177 153 9 41
286 492 402 78 47 41
365 909 240 63 54 53
409 452 182 146 7 40
410 452 207 124 12 35
337 647 188 131 7 35
361 639 340 142 106 73
306 792 247 73 59 56
363 907 237 68 59 57
409 457 182 150 8 40
400 432 324 72 19 34
348 947 252 73 66 68
409 452 187 142 5 41
409 452 192 141 5 43
319 892 217 50 46 46
309 662 184 49 38 35
291 860 265 125 103 83
403 467 167 117 25 40
288 662 267 93 19 37
329 502 397 181 126 107
345 891 315 35 32 34
406 465 169 156 28 59
301 772 252 82 64 58
406 466 173 72 32 34
407 467 177 59 35 36
405 473 176 72 36 38
395 507 314 148 6 44
406 470 174 62 32 34
294 497 272 147 0 41
404 477 177 69 30 36
407 472 182 92 29 37
406 477 182 133 16 41
405 478 181 134 21 45
408 477 192 123 13 36
376 880 307 34 31 33
409 467 187 134 12 41
387 481 158 62 28 34
386 485 159 149 26 47
387 487 163 80 29 38
393 482 167 83 29 39
393 487 172 65 30 34
340 702 351 173 123 99
385 493 165 154 14 39
387 492 167 69 28 32
299 945 244 75 70 70
386 496 168 82 26 36
357 546 153 57 28 34
392 491 173 76 26 35
381 856 299 44 42 42
392 496 178 130 23 42
398 482 172 51 32 36
366 433 370 39 30 32
396 486 173 61 31 30
356 821 174 128 91 69
314 267 311 98 81 64
400 484 175 56 30 30
396 495 179 65 27 19
397 496 183 58 29 34
306 890 337 48 43 41
280 955 302 55 51 53
325 612 365 172 122 96
385 499 170 49 36 37
385 503 171 106 31 42
387 502 173 105 23 38
325 880 319 67 57 46
389 502 177 68 24 33
381 850 224 59 50 52
302 497 342 158 0 43
304 512 312 81 28 37
385 509 175 151 36 50
286 594 175 58 21 27
388 406 322 110 13 35
274 742 237 122 13 45
385 512 176 164 11 39
362 652 208 124 4 32
292 497 267 147 0 41
393 502 182 162 17 42
272 912 318 159 120 100
390 503 180 156 15 49
333 573 126 134 14 31
393 507 187 173 15 41
392 512 187 164 12 39
288 902 328 130 101 82
431 695 289 84 55 44
395 503 186 174 15 46
346 870 194 78 66 55
422 786 326 54 40 32
284 532 247 135 2 40
399 498 186 74 30 35
293 922 351 74 66 64
396 500 184 89 16 41
477 717 332 102 81 63
397 502 187 136 18 41
399 503 191 155 13 41
394 512 191 171 16 41
294 555 139 147 0 40
294 472 292 55 28 31
312 317 270 89 70 49
323 357 268 81 61 44
396 505 189 169 14 37
401 481 174 37 34 35
402 482 177 131 23 43
401 486 178 120 28 42
403 487 182 146 23 44
342 747 338 151 103 82
438 767 283 57 48 41
358 873 342 40 37 37
406 485 188 50 30 42
411 405 310 133 7 41
440 740 295 65 49 40
406 487 192 62 27 35
304 879 359 49 47 46
401 491 183 98 23 38
409 457 202 120 14 36
410 457 207 109 15 34
302 682 303 119 5 37
378 393 262 67 58 49
408 462 197 132 15 38
388 677 287 59 24 30
312 367 270 83 63 41
409 462 202 112 20 39
412 457 212 138 13 36
275 704 245 140 2 43
321 808 268 183 128 108
419 684 331 83 60 39
418 698 328 82 66 53
338 262 267 103 79 51
296 332 290 110 86 57
415 452 215 110 16 38
415 457 216 108 19 35
264 932 297 70 61 58
412 462 213 138 17 41
414 462 217 94 23 35
352 567 157 97 22 37
344 747 342 172 122 98
331 809 294 156 117 97
311 464 411 73 45 38
408 477 197 150 10 42
428 852 317 73 62 51
309 302 273 91 74 54
409 472 197 151 9 39
409 467 202 81 24 33
327 607 127 156 111 82
341 296 320 131 97 68
409 472 207 111 16 37
409 477 202 153 8 41
408 477 207 155 9 39
269 567 202 81 24 34
306 285 290 106 86 65
411 467 213 139 14 35
411 472 213 130 17 36
336 714 149 127 93 63
349 392 323 119 94 65
373 887 332 31 30 31
415 467 220 77 26 34
415 472 221 75 37 41
343 307 318 130 97 66
409 477 212 102 18 36
410 478 215 45 35 37
396 511 193 176 16 40
406 487 197 146 13 42
349 532 87 112 21 40
393 582 237 117 19 40
370 919 313 52 44 41
408 482 202 154 9 41
305 734 180 104 72 61
283 943 252 75 69 70
407 487 202 160 11 43
472 722 336 96 76 57
316 530 94 149 79 73
293 506 372 133 27 44
363 372 282 88 75 60
408 487 207 155 10 40
393 757 197 69 55 49
405 493 196 171 16 48
328 447 402 146 13 49
406 490 194 173 26 50
420 793 271 59 47 42
394 879 329 55 48 43
421 437 277 157 4 47
364 497 358 132 8 37
406 491 198 168 15 41
404 497 197 145 19 42
407 492 207 151 13 42
405 498 201 117 9 33
293 433 357 56 45 33
308 573 105 167 111 81
278 712 207 125 8 34
408 492 212 79 17 32
323 837 187 195 134 107
407 497 212 111 20 38
409 482 212 130 11 37
343 272 318 127 95 60
410 482 215 142 18 42
393 401 287 68 57 42
409 487 212 142 11 39
410 487 217 151 10 39
368 682 353 142 99 66
328 322 268 85 67 45
282 517 62 132 86 73
377 846 213 72 59 54
412 487 222 142 20 41
397 708 217 76 45 39
303 357 326 127 94 70
408 497 217 59 28 33
306 736 183 56 29 31
410 492 220 126 15 33
410 497 221 94 30 39
411 497 223 116 27 38
404 502 202 112 19 36
405 503 206 128 26 42
282 672 252 157 0 47
303 439 370 60 29 27
353 587 342 109 33 39
406 501 208 128 18 39
401 506 198 174 18 46
402 512 203 176 17 44
388 732 194 74 53 44
300 497 302 73 26 33
404 507 207 96 20 35
281 692 211 86 35 44
405 508 211 84 27 36
326 667 144 141 97 65
407 507 217 54 31 33
405 512 212 131 19 39
318 572 371 174 119 95
406 510 214 32 31 30
408 512 222 57 30 33
382 602 227 96 30 40
299 387 283 100 78 51
411 501 224 70 24 36
440 759 303 75 60 50
298 472 362 122 13 42
415 483 226 40 33 36
347 566 123 77 30 39
415 488 230 40 32 36
413 492 227 129 21 41
289 444 376 54 42 26
415 497 237 164 12 44
300 960 259 80 77 80
415 489 254 157 8 44
415 488 257 158 9 44
364 825 326 125 84 66
297 387 287 113 85 59
415 497 257 148 5 42
412 502 227 81 28 37
369 267 282 136 96 71
413 502 232 118 15 38
414 502 237 161 10 44
410 504 225 98 13 36
399 572 282 35 30 34
410 507 226 71 26 33
315 304 269 99 82 65
364 692 196 50 38 39
411 507 228 120 21 40
411 512 228 39 30 34
270 590 184 122 20 35
308 613 115 164 111 74
314 457 397 111 10 38
426 699 300 76 58 40
413 507 232 153 14 42
415 502 242 160 8 46
415 502 247 153 2 46
414 512 247 155 5 44
415 507 257 150 7 41
283 412 307 84 61 46
414 512 252 153 6 44
320 259 310 102 83 61
415 512 257 150 6 41
417 452 217 91 29 36
416 456 218 55 32 34
373 851 168 143 116 99
381 837 217 60 52 50
418 457 222 48 35 37
417 462 222 43 35 36
301 588 155 66 31 37
395 552 303 146 9 43
343 652 192 130 2 33
390 501 319 149 7 46
374 822 192 72 56 52
417 467 222 45 33 36
416 472 223 52 34 37
392 717 337 109 82 54
371 852 171 138 99 88
416 476 224 60 35 34
422 452 227 75 34 39
421 455 224 55 34 25
303 502 312 74 27 37
297 772 237 84 66 59
376 896 249 64 55 56
304 543 95 180 113 88
308 657 302 128 8 42
421 457 227 96 26 39
422 457 232 139 20 40
289 597 296 172 0 54
423 457 237 43 30 34
300 454 397 61 23 23
317 441 392 66 31 27
420 462 227 44 32 36
287 891 352 44 41 42
368 880 317 31 30 30
421 462 232 104 28 40
296 727 162 167 114 86
420 464 230 60 30 36
283 568 157 195 5 47
423 457 242 59 33 38
423 457 247 59 31 34
360 949 271 81 73 72
313 542 97 182 114 98
423 457 252 93 25 38
424 452 252 107 26 39
319 618 166 101 9 35
327 487 407 161 116 95
297 509 413 185 122 111
293 337 317 132 94 73
286 687 205 45 36 42
421 462 257 155 20 44
285 476 261 112 14 39
288 862 267 133 110 86
424 452 242 43 32 35
298 772 247 82 65 57
424 452 247 114 26 42
420 467 232 65 32 36
419 472 232 78 31 38
344 459 368 106 4 34
348 407 326 72 60 46
421 466 237 39 30 33
417 477 227 41 33 35
418 477 232 39 33 35
420 469 242 71 26 36
400 407 319 132 8 42
420 472 242 68 29 33
420 468 247 99 22 36
420 472 247 91 26 38
419 472 257 100 31 42
376 668 305 37 22 30
420 464 258 116 22 39
288 950 259 70 66 68
318 463 406 118 89 76
419 477 242 48 32 34
419 477 247 58 27 33
419 477 252 50 28 33
416 482 228 37 33 36
308 477 427 105 85 64
417 482 232 42 32 33
416 485 229 40 31 35
416 487 232 38 32 35
389 802 347 150 101 77
418 482 237 113 25 44
416 492 237 163 13 47
416 495 238 164 11 45
313 322 270 101 76 51
348 916 346 58 54 54
418 482 242 103 20 38
337 727 333 88 22 32
418 482 247 109 24 41
417 487 242 164 12 44
300 663 160 160 122 99
303 422 332 66 50 36
418 482 252 103 21 38
351 777 353 163 120 93
417 482 257 122 18 40
329 592 337 112 47 49
405 720 270 63 42 40
417 487 252 167 13 46
375 516 344 149 5 46
416 492 247 159 9 46
313 347 328 126 96 66
400 797 332 138 91 64
416 496 242 161 9 46
281 758 217 80 41 45
288 492 427 137 80 80
328 617 367 168 119 92
352 874 168 121 94 75
416 495 251 151 2 46
403 888 337 57 49 47
373 401 312 71 58 42
333 312 269 87 69 46
288 317 307 129 93 66
380 622 236 149 21 45
288 317 312 130 91 69
358 677 197 41 36 39
314 272 287 101 84 65
270 606 202 140 20 47
319 267 283 93 77 61
328 902 207 88 76 76
318 287 271 90 76 62
380 647 289 138 11 42
392 777 202 57 49 47
307 287 287 98 79 57
309 282 287 102 83 61
408 732 267 54 45 39
358 867 197 81 70 65
337 877 384 50 43 39
297 517 54 170 110 88
292 677 196 62 34 36
311 281 286 101 83 63
319 835 196 63 41 48
315 279 278 91 75 58
309 493 424 188 130 114
318 792 146 164 112 72
320 273 278 90 75 59
399 452 327 91 21 34
318 277 277 91 76 60
