ply
format ascii 1.0
comment Created by Open3D
element vertex 2225
property double x
property double y
property double z
property uchar red
property uchar green
property uchar blue
end_header
353 887 286 42 39 39
323 890 293 31 29 30
323 894 300 34 32 33
330 880 288 36 33 33
330 891 292 32 30 31
333 892 295 34 32 33
343 883 288 35 33 33
338 895 304 38 36 35
343 895 300 40 37 37
342 895 303 39 37 36
343 894 320 37 34 35
357 835 277 45 35 32
358 838 275 38 32 31
358 845 278 40 35 34
361 835 277 76 54 44
368 838 276 57 39 33
363 843 277 41 35 32
363 845 278 43 37 34
368 843 277 41 35 33
366 845 278 43 38 34
368 848 278 44 38 34
358 858 281 46 41 39
378 775 448 134 112 90
357 860 283 44 39 37
363 858 281 44 39 37
375 845 267 53 41 40
363 894 284 67 59 58
375 848 266 56 44 41
375 849 269 51 42 40
377 847 260 66 51 47
383 842 260 64 49 46
378 844 270 50 41 39
382 842 270 52 43 39
373 838 276 65 43 35
373 836 278 116 76 59
378 838 274 68 45 38
382 837 274 78 51 43
371 856 262 71 54 48
372 858 265 64 51 50
371 862 266 57 46 46
372 863 270 55 44 45
344 914 360 60 50 44
374 858 270 57 45 46
374 858 275 55 45 45
393 899 305 66 59 55
367 873 271 60 49 48
369 869 270 59 49 48
361 876 257 68 54 53
362 877 260 67 54 49
367 878 271 64 53 52
358 874 283 41 37 35
363 868 282 40 35 34
363 873 282 45 40 38
355 885 259 57 48 47
358 883 260 64 52 50
357 886 262 61 53 52
357 892 266 59 47 46
362 883 265 73 57 49
363 888 266 74 58 54
368 883 270 65 55 55
363 893 269 63 54 53
367 883 279 55 46 43
362 888 283 56 48 47
364 888 282 61 53 51
367 895 283 85 75 72
372 870 262 66 48 45
353 917 330 61 49 48
373 870 265 65 51 51
372 872 262 64 48 47
370 868 276 49 41 41
369 874 275 54 44 45
371 884 271 63 54 54
372 894 271 66 52 51
369 883 275 65 54 52
373 893 275 72 59 56
358 894 305 54 49 47
363 895 302 62 55 53
437 887 310 94 74 67
368 895 302 67 60 58
368 894 305 64 58 56
358 894 310 55 49 46
358 889 320 40 35 34
363 891 315 50 45 43
363 888 320 43 38 37
368 891 314 54 49 48
376 895 302 71 64 61
372 887 319 50 45 45
373 891 314 59 54 53
293 903 319 71 55 47
378 882 320 52 48 48
378 888 316 61 56 55
376 886 318 57 52 52
383 882 319 56 51 51
383 888 316 62 54 54
383 895 306 69 64 62
383 892 314 67 59 57
340 895 321 35 33 33
340 895 330 34 32 33
344 895 333 40 35 34
353 889 325 35 32 32
351 891 323 36 33 32
350 890 326 39 35 34
353 889 330 38 33 33
352 891 332 39 34 34
353 893 334 44 37 34
388 874 326 50 44 42
358 887 325 37 33 32
355 890 333 41 34 30
359 889 333 50 41 35
363 886 324 38 34 34
360 885 327 42 37 33
363 885 326 38 34 33
363 888 335 53 43 36
364 885 333 45 38 33
368 884 330 41 34 34
368 884 334 49 40 34
384 875 326 47 41 38
383 880 321 54 49 49
383 874 330 46 39 34
381 877 329 41 36 32
373 882 330 39 33 31
373 883 335 50 41 35
373 893 339 53 44 37
381 882 337 50 40 33
383 888 344 61 49 39
379 893 343 63 49 40
380 890 343 56 44 37
375 890 361 65 52 41
372 895 364 72 58 48
376 892 362 64 51 41
351 807 439 139 101 85
350 809 445 143 108 93
349 813 445 147 106 94
353 818 439 181 127 112
351 820 447 153 107 95
350 821 442 187 131 115
353 823 440 175 114 102
353 823 445 157 105 93
383 773 416 137 92 74
368 782 435 124 99 77
367 782 440 129 108 87
364 788 431 134 99 78
359 793 436 122 95 72
354 799 440 125 102 84
358 798 435 122 90 69
355 799 444 131 105 88
359 793 444 130 106 86
360 790 436 127 101 76
362 793 433 124 90 66
360 790 444 127 104 82
374 774 425 129 95 73
373 778 425 124 90 70
375 778 422 127 90 70
378 773 420 132 92 70
378 778 420 131 89 68
376 780 423 128 87 65
379 782 422 151 103 83
383 779 419 161 111 91
383 782 421 179 120 101
375 770 435 136 112 88
375 770 438 136 112 89
374 774 445 131 110 89
370 780 435 127 104 81
369 779 440 131 110 90
372 777 445 131 109 89
373 791 427 195 133 112
373 793 429 185 124 106
383 785 423 192 126 106
378 793 430 197 129 106
380 790 428 205 130 106
378 798 435 195 131 107
384 793 440 197 131 104
382 798 445 186 126 98
354 803 436 135 98 83
356 802 447 136 104 92
354 813 437 163 112 97
358 813 437 171 116 101
363 803 434 159 110 94
366 800 433 154 102 88
314 945 342 54 46 44
368 803 434 157 104 85
368 808 435 161 108 88
363 813 437 166 112 98
368 812 437 159 106 86
365 815 438 161 111 90
358 818 438 188 130 111
358 827 442 172 110 100
363 818 439 170 116 99
363 823 441 169 111 96
363 827 442 166 107 96
363 829 443 174 113 109
373 803 435 174 118 92
372 808 436 166 110 88
374 809 439 170 116 90
376 802 436 183 125 100
378 803 440 186 127 100
377 808 441 178 122 96
380 804 444 196 135 106
381 802 446 189 129 101
378 813 445 189 129 104
372 817 441 175 118 99
374 819 444 183 125 104
371 832 446 198 142 122
334 833 470 157 118 107
467 851 308 78 57 40
335 830 473 160 129 115
335 832 473 176 135 128
350 813 448 145 103 95
344 833 455 155 101 96
341 832 459 177 134 127
339 834 461 187 143 134
341 831 464 143 101 92
353 828 450 147 94 85
351 825 455 115 76 65
353 833 450 150 92 90
350 825 458 105 69 59
351 825 458 103 66 55
340 824 478 141 116 101
340 830 467 114 68 57
338 828 475 149 115 104
416 783 295 163 108 76
343 828 480 166 120 114
343 834 476 168 115 108
344 832 479 166 114 108
348 822 480 104 76 63
353 822 480 113 81 68
348 827 470 116 81 68
348 826 473 111 78 65
352 822 486 128 97 82
345 825 483 148 111 103
348 828 484 168 123 112
347 830 482 173 122 112
348 833 480 180 129 118
351 830 482 191 141 129
365 784 450 140 105 85
368 784 454 140 107 87
359 799 448 134 103 88
363 788 450 154 113 95
364 788 454 165 119 106
364 793 455 175 124 113
367 787 456 159 115 102
369 789 459 156 113 99
365 794 458 176 123 113
375 775 448 128 107 86
374 780 453 127 105 81
379 781 452 148 122 97
373 793 464 140 112 93
379 787 456 155 123 99
377 789 459 142 117 95
381 795 458 169 129 103
358 803 449 132 101 89
358 808 451 134 95 86
360 813 453 131 91 81
368 803 465 177 125 117
366 807 457 167 123 111
366 813 461 147 105 93
367 813 465 150 105 92
367 813 475 142 98 88
368 813 480 129 95 81
354 827 455 70 51 48
357 827 450 129 81 73
356 833 448 160 104 99
363 818 460 128 91 78
360 820 465 121 86 70
358 819 480 120 92 75
354 825 472 119 84 72
360 820 476 132 95 81
369 828 475 196 135 121
367 832 475 197 133 120
368 828 480 178 125 109
382 803 465 171 126 101
382 808 465 175 123 99
381 812 456 175 120 94
382 813 460 175 121 93
371 801 467 166 121 111
373 803 470 153 115 102
373 808 475 140 107 92
373 811 477 138 106 89
380 801 467 158 125 101
381 804 469 159 120 97
380 806 472 154 119 98
382 808 470 168 123 100
377 805 473 145 114 94
378 808 475 152 117 97
378 813 475 181 130 112
375 824 448 192 136 110
372 832 450 210 147 126
374 829 460 203 133 120
377 823 450 187 131 107
381 817 460 175 118 92
381 817 464 173 117 93
408 897 310 60 53 49
376 827 451 185 129 107
377 827 455 187 128 109
376 826 464 202 132 118
396 903 305 94 89 90
374 823 470 196 136 119
372 822 480 184 127 113
374 818 480 184 132 115
372 823 475 189 128 115
370 829 471 195 130 118
371 826 474 194 132 119
376 822 469 197 132 117
376 816 478 187 132 117
358 818 485 112 86 69
372 906 330 58 49 45
358 819 489 119 89 73
364 824 487 177 130 115
362 823 488 174 126 113
363 828 484 168 124 106
414 883 337 72 56 45
400 819 265 82 58 49
367 827 484 164 121 100
372 815 483 138 109 89
371 822 483 178 126 115
367 836 447 201 150 131
336 838 464 144 90 84
342 839 458 139 87 80
338 843 465 182 131 120
339 842 461 176 122 112
343 843 460 177 126 114
354 838 451 150 99 88
349 842 457 156 102 92
346 840 458 129 84 66
348 846 464 174 116 108
338 838 470 192 143 138
343 839 471 189 131 123
347 840 472 201 145 133
348 842 469 206 150 139
353 842 470 203 146 134
353 845 466 193 137 126
351 840 472 205 151 138
358 838 450 180 129 115
358 841 452 202 147 132
358 842 455 199 142 125
356 846 461 183 120 112
363 838 450 204 147 131
363 838 455 200 139 123
363 838 460 204 139 125
368 833 460 201 137 120
361 841 464 207 144 129
358 838 475 197 137 124
357 841 473 199 137 126
360 840 470 200 137 125
361 836 478 193 126 120
288 898 321 132 97 77
293 907 321 42 38 37
298 898 314 116 91 70
301 900 313 103 79 63
297 905 318 52 42 38
303 906 316 47 40 38
308 902 311 82 61 50
308 906 316 47 37 35
312 906 317 39 34 33
313 907 320 35 33 34
318 902 316 36 33 33
318 904 320 35 33 34
304 959 259 83 77 79
320 939 258 84 74 74
314 949 259 77 70 69
312 953 261 81 74 74
307 957 261 81 75 76
312 957 265 84 77 79
313 958 270 81 76 79
315 945 258 65 58 60
319 948 265 79 71 72
312 957 280 75 70 72
311 956 284 70 66 68
318 953 275 79 75 77
316 951 284 69 64 65
316 956 274 81 76 80
304 958 310 69 59 56
304 954 315 59 50 50
302 958 319 88 79 74
308 958 290 82 77 80
313 953 290 80 74 76
308 958 300 69 61 60
315 950 288 71 64 64
318 948 295 89 81 83
316 951 292 79 73 73
318 947 305 74 62 65
311 951 308 64 56 55
310 950 311 61 51 54
312 951 317 69 59 64
307 957 309 60 51 50
315 950 318 67 58 61
293 923 345 39 38 39
258 898 332 135 99 85
258 903 334 95 80 72
258 908 336 142 121 104
263 908 335 144 119 100
270 898 332 163 121 100
269 903 332 149 117 93
273 903 331 143 108 83
270 907 332 150 120 94
268 918 333 147 114 93
273 917 332 118 92 75
268 923 334 88 67 58
269 929 338 40 39 40
273 928 339 39 38 39
280 897 327 140 99 78
393 873 325 56 47 44
278 898 328 140 99 78
278 903 329 140 102 78
278 908 329 139 106 82
287 903 323 110 83 67
362 901 379 71 56 45
288 911 326 47 42 39
473 868 305 101 77 65
283 913 329 73 59 50
278 917 332 74 59 50
283 918 335 38 35 35
286 916 332 35 32 32
278 924 339 39 37 38
278 928 341 41 39 41
284 920 339 41 40 41
283 923 340 41 39 41
282 927 342 43 41 41
259 943 338 45 42 43
264 938 339 41 39 39
263 943 340 45 42 42
265 934 338 43 41 43
268 938 341 42 40 40
273 938 344 47 43 43
273 943 344 56 51 51
258 953 335 56 52 51
258 959 331 67 62 60
268 953 339 69 63 61
273 953 339 76 69 67
269 956 338 69 62 58
273 959 336 75 68 64
288 933 350 48 45 44
288 944 346 70 63 60
399 805 307 170 118 90
288 941 348 68 62 60
278 958 335 76 69 65
283 959 330 61 55 54
283 958 335 71 64 60
278 949 341 71 66 64
283 949 342 69 63 61
283 952 339 76 69 67
288 947 344 64 57 53
288 953 339 76 69 65
289 903 322 96 73 61
290 906 322 62 53 48
293 912 326 35 33 34
298 911 326 34 33 34
303 910 323 36 34 35
303 911 330 35 33 35
303 913 340 38 36 36
292 927 347 38 37 37
293 928 349 38 36 37
298 914 340 40 37 37
301 921 347 36 34 34
303 923 349 39 36 37
303 926 351 36 33 34
309 910 325 36 34 35
308 911 335 34 33 34
310 910 328 35 33 35
313 910 330 36 34 36
310 910 336 35 33 34
318 909 335 35 33 35
308 911 340 37 35 36
308 914 345 41 38 38
392 920 275 57 48 39
308 919 348 36 34 34
311 916 347 42 38 38
308 923 350 38 36 37
313 923 351 38 35 35
314 915 348 42 39 37
318 915 348 40 37 36
318 918 350 40 37 36
318 923 351 39 35 35
308 926 352 39 36 36
308 928 355 42 39 39
293 933 351 51 47 46
293 938 351 63 57 54
293 944 346 74 67 64
293 942 349 78 71 67
298 939 352 75 70 70
298 942 349 89 82 80
303 942 350 79 75 75
299 955 325 51 46 45
298 958 325 58 52 50
303 955 325 58 53 52
299 955 330 49 45 44
293 947 344 65 59 57
293 953 339 72 65 61
298 947 344 71 65 64
298 944 346 83 78 76
308 942 350 66 61 59
313 943 345 59 52 48
309 940 352 69 64 62
313 939 351 61 55 54
313 942 349 61 55 53
318 939 350 62 56 55
307 956 321 87 77 72
308 957 325 82 74 68
310 955 323 82 73 67
313 954 324 91 82 77
308 957 330 66 58 54
308 957 335 64 56 51
317 953 334 67 56 49
318 954 324 96 87 80
318 957 326 95 85 79
318 957 330 79 69 63
316 956 333 67 57 53
331 951 328 72 63 54
308 948 341 56 50 47
313 948 340 55 47 44
312 952 338 67 55 47
307 956 338 67 58 52
310 955 337 66 56 52
314 949 337 63 53 46
295 934 353 61 55 52
295 936 353 64 57 55
303 933 355 65 61 59
298 937 353 70 64 64
303 938 354 76 72 72
303 940 352 77 73 73
310 930 358 57 51 49
313 934 356 72 67 66
313 931 358 64 59 57
318 932 359 69 62 60
318 934 356 68 62 60
258 964 260 80 77 80
257 965 263 85 82 84
258 966 265 87 83 85
264 966 260 80 77 80
260 966 262 80 77 80
263 968 265 85 81 83
358 898 275 52 43 43
258 967 270 84 78 79
266 966 257 75 73 77
268 967 260 80 77 80
273 969 264 86 82 83
273 972 266 75 70 71
273 974 269 66 62 63
262 970 274 82 77 78
261 970 278 86 80 80
260 971 285 71 66 66
260 971 282 73 69 71
263 972 285 67 62 61
271 975 281 52 50 50
273 976 272 57 53 52
273 976 275 59 54 52
273 976 280 54 51 51
277 965 259 84 81 84
276 969 263 84 78 79
279 972 262 68 63 65
278 973 265 61 56 56
278 975 269 58 54 53
288 967 257 83 81 85
283 972 261 73 70 73
287 971 261 87 85 88
288 973 270 77 73 75
348 913 283 57 51 51
278 975 286 60 55 55
284 975 275 59 55 54
288 974 275 61 57 56
284 975 280 58 55 54
288 974 280 57 53 53
278 976 272 60 55 54
278 976 275 59 55 54
274 976 283 37 35 34
278 976 283 38 34 35
281 976 272 63 58 58
282 976 275 61 58 58
258 968 300 65 60 58
263 967 305 74 70 71
263 972 290 63 57 55
261 970 292 68 62 61
483 863 305 96 74 60
264 971 294 69 65 65
263 969 300 71 66 65
273 973 290 68 65 66
273 972 295 63 60 60
266 970 297 70 66 66
268 968 305 72 67 67
269 971 298 60 56 56
273 970 301 62 56 54
273 971 298 60 55 54
273 968 305 60 55 54
258 966 309 67 65 66
263 965 311 63 61 62
263 966 309 71 69 70
258 965 315 62 60 60
258 965 320 64 60 59
273 966 309 60 54 53
268 964 315 63 60 60
268 963 320 52 49 49
273 964 315 62 58 58
273 962 320 55 51 50
278 972 295 58 53 52
278 970 301 65 59 57
283 973 290 58 54 54
283 972 295 60 55 53
288 971 295 63 58 57
283 968 305 64 58 55
287 971 298 70 65 63
288 968 305 73 68 67
278 966 310 54 48 47
278 964 315 58 53 51
278 962 320 59 54 53
278 965 312 53 47 45
283 966 310 60 55 54
283 965 312 57 52 52
288 965 311 70 65 65
283 961 320 52 48 46
283 964 315 54 49 47
288 961 320 50 47 46
288 963 315 58 54 53
292 966 257 83 79 83
293 968 260 87 83 86
295 965 258 86 82 85
290 970 263 86 83 87
410 804 284 168 111 80
293 972 270 78 74 75
298 963 260 86 81 84
296 966 261 88 85 87
299 965 264 81 75 79
303 963 265 82 77 80
426 867 328 81 62 53
301 966 267 83 77 81
297 971 271 83 77 80
293 973 280 66 63 63
293 972 285 68 65 66
295 970 287 68 66 68
303 967 275 86 81 85
303 967 285 61 55 57
300 970 275 82 76 80
297 971 280 68 64 66
299 970 280 64 60 62
305 960 263 80 74 77
305 965 274 87 84 87
308 963 280 76 70 72
306 966 276 84 78 82
311 961 275 80 76 78
311 961 278 76 71 75
307 963 285 76 71 72
293 967 305 72 69 69
294 970 290 57 54 57
298 968 290 57 53 55
303 963 295 61 55 55
302 966 289 56 51 53
300 965 295 58 54 54
297 966 300 66 62 61
299 965 300 62 56 56
296 966 304 65 61 61
303 962 300 64 56 56
291 966 308 73 68 68
294 965 307 65 61 61
293 962 315 60 55 54
298 964 310 55 50 47
301 962 310 64 56 51
298 963 315 53 47 44
298 962 320 61 54 51
301 961 318 70 61 55
306 962 289 74 68 70
306 961 295 67 60 60
305 960 302 62 53 51
258 963 325 62 58 57
263 963 325 61 56 55
259 961 328 65 60 59
428 901 335 97 81 70
268 962 330 63 57 55
266 960 332 57 52 50
272 961 333 74 68 65
276 961 323 59 55 54
280 960 322 58 53 50
275 960 330 62 55 52
285 961 325 52 48 48
288 961 325 51 46 46
285 961 330 58 53 51
288 961 330 58 53 51
285 961 333 61 56 54
293 961 325 66 60 58
295 960 327 71 65 61
292 961 329 60 53 51
290 960 332 59 52 49
297 961 324 65 58 55
335 905 258 63 57 59
327 922 257 81 71 67
328 924 259 83 73 71
328 927 261 82 72 70
333 918 260 73 66 65
330 920 258 80 71 70
334 918 265 75 69 69
331 922 261 79 71 70
332 923 265 79 73 73
330 929 265 75 68 66
331 928 271 81 74 73
332 928 275 81 73 72
334 928 280 81 73 72
340 900 259 60 56 57
339 903 265 65 59 59
343 898 265 59 52 53
341 901 266 64 57 57
344 899 270 62 54 52
336 912 266 69 65 66
339 908 270 70 64 64
338 913 270 71 66 66
346 896 266 59 53 53
353 897 271 58 49 48
343 903 275 61 52 52
340 909 274 66 61 61
339 913 275 69 64 64
341 908 276 67 61 60
343 908 280 60 54 54
341 912 277 67 61 60
345 900 275 60 51 50
348 903 279 55 46 45
354 902 277 51 43 43
352 904 278 54 46 45
348 908 281 56 50 50
353 908 279 55 48 50
345 910 283 57 50 52
345 913 283 58 51 52
338 931 295 70 63 63
347 910 283 54 47 48
353 913 281 59 52 51
340 914 279 66 59 60
337 918 275 74 69 68
342 916 282 59 53 54
343 918 284 60 54 55
336 921 275 77 70 69
337 922 280 72 66 64
338 923 285 64 59 59
337 927 286 72 64 63
343 921 287 63 56 58
348 918 285 63 56 55
351 914 283 58 52 50
353 919 284 65 57 56
348 922 286 67 59 58
353 923 286 66 59 58
328 896 306 34 33 33
328 897 310 34 33 32
323 899 315 34 32 33
322 901 317 35 33 33
323 902 320 36 34 34
328 900 320 36 33 33
333 897 310 35 33 32
333 898 320 35 33 33
347 896 291 40 37 38
349 896 301 43 40 39
348 896 305 44 40 39
353 896 304 46 42 41
338 896 306 38 35 34
338 897 310 36 33 32
338 897 315 36 34 33
459 870 317 61 49 38
342 896 314 43 38 36
347 896 309 47 42 40
346 896 313 50 44 40
343 924 288 67 60 61
343 927 290 67 62 61
348 924 289 69 62 62
348 928 295 71 64 63
354 925 289 68 62 61
352 926 291 68 62 61
352 927 300 72 64 62
418 912 285 72 60 52
348 928 300 74 66 64
348 928 305 69 60 59
352 926 304 62 55 53
339 929 316 42 37 36
338 928 320 41 35 34
344 924 316 42 36 35
342 927 314 46 40 37
352 923 309 52 45 43
350 924 311 51 44 41
351 926 308 60 52 50
348 923 315 49 43 41
348 921 319 47 40 39
344 929 311 55 49 46
347 926 313 55 49 46
327 933 265 77 68 66
321 942 262 86 77 77
322 943 265 76 68 69
327 938 270 63 57 55
330 929 269 74 68 67
331 931 272 74 67 65
327 938 275 58 51 48
326 941 275 57 51 49
324 943 280 64 56 55
326 941 280 62 54 52
328 938 285 74 65 62
329 934 275 64 57 54
332 932 285 74 66 65
330 935 285 74 67 65
321 946 266 75 68 69
322 947 270 66 60 61
323 943 290 72 63 62
323 943 295 78 70 70
326 941 290 74 65 63
326 941 295 71 62 61
323 943 305 78 68 71
328 939 300 77 69 70
326 941 300 74 65 66
333 933 290 76 67 67
335 930 288 74 67 65
331 936 290 75 66 65
331 936 295 76 65 65
332 937 300 77 68 70
333 937 305 79 68 72
323 943 310 69 60 61
327 941 314 66 56 59
329 939 315 70 59 61
329 939 319 68 58 63
328 943 321 67 57 62
334 933 316 58 52 51
335 930 317 38 31 34
334 933 320 64 55 59
335 930 320 42 36 38
329 940 310 72 63 62
333 937 314 78 70 72
321 946 293 79 71 71
320 945 310 63 54 56
321 946 316 65 54 56
336 931 291 71 63 64
340 930 294 66 59 60
338 932 300 79 72 71
338 933 305 80 70 70
343 930 300 75 68 67
342 931 305 79 70 69
344 930 305 77 69 67
339 934 310 84 75 77
342 932 309 69 60 59
358 897 271 58 48 47
360 901 272 57 50 50
365 899 267 57 46 47
368 899 266 53 43 44
368 896 268 57 48 49
368 903 265 49 39 40
369 907 266 43 36 35
365 908 272 48 39 38
366 905 269 46 38 39
367 908 269 45 36 36
368 913 270 49 39 37
358 913 279 63 53 52
359 912 277 59 49 46
364 896 286 69 62 61
368 897 285 75 67 66
362 908 274 53 44 42
354 917 282 65 55 55
364 916 277 59 51 47
367 914 274 50 41 38
368 916 276 54 44 41
368 918 280 56 49 45
364 920 284 71 64 64
368 920 285 64 56 52
363 921 286 73 66 63
367 921 287 74 65 62
374 900 257 47 35 37
373 900 260 53 41 42
372 902 261 49 40 41
373 902 264 50 39 39
373 899 266 50 39 41
373 906 257 44 35 34
372 909 264 42 35 34
373 913 266 46 36 35
378 899 260 60 48 46
383 900 259 77 61 56
381 900 265 59 48 45
378 898 270 51 41 42
384 901 270 60 49 46
378 909 259 46 36 39
381 910 258 44 36 35
383 913 260 53 44 38
375 896 276 71 60 58
373 897 280 75 66 66
370 896 282 84 75 73
373 897 285 73 66 67
378 897 275 62 52 51
378 898 280 70 62 61
378 899 285 71 64 63
374 916 270 47 39 36
382 914 264 54 44 37
383 918 265 54 45 38
384 917 262 56 45 40
379 917 267 51 41 38
378 918 270 52 44 41
381 920 268 51 44 39
380 921 271 55 49 45
383 922 270 55 47 43
373 919 280 53 44 37
395 987 348 99 81 66
377 920 275 53 46 42
378 919 280 58 50 45
384 920 277 61 52 46
378 918 285 57 48 43
384 915 287 65 55 49
383 916 285 62 53 47
379 921 275 60 52 47
378 921 278 58 50 45
383 922 275 60 52 47
354 896 295 48 44 43
355 896 292 48 44 43
359 896 291 56 51 49
358 897 295 54 49 48
363 897 295 63 57 55
368 897 290 69 62 62
363 896 300 62 56 54
368 896 299 68 61 59
363 911 315 50 43 43
362 912 320 47 41 43
364 910 316 53 47 46
368 908 320 56 46 44
358 923 290 69 64 62
358 924 295 70 63 60
357 922 304 55 48 45
364 919 301 56 49 45
368 919 300 54 47 43
368 916 303 54 47 44
369 920 290 62 52 47
367 921 294 63 55 49
368 920 295 57 49 44
360 920 302 56 50 46
354 919 310 51 44 42
357 917 309 54 47 42
354 919 315 52 46 46
353 919 320 46 38 39
359 914 320 49 43 42
357 917 315 53 46 44
357 917 320 47 40 40
363 913 310 46 38 34
373 898 290 71 64 65
378 899 290 70 63 63
378 898 295 70 63 62
383 900 290 67 60 60
384 901 289 64 57 57
378 896 300 72 65 62
383 896 304 66 62 60
373 904 320 54 45 41
373 910 312 56 49 45
371 906 319 53 43 42
371 911 313 52 44 41
378 904 316 53 46 42
383 899 320 52 44 43
382 901 318 61 51 51
383 903 316 58 51 48
383 912 309 61 54 51
378 907 314 57 49 47
383 910 312 68 60 55
373 919 295 59 49 44
373 918 300 58 50 45
373 916 304 55 46 43
383 915 290 65 55 48
383 916 290 64 54 48
378 918 300 54 44 37
384 915 300 58 51 46
383 914 305 52 46 41
381 916 304 52 43 39
378 915 307 61 52 46
323 904 325 35 33 34
327 902 325 36 33 34
322 906 326 35 33 34
323 908 335 36 34 35
325 905 329 35 33 32
329 904 334 36 34 34
327 906 335 37 35 35
330 900 324 36 34 35
398 818 295 168 113 85
333 898 325 35 33 33
333 899 330 35 33 32
331 901 331 35 33 32
333 903 336 37 34 33
323 910 343 36 33 34
323 912 345 38 35 36
328 908 340 39 35 35
329 910 343 40 36 36
334 905 338 40 36 35
333 908 340 40 36 35
333 910 343 40 36 35
335 925 329 50 42 45
335 926 329 51 41 46
323 915 348 41 37 37
323 923 351 42 39 38
328 923 351 48 44 42
333 922 350 57 51 49
411 990 357 97 81 66
337 896 325 35 33 33
338 898 335 39 35 34
343 898 336 40 35 34
337 901 337 41 36 34
343 903 340 44 38 36
344 900 338 40 36 34
338 909 344 48 41 40
343 908 344 55 47 42
338 912 346 52 45 42
343 913 346 59 52 47
346 900 338 45 39 37
348 903 340 53 43 40
349 901 337 48 41 38
353 901 337 50 43 40
353 903 339 52 44 39
348 908 345 63 54 47
354 907 342 51 45 39
353 908 345 61 51 45
347 912 347 63 54 48
350 910 348 68 59 51
353 909 348 61 51 43
354 912 350 71 60 54
338 923 325 47 39 42
339 924 321 44 38 37
338 928 330 69 59 63
343 922 330 57 46 49
344 920 329 57 48 50
344 924 335 58 47 49
342 929 332 85 72 77
348 919 325 52 43 46
349 920 334 62 50 49
346 921 332 58 45 46
347 922 335 63 50 50
338 918 350 59 52 49
344 916 347 69 60 53
343 917 350 66 58 51
344 928 340 59 50 52
353 918 340 67 56 50
350 920 341 66 54 49
350 920 345 65 56 51
352 917 345 63 53 48
353 918 350 75 65 61
348 922 340 64 52 49
350 923 348 72 66 64
352 923 350 72 65 63
351 928 347 69 64 61
350 928 348 70 65 62
353 928 350 66 59 57
323 925 355 50 43 41
321 926 357 52 46 42
385 900 334 55 46 44
324 925 359 51 45 41
328 924 359 51 45 43
333 923 360 57 51 47
333 928 359 61 55 53
335 922 363 61 54 51
348 913 365 70 59 52
349 909 365 69 57 46
352 910 362 67 55 46
401 817 265 78 58 50
353 912 360 70 58 48
353 913 365 71 60 53
353 908 370 81 67 56
350 909 369 82 70 59
349 913 369 82 70 61
353 912 369 73 61 54
338 919 355 58 51 48
338 918 360 56 48 45
390 776 447 161 124 99
344 914 355 65 56 49
342 918 361 60 51 47
345 914 364 63 53 47
339 920 364 63 55 50
336 921 353 58 52 49
338 923 361 57 50 46
343 922 363 61 53 49
347 917 364 64 55 49
348 919 361 61 51 47
352 916 363 64 53 45
348 923 359 56 48 44
348 927 358 54 47 42
353 922 358 59 51 45
353 923 355 63 54 49
348 929 357 61 54 49
346 922 363 58 50 46
335 933 323 53 45 50
335 940 323 58 51 54
335 943 323 86 76 76
333 944 335 62 53 46
323 939 350 63 55 53
323 941 348 61 52 49
328 939 350 69 59 53
393 796 313 187 132 102
328 941 348 66 55 50
333 940 351 72 61 53
324 952 322 87 78 72
328 948 321 74 64 60
321 948 333 54 45 38
323 948 332 54 45 39
324 945 332 50 43 39
328 945 332 55 46 40
328 948 331 66 57 50
322 956 326 89 78 70
332 948 322 77 64 58
428 887 320 65 51 51
332 952 325 98 83 82
334 949 325 88 74 67
333 948 330 66 57 49
338 943 325 92 79 78
340 938 328 65 59 60
340 943 328 96 84 83
343 943 330 90 79 79
345 932 333 61 47 51
346 933 335 59 46 48
345 938 333 61 53 56
346 938 335 61 49 54
347 944 332 79 67 75
344 933 345 87 78 78
345 933 340 71 60 62
338 942 345 57 48 43
345 937 341 79 66 61
338 941 350 68 57 50
337 940 352 74 62 55
343 938 350 89 77 68
346 934 338 57 47 49
347 931 346 80 71 71
352 932 351 96 83 75
346 939 339 74 61 59
349 942 340 92 77 70
346 940 343 80 62 54
348 942 345 95 79 68
352 945 336 66 50 58
353 944 340 85 68 64
349 939 351 80 67 57
338 947 325 77 61 59
338 948 335 64 54 45
343 952 330 94 79 65
340 951 331 85 72 60
343 952 335 70 57 47
341 949 336 68 57 45
348 948 330 110 89 85
354 947 334 78 64 67
353 953 330 102 77 68
348 954 335 71 57 43
350 957 331 96 77 63
353 958 330 94 72 54
352 959 335 93 76 58
337 945 337 61 51 45
340 946 339 59 48 40
343 948 340 67 54 45
341 945 342 70 60 52
344 951 338 73 60 49
348 953 340 71 57 44
347 950 342 67 49 37
350 951 344 71 56 41
353 953 345 75 59 45
350 956 338 70 52 35
352 958 340 85 65 48
323 932 359 76 67 63
323 935 356 66 58 57
328 935 357 83 70 63
323 937 354 64 57 56
333 935 357 89 77 68
333 938 354 84 72 63
343 929 357 75 70 68
343 933 355 72 64 60
338 938 354 87 74 65
340 941 353 79 68 58
348 933 355 68 58 52
353 933 355 79 66 57
353 938 356 77 65 54
349 942 354 84 72 62
362 912 325 50 42 43
365 910 325 50 43 43
368 908 325 54 45 44
362 912 330 58 45 44
362 911 335 69 56 50
363 909 336 69 58 51
365 910 330 61 49 46
368 908 330 60 50 47
358 902 337 54 46 41
358 904 338 54 46 40
358 908 340 62 53 47
356 912 343 66 58 53
363 903 337 64 55 49
366 897 337 54 44 38
365 900 338 60 49 43
363 903 338 67 59 53
366 905 337 75 62 54
358 914 325 54 45 46
355 915 329 62 50 49
356 916 332 67 55 52
356 916 335 64 52 48
356 916 338 70 58 52
373 904 325 58 48 49
372 906 335 68 56 49
374 905 335 66 56 48
380 900 321 54 46 44
380 900 324 55 47 45
381 901 327 56 48 46
378 903 330 64 54 51
378 904 335 67 56 51
384 900 330 54 45 42
382 901 331 57 48 46
383 902 335 69 57 52
373 898 340 67 55 46
369 906 338 82 69 59
371 906 338 80 67 56
377 898 342 72 60 49
379 898 343 72 59 49
378 902 340 61 50 43
383 898 344 73 61 51
383 902 340 60 49 42
354 910 356 69 58 50
356 910 356 74 61 51
358 913 360 75 64 55
354 904 367 69 57 49
358 908 365 78 65 56
368 898 360 76 61 51
368 898 365 75 60 51
366 901 364 74 60 52
362 909 366 83 70 60
408 864 326 69 55 42
362 913 365 73 61 54
354 903 370 71 59 50
355 900 371 70 59 51
358 904 370 79 65 55
357 903 375 77 63 51
359 900 375 73 58 47
357 906 373 84 68 56
362 899 375 73 59 48
365 900 368 74 59 52
360 902 378 76 61 49
364 900 379 72 56 46
356 914 352 76 65 59
358 917 360 73 63 57
356 921 358 60 51 46
361 915 360 70 62 55
361 916 360 71 61 55
371 897 365 74 59 48
370 898 368 77 60 50
373 896 377 71 55 45
373 898 379 71 55 45
377 897 379 72 56 45
357 940 352 118 104 92
358 943 350 106 94 84
362 944 351 108 97 90
357 949 336 86 68 66
359 952 334 98 74 66
364 958 334 107 83 68
367 959 336 121 96 82
420 775 257 103 74 58
358 949 340 99 82 76
360 951 339 108 85 82
359 952 348 79 64 53
363 952 340 109 88 80
363 949 345 96 83 73
364 951 344 105 90 77
363 948 350 94 83 76
363 953 350 83 71 60
366 950 346 110 96 83
368 953 345 108 91 77
368 958 340 108 86 72
369 953 350 95 77 63
368 958 345 92 73 58
367 957 348 92 72 54
358 933 355 78 64 53
356 930 356 60 47 39
358 933 358 67 53 41
358 943 355 87 70 59
364 938 356 67 55 45
363 937 359 65 55 45
367 939 356 72 59 49
368 938 359 74 59 47
369 941 359 72 57 46
363 948 354 98 80 64
365 951 353 92 79 70
371 940 357 74 61 51
371 940 358 73 60 49
369 941 357 73 61 51
373 943 357 75 61 49
373 943 359 75 62 50
377 944 359 73 60 50
374 946 358 73 59 49
378 945 356 70 57 47
378 948 359 77 64 55
382 948 359 78 65 55
383 951 355 89 76 68
382 951 358 83 71 62
354 962 331 103 83 62
354 962 335 88 72 57
433 879 311 72 51 53
359 967 331 80 59 38
363 963 331 98 75 56
368 963 335 117 96 82
364 973 331 90 71 50
361 970 333 90 67 44
368 973 330 88 67 46
355 962 343 90 66 50
358 963 345 90 71 54
360 972 340 102 81 62
363 963 347 89 68 52
363 968 345 89 70 53
368 963 345 86 66 47
366 975 342 91 71 52
369 977 331 92 72 53
368 978 335 104 87 72
368 977 340 100 80 62
369 967 333 120 98 80
372 964 336 122 99 86
373 968 335 118 97 85
372 970 332 137 117 102
378 972 334 119 97 87
378 974 332 154 138 125
383 974 332 119 94 95
383 973 335 119 97 82
372 964 340 104 81 65
371 965 343 87 70 54
373 969 344 93 74 57
377 969 340 82 64 50
377 970 343 92 74 57
433 863 340 68 55 42
378 973 344 92 72 52
383 974 344 94 75 55
373 977 331 93 72 51
373 980 335 93 75 56
378 980 334 99 80 58
383 978 332 130 108 97
373 979 340 86 68 51
369 976 343 85 71 57
378 977 343 83 68 51
378 980 341 89 74 60
379 981 339 86 70 55
383 978 344 83 67 50
383 981 340 92 78 64
409 773 258 101 79 62
413 773 258 105 78 60
415 769 272 61 45 35
412 776 258 108 78 63
415 772 272 72 54 46
412 773 280 110 82 54
414 773 285 134 95 64
412 783 275 85 62 42
413 778 275 75 56 38
413 778 280 114 83 54
415 780 272 52 40 30
415 778 285 139 97 65
414 783 285 146 99 67
409 798 270 107 72 52
413 793 260 70 54 46
415 790 260 67 51 43
412 793 265 67 50 40
414 789 266 70 52 42
410 785 270 58 45 33
410 788 270 70 51 37
412 788 269 70 52 41
410 793 271 90 62 44
411 796 261 64 49 41
411 796 265 63 47 40
412 788 280 138 94 63
410 793 275 132 89 61
411 791 277 136 93 65
411 793 280 151 101 70
414 788 285 153 102 69
413 793 285 159 105 73
410 794 278 151 101 71
410 799 279 157 104 74
412 798 285 164 109 77
387 773 321 182 129 106
387 784 317 184 131 105
389 783 319 188 133 108
388 788 316 187 134 106
385 792 313 182 131 104
388 793 314 189 135 106
393 786 318 198 139 110
388 798 311 184 132 102
393 799 311 183 130 100
386 795 312 188 136 106
398 786 318 197 136 105
398 793 314 189 131 102
398 798 311 181 126 97
415 778 288 147 99 66
415 784 305 179 121 91
408 782 319 192 129 100
414 774 320 194 127 98
408 779 321 194 129 100
412 777 320 192 127 97
414 778 315 189 124 95
415 788 295 169 113 81
414 793 295 174 116 86
414 788 300 175 118 87
413 788 305 178 120 91
412 798 295 177 120 90
412 798 290 171 115 83
411 797 300 178 120 93
410 799 301 176 119 91
411 796 303 177 119 91
408 793 310 178 120 91
403 788 316 190 129 100
402 786 318 194 131 102
406 791 313 183 123 95
404 794 312 181 124 95
403 798 310 177 121 92
405 800 307 173 117 88
406 796 309 175 118 90
400 795 312 184 127 98
412 788 310 180 120 92
411 791 308 178 120 92
411 786 313 184 124 94
410 794 306 176 118 89
391 831 257 62 47 46
392 832 265 72 52 46
391 831 270 113 69 55
398 823 265 83 57 47
400 819 270 139 91 69
394 829 260 69 53 48
396 827 261 76 59 51
396 826 264 82 58 50
394 828 270 138 88 68
396 826 270 150 100 76
390 830 287 162 107 81
394 829 285 168 112 87
399 823 275 164 109 83
399 823 280 173 115 91
398 823 285 175 118 93
392 832 275 159 107 84
392 831 280 167 113 89
396 827 275 166 111 86
396 827 285 173 115 92
404 808 260 57 46 40
404 808 265 74 55 45
403 813 260 66 52 44
403 813 265 80 60 50
408 803 275 152 100 71
404 813 275 157 104 75
406 811 276 159 105 73
408 808 280 163 108 77
406 812 280 169 112 81
405 814 280 170 113 82
405 814 285 177 118 91
409 803 280 162 107 76
402 818 275 162 107 78
402 818 280 172 114 87
400 820 274 158 105 76
402 818 285 176 118 92
389 815 302 163 116 88
393 812 304 163 115 87
398 808 305 167 115 87
396 811 303 164 112 86
388 808 306 170 121 92
388 806 308 173 124 97
393 808 306 168 118 90
394 805 307 172 121 93
398 802 309 174 122 93
388 824 295 159 107 79
393 822 295 162 109 81
388 818 300 162 113 86
393 817 299 163 112 83
387 826 293 159 105 77
393 827 289 164 108 82
390 825 292 160 105 78
399 819 290 172 115 90
396 821 294 167 111 85
396 826 288 170 113 88
407 802 304 173 117 89
407 807 299 175 119 91
403 803 305 171 117 88
405 805 302 172 118 88
404 814 290 179 120 94
404 813 295 173 117 91
408 808 290 179 120 92
406 811 294 178 120 93
405 810 297 174 117 90
411 802 290 175 116 87
411 802 294 178 120 92
402 817 290 176 117 93
418 773 258 104 74 58
422 772 258 103 76 52
424 773 257 103 79 60
423 773 266 75 56 43
418 778 257 91 68 52
421 782 257 89 67 54
423 783 260 79 59 47
424 780 258 96 73 54
418 778 271 58 44 34
428 888 306 93 75 56
418 783 269 60 46 37
424 778 266 72 54 40
422 778 269 65 49 38
421 781 268 65 47 37
425 769 257 110 82 58
428 773 264 91 67 54
430 771 262 78 63 57
426 774 269 82 60 46
428 779 260 89 65 49
429 782 260 78 56 43
428 778 264 84 60 44
429 781 263 73 53 39
432 777 264 92 66 51
430 781 256 83 60 45
427 777 269 82 60 45
418 774 274 68 50 37
422 774 274 63 46 34
417 777 275 70 52 37
417 779 278 97 70 46
418 788 260 70 55 45
418 787 265 62 47 36
421 786 263 66 52 41
417 791 271 66 48 40
417 773 291 145 98 66
417 773 295 154 102 69
416 778 291 151 101 69
417 778 295 157 104 72
416 783 291 156 104 71
417 778 300 168 112 79
417 778 305 176 116 88
416 772 310 184 121 93
416 771 315 192 126 99
416 772 320 195 127 99
416 778 310 183 121 94
416 781 308 182 122 93
416 786 291 161 107 73
416 786 293 165 110 76
393 773 325 194 137 113
398 772 329 206 144 118
398 780 322 202 140 111
398 778 324 204 142 113
403 775 327 204 139 108
408 774 326 200 133 106
403 769 331 210 145 116
403 772 329 207 142 112
403 778 324 201 136 107
403 780 322 198 134 105
415 770 327 199 129 102
412 776 323 195 130 98
389 834 260 63 51 46
385 840 258 81 63 59
387 838 260 67 54 51
387 838 265 60 49 47
389 834 265 62 44 42
389 834 270 87 55 47
388 834 275 134 85 66
386 836 273 88 54 42
388 888 317 62 53 51
393 888 318 65 53 52
387 895 310 65 60 59
388 893 315 68 59 57
391 890 317 64 53 52
391 891 317 66 54 54
393 893 320 63 55 53
398 883 319 80 60 53
400 885 317 76 57 53
398 893 320 64 54 52
409 869 321 80 60 48
413 869 321 72 57 47
408 891 303 107 86 62
405 893 305 89 73 59
413 887 304 98 71 54
408 888 304 101 76 55
413 893 303 97 71 55
411 894 302 94 75 59
499 846 302 114 85 54
405 885 307 99 74 45
408 885 306 86 61 46
405 885 309 92 68 50
404 888 310 92 70 53
403 882 319 101 73 58
402 888 314 85 65 55
408 884 315 90 65 54
406 886 313 90 67 51
406 895 311 67 57 53
403 894 320 64 54 51
413 885 307 86 62 55
413 885 310 90 67 56
413 884 315 88 66 52
413 895 320 64 51 54
449 859 311 79 57 43
448 858 315 59 46 35
423 879 320 119 101 83
429 879 315 111 93 73
428 878 320 119 99 78
433 877 315 88 74 62
431 876 318 105 86 64
423 893 305 85 70 57
418 888 306 81 64 48
418 886 308 73 60 48
423 889 307 73 60 51
423 887 308 63 53 44
418 883 315 91 66 50
418 882 319 122 95 65
422 881 318 123 104 85
418 893 305 92 69 53
418 893 320 64 49 52
423 892 315 61 49 47
422 891 320 67 53 55
424 889 316 59 46 49
428 883 310 62 48 41
430 880 312 71 47 24
433 884 307 124 95 57
433 888 305 98 79 59
427 881 314 93 72 54
428 888 315 61 46 46
432 887 315 79 62 60
431 886 320 66 52 51
428 893 310 62 50 47
433 893 305 87 70 59
434 889 311 76 58 55
447 878 304 111 88 69
437 872 319 70 57 42
438 874 315 72 56 40
438 878 310 112 90 72
434 875 316 91 72 49
440 875 312 71 57 43
443 873 310 78 55 44
446 868 308 66 45 35
449 868 307 83 62 41
442 868 315 69 53 42
441 866 318 57 45 35
440 869 317 66 50 40
442 877 308 105 73 49
445 874 307 105 76 47
444 880 316 87 69 63
448 878 315 84 69 63
436 891 305 87 70 60
439 884 310 99 78 63
438 882 320 80 65 61
436 886 313 84 69 62
443 881 307 107 88 74
443 883 310 94 76 69
446 881 309 94 72 69
449 880 310 93 74 67
442 882 314 85 68 62
412 864 326 62 48 38
408 864 330 54 45 37
413 863 330 64 53 43
408 864 335 46 38 31
413 864 340 51 42 34
388 872 330 52 44 38
393 869 330 48 41 36
388 873 335 56 45 37
393 873 336 53 43 35
388 876 324 54 47 48
395 870 327 52 44 40
428 893 340 86 68 54
398 868 330 49 41 34
398 868 335 47 39 35
398 876 323 69 55 52
398 878 321 81 61 54
388 876 337 59 47 38
388 879 338 58 46 37
398 876 337 62 49 42
398 895 324 64 53 52
389 885 344 50 39 33
391 886 347 64 48 36
389 889 348 79 62 47
386 893 347 70 55 45
389 893 348 71 56 44
393 893 350 74 58 45
398 884 345 76 59 46
395 885 348 69 54 41
398 888 351 91 70 51
397 893 352 80 62 47
403 868 326 73 56 46
402 872 324 68 54 50
402 867 336 46 38 33
404 865 334 43 36 33
400 875 322 69 57 55
394 902 300 67 61 59
403 878 321 101 73 63
408 878 321 100 74 58
415 866 328 62 51 46
412 877 322 81 61 48
413 878 323 95 73 54
401 872 337 57 46 39
404 869 338 53 43 35
403 873 338 61 49 40
406 866 337 44 36 30
408 873 340 65 53 43
403 878 339 72 57 49
413 868 342 61 49 39
413 873 341 70 56 47
403 895 324 67 56 54
408 895 323 67 54 55
403 883 340 86 66 54
402 885 345 85 66 51
404 886 345 86 65 51
408 883 338 78 58 48
408 888 345 91 69 55
402 885 348 71 52 38
412 883 338 72 55 44
415 880 337 76 56 39
415 886 337 72 61 51
413 890 349 78 61 46
413 893 350 85 66 49
400 889 353 91 69 49
403 889 353 93 72 53
403 893 353 83 63 48
406 890 353 90 70 50
493 848 325 91 73 54
406 892 353 84 63 48
418 863 330 66 51 41
429 864 326 78 63 53
428 861 335 63 52 42
433 861 335 55 45 36
423 863 340 62 49 39
428 862 340 68 55 43
438 861 325 60 45 35
437 861 330 56 48 39
448 858 325 52 42 32
443 860 330 51 42 35
443 862 336 64 51 39
447 860 333 50 40 31
417 869 325 61 50 42
418 873 325 69 54 43
423 868 331 73 58 47
418 877 323 86 67 51
419 879 321 112 95 80
423 877 324 88 69 50
427 867 325 80 63 48
428 868 321 65 49 38
426 873 323 71 54 37
425 869 326 70 56 42
433 868 321 61 47 39
426 876 323 93 73 54
428 878 335 80 61 47
434 879 330 72 58 45
418 868 343 67 53 42
420 865 343 61 49 38
418 873 341 70 56 44
423 868 344 71 56 43
423 871 343 71 56 44
418 877 338 89 69 51
419 879 337 81 58 45
427 865 343 72 57 46
428 868 343 73 58 46
428 873 340 84 64 54
433 868 342 70 54 41
431 868 343 66 52 38
433 875 337 85 63 48
423 883 335 78 61 49
418 883 336 72 56 45
423 888 335 77 63 53
418 894 325 77 60 59
418 895 328 80 59 56
428 888 324 75 61 57
432 883 329 66 53 42
433 888 329 74 59 47
425 890 323 66 53 53
427 892 326 95 77 64
428 892 335 88 70 55
428 893 330 97 77 65
433 893 330 93 74 62
418 889 339 80 66 56
419 891 341 80 69 58
416 890 345 86 71 59
419 892 345 78 62 48
422 890 338 80 67 56
423 892 340 78 65 54
422 894 344 79 61 47
416 890 348 74 56 42
431 894 338 96 78 61
438 875 336 83 65 52
438 876 334 82 66 54
448 872 334 98 78 64
443 877 325 69 55 49
448 874 325 67 53 48
445 875 326 69 56 50
444 875 331 83 65 55
443 874 335 92 73 59
443 877 329 76 61 50
441 876 333 88 72 57
447 879 329 94 76 62
438 873 340 94 72 56
444 868 337 77 60 48
447 874 341 90 72 55
445 878 340 68 55 42
438 883 325 71 55 50
438 887 326 79 59 53
438 885 328 71 57 49
437 895 334 85 70 59
442 882 321 81 65 56
446 881 326 89 72 59
442 886 328 92 69 59
453 854 320 57 46 35
453 864 306 76 57 46
458 854 311 65 50 39
463 852 309 75 59 45
464 854 307 74 57 39
458 852 315 60 47 38
461 851 316 61 48 34
460 850 315 61 50 40
464 850 318 60 45 36
459 859 306 82 63 48
458 857 309 65 49 37
456 861 308 81 57 48
461 856 308 68 51 32
473 847 310 77 46 37
472 846 315 59 47 36
475 845 311 71 51 37
475 845 314 68 55 42
478 844 315 64 51 39
392 901 342 57 50 44
476 846 317 60 45 24
478 848 320 69 53 39
479 845 319 63 50 36
464 864 302 82 62 48
468 863 303 81 63 46
472 863 302 90 71 54
468 853 306 85 64 42
474 849 307 85 62 48
468 849 318 63 49 35
468 852 321 79 62 46
468 863 320 70 50 41
469 865 317 62 44 33
473 863 315 62 47 34
478 853 306 92 74 58
473 859 320 72 53 41
476 861 318 63 44 36
479 860 317 56 42 28
453 873 304 99 77 57
450 875 302 119 89 44
452 875 302 100 78 57
449 878 302 105 82 60
454 878 305 95 72 63
456 878 301 89 75 63
453 868 305 95 74 49
453 872 320 62 46 35
453 877 310 93 72 66
450 875 317 79 62 55
452 876 314 81 68 63
458 873 306 89 68 59
463 872 306 98 77 62
463 872 310 94 73 64
458 872 315 71 55 47
463 868 315 66 50 40
462 871 314 79 61 51
456 876 306 93 73 65
456 876 308 93 71 64
452 881 302 99 78 68
452 881 304 100 78 66
467 871 307 93 74 66
468 869 311 89 69 59
468 867 314 71 54 42
472 866 313 78 59 46
476 867 306 96 75 64
474 865 312 77 62 46
483 844 307 86 63 45
483 842 310 92 60 48
488 843 306 104 77 50
488 841 310 102 71 47
488 848 305 101 76 55
483 844 320 75 58 40
489 840 311 107 82 54
489 840 315 89 70 51
488 842 320 81 64 47
493 840 310 123 97 70
493 839 315 97 80 62
493 840 319 94 76 57
493 848 306 110 83 55
493 842 321 81 62 43
488 853 306 107 79 55
483 858 305 94 73 51
488 858 306 108 82 57
487 862 306 98 73 57
488 863 310 104 80 66
483 858 320 68 54 40
483 863 315 76 59 46
484 861 318 67 51 43
398 907 275 68 58 54
488 858 320 77 60 48
488 863 315 92 74 58
493 853 307 115 86 56
493 857 307 118 87 61
490 860 308 105 77 57
494 860 308 109 79 59
493 862 315 103 82 66
508 843 301 115 88 60
507 841 303 129 97 62
508 839 305 127 98 67
508 846 301 109 82 56
510 840 302 129 97 63
513 839 305 118 91 64
511 846 302 115 86 57
511 846 305 109 83 60
498 839 310 116 89 61
504 840 306 119 92 64
503 839 310 115 90 64
498 838 315 100 80 58
503 838 315 104 83 61
503 840 319 108 86 63
498 841 308 132 93 62
500 840 307 119 91 65
513 839 310 120 93 66
503 842 321 106 84 61
506 840 318 118 95 72
507 843 320 106 83 60
509 844 316 107 85 63
509 848 319 116 88 65
513 848 320 113 88 62
498 853 306 120 90 62
501 851 307 118 89 63
503 853 310 113 82 63
504 849 309 111 83 60
504 853 315 111 87 67
497 857 307 120 88 63
498 858 310 107 78 61
496 861 311 99 76 62
502 856 311 111 80 63
497 861 315 104 79 64
502 857 315 110 84 65
501 856 319 106 84 63
506 852 312 118 86 66
506 852 314 118 88 69
508 852 320 111 86 62
483 865 310 99 78 64
451 856 321 50 40 31
453 857 325 58 45 34
451 864 333 73 57 44
458 855 323 69 54 41
458 858 326 77 61 46
463 858 325 86 65 49
463 863 325 79 60 47
457 863 329 74 55 41
468 854 323 90 70 53
468 858 324 88 66 51
467 862 323 76 54 44
470 860 321 71 49 35
473 857 323 90 67 53
478 852 322 84 64 49
477 856 323 85 64 53
452 871 325 71 54 45
454 870 325 77 58 48
451 871 329 82 61 52
453 868 330 80 60 48
448 879 336 69 56 43
458 867 325 79 60 47
456 866 328 85 64 50
450 877 344 70 54 40
452 875 344 80 64 50
458 878 344 83 70 60
450 881 342 81 68 56
458 882 343 72 61 50
458 884 342 76 62 51
463 887 341 89 74 63
468 879 346 88 75 65
473 878 347 92 77 67
469 878 348 90 76 66
472 878 348 93 79 68
476 879 344 92 76 66
466 885 342 91 77 66
466 886 343 91 77 66
479 881 341 90 77 70
482 846 322 93 73 51
483 848 324 81 63 45
488 848 325 87 68 50
483 853 324 85 67 52
483 855 322 76 58 42
493 853 324 88 72 55
494 856 323 94 72 55
498 842 321 92 73 52
498 848 325 96 77 57
503 844 324 102 81 57
513 848 325 106 82 60
498 853 324 96 75 56
500 855 322 103 79 62
498 857 323 100 74 56
386 769 413 136 91 74
388 773 414 169 113 97
393 771 412 183 119 103
393 774 415 189 122 103
396 771 412 196 122 97
397 772 415 206 136 114
399 769 415 205 137 111
389 779 419 188 123 104
388 782 421 194 126 106
392 777 417 192 126 105
388 784 425 214 144 119
391 781 425 216 144 118
389 784 430 213 145 114
392 782 430 205 139 111
395 775 419 208 139 115
395 775 424 210 140 113
400 770 419 205 137 111
398 773 425 203 137 112
398 773 430 202 138 113
396 776 426 202 139 111
396 776 430 201 138 112
388 772 446 151 122 96
392 773 444 163 124 98
392 783 435 193 130 103
392 778 445 188 135 114
392 783 440 196 133 107
391 782 445 205 143 121
396 773 439 196 137 113
395 779 435 198 136 109
394 778 440 199 136 114
396 776 435 200 138 112
386 786 426 217 146 122
387 787 430 216 145 115
388 788 435 204 136 108
385 790 434 212 143 112
388 788 440 201 135 109
386 791 437 201 136 107
390 785 442 207 143 118
387 774 448 147 120 94
388 778 449 169 132 106
387 787 449 214 150 128
386 900 258 79 64 59
393 907 265 69 59 54
397 909 260 91 77 71
398 913 260 68 55 47
398 909 265 71 59 54
398 913 264 70 57 49
394 906 270 69 52 57
398 908 270 65 54 51
392 905 275 65 54 51
395 906 278 63 54 51
397 905 281 70 60 55
397 905 285 69 60 54
399 906 285 68 59 54
386 915 259 56 46 41
393 914 260 61 50 42
393 918 264 63 51 45
388 922 270 55 46 39
393 921 266 59 48 42
394 915 263 67 55 46
397 918 264 70 58 50
400 918 261 70 57 49
400 922 261 74 61 50
393 920 271 65 55 49
398 919 285 82 70 62
394 921 279 64 54 46
398 922 275 66 56 49
398 921 279 69 59 52
398 920 281 88 75 67
402 913 265 73 62 54
402 909 271 67 57 53
404 912 269 76 64 56
403 908 275 72 63 58
408 909 276 79 68 62
407 914 271 83 70 62
408 908 280 78 68 61
408 909 284 73 63 57
408 913 286 72 62 55
413 910 280 80 70 64
412 910 277 84 73 65
412 913 276 80 69 62
414 914 280 79 68 60
413 910 283 75 65 59
413 913 284 78 68 61
403 918 260 77 64 56
408 918 271 84 70 61
403 922 261 75 63 53
402 921 263 73 61 53
400 920 268 67 57 49
403 921 271 71 60 51
403 918 285 79 69 62
403 920 281 86 75 66
408 917 285 78 69 63
402 921 279 85 73 64
407 921 275 73 61 53
410 918 275 76 64 55
411 916 276 80 69 60
411 916 280 79 67 57
411 916 284 86 77 72
386 900 292 62 59 60
393 903 290 65 58 56
393 903 295 68 61 59
388 898 300 65 60 60
392 900 300 65 59 57
391 900 297 67 61 61
395 902 304 78 72 70
398 907 290 64 56 51
396 905 295 63 55 51
399 914 291 72 63 56
398 913 295 65 58 53
393 913 300 67 59 55
395 910 302 68 61 56
394 909 305 69 61 58
396 905 300 68 61 59
396 908 300 63 55 49
396 907 305 64 56 52
396 912 299 66 58 54
498 917 281 92 83 75
389 896 309 66 60 59
393 898 310 72 63 61
387 897 320 57 49 46
385 900 317 57 48 47
392 898 314 67 58 56
387 911 309 65 56 53
388 912 305 61 54 49
405 896 306 80 68 59
388 907 314 62 55 52
395 901 310 73 64 58
396 906 310 69 60 57
388 916 295 67 57 49
393 918 290 72 60 53
393 916 294 64 54 48
387 915 297 69 60 54
388 914 300 66 58 53
398 917 290 75 64 58
397 916 294 70 61 54
408 896 302 96 78 68
408 897 305 74 65 59
402 909 288 67 58 52
403 913 289 73 63 57
413 898 310 63 56 52
418 912 281 95 78 74
423 912 281 90 75 64
428 909 280 85 71 60
433 909 281 92 77 65
432 911 280 91 78 66
427 909 284 83 69 58
427 912 284 80 67 56
436 910 282 95 80 69
423 897 305 89 74 64
424 911 288 74 65 57
418 897 310 68 59 56
417 896 313 63 51 50
427 896 308 71 58 51
393 896 326 61 52 50
388 899 330 61 51 48
387 901 336 62 51 45
393 899 335 63 53 47
398 896 326 65 54 52
398 899 335 70 59 52
388 901 340 49 41 36
390 900 338 56 48 42
393 901 345 58 48 41
390 901 348 63 50 47
394 901 349 62 50 42
397 900 339 65 54 46
398 901 341 63 50 39
398 902 345 63 52 43
403 896 326 70 57 55
403 899 335 91 75 63
408 897 330 90 72 63
412 896 326 78 62 60
413 900 334 119 94 74
408 901 336 112 89 69
413 902 336 113 91 76
402 900 338 88 71 56
404 901 337 91 73 54
403 904 345 71 59 49
408 904 340 82 66 51
403 898 352 70 53 39
403 902 349 73 60 50
408 904 345 70 58 49
408 902 349 77 61 50
413 904 340 86 69 55
413 903 345 80 64 52
413 898 349 85 68 53
412 901 348 86 66 53
415 899 347 83 66 52
400 896 353 70 51 39
403 896 353 71 53 38
387 949 355 78 64 56
387 951 355 80 66 57
416 896 327 81 65 58
418 898 330 99 75 61
417 900 333 122 104 89
418 902 335 117 98 81
423 902 335 93 75 61
433 897 332 121 102 90
429 900 336 97 81 72
432 901 334 102 83 72
422 897 344 89 72 59
424 899 341 93 77 65
418 898 346 82 67 54
417 896 348 81 65 51
428 898 339 93 76 62
437 897 332 97 82 71
442 897 334 92 77 68
387 975 336 112 87 74
393 974 339 90 73 58
393 975 344 100 80 63
396 975 340 89 72 57
388 978 335 113 93 78
387 981 336 98 81 64
388 978 344 94 76 58
388 982 340 102 85 69
392 979 337 122 100 77
390 977 341 104 86 69
393 978 344 93 75 56
393 983 341 103 84 65
393 983 344 96 79 64
397 979 341 83 67 51
399 978 344 85 70 55
397 983 341 101 82 64
398 984 344 101 83 65
394 987 337 112 92 72
396 987 340 102 83 64
398 986 345 101 83 67
402 979 345 89 72 57
403 983 346 96 79 63
400 981 349 90 77 65
400 980 350 87 72 55
402 980 349 77 63 46
406 984 347 96 80 63
406 985 354 98 85 73
404 988 358 94 84 76
404 993 355 95 84 75
408 993 359 96 83 72
405 991 360 93 82 74
410 988 358 98 82 66
412 989 359 101 85 70
411 993 360 98 82 68
407 998 361 94 82 72
407 997 363 88 80 73
411 993 356 101 84 71
410 994 364 97 82 68
411 995 363 97 82 68
412 996 362 97 82 68
411 996 364 97 82 68
492 912 282 90 84 78
494 910 286 94 82 70
494 913 285 95 82 70
494 919 271 88 84 80
494 918 275 86 78 71
495 916 284 97 84 73
497 908 270 83 77 72
499 908 275 88 77 66
501 906 276 91 78 66
498 909 285 94 82 72
498 913 282 91 84 79
498 913 285 95 84 75
501 909 282 91 79 67
499 920 271 92 81 70
500 921 268 94 81 70
503 921 265 95 82 70
505 919 261 95 82 70
506 920 256 87 84 81
507 920 259 95 85 75
506 921 263 96 83 70
508 922 260 99 85 72
512 920 260 100 87 74
513 922 259 108 93 79
498 918 275 90 81 74
503 917 275 96 86 77
505 915 277 96 87 80
507 914 280 99 87 76
508 917 275 100 90 81
508 918 280 98 89 81
508 914 284 100 88 77
