ply
format ascii 1.0
comment Created by Open3D
element vertex 2223
property double x
property double y
property double z
property uchar red
property uchar green
property uchar blue
end_header
323 115 215 147 90 73
212 438 200 116 17 33
185 473 302 59 30 33
294 853 232 80 68 66
206 409 302 111 90 66
224 723 307 44 29 32
166 557 239 156 111 81
332 248 301 127 99 64
285 17 260 112 41 29
254 743 230 46 37 41
215 443 197 121 13 29
451 468 267 162 19 39
216 448 198 119 12 32
337 482 305 150 12 47
324 333 317 122 96 65
334 648 236 83 28 34
202 407 288 118 95 70
213 443 201 107 22 34
213 448 201 105 22 34
408 527 317 105 28 42
244 598 332 52 28 31
403 513 322 39 25 28
177 478 287 75 23 34
347 466 305 49 22 29
235 410 208 77 66 55
194 419 227 51 23 26
244 558 351 185 17 61
361 609 298 157 18 53
341 61 200 98 47 20
460 514 281 204 136 111
404 508 307 34 29 30
189 648 278 148 111 90
194 420 232 48 22 25
321 885 378 43 37 35
199 418 232 51 26 26
271 84 236 90 56 40
193 538 313 166 0 50
318 47 226 75 39 31
294 944 337 88 81 82
314 855 235 122 95 70
192 421 234 50 19 25
195 420 236 53 23 24
199 420 236 55 23 25
254 358 306 126 90 63
234 888 382 149 114 98
198 421 239 59 20 25
233 658 272 146 16 42
204 416 227 65 49 43
224 313 288 118 93 67
227 825 281 72 60 59
344 723 326 150 19 52
209 417 237 61 43 37
214 594 324 44 28 31
199 423 242 56 21 26
213 712 254 129 91 66
317 61 206 81 22 25
464 848 331 102 83 63
339 193 267 118 95 67
321 470 339 157 11 47
376 500 275 68 26 33
237 460 185 118 26 41
293 556 199 185 6 40
238 589 231 160 19 47
198 418 257 76 63 49
452 431 228 67 35 38
304 343 262 92 80 68
361 544 235 71 29 36
335 238 292 121 95 63
349 808 187 84 65 54
484 843 327 129 103 81
198 423 256 63 44 35
246 740 234 94 41 43
195 588 282 154 3 46
194 427 243 91 16 31
336 123 247 120 96 69
361 713 319 90 27 40
198 428 243 74 17 29
228 411 216 84 73 61
342 446 325 131 19 45
334 483 307 145 15 46
303 596 334 84 23 34
398 807 232 84 63 50
197 432 248 93 8 33
296 843 233 70 63 63
254 402 227 89 76 62
197 432 252 90 12 30
240 628 253 160 0 38
216 364 295 119 94 66
274 498 362 54 26 29
392 825 349 48 44 51
213 358 287 120 94 66
394 708 257 163 113 84
196 428 257 71 21 28
355 583 236 91 26 35
273 93 237 116 55 44
480 846 336 109 89 69
270 498 367 61 26 31
204 419 242 51 26 26
349 758 306 78 60 54
204 418 247 56 39 33
339 633 238 46 33 36
254 402 237 90 76 63
329 418 187 105 28 37
202 421 243 53 23 25
215 673 256 114 80 56
281 383 312 123 86 71
254 453 176 110 32 42
336 78 244 124 31 50
208 417 242 60 42 35
207 416 245 68 50 42
399 723 237 154 103 70
266 15 300 112 59 67
196 434 252 94 8 30
194 438 257 84 10 29
194 493 191 50 33 37
360 710 223 77 55 45
192 441 254 96 0 28
259 723 231 78 32 35
192 441 257 90 3 28
221 591 244 164 3 41
226 415 194 77 63 52
234 413 197 82 68 54
231 597 335 106 28 41
311 118 252 104 78 56
239 412 197 85 70 55
426 528 265 125 56 39
304 362 330 140 101 76
378 743 197 59 46 37
234 412 202 79 66 54
259 683 333 36 28 30
260 502 319 36 27 28
315 905 291 79 71 69
215 368 296 121 95 67
365 468 262 59 21 26
240 410 203 83 69 55
215 263 276 120 93 66
274 881 247 80 69 64
344 58 242 133 97 82
329 718 220 97 20 30
237 411 205 79 67 54
281 333 326 132 97 75
279 303 282 121 94 75
404 829 349 72 59 49
299 833 312 62 55 49
231 410 213 81 70 59
177 516 260 123 5 31
186 444 273 91 11 29
232 326 294 114 89 61
226 410 222 87 75 63
229 410 222 88 75 60
239 408 217 91 76 61
209 788 317 162 126 96
183 578 239 138 102 74
234 408 222 91 76 61
269 363 257 74 63 52
347 451 315 117 28 49
232 411 210 77 67 56
295 299 274 80 68 55
379 720 193 93 65 46
279 583 332 95 27 41
419 821 358 61 50 40
239 409 212 85 72 58
226 713 311 55 30 33
449 433 227 87 38 43
244 411 197 89 73 57
444 508 310 165 115 104
169 593 247 168 119 89
248 411 196 89 73 57
244 410 202 88 72 56
242 411 200 87 72 56
209 414 312 89 74 59
244 409 207 86 73 59
435 459 311 68 13 25
238 406 226 94 79 64
244 407 217 92 77 62
295 894 394 51 48 47
494 886 242 98 87 76
418 462 278 79 18 30
244 408 212 89 75 59
229 753 322 166 124 97
414 430 236 68 19 25
249 407 212 88 74 59
219 658 262 106 61 53
255 443 323 31 24 24
344 831 287 31 29 29
245 405 223 93 79 64
282 293 317 113 87 59
471 843 329 117 89 66
307 43 257 95 63 50
243 406 221 94 79 63
249 404 222 91 77 63
306 521 319 125 12 38
234 438 343 96 23 38
347 423 257 92 78 63
244 313 298 112 84 58
366 654 241 66 53 41
289 493 347 50 26 32
370 788 284 157 115 89
285 68 257 105 73 58
364 563 337 94 32 41
255 405 213 83 70 56
357 476 199 158 4 32
254 404 217 86 72 58
311 830 369 39 34 32
252 406 215 87 73 59
229 388 239 85 75 65
174 474 266 89 7 29
234 388 239 88 77 66
329 233 252 140 102 64
236 385 239 89 79 69
189 608 275 97 67 49
314 508 313 76 20 34
414 498 241 147 10 35
457 834 350 95 74 56
239 388 238 92 81 70
336 880 302 56 48 47
282 444 164 89 31 35
239 393 238 92 80 68
228 564 216 170 21 50
248 939 367 61 57 58
236 396 239 91 78 66
232 718 319 144 15 47
195 423 262 50 31 31
356 748 202 45 37 34
228 388 240 85 75 65
202 393 262 111 88 62
185 738 258 149 104 74
469 842 341 91 73 57
335 158 267 116 93 67
239 573 341 160 19 51
229 398 242 93 80 68
234 386 240 89 77 66
310 453 343 58 22 31
269 58 278 121 95 73
439 538 287 195 131 103
298 472 371 147 18 48
350 834 217 96 74 57
402 816 370 66 52 44
233 395 240 92 79 66
234 398 241 92 79 67
176 475 273 110 6 33
389 653 222 139 97 64
176 527 252 98 80 75
356 589 240 42 34 40
294 381 245 97 83 70
229 409 227 90 76 61
335 808 193 69 56 49
216 459 335 48 28 29
315 251 254 143 100 67
333 548 302 75 13 26
229 409 232 90 76 61
398 738 242 158 103 71
234 408 232 90 77 63
225 323 290 122 95 68
263 773 234 74 60 52
240 405 228 94 79 64
331 284 292 122 91 61
239 407 237 93 79 65
231 889 324 71 62 60
305 459 315 99 1 30
229 403 243 93 80 67
253 273 286 70 57 42
228 404 245 93 80 67
229 409 242 90 77 63
353 846 330 59 52 52
291 227 259 122 92 60
284 423 306 113 87 70
210 423 332 116 17 40
334 12 272 128 60 71
429 453 227 41 33 37
479 499 287 208 138 120
234 403 243 91 79 66
235 404 246 90 78 66
410 499 240 59 28 35
289 228 267 112 88 62
371 763 289 62 48 46
205 548 321 156 10 49
202 604 287 95 30 42
334 408 247 96 82 68
234 408 242 90 77 65
291 937 360 60 57 57
304 366 250 95 83 71
348 846 244 75 61 56
254 293 293 73 59 43
317 254 315 120 95 64
251 820 327 152 115 93
311 100 224 110 61 46
403 805 226 85 68 56
354 673 242 51 33 33
288 323 275 79 68 57
264 532 194 111 25 38
235 407 246 91 78 65
333 408 316 131 96 69
239 407 242 92 79 66
284 928 383 58 54 54
279 463 310 29 25 26
243 388 239 95 83 71
304 163 247 113 88 58
331 92 249 112 68 53
191 424 287 46 32 34
243 393 238 95 82 70
179 628 252 182 125 95
294 703 224 127 15 32
232 455 185 60 30 41
219 513 199 67 31 32
366 720 199 99 82 64
269 873 252 70 60 55
183 623 246 170 117 84
242 396 239 93 80 68
284 378 247 87 74 61
249 388 243 96 82 68
158 458 262 85 42 39
190 428 287 72 30 35
259 793 240 82 65 59
473 507 297 199 130 115
245 394 241 94 82 70
363 463 267 71 16 28
313 313 274 86 75 63
313 448 361 80 27 35
329 303 307 132 101 69
395 778 262 163 117 84
249 393 243 96 82 68
244 398 242 93 80 68
245 399 247 94 81 68
342 92 203 157 26 52
226 922 360 53 51 52
453 473 272 155 19 40
202 614 244 133 95 68
329 158 272 111 90 66
294 508 347 170 6 54
189 443 292 104 15 37
329 513 302 46 23 27
226 503 199 106 15 29
247 396 244 94 80 67
313 78 222 110 45 46
286 432 191 110 11 31
248 397 247 95 81 67
488 894 257 100 85 70
252 873 301 147 111 89
232 263 289 119 92 67
246 401 250 95 81 65
278 293 287 113 93 75
249 399 251 94 80 66
323 349 269 95 84 73
236 339 300 113 89 62
251 387 245 94 81 67
253 388 247 94 80 66
392 431 234 71 21 25
292 217 268 99 80 58
244 453 332 67 17 25
325 53 197 111 41 18
169 533 239 137 98 74
255 393 250 92 78 64
416 763 203 76 60 43
388 593 262 61 27 32
276 298 305 119 91 68
254 398 250 92 79 66
364 693 292 133 11 43
177 473 282 121 6 37
154 508 262 144 104 81
349 414 212 75 21 29
244 404 232 94 80 65
183 574 239 135 102 72
367 512 234 125 17 34
230 338 296 112 90 64
249 403 227 92 78 63
368 732 181 89 69 55
307 83 248 100 71 57
219 308 283 119 94 69
249 403 232 93 79 64
244 835 361 111 91 73
259 918 391 83 77 77
285 338 331 134 98 77
241 405 236 94 80 66
244 404 237 94 80 64
217 746 309 104 75 49
324 238 307 119 95 66
178 528 282 149 1 42
314 493 318 62 26 33
455 448 257 132 21 38
339 738 321 167 17 54
242 406 239 94 80 66
304 183 246 121 92 55
324 829 206 77 60 51
466 884 273 108 88 72
401 427 210 139 7 47
249 403 237 93 79 65
264 133 257 113 85 58
185 453 262 85 9 27
473 458 292 67 22 27
374 534 312 52 25 29
275 514 332 60 20 30
274 10 296 119 86 66
254 402 232 89 76 63
283 36 285 138 22 54
224 463 192 141 4 33
203 643 244 142 98 67
183 543 252 127 45 55
259 919 291 91 82 81
434 512 276 118 40 30
244 403 247 94 80 67
240 582 224 202 10 47
271 347 298 66 50 40
304 575 210 58 37 39
245 405 242 94 79 65
279 397 227 86 72 58
249 402 247 93 79 67
332 415 185 95 28 32
373 527 298 48 24 28
249 401 251 93 80 66
244 937 322 72 67 68
389 443 252 71 18 27
254 402 242 90 77 64
254 401 247 91 77 63
199 458 202 113 5 25
252 401 250 92 78 64
215 503 200 109 20 31
340 213 262 128 101 68
194 473 193 70 28 35
220 453 193 136 4 30
249 888 294 92 69 56
304 308 273 81 70 59
419 503 282 100 21 37
296 361 330 136 99 77
288 814 240 81 63 56
223 453 191 145 6 32
443 432 208 114 29 42
194 488 191 48 38 40
414 493 298 99 3 30
359 793 287 53 45 43
227 795 250 72 57 53
394 496 219 133 13 35
229 453 186 120 18 39
282 926 385 50 45 45
181 493 301 37 30 30
307 188 245 122 93 59
230 458 188 142 14 39
228 459 191 129 12 35
231 461 189 83 33 36
208 548 323 133 15 45
436 495 256 48 33 35
239 452 178 113 29 39
334 813 291 36 33 33
238 454 180 124 27 42
337 133 242 120 95 66
234 458 186 108 25 38
315 833 389 43 38 35
314 328 327 124 93 61
234 463 188 144 14 38
233 464 190 148 4 38
197 783 314 154 116 88
298 463 356 104 5 35
374 728 287 164 18 50
214 313 277 123 96 68
239 464 186 119 24 39
372 713 267 143 12 47
269 58 227 96 43 27
337 108 203 143 29 46
260 198 241 125 98 65
229 468 192 131 13 34
404 533 282 105 20 39
236 466 189 160 3 38
365 688 237 97 77 57
239 468 188 132 17 39
249 453 177 118 29 42
204 723 301 144 105 77
329 43 194 136 17 25
429 493 292 33 23 25
213 624 282 69 29 38
255 451 174 83 35 40
262 248 257 97 76 52
172 610 250 174 119 89
244 453 178 102 30 41
249 457 179 89 33 40
248 839 282 192 131 101
155 538 247 167 115 89
301 174 261 100 80 58
249 463 182 79 35 40
315 15 257 98 48 43
181 463 286 120 12 36
189 738 296 147 107 75
248 488 326 37 21 23
254 458 178 119 32 43
239 798 313 62 51 45
253 460 180 108 38 47
384 763 271 161 115 85
212 465 205 122 1 28
417 431 202 108 23 29
234 363 308 115 92 65
394 453 263 54 24 27
254 463 181 120 30 43
334 273 282 121 87 57
446 440 302 70 19 28
286 35 284 134 24 51
380 720 265 136 88 65
290 924 383 56 53 54
340 103 212 123 51 51
176 522 277 142 3 41
226 354 300 110 89 64
239 578 222 203 11 47
243 465 185 85 31 41
334 407 187 126 63 36
399 688 232 148 102 71
334 110 214 126 79 67
256 951 334 81 78 80
291 230 285 106 85 61
240 773 238 70 57 51
244 468 186 63 36 38
319 238 250 144 103 66
464 466 293 113 4 27
238 797 315 59 49 44
244 472 188 69 33 40
413 438 196 127 18 32
219 668 272 81 55 47
249 469 185 61 38 41
418 447 268 77 15 26
239 693 322 43 29 31
176 513 282 132 9 41
239 478 192 149 9 37
264 821 316 77 62 48
250 478 189 48 38 38
327 323 284 103 86 65
294 223 256 124 92 56
379 643 221 104 81 55
387 801 199 91 69 55
279 752 326 70 57 50
379 867 327 72 61 56
165 468 268 88 50 41
248 479 190 66 35 40
254 468 183 138 21 41
319 606 224 136 24 43
266 88 230 94 55 38
334 858 248 75 65 62
253 470 185 72 37 38
282 296 280 98 81 64
411 587 270 165 110 93
254 473 186 56 35 39
308 778 220 73 60 52
376 639 250 95 58 44
270 503 363 55 23 27
254 478 188 72 34 39
211 621 282 76 28 38
335 113 247 120 96 70
435 489 245 153 8 37
330 54 259 120 32 47
244 483 193 90 27 36
249 483 191 67 38 40
259 414 162 111 58 43
249 488 192 67 37 43
375 593 287 76 31 39
254 488 190 45 39 42
244 328 301 118 87 62
259 879 282 41 36 37
266 353 255 77 67 57
254 493 191 45 38 41
197 544 231 165 10 44
303 394 324 141 101 79
305 11 288 134 61 68
373 439 246 59 21 23
196 453 200 109 7 25
198 453 203 113 4 26
329 96 194 129 49 43
199 463 202 109 7 25
187 630 245 156 107 81
201 452 205 114 5 27
324 830 358 40 34 35
259 393 251 87 74 60
267 97 229 117 68 53
202 455 204 100 12 26
338 373 292 107 88 67
297 192 257 111 89 66
169 488 272 105 27 37
254 373 310 125 91 64
309 803 302 123 91 73
308 214 245 135 101 61
208 453 205 77 28 29
423 827 360 64 51 38
262 123 270 118 93 66
279 9 277 104 76 61
264 493 317 45 26 29
286 791 234 75 60 51
203 459 204 114 4 29
262 148 248 119 92 62
208 457 205 111 5 29
220 478 198 121 11 32
314 236 249 141 104 65
192 462 308 117 9 37
210 458 204 120 3 31
489 847 319 154 120 97
274 853 268 133 97 78
209 462 204 121 4 28
211 348 262 112 91 67
294 594 330 111 15 36
196 472 195 89 24 32
197 465 199 108 11 24
229 403 320 119 93 65
315 18 248 95 39 36
185 703 262 152 103 74
239 278 292 109 87 61
198 468 198 101 12 27
254 433 327 49 25 25
286 283 279 96 79 62
197 478 194 83 28 33
412 482 288 99 8 33
256 432 324 43 33 26
374 668 253 76 52 36
425 498 327 106 24 42
259 12 272 90 54 49
374 830 373 76 60 51
410 783 228 78 60 43
405 434 208 131 10 28
211 334 272 116 91 63
398 763 252 156 110 73
289 518 332 126 16 43
335 104 200 148 26 44
187 447 288 128 3 38
328 472 322 114 28 46
308 648 325 74 29 37
208 469 204 118 3 26
324 448 204 67 33 37
205 478 201 68 27 33
346 64 233 130 26 47
314 378 327 141 101 75
209 478 202 63 31 36
213 473 333 99 21 36
274 888 404 63 59 59
311 292 329 117 90 57
260 415 158 129 49 42
321 98 203 125 14 38
350 529 220 142 6 31
215 453 198 119 10 30
213 453 201 117 6 31
206 405 300 116 92 66
335 368 282 104 86 66
327 324 310 129 99 67
480 851 328 109 89 73
462 506 268 214 140 125
210 464 205 124 3 27
204 633 274 100 71 57
278 927 298 85 79 80
300 478 327 107 2 33
213 458 202 118 2 31
329 248 257 143 101 65
276 520 364 95 25 39
346 570 335 125 15 38
347 47 246 126 96 82
486 473 292 127 94 75
324 774 309 69 55 49
220 458 194 132 9 32
371 733 293 161 11 50
259 88 272 109 62 56
249 937 317 78 71 70
358 638 252 149 20 38
330 158 235 138 103 64
333 423 187 102 30 39
218 463 197 126 3 30
444 518 266 172 124 98
390 548 297 118 23 47
216 463 199 120 6 29
323 882 381 49 42 37
214 473 203 117 7 29
344 518 293 113 10 36
319 27 277 137 46 58
214 478 203 100 15 30
184 597 274 105 72 52
223 468 195 129 11 34
292 492 341 58 27 29
223 473 195 108 20 34
332 892 297 83 72 71
440 509 307 121 77 71
189 428 282 51 31 32
336 193 278 120 96 68
217 469 200 121 6 28
218 473 201 119 7 31
308 28 267 104 53 52
218 478 201 116 9 32
244 418 327 67 57 46
337 198 276 119 96 69
199 483 193 61 36 34
213 328 277 123 94 65
337 154 261 118 94 67
199 493 192 44 38 39
281 864 404 50 48 49
203 483 198 50 37 41
292 241 294 111 90 66
202 489 194 50 38 39
206 482 200 48 38 39
468 448 312 54 17 27
206 486 200 52 38 40
435 494 252 64 31 34
258 832 302 118 78 59
209 488 201 59 33 36
155 518 238 137 106 77
358 588 242 48 37 39
229 408 322 117 92 65
465 495 272 104 60 46
419 558 278 123 79 69
317 456 318 79 44 37
206 365 275 119 93 66
202 493 194 46 38 40
207 489 199 50 34 43
258 816 333 125 102 80
265 318 252 78 69 60
192 504 195 70 35 38
313 73 217 120 25 41
446 440 307 76 18 29
199 503 193 56 34 35
264 678 238 66 28 32
254 673 326 80 30 37
357 473 291 44 25 27
300 178 252 112 89 62
214 443 332 55 27 31
334 713 328 47 27 31
152 524 247 168 117 91
213 763 250 126 89 59
274 507 323 44 23 27
337 262 290 131 98 67
396 584 249 82 64 45
194 508 197 82 29 37
291 453 187 109 3 33
259 518 367 99 17 33
398 733 247 163 107 76
443 448 312 64 20 28
259 373 250 84 72 59
199 508 193 73 32 37
198 513 196 64 33 37
200 512 194 73 30 34
425 498 312 76 26 34
419 428 232 74 24 26
239 898 398 58 54 55
194 513 202 150 14 46
234 793 318 77 62 51
256 570 338 106 22 39
159 498 267 159 116 99
204 503 193 84 30 37
364 833 247 132 89 76
231 359 305 112 89 63
309 443 377 131 21 46
309 427 372 110 28 41
239 543 347 53 24 26
204 508 193 95 26 33
204 513 194 112 24 35
291 685 229 78 24 30
370 835 282 64 52 52
345 427 308 98 27 34
356 619 299 133 17 46
202 594 253 101 51 43
206 423 326 88 22 35
208 513 194 61 31 33
214 483 202 95 21 31
295 548 329 38 27 28
395 813 237 86 64 54
335 363 307 115 91 64
341 610 319 106 21 35
194 508 318 96 26 40
301 255 315 103 85 65
214 493 201 108 19 30
221 483 199 121 12 29
177 476 283 68 19 31
333 423 337 104 39 42
221 911 360 58 54 54
322 650 320 157 25 49
259 243 247 114 89 59
354 414 197 70 29 27
224 483 197 124 16 32
334 633 236 74 29 36
315 313 328 129 94 64
219 493 201 73 26 31
354 518 288 80 8 26
222 489 200 119 11 30
464 508 277 198 130 112
223 493 200 80 24 32
389 854 343 76 59 45
344 831 283 30 28 28
311 328 270 92 80 68
213 504 199 92 21 27
319 148 231 138 102 65
287 52 276 126 21 48
209 443 327 45 28 31
264 25 254 104 90 76
424 568 253 137 104 67
211 497 200 95 16 26
214 498 201 81 26 29
345 603 322 134 27 50
234 483 194 87 28 35
306 68 250 101 1 37
336 133 252 116 94 69
284 498 327 100 7 33
200 398 267 116 93 66
211 513 195 50 32 37
214 513 197 53 34 38
395 544 245 76 29 35
325 248 308 122 96 64
216 508 200 83 27 31
268 40 244 112 96 79
224 498 200 76 26 32
229 378 312 118 94 67
193 428 297 46 30 32
319 508 311 48 23 29
225 509 199 106 19 30
321 262 314 123 95 61
437 461 324 99 0 29
249 283 292 75 61 47
264 31 250 106 90 75
262 153 262 113 84 61
193 423 267 54 28 34
219 508 200 96 23 32
295 832 317 65 58 51
274 513 347 89 16 31
378 783 158 98 74 51
223 507 200 108 15 30
249 383 314 125 94 66
257 452 321 40 22 24
397 811 256 141 96 74
207 373 283 123 97 68
225 473 194 105 24 34
229 473 193 105 27 35
274 68 232 91 44 34
230 482 194 73 36 36
261 283 250 87 73 59
279 408 202 91 74 58
246 685 244 49 31 36
179 518 292 78 28 38
229 493 197 131 4 31
279 28 256 81 33 27
291 786 229 72 60 54
239 483 194 128 19 36
292 37 280 124 55 56
344 877 287 77 66 63
176 478 282 79 19 34
234 498 196 133 3 32
329 12 252 89 70 60
334 403 252 113 97 80
239 498 196 128 10 32
280 283 302 107 85 62
239 503 196 76 28 34
239 508 195 108 20 34
365 673 247 72 59 53
374 558 246 120 11 31
276 305 284 100 78 63
244 488 194 51 37 42
243 494 195 150 7 36
337 213 254 134 103 66
335 653 235 77 26 30
244 503 195 110 24 34
182 458 271 94 10 29
271 408 291 76 66 60
246 496 194 155 0 34
410 763 191 101 78 61
362 822 203 91 70 57
379 818 222 83 63 55
249 503 195 113 18 32
320 818 207 67 56 51
324 303 282 104 86 66
198 413 282 102 85 67
249 513 195 92 32 37
332 358 277 107 88 68
328 840 327 58 50 46
235 572 340 177 17 55
247 887 295 99 66 45
255 503 194 114 24 37
220 403 316 117 93 66
395 604 234 113 91 65
254 513 194 84 29 35
244 303 297 125 91 67
181 516 234 129 14 24
210 258 262 119 93 63
244 878 307 133 100 76
324 238 251 144 102 66
211 258 267 119 93 65
439 842 347 81 69 61
211 260 270 119 93 66
379 678 258 112 76 59
210 263 267 122 94 65
360 538 227 74 32 38
167 608 262 165 114 85
203 609 272 82 30 34
266 42 240 113 95 78
212 256 269 120 95 66
213 263 273 121 94 66
409 503 307 82 9 29
210 268 262 125 95 64
349 788 292 71 56 51
449 467 326 51 23 26
281 284 306 112 87 63
307 280 330 120 95 64
188 738 256 147 104 73
334 263 297 130 96 66
407 641 255 174 118 88
210 273 262 127 94 64
211 273 270 125 94 69
235 548 351 32 27 29
322 448 326 67 31 32
270 619 335 58 22 28
205 478 326 63 29 34
249 533 352 36 26 25
213 268 273 121 93 67
289 738 331 54 32 35
213 273 273 124 94 68
326 266 309 128 100 69
215 268 276 121 93 66
328 428 336 97 34 38
321 283 319 126 95 63
220 263 281 118 92 66
176 498 287 77 23 34
254 378 311 123 90 66
223 258 283 116 91 65
276 727 229 146 14 40
218 273 278 119 91 65
201 513 325 66 33 39
274 743 333 150 23 51
351 780 294 74 59 53
358 518 286 77 13 24
220 268 281 119 92 66
234 303 292 128 93 67
252 258 285 86 69 48
179 528 252 70 42 48
271 338 292 71 56 48
220 273 281 120 92 67
355 763 207 56 45 42
466 464 318 155 16 48
223 268 283 119 92 66
294 458 383 161 18 50
177 523 282 142 4 43
240 333 300 121 92 64
211 278 262 127 95 64
212 280 269 127 96 71
211 283 262 128 96 65
241 473 334 60 19 25
375 509 281 90 12 29
212 285 263 126 95 65
412 486 234 170 6 39
280 30 289 121 53 54
185 743 258 155 106 76
364 678 248 58 42 40
339 378 297 109 88 64
211 282 266 127 94 68
275 58 236 101 29 27
264 920 389 92 89 90
403 507 303 32 26 31
296 199 267 103 83 60
344 398 292 111 88 62
277 502 356 36 29 32
212 283 267 127 95 69
295 448 363 84 19 35
212 288 267 127 95 68
299 413 197 117 16 27
169 588 268 145 103 78
330 553 206 100 28 41
220 278 281 118 91 66
207 440 324 144 13 56
463 820 344 73 59 47
295 939 322 84 77 78
223 278 283 118 91 66
317 139 230 131 96 58
307 471 336 107 8 34
265 368 304 99 65 51
229 508 335 54 23 29
200 527 208 179 9 44
250 879 298 107 80 58
384 863 307 62 51 46
217 283 279 116 91 66
217 288 279 116 93 68
395 790 205 75 57 49
407 786 209 94 70 59
304 193 248 119 91 55
212 293 262 129 94 67
338 29 233 104 89 74
202 550 230 178 7 43
213 293 267 127 94 67
213 298 262 123 92 65
319 483 202 107 17 30
269 33 287 119 43 51
236 913 298 70 64 62
213 303 262 119 91 64
371 550 335 83 17 30
213 303 272 120 92 65
215 293 277 119 93 67
354 872 317 55 47 44
381 474 265 33 22 22
269 303 282 67 55 43
327 405 239 100 86 68
324 12 267 118 55 61
310 108 233 132 92 69
215 303 277 122 95 67
444 489 272 57 38 35
379 487 229 134 10 35
225 293 286 119 94 68
190 572 271 34 30 32
287 496 329 96 10 35
216 298 280 120 95 68
309 368 329 143 102 74
282 318 329 126 91 69
225 298 286 118 91 65
222 302 284 120 95 69
265 508 371 64 27 32
345 411 197 83 44 32
264 283 272 73 61 48
213 313 262 123 93 66
204 803 272 193 128 98
330 113 217 148 99 82
284 493 323 85 12 31
213 308 267 118 93 65
466 446 316 63 29 24
304 628 230 98 23 35
387 577 280 62 29 34
213 313 267 116 91 63
449 843 326 123 96 66
213 313 272 120 93 65
191 719 254 142 101 68
213 318 262 119 92 64
242 713 334 159 15 50
345 416 237 66 20 26
343 63 242 127 47 57
196 469 316 131 3 39
328 282 278 113 85 58
213 318 267 116 91 63
264 778 236 76 61 53
359 788 173 92 70 56
257 832 297 156 106 81
213 318 272 120 94 65
309 418 322 118 85 67
369 783 168 91 69 53
368 827 278 35 30 29
215 313 281 125 99 71
213 318 277 125 96 67
241 885 390 75 57 53
215 318 282 126 97 70
332 648 234 102 23 29
270 854 383 35 32 33
379 725 183 109 75 49
394 538 242 111 26 39
336 268 287 129 95 63
218 313 283 119 94 69
230 636 264 135 16 36
224 308 287 118 94 68
375 629 233 93 77 60
220 313 285 119 95 69
263 88 222 154 21 41
364 813 280 117 89 72
279 949 363 55 51 51
364 833 252 134 88 75
225 288 286 120 94 67
309 78 227 112 38 42
197 443 308 134 0 40
191 744 300 149 112 79
302 881 234 92 78 71
332 258 300 130 99 64
218 318 284 121 95 70
225 268 285 120 92 66
240 878 386 138 106 86
295 328 269 85 73 61
229 273 288 121 93 68
378 502 278 66 21 28
356 438 282 105 13 33
254 543 361 189 17 61
309 373 328 142 101 76
225 278 285 118 92 66
185 458 292 88 18 32
187 683 284 152 106 80
229 278 288 119 91 66
341 465 309 154 13 48
228 288 288 121 94 67
279 882 405 60 57 58
256 75 210 146 13 38
235 421 338 46 37 35
329 328 307 124 98 68
249 263 288 93 74 53
254 258 283 77 62 43
255 268 283 70 57 41
253 268 285 72 58 43
254 278 287 66 55 41
334 38 223 129 76 51
247 311 299 106 82 55
226 771 244 72 57 52
362 861 299 74 64 63
235 258 290 119 93 67
367 826 229 84 65 59
314 408 324 144 105 85
190 428 277 88 23 33
239 268 291 116 90 65
329 34 268 132 37 55
184 453 287 123 3 37
298 239 260 130 94 59
315 864 394 50 45 44
239 273 291 112 87 62
297 188 257 107 87 64
231 283 290 116 88 64
234 288 292 111 87 61
233 872 373 149 117 92
264 88 272 111 44 48
239 283 293 105 84 60
362 737 310 83 22 34
458 467 326 185 15 58
238 287 294 106 84 60
351 663 298 148 11 46
231 914 304 68 61 60
399 523 241 137 17 39
334 840 333 64 55 52
324 453 205 87 30 36
198 408 267 111 88 62
232 560 210 37 35 40
223 815 266 79 62 56
199 683 251 152 107 72
244 258 289 114 88 62
417 768 197 96 72 52
169 483 271 93 26 33
244 263 290 113 89 62
274 355 276 74 64 55
244 273 291 98 78 56
264 348 252 78 69 60
343 408 262 96 81 66
259 28 253 106 90 74
271 544 338 166 12 52
249 278 291 75 62 47
264 693 341 94 27 38
288 498 342 74 25 33
383 557 327 195 9 61
351 600 319 191 10 61
244 283 294 97 79 59
244 738 331 153 17 49
240 289 295 108 86 61
327 872 259 77 67 69
364 483 267 28 23 25
398 630 259 158 106 87
492 892 240 82 78 76
244 286 294 96 78 57
274 373 297 102 75 64
244 288 295 98 78 57
389 454 261 49 23 25
249 288 294 80 65 49
261 62 275 105 77 58
337 220 285 117 93 66
182 545 277 55 27 32
334 848 317 35 32 33
221 806 259 75 60 56
334 12 267 118 53 64
457 467 283 120 11 40
252 280 290 63 52 40
414 598 241 132 100 64
332 143 233 128 99 64
319 583 331 126 11 39
253 284 291 68 56 44
256 287 289 70 58 45
230 884 376 159 119 99
272 620 235 168 18 42
228 293 288 121 94 67
214 363 292 119 94 66
228 303 288 123 94 68
318 240 310 116 93 67
297 234 260 131 94 59
322 430 200 34 34 44
246 772 234 74 60 53
300 387 325 139 101 79
328 897 297 80 71 73
244 408 321 98 79 57
231 298 290 123 91 66
225 358 301 113 90 66
430 464 306 79 14 31
234 293 292 117 89 62
314 838 322 58 50 43
330 604 333 165 28 58
339 423 312 93 61 46
339 728 326 163 19 54
239 293 296 115 89 62
284 898 397 52 47 46
274 11 266 95 82 71
237 298 294 126 92 67
314 118 257 102 82 58
471 460 313 98 20 40
292 46 266 128 95 79
260 863 392 39 34 34
338 653 310 49 24 29
294 838 367 45 41 39
237 303 294 129 92 67
269 93 232 129 31 36
268 54 228 94 64 38
244 773 323 90 72 61
163 573 247 161 113 82
239 303 296 129 91 68
293 504 180 156 11 36
286 536 329 28 25 29
256 896 264 86 75 74
262 898 399 58 54 54
228 307 289 121 94 67
364 478 267 37 23 26
162 450 268 110 87 73
279 419 305 73 57 43
246 926 380 61 59 60
229 313 291 118 91 63
172 510 264 131 7 40
300 29 277 142 37 56
234 313 293 118 88 61
411 524 273 45 25 27
237 308 294 120 89 61
305 93 242 93 47 43
337 158 252 117 93 65
289 353 261 79 67 56
239 308 296 118 87 60
213 388 302 121 96 68
239 313 296 115 86 59
302 26 280 151 39 64
296 478 182 104 5 30
337 863 370 54 49 46
234 318 293 115 87 59
224 398 316 118 94 66
188 663 256 149 101 72
378 812 202 105 81 64
316 112 228 130 94 66
258 133 243 123 91 57
239 318 297 115 87 60
260 936 309 91 85 87
244 293 296 106 83 58
244 298 297 119 89 63
265 342 255 77 67 58
209 728 302 133 98 71
335 17 241 97 81 68
450 441 267 74 15 28
343 42 256 134 40 57
196 443 306 131 1 39
364 688 242 91 69 52
295 514 328 155 9 48
249 298 297 100 77 54
163 583 252 164 115 85
239 377 314 122 95 66
223 564 220 118 17 36
299 418 317 124 89 73
329 113 212 136 89 77
310 465 321 104 2 32
249 303 298 104 79 54
251 292 294 82 65 46
252 294 295 82 66 48
320 758 214 105 35 44
422 452 274 90 13 28
274 797 239 72 59 53
308 207 294 108 89 69
331 401 250 109 94 79
416 505 294 151 16 51
254 298 296 79 63 45
259 828 302 130 89 68
338 462 316 150 15 48
427 496 296 82 21 23
171 503 272 136 18 42
335 879 323 62 54 51
336 152 259 117 93 66
249 308 299 104 80 55
245 318 300 122 87 64
324 73 188 135 31 37
245 314 300 119 88 63
383 622 231 103 85 64
249 313 300 113 82 58
218 629 277 83 34 40
249 318 301 123 84 65
319 508 197 80 30 36
261 273 274 74 62 51
339 23 237 104 89 74
222 893 362 110 90 78
484 488 301 156 106 92
250 310 300 102 78 52
254 308 298 85 67 46
252 310 300 99 75 51
273 97 266 127 89 70
253 314 300 101 75 50
334 103 247 119 96 70
255 868 402 36 34 35
349 414 217 72 23 29
213 323 267 114 91 64
192 441 265 88 9 27
344 583 222 69 28 37
212 328 272 118 92 63
282 491 360 61 21 31
216 333 285 125 98 69
261 362 255 84 72 60
158 453 267 150 115 103
375 623 242 75 60 42
264 488 317 53 23 29
272 81 234 138 23 41
259 13 267 90 65 57
211 335 269 112 90 64
334 12 257 99 64 60
304 393 232 103 88 71
212 333 267 110 88 64
212 332 272 117 91 62
346 584 225 30 31 39
429 499 282 115 8 33
408 763 187 95 75 59
396 579 263 78 40 45
215 328 282 125 97 69
298 512 326 151 9 47
244 778 237 74 60 54
358 668 248 46 33 35
212 333 277 121 92 65
457 430 246 83 26 31
334 30 273 143 29 56
219 323 286 124 97 71
294 488 332 61 24 31
334 63 191 97 37 21
268 766 320 68 57 48
188 673 284 150 106 80
217 328 284 125 98 72
253 949 357 51 48 50
219 328 287 123 97 71
211 338 272 116 91 63
425 463 287 45 25 26
314 188 288 108 89 70
301 242 259 132 96 59
320 692 329 111 25 43
397 541 290 50 22 28
211 343 267 112 90 65
206 370 280 125 97 68
212 337 266 109 88 65
211 354 258 111 90 67
471 495 295 74 42 35
210 353 262 112 90 67
222 610 255 166 0 33
401 500 295 102 0 29
210 348 267 114 91 65
209 353 267 114 92 66
204 373 272 120 95 66
327 891 355 39 34 29
239 703 248 51 34 38
211 339 276 119 92 63
202 383 267 119 94 66
211 343 277 120 93 64
448 820 333 97 66 47
213 343 282 120 94 67
215 343 286 122 95 67
179 453 257 59 19 26
330 24 234 127 56 34
427 865 295 87 69 53
379 437 243 65 23 23
210 348 277 118 92 65
235 355 305 113 91 65
411 489 235 169 6 38
211 353 281 122 95 66
303 764 220 68 55 49
229 358 303 111 89 64
262 193 266 111 86 64
249 943 362 67 63 63
237 548 353 46 27 30
223 322 289 124 97 70
220 423 341 147 16 47
228 589 236 184 8 44
225 328 291 121 95 68
377 582 291 95 31 43
220 339 290 119 94 67
263 233 272 84 68 49
414 473 283 72 19 29
301 183 249 117 91 59
226 405 320 118 93 65
172 628 262 165 113 80
220 343 291 119 94 67
393 463 268 73 18 28
213 534 200 168 11 43
224 338 292 118 94 67
218 353 292 117 92 65
384 440 250 83 5 29
406 736 188 77 61 47
222 347 294 116 92 66
445 440 297 76 17 30
366 830 236 102 74 62
224 353 298 112 89 64
225 379 310 117 93 67
208 358 267 114 92 68
274 68 275 119 67 61
239 763 236 69 57 52
186 557 272 67 30 38
309 633 231 101 23 32
290 527 189 156 0 34
208 363 262 112 91 67
272 63 228 103 50 43
207 367 261 112 91 66
207 362 273 117 92 65
374 472 223 156 1 32
264 589 220 84 37 44
364 608 251 117 13 29
276 294 301 104 82 61
174 476 269 97 6 28
206 364 272 116 92 65
314 363 329 137 98 72
324 396 251 107 91 74
206 369 276 120 93 65
226 904 319 62 56 56
376 785 159 96 70 49
317 436 370 166 20 53
439 439 222 71 31 34
207 367 278 121 94 65
224 438 342 138 14 44
336 456 204 66 32 38
379 638 224 98 79 58
208 368 282 123 96 67
201 791 315 159 121 94
205 373 262 114 92 67
206 374 259 111 90 65
204 378 262 114 91 65
320 908 357 62 56 53
203 378 267 119 94 66
206 373 281 123 96 67
319 113 258 108 87 63
364 838 257 100 75 72
271 383 261 64 54 43
207 377 284 123 96 68
263 428 312 60 45 26
206 380 285 123 97 68
284 723 338 163 7 54
449 464 328 48 24 26
277 527 360 66 23 32
195 578 251 81 51 44
205 383 282 122 96 69
206 383 286 123 96 68
349 43 237 117 31 41
207 383 288 121 95 66
332 120 255 112 90 66
209 358 262 111 90 67
326 528 200 67 38 38
210 358 282 121 95 67
212 357 284 120 94 67
360 589 317 192 4 61
188 558 292 139 11 42
313 53 227 79 39 30
310 262 319 110 89 66
215 358 291 119 94 66
212 367 289 122 96 66
319 238 308 116 93 66
217 358 293 120 95 67
278 941 314 89 85 86
222 357 299 114 91 65
438 531 295 194 131 108
346 30 264 137 101 88
218 363 297 117 93 66
160 453 263 91 49 43
256 372 309 126 91 63
316 746 320 70 57 50
320 219 245 139 104 63
289 53 267 127 25 50
330 127 258 113 91 66
335 273 287 128 92 63
217 368 298 119 94 66
194 608 241 146 107 77
221 364 300 117 94 68
281 950 335 92 85 88
286 402 311 125 89 75
224 363 302 115 92 67
258 254 280 74 60 44
211 370 290 122 96 65
306 459 364 35 25 28
259 824 313 88 65 46
214 373 297 120 95 67
283 43 252 124 47 43
331 124 225 131 103 70
278 512 332 38 27 30
209 383 292 121 95 66
292 221 274 101 80 57
306 835 357 43 39 38
495 885 229 107 89 70
211 384 296 121 95 66
295 303 274 81 70 58
212 377 294 120 95 67
319 363 327 133 96 70
215 378 301 121 96 67
215 383 302 122 97 69
216 776 249 77 64 56
354 548 302 56 25 30
291 485 349 41 28 25
336 411 227 81 55 45
217 372 299 121 96 68
219 373 302 119 95 69
288 468 366 56 21 26
333 58 256 128 97 75
389 740 203 62 51 42
259 844 272 183 124 97
216 374 300 120 95 67
351 844 363 52 45 41
336 368 302 112 89 63
348 14 267 112 39 49
172 493 278 119 19 39
309 17 291 118 63 60
378 831 372 60 46 40
225 368 306 116 92 66
222 718 303 87 27 38
222 371 304 116 93 67
194 628 242 163 116 83
359 803 187 79 61 52
282 308 327 124 89 65
224 373 307 117 93 68
328 432 337 107 16 35
332 364 273 108 89 70
296 282 274 109 79 53
221 374 305 117 94 68
259 903 272 84 73 72
328 182 239 147 107 67
354 830 292 33 30 29
384 458 219 158 1 34
289 863 402 53 51 53
269 813 244 86 68 61
325 103 198 124 47 46
220 378 306 117 93 67
298 689 335 118 26 44
319 633 321 93 33 43
371 764 178 72 55 43
222 382 309 117 92 66
229 323 292 120 93 65
283 718 340 165 9 55
228 333 293 116 92 64
392 826 244 68 57 55
298 188 262 103 82 60
269 22 300 124 35 49
299 263 318 107 88 69
276 363 306 116 82 65
394 758 172 96 73 55
225 658 292 73 33 41
286 840 383 32 29 31
230 334 295 114 90 62
316 55 219 70 41 26
235 323 296 114 88 59
238 328 298 117 90 62
384 748 175 88 66 50
329 823 384 48 40 34
234 333 297 115 90 62
223 599 245 166 2 38
328 566 209 169 0 35
450 448 241 133 22 39
338 208 277 118 94 66
408 647 251 183 123 94
332 263 300 128 96 64
229 343 296 110 88 63
226 344 295 112 89 63
234 338 298 112 89 62
233 343 298 109 88 63
225 928 342 57 52 52
275 318 277 104 85 67
237 336 299 119 91 65
363 483 212 49 35 37
344 832 292 33 30 29
285 284 316 113 89 62
315 237 309 114 93 69
345 53 242 130 27 48
239 338 301 120 91 64
339 383 282 103 86 67
232 346 299 109 87 63
210 448 326 58 27 32
343 44 223 114 98 82
360 774 173 80 60 48
234 353 303 111 89 64
239 348 303 111 88 62
343 563 219 142 0 36
238 352 304 111 89 62
239 353 306 114 90 63
433 448 288 76 17 30
274 552 334 125 18 42
266 47 280 115 60 58
244 323 301 119 87 62
408 526 282 114 18 38
277 97 248 128 28 41
178 513 292 42 28 34
240 328 300 117 89 62
453 463 272 153 17 42
249 323 301 119 84 63
332 353 287 109 89 67
254 323 301 110 77 58
304 578 211 52 36 40
264 32 286 130 40 55
254 333 303 116 84 61
244 338 303 126 93 67
341 455 319 154 14 48
319 98 207 117 15 37
188 443 272 87 15 28
269 318 262 68 59 49
249 338 304 128 94 67
264 353 252 78 68 59
246 703 239 155 2 44
197 478 319 137 3 40
298 431 370 80 28 33
351 688 235 37 34 39
254 338 304 126 89 66
189 648 252 162 105 78
389 493 282 61 20 27
329 193 287 116 94 70
248 343 304 128 94 67
370 708 297 62 26 34
357 746 197 50 42 37
243 347 304 115 87 61
277 58 238 115 41 34
191 438 296 94 18 36
269 10 282 102 69 56
251 427 328 57 47 37
244 353 306 117 90 62
221 636 287 75 22 34
181 723 276 153 102 73
249 348 305 126 93 65
255 343 304 128 88 66
267 106 236 113 70 61
294 623 334 94 28 40
449 508 268 147 102 80
256 352 304 125 86 65
229 363 306 114 91 65
350 28 247 117 38 44
202 535 215 181 10 42
314 68 207 112 21 40
229 368 307 117 93 66
445 489 277 47 30 33
234 368 311 118 93 65
238 362 309 118 93 64
433 452 233 77 30 34
239 364 310 120 94 65
393 823 247 66 52 50
397 825 265 63 50 43
236 365 310 117 92 65
334 14 243 96 75 63
299 633 231 102 23 35
455 500 278 125 103 83
187 488 309 79 19 34
303 678 330 65 24 31
230 384 315 119 94 66
348 68 212 109 56 48
234 373 312 119 94 66
234 378 314 119 93 66
289 438 307 123 94 76
272 393 267 69 62 57
275 323 302 103 78 57
200 423 312 36 31 32
245 577 218 205 11 48
258 703 343 75 29 36
264 448 313 35 23 24
284 829 346 78 67 57
239 383 316 122 95 67
244 364 310 122 95 66
254 633 330 67 27 32
244 368 311 123 95 66
338 59 198 94 42 24
247 365 310 124 95 65
159 518 264 126 87 69
382 690 260 130 84 64
284 754 323 69 56 50
244 373 312 123 94 66
428 573 257 165 118 84
320 428 343 78 21 29
244 378 314 125 97 67
343 39 228 111 95 78
187 514 226 139 10 38
244 383 315 123 94 66
259 308 295 72 57 39
187 698 260 160 109 79
254 818 332 141 110 89
331 408 319 134 96 69
249 378 313 125 95 66
190 433 272 86 24 34
377 521 294 63 24 30
331 885 303 57 51 51
191 424 282 41 34 36
188 433 282 66 31 34
189 433 287 50 32 34
364 743 182 75 59 47
191 438 268 92 17 33
189 448 262 84 11 26
346 83 207 146 24 51
389 742 187 82 61 47
358 871 336 58 50 47
187 447 266 85 11 26
222 683 293 75 24 32
203 584 255 52 33 33
294 488 337 65 23 31
249 523 196 77 33 37
184 448 272 92 10 28
187 446 270 90 13 26
232 662 270 96 19 34
309 513 316 124 11 38
184 448 277 103 9 30
185 443 277 81 21 32
273 338 272 74 64 55
323 405 210 98 80 56
187 443 287 64 26 33
184 448 282 112 8 35
275 902 259 91 80 79
261 333 255 78 68 59
324 743 217 53 36 37
190 433 292 60 29 34
284 818 242 72 56 52
152 508 259 153 108 84
427 478 307 83 5 30
394 478 277 81 13 30
406 544 273 54 29 32
191 434 296 65 26 34
248 878 392 84 67 58
189 438 292 51 28 33
328 771 310 69 56 49
263 143 257 112 84 58
224 544 201 106 31 43
327 26 235 85 72 56
420 430 240 64 21 25
339 853 372 58 53 50
308 259 260 134 98 63
188 448 292 126 1 37
239 547 333 36 25 26
308 809 230 79 63 56
190 443 296 132 4 40
299 653 329 51 26 32
330 128 226 135 103 67
387 511 294 36 27 28
190 448 297 126 1 37
323 685 325 40 26 27
213 773 250 152 104 74
306 240 310 110 90 69
160 449 267 133 109 96
322 56 205 110 85 59
294 693 226 106 22 31
160 450 270 142 122 108
259 839 361 90 74 58
417 512 326 177 19 59
189 568 287 109 17 39
293 234 260 127 93 61
160 453 270 159 135 126
159 463 267 131 93 76
285 840 396 39 36 38
452 495 290 100 48 37
150 469 260 101 78 61
150 473 261 118 93 73
349 823 382 76 62 50
199 403 267 115 92 65
230 858 346 149 105 92
322 268 315 122 94 60
424 427 212 102 20 28
147 478 258 154 111 91
150 478 261 137 104 82
334 428 337 137 19 45
326 346 275 97 83 69
152 466 259 65 45 37
421 546 260 108 80 50
299 28 282 142 82 76
344 48 222 101 73 57
314 63 212 95 36 35
334 523 207 69 29 39
154 468 262 66 42 35
328 503 306 37 25 26
158 468 267 126 91 72
156 470 265 95 65 48
239 793 317 63 52 46
155 478 266 124 92 69
215 628 262 90 48 43
378 497 273 34 23 25
170 471 264 44 26 25
272 450 165 164 5 34
159 478 271 135 98 86
319 323 277 95 82 70
269 528 194 123 21 37
275 313 282 93 75 59
152 488 264 156 112 91
159 488 268 151 110 94
424 493 328 95 15 35
153 493 263 153 111 87
387 769 270 166 118 88
262 50 224 119 101 85
286 263 297 105 84 61
453 522 296 207 139 118
363 827 222 91 71 60
234 408 322 115 91 65
356 436 256 75 60 51
321 117 219 140 97 70
151 498 260 153 110 85
254 523 194 56 37 38
309 813 301 81 66 53
151 502 260 159 115 89
241 675 254 38 32 37
361 668 251 37 32 37
333 373 272 100 84 66
257 198 239 124 97 64
154 498 263 154 112 89
342 69 194 117 46 40
154 503 262 153 111 89
309 433 357 86 20 33
157 503 264 151 111 89
158 508 264 141 104 83
377 630 249 74 37 26
188 528 232 76 28 37
406 871 294 84 70 55
160 508 265 142 101 83
323 298 317 132 100 68
368 831 247 148 99 80
160 512 265 132 92 75
163 453 267 108 76 65
339 688 321 55 26 30
162 453 270 122 91 81
192 422 277 49 31 32
360 744 308 48 28 31
309 318 272 87 76 65
165 463 262 79 49 39
163 583 257 159 111 82
307 441 380 158 20 51
162 458 270 118 81 71
206 621 269 66 40 34
267 117 257 119 86 63
308 270 325 109 87 63
295 269 321 104 86 68
379 422 207 74 21 25
165 463 267 101 61 53
274 418 302 52 42 31
219 468 337 69 26 32
314 328 271 93 81 69
168 466 259 56 48 43
197 412 272 113 90 66
319 358 262 95 84 73
169 468 262 49 30 30
344 841 335 62 55 54
167 470 266 69 48 40
331 179 240 142 106 66
248 898 277 70 63 62
161 487 270 145 106 93
263 418 306 62 45 25
174 468 263 49 23 27
399 698 232 147 102 70
293 238 293 111 89 65
310 888 267 79 70 69
179 458 258 72 17 28
179 463 261 35 28 28
183 457 258 91 8 29
298 21 300 167 110 99
292 468 178 110 4 31
183 458 262 84 13 30
281 725 339 163 8 53
311 465 327 105 5 36
252 472 325 31 23 22
411 618 235 138 101 64
364 668 237 86 71 56
181 460 260 81 31 38
180 463 272 97 7 31
187 451 261 86 9 27
266 297 261 75 64 52
442 481 248 173 10 42
322 462 345 158 16 53
177 508 289 122 23 46
291 48 267 119 79 70
463 441 262 69 26 28
335 412 237 74 52 44
180 463 277 112 1 33
227 918 311 79 72 71
304 837 337 55 49 44
180 463 282 118 6 35
180 468 267 78 13 28
306 154 244 112 87 56
276 358 307 116 83 65
412 436 200 114 17 31
178 473 267 96 1 31
310 840 299 56 50 45
306 53 248 85 20 33
314 638 231 106 22 33
178 468 277 114 3 33
277 359 309 116 83 65
176 475 280 109 11 35
176 479 285 50 29 33
197 810 290 218 141 113
183 463 292 58 25 30
179 643 261 145 96 64
313 63 217 94 44 40
243 882 389 122 94 78
187 453 293 125 1 38
284 374 248 82 70 59
394 503 223 140 15 37
189 453 297 126 1 37
339 58 202 103 61 25
202 581 313 60 24 34
187 456 294 114 10 38
359 837 336 54 50 49
336 148 242 120 97 70
246 839 309 126 93 69
334 368 277 103 86 66
185 463 297 53 25 29
274 493 186 140 18 43
378 820 280 54 42 36
258 358 305 121 84 62
379 548 243 133 5 32
187 462 299 110 14 35
190 458 302 129 2 38
191 459 305 129 3 37
371 588 249 114 15 35
323 477 322 90 24 37
444 432 212 87 36 42
190 463 306 105 13 35
269 478 313 33 27 28
179 528 287 153 4 44
181 465 290 114 14 37
298 27 286 155 24 58
408 523 244 153 10 33
297 251 309 110 90 69
324 18 287 162 113 99
181 468 291 104 18 36
182 468 293 62 26 31
332 94 250 114 18 43
270 456 309 46 31 32
254 393 312 118 87 64
309 208 296 107 88 69
389 513 227 83 31 37
300 499 342 164 5 52
170 498 272 136 25 44
324 131 224 155 106 75
354 840 334 60 54 53
421 505 311 52 27 28
264 400 237 76 65 54
184 468 297 38 28 29
264 929 301 89 82 82
204 408 297 111 89 64
309 88 227 110 19 35
354 638 248 118 17 34
183 473 297 61 27 31
354 416 185 149 53 42
284 13 262 103 82 63
181 474 295 95 23 32
321 308 281 100 83 66
182 477 298 79 24 35
314 883 386 52 45 41
184 478 302 81 27 34
189 468 307 75 25 34
356 507 284 81 15 29
281 332 265 67 56 44
308 148 242 113 88 56
188 473 307 35 29 31
428 563 257 151 110 73
340 498 298 82 21 33
362 723 206 86 71 57
191 469 310 58 24 28
359 429 182 142 22 42
359 778 292 76 59 53
206 410 305 110 89 65
186 474 305 33 30 33
288 824 316 77 66 54
344 413 222 73 31 31
339 78 192 143 26 42
224 608 252 169 1 39
304 267 323 101 84 66
186 478 306 31 28 31
333 378 316 127 98 67
164 483 270 113 74 66
271 408 287 66 56 51
164 488 270 117 78 69
298 591 329 82 21 29
371 634 242 74 54 35
329 458 337 89 20 38
164 494 269 130 88 79
300 228 301 110 90 68
165 492 270 120 73 68
263 93 223 136 20 35
172 482 273 105 9 33
172 486 274 98 19 32
305 435 359 86 17 30
295 835 382 36 34 35
173 488 277 72 22 32
310 830 373 50 44 42
216 744 249 78 34 34
175 483 282 117 13 38
174 488 282 53 26 31
399 778 237 121 82 52
310 405 193 126 61 34
282 415 172 74 33 40
176 493 287 71 26 34
309 19 282 123 67 63
310 830 390 72 60 49
253 483 321 29 24 23
334 738 218 74 31 34
164 498 268 136 86 80
168 499 269 126 43 49
226 508 335 59 29 33
164 513 263 101 53 48
374 863 337 63 52 44
169 513 261 99 39 43
414 478 287 80 14 29
257 96 219 150 17 38
250 518 194 53 35 39
378 816 366 50 43 39
314 43 264 106 38 45
472 455 297 64 21 25
163 507 265 127 73 67
293 886 243 80 69 65
166 505 264 124 58 60
314 233 249 140 101 64
241 931 367 58 54 55
366 692 272 149 12 44
355 498 287 78 18 30
264 233 257 107 84 57
208 608 302 163 12 51
300 208 286 108 88 66
269 558 335 152 11 47
170 507 267 133 18 43
171 506 271 140 8 42
172 509 268 138 3 41
182 513 303 87 30 40
172 508 272 142 5 41
248 648 251 172 1 44
361 478 278 84 17 32
171 498 275 150 10 45
370 728 297 166 10 51
173 503 277 143 12 42
279 468 311 45 24 30
172 504 274 143 9 42
174 503 282 105 19 37
310 458 358 59 26 29
176 503 287 44 27 32
302 210 250 126 95 57
174 508 277 141 11 41
321 86 194 142 12 43
175 513 277 142 4 41
176 508 286 58 27 33
176 512 286 115 16 38
178 488 292 62 30 35
306 513 319 129 12 40
216 463 335 58 32 34
180 488 297 38 29 31
319 93 207 125 13 41
436 471 325 72 12 27
181 488 300 51 29 33
405 748 182 87 69 56
290 596 219 38 35 41
177 493 289 94 30 39
290 484 353 37 28 30
177 493 292 53 29 33
437 548 282 189 126 98
301 829 233 50 47 48
409 773 217 64 51 39
339 13 282 134 54 69
272 72 228 131 31 41
185 493 307 42 30 31
276 318 307 109 80 60
309 203 293 106 87 68
279 373 312 120 86 68
187 483 309 85 20 35
314 873 252 74 66 63
313 59 259 122 89 74
185 488 307 80 25 37
189 488 312 124 9 39
274 398 297 81 64 55
285 331 270 76 62 47
320 58 202 89 51 32
335 203 282 121 96 69
176 499 290 111 20 38
319 117 259 106 85 61
181 498 301 38 30 31
266 292 272 80 68 57
182 498 303 39 29 31
209 643 246 156 107 78
385 425 195 151 20 43
333 836 204 129 100 70
181 503 301 54 29 35
181 662 264 168 112 81
424 428 232 79 29 31
366 690 233 100 81 60
335 253 267 144 104 70
182 503 303 56 28 32
267 106 233 132 63 55
221 735 249 84 25 28
313 48 231 74 40 29
178 508 292 104 22 39
258 353 248 79 69 61
311 479 348 119 16 41
180 508 297 53 28 33
263 248 267 99 83 66
457 511 269 210 138 119
384 813 272 125 90 72
444 432 248 67 23 25
177 514 288 112 20 40
234 598 334 75 28 38
334 638 313 52 30 35
437 496 267 89 21 34
373 721 212 97 76 54
201 433 316 121 16 39
182 508 303 78 29 38
188 718 257 140 100 70
319 738 217 98 28 34
185 513 307 77 28 37
242 400 320 116 91 65
434 463 317 103 0 30
186 503 310 76 29 36
288 400 219 96 82 67
188 503 312 42 29 31
451 465 262 139 12 37
257 203 238 125 97 64
285 832 249 166 121 94
373 447 203 105 28 40
191 498 315 70 28 33
309 593 334 107 20 37
291 849 238 65 60 60
306 281 269 128 91 62
191 503 315 41 30 31
396 766 223 52 38 31
357 546 308 60 22 32
404 832 361 82 65 51
280 418 182 109 20 31
186 512 310 101 27 41
201 389 272 119 94 67
329 38 223 119 65 44
202 387 273 120 94 66
202 391 265 117 93 65
304 350 259 93 81 69
271 63 226 117 44 38
201 393 272 121 95 67
298 388 324 138 99 80
201 394 264 113 90 64
268 88 233 109 45 37
314 758 215 109 37 43
200 398 277 123 96 68
345 513 293 111 12 36
414 463 202 122 25 42
202 388 277 124 96 68
281 505 344 40 25 30
312 278 325 122 95 63
201 394 276 123 96 68
202 443 319 136 4 41
353 582 336 190 12 60
265 329 300 69 51 33
349 453 312 84 23 34
379 598 277 177 11 55
182 763 293 162 112 81
204 388 282 124 97 69
203 393 282 124 97 68
205 388 287 123 96 67
317 73 196 129 16 41
204 393 287 122 96 68
201 399 281 124 97 69
427 578 254 161 116 81
348 423 302 109 75 54
220 903 347 49 46 47
204 398 287 121 96 68
392 527 233 72 30 39
199 408 262 103 82 60
198 408 272 115 91 65
197 413 267 106 86 63
234 928 327 74 69 70
414 608 238 135 101 64
269 502 319 43 25 29
196 415 268 104 86 65
267 439 310 39 21 23
196 414 272 108 89 69
452 482 302 81 10 31
304 519 185 74 32 39
344 708 226 56 32 35
199 403 277 123 96 68
196 415 277 101 84 68
387 596 262 50 26 28
279 19 304 141 98 81
198 413 287 92 76 60
413 528 267 84 10 29
201 404 285 124 98 70
207 388 289 123 96 67
367 822 380 63 52 45
208 388 292 122 95 66
207 393 293 121 95 67
232 899 394 50 47 49
205 398 292 120 95 67
385 430 201 67 34 34
225 758 244 63 52 47
312 432 380 143 19 48
207 396 294 118 93 66
324 68 256 117 32 47
184 598 240 155 110 80
196 415 295 69 47 37
199 414 297 78 62 51
200 414 302 68 55 45
358 871 329 52 47 43
224 743 317 154 120 91
182 683 272 157 106 77
206 403 296 118 93 66
207 402 298 118 94 66
391 534 335 113 24 45
357 786 290 70 55 48
208 403 302 117 93 66
306 52 255 96 5 37
341 459 314 154 12 51
472 457 316 60 28 29
327 131 224 152 103 72
407 450 265 92 11 31
294 502 179 129 13 35
201 410 291 110 90 67
361 450 200 150 13 35
359 583 242 39 34 38
202 411 298 103 84 64
420 528 277 75 58 51
201 415 306 61 54 47
204 414 307 76 64 52
184 673 262 151 103 72
205 415 311 65 55 47
365 493 222 138 6 36
300 753 219 132 16 35
210 388 297 122 96 67
211 390 300 122 97 69
264 532 366 148 27 54
388 526 314 62 28 33
297 696 225 127 13 33
328 38 193 137 12 30
237 861 362 92 74 57
429 513 277 116 51 37
211 394 301 121 96 69
212 387 299 122 97 68
358 523 219 152 5 35
212 392 303 121 96 69
264 453 312 34 24 24
389 818 267 103 72 58
210 398 302 120 95 67
186 788 306 176 126 99
215 388 306 120 95 68
214 393 307 119 96 69
296 205 275 102 81 58
354 698 321 139 9 44
236 653 315 41 29 32
407 486 222 138 11 41
307 496 325 80 24 38
211 399 305 120 95 69
265 48 232 115 98 82
247 565 344 172 18 53
212 396 304 122 97 70
284 43 281 130 97 77
279 483 177 83 34 40
213 398 307 121 96 70
281 514 364 124 30 46
216 398 310 120 97 71
254 563 346 180 14 56
334 49 212 120 89 54
307 448 314 120 83 69
317 84 210 122 14 39
309 158 267 100 80 58
282 881 405 60 58 58
203 798 314 179 133 108
274 819 332 95 79 61
269 863 408 51 45 42
218 388 308 119 94 67
319 698 222 112 20 29
404 854 312 127 119 118
