ply
format ascii 1.0
comment Created by Open3D
element vertex 2221
property double x
property double y
property double z
property uchar red
property uchar green
property uchar blue
end_header
257 180 237 138 102 64
301 891 176 87 75 68
289 224 282 115 92 65
290 407 324 95 74 53
242 415 306 94 23 37
288 385 240 71 60 50
247 45 226 99 89 80
267 576 308 38 25 24
319 58 259 135 96 79
317 890 187 83 77 77
215 468 288 123 15 43
207 465 174 75 21 32
244 191 259 114 93 68
343 425 268 113 12 37
309 376 207 94 81 69
397 714 166 92 65 42
248 41 227 97 85 72
370 614 192 114 16 37
256 305 281 126 94 69
281 885 191 52 50 51
382 415 176 54 28 29
351 451 129 100 27 37
395 830 250 69 53 42
370 711 279 52 22 31
245 43 229 97 86 75
358 340 256 126 96 61
403 530 196 182 15 53
248 170 261 115 93 70
231 760 322 173 119 93
392 639 194 112 94 76
267 22 238 112 95 78
262 468 334 156 21 54
233 580 301 46 25 30
365 883 242 82 72 71
257 180 276 111 94 76
205 435 250 46 33 33
228 554 162 181 11 46
257 85 251 96 76 59
228 470 304 86 19 35
337 195 257 117 94 69
240 44 234 116 50 35
208 411 256 53 34 37
239 442 208 99 15 28
359 710 283 80 34 40
271 50 226 76 46 34
344 70 247 112 88 70
252 40 226 104 87 68
353 544 148 63 32 38
239 90 206 141 7 47
255 50 258 119 54 57
240 415 303 88 17 32
253 36 228 100 86 72
212 410 281 142 1 43
245 84 238 97 69 53
392 426 196 58 22 25
245 56 248 123 26 48
359 315 230 108 88 66
380 739 169 60 53 46
261 424 186 66 43 38
336 369 274 125 86 65
372 449 163 115 13 32
214 442 154 142 0 28
247 250 286 118 94 68
247 650 266 182 0 53
263 604 182 87 34 42
252 410 321 72 57 42
280 70 232 109 63 51
275 197 284 108 89 69
250 38 229 93 80 67
336 255 263 102 82 60
257 34 230 105 91 77
247 385 301 126 99 70
250 225 283 113 92 69
401 785 229 110 78 56
312 530 148 95 27 35
203 520 216 46 31 31
344 837 256 40 32 28
243 65 241 125 14 44
258 844 261 89 72 70
245 190 261 115 92 68
263 856 309 152 117 94
257 36 227 108 93 78
245 385 297 125 99 70
246 190 245 130 101 66
332 503 300 168 107 93
409 747 150 79 60 49
278 417 171 83 71 56
245 71 242 102 19 39
396 447 214 45 24 25
302 525 318 158 121 106
280 435 137 142 0 28
251 43 224 100 82 68
249 165 265 113 92 71
341 914 286 69 60 60
200 500 240 136 0 36
321 470 300 116 14 37
349 300 219 107 88 68
244 109 208 138 10 44
265 120 223 130 93 65
292 290 266 79 64 47
252 340 286 120 95 68
300 265 271 99 79 58
316 815 181 49 46 46
240 36 253 111 43 47
261 895 236 119 84 72
244 539 314 79 29 36
247 160 241 119 96 70
382 550 226 97 26 40
249 245 258 122 93 61
274 884 233 76 67 59
372 775 106 113 83 63
326 550 275 83 28 38
263 394 243 98 85 71
325 878 127 89 78 69
246 116 211 142 20 46
230 612 261 116 25 43
313 684 308 130 11 41
226 414 245 77 58 46
250 918 229 63 60 62
367 450 162 75 30 31
302 500 306 41 24 24
287 780 310 71 58 51
291 515 307 44 22 23
205 483 273 22 28 33
241 40 252 119 22 44
404 778 170 97 72 56
382 770 86 105 77 57
334 32 268 128 39 53
257 465 332 61 27 32
296 275 268 103 83 61
230 532 298 159 3 48
229 452 174 31 28 24
373 600 191 150 16 38
242 95 201 147 11 47
243 40 255 120 47 54
247 45 256 124 69 65
327 405 271 65 47 36
382 605 242 143 92 68
237 505 123 62 36 39
349 816 253 149 114 94
222 460 221 67 30 30
342 716 178 58 34 36
203 445 251 131 2 35
361 295 236 121 95 64
343 413 151 82 54 44
377 655 230 63 25 27
262 270 257 112 85 56
301 968 286 78 75 77
253 155 232 132 102 65
254 248 253 119 91 60
290 238 253 120 86 49
240 55 226 111 36 43
299 265 281 112 88 61
385 569 210 161 32 57
238 795 252 74 63 60
252 165 235 128 98 63
258 426 176 65 29 31
266 219 238 133 102 64
257 90 252 94 67 53
255 670 288 100 19 38
280 712 319 149 92 73
337 330 214 92 81 70
352 416 131 77 33 41
293 419 154 124 28 18
257 510 324 99 19 39
300 381 248 76 61 50
283 825 222 84 65 57
299 735 188 136 13 37
342 412 147 86 54 43
409 759 72 121 88 70
333 195 255 114 91 67
244 79 193 130 22 33
254 119 216 149 100 82
335 676 289 140 13 46
300 384 248 72 59 48
259 633 218 46 35 38
239 446 201 102 8 34
214 510 290 64 26 35
347 480 301 150 104 89
312 350 286 109 79 58
203 445 157 140 1 35
374 769 86 109 83 61
305 365 221 83 72 62
240 54 229 120 21 44
287 505 146 127 5 28
403 756 76 117 85 66
317 195 231 106 86 64
323 285 264 72 59 43
283 21 276 149 108 84
242 495 316 129 18 43
329 418 153 117 20 29
297 546 149 167 14 41
218 426 238 94 26 31
205 435 263 151 0 41
242 230 266 122 95 65
267 550 316 140 12 45
310 312 290 123 92 64
360 345 236 123 98 69
314 520 313 172 131 105
240 58 224 92 53 46
287 440 325 48 23 25
341 468 292 27 23 26
257 60 257 120 96 75
417 435 171 156 13 37
203 445 169 91 13 34
267 18 284 163 122 115
302 425 343 115 19 38
248 40 260 125 21 45
240 61 236 115 89 74
217 505 164 50 35 37
262 210 239 132 100 63
350 62 202 105 51 37
199 485 172 78 28 40
399 625 233 166 117 86
251 509 128 80 39 45
230 454 303 73 23 32
377 520 182 57 28 35
332 350 207 94 84 74
241 60 241 121 19 41
342 505 296 177 118 105
312 335 306 121 87 60
240 65 232 125 34 50
290 449 338 63 30 33
347 889 216 69 59 60
327 50 211 109 90 67
256 500 127 63 33 38
202 460 171 68 21 31
305 385 253 64 52 42
252 574 157 103 33 42
372 576 248 148 90 73
240 51 242 112 50 48
294 435 154 125 14 33
348 480 296 127 85 71
395 592 218 127 102 75
314 65 232 107 35 41
360 325 232 120 95 68
314 280 232 107 86 63
413 480 179 159 16 39
230 420 293 132 8 42
217 470 177 54 24 30
240 90 231 92 44 43
352 85 226 116 28 43
219 456 290 71 27 32
354 350 263 129 95 64
297 439 323 100 9 33
314 527 294 146 93 72
285 185 261 109 88 64
251 225 249 116 90 60
338 467 271 44 22 26
308 902 185 77 70 70
345 60 250 109 42 45
208 455 276 135 0 39
337 270 212 131 99 61
229 803 283 175 121 91
343 60 252 106 79 60
386 719 175 85 74 62
322 410 326 71 29 31
252 75 190 124 27 32
244 953 253 78 74 75
314 422 338 84 19 31
238 90 221 122 27 43
308 320 261 70 56 43
242 55 246 124 26 48
246 601 190 145 26 49
292 380 236 104 77 64
250 368 269 104 86 66
226 435 230 59 26 28
236 904 270 145 116 91
277 419 156 87 74 54
243 50 250 124 57 61
308 335 241 76 64 51
247 365 286 120 95 68
242 930 311 183 140 121
342 325 214 92 80 67
332 840 147 110 85 66
296 245 276 117 92 64
249 120 233 122 94 65
239 442 103 51 44 31
297 925 206 96 91 91
223 433 167 69 21 28
262 428 126 83 68 53
297 805 295 73 59 51
248 135 246 115 94 71
246 240 260 122 92 63
239 67 202 78 42 27
232 585 186 113 29 44
246 51 252 131 18 48
267 650 216 158 2 40
223 456 174 82 20 34
399 603 219 138 108 72
232 440 301 71 28 34
246 205 250 122 96 66
246 375 291 121 96 69
290 630 324 160 112 85
254 211 284 114 93 72
210 512 179 173 6 52
247 55 251 129 17 46
338 56 257 126 93 73
347 464 271 48 23 26
218 501 164 56 36 38
257 210 241 127 97 60
258 411 231 100 86 71
412 754 111 89 68 48
243 60 245 118 73 64
246 60 247 126 105 87
234 445 174 97 8 30
215 498 204 37 27 26
342 600 170 71 34 37
240 95 231 118 16 45
420 464 220 139 18 48
272 973 271 57 53 53
384 526 228 163 10 51
225 439 229 98 15 32
364 615 251 60 26 33
242 500 121 102 31 40
248 700 241 52 35 38
343 645 189 86 31 36
230 540 298 50 22 30
291 910 314 125 95 74
256 16 283 140 101 89
347 565 157 160 6 33
249 650 242 181 5 51
235 70 211 107 38 41
339 425 137 125 8 29
368 746 162 54 46 41
244 64 244 117 57 55
257 405 317 121 95 71
325 308 273 66 54 41
228 435 227 74 23 30
295 245 281 118 94 66
274 233 298 115 94 72
247 65 246 119 37 51
238 589 182 177 15 50
294 298 269 83 68 52
205 510 220 129 0 36
241 433 168 68 23 29
278 417 166 83 70 55
248 60 250 119 45 55
415 494 183 57 26 30
319 57 217 70 30 27
361 535 161 39 30 34
232 440 151 49 37 36
273 860 251 114 84 57
338 90 252 114 34 46
240 873 274 118 96 75
228 500 136 106 22 41
342 285 271 102 82 60
259 450 115 48 35 38
252 50 257 120 82 70
210 465 281 140 1 42
277 370 250 90 78 66
344 75 189 139 29 38
254 467 114 152 0 33
342 395 269 126 86 64
359 359 224 116 94 69
249 53 254 128 23 50
337 84 188 142 30 51
312 585 162 91 32 39
238 426 222 90 42 37
242 435 141 55 26 28
290 272 309 106 87 67
340 364 274 142 98 76
244 108 235 126 56 57
242 100 236 105 82 62
250 442 103 114 47 44
252 55 255 122 29 48
339 791 132 62 53 50
254 68 254 125 29 53
290 375 253 92 75 60
293 871 211 46 44 46
244 867 281 138 107 82
242 538 138 150 14 41
362 832 274 61 46 34
272 225 296 112 92 71
305 909 192 74 68 68
238 544 142 63 34 39
277 416 181 84 71 58
268 75 201 127 23 33
252 145 261 107 89 70
338 565 272 75 19 34
262 375 250 94 82 69
246 101 200 147 16 44
350 104 217 123 31 46
282 480 148 111 9 26
251 150 261 111 92 72
250 56 253 117 18 38
267 165 232 131 99 61
243 465 315 142 12 43
425 469 192 88 23 38
394 555 191 57 32 38
256 899 241 85 70 56
250 236 254 118 90 57
224 510 161 70 22 29
391 713 229 118 66 52
251 645 281 154 4 48
343 837 243 54 45 39
236 85 211 133 13 45
262 215 290 110 91 71
223 486 196 61 30 31
347 414 166 90 36 33
246 410 312 122 39 45
241 75 195 111 34 33
389 663 229 115 70 57
207 475 177 81 17 32
313 335 222 99 84 67
403 525 201 126 21 46
346 95 245 116 21 44
232 422 228 96 47 33
293 890 312 159 121 96
262 825 321 194 135 107
267 80 256 102 74 54
219 456 228 93 17 27
337 210 209 119 95 65
228 446 116 46 31 34
357 300 226 99 82 63
330 793 279 114 92 80
383 684 228 57 34 30
255 660 230 146 4 40
250 60 253 106 23 37
254 654 329 163 113 91
240 26 258 114 11 45
257 925 320 177 135 113
248 160 261 113 92 70
425 470 196 61 31 35
252 690 331 150 105 79
292 325 265 80 67 52
253 60 255 106 79 63
412 755 201 154 104 70
413 431 215 67 21 24
252 410 241 100 86 72
309 846 195 41 39 40
299 357 251 99 78 60
252 120 251 110 92 74
286 230 291 114 92 67
262 340 267 97 82 67
352 665 192 50 36 37
296 285 267 84 68 48
235 80 211 128 22 43
275 80 222 123 38 43
249 64 250 121 25 48
342 915 306 64 52 52
251 65 252 124 21 46
375 477 174 136 3 32
272 465 142 151 0 31
318 539 277 37 28 30
217 490 186 78 21 31
253 64 254 98 54 46
291 210 266 112 90 64
257 245 251 115 88 56
257 65 255 116 90 71
378 862 249 85 69 59
263 116 210 144 24 44
357 490 281 100 56 52
250 150 234 126 99 67
319 180 231 100 82 61
297 941 225 95 89 91
244 177 248 119 96 71
218 495 191 50 26 30
402 510 177 161 16 40
257 190 238 138 104 63
288 755 198 144 0 39
345 49 254 122 63 62
247 70 191 112 26 23
241 430 307 81 22 33
239 717 262 138 14 47
237 446 97 169 17 32
317 940 226 79 71 71
252 70 191 113 20 24
321 930 223 67 60 60
237 431 161 68 27 30
198 525 196 137 9 38
358 260 257 131 100 66
249 492 119 47 43 44
227 440 151 52 35 36
397 815 171 119 83 65
290 860 229 115 87 66
247 115 216 129 44 53
257 70 192 102 29 23
199 534 201 116 28 41
369 839 273 54 44 35
314 235 231 107 85 58
243 593 183 209 14 52
242 470 107 164 6 37
361 450 131 51 36 39
317 225 246 90 74 55
249 943 233 68 62 63
300 331 267 75 58 40
312 555 152 81 34 38
252 80 189 129 33 38
267 11 281 120 54 56
274 120 253 113 85 59
367 445 161 82 27 31
235 570 302 53 25 30
370 458 259 42 25 24
230 800 276 169 119 84
242 75 231 108 20 40
264 502 139 81 33 35
247 85 191 136 23 40
318 65 221 107 34 41
280 171 265 108 86 60
319 487 309 56 23 27
370 500 270 161 119 96
252 90 192 148 24 51
244 226 275 114 92 69
337 700 296 119 21 43
262 435 115 47 40 46
272 15 242 108 79 64
318 345 213 96 84 72
246 514 128 48 38 43
238 70 201 85 39 26
297 510 146 99 18 30
344 150 214 122 96 64
381 848 226 73 56 53
254 773 333 171 123 92
209 553 255 118 27 46
248 135 241 117 96 73
204 539 251 66 23 33
231 950 286 60 57 59
347 234 208 126 96 59
277 350 261 89 77 65
413 825 211 103 74 61
239 72 198 90 35 30
220 459 173 88 16 33
218 480 295 122 18 42
215 571 261 86 28 38
343 836 156 88 70 59
344 688 184 49 35 33
377 420 201 78 54 47
328 110 206 142 27 46
352 395 265 144 100 75
250 158 263 112 92 70
265 95 206 143 18 44
315 525 311 165 117 96
224 407 269 66 58 52
234 715 316 158 114 86
309 21 258 127 32 36
253 105 250 111 92 71
330 923 312 76 63 55
283 374 250 88 75 62
237 70 206 97 39 35
397 435 201 70 24 28
247 431 141 56 33 29
239 75 198 107 37 39
250 612 200 59 30 35
332 843 261 55 46 38
238 80 201 137 15 45
293 430 332 72 13 26
310 548 306 162 107 86
230 478 150 109 0 33
332 362 203 93 83 73
239 79 198 131 18 44
249 385 305 128 99 70
298 284 312 105 85 64
276 145 246 104 83 59
338 838 143 125 94 73
201 505 231 139 0 39
236 75 206 121 34 42
252 29 270 125 75 67
207 475 276 134 3 40
236 80 206 135 20 46
257 475 330 146 16 47
255 133 258 106 89 72
257 145 265 106 89 70
249 387 253 93 82 72
273 805 222 83 64 55
302 585 162 96 29 39
254 259 258 123 91 59
236 70 216 101 45 43
316 345 215 97 84 70
261 119 216 131 88 65
287 460 336 51 26 30
256 559 148 136 29 44
237 70 221 105 65 56
250 359 274 110 90 68
362 829 150 90 71 64
396 761 96 90 69 52
348 420 156 63 31 32
312 655 189 134 11 34
247 115 236 127 98 73
247 155 246 116 95 73
280 12 271 117 70 58
201 515 256 83 22 32
211 490 216 52 31 34
244 99 202 142 11 42
205 468 239 92 11 19
241 445 181 118 4 35
257 695 332 157 111 86
234 75 211 118 32 47
407 880 280 92 75 67
291 915 194 99 90 89
252 105 200 114 89 74
277 55 260 121 17 45
377 550 185 74 32 35
242 505 123 85 36 41
254 322 289 121 95 67
331 415 151 127 34 28
353 45 236 115 30 40
324 782 283 87 65 56
405 781 224 129 94 68
235 75 209 121 35 44
234 72 212 115 34 42
250 360 296 121 96 68
424 467 189 88 14 31
376 459 254 67 28 34
257 930 216 84 73 71
324 142 234 104 83 60
409 451 169 49 39 41
367 714 185 70 34 43
244 95 240 104 22 38
300 804 294 64 50 44
234 76 214 114 33 45
219 553 177 46 28 40
327 611 174 126 29 42
256 105 252 113 94 75
252 555 145 106 26 40
394 810 166 89 65 55
357 515 275 181 120 98
321 315 219 106 87 65
337 240 262 111 90 66
236 80 216 118 28 45
360 260 254 130 100 65
252 118 207 162 108 98
236 745 327 167 116 93
240 399 292 118 94 68
237 80 221 113 37 49
294 249 288 118 94 68
213 499 163 51 34 38
242 705 271 124 18 41
257 415 226 99 85 71
322 377 198 95 84 73
242 105 216 124 35 50
278 75 230 120 94 71
205 415 261 41 34 36
289 853 298 121 98 73
346 66 192 112 46 32
362 829 271 50 40 31
275 145 238 116 88 55
332 525 154 131 13 34
242 805 251 77 65 62
287 418 154 73 62 45
331 622 284 53 24 29
283 180 261 109 88 63
324 90 212 96 58 45
254 230 289 116 95 73
238 85 202 145 9 45
231 500 307 75 26 34
276 855 246 168 116 88
347 630 186 63 35 39
307 315 251 75 61 46
302 275 286 111 89 62
280 433 329 43 28 29
241 235 266 126 98 67
362 485 146 105 12 36
295 240 281 118 94 66
199 465 166 130 6 37
355 157 233 115 94 72
314 232 240 100 81 59
256 315 281 122 94 68
350 619 279 137 39 55
256 429 176 64 25 29
239 93 208 140 8 47
350 698 183 35 34 38
242 70 196 91 38 26
347 780 141 50 44 42
401 716 171 64 51 37
238 90 211 131 10 44
216 479 215 44 31 30
369 518 179 52 29 26
244 222 274 114 92 68
328 519 269 139 90 83
220 447 154 128 15 30
238 90 216 120 22 41
293 495 326 146 24 51
345 94 198 142 21 44
249 411 320 52 29 27
229 808 296 181 126 97
235 724 323 157 111 86
244 380 291 119 95 69
248 785 237 74 60 53
239 94 211 136 16 47
256 428 146 74 53 39
400 748 224 171 119 91
262 105 256 112 93 72
212 465 174 67 24 29
216 442 154 143 0 32
311 350 301 125 88 64
354 622 273 43 30 33
239 94 216 112 59 56
255 75 253 111 27 43
346 414 269 96 17 35
247 485 320 159 15 51
233 545 152 160 12 44
302 935 220 88 82 84
331 795 161 55 49 48
239 94 221 103 80 66
360 638 193 104 13 23
282 350 257 84 72 61
244 255 271 134 99 69
319 318 269 61 49 35
239 765 329 166 117 90
317 300 225 107 87 64
292 974 266 59 55 55
199 539 216 177 2 47
250 75 248 100 78 62
247 160 256 115 92 68
312 810 281 170 120 97
317 755 179 115 18 34
308 325 241 82 68 53
296 963 300 78 73 72
245 506 318 154 14 49
236 555 155 179 10 45
328 17 288 186 146 143
212 485 216 50 32 33
269 577 159 99 27 41
250 120 247 114 94 73
242 80 196 132 19 41
323 110 236 122 90 69
227 460 155 97 13 26
337 230 208 125 96 59
252 390 251 94 82 72
245 97 199 148 12 44
435 439 215 185 11 58
204 440 169 59 26 29
344 353 209 93 84 74
393 718 228 131 84 64
248 120 241 120 98 73
242 85 196 141 11 44
384 466 237 134 13 41
314 287 254 85 71 58
240 100 216 120 23 43
235 403 255 82 73 65
254 824 243 87 66 55
362 505 277 177 120 100
354 857 179 65 54 52
247 475 111 43 36 41
344 95 248 117 45 53
247 235 256 118 91 59
357 350 221 107 88 68
349 622 278 82 22 34
240 86 200 146 9 43
244 84 193 136 11 38
306 801 194 86 67 57
402 417 162 81 38 44
235 516 308 117 27 46
243 90 196 149 12 47
239 90 226 107 49 51
345 516 149 64 32 34
258 400 248 95 83 71
281 670 205 88 32 38
205 440 154 146 1 33
268 634 207 71 31 39
240 92 205 144 10 49
412 705 206 153 106 73
336 332 213 91 81 71
257 89 193 154 19 45
240 438 120 66 39 38
264 243 248 108 83 53
253 204 243 129 99 62
242 550 310 74 22 32
311 749 314 60 25 33
315 65 230 108 55 51
384 558 183 146 17 38
254 92 194 154 18 49
317 340 216 97 84 70
257 245 295 115 93 68
249 125 232 116 91 63
238 885 301 160 116 98
257 855 271 108 89 70
322 215 216 121 95 63
252 429 141 68 46 37
237 424 225 99 48 36
320 180 236 97 79 60
244 220 271 116 93 68
258 91 194 156 17 46
247 370 291 121 96 68
220 479 209 36 29 29
250 130 252 111 92 71
307 350 271 100 72 56
271 645 210 126 16 39
223 480 186 56 28 32
257 95 196 153 19 41
384 539 244 130 105 79
360 295 231 115 91 63
316 842 279 161 129 100
250 837 276 76 60 57
240 96 210 138 11 48
358 475 148 104 3 34
358 839 162 80 65 60
295 524 313 72 41 40
223 505 162 79 21 33
316 35 245 94 39 30
225 765 301 167 118 87
299 707 319 73 21 30
242 105 231 119 49 53
246 567 154 117 29 45
247 20 275 121 63 70
323 150 231 103 83 60
204 435 252 81 21 42
295 493 314 35 28 27
342 725 176 61 32 34
244 190 248 128 100 68
237 885 306 156 114 95
237 450 141 86 14 32
272 954 319 84 77 76
399 541 196 59 34 35
238 70 226 110 55 55
297 540 320 151 117 98
329 39 193 125 31 14
246 572 159 107 34 42
302 795 296 75 60 51
248 118 208 146 36 52
258 320 277 117 92 65
401 820 231 81 61 48
366 375 241 117 94 68
220 490 298 136 8 43
347 820 137 105 79 60
357 445 146 86 19 37
261 560 316 142 12 45
304 367 223 80 70 61
242 225 266 120 95 66
239 68 229 123 10 45
278 680 207 63 29 32
267 90 257 114 23 42
312 790 186 80 63 53
228 485 146 110 1 30
332 48 210 115 87 53
252 285 291 137 100 78
392 844 216 102 73 63
257 875 315 149 100 92
217 425 241 93 32 26
301 365 252 94 72 60
257 125 257 106 89 71
246 645 251 170 1 46
220 556 283 166 2 51
406 660 211 139 96 65
253 140 260 106 89 71
315 697 314 128 11 39
322 40 231 72 37 28
239 75 225 112 30 45
239 80 225 102 47 51
319 375 269 72 49 34
228 480 116 114 24 40
239 85 226 113 29 44
337 919 315 78 64 55
248 210 276 112 91 67
318 70 221 128 24 42
204 495 228 128 1 33
295 868 193 41 39 41
332 114 206 141 87 69
376 701 270 127 1 39
239 94 225 102 54 49
237 595 191 209 10 55
240 71 228 106 33 42
255 400 249 94 82 70
270 57 218 62 39 32
434 425 185 122 29 44
272 424 136 94 72 50
250 455 327 53 28 28
250 155 262 112 92 71
382 510 236 97 21 37
243 70 236 117 59 61
203 445 261 144 2 42
330 818 264 141 101 84
303 830 207 72 58 53
327 165 216 120 93 58
318 240 221 118 93 62
218 486 185 52 27 31
330 245 258 92 75 56
251 125 230 116 91 61
200 481 169 67 33 43
226 408 286 78 50 38
242 15 261 93 34 35
367 460 261 77 29 35
402 470 231 67 23 30
321 275 220 130 100 66
390 432 210 56 22 25
217 408 266 67 40 39
316 355 210 97 84 72
247 120 236 124 98 69
226 475 126 86 22 36
250 134 253 111 91 71
253 589 172 198 12 50
217 480 159 95 20 34
202 445 256 144 1 40
244 70 241 107 26 44
252 605 191 90 34 41
347 876 300 39 36 35
297 250 271 107 85 59
249 422 221 93 78 65
320 573 158 153 0 31
237 440 176 103 9 30
327 945 281 55 48 45
240 80 227 93 55 51
436 417 216 65 21 29
335 769 279 88 66 56
319 565 288 142 22 49
232 465 201 84 18 31
229 462 179 80 11 36
373 590 186 148 15 37
224 442 228 96 15 29
273 445 332 52 25 29
221 505 297 153 5 48
353 460 151 97 12 35
352 655 192 89 27 33
256 155 230 140 105 68
202 486 179 41 27 27
254 255 294 116 92 66
262 910 216 62 58 60
277 255 251 102 80 55
253 90 250 97 24 35
239 440 309 56 31 37
217 440 236 93 19 28
342 65 190 104 42 27
250 440 323 93 14 29
241 80 231 100 27 36
310 350 220 94 80 65
342 385 270 136 94 71
228 490 122 115 27 43
352 140 231 116 94 70
262 625 327 156 117 88
280 182 274 108 87 64
311 435 336 169 12 53
248 710 236 78 32 42
237 435 216 86 18 32
278 279 258 89 70 48
360 832 142 93 73 63
246 26 267 138 18 50
364 663 199 50 37 36
259 457 119 68 32 35
245 75 237 113 89 73
270 139 233 120 90 55
334 415 301 165 17 50
255 504 128 139 25 41
246 75 241 103 67 58
236 575 306 142 28 52
235 890 291 166 115 100
231 550 297 158 11 48
248 939 227 76 70 70
240 85 228 113 21 43
246 435 191 74 25 29
261 176 234 137 103 65
237 505 311 42 28 30
246 80 241 103 80 64
260 280 303 122 94 68
328 746 297 95 73 64
253 270 267 128 93 64
302 840 279 144 110 84
245 67 243 118 11 44
402 500 176 160 15 39
256 489 122 71 38 40
283 55 251 113 35 50
314 65 241 98 40 42
244 90 240 101 30 37
256 280 270 128 91 63
307 740 317 84 27 38
260 636 219 55 37 41
348 60 201 97 47 31
249 68 249 107 28 37
377 540 184 106 17 31
328 290 218 127 97 64
252 70 251 116 52 55
250 636 287 96 30 44
289 343 259 80 67 53
209 554 251 56 30 33
250 70 248 108 84 69
253 75 250 109 83 68
257 50 260 119 43 51
417 440 172 156 13 38
332 245 209 129 98 59
205 438 263 140 0 46
242 494 118 157 14 41
381 430 265 159 23 54
278 435 135 151 0 31
324 150 221 108 85 56
243 589 178 204 13 50
374 787 124 85 63 47
255 344 275 104 86 67
226 465 116 144 5 39
360 330 241 132 103 70
256 80 252 113 38 49
258 360 263 97 84 72
361 285 241 126 98 63
199 490 241 119 11 37
254 188 238 138 103 64
257 205 285 111 91 71
330 25 193 127 29 13
292 305 327 116 90 63
310 325 291 110 79 55
307 965 281 65 59 59
273 932 324 37 35 37
262 850 307 173 128 111
246 85 241 102 46 46
349 444 128 126 25 40
407 450 167 60 35 40
342 51 206 125 107 86
240 96 227 124 19 45
245 240 282 116 93 68
371 530 260 178 125 99
360 385 217 132 107 81
352 245 211 132 100 60
314 65 236 100 21 32
320 818 154 54 48 45
242 90 236 106 21 38
296 808 294 76 61 51
362 500 170 93 15 28
392 445 162 111 28 38
290 499 316 56 27 32
244 205 265 115 93 70
242 95 236 106 44 45
232 465 186 58 27 33
257 30 271 140 34 58
323 896 304 42 37 36
246 90 242 98 52 49
309 846 172 49 45 45
343 334 214 93 82 71
270 750 209 85 28 34
267 200 287 111 92 72
253 225 247 115 90 59
252 230 250 116 90 59
346 220 208 124 97 63
286 20 256 109 39 49
360 340 236 127 100 70
350 355 269 143 102 74
218 462 174 80 16 31
322 90 250 106 65 56
272 530 146 107 14 29
252 150 231 129 99 62
347 375 206 92 81 72
315 535 311 147 97 75
209 525 280 154 1 47
213 415 284 69 22 32
332 380 272 112 76 56
352 575 261 142 1 44
347 220 261 124 99 71
211 489 183 53 26 29
259 649 223 169 8 43
248 90 245 102 78 61
225 566 288 162 7 51
254 244 253 117 90 59
298 854 292 132 106 79
309 315 292 119 89 62
245 95 242 104 60 52
266 475 136 127 12 34
299 260 266 103 82 60
256 170 272 110 92 73
255 270 265 124 90 60
248 95 246 106 86 67
253 85 249 99 34 39
352 834 271 40 34 29
358 275 256 134 99 67
251 90 247 94 43 41
342 615 177 152 18 43
250 115 247 116 95 74
250 115 230 125 89 67
226 760 306 172 121 91
220 439 235 96 22 25
393 752 118 70 48 33
354 150 241 118 94 68
246 31 262 122 86 73
250 94 248 102 80 60
293 295 269 81 66 48
383 856 256 108 87 83
314 285 250 87 72 56
332 380 197 94 83 71
284 811 303 44 39 41
256 95 252 108 26 42
410 421 163 115 25 33
351 65 226 126 41 53
237 405 251 88 79 69
306 285 281 103 84 63
253 125 255 107 90 73
347 350 212 95 85 75
255 675 230 45 35 39
258 620 324 152 113 86
297 300 267 85 69 51
242 100 206 140 12 46
342 195 258 121 98 72
328 155 245 105 84 62
207 435 169 58 25 31
272 961 311 63 57 55
349 108 233 119 95 69
255 245 293 116 94 70
244 103 203 147 12 43
310 335 286 110 78 58
317 415 311 61 34 30
383 785 237 131 97 72
307 350 261 75 59 47
304 397 193 98 86 73
224 462 299 70 19 23
363 250 221 128 99 63
247 105 201 143 28 47
316 954 242 85 78 80
234 442 112 63 30 44
249 545 314 58 19 29
294 271 265 98 80 60
242 595 186 209 14 53
342 371 203 91 81 72
311 320 226 104 86 67
249 161 264 113 93 72
250 770 234 68 55 51
245 106 205 148 13 48
233 456 206 94 5 30
306 300 301 114 87 58
249 145 256 111 90 70
267 13 244 92 76 66
322 11 296 140 46 58
256 310 286 117 92 66
255 700 225 52 34 38
248 109 202 135 32 38
252 900 246 75 65 60
244 476 319 145 14 47
377 885 296 70 57 49
250 105 248 114 92 71
353 485 161 79 18 34
327 110 211 133 53 56
282 685 311 65 44 38
276 70 255 119 21 46
207 555 236 179 1 47
246 110 206 143 16 43
306 406 310 51 40 28
267 24 280 136 99 77
243 770 242 71 59 54
257 460 116 143 4 34
252 100 197 147 31 46
369 762 110 51 42 32
358 190 236 116 94 70
243 440 186 103 10 30
247 650 261 183 0 53
249 274 277 138 98 72
302 408 181 97 84 70
252 103 198 114 87 68
255 174 273 112 94 76
292 405 322 100 76 56
322 70 255 111 20 43
249 176 269 116 95 73
347 841 170 77 64 61
315 220 236 101 83 62
365 510 173 45 34 33
267 11 286 122 43 53
258 101 200 156 24 44
355 215 213 123 98 67
247 185 266 114 92 69
312 355 276 99 71 54
272 420 151 87 73 50
252 110 202 113 91 73
330 150 214 127 96 59
243 225 257 120 93 63
339 492 153 130 5 30
341 47 212 125 106 86
256 616 200 64 33 41
231 600 231 153 12 48
352 613 178 80 35 41
256 109 203 139 33 43
358 675 267 86 20 35
245 225 254 116 90 60
241 100 211 134 19 47
328 755 292 94 71 60
253 455 331 88 25 37
409 471 228 123 31 46
202 470 162 144 0 37
407 829 197 103 77 66
352 790 117 87 65 53
206 465 271 40 25 30
249 477 114 67 25 47
234 555 299 85 17 35
237 450 97 178 9 41
441 421 202 103 21 36
244 432 169 67 23 29
307 805 290 56 46 44
240 97 221 108 53 49
332 325 214 97 82 67
240 698 323 154 110 84
260 705 219 100 37 45
217 445 154 138 7 28
403 836 211 103 75 65
378 695 261 119 4 38
233 412 242 86 76 68
258 785 227 76 60 50
241 105 221 108 73 61
245 208 268 113 92 68
200 460 251 117 13 37
311 899 181 80 73 71
243 110 211 133 14 44
331 165 214 126 97 60
310 544 148 52 30 28
248 105 246 113 72 61
232 432 157 72 26 28
252 385 311 128 100 71
233 720 316 157 112 85
245 370 286 120 95 68
288 551 319 137 107 87
242 110 216 123 19 43
222 480 157 110 11 27
347 250 210 132 97 57
312 345 266 68 52 39
315 590 294 161 13 50
313 665 188 86 22 32
238 420 301 109 17 37
347 210 260 124 99 72
254 136 259 106 89 71
262 11 256 84 61 54
389 817 170 103 76 61
281 45 241 100 49 39
352 210 212 125 99 66
380 495 174 97 21 32
247 680 326 149 104 80
243 110 221 126 28 46
353 30 251 117 55 52
247 112 223 133 77 64
326 780 175 66 54 49
248 115 207 137 22 43
341 412 151 87 59 47
255 320 286 113 90 64
394 750 228 150 99 72
413 440 169 159 12 38
252 113 203 110 96 82
239 486 314 143 12 42
252 235 251 115 89 58
207 495 166 146 20 44
381 426 265 134 28 45
256 780 230 73 59 51
252 115 205 112 86 74
284 275 259 83 66 45
346 385 202 100 85 73
257 115 206 133 41 45
326 105 211 116 25 37
256 118 207 168 79 80
204 445 264 142 0 42
308 325 321 134 91 70
359 525 166 50 30 32
359 205 246 123 98 71
373 875 256 89 70 64
244 113 216 131 15 43
244 113 211 135 14 45
358 755 171 51 44 44
256 850 302 171 125 107
245 112 209 136 10 39
288 397 216 83 71 61
286 450 148 118 15 34
332 700 181 108 21 28
327 60 260 128 18 46
202 525 251 156 0 42
244 113 220 128 19 43
260 558 320 158 13 51
408 735 217 173 118 87
404 635 223 155 107 71
214 501 203 37 30 31
257 145 226 141 103 67
255 224 288 114 93 72
228 500 131 143 11 41
253 180 274 114 95 77
267 250 302 114 92 68
245 221 254 117 92 62
252 380 256 95 83 71
394 459 222 46 22 26
288 360 255 85 71 57
249 118 210 151 25 54
250 358 293 123 97 69
328 120 217 116 87 57
212 455 156 139 0 33
347 765 171 59 39 40
250 117 213 139 64 58
298 825 212 83 65 57
240 422 228 97 80 64
242 725 246 151 8 44
255 277 269 126 92 63
427 750 106 102 75 60
244 427 213 81 64 49
257 125 220 154 113 79
371 845 176 79 62 55
327 175 247 104 84 62
251 116 216 139 90 73
378 840 267 70 55 43
251 115 221 137 95 76
255 122 219 158 113 82
286 645 325 172 123 95
318 255 251 92 75 57
287 416 161 77 66 56
228 495 304 145 8 46
241 100 226 126 47 55
261 776 225 75 59 51
403 620 226 155 110 75
352 400 216 117 99 80
358 190 226 122 99 73
249 33 264 123 53 58
249 115 245 116 95 73
341 535 155 142 2 32
243 25 266 125 24 47
255 408 244 100 87 73
230 408 288 70 56 40
272 490 145 141 3 30
218 585 241 41 31 37
301 575 320 173 122 97
342 410 272 74 40 35
330 92 199 133 10 42
401 620 231 164 115 82
327 245 256 90 73 54
241 100 231 112 74 64
273 290 314 120 92 65
394 545 212 35 29 33
248 240 286 115 92 66
253 850 296 169 122 103
257 225 291 113 92 71
308 345 317 144 100 77
247 431 166 67 25 29
284 470 335 77 24 34
247 100 246 108 28 41
228 417 237 80 51 32
327 475 157 99 26 33
252 190 276 114 94 73
277 910 320 157 124 96
327 190 214 119 93 61
244 104 240 116 15 42
250 674 299 122 92 68
319 180 226 103 83 59
269 654 213 159 2 42
342 490 151 99 19 30
272 395 325 136 103 77
244 190 251 123 98 70
234 442 130 37 26 26
262 420 341 105 20 38
262 11 266 101 57 52
235 450 137 98 3 31
243 109 231 126 21 43
335 80 254 117 18 45
256 200 282 111 92 72
342 70 251 118 21 43
277 584 163 170 3 39
303 425 160 99 26 31
253 200 280 113 93 72
312 615 294 152 17 47
248 135 236 117 95 71
349 286 219 114 88 60
304 356 242 65 56 48
251 685 286 130 23 46
381 840 176 89 71 64
383 577 189 59 30 37
247 111 231 128 85 70
287 395 236 79 68 56
225 542 159 170 10 44
281 215 242 126 94 57
365 484 249 29 26 28
241 465 312 140 12 45
245 106 242 115 54 54
250 112 226 138 100 78
232 765 261 143 107 75
334 315 279 100 75 52
283 239 298 114 91 67
252 959 256 88 84 85
249 130 232 117 94 68
309 967 259 89 85 92
291 561 154 81 36 42
256 100 253 106 57 53
316 55 256 116 68 60
277 570 322 137 104 84
253 110 250 112 93 74
267 495 141 90 27 34
247 675 256 100 27 41
266 181 279 109 91 71
207 420 251 63 33 35
263 275 305 119 93 67
280 45 259 120 18 46
340 383 198 91 81 71
283 480 336 54 27 32
237 490 116 89 30 41
256 310 281 127 96 71
249 135 251 114 93 71
283 225 245 125 93 56
225 536 293 164 4 50
256 110 252 112 94 76
238 431 216 84 16 29
249 115 232 124 88 68
307 380 256 64 51 40
356 175 226 123 100 74
252 215 246 119 92 60
238 725 276 128 11 41
297 413 166 95 81 66
237 455 186 47 28 31
337 720 177 77 33 33
320 220 219 117 92 64
231 449 173 60 19 29
248 125 236 119 95 67
376 445 260 78 29 36
252 115 226 128 94 71
251 200 277 116 94 72
262 430 340 85 24 35
250 112 230 128 88 67
244 12 262 88 40 35
235 468 146 104 0 36
327 930 301 48 42 39
267 595 171 202 10 45
251 120 230 117 88 61
315 72 242 109 82 67
351 500 291 172 116 100
342 340 213 94 83 73
218 435 284 66 25 30
323 270 259 85 70 53
247 250 261 129 96 65
240 720 256 134 14 45
283 660 322 172 120 93
326 49 215 106 90 72
316 445 326 160 5 49
308 900 303 102 71 57
252 120 226 116 89 63
304 857 178 54 50 52
232 495 121 63 37 40
262 770 331 169 121 87
258 111 204 146 22 42
319 465 306 138 8 43
252 125 226 120 95 64
251 180 240 133 101 63
231 510 130 65 31 39
322 490 152 81 29 34
300 783 194 83 64 55
211 455 282 140 2 43
249 120 245 114 94 72
300 386 258 79 66 53
230 729 311 156 113 84
207 480 161 141 5 35
368 770 102 93 69 53
402 495 175 158 15 38
271 900 206 54 51 52
249 214 248 117 91 60
292 968 294 71 66 65
255 115 253 109 92 75
267 971 271 74 68 67
261 854 265 99 72 46
285 33 255 117 83 70
373 786 121 88 66 49
245 200 266 115 93 70
231 730 316 157 112 85
207 480 178 93 16 33
282 50 241 115 33 44
366 495 172 111 14 32
306 380 311 143 101 78
215 476 159 120 8 43
204 538 255 102 18 35
228 570 196 113 20 40
342 855 284 48 40 36
235 404 281 87 73 59
258 115 255 108 90 73
305 413 336 53 27 24
299 289 274 100 79 55
347 760 276 84 64 53
357 275 221 123 93 59
258 921 213 72 64 63
338 430 141 92 23 33
265 361 259 94 81 69
326 944 285 54 46 43
342 700 181 66 32 35
255 118 253 106 90 74
425 464 210 71 27 35
372 849 181 82 65 58
232 432 165 60 26 29
268 475 140 139 8 29
377 415 162 120 31 37
235 541 145 50 36 40
337 265 211 130 98 59
248 125 246 113 92 71
262 160 271 107 89 70
325 135 231 108 85 61
314 370 265 67 48 34
205 521 273 109 10 32
320 260 219 126 98 65
307 320 251 70 58 44
214 500 290 82 25 35
253 376 257 96 84 71
277 325 267 91 76 61
404 648 199 114 90 61
348 135 220 113 92 69
267 460 335 48 27 28
332 850 276 44 37 32
221 486 159 102 19 34
287 865 231 106 83 62
257 26 277 130 42 55
250 433 120 74 54 48
258 105 254 113 95 77
292 841 279 126 97 72
250 124 248 112 91 70
275 750 319 174 117 90
362 240 246 123 97 66
319 61 212 96 28 35
321 660 295 150 9 47
242 490 116 78 29 40
232 720 311 153 111 83
249 127 249 113 92 70
282 75 241 109 69 53
355 577 259 130 7 39
254 121 254 107 90 75
365 412 198 114 97 80
307 340 271 96 70 53
280 408 204 86 74 62
246 480 112 63 37 42
304 288 297 119 93 60
277 356 258 89 76 64
243 250 271 132 99 69
209 461 238 94 17 27
362 465 167 53 32 34
254 129 223 137 105 70
261 600 322 151 117 94
278 310 262 84 69 51
245 374 287 119 95 68
353 315 266 123 88 57
362 640 196 137 11 35
250 130 229 120 96 70
361 285 236 126 97 64
199 490 238 124 7 36
314 249 240 100 80 56
242 590 181 205 13 52
375 671 199 80 64 54
282 220 291 112 90 66
245 459 103 165 0 33
252 25 275 136 26 53
395 735 229 152 93 70
278 195 240 120 93 59
287 394 230 81 68 55
249 135 232 119 96 71
253 135 227 131 101 68
237 425 301 92 22 34
327 170 216 121 93 59
250 135 230 123 99 70
290 722 194 133 28 43
262 35 267 133 32 53
382 889 287 89 75 71
319 103 223 133 11 42
392 844 226 85 64 57
240 449 146 38 29 32
255 132 224 143 107 72
386 585 245 171 117 88
277 645 206 137 15 39
230 459 209 85 14 30
202 470 175 64 29 32
264 370 319 125 98 72
248 130 236 117 94 68
368 410 252 132 101 72
352 85 216 100 61 53
250 252 259 127 96 64
244 446 314 87 22 32
401 728 170 56 45 34
373 415 216 82 71 59
284 882 222 53 50 53
379 524 252 153 125 97
307 404 185 99 85 70
257 140 225 143 106 70
254 577 308 59 26 30
295 862 304 139 110 79
265 139 228 123 92 55
353 25 251 105 38 41
248 230 252 118 91 59
382 415 161 97 35 37
271 540 321 65 26 32
337 225 208 125 97 61
291 460 153 132 3 35
252 419 221 96 82 68
343 454 264 109 6 35
254 144 228 132 100 62
248 140 241 116 94 72
253 460 330 53 26 28
215 552 200 39 32 38
293 615 321 163 113 86
248 130 246 115 94 71
222 408 281 77 52 40
212 515 176 74 26 33
239 391 271 104 86 66
410 789 163 102 73 58
205 466 159 144 0 35
310 543 298 139 89 74
262 60 259 113 79 63
249 130 250 113 92 70
357 190 221 118 96 71
249 376 300 125 99 70
228 605 246 193 6 52
255 429 181 64 25 28
350 486 139 135 5 33
416 730 155 83 66 47
349 38 229 80 44 21
257 745 221 139 17 44
258 780 333 172 123 89
303 895 181 74 67 64
253 130 256 108 90 72
278 505 334 127 22 44
260 670 224 69 25 31
318 310 222 106 87 66
348 245 263 126 99 69
287 445 147 136 4 28
321 870 151 101 84 74
251 165 267 111 92 72
347 275 267 116 90 62
356 845 169 79 66 61
401 760 161 82 61 42
252 135 256 108 90 71
199 480 254 60 25 30
351 75 226 108 34 40
377 420 161 108 26 33
257 230 246 113 88 58
234 746 267 137 46 52
248 140 246 114 93 71
259 396 319 130 98 75
257 170 233 138 103 65
337 145 212 126 96 59
282 255 252 108 83 55
419 467 218 119 10 28
232 810 281 178 124 93
360 365 223 114 92 69
199 531 211 42 30 33
327 355 206 94 83 73
248 145 251 111 90 68
372 505 256 73 51 42
387 760 236 59 38 40
257 823 324 205 144 118
235 572 169 55 30 41
247 426 211 83 68 56
275 594 328 154 117 88
244 230 257 120 93 62
265 695 214 109 18 36
312 340 306 124 87 63
297 735 318 132 21 49
251 46 258 129 102 81
365 853 176 76 63 56
297 760 312 86 69 60
406 740 186 139 99 68
202 500 231 134 0 34
337 916 296 58 51 49
297 255 276 115 91 63
257 150 227 143 106 68
309 352 313 141 98 74
336 910 226 80 72 71
315 229 236 102 82 59
240 709 299 123 95 67
371 645 236 142 34 49
250 219 282 113 92 69
267 670 330 166 119 93
248 426 206 74 62 52
352 800 129 80 61 51
330 535 264 38 28 29
233 406 276 68 61 56
216 444 235 96 14 28
377 540 257 156 107 78
290 206 270 113 90 64
255 151 229 139 103 67
392 430 231 81 52 41
302 515 315 135 92 81
284 425 144 133 9 28
249 150 236 123 98 69
304 877 147 222 193 203
365 528 264 179 118 91
347 606 174 88 35 40
226 432 153 76 28 36
254 330 291 122 94 66
242 440 201 98 12 33
318 75 226 119 33 46
248 150 241 118 97 73
325 63 194 91 47 20
347 511 282 176 117 96
365 627 254 44 26 28
253 160 233 133 101 64
310 375 296 127 89 68
249 210 248 120 94 63
292 465 153 108 11 28
332 467 286 58 17 23
352 466 290 89 45 41
257 160 231 139 105 68
298 385 317 136 98 76
294 900 313 147 110 88
284 887 182 90 77 76
257 20 281 134 99 77
276 50 232 101 31 24
249 155 237 123 97 68
268 154 268 109 89 67
267 490 328 61 25 31
250 155 234 126 98 65
321 730 315 176 12 56
248 155 241 118 96 72
237 400 256 91 79 68
322 404 286 48 39 28
277 965 301 67 62 61
299 872 168 66 59 59
403 735 180 113 83 58
245 420 312 72 26 33
287 975 266 54 51 51
246 205 271 112 91 67
360 495 279 123 79 65
357 888 266 62 55 57
412 745 206 162 107 74
273 446 135 137 12 31
341 555 159 123 14 34
251 160 235 127 98 64
397 465 166 107 22 37
318 100 236 117 26 42
304 390 307 125 90 69
284 789 208 85 65 56
231 755 322 172 118 93
309 302 233 104 86 67
305 958 238 83 79 82
250 220 249 115 90 59
277 510 334 47 26 32
282 958 314 78 72 70
277 105 246 114 85 63
254 545 144 123 12 32
288 897 184 83 74 72
306 354 241 66 57 50
249 160 238 122 96 66
325 130 236 106 82 58
342 415 136 93 52 40
411 803 183 134 89 65
244 372 284 118 95 68
247 215 251 115 91 62
404 441 215 43 24 23
267 958 314 62 55 53
264 804 228 85 66 57
247 150 246 117 95 72
263 821 323 191 136 108
237 495 312 46 28 30
317 885 186 82 76 77
350 85 202 148 32 53
419 790 179 131 93 68
205 496 170 102 26 37
247 160 246 115 94 72
401 790 151 99 74 56
352 325 221 100 85 69
201 440 161 94 25 37
222 450 154 126 5 30
322 370 271 79 53 37
316 391 276 77 59 45
354 838 163 72 60 54
244 215 270 115 93 69
382 424 201 65 33 31
360 470 132 131 10 35
387 420 186 61 21 26
248 155 256 113 92 68
317 360 206 94 83 72
249 425 321 52 23 29
228 580 290 167 9 50
247 160 251 114 93 70
237 441 111 57 35 45
386 505 234 152 18 50
240 734 294 102 80 56
410 513 190 65 40 39
272 765 210 105 36 44
327 13 271 152 100 101
203 455 247 116 5 30
246 645 306 144 111 85
313 34 265 116 17 42
359 218 248 124 99 69
247 165 241 121 97 69
202 500 266 74 28 36
252 185 275 115 95 76
204 510 222 132 0 34
248 660 271 135 15 46
223 432 153 55 34 44
277 375 325 139 105 77
254 165 233 134 101 64
309 340 236 79 67 54
223 585 226 143 22 47
239 790 248 75 64 61
260 41 223 109 94 77
317 460 160 50 36 37
367 788 117 92 68 54
242 510 125 70 35 39
367 745 275 161 27 57
248 265 271 132 95 65
257 165 232 138 105 67
312 419 307 56 34 28
403 760 181 127 92 65
322 475 157 69 34 36
337 675 287 143 13 45
218 435 237 90 24 29
314 68 233 106 62 54
249 170 238 126 97 62
210 556 210 176 13 46
326 898 198 77 71 72
262 424 161 76 55 43
256 455 112 149 1 36
268 49 225 74 38 33
318 935 306 55 49 46
302 630 187 150 15 39
247 395 306 126 98 71
302 575 311 157 104 79
347 380 205 92 82 72
272 140 261 113 89 61
410 782 219 103 70 48
199 495 241 129 2 35
282 445 321 35 23 24
400 774 132 78 61 47
252 170 236 131 99 64
361 412 186 96 71 58
247 175 241 126 98 64
330 725 304 173 3 55
332 50 262 119 54 54
259 91 254 100 79 61
318 285 226 120 94 66
381 485 235 87 20 36
336 469 266 47 21 27
256 171 234 137 103 64
292 215 256 104 84 62
252 250 256 122 93 59
292 240 256 121 90 60
352 865 181 81 67 60
257 175 235 138 103 64
253 567 318 94 25 39
246 165 246 116 95 73
247 430 161 68 28 29
310 301 277 89 74 59
278 525 316 144 18 46
410 509 196 90 39 44
307 580 296 41 28 30
247 165 256 114 92 68
292 470 151 51 34 35
327 450 160 92 30 36
233 500 122 54 39 39
369 847 273 59 48 37
416 781 196 128 92 64
262 165 231 136 103 65
285 509 321 127 26 45
245 201 249 125 98 67
202 480 266 58 27 32
267 225 241 129 98 63
257 440 110 96 38 37
352 80 216 120 26 44
387 771 111 93 69 51
329 575 283 30 28 31
244 437 191 102 9 31
357 455 147 101 7 36
436 440 211 187 13 56
244 629 237 189 8 49
245 170 246 118 96 71
239 695 320 155 112 84
269 963 309 63 58 56
337 560 271 102 18 37
246 170 251 113 92 70
229 510 304 31 28 30
254 260 294 119 93 66
282 886 216 44 42 45
274 80 220 110 55 45
278 785 212 82 64 55
334 456 263 32 28 28
322 830 271 149 113 89
294 834 218 50 44 47
246 170 256 113 91 68
326 930 227 81 73 73
252 437 108 128 33 51
351 450 263 110 1 34
261 330 307 128 100 72
403 650 195 97 80 61
245 175 251 114 93 70
316 840 156 65 56 53
220 493 192 70 25 40
226 560 196 117 18 40
292 650 197 116 23 38
246 175 256 113 92 69
352 365 267 140 100 74
252 185 240 136 101 64
321 885 151 109 91 84
257 185 237 140 103 64
352 525 143 155 9 37
272 405 325 138 106 83
252 190 240 137 102 65
299 715 188 137 9 35
268 586 164 191 6 42
297 544 148 79 28 38
255 211 244 123 94 59
226 590 281 71 27 36
242 480 316 142 13 44
243 205 261 117 94 69
203 490 271 37 29 30
255 735 224 101 20 40
246 640 311 155 121 93
245 180 245 124 98 66
332 379 200 93 82 71
267 220 294 111 91 70
247 400 250 97 85 73
208 470 276 125 4 38
273 450 332 91 22 34
248 185 242 130 100 64
298 345 265 77 61 42
244 185 248 127 100 69
274 105 253 120 88 63
244 180 251 118 95 70
317 13 276 125 73 63
337 281 269 96 77 57
280 649 329 164 117 82
257 395 246 93 81 70
252 425 336 73 24 33
248 360 286 120 95 68
332 902 314 42 38 38
244 185 255 116 95 71
270 730 209 140 1 37
320 184 224 107 85 60
262 80 192 147 18 40
249 190 243 133 101 66
239 629 266 157 20 51
317 910 311 38 35 37
332 870 131 88 77 67
376 416 221 78 67 54
383 474 167 146 5 38
222 465 176 65 23 31
331 155 247 109 87 64
207 485 180 43 27 27
245 430 313 126 13 41
367 545 256 157 103 78
234 455 153 41 33 33
324 623 288 86 20 30
289 412 177 86 74 61
243 225 271 117 93 67
280 15 289 124 74 58
307 300 275 109 88 69
252 465 111 146 3 35
231 755 296 125 96 65
233 615 271 134 27 47
252 195 241 134 101 62
302 395 251 68 56 45
262 413 328 70 58 45
302 455 158 54 31 38
256 195 239 134 101 62
247 195 246 130 100 65
204 490 228 122 1 35
377 495 176 104 17 30
398 766 150 69 59 52
360 230 251 125 99 69
332 930 291 58 51 47
234 463 103 175 0 36
268 367 252 95 83 71
257 210 286 111 92 71
247 200 246 127 99 64
338 750 283 90 70 59
392 755 116 75 58 47
248 205 247 124 97 64
308 385 301 126 87 66
352 820 251 73 59 51
312 715 182 124 17 33
230 439 298 63 27 34
243 195 251 126 99 67
231 915 286 180 138 117
249 370 296 123 97 70
273 844 296 74 60 47
207 455 271 124 3 37
245 650 322 142 97 76
367 425 163 56 37 32
250 684 282 88 29 38
245 433 136 50 31 29
243 195 256 117 95 69
317 95 241 104 41 47
381 535 230 135 18 43
234 441 174 106 7 32
330 934 290 63 56 53
233 574 172 72 33 40
325 164 243 102 83 61
216 485 292 56 27 31
243 200 251 125 99 69
281 190 242 121 94 61
250 196 244 133 101 63
379 471 243 132 21 48
382 580 247 172 117 90
243 200 256 121 97 70
350 893 265 63 56 59
235 400 266 84 72 60
264 485 134 65 26 39
385 745 251 56 30 35
318 185 231 101 82 61
358 195 246 122 98 70
332 618 178 69 31 36
244 194 248 127 99 66
361 875 226 64 54 55
272 615 330 157 116 89
351 55 216 103 33 40
318 85 226 116 27 40
272 720 326 176 120 94
397 625 235 166 116 85
205 518 214 60 33 27
387 624 239 163 111 82
236 450 177 102 8 34
314 902 199 72 64 62
315 468 314 152 18 47
261 962 307 64 60 59
244 205 252 124 99 69
279 65 252 124 91 74
249 194 243 134 102 67
253 239 252 115 89 57
245 700 277 155 2 48
236 438 173 89 7 30
319 50 226 87 33 33
315 880 176 75 67 67
208 411 271 50 26 32
266 43 264 124 93 72
226 464 177 81 20 35
402 670 226 178 124 96
217 445 232 99 16 25
241 685 306 135 104 73
256 200 240 132 100 62
297 972 256 75 70 71
295 868 219 56 52 55
253 200 242 132 100 63
417 430 216 75 15 22
264 625 329 150 110 82
250 200 244 132 101 64
280 103 236 123 23 42
230 492 158 65 22 28
362 220 226 122 98 72
349 125 224 113 91 67
332 215 256 109 88 65
201 460 256 46 29 31
410 696 214 160 110 77
254 226 289 114 93 71
255 655 287 54 32 34
257 427 156 74 47 37
312 696 315 62 23 31
313 534 278 44 27 31
251 205 245 126 97 63
366 412 201 114 97 80
359 300 253 137 100 69
327 655 290 50 25 30
301 595 299 141 27 47
199 506 244 139 0 38
258 186 279 110 91 73
243 210 256 123 98 69
205 475 235 106 11 30
307 964 286 61 55 53
382 423 236 71 59 48
243 215 256 122 96 66
352 889 312 60 51 45
337 370 201 91 81 71
222 585 231 119 27 44
400 760 164 85 63 44
239 911 309 166 130 111
244 215 253 119 94 66
224 530 157 108 19 36
213 474 158 140 1 35
418 471 217 100 31 44
313 825 171 50 46 45
261 242 249 112 86 55
352 412 176 86 41 35
257 165 271 109 91 73
360 474 133 149 4 35
331 130 247 112 90 66
243 220 256 121 95 64
400 715 224 165 112 82
365 645 254 77 36 41
256 460 332 63 24 32
333 130 249 115 90 65
242 220 261 122 97 67
352 140 236 114 93 69
257 215 242 126 97 61
255 215 244 121 93 59
377 505 236 76 18 31
252 220 247 116 90 59
254 176 274 113 94 76
256 220 244 117 90 59
244 372 281 118 95 69
265 700 214 136 3 36
255 320 291 123 96 68
299 347 323 151 101 73
256 225 245 114 89 57
265 495 137 54 29 31
360 230 218 120 96 66
244 34 259 129 19 46
318 961 256 83 79 83
391 560 187 113 27 39
235 551 154 85 19 37
318 367 203 95 84 74
239 24 259 115 12 40
249 234 253 118 90 57
323 270 217 129 100 66
320 419 334 92 38 42
254 233 248 113 88 59
430 454 209 169 28 60
425 469 201 129 35 50
322 285 222 126 97 65
255 425 338 57 24 29
332 835 256 68 55 43
255 236 249 112 86 56
256 240 293 115 94 71
316 295 261 75 64 52
255 630 296 129 36 48
252 245 255 121 92 60
354 340 262 130 94 63
337 25 281 132 80 69
332 760 174 75 29 32
373 630 237 103 29 38
237 935 246 64 60 61
209 500 284 70 25 32
212 431 156 68 36 43
322 80 206 137 5 41
248 190 271 116 94 70
378 418 191 71 36 34
298 255 266 100 80 58
248 400 310 126 98 71
257 250 252 116 88 56
253 839 261 79 63 58
244 397 253 101 87 74
237 486 114 72 36 39
323 855 277 96 75 60
377 575 188 83 25 34
332 265 212 131 99 60
240 627 244 189 1 54
261 455 121 54 38 40
360 460 144 97 5 35
316 75 231 103 81 62
255 251 254 119 90 58
228 529 147 147 13 42
385 573 188 125 27 41
317 391 193 96 85 73
351 65 231 115 70 63
272 605 329 156 117 90
253 255 257 122 91 59
248 355 281 117 94 69
221 535 171 123 4 32
212 430 166 89 21 40
374 550 184 88 26 34
256 255 255 117 88 56
317 760 180 109 18 34
372 495 241 57 25 32
239 17 259 97 33 39
233 442 121 74 33 40
354 158 243 117 94 67
237 460 151 47 29 34
282 520 145 44 35 38
249 862 300 121 20 52
247 12 261 86 43 37
235 443 109 62 26 45
385 839 182 94 73 64
278 188 278 111 91 67
230 469 201 35 30 32
244 650 316 152 111 83
297 690 192 49 36 36
305 473 329 65 29 35
245 13 259 89 40 36
250 433 178 64 22 26
228 540 295 145 11 47
279 62 253 135 91 79
380 794 239 40 33 33
317 365 205 95 84 73
244 15 270 86 50 37
278 36 263 122 84 68
315 241 232 107 85 59
361 290 236 123 96 63
245 730 240 143 7 42
342 839 251 49 41 34
249 231 284 116 93 68
247 11 266 83 41 35
262 415 336 55 45 36
302 900 307 121 93 71
274 125 240 113 87 59
388 715 231 108 24 40
257 450 111 135 9 36
434 442 212 184 13 55
205 455 244 106 3 30
306 735 184 104 23 35
247 445 101 117 27 37
340 125 213 122 96 62
244 12 266 84 40 35
277 590 166 176 2 37
267 419 191 82 68 57
272 341 263 95 80 66
226 585 221 176 9 47
251 625 316 148 118 90
245 14 272 90 57 41
225 450 116 66 28 39
402 470 170 141 13 36
277 335 320 123 95 68
388 841 196 124 78 66
270 165 233 129 98 60
244 253 268 132 98 71
317 320 267 60 48 34
368 857 194 99 77 68
271 740 325 176 122 94
350 115 236 117 94 68
207 450 170 114 3 35
257 11 261 86 53 47
252 11 261 84 48 41
366 705 279 113 21 43
294 436 339 142 16 46
392 710 180 90 75 61
257 11 266 93 51 45
286 879 191 43 41 43
247 402 248 97 84 72
347 725 286 126 20 45
276 100 251 115 73 59
252 11 266 85 43 38
241 25 261 117 15 42
242 885 315 179 133 114
257 11 271 102 57 50
272 75 211 118 25 42
337 13 271 144 105 106
320 813 269 145 88 71
232 419 231 86 66 50
209 508 284 57 24 34
359 300 230 107 86 61
199 480 246 122 17 38
234 460 201 104 8 34
226 515 161 60 25 30
257 720 333 168 118 88
252 11 271 91 48 42
217 455 231 95 19 27
416 434 222 93 3 29
269 42 263 123 86 67
247 15 276 98 55 49
248 12 275 91 50 42
315 240 234 106 85 60
229 804 306 175 122 92
227 440 170 111 4 36
260 329 274 104 84 62
266 373 249 89 77 66
257 11 276 110 65 56
272 80 216 103 62 51
258 54 210 117 100 83
239 624 276 43 32 35
233 820 306 202 139 111
275 45 233 116 34 29
348 858 166 85 71 66
360 260 218 131 98 62
252 11 276 101 58 50
347 835 256 39 33 30
201 450 161 134 1 37
249 440 321 127 11 41
250 14 278 102 54 50
337 850 159 91 70 60
350 185 254 122 98 71
252 15 281 124 85 76
272 825 311 177 125 99
212 440 240 79 25 29
317 400 262 58 42 30
