ply
format ascii 1.0
comment Created by Open3D
element vertex 2237
property double x
property double y
property double z
property uchar red
property uchar green
property uchar blue
end_header
325 852 214 129 97 64
472 577 293 203 130 102
478 577 297 203 135 111
483 577 298 204 134 112
483 577 301 205 145 124
329 854 298 31 29 29
264 779 239 76 60 54
264 782 239 76 60 53
271 774 235 77 61 53
273 774 233 76 60 53
272 779 236 78 62 54
273 784 237 78 61 54
258 774 241 76 60 54
268 884 402 39 37 37
291 831 350 120 98 75
262 770 241 78 61 53
258 784 243 76 61 54
410 871 332 76 64 60
261 779 240 75 60 53
263 784 241 75 60 53
268 785 240 77 60 54
270 792 239 77 61 55
256 786 245 79 63 56
263 789 242 76 60 54
258 794 246 79 63 58
264 793 244 76 61 55
262 795 245 78 62 56
267 789 240 76 60 54
268 794 242 75 61 55
265 797 244 76 62 55
315 896 262 78 70 69
273 799 241 78 61 56
278 779 231 76 60 54
281 889 245 98 82 72
278 784 232 75 60 53
288 774 226 73 58 52
283 779 228 74 59 53
281 780 230 75 59 54
374 832 264 56 46 35
279 789 233 75 60 53
388 784 182 79 60 49
277 789 236 77 61 53
279 793 234 77 60 53
283 794 233 77 61 54
288 799 232 80 62 55
263 804 248 83 66 59
349 895 352 65 58 59
258 804 248 82 66 59
289 803 233 81 64 56
259 808 249 83 67 59
263 814 251 84 67 61
268 804 247 80 63 56
259 819 254 75 60 57
258 824 256 137 109 95
263 819 252 71 57 55
263 823 253 97 83 78
263 826 256 194 141 114
268 819 251 66 53 53
270 819 249 71 56 54
272 825 251 168 128 104
383 858 336 63 54 47
266 826 255 194 139 113
270 827 254 191 138 111
272 830 256 191 137 109
279 803 239 80 64 57
284 809 238 82 65 57
287 805 235 81 63 57
287 809 236 83 65 57
256 857 374 131 107 83
288 814 237 83 65 59
378 814 207 92 70 59
278 805 241 79 63 56
276 810 245 80 63 57
279 813 244 81 65 57
277 814 245 80 63 57
378 830 227 83 65 59
278 824 247 76 65 62
279 827 248 181 134 108
280 817 244 81 64 59
281 820 245 78 62 58
284 823 244 67 54 53
288 824 243 75 60 55
286 826 245 42 41 52
287 830 246 125 98 85
292 774 221 72 58 53
293 779 222 73 60 53
302 779 216 75 61 52
304 779 213 74 59 52
303 784 216 76 61 53
297 785 221 78 62 54
456 837 265 96 80 66
294 789 224 81 63 55
303 789 218 78 61 55
301 790 220 80 63 54
304 793 219 80 63 55
303 799 222 84 66 56
308 774 212 71 57 50
305 783 214 75 60 52
308 784 213 76 60 53
318 784 210 76 60 52
336 792 196 53 48 46
313 789 213 77 61 53
312 791 215 79 62 54
308 794 218 79 62 55
306 796 220 82 64 56
318 789 212 76 60 53
316 795 215 77 60 54
317 799 216 69 56 52
319 799 214 61 51 48
291 785 225 78 62 55
291 794 225 80 63 55
290 798 228 80 63 55
294 798 224 82 65 56
320 810 203 61 53 50
313 898 272 73 67 67
312 809 221 70 57 52
309 814 224 72 58 52
320 805 208 54 49 48
314 804 218 72 58 53
315 816 213 55 51 50
315 814 218 52 48 48
316 814 212 54 49 49
315 820 208 59 52 50
314 824 207 68 59 56
317 824 201 71 60 53
315 921 310 84 74 75
320 827 199 77 62 54
314 863 317 47 42 39
318 829 202 79 64 55
316 830 205 76 63 58
335 910 357 68 61 62
310 829 217 61 55 54
310 831 214 69 62 60
314 819 212 55 49 48
316 817 210 55 49 49
291 801 230 82 64 57
294 803 228 82 64 56
294 813 233 82 64 57
297 801 225 83 64 56
299 809 229 83 64 57
302 805 225 84 65 56
303 819 231 82 64 57
353 895 377 67 60 58
297 820 236 81 65 57
298 824 238 81 64 58
301 821 235 81 64 56
400 771 181 105 78 61
302 824 236 78 63 57
293 824 241 83 65 59
278 849 267 184 128 105
293 829 243 56 47 50
298 829 241 67 56 54
306 811 225 79 62 54
348 844 277 34 30 29
307 814 226 77 61 54
306 821 230 81 65 57
310 818 224 62 51 49
310 824 227 55 50 50
311 822 226 54 49 49
308 829 227 53 49 50
304 864 228 85 71 68
277 835 256 186 134 107
283 834 252 180 129 103
281 836 255 182 133 104
283 839 257 180 130 105
288 838 253 169 120 95
284 874 257 60 54 56
287 873 252 62 56 58
285 875 253 57 51 53
286 877 250 58 49 53
289 885 238 112 90 73
288 889 236 113 92 78
275 886 254 86 72 65
275 889 253 92 78 72
273 889 257 87 74 70
277 883 256 64 59 58
393 874 427 65 52 40
279 880 257 56 50 52
278 891 255 72 61 56
283 889 242 107 89 78
280 881 254 56 52 52
284 893 242 107 96 89
280 892 248 85 73 68
283 892 247 93 82 76
280 892 251 82 69 63
283 893 252 90 81 76
286 896 251 95 86 81
304 839 222 69 62 61
319 834 203 80 64 56
317 834 206 74 60 53
307 839 216 72 62 58
313 839 211 81 65 58
307 834 222 54 49 50
305 839 219 72 63 62
310 842 214 80 65 58
313 842 213 86 68 60
383 878 356 60 49 50
313 844 216 87 69 60
308 849 222 80 64 58
314 848 218 90 70 59
315 838 209 81 65 57
318 843 213 83 65 56
309 854 223 92 71 61
309 859 224 91 71 63
315 852 219 106 85 74
493 790 343 103 83 63
304 835 227 52 48 50
304 834 232 52 48 50
300 836 239 57 50 50
302 844 227 70 61 61
391 809 242 136 99 78
346 862 248 76 63 60
300 844 232 64 58 57
303 849 227 71 61 59
332 773 300 74 59 49
299 849 233 69 61 61
298 844 237 62 57 57
291 773 315 65 53 46
318 871 400 40 38 39
297 849 237 67 60 60
300 841 234 61 57 56
293 839 252 138 95 77
294 837 249 141 95 78
295 849 243 64 58 57
291 841 255 152 108 87
293 849 252 63 56 56
292 849 257 69 56 53
298 834 242 65 55 53
297 835 246 125 88 73
299 839 242 61 51 50
296 843 247 63 54 53
296 849 240 65 59 58
446 847 356 92 71 58
296 842 250 70 53 49
304 854 228 82 68 64
300 859 234 80 69 68
300 864 234 84 72 69
390 819 226 77 60 54
294 854 247 59 53 53
292 854 257 62 56 56
295 859 248 61 56 56
294 864 247 64 59 60
291 863 256 60 56 58
297 854 242 62 55 56
388 855 365 50 46 45
296 859 245 63 57 57
307 854 225 86 68 61
307 859 225 87 69 64
308 864 226 90 73 66
313 864 227 105 83 72
367 831 236 111 71 54
318 860 227 102 78 65
320 861 230 117 90 70
294 879 238 82 68 60
304 868 229 82 68 64
303 869 232 79 65 62
298 869 237 77 66 63
301 871 235 76 64 62
302 878 235 104 85 70
294 870 243 65 59 60
290 871 249 61 54 55
291 878 240 72 62 59
296 872 240 74 65 64
293 884 237 113 90 73
293 894 232 111 93 81
298 886 229 117 93 81
428 844 372 66 53 44
303 884 231 112 87 73
268 954 337 69 66 68
298 894 231 107 87 77
303 890 229 113 92 79
304 894 229 108 90 81
299 895 253 70 61 57
303 889 252 72 63 61
303 890 256 66 56 51
302 894 251 69 59 55
308 869 228 98 79 71
310 870 231 106 87 77
312 868 232 96 77 67
291 859 261 58 53 55
314 870 236 104 83 66
308 874 232 104 84 72
308 879 233 109 87 73
311 872 234 99 80 68
313 874 237 113 90 74
313 879 237 101 80 71
314 865 231 96 76 65
318 869 237 108 85 70
319 865 235 125 97 73
318 874 238 97 78 69
308 884 232 110 87 75
313 894 231 94 79 71
304 894 238 94 80 72
308 894 238 95 81 72
409 888 424 107 80 59
318 889 237 96 83 77
316 890 233 103 88 80
316 892 233 93 80 72
325 906 387 65 57 55
313 884 242 95 80 74
313 889 247 87 77 74
304 894 242 87 75 69
309 894 247 81 72 70
313 889 251 85 77 74
318 888 247 90 80 77
314 886 251 86 76 73
318 885 252 88 80 78
318 894 242 89 78 74
354 780 158 98 72 53
358 850 287 35 32 31
353 784 157 102 77 56
349 788 158 109 82 60
335 794 178 75 59 51
322 819 196 70 58 52
334 799 182 74 60 51
334 794 187 53 47 44
333 795 192 49 45 44
362 887 342 66 57 57
353 775 168 73 57 50
349 774 173 64 50 44
349 780 163 80 62 47
344 784 167 75 60 48
346 782 168 79 64 53
353 778 162 78 60 46
338 865 367 36 34 34
343 779 182 52 46 44
344 774 182 51 45 44
342 779 187 46 43 43
345 771 183 48 43 43
345 770 188 48 43 43
343 789 167 88 66 51
419 913 386 94 78 65
339 790 177 69 58 50
339 790 172 82 63 51
337 794 176 78 60 51
337 799 176 74 58 49
384 838 238 75 59 55
341 799 170 93 71 55
347 789 161 104 78 59
345 793 164 113 86 64
353 793 163 88 68 56
354 795 166 87 68 57
352 799 168 90 70 59
341 787 182 55 48 45
338 789 192 52 46 46
339 789 187 50 45 44
340 786 189 52 47 45
336 792 182 55 48 44
335 804 179 75 59 52
335 808 179 67 52 46
329 804 192 60 50 46
332 809 186 65 54 49
328 809 192 58 50 47
334 814 182 79 62 56
273 934 383 86 82 83
328 824 191 77 62 56
331 821 190 77 59 52
333 824 190 83 65 58
334 822 189 79 62 56
337 804 176 83 64 54
339 804 173 90 70 60
345 804 169 87 68 55
347 808 172 85 66 56
362 827 212 100 76 63
351 802 169 89 70 59
404 883 428 85 67 52
348 809 177 86 68 59
353 804 177 87 68 59
350 806 175 89 72 62
338 813 179 84 67 56
338 815 181 87 69 61
343 813 178 88 69 60
343 815 182 88 68 58
347 812 178 85 66 57
350 811 181 78 60 53
349 815 186 81 62 52
338 825 190 85 66 57
310 834 303 125 99 78
343 819 187 85 66 55
388 873 322 53 46 41
338 829 193 89 69 57
347 817 188 82 62 53
348 819 191 93 70 57
359 776 158 86 63 46
363 775 157 91 66 48
367 775 158 92 66 50
328 862 308 31 30 32
358 841 271 42 36 33
364 780 148 112 81 52
367 780 148 103 75 49
361 777 155 98 72 46
369 777 156 95 66 52
378 855 292 60 51 43
263 914 398 60 56 55
358 788 158 94 73 60
363 786 156 92 72 58
368 786 157 84 65 52
366 787 159 82 62 48
372 783 144 102 79 56
375 776 154 87 66 52
373 780 153 95 70 56
373 783 152 92 73 57
373 778 157 92 68 53
373 784 157 82 65 52
376 775 153 86 66 53
376 783 148 93 73 56
376 782 158 89 70 59
358 775 162 81 62 52
321 907 298 82 72 71
361 772 165 91 68 51
369 774 160 91 67 49
368 778 168 85 71 62
369 779 170 83 71 62
357 792 168 82 64 53
354 799 172 88 69 58
355 800 177 86 68 57
363 789 167 76 60 49
368 787 162 75 58 48
368 787 167 75 59 47
363 790 172 71 57 48
360 791 176 71 58 50
368 790 176 68 52 44
361 792 172 72 57 51
358 800 182 86 65 53
341 842 209 95 71 58
363 799 182 84 63 51
368 795 180 84 62 52
455 790 232 102 86 73
368 799 182 81 60 50
373 774 162 90 67 54
375 778 163 84 70 61
373 780 172 79 67 60
374 784 175 76 62 55
378 770 166 81 63 53
378 773 168 88 70 60
382 773 169 95 72 58
376 783 162 82 66 54
276 846 265 188 130 107
376 785 167 91 73 59
378 779 172 79 65 56
378 871 320 51 45 41
377 785 172 88 69 56
380 780 175 84 64 51
383 779 177 80 63 53
383 784 178 68 54 48
369 786 161 77 61 49
373 787 167 84 63 48
373 794 177 92 68 54
378 793 173 94 69 54
343 774 292 78 60 53
383 856 292 73 64 56
382 793 178 81 61 50
372 798 178 84 62 50
375 796 180 81 62 51
383 794 182 84 64 52
379 796 185 85 63 51
378 800 186 90 67 54
278 878 397 41 37 37
383 796 186 88 65 52
355 804 181 85 65 55
358 804 184 88 66 53
357 801 185 86 64 51
356 807 184 82 62 51
358 813 189 83 64 56
359 815 191 87 67 56
363 803 184 84 62 52
363 805 185 79 59 50
368 804 187 83 63 54
268 937 380 55 51 51
367 808 188 84 64 55
370 801 185 81 62 50
389 833 253 41 33 29
373 803 188 86 66 55
370 806 190 89 68 56
373 805 191 84 64 55
377 802 188 94 70 57
378 804 192 86 65 54
382 802 193 95 72 59
323 779 208 73 58 50
328 774 208 64 53 48
333 779 206 78 60 48
328 784 208 59 51 48
388 839 242 76 63 61
323 774 209 71 57 49
324 784 209 73 58 50
442 847 254 101 76 64
335 786 204 64 52 48
333 794 197 53 47 46
330 796 197 56 50 49
331 793 205 54 47 47
326 790 210 62 51 48
323 794 211 62 51 49
322 799 211 55 48 48
325 795 209 54 48 47
326 792 210 59 50 48
342 774 197 55 47 43
339 775 203 75 58 45
341 777 196 50 45 43
340 780 193 49 45 43
338 779 202 70 55 46
336 783 205 80 61 50
336 788 201 56 50 47
325 801 198 57 51 47
326 808 196 56 48 47
324 809 198 56 49 47
325 801 202 56 51 49
324 815 193 60 53 51
321 802 211 51 47 47
400 791 212 97 72 59
324 819 193 75 61 55
320 819 199 70 58 54
325 823 194 76 61 54
323 829 197 81 66 57
325 827 194 82 67 59
321 830 200 80 64 56
342 828 194 95 72 57
288 899 267 73 65 63
343 829 196 101 76 59
382 774 256 152 113 82
369 811 196 83 63 54
366 812 194 92 71 62
368 813 202 83 63 52
360 819 200 85 65 55
362 818 202 88 66 55
368 818 208 104 77 60
361 827 207 96 73 58
353 885 307 58 51 48
359 830 222 90 70 63
368 824 212 95 71 59
365 826 216 97 71 63
389 867 417 49 40 35
368 827 222 115 80 64
373 809 197 85 64 55
373 815 206 103 78 61
377 808 198 87 65 53
378 810 202 101 77 61
377 812 204 102 75 61
383 813 207 95 73 61
373 818 208 98 74 61
373 820 211 89 68 58
372 822 213 91 70 61
378 823 217 85 66 59
273 953 333 69 66 68
383 823 218 94 71 61
384 820 216 101 78 67
378 828 223 84 66 59
298 900 242 85 73 64
362 828 227 137 91 75
364 826 226 148 97 78
368 828 227 118 79 62
368 830 232 117 79 61
365 831 235 149 97 72
358 830 258 76 60 49
383 809 256 131 96 76
384 810 254 126 92 72
372 831 231 82 63 56
378 831 230 82 64 56
383 830 226 86 68 62
375 824 254 96 69 57
378 818 256 104 73 58
378 824 252 80 55 45
381 817 255 103 71 56
384 824 248 60 42 37
384 820 248 93 63 52
384 827 249 52 40 32
383 831 255 59 48 40
320 837 204 80 64 53
323 840 207 79 64 55
445 833 239 100 81 68
326 836 200 84 68 58
393 803 217 95 72 60
329 833 194 87 67 59
333 835 197 89 71 60
333 843 203 124 95 71
334 845 206 118 91 70
329 849 208 130 100 73
323 844 211 100 77 61
325 842 209 99 79 63
333 849 212 114 89 71
322 850 215 98 77 64
323 856 221 130 100 76
333 852 223 93 73 62
336 832 194 90 71 60
338 834 197 99 77 61
338 840 201 117 90 69
344 836 201 110 83 65
337 843 203 114 88 70
284 857 378 104 86 71
351 832 199 117 87 63
348 835 202 110 83 64
348 838 207 92 71 58
349 836 206 89 68 57
338 848 217 107 79 63
339 846 216 120 89 68
343 843 212 110 83 60
344 841 211 96 73 57
341 847 218 98 71 57
341 847 222 84 66 61
351 837 209 87 70 59
352 838 213 103 79 60
347 843 217 116 85 67
338 854 219 91 71 61
323 858 227 126 96 72
324 860 231 115 88 69
322 862 233 122 93 70
323 864 236 85 66 59
333 853 227 86 68 60
333 854 232 79 64 60
335 851 227 81 64 57
333 858 233 82 68 62
333 860 236 78 66 62
333 863 238 80 67 63
344 846 226 75 60 57
343 849 232 71 57 54
348 845 232 79 65 61
353 839 227 88 69 63
337 852 233 74 63 59
338 854 237 70 60 58
340 851 236 70 59 55
338 859 238 74 64 61
341 860 239 71 62 59
340 856 240 68 58 55
398 877 304 80 70 68
338 864 242 76 64 60
343 859 242 72 61 59
342 862 243 74 62 59
343 864 247 74 60 58
337 898 322 66 59 62
349 850 241 84 68 63
350 851 245 80 65 60
351 852 248 74 62 57
353 853 252 73 60 56
347 859 247 77 64 61
345 865 252 77 63 61
348 864 256 79 65 60
321 877 239 97 79 70
328 869 242 78 66 64
329 870 246 76 65 63
323 874 242 88 73 67
262 812 315 98 71 60
322 878 242 86 72 66
373 899 391 76 66 58
328 874 247 77 65 63
326 878 248 76 66 64
328 879 252 71 62 62
333 865 242 78 66 63
333 867 244 78 67 63
333 869 247 74 64 61
334 871 250 73 62 58
330 875 250 73 62 60
332 878 253 69 60 59
482 804 343 96 77 59
337 904 332 71 64 65
333 879 257 64 56 55
321 890 239 93 80 74
321 892 239 94 81 75
322 889 242 93 81 78
322 889 247 87 78 76
323 884 252 80 72 71
324 889 252 82 73 72
347 773 290 80 62 55
325 880 250 75 67 66
327 883 253 74 65 63
373 836 241 86 66 57
380 837 264 47 40 34
326 888 254 79 69 67
322 893 242 88 77 74
322 893 247 84 75 72
322 893 252 79 71 68
322 893 257 80 72 70
325 890 257 82 72 71
330 881 256 71 62 61
339 865 246 69 59 56
344 870 255 78 66 63
343 874 257 80 68 64
356 832 208 87 66 54
355 835 217 108 84 68
355 836 225 90 69 63
358 834 232 113 79 71
356 837 228 92 70 62
359 835 236 121 83 72
362 832 233 147 98 79
360 836 241 94 65 62
283 899 408 69 66 65
353 834 257 55 46 41
358 834 256 71 58 49
355 846 245 68 54 50
357 843 242 71 59 55
359 840 246 77 60 52
323 875 377 33 32 35
359 844 251 76 61 55
348 894 347 64 57 58
357 849 252 73 59 56
360 875 373 53 46 44
363 835 242 90 63 55
368 835 242 80 60 52
369 837 244 87 67 57
368 839 247 85 65 57
361 842 249 80 63 54
362 843 253 79 62 56
353 894 409 60 56 55
364 841 251 82 64 57
364 844 257 77 62 57
361 847 254 75 61 56
368 841 252 82 65 58
368 841 255 83 68 61
373 832 233 80 60 54
370 832 234 78 59 50
373 834 237 80 60 53
378 834 237 83 64 56
373 838 247 84 67 58
374 840 255 77 62 58
378 835 242 81 64 55
380 837 244 70 54 49
382 840 256 61 46 41
354 872 254 83 69 66
289 897 233 96 80 66
289 898 237 95 80 71
288 899 247 92 80 73
288 899 252 89 78 74
288 898 257 87 77 74
293 898 232 103 85 71
298 878 408 41 39 40
298 899 232 100 81 68
293 900 247 75 62 54
293 899 252 77 66 58
298 898 251 77 68 65
311 897 229 95 80 73
309 898 237 92 79 69
313 898 242 88 77 71
310 897 247 77 68 64
310 898 252 70 61 58
313 897 252 82 72 68
316 897 242 90 80 76
317 897 247 86 77 72
385 776 175 85 67 55
392 772 174 79 62 50
374 860 338 66 57 48
388 779 181 85 65 52
385 784 180 72 57 48
343 864 302 44 39 35
392 777 179 93 69 55
391 783 183 93 66 52
399 775 186 85 65 55
395 776 180 102 74 60
407 867 375 58 49 43
396 778 183 107 78 60
278 877 394 55 47 42
395 780 186 96 71 58
393 784 187 93 69 57
394 785 191 81 62 52
397 778 187 86 64 55
385 789 180 75 58 49
386 793 183 85 63 50
388 794 187 85 63 50
384 837 263 39 33 30
385 794 190 84 63 47
401 772 184 84 66 55
403 774 192 89 66 55
394 773 208 62 46 35
389 774 213 57 42 34
388 774 217 82 59 41
389 779 217 69 51 39
393 777 214 62 48 39
389 779 222 105 74 49
393 784 218 68 52 41
390 784 222 83 59 43
398 775 211 65 51 41
398 778 214 66 52 41
394 794 197 80 62 55
392 798 198 88 67 58
395 790 197 81 63 53
395 791 200 79 62 55
397 794 207 86 64 53
396 797 204 87 65 58
390 788 219 68 51 42
316 932 328 84 75 74
392 789 219 75 58 46
390 794 222 76 55 42
393 798 219 92 69 56
399 789 217 82 60 47
397 789 221 75 56 42
394 800 212 84 64 56
398 794 212 94 69 58
398 798 213 89 67 56
394 794 221 81 59 46
396 793 220 78 56 44
349 890 327 71 62 59
406 772 194 98 71 56
406 773 197 107 78 60
301 836 336 123 97 70
422 857 362 97 76 62
403 770 206 61 47 33
273 870 390 136 109 86
406 774 202 105 79 59
406 774 206 91 68 51
401 777 193 89 66 54
401 782 199 89 68 56
404 780 201 95 68 54
402 783 202 90 66 53
309 844 317 128 101 79
406 778 202 108 79 62
405 780 207 106 78 61
401 780 215 69 52 38
402 788 207 90 65 54
401 788 215 90 66 49
402 795 211 82 61 53
402 796 209 81 60 54
305 872 363 52 46 41
390 774 232 137 98 67
389 774 237 141 101 71
389 779 227 128 90 60
391 781 228 128 91 61
391 784 227 125 87 59
389 779 237 137 99 71
388 784 247 145 109 80
468 824 353 91 75 59
387 774 247 151 111 80
343 860 292 38 34 32
388 779 247 151 112 82
388 779 242 143 104 76
386 784 255 150 113 84
391 789 237 137 98 70
390 788 238 138 98 71
390 793 227 101 70 52
390 794 230 123 86 63
273 819 342 146 117 93
392 794 237 132 94 69
398 800 227 86 64 52
390 789 242 134 98 72
391 791 246 133 99 73
392 799 242 126 92 68
391 799 246 126 95 70
387 794 256 137 104 76
298 944 367 53 49 47
387 799 256 132 101 75
438 859 297 88 74 65
389 799 252 130 99 73
387 803 202 85 63 56
388 804 207 89 68 59
390 801 205 91 70 61
387 809 212 83 65 57
392 803 212 83 63 55
391 808 223 95 70 57
385 811 210 86 69 59
308 854 342 109 87 66
389 814 222 85 65 58
396 802 214 89 67 55
397 802 216 92 67 56
386 818 218 87 68 59
392 803 226 98 72 56
390 804 230 114 80 62
391 804 232 125 87 67
390 809 227 98 70 57
392 804 237 135 96 73
391 812 224 94 70 60
390 809 235 131 91 75
391 814 237 104 73 61
396 800 224 98 73 56
391 804 246 127 95 73
390 809 248 130 97 75
386 807 255 129 97 74
390 816 243 112 79 63
390 822 239 55 41 35
386 827 224 86 65 57
388 829 227 86 68 59
391 828 229 76 61 54
396 830 238 90 76 79
392 825 240 64 52 43
389 827 243 53 41 36
398 883 327 74 62 60
393 828 242 65 54 46
393 829 247 61 51 46
393 831 250 57 48 39
398 830 247 86 70 58
398 831 250 100 89 79
307 942 361 66 61 60
408 831 257 93 82 76
409 831 252 145 134 138
443 831 241 100 81 67
388 832 228 91 72 63
343 867 336 36 34 34
388 834 232 87 70 63
392 833 233 81 64 55
266 909 269 80 70 66
388 836 235 84 69 64
388 838 237 78 63 59
393 838 242 81 64 59
382 871 320 50 45 41
388 840 247 77 66 64
263 828 348 143 77 88
384 870 329 53 46 41
393 840 247 75 60 52
261 832 311 92 55 47
393 833 253 60 50 42
393 835 257 56 47 39
385 842 252 69 56 55
367 862 340 62 54 47
359 888 403 50 45 43
273 923 391 92 88 89
393 841 251 78 63 53
393 844 257 84 70 60
434 856 333 94 74 57
398 838 242 83 71 65
398 834 257 92 82 72
267 840 266 186 128 103
398 843 257 91 71 65
403 834 247 142 127 127
401 837 244 81 65 57
408 834 252 168 156 159
370 794 269 153 116 90
407 838 253 167 149 158
408 839 257 191 175 188
400 841 255 107 91 87
403 842 257 169 156 157
404 841 255 166 153 154
412 833 252 196 190 203
412 833 257 139 125 130
440 836 252 113 92 86
290 859 263 58 54 55
438 839 257 78 64 52
431 848 370 72 55 46
434 844 257 100 82 73
436 845 255 103 83 74
438 849 256 93 70 58
439 847 254 95 73 63
444 834 241 100 82 68
442 835 247 105 86 77
445 837 244 101 82 69
448 838 247 105 86 72
443 839 252 117 95 87
463 804 247 84 83 82
443 839 257 95 75 61
444 844 257 108 87 75
464 779 224 98 88 79
466 790 224 100 88 81
463 780 225 99 88 78
463 784 226 101 89 79
455 793 227 104 88 75
458 789 226 103 87 75
463 788 230 101 86 75
456 789 234 102 86 74
456 789 237 104 87 73
353 824 267 36 31 30
458 794 227 102 87 77
458 798 228 99 86 77
462 794 228 101 87 76
462 796 235 100 85 74
467 784 228 103 92 83
470 780 231 95 86 78
473 775 232 87 84 81
491 820 268 109 87 69
468 788 232 99 86 77
471 795 225 97 88 83
468 799 237 99 87 77
318 919 312 84 74 73
454 807 234 107 94 83
454 815 237 102 85 71
458 804 232 101 88 77
464 803 229 97 82 68
458 805 236 99 83 70
463 804 236 101 83 65
462 809 237 102 84 67
454 814 242 101 85 71
379 809 258 135 98 78
454 813 247 83 83 83
454 812 250 83 83 83
458 810 240 110 94 79
363 884 372 59 50 50
463 814 247 95 85 78
461 810 250 93 85 78
452 824 233 100 88 77
455 819 236 96 83 71
451 827 234 99 87 75
458 824 237 97 84 71
457 828 238 93 81 69
455 830 240 90 77 64
461 818 241 94 82 70
464 824 248 106 84 60
483 811 264 101 87 76
465 829 248 113 88 58
466 810 238 96 80 63
470 809 242 83 83 83
471 811 245 83 83 83
464 819 246 96 85 75
468 824 248 104 84 61
471 820 242 102 82 60
267 936 310 87 79 77
348 862 352 47 42 40
469 824 251 101 83 64
472 819 247 91 83 74
468 823 258 88 84 80
468 829 248 108 85 58
464 830 251 107 85 60
468 830 258 112 90 69
474 825 257 83 83 83
452 832 238 88 73 58
452 833 241 94 79 67
433 839 352 68 55 49
461 837 253 126 93 71
471 832 253 104 88 72
274 779 319 65 51 45
273 784 318 65 51 44
260 796 319 88 72 62
264 794 318 75 61 53
273 789 316 64 51 45
268 794 317 65 53 46
279 775 319 64 52 43
280 771 319 65 53 42
283 774 317 64 51 43
288 774 315 65 52 44
283 779 316 65 51 44
285 780 314 65 51 43
287 777 315 65 52 43
288 784 313 57 46 42
278 789 315 58 47 43
277 798 315 115 87 72
278 799 313 147 106 83
283 789 314 48 41 40
288 789 313 81 64 57
283 794 313 127 93 75
288 794 311 152 109 89
287 798 310 161 113 89
258 827 259 201 144 120
258 830 261 198 138 115
283 850 375 155 117 98
263 828 258 196 139 114
262 830 260 195 136 112
258 804 318 63 52 48
258 809 317 54 46 45
367 882 298 61 53 53
263 804 317 49 42 41
263 809 316 75 56 51
263 814 312 119 81 65
258 815 313 77 57 49
268 804 316 88 67 58
267 808 315 133 98 80
272 803 315 128 99 79
290 857 374 133 101 79
273 804 313 156 111 90
273 813 310 164 117 96
258 829 303 150 101 77
258 818 311 102 75 59
258 820 308 118 82 65
258 823 306 135 95 74
263 824 307 145 101 77
263 820 318 70 49 36
263 824 312 103 73 56
262 829 307 135 94 74
257 829 316 100 72 54
259 830 314 99 67 49
365 846 260 79 66 59
264 816 309 128 89 69
258 923 298 85 75 73
266 822 312 106 75 57
268 819 317 75 56 41
273 819 317 106 81 59
354 846 280 33 31 31
278 814 309 150 106 80
289 799 309 160 110 87
288 804 308 159 110 87
288 809 308 157 115 87
283 814 308 136 99 73
278 818 309 117 85 62
278 819 312 104 79 58
278 819 317 108 82 63
283 819 312 104 81 58
288 819 312 102 80 56
288 821 316 101 82 60
285 822 318 90 71 48
288 822 318 101 80 55
289 776 314 66 53 45
294 770 314 66 53 47
320 877 354 41 37 35
293 779 312 64 52 46
293 784 312 46 40 40
303 774 311 68 54 46
298 779 310 65 53 46
298 784 310 45 40 41
302 778 310 67 53 45
304 780 309 62 50 44
304 795 304 162 109 89
290 796 309 158 111 89
293 799 307 160 108 87
300 785 309 78 65 59
300 799 304 159 108 87
308 784 306 67 57 53
313 779 306 66 52 46
318 774 306 71 56 49
315 780 304 64 51 46
317 777 305 70 56 49
320 776 304 72 55 50
313 789 303 162 116 96
308 799 301 162 112 87
313 794 301 166 116 95
312 798 300 165 116 94
318 789 301 150 111 92
315 796 299 169 119 96
317 793 300 167 116 94
318 799 297 166 116 92
298 809 303 150 110 86
303 804 303 162 116 93
303 809 302 150 109 83
299 813 304 130 98 70
293 804 306 162 112 89
358 819 267 66 51 43
293 809 306 157 112 87
293 814 306 128 97 69
297 804 305 158 109 87
297 815 305 124 96 67
302 816 305 126 97 69
298 818 308 121 95 68
303 824 312 132 105 76
304 823 309 135 104 77
298 825 316 128 102 75
302 829 316 133 106 76
383 851 270 83 68 62
304 829 313 135 106 79
307 804 300 154 108 84
309 809 299 149 106 84
307 814 301 142 104 79
313 814 296 146 109 87
317 803 295 160 110 88
318 809 293 145 103 81
273 818 322 95 74 54
273 816 328 93 76 58
316 807 295 148 103 82
336 792 290 68 53 48
315 810 294 144 105 82
263 819 322 84 66 50
318 814 292 140 105 84
310 818 299 138 103 81
313 819 296 139 107 85
310 822 299 138 107 82
312 824 297 136 107 84
310 824 302 137 107 81
307 820 305 137 104 79
307 824 306 138 104 80
257 778 325 96 77 64
257 844 297 173 118 90
258 784 323 95 76 65
260 776 324 94 76 63
363 889 402 51 46 44
265 770 324 81 63 54
268 774 322 75 58 49
273 774 321 66 52 44
393 884 317 75 67 66
268 779 321 75 59 51
272 778 320 67 53 46
257 798 320 88 70 61
262 793 320 87 71 60
277 773 320 63 52 43
268 816 328 90 74 58
273 815 337 118 98 78
263 817 326 91 74 55
263 816 328 90 74 57
258 824 337 141 103 83
382 846 280 41 35 30
259 825 342 110 46 53
257 829 342 143 55 78
293 910 282 79 72 70
260 831 350 148 134 124
267 822 344 112 87 65
268 824 347 113 56 59
273 822 344 128 102 77
268 830 351 133 97 98
277 816 337 117 96 74
278 819 322 105 79 52
279 817 332 106 86 65
284 823 322 101 80 56
284 822 326 108 86 62
336 867 367 35 34 35
288 823 327 113 91 66
282 820 337 124 100 76
286 821 329 114 92 67
286 821 332 116 94 68
288 824 337 119 95 69
274 828 349 128 66 71
284 831 350 123 100 75
288 829 347 119 97 75
288 831 350 120 98 74
295 827 327 118 94 68
297 830 327 120 94 66
297 830 332 120 96 69
291 826 340 117 94 69
293 829 342 118 95 71
292 830 346 117 96 73
262 836 265 189 130 104
263 843 272 184 124 98
269 833 259 194 136 109
269 838 263 187 129 104
373 873 327 48 43 39
272 836 260 189 132 108
273 839 262 189 131 108
264 842 269 183 124 100
269 843 268 185 127 103
271 841 265 188 129 103
273 845 266 187 129 105
269 848 273 185 127 102
260 842 274 183 122 96
258 844 282 193 131 102
277 870 281 99 74 61
257 845 287 196 135 103
259 848 287 193 134 101
261 846 280 188 127 99
264 854 287 187 133 99
271 851 275 188 132 105
274 854 273 182 129 105
266 851 280 190 137 107
267 854 282 186 135 104
266 856 285 183 131 101
269 859 282 178 131 100
267 864 287 172 126 98
269 864 283 158 118 92
278 844 262 188 131 106
281 841 260 186 133 109
283 845 261 180 129 104
284 848 263 179 129 103
287 846 260 163 117 93
288 849 262 140 98 81
333 863 302 34 32 32
276 851 270 181 126 104
286 851 265 165 119 95
275 863 279 146 111 85
388 856 297 54 47 41
278 864 278 129 97 76
281 864 276 97 70 60
259 834 302 155 105 81
257 839 298 160 107 80
258 839 302 160 109 85
257 845 292 185 125 94
259 849 292 181 123 91
257 844 302 159 110 83
258 834 312 111 75 58
256 838 310 126 86 65
309 839 312 128 100 77
261 832 307 118 77 62
256 847 305 120 79 55
259 854 297 164 114 85
261 856 295 180 129 98
257 859 301 178 133 103
257 864 302 181 136 107
266 865 290 166 120 92
269 869 287 152 115 90
272 870 286 134 103 80
272 878 277 47 43 43
273 878 282 52 46 46
264 889 272 59 54 55
262 894 272 69 63 62
272 884 262 68 61 62
269 889 262 86 75 72
271 888 260 86 75 72
267 883 272 54 50 51
273 879 267 58 54 56
271 882 266 63 58 60
274 893 258 80 68 64
348 849 282 36 32 30
278 879 262 56 50 52
266 893 265 88 75 71
262 889 277 53 49 49
264 885 277 49 46 46
261 888 287 50 45 46
264 885 287 47 43 44
260 890 283 52 48 49
257 894 287 54 48 48
267 883 277 48 45 45
270 881 282 48 42 44
275 875 272 52 47 49
263 922 391 53 49 48
278 874 267 55 49 52
288 864 262 58 54 58
286 868 261 60 55 60
276 874 285 90 68 59
281 868 276 73 57 53
274 881 263 60 54 55
262 869 296 144 112 84
260 869 299 157 120 91
260 879 299 126 101 79
268 874 292 131 102 79
265 873 294 134 104 77
257 884 300 105 76 54
257 893 292 63 53 52
290 847 259 123 83 72
291 854 261 64 54 55
303 834 317 132 104 76
312 834 297 119 96 77
310 837 304 120 95 75
315 837 294 114 94 74
317 839 292 104 86 67
295 853 369 137 103 79
316 840 295 109 90 71
320 842 289 67 56 44
316 844 296 99 82 65
318 849 297 61 52 44
373 854 352 48 43 39
423 836 362 56 47 38
314 844 298 107 89 71
313 844 302 112 92 73
309 925 306 67 59 62
315 847 299 99 83 66
307 834 312 134 104 79
309 834 307 128 101 77
305 833 314 134 105 79
408 912 392 77 63 52
306 836 315 134 105 79
305 838 318 132 104 75
310 842 309 116 90 72
311 845 311 111 88 70
383 885 317 71 65 65
397 900 396 62 53 46
310 847 314 116 92 74
317 850 301 69 59 49
314 854 307 83 70 58
273 844 371 147 112 93
315 852 304 79 67 56
313 854 312 84 71 58
314 859 307 55 48 42
314 859 312 61 53 46
319 861 310 31 30 32
313 859 317 63 55 47
318 864 317 33 32 33
303 894 262 65 58 54
299 895 266 70 63 61
302 895 266 68 62 59
318 895 272 70 64 64
256 832 343 125 72 77
268 870 390 140 113 90
263 832 353 118 88 80
273 833 352 102 84 76
283 833 352 117 94 71
258 836 362 89 75 61
261 836 365 76 62 44
264 837 364 82 68 53
268 833 357 95 59 50
273 834 357 85 63 50
263 843 368 127 97 75
268 843 368 116 92 71
263 845 370 134 106 83
347 899 377 67 59 60
319 915 378 65 58 55
268 845 371 140 109 90
272 842 369 127 98 76
300 936 374 54 49 45
273 849 373 148 109 94
258 854 373 134 103 84
259 861 380 79 68 60
262 862 384 95 84 74
267 853 374 110 84 72
278 836 360 94 80 66
288 835 357 113 92 68
283 839 367 124 97 73
278 844 372 151 114 96
283 841 370 137 104 82
283 844 372 148 112 91
288 844 371 144 109 84
288 849 373 146 108 84
274 851 375 126 91 77
274 856 380 114 96 81
278 859 382 112 97 83
287 855 375 138 106 85
280 857 379 93 80 68
288 859 377 122 97 76
286 861 380 113 94 76
300 833 323 124 97 68
301 836 326 123 97 69
304 839 322 128 100 72
366 857 352 68 60 54
303 839 327 124 98 70
299 833 332 122 97 69
299 834 337 121 96 68
312 923 308 67 60 62
293 834 352 120 97 72
300 837 338 124 99 72
302 839 342 126 101 72
298 835 347 125 100 73
301 840 347 130 104 75
301 841 350 132 105 77
302 844 352 134 106 79
303 849 352 132 104 78
305 842 324 128 99 73
306 845 327 124 96 73
305 843 332 121 96 69
306 845 332 120 95 70
307 849 337 118 93 70
305 847 338 122 96 71
305 848 342 126 100 74
311 850 320 113 92 72
308 854 332 110 88 68
312 859 322 74 63 54
312 860 332 91 76 62
273 923 288 90 81 81
314 863 332 67 59 53
306 851 345 123 97 73
305 853 348 121 96 71
304 854 352 125 99 74
311 856 341 98 81 64
311 859 342 86 71 56
307 859 347 99 80 60
306 860 351 109 87 64
310 863 344 77 65 53
318 864 337 46 43 42
292 836 356 116 94 69
295 837 354 124 100 72
293 839 362 125 101 74
294 849 368 138 106 81
300 843 354 134 107 78
296 841 360 133 108 81
291 845 370 141 108 83
302 854 357 131 102 77
303 864 362 111 88 67
301 860 365 124 94 73
291 860 375 123 96 73
293 864 377 114 92 70
294 863 373 118 91 69
296 860 370 127 96 74
297 864 371 112 87 66
309 868 353 75 63 52
310 867 349 78 66 55
316 912 298 76 68 68
317 866 345 65 55 44
314 873 352 54 48 44
318 872 349 49 43 38
318 874 352 43 39 36
296 866 375 100 81 61
298 870 377 71 61 51
302 871 382 43 40 38
303 940 322 89 82 82
297 872 383 46 42 40
308 869 357 68 58 47
311 871 356 58 51 44
309 872 359 48 43 38
313 874 357 47 43 40
308 873 362 44 40 37
313 875 367 36 34 35
318 876 357 39 36 36
318 877 367 33 32 33
305 872 382 39 37 36
318 875 377 34 33 35
343 784 287 76 58 52
349 775 288 80 63 56
347 783 285 77 59 54
351 778 285 81 63 58
338 794 287 70 55 49
344 794 283 73 57 51
342 793 285 71 55 50
343 799 282 74 58 50
437 891 433 103 85 67
342 797 285 73 57 50
351 789 280 72 57 49
350 794 279 72 57 49
349 800 278 70 55 49
353 799 276 69 54 47
348 794 281 73 57 51
347 798 280 72 57 50
323 774 303 74 57 50
323 779 301 71 56 48
328 784 296 69 54 48
333 784 293 72 55 48
358 864 372 38 36 36
334 780 294 74 57 49
322 773 305 73 57 50
324 771 304 74 58 49
329 794 293 83 64 58
333 789 292 67 53 47
329 789 294 50 42 41
333 794 291 49 40 39
338 774 296 76 58 50
336 778 295 75 59 50
336 789 290 70 54 49
275 891 410 51 48 48
323 814 288 133 96 77
334 811 284 46 39 36
333 829 273 32 29 29
323 824 287 120 95 78
325 821 284 120 92 76
329 829 277 89 72 58
324 829 283 104 84 68
333 819 281 79 60 51
332 828 276 53 43 38
330 831 274 63 52 45
335 826 274 31 29 30
336 808 285 37 34 36
343 804 281 73 57 50
343 809 281 71 55 48
339 816 279 63 52 46
348 804 278 68 53 48
352 804 276 65 52 46
348 814 276 59 48 43
323 839 282 52 43 34
353 814 272 50 42 39
338 825 273 37 33 31
344 826 269 38 33 32
344 830 263 32 29 28
348 819 272 50 42 38
350 821 269 46 38 34
354 820 269 39 33 32
348 830 262 32 29 28
353 828 261 32 28 29
350 831 259 28 27 28
347 827 266 37 32 30
338 819 277 46 38 36
343 819 276 55 44 39
347 817 275 57 46 41
323 804 293 158 113 90
321 802 295 162 114 92
323 809 291 149 104 83
328 804 291 158 116 94
329 805 289 156 116 95
321 820 290 134 104 84
358 774 282 82 65 57
356 772 285 84 66 59
354 784 279 75 58 51
358 780 279 76 58 51
358 784 278 72 56 48
357 778 280 78 61 54
364 774 278 67 54 48
363 779 277 55 46 43
363 784 276 48 41 41
366 779 275 69 53 47
368 784 272 150 108 84
366 782 275 85 62 52
368 794 271 150 113 87
363 799 272 108 84 69
367 799 270 151 117 92
362 789 275 43 37 39
378 910 392 65 53 50
363 794 273 89 70 60
361 792 275 41 38 40
371 774 271 164 116 88
433 867 292 95 81 70
374 774 267 159 114 83
373 779 267 159 115 85
381 780 260 153 115 85
288 898 262 68 59 56
370 789 269 154 114 87
373 789 267 156 116 87
373 794 267 154 116 90
375 794 264 154 117 91
378 789 262 154 116 88
381 794 260 146 111 84
393 880 338 68 57 53
376 798 265 153 116 91
357 813 270 47 39 37
363 804 271 120 94 76
358 804 273 50 43 41
363 814 267 117 88 70
367 814 265 129 95 75
369 814 263 125 92 71
355 805 274 61 50 44
358 824 263 75 57 46
358 828 261 73 56 46
363 820 263 104 75 59
363 829 258 65 45 37
364 826 259 97 71 58
363 830 260 54 40 33
368 825 258 101 73 60
368 828 258 60 41 34
368 831 261 45 37 33
373 809 263 140 104 82
372 803 265 151 115 92
380 806 259 142 105 82
376 809 260 138 102 81
381 803 260 143 108 83
376 813 260 124 89 69
377 831 260 52 42 33
325 835 279 70 57 44
327 834 277 66 54 43
325 837 279 45 37 30
326 832 280 92 76 61
323 862 313 31 29 31
328 840 282 35 31 29
329 834 273 49 40 34
334 837 273 29 27 29
331 841 285 32 29 29
334 842 284 32 29 28
343 834 262 29 27 28
340 837 268 27 26 26
340 835 264 27 25 26
343 840 272 28 26 27
348 834 258 31 29 29
347 832 261 31 29 28
348 839 262 32 29 28
353 838 258 61 50 42
263 899 406 55 52 51
348 840 267 30 28 27
353 840 267 37 32 30
347 841 271 30 29 28
348 842 273 34 30 29
353 843 273 32 29 28
338 840 277 29 27 29
342 841 276 28 26 27
339 848 288 33 31 30
343 845 281 31 29 29
341 846 285 32 30 29
342 849 286 35 32 30
346 846 280 33 30 29
353 848 282 37 34 33
353 864 257 79 65 61
263 908 401 67 63 62
339 854 288 37 34 33
344 854 284 35 33 32
343 857 284 34 32 31
353 850 286 36 33 33
352 853 288 37 34 32
358 879 282 72 61 60
347 858 288 41 35 32
323 845 292 36 31 30
323 847 294 34 31 29
330 847 289 32 30 29
327 855 301 32 30 30
334 858 298 33 31 31
332 860 301 32 31 32
335 862 299 37 33 33
323 860 307 32 30 32
323 861 311 31 30 31
333 864 312 32 31 33
337 854 292 33 31 30
498 799 347 102 86 71
338 859 292 40 36 34
342 862 294 38 34 32
353 855 292 36 33 32
348 860 297 44 38 33
351 857 293 37 33 30
346 862 302 40 35 31
343 864 307 39 35 33
347 862 307 32 30 29
349 861 307 31 30 30
328 889 262 80 71 70
323 892 267 68 61 60
328 890 267 84 74 72
331 882 259 68 59 59
330 884 260 72 64 63
334 885 266 85 72 69
333 888 267 86 73 70
335 886 270 88 75 72
392 870 417 55 45 42
334 890 276 89 75 72
333 894 282 88 75 73
334 894 287 82 71 70
338 878 258 75 64 62
341 878 259 85 72 67
344 875 261 81 68 64
348 872 259 80 67 63
348 874 262 79 66 64
348 875 266 76 65 63
345 876 266 79 68 66
347 878 268 78 66 64
353 874 267 76 63 62
338 886 270 88 73 70
343 884 272 84 71 68
338 888 277 87 73 70
419 845 370 56 44 37
343 885 277 80 68 65
342 887 279 80 68 68
350 881 275 74 61 59
348 887 282 75 64 63
348 888 287 70 60 60
354 886 286 67 57 56
334 895 298 69 60 62
334 895 306 74 66 68
338 865 312 37 35 35
338 865 317 34 33 33
350 867 318 39 35 34
343 888 302 66 57 58
353 887 292 54 47 46
346 887 301 62 52 52
353 886 302 57 49 47
339 890 307 70 62 63
340 891 311 67 60 61
338 894 312 72 64 66
343 889 312 67 59 61
323 873 387 36 35 37
339 894 317 71 64 66
343 890 317 63 56 57
346 887 308 63 54 53
349 886 312 62 54 54
363 834 262 41 34 30
363 840 272 49 42 38
363 849 261 77 64 59
358 844 277 36 32 30
362 842 274 46 40 35
368 844 277 54 47 41
363 848 283 48 43 39
357 853 259 73 58 54
363 854 262 73 62 59
368 854 267 71 61 57
363 859 267 74 63 62
359 865 267 70 61 60
362 863 272 73 63 62
364 860 271 72 62 61
366 857 269 69 59 58
368 859 272 68 58 56
368 850 287 35 32 31
366 862 274 71 62 60
373 840 271 51 43 37
447 857 274 103 82 76
373 846 261 72 58 55
379 832 258 68 57 45
378 834 262 52 43 34
383 835 261 40 35 30
383 839 267 39 34 31
376 847 264 86 74 73
378 849 267 71 60 58
382 847 264 72 58 54
378 844 277 37 33 31
383 842 273 39 34 31
383 845 277 48 41 35
384 848 279 77 66 56
383 849 281 71 61 51
373 853 268 70 59 56
383 853 273 82 67 61
372 858 274 66 57 57
377 851 285 40 34 31
378 853 287 57 48 40
380 854 282 73 59 49
383 852 283 79 67 56
378 860 281 87 68 58
377 863 283 91 70 59
378 864 287 91 71 61
388 898 392 86 72 60
354 856 297 33 31 31
359 856 301 34 32 32
363 855 297 38 35 33
366 851 290 34 31 30
368 855 296 35 32 30
365 857 299 36 32 32
369 857 298 38 34 31
368 860 302 41 36 34
358 859 307 35 32 30
356 861 310 36 33 31
359 862 309 42 37 33
362 862 309 48 43 39
368 861 307 48 42 39
368 863 312 43 38 35
433 918 397 86 70 55
369 852 289 35 33 32
373 855 292 39 35 32
373 856 295 44 38 33
378 856 297 64 55 47
383 856 302 62 54 48
382 857 303 62 55 48
369 862 306 45 40 36
371 862 306 47 41 36
373 863 313 43 39 38
383 858 307 47 41 38
378 863 313 58 51 47
378 865 316 60 54 49
383 865 417 58 47 38
298 948 342 90 84 85
355 870 261 75 64 62
356 868 258 74 63 59
355 871 267 75 64 62
360 865 272 69 61 62
359 869 277 67 60 60
416 867 336 68 57 48
358 873 278 69 59 58
355 879 280 70 60 59
360 866 276 72 64 64
363 868 278 70 61 60
366 867 279 72 62 61
364 871 285 69 61 63
339 877 404 38 36 35
362 874 282 66 59 59
364 874 286 67 59 60
361 878 283 65 58 58
357 883 283 69 59 59
358 884 287 66 56 57
358 868 317 44 39 37
358 866 315 49 44 41
368 865 315 42 38 36
368 869 317 38 35 34
358 886 302 58 48 48
362 883 292 63 57 58
369 880 297 71 60 59
363 884 302 59 52 53
368 883 302 66 57 54
358 886 312 57 49 46
358 886 317 67 58 54
363 885 312 67 58 53
368 885 312 62 52 48
363 885 317 71 61 57
368 885 317 54 46 41
374 871 290 93 71 63
372 872 289 87 69 62
373 874 292 87 70 63
380 866 290 85 69 66
382 868 293 83 67 67
283 883 408 44 43 44
384 865 296 75 63 66
373 869 317 46 42 39
378 868 318 55 49 45
378 880 307 65 54 53
383 878 307 67 57 57
304 946 347 72 65 66
372 882 303 74 63 59
383 881 310 62 55 54
323 864 322 32 31 32
343 864 347 38 36 34
343 864 352 40 37 35
353 862 347 52 46 42
352 862 350 54 48 44
343 864 362 40 37 36
350 861 353 54 48 44
350 861 357 50 45 41
348 863 367 34 33 33
351 862 364 34 33 34
328 865 322 31 30 32
325 867 330 32 32 33
328 866 332 32 31 32
333 866 337 33 32 33
328 866 342 34 34 35
320 867 344 60 52 47
321 867 344 52 47 43
323 869 347 45 41 38
328 869 352 37 35 35
323 874 352 39 36 35
333 866 342 34 33 34
333 868 352 37 36 35
337 866 326 32 31 33
340 867 324 35 33 33
336 866 333 34 32 33
348 869 327 40 37 34
282 904 271 82 74 73
353 870 327 39 35 33
348 868 332 38 35 34
348 867 336 38 35 34
353 867 335 39 36 35
338 865 342 34 33 34
286 908 273 86 79 78
343 865 342 36 34 34
357 893 377 61 53 50
348 865 342 40 37 36
353 866 338 41 37 36
344 891 321 60 53 55
344 895 332 71 62 63
346 892 324 67 58 57
346 892 327 74 65 64
349 891 332 69 60 58
347 893 332 70 61 60
347 893 337 70 61 62
350 891 337 69 59 60
353 889 337 68 59 59
348 893 342 65 57 58
353 890 342 69 60 61
353 893 352 68 60 61
321 877 354 42 38 35
328 872 362 37 34 34
334 870 356 38 36 35
323 875 372 32 32 35
323 874 382 35 34 36
333 873 382 32 32 34
339 866 362 39 36 36
343 868 373 33 31 33
343 871 380 32 30 32
346 867 374 33 32 33
348 869 377 33 32 33
349 866 375 35 33 35
353 866 375 36 35 37
347 871 380 32 31 32
353 873 379 36 33 32
353 875 382 46 41 39
353 893 357 70 61 62
343 896 375 60 52 53
353 893 372 67 60 60
358 863 342 51 46 42
358 860 347 64 57 51
363 865 338 51 45 41
363 861 343 64 57 50
368 860 342 67 58 51
368 864 337 57 50 44
363 859 347 69 61 54
363 858 352 73 64 57
360 861 344 61 54 49
306 942 333 87 80 81
368 856 352 57 48 44
377 863 335 61 53 46
384 860 334 61 53 46
374 856 343 70 60 52
370 856 348 72 63 54
373 855 347 71 62 53
373 858 342 69 59 51
378 854 342 67 58 50
358 861 366 38 34 35
357 862 368 37 34 35
366 857 357 33 32 33
363 860 367 41 38 38
373 854 357 36 34 34
383 850 357 38 35 35
384 851 360 39 36 34
428 859 292 90 75 62
383 854 362 41 38 37
383 864 368 49 43 40
358 870 322 39 36 35
363 870 322 38 35 34
363 869 332 42 39 36
367 867 335 50 45 40
368 872 323 44 40 37
369 872 326 44 40 37
358 865 338 44 40 37
358 886 322 73 63 59
363 886 327 61 51 46
361 887 329 67 56 52
364 886 336 64 57 56
368 886 332 63 55 52
366 887 383 54 48 45
358 889 342 70 62 62
355 891 352 68 59 61
298 948 362 59 55 54
362 887 347 64 55 56
368 884 347 62 52 53
368 883 352 60 51 50
374 872 330 49 43 39
378 871 329 52 46 41
383 868 331 55 48 43
383 873 322 50 45 41
375 887 323 61 54 49
383 886 327 76 66 62
378 886 332 70 59 56
373 884 342 62 52 52
378 883 342 61 51 50
383 881 343 60 50 48
383 882 341 63 54 50
377 882 346 60 50 50
380 881 344 57 49 47
363 879 367 58 49 48
368 875 368 54 47 43
367 878 366 54 47 44
368 879 362 59 50 48
356 866 375 38 36 37
359 868 374 40 37 36
360 879 372 63 54 52
360 879 377 63 55 52
354 877 383 54 48 45
368 869 371 51 45 41
368 874 372 54 46 42
358 889 357 73 63 62
355 891 363 66 57 60
364 885 357 74 64 63
365 881 364 55 47 44
358 889 372 59 50 51
355 891 370 64 56 58
358 894 382 60 52 49
363 881 377 65 57 56
362 887 373 55 46 46
366 883 373 59 50 48
367 884 377 56 50 48
368 881 384 54 49 48
369 880 358 72 62 59
373 875 367 56 48 43
372 877 361 64 54 52
374 876 362 66 56 54
452 924 406 94 80 66
378 875 357 58 47 49
473 823 332 104 79 67
377 878 355 61 49 51
384 875 353 61 51 54
372 865 370 46 42 40
373 869 371 51 45 41
373 874 371 58 50 45
373 877 376 50 42 39
378 869 370 51 44 40
384 877 371 65 56 50
371 882 355 58 48 49
266 862 384 75 69 66
268 864 387 120 102 86
274 861 385 86 76 68
273 864 387 124 106 92
277 861 385 96 83 73
408 838 357 44 38 34
278 864 386 123 104 88
260 871 390 136 107 84
257 872 389 133 106 83
258 879 393 135 107 87
259 880 395 126 99 82
268 868 389 142 116 94
273 874 392 115 94 75
268 879 397 82 68 59
273 878 397 57 50 46
256 882 394 126 99 83
258 884 397 87 70 61
257 887 399 51 42 42
262 883 398 71 58 51
263 885 401 43 39 38
262 888 403 41 38 39
278 939 312 90 84 84
257 893 404 42 40 41
259 894 405 42 40 41
273 880 401 39 37 37
273 889 408 48 46 46
272 894 409 51 48 48
278 869 388 133 109 87
277 871 390 129 105 82
278 874 391 98 81 67
283 869 387 108 88 71
288 870 386 78 66 55
280 872 389 114 94 73
283 872 389 89 75 62
288 874 392 41 38 37
288 875 397 37 36 37
278 880 402 39 37 37
285 876 400 39 37 37
274 894 410 56 53 52
278 894 410 63 59 58
283 889 411 53 50 50
283 894 411 72 68 68
293 873 387 44 41 39
293 874 392 38 36 36
305 941 330 83 76 76
298 873 392 37 36 37
303 873 402 38 36 37
303 880 411 45 43 42
294 881 410 46 44 44
303 884 412 54 50 50
302 892 410 57 54 55
308 871 398 41 38 39
313 871 397 42 39 39
308 872 392 39 38 38
313 872 392 42 39 39
312 872 395 45 42 42
309 871 400 38 37 37
308 873 402 39 37 38
313 872 403 41 39 39
313 875 406 43 41 41
308 880 411 46 43 42
318 872 403 40 39 40
318 877 409 46 43 43
318 879 412 48 45 45
308 889 411 55 52 54
313 884 413 66 62 62
313 889 411 61 57 57
325 906 306 79 70 70
308 894 407 64 60 61
310 891 409 66 64 65
313 891 409 66 62 61
318 884 414 69 64 63
318 889 411 66 61 61
323 871 397 43 41 41
320 872 395 41 39 39
329 872 398 42 39 39
331 871 396 41 39 39
333 873 387 35 33 36
328 875 406 38 36 37
468 811 339 70 56 45
323 880 411 47 44 43
328 880 411 46 42 41
333 874 402 40 37 38
323 884 414 65 61 59
321 884 415 66 62 61
323 889 411 67 62 61
328 884 413 57 52 50
310 931 374 63 60 59
333 884 411 51 46 44
333 889 412 64 59 58
338 873 397 42 39 38
348 875 392 46 42 41
338 875 402 40 38 37
336 876 405 37 35 36
353 879 406 55 48 44
338 884 410 49 45 43
343 884 408 44 41 40
338 894 411 66 60 58
348 884 407 48 43 43
353 884 406 50 45 43
349 893 409 61 58 57
378 864 412 59 48 39
383 864 412 56 46 38
360 871 399 46 39 34
368 871 399 57 48 42
361 876 387 61 56 54
364 877 390 58 53 52
368 875 393 58 51 48
368 873 396 56 48 44
357 873 402 46 40 36
462 852 312 98 79 69
363 870 402 49 41 34
368 869 407 55 46 40
368 874 408 53 45 40
368 880 404 54 44 38
369 885 387 58 52 50
363 894 387 63 56 53
364 881 404 52 44 38
368 884 402 58 50 45
366 896 405 46 42 39
372 880 387 56 50 47
373 874 397 57 49 43
372 876 393 57 49 45
375 880 397 68 58 52
377 871 399 61 51 41
376 878 394 61 54 48
373 865 407 58 47 39
374 869 411 52 42 35
374 865 411 61 50 41
373 879 402 59 49 42
376 866 404 58 48 41
384 870 405 72 60 51
379 869 416 55 45 38
379 874 402 70 57 48
377 877 401 68 55 46
376 877 405 66 54 46
381 873 403 73 60 51
383 873 407 76 63 53
383 875 412 75 61 50
383 875 417 63 50 42
371 882 384 54 48 44
371 883 388 57 51 49
370 884 390 57 51 48
374 884 397 67 57 53
369 891 399 58 51 46
373 894 397 65 57 51
376 882 396 72 61 56
378 895 397 67 57 51
371 888 400 63 55 50
382 868 419 58 46 39
384 870 421 56 45 37
260 899 272 87 78 75
267 902 264 86 74 71
270 901 266 75 63 60
271 902 269 69 59 60
256 898 286 58 52 51
257 909 277 87 76 73
264 911 276 75 66 62
268 909 276 89 77 81
271 907 274 88 78 78
260 912 268 82 72 68
256 917 272 81 72 68
258 913 277 84 74 70
264 918 288 82 72 68
273 912 279 88 78 77
269 918 283 93 82 80
273 918 283 93 83 82
278 898 263 76 66 63
283 900 267 75 68 67
322 929 352 68 61 59
281 901 270 76 67 66
284 903 269 80 72 70
287 902 269 82 74 73
274 905 276 77 68 67
277 915 281 86 78 78
278 921 285 91 82 82
278 923 287 90 81 81
393 913 392 71 60 52
283 918 282 91 83 82
289 915 282 82 76 76
288 919 287 87 80 80
263 920 291 87 76 73
258 925 301 86 76 74
264 927 299 97 85 84
263 929 302 93 83 81
266 921 290 94 83 79
268 926 296 95 85 82
293 937 309 87 79 80
269 922 289 94 84 81
273 928 298 92 83 83
278 925 292 89 81 81
278 926 295 90 81 82
283 925 292 91 83 82
281 926 295 93 84 84
283 929 297 90 82 81
284 927 294 91 83 82
268 930 301 100 90 89
268 932 303 92 83 81
272 930 300 93 84 83
257 930 306 85 76 74
259 933 308 86 77 75
263 934 307 91 81 78
263 938 313 90 80 79
259 937 314 83 74 73
273 935 307 86 79 78
273 939 312 92 85 85
268 943 318 87 80 80
273 941 316 92 85 86
287 932 304 83 77 77
278 941 315 91 86 87
283 938 308 86 80 81
283 940 312 91 85 85
288 937 309 92 86 87
281 941 315 89 84 85
283 943 317 91 85 85
288 944 317 89 83 84
293 898 267 80 72 70
453 925 398 102 89 78
293 904 272 82 74 73
294 902 269 84 77 76
299 901 264 74 68 66
303 899 266 77 70 68
302 900 264 80 73 70
293 906 277 75 68 67
290 910 280 80 74 73
298 907 279 80 72 71
303 905 277 80 72 71
301 907 279 83 76 76
298 911 285 80 72 72
469 839 308 101 80 66
304 906 281 79 71 71
303 911 286 82 74 73
293 914 285 82 74 72
298 914 287 80 73 72
297 917 288 82 74 72
309 897 262 70 62 59
312 897 262 75 68 66
313 897 267 73 67 66
315 896 267 72 66 64
307 903 277 80 72 71
314 906 287 75 67 68
312 907 288 77 69 69
301 942 323 89 83 83
293 923 293 82 74 73
293 925 296 86 78 77
293 927 298 88 80 79
293 929 302 89 82 82
298 919 292 83 76 75
300 916 290 81 73 73
302 922 294 82 73 74
297 927 299 89 81 81
317 907 293 73 66 66
308 919 297 78 70 71
313 913 297 75 67 68
311 917 299 80 72 71
309 920 301 79 71 71
307 924 302 79 72 74
314 915 301 72 65 66
304 930 306 69 62 64
307 929 308 69 61 64
310 921 305 74 66 68
314 925 311 86 75 74
316 917 304 81 74 73
278 899 408 70 66 66
327 903 292 86 75 74
318 924 317 85 74 73
290 931 305 90 83 82
293 931 305 91 84 85
298 931 305 83 76 76
298 937 309 77 71 72
298 939 312 87 82 82
304 936 311 88 80 79
299 941 316 91 83 83
303 939 317 88 80 80
