ply
format ascii 1.0
comment Created by Open3D
element vertex 2229
property double x
property double y
property double z
property uchar red
property uchar green
property uchar blue
end_header
293 354 272 88 73 59
283 748 167 90 71 47
417 798 239 57 48 45
293 359 272 86 72 57
330 672 196 48 37 46
294 369 263 78 66 55
293 364 268 81 68 56
421 818 254 67 53 47
424 474 333 168 11 48
247 709 214 166 113 95
293 364 273 84 69 55
333 769 163 62 49 43
293 369 273 83 67 53
297 354 258 81 69 59
296 352 261 81 70 61
453 830 311 88 71 53
297 359 258 79 67 56
438 805 285 60 47 35
298 354 268 88 74 61
298 359 268 86 72 58
259 754 243 60 29 37
261 514 285 142 0 43
412 734 261 50 39 32
265 907 281 169 142 124
301 354 266 82 71 60
299 369 259 82 68 55
411 433 264 162 11 44
440 831 310 82 70 61
303 364 264 85 72 59
301 369 266 85 71 58
415 790 287 129 89 60
304 369 264 84 72 60
307 374 262 86 73 60
281 579 315 154 2 46
294 374 264 80 67 55
291 374 266 78 65 54
472 754 213 90 73 57
338 769 164 59 49 42
293 374 273 82 66 53
295 379 264 83 69 56
289 379 269 75 60 50
272 484 299 145 2 44
290 382 270 73 57 47
418 742 261 57 45 35
268 729 166 115 90 60
295 382 265 85 71 57
405 821 294 128 80 60
347 660 210 75 34 27
292 384 272 75 59 48
364 446 395 32 30 31
379 604 278 39 30 35
328 869 213 41 40 42
299 374 259 83 70 56
268 544 298 82 24 36
301 375 256 83 70 57
359 668 222 86 38 37
411 478 280 158 14 39
324 343 285 89 77 66
296 371 271 84 69 56
353 906 312 35 33 33
298 374 269 84 71 57
276 499 308 160 0 47
304 374 265 85 72 58
299 379 259 85 71 58
300 384 260 87 73 59
352 714 175 57 46 38
313 826 176 81 63 56
302 769 264 74 59 53
265 433 296 143 2 43
302 379 257 85 71 58
299 896 316 112 97 84
303 384 263 88 73 55
212 550 195 132 100 70
298 383 267 85 71 56
382 811 330 195 138 111
393 879 298 34 31 31
301 382 266 87 72 55
425 470 328 154 13 44
307 354 261 86 72 58
309 354 260 82 71 60
306 365 261 85 72 58
285 562 354 142 70 62
313 364 257 70 60 50
315 364 283 79 68 58
320 361 279 79 70 61
318 370 283 79 69 59
313 374 258 84 71 59
308 379 262 88 73 58
354 804 182 62 53 51
310 379 260 89 75 62
426 413 294 162 16 44
253 814 203 175 129 104
297 516 176 152 0 25
309 385 258 89 74 59
320 372 283 76 66 56
267 324 323 131 91 70
298 503 388 79 24 36
268 329 323 129 90 69
273 324 329 126 91 66
213 539 227 79 13 30
328 914 314 46 44 44
414 422 374 72 17 28
441 411 328 141 11 41
355 625 329 85 17 32
270 327 326 127 92 68
383 430 397 59 27 30
266 334 320 126 89 67
268 334 322 126 89 67
271 334 325 127 92 66
269 344 322 126 91 68
272 339 325 126 91 67
271 349 325 123 92 66
192 544 213 172 117 93
275 324 331 125 92 64
367 539 228 102 26 39
429 769 238 65 52 40
278 324 333 124 93 65
276 326 330 125 93 64
255 628 257 182 7 56
276 330 330 125 92 65
240 569 200 65 29 33
331 670 310 155 0 45
274 334 327 126 92 65
371 569 342 84 18 34
279 334 332 126 93 66
282 324 335 126 96 67
282 329 334 127 95 68
282 334 334 127 95 68
401 543 312 182 18 56
270 486 389 62 26 28
255 533 374 185 131 116
313 414 345 97 78 59
284 329 336 128 97 71
288 329 338 131 99 73
274 344 327 122 92 65
373 619 263 48 31 34
346 664 351 160 114 80
277 339 329 124 93 66
323 359 288 84 73 62
277 344 329 121 93 65
327 860 297 139 106 76
279 344 331 121 94 65
277 349 329 120 92 65
279 349 331 120 92 65
270 502 410 80 32 33
282 344 334 123 95 67
381 907 283 66 57 58
285 339 336 127 97 68
285 349 336 124 96 68
288 349 337 127 99 71
269 354 323 130 95 70
271 354 325 125 94 68
458 830 312 90 71 55
271 359 325 128 96 69
434 795 273 69 58 47
228 619 188 145 104 67
308 544 179 122 15 39
271 364 325 130 97 70
272 364 328 128 96 70
269 369 323 133 97 72
269 374 323 135 97 74
269 379 323 136 98 74
271 379 325 135 98 75
249 739 169 124 93 58
279 354 332 121 93 66
276 358 330 123 94 66
275 365 331 126 96 69
278 364 333 124 95 68
282 359 335 121 95 67
316 687 310 105 6 30
290 951 256 75 71 73
281 363 335 123 96 69
358 510 376 108 11 37
284 359 336 121 95 67
277 374 334 126 96 70
402 839 223 58 50 46
277 822 170 191 129 98
288 354 337 125 98 70
324 269 344 143 100 74
280 366 336 122 95 67
280 369 336 124 95 69
269 944 263 70 65 66
283 369 338 124 96 68
274 374 332 128 96 71
427 454 353 165 14 50
274 384 332 133 98 74
277 379 334 129 97 72
277 384 335 131 98 73
409 430 380 82 27 34
279 374 336 126 96 70
373 679 328 132 97 62
279 384 337 131 98 73
283 374 338 125 97 69
412 799 308 148 100 68
258 459 364 89 4 30
245 798 180 176 121 88
287 374 340 125 97 69
289 374 341 126 97 68
413 439 273 162 12 42
290 528 374 148 105 89
288 379 342 126 97 68
419 714 243 66 51 40
334 864 208 40 36 40
244 729 207 176 121 97
322 462 386 97 26 38
285 381 341 127 98 69
268 419 313 144 3 43
288 384 342 127 99 69
319 875 218 48 43 45
349 441 373 77 22 28
370 875 148 92 81 76
293 324 340 135 102 76
293 329 340 134 103 77
314 702 163 72 52 40
263 715 170 110 87 60
288 958 273 81 76 77
293 334 339 135 103 76
376 609 308 68 26 32
298 329 340 136 105 76
293 344 339 132 102 73
346 406 326 87 72 55
303 344 339 140 108 76
391 780 205 43 41 41
315 320 335 116 89 62
325 592 360 148 109 76
277 513 135 72 28 32
315 324 335 118 91 61
276 464 338 66 28 33
313 329 337 122 94 62
316 330 336 118 91 61
332 349 323 115 91 63
313 344 338 130 99 68
378 659 273 118 16 39
308 349 339 137 106 74
286 889 246 132 102 71
316 339 336 121 95 62
314 417 345 92 75 57
333 779 162 50 42 38
317 344 337 123 95 64
415 450 370 100 29 39
424 764 248 54 44 36
318 349 337 126 97 65
322 339 332 117 92 63
303 475 359 76 58 42
293 354 339 129 101 72
293 359 340 128 101 72
238 649 216 154 110 93
293 364 340 128 101 72
257 508 380 76 42 40
254 818 201 182 132 108
293 369 341 126 98 70
298 359 340 130 102 71
303 354 339 135 106 75
338 765 314 77 62 55
293 574 371 178 125 100
467 791 244 93 73 56
303 359 340 135 106 74
297 366 341 129 101 71
347 389 293 68 61 54
298 369 341 128 100 69
300 367 340 129 100 69
291 708 295 38 30 34
303 369 340 131 102 69
242 759 183 163 112 83
290 370 341 124 95 67
293 374 341 125 97 68
263 769 158 150 105 70
293 384 343 127 98 69
263 484 289 40 28 31
298 934 322 46 44 45
298 374 341 127 98 68
302 374 341 129 100 68
331 277 315 118 92 65
405 469 267 160 14 40
265 904 278 128 109 98
304 373 340 130 100 67
257 564 173 38 31 36
298 384 343 128 99 68
308 359 339 137 107 73
343 931 331 40 37 37
331 850 203 55 51 51
313 354 338 134 102 72
308 364 339 137 106 72
308 369 339 135 104 70
283 619 192 54 34 39
313 369 339 136 104 72
293 389 343 127 97 68
318 359 338 132 100 68
368 468 382 131 25 47
318 364 338 133 101 70
308 374 340 133 101 69
257 529 285 136 0 40
309 378 340 131 100 71
308 380 341 130 99 70
270 486 393 89 9 30
313 379 340 134 103 74
269 659 268 170 3 53
294 836 280 93 75 55
318 374 339 136 103 73
318 379 339 136 103 75
218 519 238 156 4 47
323 269 303 115 92 67
293 544 343 52 26 27
439 859 318 80 68 58
326 264 305 116 94 69
329 264 308 118 95 69
236 694 203 172 118 92
329 269 308 119 95 69
343 734 323 126 36 44
338 958 308 54 48 46
346 385 278 89 77 65
331 264 310 120 96 69
333 264 313 123 98 68
468 797 244 101 80 60
332 269 313 124 98 69
333 269 318 120 94 64
323 958 239 94 89 93
322 284 303 113 92 68
328 274 308 119 95 68
324 870 224 76 62 55
325 276 306 117 94 67
324 280 307 117 93 67
255 739 247 152 18 53
428 819 282 58 46 36
327 279 309 120 95 67
324 284 308 117 93 67
326 283 310 117 92 64
299 598 362 189 128 104
282 569 363 187 128 104
398 420 363 64 14 22
268 488 383 51 34 22
324 289 308 117 93 67
326 288 310 115 92 66
327 289 313 111 88 62
331 272 310 121 96 68
324 946 231 82 79 81
332 274 318 118 93 62
305 910 209 63 57 58
329 284 318 118 92 64
328 289 318 118 92 64
435 435 339 64 29 29
237 529 183 47 35 36
362 833 189 52 46 49
336 258 319 121 96 67
321 299 304 113 92 70
320 303 301 109 91 72
261 605 192 82 23 34
191 535 219 160 111 88
410 520 323 79 27 38
223 534 202 73 28 37
322 304 303 111 91 69
327 294 313 103 81 57
278 869 298 104 77 59
308 614 358 185 129 103
326 299 314 100 82 62
327 299 318 107 86 63
446 840 284 107 81 61
326 304 314 102 83 63
400 470 261 166 12 42
256 469 285 87 16 36
327 304 318 110 88 64
321 305 300 107 90 71
281 584 314 164 0 51
385 412 261 97 29 37
323 309 303 109 90 69
321 320 295 95 82 69
326 649 328 164 108 92
321 314 298 103 87 70
389 694 219 73 55 46
323 314 303 109 90 69
416 468 361 132 17 46
324 309 308 106 86 65
327 314 313 101 82 62
325 317 311 99 81 61
252 724 172 120 91 55
216 569 225 164 32 58
327 319 313 102 83 61
250 730 170 121 91 57
327 314 318 109 87 60
465 811 301 92 71 56
413 405 293 77 12 34
328 319 318 110 87 60
288 799 233 74 60 55
336 406 336 99 80 60
462 940 330 105 88 71
335 260 328 127 94 64
333 264 333 134 96 69
345 569 207 155 11 41
330 270 335 134 95 72
393 724 308 100 65 46
323 455 388 83 32 33
327 258 346 142 101 73
331 258 342 139 100 74
330 265 340 140 99 75
393 509 359 46 27 31
331 268 337 137 96 72
327 324 323 116 90 61
329 274 334 135 95 71
361 650 323 127 96 68
359 639 232 89 29 36
328 284 328 136 97 72
236 674 191 141 97 63
303 859 299 139 99 84
228 644 193 150 103 65
308 579 188 53 29 34
327 289 328 135 98 71
324 284 334 135 94 73
321 329 331 116 91 62
331 279 323 126 94 66
343 956 323 49 44 43
338 364 318 112 90 64
250 594 277 167 2 51
385 586 299 106 29 43
332 274 323 125 94 63
236 550 202 105 5 30
331 278 327 133 97 71
330 280 328 135 97 73
331 273 332 132 95 70
408 739 262 52 35 31
323 945 228 86 82 84
219 529 233 162 4 49
330 281 324 132 96 70
293 509 338 71 23 35
388 704 328 143 105 71
322 278 342 140 98 74
327 274 338 138 99 74
288 835 198 89 46 48
326 272 341 140 100 75
325 885 170 73 64 62
326 278 337 137 98 75
376 913 268 62 57 59
321 289 336 133 93 69
336 258 323 120 93 62
328 744 160 58 43 38
327 294 323 124 94 66
326 294 327 128 96 69
323 669 308 153 1 47
424 769 249 48 39 35
325 290 330 133 94 68
366 877 280 36 32 32
370 600 330 71 20 29
248 519 163 111 24 39
218 524 200 51 38 38
260 808 211 172 130 103
352 875 272 78 61 51
326 299 323 118 92 61
370 905 237 74 65 64
327 304 323 117 91 61
281 534 309 66 29 35
426 774 248 53 43 37
324 304 329 123 96 67
321 292 336 130 92 70
326 309 326 125 96 66
322 309 332 125 95 69
324 319 324 120 93 65
322 319 328 124 92 67
326 312 326 127 98 68
272 439 313 89 22 36
327 319 322 116 91 61
288 709 183 91 22 25
324 338 288 84 74 64
322 344 287 93 80 67
478 936 334 85 74 62
327 345 285 87 77 67
318 804 253 167 114 95
328 344 288 85 75 65
323 350 284 82 72 62
328 349 285 84 74 65
313 839 273 97 75 50
280 501 411 163 123 102
331 346 289 84 74 65
332 349 288 84 74 64
322 329 294 90 78 67
382 759 188 64 51 44
324 324 298 98 82 66
282 489 362 110 1 31
326 329 299 100 84 67
326 325 304 105 86 65
327 329 303 104 86 66
418 939 343 68 54 44
322 334 293 87 76 65
352 809 179 59 50 50
327 324 308 102 83 63
328 329 308 102 84 63
297 744 278 75 59 54
302 388 262 89 73 57
262 584 293 150 0 45
340 713 326 138 91 74
329 329 313 103 84 62
295 584 350 144 91 76
349 919 217 73 67 68
412 795 230 63 50 46
330 334 308 103 84 65
329 334 318 108 87 64
326 341 294 88 77 65
325 338 296 91 79 67
244 514 276 148 0 45
327 339 298 95 81 66
329 339 303 102 85 68
308 564 184 112 22 38
286 934 315 47 43 45
329 344 298 93 80 66
402 539 313 187 16 54
330 348 294 85 74 62
332 350 292 84 74 64
330 348 298 91 78 65
388 884 303 37 34 33
332 349 303 100 85 68
397 454 382 172 10 55
272 897 289 110 93 78
327 794 154 75 59 42
331 350 298 93 79 65
360 847 191 57 53 54
368 944 333 59 50 43
330 338 307 103 85 66
330 338 313 104 85 64
330 342 306 103 85 67
254 564 178 88 25 37
244 724 179 125 90 56
439 424 328 60 31 34
339 449 352 61 36 31
400 729 288 138 15 45
332 344 318 108 87 63
320 357 271 77 67 58
321 360 269 76 67 58
408 804 318 165 110 82
322 365 264 77 67 57
275 714 271 145 11 45
343 943 336 70 64 61
226 635 191 154 106 68
295 934 321 45 43 44
320 367 261 77 66 57
355 785 176 65 53 51
368 888 288 30 27 29
393 490 364 38 27 31
313 479 380 68 21 31
289 865 249 128 101 73
323 369 262 83 72 61
338 464 384 39 28 29
266 714 265 146 0 45
323 364 268 80 70 60
324 364 273 80 70 60
196 550 206 157 105 77
381 457 386 185 4 57
325 367 267 81 70 60
326 366 270 83 72 61
321 356 274 77 68 59
394 529 263 141 14 37
320 353 277 79 69 58
323 749 163 48 40 36
415 506 316 178 12 48
321 354 278 77 67 58
321 359 278 77 68 59
322 354 283 78 68 59
321 358 283 76 67 59
281 776 240 82 65 57
424 729 248 68 53 42
276 489 366 104 1 30
329 353 285 80 70 61
327 354 288 84 74 64
333 609 358 153 109 79
390 831 212 50 45 44
323 369 278 77 67 58
322 364 277 76 66 57
325 367 275 78 68 59
399 759 222 61 49 45
288 934 223 80 71 70
250 557 180 163 2 42
323 366 285 87 76 66
328 364 288 89 78 66
423 403 293 65 11 28
326 366 285 91 79 66
328 369 284 82 72 62
333 354 288 84 75 65
383 714 188 57 47 38
321 370 260 79 68 57
322 374 259 80 69 57
325 373 261 82 71 60
374 723 185 68 51 42
328 374 263 81 70 60
324 382 256 98 84 70
446 874 314 86 74 66
329 378 262 96 83 69
331 371 270 86 74 63
331 371 273 82 71 61
330 373 267 78 69 60
297 744 283 76 53 51
332 385 259 102 88 74
381 669 278 124 15 40
334 383 262 102 88 72
323 634 360 179 126 99
331 376 265 92 80 67
324 373 279 77 67 57
194 539 204 162 111 83
368 489 367 149 16 49
327 370 277 79 69 60
308 884 316 184 134 115
382 898 258 73 64 63
328 373 278 77 67 58
317 707 320 115 8 39
323 372 281 77 67 57
319 889 179 77 69 67
329 374 283 78 68 59
296 936 221 82 72 74
274 399 284 56 44 35
333 374 278 79 69 59
344 884 173 77 63 54
332 369 289 88 77 66
318 943 224 88 81 82
266 536 356 93 30 37
332 376 282 77 68 58
354 413 304 64 45 39
332 374 288 83 73 63
333 844 193 51 46 47
335 378 280 78 68 59
418 402 283 60 15 30
400 496 360 104 22 42
384 674 268 114 21 40
337 385 264 103 88 73
339 378 272 86 75 64
277 509 304 147 0 45
367 908 225 71 63 62
342 380 273 85 74 64
321 889 176 83 73 69
344 384 273 92 80 67
272 449 343 128 7 36
414 434 273 163 13 42
342 380 278 81 71 61
343 474 377 44 27 30
309 466 369 62 50 37
279 773 241 82 65 57
338 381 281 78 68 59
338 382 283 78 69 59
393 942 305 57 49 51
338 380 289 85 74 64
303 469 388 152 15 49
449 800 278 71 54 43
342 381 283 83 72 62
345 382 278 87 75 64
342 380 288 87 76 65
268 689 182 109 86 58
389 754 197 63 50 43
338 539 373 185 3 59
344 382 288 88 77 65
273 504 409 89 29 36
346 385 274 94 81 68
343 619 348 153 110 78
280 729 177 86 70 55
346 385 288 78 68 59
328 359 289 88 77 66
333 354 293 87 76 65
414 494 293 161 10 41
332 359 290 89 78 67
334 354 303 98 84 68
286 542 346 37 24 23
335 679 328 166 114 97
404 474 369 176 6 56
249 554 179 119 25 40
420 439 292 115 25 39
333 359 298 94 82 68
416 438 280 162 20 44
334 359 303 95 81 67
332 364 289 90 78 65
342 495 376 138 4 45
334 363 298 97 83 70
334 374 292 97 85 72
334 378 292 93 82 70
408 728 232 67 54 44
338 369 298 97 84 70
361 691 186 62 45 36
336 359 305 97 82 66
308 684 178 82 42 35
337 359 308 100 84 67
270 909 264 161 126 99
337 359 318 111 89 65
344 895 202 77 71 75
340 368 308 98 81 64
323 954 328 63 58 54
318 454 354 93 75 56
341 375 294 93 80 68
340 372 297 96 82 69
355 865 265 95 71 56
247 544 177 137 25 44
344 383 293 95 82 70
345 383 303 90 75 60
341 370 313 109 87 63
342 374 308 98 81 61
277 884 257 159 116 92
342 374 313 109 87 62
383 909 298 62 54 55
344 379 308 100 81 61
342 379 318 115 91 63
344 384 313 108 86 61
344 384 318 113 90 63
448 779 234 82 62 51
345 383 308 100 80 59
324 329 328 118 90 62
326 330 326 117 92 64
326 334 326 116 92 63
322 334 332 115 91 62
398 949 309 75 66 63
324 339 329 116 91 63
320 348 335 121 94 62
329 349 328 115 91 63
329 339 323 114 91 64
367 779 334 181 133 106
223 539 203 89 24 36
333 699 169 51 45 41
375 584 247 136 20 42
431 433 356 92 25 39
330 347 325 116 92 63
323 354 334 120 94 62
373 471 380 92 26 37
368 402 278 68 58 51
327 354 332 119 93 62
244 534 273 131 19 46
325 364 335 124 95 64
353 438 358 67 42 36
328 369 334 121 95 65
272 449 318 32 28 30
335 358 320 114 91 66
334 359 324 116 93 66
314 803 251 162 112 94
324 455 383 76 41 35
333 364 328 117 93 64
308 554 182 72 34 38
330 362 330 119 93 62
303 495 392 121 2 37
331 370 331 119 95 67
313 835 188 80 62 57
322 359 336 126 96 64
425 470 313 133 19 41
334 374 329 120 95 67
333 379 332 122 95 68
330 384 335 127 98 72
298 833 183 60 50 51
333 384 333 122 96 69
292 775 250 68 54 49
261 761 239 89 49 52
335 378 330 121 96 68
393 564 298 183 7 56
323 374 337 132 100 71
326 371 336 126 97 68
323 624 202 146 2 34
327 374 336 128 97 68
251 712 176 125 92 54
323 379 338 134 100 73
336 360 322 114 91 65
338 369 323 116 93 66
256 595 192 36 35 36
287 874 247 150 112 81
339 374 323 118 93 64
428 939 315 67 54 50
394 714 218 50 39 35
337 374 327 119 93 65
340 379 324 119 94 65
341 376 321 117 93 64
310 832 217 181 132 108
314 614 334 145 87 75
341 380 322 117 92 66
262 654 253 173 0 50
331 394 336 124 96 69
336 384 331 120 95 68
258 389 289 97 67 50
339 554 192 58 30 33
298 835 203 57 45 46
258 394 287 98 67 51
256 399 285 106 72 56
268 389 288 77 56 45
289 519 374 77 24 31
430 806 252 83 64 56
273 389 283 69 51 41
418 403 288 61 20 28
268 399 288 67 53 41
317 894 183 89 79 78
257 404 285 100 68 53
259 403 286 95 65 50
288 943 238 73 67 68
338 709 169 52 44 39
263 409 288 67 48 36
258 414 288 127 11 43
268 408 288 56 44 35
273 404 285 56 45 35
389 708 213 57 47 45
327 589 357 144 103 74
198 549 219 161 114 94
273 405 288 51 37 29
331 390 336 126 97 72
278 389 279 62 44 37
278 389 288 82 55 42
278 394 289 73 50 36
305 627 316 62 22 30
329 804 158 87 71 54
278 400 283 53 37 32
416 721 235 89 69 49
368 845 260 58 41 38
285 389 275 60 42 36
339 961 284 65 60 58
410 469 277 41 33 38
333 464 383 61 30 33
287 388 274 63 44 37
287 389 278 63 44 36
283 389 283 70 48 37
286 393 277 58 40 34
284 394 283 61 42 34
308 705 171 59 42 33
359 935 237 77 69 70
401 849 229 71 59 53
435 855 307 62 52 42
281 395 286 65 44 34
283 399 283 54 37 33
220 512 195 145 0 32
277 402 284 54 36 30
243 709 212 171 119 97
260 388 291 88 61 47
263 394 289 81 59 44
313 874 313 159 120 95
416 817 231 62 52 51
433 741 227 64 51 43
264 392 291 78 57 44
269 388 294 99 66 50
429 444 353 78 24 34
269 388 298 111 72 56
271 391 298 109 71 54
271 391 301 113 74 56
287 790 235 76 60 54
272 394 298 108 70 55
373 769 338 177 128 98
269 394 304 121 78 60
271 394 302 115 75 59
417 479 353 158 10 46
388 419 259 110 25 25
257 513 361 59 22 30
270 399 304 118 78 58
267 394 308 126 84 64
327 868 222 57 48 49
268 399 308 126 83 63
269 399 318 138 95 72
265 410 292 50 38 33
363 944 298 79 73 74
425 470 338 152 15 42
263 414 293 98 18 38
267 474 293 66 20 32
268 408 293 50 37 30
281 514 310 81 22 34
252 554 177 103 22 36
273 404 298 86 57 46
268 410 298 56 34 30
265 414 298 129 9 40
266 413 299 94 21 32
239 569 268 106 28 44
407 789 323 180 121 91
258 454 287 67 20 33
267 414 303 112 15 35
269 409 308 110 75 56
343 900 178 79 64 57
269 409 313 131 89 66
269 409 318 139 95 71
269 414 318 125 76 62
274 394 294 95 61 49
274 399 294 91 60 46
258 424 288 139 0 41
323 894 173 106 89 85
318 720 163 81 51 41
262 826 200 195 142 118
258 429 287 138 0 41
258 434 288 138 0 41
420 464 297 89 33 40
258 439 288 138 2 42
272 546 380 196 137 111
256 441 285 129 8 47
395 556 305 184 5 53
301 908 221 58 50 49
256 444 285 43 24 28
388 885 233 74 61 59
404 411 322 58 26 29
333 934 332 44 42 42
260 417 291 128 10 42
423 779 253 44 38 35
261 425 290 139 0 42
392 422 368 63 14 24
264 419 298 127 2 38
265 416 301 138 0 37
290 526 350 52 21 24
265 419 301 129 5 39
266 424 300 144 1 45
267 424 303 146 3 44
268 489 398 89 5 27
267 429 299 144 0 43
202 569 213 171 116 95
257 825 182 224 156 128
268 429 303 144 2 44
295 947 321 55 52 51
268 424 313 136 10 43
252 754 209 170 117 95
269 424 318 89 18 36
416 464 288 90 33 38
270 429 313 77 19 35
279 934 308 65 53 49
271 429 318 75 21 34
271 431 315 121 10 41
379 688 222 66 45 36
242 595 194 97 67 43
430 449 313 53 34 36
416 502 309 172 9 45
362 934 293 78 70 75
261 434 290 140 0 41
330 824 161 78 63 53
263 434 293 142 2 42
388 724 337 160 109 77
264 439 292 142 1 42
262 444 290 140 1 43
403 689 253 51 40 30
264 449 292 126 7 39
266 436 295 142 4 41
258 464 364 72 9 26
269 439 303 134 6 42
274 664 273 72 27 38
266 444 294 142 4 43
353 784 173 57 47 45
266 449 294 127 11 40
307 473 362 73 57 40
270 444 303 52 25 31
274 459 353 60 21 30
270 448 302 59 23 33
284 516 355 38 29 24
270 433 312 42 26 30
417 484 352 162 8 48
270 438 307 122 14 42
434 439 338 75 30 38
271 439 308 93 16 36
302 862 300 100 65 64
330 643 206 103 23 27
272 449 308 115 16 41
276 527 157 53 26 32
272 598 175 123 24 41
272 444 318 32 28 29
273 449 313 42 26 30
308 389 257 89 75 62
256 744 228 162 2 47
271 513 295 140 0 42
283 459 354 72 39 33
308 392 256 89 76 63
282 693 191 49 30 33
424 829 262 83 65 58
270 428 334 75 22 36
269 389 323 138 99 75
284 484 343 116 9 38
338 959 288 66 61 61
383 900 317 40 36 36
271 390 325 139 100 76
271 394 324 139 99 76
333 899 304 89 68 57
271 399 324 140 99 75
235 559 263 75 34 39
271 404 324 139 98 73
270 409 322 142 99 75
319 858 300 144 113 81
424 889 318 75 64 57
273 404 328 139 100 75
283 534 182 143 0 33
270 414 323 126 79 64
232 609 223 122 69 65
270 415 328 116 71 59
353 684 347 178 123 96
286 467 355 108 80 64
272 414 333 116 84 65
276 399 335 135 99 74
388 559 258 158 15 41
316 878 222 61 53 52
279 389 337 132 98 72
279 394 338 131 98 72
278 399 338 133 99 73
404 864 242 77 62 58
273 724 268 158 1 51
383 504 364 159 10 50
282 389 340 130 98 71
281 394 340 131 99 71
293 774 253 68 54 49
351 772 170 55 48 48
371 821 314 181 127 104
284 394 342 129 99 70
281 399 340 131 99 72
388 509 362 50 27 31
438 764 228 75 62 53
284 399 342 129 98 71
256 719 219 110 40 46
281 863 282 137 118 108
288 399 344 126 98 70
358 893 163 86 73 65
231 549 253 72 31 39
274 409 333 134 98 74
278 404 338 133 100 74
336 858 202 42 40 44
278 409 338 129 97 73
274 415 336 105 75 57
226 564 230 139 0 41
274 649 277 137 24 50
323 504 388 166 6 53
283 404 342 129 99 72
288 404 344 125 97 70
287 409 345 125 97 71
349 764 171 67 53 45
287 414 345 124 95 71
299 449 351 101 77 59
269 419 323 142 11 43
269 419 328 140 14 45
270 424 323 110 19 40
271 426 331 92 18 36
270 421 341 106 29 39
271 430 337 64 28 35
272 425 347 101 27 34
272 434 328 76 24 35
272 434 338 69 25 33
271 434 342 65 27 33
270 434 344 75 24 36
379 677 240 66 30 29
270 435 347 65 29 34
272 433 349 78 20 29
278 559 373 187 126 103
270 437 344 27 30 27
270 447 348 119 3 37
280 519 307 107 15 38
322 548 180 162 7 35
271 449 348 111 12 36
278 424 344 84 49 40
278 427 345 75 43 35
283 419 343 107 82 60
283 424 344 98 72 53
287 424 345 106 80 59
328 549 182 166 8 36
283 430 346 90 63 47
288 429 346 103 78 58
272 439 328 60 27 33
272 444 328 71 28 36
274 449 333 97 22 36
257 649 228 163 13 54
278 434 350 65 33 29
252 514 157 39 34 39
278 440 350 66 34 27
279 724 272 157 3 50
278 439 351 70 36 30
280 436 351 73 43 33
273 444 338 72 25 33
278 449 353 75 25 30
412 689 243 59 48 38
282 438 351 76 49 37
327 692 171 51 44 38
284 439 350 78 53 41
458 788 253 102 81 59
288 434 347 101 75 57
360 519 221 44 36 37
283 443 350 76 51 38
347 510 381 121 18 42
286 554 325 65 26 32
283 449 352 78 45 36
265 429 355 116 13 38
264 649 263 179 1 54
266 430 356 118 17 38
259 435 360 119 9 34
276 461 339 127 7 43
258 439 359 121 2 30
263 434 358 109 10 33
377 559 338 138 17 47
262 439 362 108 8 33
293 589 324 120 7 38
258 444 365 121 2 37
420 454 292 118 27 40
256 444 366 129 0 40
262 444 362 105 6 33
273 529 353 85 7 28
259 824 179 219 152 124
263 449 363 97 8 32
304 729 312 100 18 42
265 434 355 125 10 40
268 434 358 106 13 33
214 529 201 81 54 43
269 437 355 106 8 34
263 804 166 172 116 81
268 438 357 111 8 34
271 436 356 86 5 23
293 394 344 126 97 68
257 694 233 96 24 40
353 884 203 70 65 68
303 389 343 126 98 69
430 416 306 124 30 43
309 624 353 188 133 106
303 394 344 125 97 68
348 949 243 80 72 73
298 394 344 126 97 69
290 406 346 125 97 70
293 409 346 124 96 69
403 529 328 174 12 52
294 400 346 124 97 68
331 651 321 154 90 80
273 894 288 87 71 69
297 401 346 123 96 68
298 404 346 122 95 67
298 409 346 120 94 66
467 790 254 86 69 52
288 475 378 64 37 27
302 405 346 119 94 66
313 399 342 120 94 67
318 389 340 133 101 75
443 953 363 92 77 62
223 654 203 189 133 105
318 399 341 122 96 68
483 753 203 117 91 66
320 398 340 126 98 71
438 869 294 91 73 60
308 404 344 114 91 64
308 409 345 110 87 62
318 414 345 96 78 59
335 674 320 152 96 83
289 419 346 114 89 65
291 686 290 34 30 34
298 419 347 108 86 62
303 424 349 97 78 57
303 429 350 95 75 55
340 698 337 182 128 103
420 827 256 77 62 56
293 439 349 103 79 60
303 434 349 95 75 55
268 929 288 138 109 94
363 734 179 52 42 38
303 439 350 98 77 56
258 749 162 129 97 60
298 444 350 101 78 59
303 444 350 99 77 57
432 819 278 76 63 53
206 514 194 139 91 79
303 448 350 98 76 57
308 424 348 93 76 57
313 419 346 91 74 56
363 953 308 63 57 56
313 429 348 86 70 52
329 843 128 85 85 85
318 429 347 83 68 52
308 434 349 91 73 53
308 439 349 93 74 54
245 573 194 55 35 34
313 444 350 97 77 57
406 498 275 48 32 36
346 620 342 139 95 68
313 447 350 98 78 58
318 448 350 95 76 57
256 454 285 38 29 30
259 474 286 126 13 41
257 479 285 61 27 34
249 524 163 92 29 34
356 679 187 77 42 30
263 474 289 150 3 45
263 479 289 97 19 39
369 679 195 66 53 42
262 459 289 148 1 44
265 454 291 143 1 43
411 760 230 57 46 41
271 454 304 54 24 32
243 519 408 177 116 105
377 768 180 64 51 43
349 404 308 75 63 51
264 459 292 146 3 44
267 459 294 116 11 39
441 418 342 173 10 54
267 464 294 146 0 43
262 649 189 116 91 61
287 478 398 49 24 27
269 459 298 93 20 38
271 459 303 42 28 32
417 407 314 58 21 26
269 464 298 101 16 38
272 464 303 76 26 37
489 754 194 92 74 56
313 929 208 85 77 76
350 864 158 100 80 62
272 469 303 58 28 33
269 474 297 45 24 29
270 479 297 144 2 44
271 479 300 145 1 43
308 599 366 179 128 98
272 479 303 146 0 44
257 604 197 50 34 32
272 454 308 53 24 33
374 564 338 183 11 58
281 475 338 37 31 30
273 454 313 71 28 38
272 454 318 53 26 31
298 869 242 131 99 71
201 555 201 150 104 74
273 459 318 108 23 41
278 559 308 85 26 38
377 427 363 65 24 30
274 469 308 94 23 39
258 495 407 103 86 68
275 474 313 97 24 40
275 479 311 74 28 33
276 476 314 87 27 45
259 484 286 54 28 31
257 489 284 103 22 41
260 489 286 105 19 40
263 494 288 148 0 44
405 843 237 59 51 48
258 504 284 142 4 44
260 499 286 102 16 35
334 931 212 88 83 83
263 499 288 141 4 43
263 509 287 143 0 43
265 484 291 31 29 31
268 484 293 72 21 35
351 849 175 50 43 44
272 489 298 146 0 44
266 490 290 146 3 46
271 490 295 148 2 46
263 784 218 146 105 76
270 496 296 150 0 47
266 499 290 148 0 43
268 504 293 147 0 44
299 719 307 79 21 37
270 498 296 147 2 42
266 509 290 143 1 42
373 634 268 82 28 36
271 509 295 143 0 43
274 484 303 155 0 47
320 880 184 53 49 49
288 948 244 75 70 72
387 524 253 157 11 40
275 494 302 154 0 46
353 754 323 174 121 98
357 943 278 78 73 76
426 784 240 81 71 64
275 484 308 149 3 46
275 488 307 156 0 44
281 674 280 161 1 51
278 489 318 157 0 47
258 674 233 72 26 38
276 494 305 157 0 46
277 494 313 146 1 43
278 494 318 143 2 44
264 644 192 111 88 63
275 499 303 153 0 45
275 504 302 147 0 44
236 529 186 43 33 38
278 499 318 65 24 32
280 504 318 100 20 40
279 509 308 139 5 44
366 618 321 173 12 53
280 508 312 153 3 47
318 819 153 101 75 55
328 526 380 185 3 55
280 508 316 171 0 52
272 454 323 52 28 32
440 819 287 93 75 64
313 961 241 95 92 96
273 454 328 72 24 35
268 749 258 132 20 49
276 464 333 61 28 32
274 454 338 128 9 38
274 454 343 131 9 38
274 454 353 105 12 36
275 459 338 126 10 39
283 524 398 189 128 109
275 458 343 129 5 37
283 744 268 43 30 33
276 461 343 129 5 40
357 654 223 53 35 36
277 464 343 74 22 32
265 649 191 116 91 61
275 463 350 117 7 42
287 454 351 79 55 42
289 454 350 93 67 51
313 609 364 176 123 97
275 469 323 67 25 34
398 714 229 64 48 41
277 469 333 98 17 36
286 516 393 139 99 83
276 475 323 63 28 34
381 765 184 68 54 46
276 474 328 79 24 36
278 474 333 80 20 33
278 469 343 72 25 31
278 469 348 87 21 34
361 802 185 67 55 51
279 469 353 107 14 35
213 539 198 108 78 54
280 473 338 75 19 34
320 456 394 88 21 32
280 473 343 66 28 32
372 563 342 182 13 57
381 589 263 70 34 40
282 475 343 80 24 32
282 479 338 44 27 29
288 506 379 39 25 28
282 475 348 102 12 35
282 474 353 112 19 35
258 454 358 45 31 24
422 424 293 73 30 35
263 454 358 68 27 33
260 454 365 110 0 36
258 464 359 80 16 27
259 797 165 172 114 80
468 802 254 92 70 52
263 459 358 81 17 30
263 464 358 79 17 33
258 457 366 101 2 34
429 409 298 155 20 48
263 459 364 99 2 32
266 451 361 94 16 33
406 417 349 78 12 29
258 469 359 70 28 27
263 469 359 88 11 28
347 880 283 129 102 83
259 469 364 66 17 23
257 469 366 62 19 23
273 559 178 65 29 36
272 709 269 132 11 43
215 529 226 106 12 35
328 844 197 68 54 50
426 428 366 52 33 33
437 410 323 134 14 44
263 479 359 76 19 28
363 880 153 88 77 69
258 474 363 66 16 24
315 456 402 78 26 28
263 479 363 66 14 24
267 468 359 81 18 32
270 467 361 85 18 32
223 604 189 144 106 69
271 467 360 88 21 30
410 780 263 44 39 35
271 468 362 87 16 32
266 474 358 103 11 37
268 480 366 70 14 27
430 745 227 77 62 50
273 480 365 72 19 29
274 455 357 90 15 30
464 750 220 85 75 69
428 947 349 81 67 52
277 454 357 83 23 30
278 464 358 92 35 36
358 433 333 70 53 44
280 457 355 74 33 31
284 464 354 82 49 40
386 567 316 177 1 55
288 459 352 86 61 47
403 434 383 100 20 40
288 463 354 88 65 50
356 764 324 180 129 103
347 389 303 90 74 59
279 469 357 100 20 35
279 474 358 113 19 37
279 478 359 112 4 33
279 475 363 106 31 41
277 479 362 86 20 28
411 761 303 123 95 62
284 467 355 106 60 53
263 529 407 197 136 115
401 745 305 101 77 54
288 468 358 93 67 54
298 954 318 71 65 63
285 471 362 90 55 46
288 470 363 87 61 50
282 479 358 110 12 32
343 434 338 76 63 48
283 473 363 101 43 44
329 503 385 153 4 48
282 478 373 71 26 29
283 478 383 54 38 23
369 614 253 138 25 43
413 400 273 37 26 29
278 484 323 129 12 43
280 494 322 147 1 44
364 590 340 157 15 51
282 484 333 117 7 38
319 692 182 67 45 40
383 704 203 50 42 37
283 489 333 119 6 38
286 495 335 54 27 32
188 519 224 173 128 110
283 484 338 107 10 37
304 937 220 85 78 78
285 489 338 108 11 36
294 953 317 71 65 62
285 488 341 128 8 41
286 486 344 133 0 36
195 532 200 151 105 76
274 714 178 101 81 58
285 483 348 121 1 37
284 484 353 115 1 33
286 485 348 125 1 32
262 749 160 127 95 60
287 489 353 118 2 35
287 494 343 53 28 31
280 499 322 73 25 36
281 499 324 63 25 32
241 555 192 74 29 29
283 499 328 58 26 33
316 496 386 116 0 33
285 498 332 46 27 29
288 564 187 88 24 33
333 675 188 81 54 41
285 502 331 91 22 43
358 454 392 45 28 30
285 508 327 97 19 41
291 505 356 38 26 25
286 506 330 110 11 48
323 663 196 52 36 33
411 704 261 54 42 32
275 827 206 183 136 113
441 843 279 114 92 81
420 449 292 105 26 39
289 509 333 76 22 34
298 629 196 83 27 32
288 499 338 31 29 30
329 804 268 175 120 98
242 514 408 142 83 74
258 483 360 61 26 23
258 484 368 59 14 23
262 483 360 60 33 29
348 450 395 84 26 37
285 549 322 67 28 35
427 868 283 91 66 53
368 429 343 64 42 36
263 484 368 65 13 22
264 481 366 63 15 21
263 489 364 102 4 32
358 435 358 68 44 38
420 486 313 179 11 49
258 494 363 104 1 33
302 754 273 77 60 54
268 482 366 67 13 24
310 889 219 52 48 49
378 429 398 86 19 32
264 488 368 83 10 27
274 483 368 87 21 25
368 849 199 67 58 59
423 403 288 108 15 36
279 866 278 84 51 45
268 490 368 91 7 28
345 441 384 87 18 31
303 604 193 52 34 37
288 514 375 92 17 35
269 493 366 97 11 27
273 493 366 99 11 29
274 482 365 77 20 20
258 486 372 61 9 24
256 694 243 42 32 35
294 818 227 64 54 53
263 488 373 70 9 25
403 419 363 66 11 22
407 935 309 54 44 51
258 490 382 59 22 25
263 490 383 52 28 23
272 487 378 57 31 23
370 682 198 52 41 34
370 921 288 71 63 68
272 488 373 86 14 29
288 634 196 78 26 32
268 488 378 66 23 25
258 499 363 78 17 27
308 619 197 138 7 33
198 519 193 204 141 123
258 504 362 42 25 27
258 619 198 59 40 36
258 509 361 52 23 26
397 878 243 67 57 54
360 829 186 50 46 46
263 508 361 94 8 26
263 510 360 92 8 31
268 499 363 97 1 27
376 670 244 46 34 32
268 504 362 94 4 28
384 703 299 146 8 44
269 539 297 59 29 33
244 549 183 75 30 38
273 504 361 95 7 24
273 509 359 92 3 27
291 650 295 50 28 32
203 529 223 78 49 46
268 507 361 94 2 28
259 504 383 80 40 39
262 504 383 82 39 39
368 838 267 105 75 56
261 504 380 81 41 40
258 508 382 90 48 45
423 474 308 66 33 39
259 505 380 80 41 40
394 714 288 140 4 44
408 529 303 153 15 46
463 814 302 93 72 58
276 816 215 149 121 98
261 507 383 87 40 39
249 574 189 47 35 37
268 510 379 49 25 30
358 434 338 69 50 42
278 484 363 94 11 27
432 894 315 84 76 71
276 492 366 104 0 36
432 444 343 95 27 38
281 481 361 107 13 28
279 599 187 53 34 38
288 494 353 65 24 29
285 493 360 115 0 32
278 494 409 132 88 73
272 579 303 145 0 43
287 494 358 111 6 33
324 819 156 106 78 58
275 486 373 74 27 25
417 454 367 51 29 29
277 483 373 77 25 25
274 486 378 51 35 24
278 483 378 51 36 25
336 684 318 94 49 46
280 481 383 52 34 26
278 499 363 101 3 27
438 794 278 64 52 40
278 506 360 94 12 23
402 739 328 163 116 83
288 504 358 58 27 32
278 504 374 82 23 35
289 594 191 63 30 35
274 499 383 91 19 37
408 411 323 56 24 28
342 813 170 76 57 50
274 504 378 84 15 34
273 504 383 67 17 30
383 679 283 68 27 35
278 502 376 74 23 30
275 508 375 84 28 31
344 624 348 150 108 76
385 698 328 139 102 68
278 509 374 63 24 32
284 504 378 77 26 36
284 503 383 76 30 36
281 556 375 179 122 97
283 509 374 82 23 36
337 699 323 127 69 58
288 508 377 62 22 30
288 504 383 47 27 30
293 454 350 102 75 59
293 464 353 105 78 62
338 499 379 145 0 45
303 450 351 99 76 57
303 454 351 100 76 56
355 839 186 51 47 49
272 519 168 101 6 33
393 884 238 73 60 56
296 458 350 104 78 61
303 459 352 104 77 58
298 469 353 97 72 55
303 474 353 86 65 47
302 479 350 83 62 46
304 479 353 80 60 45
313 450 351 99 79 59
303 464 353 105 77 57
400 840 221 56 48 45
298 554 338 40 24 26
404 826 223 55 46 44
312 500 391 144 9 45
295 467 355 99 74 59
329 753 161 56 46 39
298 470 368 66 50 34
300 477 356 82 61 45
303 479 357 77 58 42
219 524 238 103 19 40
300 472 361 76 58 42
294 471 378 66 41 30
416 434 279 156 19 43
368 406 297 66 56 49
291 472 370 70 41 32
248 694 217 149 106 90
291 472 383 58 42 30
303 934 324 45 43 44
303 468 373 61 45 32
298 469 383 60 41 29
323 709 322 144 14 46
305 948 326 68 63 60
303 479 382 45 23 29
240 578 261 133 15 45
313 454 352 101 80 59
273 763 248 78 63 56
308 464 354 100 75 53
313 463 354 95 74 51
308 599 193 145 5 36
319 460 357 81 65 48
317 463 359 75 61 44
376 887 295 30 28 29
376 922 295 63 43 43
313 463 378 60 44 32
308 465 383 71 38 30
372 559 239 160 13 41
390 693 274 132 16 43
312 464 384 77 35 34
313 465 368 65 52 37
317 462 372 62 50 36
319 460 373 64 46 35
315 461 379 72 43 36
318 460 378 72 45 37
288 501 388 64 26 33
233 664 192 124 92 55
309 470 357 82 63 42
312 468 358 73 57 42
393 539 263 77 33 37
402 837 281 29 26 25
308 470 364 71 56 40
283 509 398 80 41 44
306 474 355 80 61 43
306 478 357 76 58 41
314 466 363 65 52 38
194 534 222 163 120 99
347 956 324 52 44 42
306 467 372 61 48 35
357 633 322 165 10 51
308 466 373 60 48 34
294 618 312 75 30 36
308 465 378 59 45 33
304 466 383 57 44 30
404 514 277 39 36 37
313 469 383 111 25 43
308 474 382 42 26 29
278 814 167 180 123 90
307 479 381 42 25 27
313 473 381 81 27 36
310 479 380 53 21 29
318 469 382 102 24 41
318 465 384 78 28 36
318 475 380 46 28 32
299 482 352 78 59 44
383 424 353 64 21 24
302 482 353 78 58 43
291 510 335 81 23 39
385 570 315 177 1 55
313 570 186 150 9 35
289 499 343 37 27 32
290 503 338 38 29 31
403 954 323 91 79 70
292 505 343 42 27 29
289 499 353 39 30 28
291 504 353 47 27 28
383 674 278 112 17 40
368 909 228 74 65 64
291 505 339 50 26 30
338 569 358 45 29 32
383 406 288 65 52 45
351 554 215 143 11 35
294 509 348 37 30 30
402 813 322 176 120 93
292 509 353 39 26 31
383 425 383 64 18 25
303 484 382 90 12 33
323 965 246 94 89 91
303 488 384 115 0 34
291 508 356 40 28 25
292 506 380 50 28 31
293 508 377 53 26 30
299 508 382 53 27 32
301 511 380 78 19 33
303 509 383 44 25 28
413 454 278 53 29 34
308 489 384 115 0 36
313 484 380 119 9 40
291 782 160 142 100 64
373 678 208 63 49 36
312 486 381 126 6 39
297 581 339 190 7 56
313 489 382 113 3 35
277 537 391 190 126 100
307 510 385 37 29 27
440 421 338 160 12 48
339 388 262 104 89 74
259 679 238 54 33 37
341 391 260 104 88 72
344 388 268 104 88 73
372 863 209 75 65 67
349 399 303 77 65 52
347 389 273 99 84 70
348 395 263 109 92 75
353 400 258 111 89 73
378 423 338 67 29 30
349 393 273 99 84 69
428 943 318 80 68 62
352 395 273 95 80 66
339 619 354 153 109 77
348 389 278 84 73 61
346 385 283 82 71 61
348 389 283 74 65 56
411 761 298 139 102 68
348 389 288 68 60 53
353 395 278 77 67 57
368 519 373 170 8 54
303 958 308 61 57 56
350 393 283 70 61 53
344 521 380 169 9 52
352 395 283 68 60 52
349 394 288 66 59 51
351 396 287 67 59 51
373 468 382 97 26 40
354 397 283 67 59 52
279 604 307 57 31 35
370 673 328 134 97 63
273 635 196 95 27 35
346 386 292 75 66 58
353 397 288 66 58 51
293 929 318 53 47 47
353 399 293 66 58 50
348 394 298 76 65 55
257 524 284 140 0 42
382 669 268 132 11 42
350 398 298 73 63 53
352 400 297 69 61 53
443 864 312 76 63 52
345 387 313 106 85 59
346 389 313 103 82 59
406 458 265 161 13 39
346 390 316 107 84 58
347 394 308 91 74 56
345 393 319 109 86 61
400 874 238 78 65 61
338 659 355 178 127 100
347 399 318 95 77 56
298 629 308 134 17 48
350 405 300 71 60 50
303 824 174 66 51 49
350 408 303 69 59 49
218 534 229 127 2 40
352 410 303 67 55 46
350 410 314 71 61 50
240 613 242 96 25 39
351 409 313 71 61 50
349 404 318 83 69 53
281 650 285 76 20 32
408 416 348 78 12 29
328 495 382 120 5 39
349 409 318 74 62 51
444 839 313 78 65 53
351 410 308 69 59 49
332 957 331 51 47 44
350 413 313 70 60 50
282 693 279 75 25 34
368 471 380 102 23 40
353 415 318 70 59 49
358 400 263 111 86 70
354 397 268 106 88 71
358 399 268 102 84 68
354 397 278 75 66 56
358 399 278 73 63 54
363 403 258 129 69 57
358 863 113 118 94 78
361 401 264 111 81 66
360 402 261 115 83 67
343 533 376 182 0 57
368 404 258 139 54 48
294 784 247 65 52 48
362 401 268 100 77 64
364 402 268 100 73 61
286 597 190 61 29 36
329 960 294 75 70 70
363 401 273 83 68 58
363 401 278 70 60 52
368 403 288 65 57 49
400 406 296 54 27 29
373 405 263 117 51 49
234 664 211 162 122 103
380 601 286 88 29 45
378 408 258 127 29 37
298 764 162 120 88 53
377 406 259 125 38 43
380 407 262 105 35 41
256 635 254 43 28 32
378 405 273 72 53 47
240 518 271 155 5 49
373 634 283 45 28 34
431 799 291 54 41 29
353 447 396 103 25 41
384 407 266 82 41 42
363 863 99 110 79 64
323 419 344 90 74 57
373 404 278 67 56 49
378 404 278 66 55 47
378 405 283 65 56 48
383 405 283 64 53 45
358 400 293 64 55 48
358 404 297 66 57 50
240 514 170 106 22 34
421 742 261 59 48 38
298 864 244 119 88 59
361 401 291 65 56 49
363 403 293 65 57 49
448 788 273 69 57 46
368 404 293 66 57 48
363 405 298 64 56 48
363 407 300 64 56 48
358 493 370 137 16 46
358 415 308 65 43 40
270 618 291 96 36 48
364 411 306 67 58 49
361 412 305 66 54 47
368 414 313 76 44 41
378 407 295 69 52 46
343 854 163 96 79 67
383 407 294 69 48 44
417 494 303 169 8 45
378 408 298 70 51 46
384 544 252 139 13 35
270 871 276 131 103 80
383 408 298 71 48 44
375 689 203 50 43 38
383 409 303 72 48 43
373 412 309 75 46 41
378 413 313 74 49 43
400 499 266 101 31 40
253 704 243 64 34 38
268 884 268 184 133 112
384 418 257 115 27 31
355 417 310 59 24 28
415 794 283 112 78 52
431 444 348 100 23 37
358 417 318 70 54 46
368 418 319 77 38 37
333 389 334 123 95 69
367 664 306 37 28 31
399 422 379 63 15 23
334 399 335 115 92 66
323 389 339 131 101 75
328 389 337 129 99 73
323 400 341 123 96 70
328 394 338 127 98 71
264 762 242 69 57 54
368 420 323 73 39 37
451 936 325 99 78 54
332 399 337 118 93 67
335 403 335 108 87 63
323 404 341 116 92 66
326 404 341 116 92 66
331 664 328 170 114 99
333 404 337 108 86 63
419 489 308 172 10 45
339 389 328 118 94 68
426 853 270 76 61 56
342 389 323 115 91 64
340 388 325 119 94 66
341 390 326 117 93 66
373 672 223 76 52 44
339 394 329 115 92 67
344 399 324 104 84 62
338 399 332 111 89 64
322 845 208 128 82 67
340 398 330 110 88 64
346 399 322 99 80 58
282 874 252 152 115 86
418 801 277 35 30 29
256 621 195 91 67 44
343 404 328 94 77 58
368 933 273 68 60 64
341 405 331 94 77 59
353 884 153 106 88 77
342 409 332 80 67 54
344 408 330 82 68 54
284 524 318 58 26 34
339 414 334 76 64 52
376 655 258 112 27 39
280 658 281 80 33 39
347 405 323 86 71 54
348 539 208 44 35 35
423 853 294 56 47 40
347 409 327 77 64 52
350 413 323 71 60 49
388 798 336 188 133 105
408 412 328 62 25 29
258 664 228 44 27 34
336 410 336 90 74 58
337 414 336 82 69 55
328 424 343 87 72 56
322 429 346 84 69 53
324 429 345 84 69 54
423 406 313 63 26 26
332 420 341 88 73 57
347 624 220 76 32 37
268 949 283 72 68 70
333 429 342 83 68 53
301 572 330 99 3 35
417 790 267 44 36 31
401 784 214 55 46 41
324 433 345 83 68 51
328 433 344 84 68 52
293 754 267 75 59 53
320 831 261 120 93 70
343 939 336 50 46 44
328 439 347 87 70 51
323 444 348 89 72 53
421 483 313 185 13 50
432 819 273 81 66 56
328 444 348 87 70 51
408 400 263 55 30 31
328 449 349 86 70 50
333 434 344 84 68 52
334 439 345 85 69 50
244 734 207 175 121 96
331 436 346 87 70 52
333 444 346 84 68 51
335 442 345 82 66 50
343 624 217 98 23 35
340 418 335 75 63 52
366 937 258 72 67 69
343 419 333 70 61 51
319 819 252 158 120 99
344 424 334 71 60 49
184 523 208 197 134 110
349 419 329 69 59 49
401 507 356 154 18 53
360 936 292 78 70 75
253 709 177 121 90 54
331 868 172 65 58 54
351 416 326 70 59 49
347 420 331 68 58 49
348 424 332 69 57 47
350 423 330 70 56 48
345 428 335 71 60 49
354 428 329 70 56 46
345 514 201 131 12 34
352 430 332 72 52 44
338 419 337 80 67 54
428 411 341 70 17 27
341 421 336 75 63 52
339 429 340 80 66 51
365 930 242 76 67 66
343 429 337 76 64 50
348 433 335 71 54 45
353 433 334 73 39 38
338 439 343 82 66 49
283 864 253 129 103 76
343 440 342 75 52 40
338 443 345 78 62 47
343 442 344 72 39 38
338 445 347 70 55 41
343 444 353 66 37 34
353 436 337 72 27 32
352 437 339 73 24 31
348 440 343 73 34 37
346 442 350 70 44 39
346 442 353 69 42 38
342 448 362 65 32 30
341 447 367 66 31 29
409 830 238 71 59 57
377 675 218 85 64 44
314 758 303 74 60 58
288 714 182 87 24 27
353 438 363 66 38 32
346 442 358 66 39 35
347 442 363 65 35 31
216 520 228 146 11 46
349 440 363 65 37 32
337 447 383 81 23 28
273 584 173 87 18 30
386 680 272 53 29 33
343 444 378 81 22 29
343 443 383 84 20 29
277 524 143 107 14 37
325 911 193 78 71 69
353 438 373 76 22 28
349 440 378 83 19 29
346 442 378 82 21 29
358 749 177 62 50 44
284 594 317 168 6 54
299 699 302 86 27 37
354 418 324 68 55 45
358 419 323 69 40 36
248 639 186 131 99 63
356 421 326 69 48 38
358 424 326 63 41 32
323 972 273 49 47 48
288 484 389 116 2 35
356 431 331 69 58 47
378 427 388 65 20 24
363 423 324 64 39 36
363 425 326 62 40 36
381 670 282 66 23 31
401 509 269 55 31 33
366 427 329 63 41 36
364 431 333 61 42 37
364 431 338 64 45 38
368 430 348 64 40 35
277 894 257 173 126 102
361 432 330 50 28 22
355 436 343 69 50 43
358 435 348 68 48 41
358 435 353 68 47 41
322 457 378 72 46 37
362 433 338 65 47 40
362 433 343 66 46 39
362 433 348 66 46 39
455 792 254 82 67 52
249 809 178 178 122 89
374 421 327 74 39 37
372 422 329 73 39 36
288 784 160 148 102 68
369 426 332 66 40 36
353 476 375 119 27 44
328 564 359 75 22 36
379 416 321 75 45 41
319 768 292 77 59 55
378 420 328 76 38 37
382 417 324 76 39 38
383 418 328 76 36 36
240 689 211 163 117 94
379 421 332 74 33 34
238 604 243 47 31 35
377 422 334 71 33 34
358 669 342 133 91 59
372 427 343 61 38 34
312 870 311 145 110 84
373 428 348 63 34 31
373 428 353 64 31 30
322 561 360 45 28 31
412 902 322 67 58 51
383 421 338 72 21 28
378 425 348 62 26 26
249 599 273 178 4 54
231 559 239 144 8 44
368 431 368 66 28 30
368 430 378 67 19 24
368 430 383 68 17 23
363 903 313 37 34 35
339 798 286 62 51 48
358 435 363 67 37 33
421 479 303 98 31 43
378 904 258 64 57 57
329 937 220 90 84 85
363 433 363 67 36 34
268 734 164 116 91 60
372 699 342 158 107 76
363 433 368 67 26 28
366 432 368 66 28 29
358 435 373 74 19 28
355 436 380 82 14 30
400 718 265 57 34 31
355 436 383 84 16 31
353 549 217 137 10 35
447 868 318 79 67 58
363 433 373 69 18 26
258 714 172 114 88 56
366 432 373 67 20 25
363 433 383 73 11 25
366 432 376 68 18 24
373 428 363 66 29 32
376 427 354 64 27 28
376 427 358 64 24 27
379 426 358 64 21 26
336 679 338 183 130 106
383 424 358 65 18 24
379 426 363 64 21 27
421 779 257 44 38 34
379 426 368 64 20 28
277 889 257 165 121 97
383 425 368 64 17 26
384 754 192 62 48 43
373 428 383 66 19 23
383 425 373 64 17 26
377 427 378 66 20 25
241 605 249 136 17 47
283 689 278 73 26 34
379 426 378 65 19 25
393 444 387 143 14 48
379 426 383 65 20 24
323 451 352 90 72 53
330 452 350 83 67 48
333 454 352 78 63 46
388 569 308 178 3 54
324 461 362 69 56 41
322 462 367 68 54 40
269 818 169 178 121 87
328 458 368 69 52 40
334 455 364 68 45 36
333 458 354 71 57 43
395 514 261 39 29 35
275 896 296 116 87 65
330 864 188 44 38 39
328 454 378 71 43 36
328 453 383 76 39 34
290 608 316 136 18 49
250 567 185 55 21 32
325 456 374 70 47 38
358 779 323 178 127 102
313 879 314 167 121 97
328 464 383 115 24 43
298 769 262 72 58 52
333 450 383 79 28 30
264 609 188 134 8 31
328 474 378 98 22 39
351 745 325 180 124 102
328 479 377 117 20 43
333 468 382 36 29 31
318 754 313 189 16 62
338 824 268 135 104 79
270 486 398 101 0 28
333 471 380 33 28 29
380 536 246 90 28 32
334 480 375 63 23 33
431 452 319 118 23 42
333 479 376 110 20 43
339 454 358 65 32 31
358 739 178 61 49 42
362 868 118 112 88 69
337 454 363 66 37 33
336 452 367 66 37 33
337 458 354 65 51 39
358 471 380 56 27 31
348 464 383 158 14 51
338 468 382 39 29 30
358 714 178 53 37 33
293 754 163 108 85 55
338 471 380 34 29 30
428 459 313 90 31 39
364 614 243 50 35 37
343 468 381 78 32 40
343 470 379 35 27 31
418 444 368 61 30 33
407 819 238 67 55 54
347 962 268 71 63 62
343 476 375 88 28 41
343 479 374 81 24 36
404 729 232 61 46 36
336 477 376 137 26 56
353 464 384 177 14 58
353 468 381 139 18 47
353 470 380 92 22 36
427 434 363 53 32 33
391 558 317 190 10 58
353 479 373 124 24 45
328 484 377 46 24 29
321 491 381 120 8 40
323 494 382 107 6 32
333 494 379 128 4 40
345 441 393 86 17 32
332 496 381 127 3 42
338 484 374 130 23 48
317 734 167 70 35 34
285 934 225 76 68 66
343 493 374 131 6 39
180 512 221 168 120 102
335 906 201 78 68 67
338 494 377 132 4 42
353 483 371 94 29 40
404 534 313 186 14 53
351 489 371 125 25 42
348 494 373 136 11 42
248 589 198 58 30 32
353 493 370 140 10 42
340 502 380 150 1 46
343 499 377 149 2 47
327 929 198 84 75 75
347 500 376 146 7 45
359 769 177 55 47 43
343 504 379 148 4 46
249 584 194 79 24 31
375 695 210 49 38 36
348 498 374 139 10 45
328 774 298 74 58 54
423 813 288 48 40 34
345 497 375 147 4 44
357 684 346 166 113 83
354 503 375 111 13 37
348 504 378 144 9 45
310 952 326 76 67 63
352 505 376 111 16 38
428 799 283 46 38 30
348 509 379 119 17 41
345 507 380 148 7 44
346 559 210 136 14 37
358 468 381 95 25 36
358 476 375 89 21 36
277 485 406 95 24 41
358 474 377 79 30 39
356 537 371 176 10 53
363 464 384 128 27 48
363 470 380 74 31 36
255 738 217 140 65 60
318 458 403 67 29 33
330 861 180 50 45 43
363 476 375 114 27 44
363 479 373 71 25 35
283 769 248 78 62 54
251 531 166 63 26 29
366 476 375 118 24 42
258 759 228 131 23 50
428 408 323 51 26 27
368 474 378 116 25 45
384 899 273 70 61 59
378 464 383 111 20 40
383 464 382 162 14 51
295 684 296 51 28 32
315 638 343 184 130 103
195 553 209 171 117 93
373 464 384 125 26 48
373 479 373 51 28 31
357 579 224 73 35 40
287 909 315 177 138 118
374 477 376 45 27 33
378 471 380 69 27 32
383 470 379 125 23 45
378 479 373 99 27 41
380 476 375 170 12 45
331 916 201 104 85 83
368 494 367 105 23 39
354 485 370 70 24 33
358 484 370 63 26 31
413 400 263 60 26 26
363 481 370 62 26 30
268 924 288 176 136 114
363 484 369 115 25 44
323 693 315 118 1 37
368 481 370 52 26 32
363 494 369 83 20 34
358 504 374 137 10 43
416 734 230 70 53 42
378 850 203 73 63 64
360 497 370 150 15 49
424 734 258 68 55 41
364 498 370 117 17 40
259 705 175 108 85 55
368 499 369 52 23 30
335 772 306 77 63 58
366 501 371 40 19 26
369 503 370 132 18 44
373 484 368 111 24 43
373 489 366 153 21 51
278 479 393 92 4 31
329 870 174 59 53 54
378 487 366 127 17 44
383 487 366 59 22 30
