ply
format ascii 1.0
comment Created by Open3D
element vertex 2219
property double x
property double y
property double z
property uchar red
property uchar green
property uchar blue
end_header
251 164 267 117 95 71
321 11 272 140 65 73
263 464 305 35 27 28
420 512 362 91 10 29
251 169 267 121 97 69
333 270 245 98 78 57
306 394 217 100 85 70
282 59 246 121 29 36
255 464 211 113 18 29
249 857 266 141 113 85
382 840 231 63 52 50
415 574 242 199 15 55
425 469 224 66 33 35
252 164 272 114 92 69
364 164 222 116 95 73
251 174 267 125 98 68
368 863 216 62 55 55
464 488 318 180 17 48
280 134 262 111 88 60
256 960 297 62 58 57
232 579 252 132 14 42
238 549 224 104 29 43
246 779 191 118 87 48
251 394 237 63 40 44
381 444 290 91 14 31
315 502 305 142 8 45
251 174 272 120 96 71
322 788 295 68 54 49
380 350 261 117 93 64
306 339 339 161 109 88
104 707 195 123 97 65
251 199 277 126 100 69
253 164 281 116 94 70
246 919 312 174 133 117
369 789 372 172 123 103
276 179 301 108 90 72
261 34 282 118 37 49
321 89 222 120 25 41
113 877 209 196 133 121
254 169 283 117 94 68
303 12 292 170 113 119
334 280 225 134 106 75
257 164 287 116 94 72
262 920 371 134 91 76
331 97 250 126 100 74
264 933 324 49 43 46
256 169 287 116 94 71
286 406 157 106 45 40
291 239 322 112 91 68
391 875 273 70 55 47
327 12 270 137 74 81
247 399 233 61 40 37
257 209 296 114 92 68
336 523 289 94 10 31
253 214 272 133 101 67
361 729 189 64 48 39
271 17 260 99 86 72
315 394 233 90 76 61
266 194 303 112 92 71
360 339 275 117 85 58
482 466 357 99 13 33
313 49 244 100 19 31
281 924 352 147 104 92
253 174 281 116 93 69
286 424 146 145 2 33
179 740 225 117 96 75
393 581 312 65 23 32
287 35 284 131 22 48
441 449 221 53 33 36
255 179 261 133 101 65
342 596 349 192 13 62
365 234 256 120 96 67
326 79 253 108 51 48
284 432 192 86 19 29
254 616 235 166 16 50
106 749 228 163 126 109
265 104 228 130 20 40
265 914 212 75 68 67
319 22 245 96 38 36
268 400 224 52 40 37
296 916 330 56 49 49
337 289 256 84 70 57
285 424 201 97 13 31
299 24 269 142 30 39
374 836 274 92 63 48
352 430 169 58 35 32
368 208 210 119 96 68
368 854 217 58 50 53
255 184 261 135 102 65
240 509 216 139 3 34
350 104 207 133 29 46
360 695 213 55 42 34
252 609 233 50 32 36
342 683 210 72 51 40
251 184 267 132 102 69
305 469 159 130 17 33
326 854 262 98 66 56
289 836 210 80 64 54
349 37 255 126 12 45
251 184 272 123 98 68
296 234 318 111 90 67
256 189 262 133 102 65
327 60 193 104 33 28
251 189 272 126 100 69
391 792 215 71 54 52
297 289 341 125 93 69
331 39 222 109 83 63
253 188 264 134 102 66
251 184 277 119 96 70
418 494 210 63 28 30
336 109 198 129 58 60
257 489 198 122 9 31
326 449 182 91 24 23
431 864 257 83 64 50
257 639 238 143 0 36
349 212 254 101 82 61
336 29 272 140 26 56
262 90 220 139 13 34
296 819 177 82 68 58
428 893 245 81 68 59
393 779 434 165 118 92
411 424 232 61 46 41
281 474 159 73 34 39
266 749 297 95 33 43
378 869 242 73 67 67
277 54 241 83 39 29
340 379 217 96 83 70
254 179 284 115 92 68
312 419 308 145 103 84
400 819 252 120 85 63
249 434 288 78 25 36
280 449 182 96 23 38
396 879 262 102 86 72
371 424 288 88 70 48
333 429 294 47 24 26
255 179 287 115 93 69
245 659 282 45 28 34
248 439 287 32 29 30
267 487 300 79 20 31
252 189 282 116 94 68
334 250 220 137 107 71
254 408 289 98 17 34
464 468 405 118 30 47
314 265 302 109 88 65
345 434 172 58 35 36
354 429 306 115 9 35
271 28 292 130 49 59
257 189 292 116 94 70
251 194 272 129 101 69
246 524 287 51 28 32
370 264 255 124 95 62
225 784 190 131 91 51
395 804 212 65 53 49
242 733 296 34 26 32
371 584 336 177 10 55
332 139 232 107 85 58
251 199 272 132 104 71
372 770 422 125 102 78
266 144 246 135 99 65
346 15 252 105 64 57
312 358 260 89 76 62
369 259 255 125 96 62
132 707 219 114 93 72
129 774 204 159 98 74
253 199 268 134 103 67
258 500 194 42 32 35
334 284 248 90 72 53
322 25 238 77 35 30
276 445 314 38 27 31
373 202 229 117 95 71
433 501 300 34 22 24
135 731 224 171 122 103
305 18 297 162 108 95
347 48 216 112 85 68
365 489 289 75 19 32
336 34 266 119 65 59
255 200 266 134 104 67
274 233 319 113 92 68
253 204 268 134 103 68
175 721 211 76 65 54
286 396 227 104 89 74
411 519 362 81 12 26
276 55 279 118 23 43
437 480 392 98 7 30
359 567 351 57 24 31
265 55 223 106 89 66
255 204 266 134 103 67
318 871 210 63 58 58
330 764 173 61 48 43
348 58 201 93 52 23
264 223 309 114 93 71
340 813 412 146 116 91
330 394 252 87 68 51
302 689 182 62 47 39
339 239 210 133 103 65
253 208 269 133 102 67
294 225 315 109 88 65
333 159 219 116 90 59
99 734 201 150 109 77
252 194 282 119 96 70
378 732 219 46 38 31
430 509 352 174 18 52
402 801 377 209 137 108
330 189 227 113 91 64
316 634 321 81 29 40
328 791 185 60 50 45
387 790 215 69 56 51
253 194 286 117 94 70
246 404 232 60 36 36
337 704 180 60 45 37
260 580 210 161 3 37
404 598 277 179 15 54
291 814 271 175 123 104
260 112 234 141 93 69
459 482 336 93 1 31
337 249 246 99 80 60
391 753 228 47 39 34
431 499 223 122 3 25
270 409 221 45 34 39
236 748 211 100 85 70
233 494 252 52 30 33
416 854 287 75 60 46
404 421 250 87 71 55
243 957 287 96 91 90
361 154 242 116 93 68
252 204 277 127 99 67
363 830 190 85 69 60
411 428 252 74 59 45
253 204 287 118 94 68
303 616 327 64 27 33
252 209 282 124 98 68
367 174 237 115 94 71
332 149 222 112 87 58
289 53 275 124 15 45
272 913 198 86 76 75
322 103 222 131 24 45
261 854 303 144 112 89
298 199 287 112 90 66
249 429 288 77 25 35
263 62 275 111 87 71
378 222 227 118 96 72
366 454 164 87 32 35
110 745 195 152 104 69
487 470 347 205 14 55
254 211 270 131 97 63
366 749 141 92 70 56
193 792 215 175 128 101
356 724 188 68 49 41
446 484 277 86 28 37
368 192 244 120 97 71
254 214 270 136 100 67
255 219 271 140 103 68
395 394 247 111 90 66
230 559 267 57 28 32
320 59 217 84 34 27
389 817 208 70 55 51
255 224 272 144 104 70
260 129 278 107 89 72
319 80 248 107 63 58
251 919 232 65 59 62
276 444 197 57 34 35
399 542 346 157 19 52
238 607 254 56 31 35
331 449 298 38 22 25
378 247 244 121 95 64
343 745 185 59 46 42
354 719 325 73 27 37
286 324 278 94 81 66
253 214 287 121 96 68
260 392 256 122 93 80
121 863 210 101 82 60
397 404 252 103 84 62
432 510 322 67 18 29
371 284 212 131 99 60
488 884 244 172 162 163
271 114 247 121 87 53
383 377 215 107 90 71
253 224 277 135 101 68
335 908 228 76 66 64
182 727 214 77 65 52
315 864 192 67 63 64
337 484 292 59 18 24
276 554 294 163 14 50
303 228 280 114 90 62
360 139 232 112 92 70
253 219 287 121 95 67
190 789 207 216 150 115
253 229 287 128 99 69
261 459 207 102 23 30
490 885 253 86 71 55
236 509 262 124 12 41
311 908 317 33 32 33
253 224 282 126 97 67
276 169 253 133 100 62
248 739 209 84 69 52
336 20 284 141 99 79
152 737 194 155 103 67
253 224 287 123 96 67
372 635 236 82 34 40
297 865 158 100 80 70
243 450 224 120 20 32
320 622 330 35 29 31
270 469 191 46 32 32
281 769 288 69 56 50
254 194 289 115 93 70
306 394 227 100 85 69
262 114 275 106 88 69
249 499 205 33 35 40
299 822 175 85 69 58
373 713 299 155 14 47
256 469 207 114 16 29
254 198 289 115 93 68
298 250 275 103 80 52
346 914 302 54 45 40
459 487 346 126 34 53
322 804 186 59 51 55
353 39 247 121 24 45
249 494 206 66 26 32
251 399 231 52 41 42
245 434 272 57 29 33
244 619 278 36 27 32
285 69 252 112 43 43
255 199 292 114 92 67
271 565 196 124 24 41
243 414 246 140 1 39
262 479 197 113 10 30
428 496 395 119 11 37
257 910 228 151 102 78
366 429 162 143 4 30
250 914 237 67 61 60
255 204 293 114 92 67
371 812 205 61 55 54
240 579 232 54 33 37
285 799 186 50 43 41
239 459 263 86 20 35
271 728 310 181 11 58
296 954 312 68 61 57
254 209 293 115 93 67
439 478 387 86 13 30
320 56 259 121 76 67
394 394 257 112 90 64
307 14 267 135 45 42
251 868 303 118 46 58
260 59 273 99 43 40
253 214 291 118 94 68
341 860 266 37 33 32
262 269 297 158 108 83
253 219 290 119 95 68
414 522 332 61 23 32
256 219 297 115 92 67
408 422 224 64 37 36
398 816 329 198 131 99
288 410 176 122 8 38
349 48 246 129 35 52
253 224 291 121 96 69
256 414 225 44 37 40
288 204 260 129 95 58
243 574 282 62 28 34
327 374 247 77 66 54
241 464 222 84 34 37
313 694 169 76 59 46
261 74 212 145 16 36
366 519 291 32 25 26
254 226 275 141 103 69
98 759 212 169 122 99
391 415 177 85 62 53
438 520 280 171 15 39
356 194 207 122 97 66
255 549 201 104 29 38
341 895 317 42 36 36
254 230 280 139 102 70
330 593 337 76 9 26
369 772 194 44 42 41
481 464 332 120 12 37
447 510 322 157 26 54
422 893 232 87 79 74
346 883 282 33 30 33
256 234 277 145 103 73
176 774 207 226 152 121
343 420 174 105 31 37
250 464 216 56 32 34
374 811 342 190 131 106
314 54 242 96 53 41
281 179 256 122 93 57
333 269 224 138 107 73
390 563 335 173 15 54
253 232 283 138 103 70
291 644 316 130 30 50
370 269 209 133 97 57
257 593 219 162 4 41
256 769 277 79 64 57
254 235 287 136 102 72
254 556 205 120 28 41
256 239 282 147 105 74
329 26 279 134 45 54
347 69 242 108 65 58
330 410 282 96 72 53
442 475 396 73 23 30
431 484 291 98 2 30
255 239 287 141 103 74
350 34 257 128 40 52
276 229 318 110 89 67
286 353 261 99 86 73
403 536 323 67 21 28
251 429 292 74 27 35
363 818 296 147 105 81
256 244 287 148 105 77
261 809 197 65 53 50
361 374 280 123 90 62
422 509 252 53 27 34
324 943 295 59 51 48
241 504 277 33 29 31
441 484 273 117 16 36
416 430 257 70 49 41
246 929 237 67 62 64
160 736 195 137 94 56
301 324 275 86 73 59
345 857 264 40 36 34
468 866 263 79 60 40
258 27 285 106 47 48
259 654 299 146 11 46
274 72 229 127 29 38
343 64 190 97 44 25
444 502 235 50 30 34
254 229 297 120 96 69
261 189 297 115 94 72
304 467 299 36 24 26
320 299 292 98 80 60
263 223 264 140 101 66
257 229 301 117 94 68
181 744 195 126 90 53
340 364 273 66 49 30
237 494 267 151 7 45
356 639 227 80 31 37
326 18 241 93 79 65
372 314 257 123 91 56
253 232 290 129 99 69
422 421 236 76 25 28
121 874 222 130 86 79
359 179 250 119 96 69
341 459 306 82 20 32
261 169 253 139 104 65
266 559 293 107 21 42
255 644 241 128 5 33
353 119 220 103 86 67
331 684 174 75 54 40
330 918 330 51 43 40
254 234 292 130 99 70
316 399 197 92 79 65
255 234 297 124 97 69
285 404 211 89 27 29
256 234 302 120 95 68
328 51 203 114 79 44
411 554 307 40 27 33
469 444 289 118 25 43
327 108 217 131 59 56
281 30 288 126 77 67
363 511 290 28 25 26
346 489 166 57 34 38
234 489 257 55 29 32
276 10 297 118 74 61
375 234 213 118 94 65
376 849 264 39 33 30
291 405 147 116 31 38
257 239 302 122 96 68
459 856 254 75 51 37
351 774 196 46 39 39
350 34 233 89 43 32
296 384 238 104 89 75
370 848 212 65 55 53
351 864 266 41 35 33
287 59 257 108 57 51
267 489 182 69 27 32
251 469 213 117 18 32
256 244 292 142 103 74
481 475 352 209 13 56
251 395 233 49 40 45
390 749 257 138 103 70
372 566 190 186 8 51
331 875 215 59 53 53
257 444 218 117 19 27
253 485 204 119 11 30
256 394 237 84 44 49
261 504 294 34 27 28
268 494 172 138 2 36
237 734 287 182 9 57
121 749 191 170 111 79
243 400 243 43 35 37
361 259 260 115 90 61
269 50 279 121 12 44
295 478 299 42 22 25
291 199 262 132 97 57
261 599 292 58 27 34
390 775 436 148 108 85
246 395 242 44 35 39
236 459 242 68 23 33
246 395 247 39 31 35
246 454 222 64 29 34
276 742 187 65 50 46
306 338 271 91 76 60
326 389 232 105 82 58
320 350 273 112 89 65
276 10 277 100 71 58
287 634 219 116 12 32
296 20 302 183 136 118
330 194 227 114 92 66
331 13 252 95 76 60
267 229 264 141 103 66
291 784 172 78 59 46
316 824 152 83 64 53
296 444 312 58 26 31
233 509 247 144 3 41
290 169 277 110 88 64
273 118 250 122 91 56
384 355 260 121 96 68
336 204 213 123 97 67
290 912 323 45 38 37
247 419 267 93 18 35
244 399 242 42 36 37
354 69 216 113 19 39
283 84 257 115 19 39
425 427 253 60 18 24
251 393 242 63 44 44
303 747 311 80 64 57
356 799 427 157 122 99
229 734 263 66 24 34
246 479 287 143 12 42
315 414 307 142 100 81
251 393 247 63 47 45
346 827 270 46 38 34
317 94 227 110 25 38
295 844 207 48 46 48
282 794 188 53 45 43
286 504 168 151 9 37
279 108 254 124 86 62
369 471 165 98 35 38
251 394 252 78 51 48
337 334 218 118 92 66
139 851 219 117 87 56
251 394 257 104 46 48
270 104 237 127 45 45
346 418 283 55 43 30
359 632 224 53 29 27
321 689 320 115 19 40
250 509 202 44 33 38
257 223 269 142 102 68
386 494 162 74 33 37
238 444 237 77 26 35
256 393 252 96 72 65
449 469 279 62 22 33
446 460 290 76 45 47
246 684 232 125 22 34
385 769 291 131 100 69
342 401 194 87 76 65
356 834 183 90 72 64
291 354 258 100 87 73
338 638 220 60 35 27
261 829 217 67 57 56
262 63 215 106 35 29
378 546 367 42 27 29
246 748 206 95 77 56
259 170 255 137 103 64
315 854 153 117 101 94
370 269 256 125 94 61
305 229 287 111 89 64
437 425 224 124 15 27
256 393 257 112 67 63
246 804 247 63 53 50
283 159 260 115 90 59
358 703 318 97 15 35
250 439 292 72 27 36
123 769 229 149 109 92
361 479 165 55 37 39
323 495 304 116 4 36
265 438 215 49 32 33
265 69 274 114 13 41
396 833 292 128 84 63
378 546 180 174 8 40
251 679 231 47 33 32
233 499 237 94 25 36
316 279 297 104 85 64
284 59 248 138 29 45
245 409 232 55 36 37
325 375 262 79 67 56
338 97 194 116 106 96
331 402 253 96 71 51
296 10 292 172 112 119
457 495 317 142 20 41
328 394 282 113 81 63
391 549 352 83 32 41
306 569 187 189 8 41
331 923 322 55 48 44
244 408 235 37 34 34
245 414 231 53 37 38
311 393 241 94 79 64
346 124 248 120 95 66
352 24 257 106 32 41
296 34 267 134 30 46
274 591 210 168 0 36
310 254 312 114 92 68
133 765 207 169 100 77
322 334 333 130 91 71
243 410 234 95 37 45
321 448 185 81 24 33
263 757 290 73 59 53
333 234 237 106 84 59
335 239 216 134 105 69
294 11 310 145 39 62
284 67 249 122 45 45
243 415 233 85 27 35
311 769 173 58 49 42
361 234 204 128 97 58
470 473 332 127 9 39
256 869 307 124 66 69
373 814 317 176 121 95
276 179 254 127 97 60
252 439 297 76 26 35
325 399 292 120 85 63
351 294 212 129 96 63
318 420 299 132 92 72
245 539 211 92 34 39
401 524 187 99 30 39
252 401 229 48 39 43
100 719 218 153 120 95
261 13 267 92 70 60
366 774 152 95 76 63
261 899 232 137 86 69
251 409 228 63 39 37
257 400 229 48 43 44
296 224 312 110 90 67
281 24 258 103 30 26
271 929 367 180 118 110
275 359 323 134 101 75
256 404 228 56 37 37
277 70 274 119 88 68
312 368 256 89 76 62
321 34 236 69 38 27
456 459 292 91 4 27
256 409 226 65 38 37
233 494 247 58 30 35
280 889 187 90 78 76
289 190 300 110 90 67
297 424 319 115 61 55
243 409 242 120 13 37
436 534 287 186 14 55
279 102 248 141 70 67
376 759 196 63 49 43
251 539 292 159 15 49
326 309 307 110 86 58
275 444 162 84 32 40
305 581 195 102 25 37
374 430 290 67 47 33
330 633 320 121 33 49
342 194 209 118 95 67
389 512 169 162 8 32
306 739 318 156 15 50
286 254 328 116 93 68
279 88 270 114 61 57
242 434 228 73 24 30
381 434 288 90 62 44
243 406 245 138 15 39
312 753 311 76 61 56
234 499 257 91 21 36
385 719 252 143 17 46
330 399 207 81 69 57
98 729 216 156 118 94
246 454 287 106 17 37
460 425 235 57 29 31
356 134 222 109 90 70
283 424 172 55 29 29
263 264 310 132 98 73
381 279 232 125 96 61
296 399 207 101 85 70
318 279 317 117 93 64
244 409 252 105 14 39
237 459 252 130 1 36
297 224 271 113 87 57
243 414 242 138 3 38
281 10 272 104 74 60
319 99 226 99 46 39
373 780 435 153 121 96
244 414 252 142 3 39
246 419 262 138 6 40
351 499 165 102 22 34
271 179 254 133 100 63
368 174 227 119 98 74
328 309 241 101 82 62
286 743 181 59 49 48
269 83 227 136 29 42
371 416 162 94 66 49
231 719 272 155 1 48
282 386 244 104 89 74
351 689 211 73 43 36
245 414 257 134 4 38
346 414 177 77 67 59
239 479 220 45 31 36
261 964 277 64 59 60
377 284 248 126 97 62
270 79 222 146 17 44
269 487 175 127 11 40
369 686 300 33 26 31
296 605 211 46 35 37
341 865 205 63 53 51
256 429 223 128 7 30
233 909 287 109 95 89
321 755 178 55 44 40
261 239 272 149 103 71
252 409 282 129 9 39
247 434 224 125 9 29
443 481 295 101 3 29
247 444 223 124 11 28
383 474 159 57 36 37
273 394 320 146 109 84
350 19 267 106 33 44
192 738 219 94 76 58
364 159 232 113 93 71
251 439 223 127 8 30
272 730 199 83 29 35
331 489 297 67 13 25
336 219 212 127 100 67
243 444 271 86 27 35
296 499 163 105 23 38
444 502 224 50 30 37
239 484 220 61 29 34
333 184 218 119 95 67
383 407 205 100 82 67
242 424 232 126 5 34
367 234 206 125 96 59
256 434 222 129 8 29
232 729 237 130 99 74
332 189 217 118 95 68
242 589 232 81 35 43
251 449 221 122 16 29
335 64 255 119 78 64
332 910 231 70 62 60
341 819 421 163 125 105
366 219 207 121 96 65
255 443 220 123 13 29
410 893 244 84 71 61
235 484 227 74 29 38
305 424 172 82 29 29
254 447 220 120 10 28
361 244 258 114 90 63
415 427 249 67 48 40
271 965 252 87 85 87
130 728 184 150 97 68
331 59 258 116 63 57
317 54 227 78 39 37
336 99 249 125 99 70
374 827 402 202 133 104
354 73 212 110 54 51
386 354 227 110 90 68
283 74 268 118 17 42
235 474 247 68 28 33
281 879 317 161 117 93
352 29 252 121 71 59
286 344 267 97 84 70
356 405 188 89 77 65
271 39 246 83 56 36
265 99 227 129 32 41
272 205 310 109 90 71
409 795 297 142 107 69
330 22 235 104 78 62
286 649 220 114 15 26
347 580 311 107 0 33
316 348 247 69 60 53
339 79 250 107 54 52
346 244 206 135 103 63
325 588 309 111 1 35
240 434 237 137 3 37
234 504 257 138 7 42
258 623 234 61 27 33
304 852 160 95 78 65
240 439 232 59 27 33
241 444 227 73 28 34
324 482 296 108 3 34
296 339 267 96 82 67
260 639 298 150 9 46
275 14 304 130 88 73
386 489 160 99 34 40
354 120 240 113 92 70
275 769 182 50 44 42
334 195 215 117 93 65
455 488 332 80 4 28
139 892 229 83 41 37
361 583 342 186 5 58
240 449 227 82 28 33
371 399 203 94 80 67
406 749 202 59 49 44
281 394 326 154 113 90
238 449 232 61 33 35
349 84 240 100 64 50
141 894 231 101 61 53
239 448 230 49 32 33
406 858 298 60 47 38
269 104 234 124 30 30
243 570 283 74 19 31
471 459 292 113 29 45
372 890 314 63 52 44
283 80 262 114 55 51
333 324 256 64 55 45
266 789 271 70 55 50
238 445 233 38 32 35
300 245 320 114 93 70
244 429 262 124 7 36
141 753 203 197 123 96
266 134 246 131 95 57
233 509 233 132 12 42
271 599 298 115 19 41
265 919 211 81 70 67
284 165 290 108 87 63
206 740 207 89 74 58
239 442 236 70 26 27
236 474 257 68 29 34
280 190 305 109 91 72
405 889 257 81 73 67
237 449 237 49 32 35
105 774 228 167 127 112
333 49 193 123 30 17
366 359 211 91 80 70
277 440 198 47 31 33
302 21 297 164 108 93
261 99 222 139 15 36
315 54 237 95 39 34
351 244 257 100 80 57
240 434 242 135 1 37
239 439 242 116 11 36
451 489 392 68 32 38
283 866 188 43 39 37
395 399 257 110 88 63
346 129 248 120 95 66
356 214 256 111 90 66
240 439 247 127 9 37
294 216 310 112 91 68
181 749 228 134 108 86
333 134 241 110 85 61
271 105 242 130 76 56
275 558 294 145 13 43
342 434 174 82 31 30
311 829 161 91 72 59
238 444 242 79 27 36
361 294 211 130 100 65
346 540 295 41 22 26
244 428 258 129 3 37
257 86 215 144 14 38
474 458 302 120 27 45
314 430 184 61 35 31
206 760 225 93 73 49
319 69 212 103 47 45
259 616 230 133 21 47
461 439 287 84 13 31
244 929 242 60 55 57
315 49 237 99 37 36
235 919 272 162 125 102
328 304 228 120 97 71
372 219 211 117 94 67
325 428 294 60 36 29
339 319 268 64 53 42
239 442 242 74 21 31
237 449 242 37 31 34
271 584 297 47 29 31
361 839 402 208 142 113
369 304 260 132 93 63
238 449 247 104 18 37
351 309 212 117 91 62
301 345 263 94 80 66
239 448 249 133 6 36
388 581 210 156 24 48
366 389 282 132 97 71
351 149 211 121 94 61
372 239 211 125 97 61
345 229 254 97 78 55
377 766 393 103 84 64
330 214 227 114 91 66
396 514 177 100 23 37
234 494 232 96 28 36
337 585 310 110 0 33
298 31 278 136 34 54
336 484 168 125 13 29
371 874 263 52 46 41
296 970 252 84 81 83
239 449 257 126 12 39
310 479 163 47 37 40
336 149 242 101 81 59
255 509 196 53 34 37
247 634 282 141 8 44
239 909 265 161 124 98
334 344 226 94 77 59
321 439 186 51 33 37
341 593 351 181 16 60
400 779 267 141 104 71
317 879 376 185 126 101
332 359 266 65 57 49
344 69 246 116 95 75
254 469 210 116 15 28
261 494 192 43 31 32
246 419 228 75 31 35
244 424 230 123 11 28
533 882 224 97 85 78
261 234 307 117 94 68
326 714 176 60 48 42
358 790 426 145 117 91
326 71 254 117 88 68
311 304 286 92 75 56
215 810 223 175 128 102
241 424 237 135 1 37
243 429 229 128 11 32
332 114 246 125 96 73
261 229 268 142 101 67
242 429 232 128 4 33
330 209 232 110 89 65
421 893 228 89 79 74
353 100 233 116 71 61
121 739 187 159 106 73
329 298 232 118 95 72
271 459 308 80 31 38
350 64 237 99 22 36
308 453 160 119 12 26
360 760 195 69 53 48
240 429 237 135 1 36
426 504 221 132 8 30
235 469 237 42 32 36
129 782 204 155 100 75
261 154 249 142 107 69
251 419 226 54 34 37
399 887 280 63 55 55
239 669 267 52 30 34
321 34 268 123 24 48
236 484 262 38 28 32
399 454 159 130 19 38
378 407 200 94 80 67
287 813 270 181 130 110
234 529 231 151 10 43
374 354 214 102 87 72
251 424 225 118 18 31
404 424 180 118 14 39
109 860 229 189 138 133
356 124 232 113 92 69
275 84 238 99 43 37
255 419 225 76 33 33
336 590 317 99 0 29
372 880 315 44 35 31
254 422 225 121 24 33
266 629 228 132 8 33
418 554 270 94 20 36
480 460 327 135 15 40
248 430 224 124 12 28
334 17 240 99 80 63
337 229 246 99 80 60
298 241 275 107 83 57
361 410 182 88 76 64
356 884 282 40 35 34
244 417 249 141 0 40
253 475 209 115 11 30
348 435 169 50 34 38
381 714 287 146 10 43
368 830 201 54 46 45
364 239 204 129 98 58
346 54 202 104 74 44
334 53 260 117 17 45
410 519 197 54 32 36
244 564 282 47 25 30
330 194 222 119 96 69
134 819 218 143 95 78
244 419 252 138 2 38
306 729 318 100 17 36
316 304 287 93 77 58
330 204 222 118 95 70
244 424 257 131 2 37
387 745 218 58 47 39
238 524 219 60 30 35
290 823 269 161 122 98
241 429 242 137 0 38
399 463 163 157 10 39
250 469 292 135 11 40
238 456 260 137 8 36
376 484 163 68 34 37
416 429 228 65 27 30
361 784 303 57 47 43
311 19 287 165 109 101
294 236 320 111 90 67
301 911 326 39 35 35
250 459 293 116 17 40
303 527 294 84 21 34
357 407 186 88 76 65
258 188 259 135 101 62
305 932 330 64 57 53
99 759 222 170 127 109
256 844 297 140 113 92
328 51 208 113 90 63
242 429 247 137 0 39
337 184 245 94 76 56
412 429 216 101 22 33
386 719 202 59 44 37
277 917 342 148 91 84
327 109 242 132 95 75
300 734 314 76 21 35
240 504 216 137 2 35
407 417 217 80 27 31
401 545 338 182 9 56
338 774 187 60 48 45
333 315 219 125 100 71
347 90 196 146 16 42
243 429 252 132 0 37
381 574 336 35 25 30
408 576 265 157 14 41
364 814 187 55 47 46
325 48 216 101 80 64
227 760 232 105 85 62
243 430 257 129 1 36
331 24 233 114 71 54
202 798 199 206 142 107
364 876 220 75 64 60
241 434 232 105 18 34
290 210 310 109 89 68
242 479 218 49 33 36
271 75 274 108 78 59
245 434 226 120 14 30
387 870 316 56 44 36
286 396 223 103 88 72
244 438 225 118 15 29
104 756 200 153 108 75
421 452 283 59 31 28
286 409 167 109 23 37
445 878 263 78 65 53
349 177 210 126 98 62
370 674 296 88 23 34
242 434 252 132 1 36
374 204 222 119 97 73
254 759 195 79 64 49
243 504 213 133 7 34
321 390 247 91 73 55
242 434 257 131 1 37
379 666 276 31 27 33
382 329 227 110 89 65
378 874 237 64 61 62
233 728 285 179 7 57
241 439 257 129 3 37
276 79 237 130 30 43
325 389 297 119 84 64
266 249 273 151 102 72
275 145 285 107 87 65
241 469 221 67 33 35
280 318 285 110 91 70
353 84 207 131 29 47
251 494 293 135 20 46
396 539 332 43 29 30
301 24 272 147 27 52
238 470 224 38 34 35
305 244 312 114 92 67
240 474 221 79 32 35
335 588 348 100 4 31
247 460 219 120 26 34
268 89 230 97 38 35
321 804 182 55 49 53
106 724 192 144 103 70
261 963 262 87 81 82
444 502 279 149 14 35
422 474 221 55 39 38
241 484 277 148 10 44
402 809 227 51 42 36
271 179 301 108 90 72
467 485 337 195 15 60
406 549 333 132 18 47
387 793 198 59 50 43
245 459 221 92 31 34
394 796 196 73 59 46
336 499 287 53 23 27
247 812 240 56 46 44
402 413 232 80 69 59
108 768 230 167 128 111
351 259 258 100 78 54
341 14 252 101 71 60
339 46 209 117 93 66
249 703 220 53 28 30
356 319 212 119 93 63
421 749 207 73 56 43
401 819 242 67 55 47
356 419 168 119 31 32
368 831 401 201 134 106
247 464 218 54 32 36
380 730 228 46 35 28
436 434 224 73 32 37
250 478 211 120 10 29
237 552 280 139 22 50
341 394 202 87 77 68
277 364 326 138 105 78
341 119 248 120 95 66
244 463 220 92 32 34
337 445 174 108 17 24
442 882 255 90 73 60
405 735 218 65 49 39
360 622 315 179 13 57
319 487 296 55 27 30
399 449 192 90 22 33
272 84 236 92 51 38
116 789 232 157 120 104
315 359 331 146 98 79
255 454 216 116 18 29
353 109 221 102 80 57
356 724 323 87 32 43
270 154 249 132 97 59
300 913 197 86 77 76
330 374 262 67 58 50
252 454 218 109 21 29
296 609 309 88 11 31
250 453 220 82 25 28
279 114 267 113 84 57
331 504 288 30 25 25
313 16 249 121 43 35
404 532 194 39 39 44
253 450 219 120 21 30
305 545 300 63 26 32
251 459 217 109 23 29
447 434 219 126 20 32
346 24 237 108 92 76
390 604 291 170 15 53
447 495 377 54 31 35
256 459 212 112 17 29
321 392 220 88 73 57
241 799 247 87 69 64
291 299 338 117 91 63
272 299 298 126 95 71
317 509 171 98 21 30
254 458 215 111 18 27
277 109 252 135 95 68
341 54 197 92 58 26
374 811 332 184 125 100
250 704 309 37 28 30
257 454 213 115 18 30
346 219 206 128 99 61
237 484 222 108 24 36
306 397 207 100 85 70
408 725 225 68 54 41
131 844 238 148 119 104
235 509 257 154 2 43
326 579 191 100 32 40
383 850 252 82 71 70
333 41 219 113 85 61
349 680 315 145 4 45
255 474 207 115 14 29
441 504 342 190 17 58
281 89 267 119 83 65
343 659 314 147 22 51
409 583 237 204 15 54
466 439 288 120 17 39
256 498 295 164 16 51
303 496 289 37 23 23
410 429 212 60 31 32
378 244 244 121 95 63
376 859 261 41 35 33
344 47 255 123 104 83
252 479 208 117 12 28
423 501 262 107 17 37
246 469 217 63 34 37
254 397 278 90 62 51
242 474 218 91 29 35
380 279 242 125 95 60
130 754 193 172 106 80
251 474 211 120 11 29
370 593 331 147 19 50
234 494 254 42 28 33
246 474 287 129 8 37
296 939 227 93 90 93
290 879 387 150 107 91
328 300 228 117 95 71
360 149 242 116 94 68
276 249 323 116 92 67
331 855 409 202 142 117
475 468 318 156 14 38
117 883 224 103 65 58
339 352 269 64 50 30
238 450 229 85 28 33
428 462 289 62 20 23
233 489 247 55 33 34
361 219 256 117 93 67
351 240 205 131 100 61
327 384 247 99 78 60
237 464 227 38 32 35
229 730 251 137 105 82
325 299 302 111 89 66
351 189 208 124 97 63
286 879 212 45 42 43
316 13 252 120 56 34
368 789 338 154 116 98
330 214 232 110 89 65
240 454 226 80 28 35
301 508 293 49 25 28
398 772 247 101 74 51
276 119 252 124 93 60
276 664 221 42 34 36
237 454 237 55 32 34
324 360 273 86 69 54
350 588 351 79 27 38
269 114 244 127 91 55
331 64 188 103 42 25
237 459 232 55 33 36
340 691 197 52 41 32
236 464 232 56 33 35
238 499 267 122 12 40
237 454 247 116 10 37
510 884 224 120 94 69
301 20 302 199 149 157
366 519 168 145 1 29
265 459 202 63 31 33
299 726 314 143 24 55
262 579 208 163 4 40
353 63 207 114 34 43
337 189 246 95 76 56
418 506 390 44 24 28
341 30 267 121 62 58
346 259 208 136 105 67
407 778 239 64 52 42
238 450 251 132 3 36
361 304 269 122 89 60
253 925 224 72 65 66
359 762 310 66 53 48
312 794 176 60 48 47
276 849 237 170 123 93
418 529 265 60 28 32
248 506 204 43 36 37
238 454 257 132 5 35
366 594 332 177 14 56
305 957 239 86 81 83
233 514 242 140 0 38
336 344 267 64 53 42
239 453 258 123 8 35
394 603 233 164 29 52
144 743 194 189 122 90
277 921 379 188 138 125
266 94 227 121 26 37
260 234 271 147 103 69
338 686 189 65 53 40
413 464 210 61 35 38
235 464 242 103 19 36
374 219 213 111 90 67
243 464 281 134 13 43
274 403 220 70 36 34
368 740 309 174 11 54
404 537 350 188 30 68
262 159 290 110 92 74
449 437 240 137 30 48
369 562 341 52 26 29
362 789 157 98 84 74
236 464 247 131 3 37
236 464 252 128 1 34
269 499 170 148 8 36
362 789 162 93 80 71
115 760 195 169 113 82
338 891 306 33 28 33
326 344 292 95 75 52
260 254 307 130 98 71
333 279 245 97 78 57
382 324 227 112 90 64
237 464 257 134 3 38
287 64 257 121 34 47
352 864 210 69 59 57
391 519 297 48 24 28
258 395 291 125 99 70
276 724 201 70 33 30
423 540 323 130 22 44
116 868 226 144 93 89
372 224 211 118 94 65
444 488 274 46 25 34
344 627 320 169 26 55
236 474 227 36 33 37
381 284 237 124 96 62
396 764 234 45 36 30
319 54 221 83 38 32
330 933 302 56 50 48
306 484 160 56 34 37
312 259 302 111 88 63
235 479 232 45 32 34
346 848 193 82 66 63
428 431 265 76 17 29
341 114 249 123 97 66
291 224 316 109 90 68
312 849 274 151 113 88
234 474 237 38 30 34
316 677 210 57 36 30
399 469 182 116 4 30
328 951 268 58 54 54
248 469 290 131 11 40
360 149 222 112 93 72
291 314 337 135 99 72
244 438 268 49 29 31
398 773 252 122 87 60
236 809 237 160 122 97
482 476 372 152 29 50
235 469 242 62 26 35
331 34 227 100 79 64
317 354 238 72 63 55
451 474 404 119 19 41
276 114 252 129 93 63
350 79 237 107 26 42
334 617 330 89 37 48
361 909 317 65 52 44
319 84 225 118 18 36
237 519 262 119 12 38
319 285 298 106 87 66
234 474 242 64 31 36
276 744 302 56 32 35
243 479 281 144 11 43
290 859 207 49 46 46
302 926 210 87 82 82
248 479 290 143 14 43
267 399 228 68 41 39
306 904 307 41 35 36
259 259 297 148 104 78
234 479 242 64 30 33
400 893 266 77 67 60
238 520 270 120 21 40
315 12 271 136 55 54
206 748 196 102 81 55
321 284 307 113 92 69
265 374 302 130 101 72
235 474 252 68 28 33
368 784 370 163 119 99
393 388 221 102 86 68
253 479 295 146 13 42
276 519 176 169 3 36
321 709 328 151 15 47
371 279 211 131 97 57
238 939 292 89 72 67
345 384 211 90 78 66
260 434 221 126 12 29
291 719 316 128 23 47
289 62 265 95 73 61
323 729 180 52 41 39
241 489 217 103 21 37
272 479 163 143 4 35
238 494 219 88 23 34
290 884 185 89 76 73
385 543 183 176 7 39
329 352 299 102 79 53
420 513 357 90 6 29
240 494 217 129 10 34
393 881 305 61 50 46
236 499 222 120 19 38
437 521 306 165 16 48
305 289 284 88 72 55
350 285 210 142 105 68
238 504 219 143 5 35
296 784 173 72 54 42
316 414 188 82 50 39
236 509 222 135 12 36
340 739 179 69 54 45
279 119 258 121 91 62
281 585 205 172 0 37
354 467 290 73 14 26
305 449 158 124 12 24
368 760 304 77 33 42
341 805 288 52 44 41
192 733 214 77 64 51
349 60 198 90 43 27
318 69 228 119 76 63
427 449 262 121 5 35
251 484 207 119 11 31
335 294 252 86 70 53
326 14 247 96 75 57
250 489 206 121 15 31
450 504 287 178 15 47
314 958 291 66 57 57
256 484 202 119 10 29
278 304 289 119 93 64
242 509 213 136 3 32
321 849 392 112 89 65
365 528 169 146 0 29
336 94 250 111 65 57
254 482 205 117 5 31
373 229 249 122 97 68
252 489 203 120 11 32
341 779 303 64 53 49
312 474 298 39 26 27
335 234 242 102 82 59
345 421 292 55 46 35
334 110 200 146 22 44
296 559 182 112 30 42
302 734 316 129 18 46
283 369 330 146 106 84
255 489 201 122 8 31
396 599 287 154 22 52
292 915 378 200 135 116
429 449 251 128 7 37
330 398 242 100 77 56
388 367 253 120 95 66
391 868 280 56 45 39
355 633 310 177 14 57
273 340 284 113 92 68
399 832 267 155 109 87
257 494 198 116 13 32
325 385 232 110 84 60
241 449 267 61 28 34
290 15 264 119 29 26
241 955 287 85 81 84
333 264 237 117 93 67
328 113 241 131 94 73
233 494 242 82 29 36
280 359 328 137 104 77
151 719 222 123 99 77
341 39 222 118 101 84
287 903 345 124 86 74
161 764 222 179 125 104
333 249 222 137 107 72
300 493 295 41 23 24
311 504 303 132 8 41
291 24 297 132 82 68
310 792 174 57 46 42
252 494 203 84 24 31
296 899 189 86 77 77
405 419 242 80 68 55
340 87 189 149 31 49
434 469 225 55 30 36
360 864 265 36 32 31
243 486 214 106 17 33
272 79 231 119 31 40
266 99 274 111 92 71
243 489 214 106 13 28
377 294 248 129 98 63
275 183 254 127 97 61
276 734 199 117 17 28
306 14 291 137 80 81
266 229 312 113 93 70
413 531 343 193 1 61
240 944 297 45 40 41
331 676 195 45 36 28
377 649 282 122 31 47
230 734 247 141 111 85
244 483 215 102 22 32
256 393 267 81 65 58
291 184 292 107 86 61
301 395 217 102 87 72
286 754 296 70 56 49
371 413 284 113 85 61
338 174 245 97 79 57
344 602 340 186 3 57
350 59 202 92 44 28
386 564 337 158 15 50
266 674 307 148 16 48
391 404 216 91 79 68
350 454 165 53 34 38
249 482 210 119 12 26
276 634 312 57 24 31
267 243 269 147 101 69
271 29 252 91 76 61
279 119 271 112 87 58
108 856 223 138 116 97
269 572 294 34 29 28
317 348 271 97 80 61
261 12 272 91 58 52
247 499 207 93 26 36
334 279 248 95 77 58
311 819 162 73 63 58
366 913 302 65 53 47
311 12 271 128 52 48
327 354 287 94 74 51
247 509 207 74 27 36
272 879 242 125 101 77
302 951 314 69 61 57
250 515 289 85 29 38
266 64 275 114 90 69
341 299 216 121 97 70
255 504 197 53 34 36
106 739 227 159 124 105
268 99 235 101 47 32
453 491 324 79 21 29
251 499 202 62 32 36
360 469 164 50 37 39
362 724 318 35 28 32
276 39 248 80 41 26
283 433 149 76 35 40
408 798 287 134 98 63
233 508 251 153 0 42
403 826 272 146 98 72
419 737 224 75 66 69
254 498 200 125 24 35
98 714 215 155 118 92
272 623 224 150 0 37
341 13 257 101 67 57
327 469 302 75 23 33
344 918 262 73 66 65
253 509 198 43 34 38
374 274 250 128 97 64
256 709 213 110 17 27
411 874 323 85 66 49
238 509 266 69 24 33
413 551 306 44 25 30
284 372 250 94 83 72
329 369 248 68 60 51
167 750 230 165 130 109
234 484 232 60 31 34
134 747 194 172 105 76
433 479 270 61 27 25
381 849 242 77 60 54
346 809 422 157 122 101
246 724 306 168 16 56
333 239 237 106 84 59
358 172 249 116 93 67
322 102 237 136 98 79
235 489 227 36 31 36
437 510 276 151 14 38
346 519 289 63 19 30
301 784 172 69 53 42
135 748 198 174 101 78
234 484 237 96 28 39
233 490 238 50 32 32
390 764 282 164 123 88
372 794 372 182 129 107
322 29 237 71 36 28
233 494 237 69 30 34
306 744 317 112 39 51
201 739 202 93 79 64
234 494 235 73 25 32
276 444 167 103 21 39
392 595 221 106 27 42
234 484 242 52 32 33
306 879 398 198 152 135
462 470 301 93 9 34
322 689 165 74 55 37
326 379 252 84 71 59
279 322 285 107 88 69
344 71 189 123 14 25
239 509 269 40 29 31
341 139 211 131 100 62
297 238 319 112 92 68
341 429 176 103 26 24
233 489 242 81 30 36
318 390 235 90 74 57
306 869 382 119 97 78
369 181 235 114 94 72
354 109 232 116 94 70
351 729 326 64 34 38
235 484 257 111 21 39
234 494 257 98 26 39
371 784 158 96 76 60
261 842 287 98 78 56
200 736 203 94 80 66
341 585 337 33 29 28
321 369 247 83 69 54
401 420 177 93 24 28
171 764 227 180 129 110
352 54 217 96 34 35
277 59 237 107 27 32
246 604 237 102 30 42
434 512 340 194 11 59
246 409 262 84 24 35
318 74 228 115 74 59
336 873 214 67 58 58
244 559 283 54 26 32
382 749 196 60 48 41
261 574 292 76 26 35
391 754 272 162 123 87
293 880 372 154 112 97
234 499 227 47 32 33
341 50 202 114 87 59
370 189 237 115 94 70
508 881 234 122 99 72
343 85 190 152 22 42
398 489 181 126 8 32
234 504 227 53 32 34
372 770 392 131 102 79
236 494 262 143 11 45
233 503 229 43 31 32
233 504 237 125 12 39
330 199 222 118 95 70
344 63 250 127 30 50
233 499 242 89 29 36
286 922 371 204 142 130
351 489 165 67 39 40
322 59 207 77 36 24
233 499 247 96 23 37
307 501 290 40 23 28
314 64 242 103 27 36
302 434 156 109 18 29
264 477 195 103 8 29
169 771 218 184 128 104
302 410 319 155 106 83
311 14 291 115 57 52
357 590 338 176 9 55
274 409 319 139 102 81
134 834 219 146 97 80
146 894 212 172 120 120
276 219 316 109 90 70
265 419 314 109 23 39
233 504 242 115 15 38
233 504 247 84 20 35
211 810 217 179 130 102
191 747 224 105 85 63
326 384 292 113 81 60
370 244 208 129 98 59
386 479 159 123 23 36
263 936 325 62 55 55
266 539 295 109 8 35
246 714 217 46 35 36
340 434 297 68 22 28
285 164 262 111 88 60
276 828 208 79 61 56
251 519 289 74 21 31
353 84 215 105 65 57
234 504 253 154 7 45
248 396 260 136 9 39
234 693 268 41 32 36
415 449 217 51 39 39
331 119 222 117 88 58
256 393 262 117 56 57
250 649 246 49 34 36
272 294 297 133 97 74
346 819 183 61 51 46
378 723 230 48 34 29
250 673 235 57 33 34
246 819 232 48 39 40
398 407 237 98 81 64
258 72 270 109 88 72
310 34 262 99 38 42
363 154 232 112 92 71
275 108 248 138 94 69
256 624 237 71 26 36
252 395 267 107 48 52
258 914 320 162 122 104
261 84 217 146 13 39
155 730 226 143 113 92
311 414 312 150 105 85
250 399 272 75 31 35
350 49 242 126 34 51
252 396 272 71 54 48
284 149 272 108 86 60
356 609 212 68 33 37
268 120 245 130 95 57
316 89 237 98 60 50
371 878 217 72 62 60
256 394 272 86 72 60
332 42 194 123 32 18
301 904 377 197 135 112
256 394 277 98 79 62
317 309 286 92 76 59
330 379 257 68 59 50
121 774 231 150 112 95
511 889 248 103 82 61
256 764 281 80 65 58
371 199 242 117 95 70
291 29 287 142 41 61
318 62 255 126 91 76
254 409 292 76 26 33
331 905 327 37 33 31
251 779 191 119 87 48
290 814 192 49 42 42
421 454 287 59 34 30
276 94 272 107 61 51
253 396 275 87 59 52
295 457 154 78 35 42
268 404 315 139 106 79
326 464 298 44 23 25
299 14 310 121 38 52
240 489 272 152 9 44
291 24 262 103 21 22
255 398 282 91 58 47
275 423 211 93 21 26
121 698 207 101 89 77
291 369 246 100 87 74
401 829 297 152 98 74
316 910 332 41 36 35
244 713 220 47 35 36
350 819 181 71 54 47
262 11 278 89 43 42
351 599 206 75 28 39
135 710 220 121 98 75
257 394 282 109 89 66
417 569 232 199 15 51
332 36 224 109 78 61
233 690 265 50 28 31
273 75 230 88 67 53
288 905 367 132 96 80
352 153 249 119 94 66
248 409 267 78 30 37
381 339 252 129 102 70
321 84 222 104 47 42
378 683 284 47 32 30
246 414 262 94 18 36
342 576 190 191 8 42
346 209 206 124 97 64
242 884 262 163 117 92
259 118 274 106 89 72
281 17 305 166 131 123
352 654 308 162 12 51
319 64 254 117 86 71
251 614 237 94 22 39
260 389 272 97 81 64
248 414 266 96 17 37
327 764 174 62 48 43
351 885 311 42 35 34
416 884 248 82 70 61
256 729 207 96 21 28
231 564 247 136 6 37
385 719 212 59 47 37
345 249 254 98 79 57
316 350 242 71 62 54
249 404 272 50 29 34
249 534 205 136 5 36
341 12 277 127 75 81
250 409 272 93 30 39
249 747 205 98 79 56
346 119 212 116 91 62
386 844 257 68 51 47
249 410 268 80 27 35
342 244 208 134 103 65
480 477 367 206 13 59
398 555 334 47 27 30
361 349 276 121 90 61
346 149 249 115 91 64
319 494 174 80 26 32
107 705 193 108 88 65
323 332 290 90 71 50
249 414 268 110 25 41
394 603 286 171 16 53
249 414 272 59 30 34
408 727 225 70 56 43
289 922 362 198 132 118
448 506 328 134 35 52
361 189 251 119 97 72
217 747 213 83 67 48
366 334 214 119 94 65
287 39 256 126 32 40
266 30 288 136 30 53
321 669 318 167 17 54
306 364 255 95 81 66
313 876 210 74 70 71
251 404 277 124 17 43
270 55 228 89 40 32
484 461 329 122 14 37
321 74 212 125 25 44
307 390 324 150 102 82
251 409 277 79 27 34
320 454 300 76 25 32
252 404 282 126 12 40
370 562 314 29 30 32
356 879 297 33 29 33
369 406 194 91 78 65
253 405 286 127 11 40
213 807 225 174 127 101
250 414 277 48 31 33
329 404 277 105 76 58
342 239 208 133 102 64
121 700 198 107 92 78
316 569 186 178 8 40
257 399 292 115 77 58
441 420 227 123 19 20
362 164 243 117 94 69
290 318 280 89 76 63
105 759 228 165 127 110
257 404 297 120 20 39
330 449 176 96 23 25
317 494 172 83 27 33
250 484 293 137 15 44
334 47 210 115 86 55
351 589 347 111 24 43
353 75 212 113 88 74
341 124 211 137 99 62
236 479 262 54 29 32
268 434 315 71 23 31
331 580 191 69 35 40
278 74 241 122 41 45
389 399 214 97 83 68
386 339 237 124 98 67
358 177 210 124 98 67
295 189 282 110 88 63
256 409 297 89 25 36
281 229 320 112 91 70
351 419 282 61 46 34
332 83 189 144 25 44
185 781 218 188 133 108
425 544 273 63 26 36
333 326 248 72 62 51
346 400 281 79 53 36
253 410 290 103 24 43
98 754 221 167 124 105
253 414 291 107 15 35
391 748 222 61 49 41
377 600 318 50 27 32
372 797 392 143 85 71
386 414 282 121 94 66
255 414 297 114 16 37
265 604 294 51 31 34
295 860 296 138 103 73
376 565 352 189 3 60
389 436 155 154 13 37
343 370 275 74 52 32
246 424 267 76 22 34
376 879 277 63 54 46
335 402 196 80 69 59
248 419 272 40 34 35
261 69 211 140 17 34
320 329 336 120 80 70
301 499 162 65 33 37
363 565 310 33 29 31
326 844 411 167 130 109
247 424 272 56 33 38
331 384 257 69 60 51
368 239 254 123 98 69
324 47 220 94 54 49
366 829 192 68 54 49
296 313 280 85 72 58
355 119 232 114 93 71
331 31 269 137 26 54
243 431 260 129 0 40
434 427 261 100 18 37
266 209 307 113 92 70
278 105 251 131 92 69
352 109 237 115 93 68
301 910 322 36 32 33
245 429 267 88 23 34
476 468 333 129 10 40
307 24 257 108 26 31
478 470 326 168 14 41
246 429 272 69 27 34
424 434 224 47 34 37
371 354 213 97 84 71
248 416 272 48 33 35
371 509 167 146 5 32
287 803 275 179 127 108
248 420 277 46 32 34
440 499 273 59 24 33
331 209 222 117 93 66
311 634 322 100 33 44
247 424 277 54 31 34
329 464 303 50 27 31
365 464 165 86 36 42
248 424 282 61 30 34
251 669 237 62 36 35
281 26 294 143 35 58
249 418 278 63 33 36
310 881 285 136 104 82
386 824 213 64 52 50
263 208 259 134 101 63
201 740 216 87 70 52
250 419 282 103 21 37
350 40 228 87 50 28
251 419 287 108 17 37
332 139 222 114 89 61
356 469 289 74 16 28
297 507 164 73 33 38
299 713 187 45 40 40
279 69 243 99 63 50
326 324 327 108 83 56
348 42 225 96 64 51
341 709 331 154 11 50
248 421 280 78 30 34
361 149 237 113 92 69
339 819 172 56 52 53
282 202 309 108 89 69
250 424 287 111 19 38
252 859 301 151 60 81
285 926 210 100 91 92
312 797 290 58 51 51
328 31 229 94 81 68
332 775 175 60 49 45
341 144 211 131 100 62
235 904 272 156 124 100
331 934 297 63 56 53
136 724 226 168 126 107
281 938 223 100 92 95
248 425 285 48 29 28
341 802 290 53 45 42
248 710 219 65 32 32
408 585 283 153 30 54
402 779 407 154 109 76
248 429 286 86 25 37
372 703 217 58 43 34
329 433 185 75 32 30
351 199 207 117 95 69
331 519 289 88 11 27
444 472 386 75 17 30
357 701 204 58 45 34
366 894 317 61 51 46
330 110 212 131 65 59
249 912 240 69 64 66
242 439 262 127 7 36
244 433 263 127 9 35
436 504 357 103 29 43
347 244 255 98 78 56
348 765 205 59 48 43
360 390 204 90 78 67
363 168 216 106 88 69
384 552 327 49 25 31
243 436 265 118 15 38
324 294 312 117 94 68
306 819 273 168 122 98
244 439 272 82 28 36
423 500 257 74 16 33
333 386 214 75 66 62
276 919 323 81 60 57
286 214 313 109 90 70
442 469 290 81 56 54
284 39 253 124 27 34
295 801 279 184 129 111
399 454 187 115 2 30
242 444 267 63 29 34
367 279 258 122 94 60
243 440 270 63 33 39
360 144 227 114 93 70
381 439 159 148 6 31
201 769 229 144 112 87
467 471 353 53 24 27
324 22 240 84 64 40
244 443 273 104 22 36
239 474 269 108 18 40
286 339 332 131 100 73
291 174 282 111 89 64
245 439 277 73 29 35
340 904 237 73 68 68
244 444 277 104 22 37
276 409 217 78 31 29
385 588 321 112 36 50
268 62 220 107 41 22
466 467 376 66 17 27
286 499 166 137 16 40
281 499 168 144 16 40
325 304 317 111 86 57
244 447 274 55 24 28
331 774 305 67 54 49
323 56 208 87 68 47
331 11 273 139 79 90
246 444 282 85 26 35
398 831 260 147 99 81
331 399 272 92 67 51
384 710 281 145 24 50
257 249 287 150 106 77
121 885 227 92 58 49
342 280 256 84 69 52
321 864 203 62 58 59
247 444 287 48 27 30
400 897 242 86 72 66
327 495 298 77 11 24
248 434 286 36 28 29
265 364 292 121 97 69
326 69 256 112 50 52
270 392 250 103 90 79
334 40 194 124 32 16
361 614 216 52 33 37
261 739 303 108 19 41
109 764 200 163 112 80
275 59 233 99 36 32
316 604 312 97 6 32
99 774 217 174 127 107
370 224 251 123 98 71
287 260 330 116 92 67
461 854 257 79 59 42
281 449 153 109 25 38
252 419 292 96 20 35
316 19 292 194 136 142
340 199 249 95 77 56
253 424 295 55 26 31
255 424 298 65 25 31
431 474 268 56 30 31
256 924 367 181 128 119
298 414 152 59 40 33
281 810 268 183 128 109
330 194 237 105 84 61
253 429 296 55 29 32
341 529 291 88 11 31
276 154 253 123 93 54
271 359 277 115 93 69
371 789 162 92 72 60
310 949 315 67 61 58
374 210 236 114 92 68
264 187 299 112 93 72
254 429 298 74 25 34
388 364 252 121 96 67
352 734 323 53 29 33
370 819 307 165 116 91
372 324 216 124 97 65
256 429 302 108 19 37
353 124 220 104 87 68
295 410 157 89 39 38
316 369 257 95 79 62
386 817 208 67 53 50
316 800 288 125 95 81
264 545 190 165 9 42
466 478 397 198 13 64
326 439 298 116 6 35
250 434 292 79 24 35
249 438 289 34 25 29
361 804 407 111 80 55
291 454 154 87 34 37
308 239 292 114 91 65
284 150 276 108 85 59
344 261 210 138 106 68
344 254 254 99 80 58
396 893 272 75 61 51
374 637 239 142 39 57
161 744 228 163 127 107
325 42 265 133 100 78
349 31 234 73 46 23
375 588 204 68 35 41
294 899 349 148 102 89
362 781 188 62 51 44
256 434 302 58 28 32
331 14 247 94 78 62
254 439 299 99 35 44
395 784 214 63 49 46
276 23 300 133 97 76
322 668 182 82 58 44
271 229 263 140 103 65
332 410 188 85 72 58
255 439 302 81 25 35
371 539 173 156 12 38
100 714 197 152 110 82
326 554 176 108 30 39
361 853 264 41 37 34
248 441 290 33 30 33
321 23 281 126 83 69
359 782 196 58 48 45
289 419 192 106 13 34
443 476 378 49 26 27
412 743 201 76 58 51
248 444 290 54 27 31
308 29 257 105 25 35
440 498 337 70 14 23
351 894 246 64 56 56
266 564 198 125 23 42
284 78 262 130 17 47
300 204 282 111 89 64
326 785 298 69 55 50
250 444 292 50 26 30
514 912 225 99 86 76
295 397 216 103 89 73
369 693 300 150 12 46
380 239 237 120 95 65
341 552 299 50 25 26
311 859 177 75 67 65
343 57 195 90 41 21
266 189 256 136 103 63
252 444 297 86 27 37
234 903 282 118 98 80
310 24 252 105 22 31
102 705 198 120 96 68
384 411 194 95 77 60
285 650 314 173 16 54
346 479 289 35 23 24
252 449 297 55 28 31
256 449 302 98 23 36
352 630 313 67 24 34
256 689 223 70 30 28
239 454 262 102 19 37
346 324 213 123 97 68
351 699 322 131 4 41
297 13 271 125 33 25
351 892 319 35 31 32
239 459 267 78 29 35
132 769 217 146 93 71
342 23 236 104 89 73
324 291 307 115 93 70
260 104 223 137 20 37
300 22 296 174 118 100
301 934 222 90 86 89
241 469 277 141 8 42
239 464 267 130 12 38
321 364 267 118 92 70
238 466 265 128 22 43
256 855 262 116 82 40
322 896 300 69 48 44
373 650 251 48 27 31
238 469 266 104 23 38
239 469 268 122 15 39
211 769 191 121 90 49
351 179 209 126 98 63
322 459 299 43 24 26
296 204 297 113 90 64
386 519 296 39 26 27
240 464 272 141 7 40
236 524 257 151 1 42
380 405 203 96 81 67
351 687 189 64 53 41
358 143 221 110 91 71
362 654 236 108 14 30
240 469 272 136 9 39
361 863 204 80 69 66
261 184 297 114 94 73
237 474 262 70 30 34
314 907 314 33 30 32
370 194 242 118 95 70
238 474 267 96 23 37
337 204 246 95 77 57
292 13 266 122 43 36
356 814 401 115 76 54
239 474 272 130 11 42
305 678 187 59 45 38
339 271 215 136 105 69
329 37 225 101 87 71
387 388 273 120 95 66
286 219 316 110 91 71
252 700 219 106 23 32
238 479 270 142 11 44
282 65 273 122 58 60
276 856 305 148 119 88
266 27 291 119 58 58
271 184 302 108 90 71
267 249 316 120 94 68
336 599 347 191 14 62
295 329 339 140 101 76
399 602 243 173 29 56
239 479 272 144 8 42
241 454 272 114 20 38
241 459 272 128 15 41
395 771 337 99 79 57
436 429 248 143 12 43
270 50 233 80 49 42
297 839 202 51 49 50
327 339 297 99 78 53
243 450 276 85 24 32
381 875 277 62 52 44
244 454 282 109 17 37
265 83 219 147 13 40
323 289 307 115 94 71
242 459 277 131 10 40
299 452 154 124 18 30
453 495 285 163 15 43
348 68 239 106 36 43
336 494 167 127 11 29
241 464 277 142 8 42
243 459 281 73 22 35
458 857 269 59 48 38
244 634 257 124 18 42
383 353 259 121 96 67
309 18 256 119 30 31
286 924 352 192 135 119
324 397 301 125 86 66
244 459 283 83 22 36
336 64 188 100 37 25
360 744 315 181 15 58
276 434 162 85 29 39
258 254 292 150 106 78
246 459 287 98 24 40
371 249 252 125 99 66
336 870 270 35 32 32
283 84 262 108 79 58
339 92 250 110 18 38
246 689 297 80 26 36
327 309 237 114 92 68
260 259 302 140 101 75
241 479 277 144 9 43
243 474 281 136 9 41
325 816 150 101 83 66
294 319 339 138 98 75
285 600 210 130 15 39
252 593 223 131 20 42
244 479 284 144 12 44
350 917 282 83 71 67
248 454 290 100 25 38
340 819 177 57 54 53
250 454 293 78 24 34
325 369 312 126 89 67
413 444 215 57 37 37
331 214 237 104 83 60
419 768 231 76 57 46
379 637 248 101 36 45
252 454 296 107 24 40
331 309 222 122 98 72
265 683 309 146 14 46
248 554 290 145 16 48
116 754 193 168 111 80
256 943 233 74 69 69
315 854 162 91 82 76
254 450 299 60 24 28
328 397 246 104 79 57
284 77 253 146 17 50
319 417 300 132 94 73
336 264 217 137 107 72
273 95 240 89 64 42
311 494 163 97 30 37
446 459 277 48 31 33
248 464 290 144 16 44
259 630 235 144 10 41
261 239 307 118 94 68
446 464 238 127 21 46
250 464 292 140 13 42
253 464 295 134 11 39
401 529 381 138 22 49
255 459 298 143 15 45
228 734 261 82 57 55
255 464 298 143 14 43
296 949 236 89 86 90
323 89 218 105 42 43
310 249 297 116 92 64
247 649 282 59 28 34
253 469 295 143 13 43
436 524 322 78 29 36
242 704 302 83 21 36
255 469 298 150 15 47
336 48 202 117 76 46
328 313 236 113 91 68
337 12 277 138 80 92
293 818 188 58 50 45
333 279 227 131 104 74
265 749 192 52 47 44
386 817 336 187 127 101
353 74 200 137 25 48
250 479 293 148 14 46
366 564 342 48 27 29
306 304 346 135 96 73
400 434 276 91 71 48
269 478 185 59 26 34
289 863 176 68 59 54
410 773 214 87 67 57
405 804 342 190 122 95
256 479 297 160 15 51
216 799 196 190 128 96
351 89 237 112 93 72
266 619 226 155 3 37
341 499 168 111 18 29
237 484 267 81 22 36
192 788 203 212 147 113
309 408 315 150 105 86
238 484 270 152 12 46
389 738 276 142 88 78
239 484 273 153 9 45
448 485 280 96 21 37
323 298 318 113 88 59
240 494 272 117 17 40
421 534 267 55 28 33
