ply
format ascii 1.0
comment Created by Open3D
element vertex 2212
property double x
property double y
property double z
property uchar red
property uchar green
property uchar blue
end_header
455 745 304 171 115 85
460 745 299 168 114 83
423 817 296 150 114 88
463 740 297 170 115 85
305 840 224 58 53 55
465 745 294 169 114 84
463 745 297 168 115 85
455 750 304 167 115 83
450 740 307 177 121 90
441 891 273 72 60 60
452 740 306 177 119 90
450 750 308 172 119 88
452 750 306 169 117 85
455 755 305 164 114 82
461 755 300 161 111 78
427 859 276 39 35 33
458 755 302 162 113 77
459 760 303 159 112 79
464 755 298 162 111 79
464 760 298 161 111 79
454 838 282 57 48 41
453 757 307 165 118 84
453 760 307 164 118 83
453 764 307 165 117 84
467 740 290 165 109 77
468 751 292 165 112 82
466 755 295 164 113 81
467 765 295 163 111 79
276 770 191 162 111 77
280 770 191 156 108 74
280 780 191 170 115 79
457 822 291 135 87 66
282 788 191 167 112 77
290 775 189 137 99 63
295 770 191 105 81 52
290 780 188 151 106 69
300 775 190 121 90 51
305 776 191 126 90 53
290 790 190 169 115 80
291 794 191 168 114 81
295 795 191 166 113 76
296 798 191 165 115 78
300 790 189 157 107 72
435 890 319 62 55 51
300 799 191 162 111 74
467 770 295 161 110 78
310 775 190 126 91 51
315 775 190 82 64 49
320 775 189 57 49 47
315 785 190 84 66 54
320 785 190 62 53 50
310 790 189 145 102 66
315 795 190 86 69 57
305 803 191 163 112 76
310 803 191 155 109 75
264 770 198 163 110 77
260 770 204 168 113 81
280 815 200 179 121 90
258 780 208 165 111 78
261 785 205 163 111 77
263 786 202 160 109 73
435 806 305 170 128 100
267 774 196 162 108 74
266 785 200 159 107 72
270 780 195 161 108 75
272 784 196 159 105 71
257 775 210 163 110 79
257 770 224 167 117 87
314 874 252 134 105 73
257 775 224 168 119 88
257 784 210 168 112 80
395 805 194 54 46 42
257 785 214 166 113 81
257 780 219 166 115 83
257 780 224 168 120 88
385 865 274 37 32 29
257 785 219 169 118 86
261 790 205 166 111 79
266 790 200 159 106 71
267 793 201 161 107 73
268 796 202 162 109 74
257 789 214 169 115 84
257 789 223 175 123 92
258 795 214 174 118 86
258 795 219 177 124 93
374 859 203 54 48 47
258 795 224 179 127 98
259 800 224 182 129 99
420 795 184 79 61 50
280 768 192 152 107 71
275 780 193 166 111 77
465 855 279 63 55 47
278 782 192 169 113 78
275 790 195 159 106 72
273 792 197 158 105 71
277 799 196 158 107 72
285 791 192 167 113 78
285 795 193 162 110 74
285 800 194 161 109 75
258 770 230 171 122 94
257 775 228 168 121 91
261 770 234 169 122 95
261 775 234 168 122 94
261 785 234 171 124 96
265 780 239 167 125 96
263 785 236 171 125 96
266 770 238 168 122 95
269 770 241 163 118 92
390 780 304 73 61 56
271 770 242 153 112 86
268 775 241 165 121 95
267 784 242 168 128 99
418 880 235 66 55 53
258 790 229 177 127 99
261 790 233 175 127 99
260 800 229 182 130 102
263 795 236 176 131 102
451 836 265 55 48 43
261 800 233 180 130 101
264 800 235 179 130 102
266 800 238 180 134 106
269 800 240 183 137 110
270 790 243 173 134 105
271 795 243 179 138 109
271 800 242 185 139 111
275 775 245 137 102 74
279 770 249 153 108 79
273 785 246 170 128 100
276 785 248 167 125 95
496 808 240 107 85 61
279 785 251 165 121 90
281 780 253 174 124 93
283 781 256 182 130 99
281 785 253 172 125 94
284 785 255 179 129 98
276 790 248 179 133 104
280 790 250 176 130 101
274 795 245 178 137 110
277 799 247 179 141 111
286 795 253 175 128 101
317 857 261 104 83 58
287 798 252 173 128 102
353 934 226 82 74 74
264 805 208 173 116 83
269 805 203 170 113 81
271 804 201 168 112 78
360 895 203 84 71 67
264 810 209 177 119 87
270 810 204 172 115 82
269 816 208 181 122 91
260 805 214 182 125 95
260 805 219 184 129 99
365 805 204 68 56 49
260 805 224 185 130 101
261 810 214 187 128 98
262 813 215 193 132 103
261 810 224 188 132 104
262 814 219 195 135 107
263 816 219 199 136 108
262 814 224 193 136 108
263 816 224 196 137 110
267 824 216 222 153 124
267 824 224 214 150 120
269 826 219 227 156 127
269 826 225 216 154 125
271 829 219 227 155 126
271 829 224 214 148 118
278 802 197 161 110 74
273 807 202 171 115 81
275 810 200 174 116 83
280 810 199 172 118 83
273 810 202 173 116 82
275 815 203 175 117 86
285 805 196 160 109 73
278 817 202 178 119 89
425 859 334 49 42 37
280 820 203 184 124 92
275 825 209 208 139 114
450 792 197 65 49 40
279 826 207 208 139 109
282 818 201 183 123 93
285 830 209 216 143 113
272 824 211 211 146 118
400 876 314 33 31 31
273 826 212 219 148 123
276 828 210 219 147 122
275 830 214 227 153 129
491 831 274 96 74 62
275 831 219 224 149 121
264 805 235 180 131 103
262 810 229 186 132 105
263 811 231 184 130 104
262 814 228 188 133 106
265 810 234 181 130 103
270 805 240 182 135 110
267 808 237 179 132 107
266 815 233 182 130 104
267 824 228 205 144 118
270 826 229 204 143 114
270 820 235 189 136 109
272 819 237 186 137 112
274 815 240 185 139 115
278 802 246 178 139 112
276 815 243 183 140 114
376 897 214 67 58 59
280 815 245 182 139 112
285 805 249 180 139 112
284 816 246 185 142 113
279 821 241 186 137 113
280 825 239 189 139 114
273 827 230 203 142 116
276 828 233 200 143 117
282 828 237 192 141 115
277 818 242 184 138 114
455 856 258 93 74 70
285 820 244 189 145 120
295 831 239 153 115 94
290 800 193 166 116 80
445 849 244 69 59 56
325 845 274 90 70 47
294 797 192 167 114 77
295 800 192 166 115 77
299 801 192 163 114 76
316 800 192 63 55 54
319 797 192 65 56 53
320 800 193 71 59 54
290 795 255 143 104 84
426 818 297 146 105 83
315 971 269 89 84 86
295 800 255 48 41 42
295 805 194 167 114 78
295 810 195 170 115 81
300 805 193 168 116 78
300 816 197 180 123 90
305 810 195 175 120 85
305 814 196 179 124 89
290 820 200 184 126 97
295 820 200 183 125 94
350 775 293 76 62 57
295 825 204 197 137 109
295 828 206 209 146 119
295 830 208 215 149 120
302 823 201 188 130 98
300 829 206 201 141 113
305 826 203 172 122 96
310 814 196 127 92 74
300 950 318 62 57 56
320 805 193 76 62 56
440 895 334 71 55 41
311 816 197 88 68 62
320 810 195 82 65 58
319 814 196 84 67 59
310 830 204 75 61 60
315 825 200 84 67 61
375 921 339 59 53 50
320 820 198 86 68 60
318 772 281 75 62 57
316 827 202 88 69 63
320 829 205 90 70 63
288 801 251 173 130 105
289 805 251 173 134 107
294 811 251 91 74 62
299 801 256 62 54 49
300 810 254 59 51 47
300 816 250 53 45 43
340 904 334 35 33 34
297 813 252 45 39 39
301 814 252 58 50 46
305 810 255 64 54 51
290 830 239 183 135 110
291 819 247 184 146 116
295 825 244 123 94 82
476 836 273 44 37 33
289 826 241 190 145 120
296 823 247 40 31 36
303 817 251 60 50 47
444 895 294 78 64 58
305 825 248 64 53 49
300 829 243 49 41 42
304 827 246 61 52 48
305 830 244 62 52 49
309 815 255 68 57 53
310 826 250 71 58 54
310 830 244 67 54 52
350 840 210 160 112 89
347 921 194 88 77 78
314 821 256 70 58 55
315 825 254 62 51 51
315 830 249 61 50 50
313 827 251 72 59 54
320 829 254 107 78 67
280 834 219 212 137 109
277 833 223 209 136 107
284 832 212 210 136 109
285 834 229 196 136 110
304 832 207 162 115 96
295 833 210 211 142 110
290 836 224 189 125 96
294 837 224 188 130 103
296 838 224 177 121 101
300 836 214 195 131 103
297 838 220 197 135 108
298 837 217 206 138 109
300 838 219 147 91 76
302 838 216 163 104 87
305 839 219 63 53 55
306 833 206 77 55 62
310 835 209 81 66 64
315 835 209 91 72 66
320 835 209 92 72 66
310 841 224 67 57 58
315 837 212 91 71 66
320 838 211 92 72 66
325 845 234 174 129 100
350 815 200 78 62 55
314 842 223 70 58 59
320 845 224 58 53 57
290 835 229 192 136 111
290 834 233 185 132 107
295 834 234 173 128 107
301 838 228 60 40 46
443 798 181 78 60 51
305 839 229 57 49 48
300 836 234 61 40 43
300 834 238 52 39 41
310 841 229 58 47 48
310 835 239 63 51 48
315 840 234 58 46 45
315 836 239 60 49 47
316 838 237 56 46 43
316 843 228 58 48 49
320 844 229 53 44 48
320 835 244 76 58 52
321 833 248 93 67 56
316 865 255 121 93 62
320 865 253 115 86 53
357 923 211 67 60 58
320 861 255 110 81 48
306 880 256 147 113 82
310 875 254 137 106 76
310 880 253 146 111 80
315 870 253 128 99 67
320 870 250 122 93 61
312 880 251 146 109 78
383 898 196 88 75 69
430 899 274 60 52 52
315 880 250 144 110 78
316 872 251 132 103 72
320 875 249 132 103 71
320 880 248 142 110 78
306 885 255 147 111 83
310 890 253 142 108 77
312 885 251 147 111 78
311 800 263 70 57 54
320 885 248 144 112 82
389 874 205 75 60 57
318 894 247 130 106 82
360 945 235 88 81 83
312 890 251 143 109 76
521 845 279 117 96 75
365 960 249 80 73 74
315 890 250 144 110 77
366 897 330 37 34 34
312 895 251 136 105 74
315 895 249 130 101 71
325 770 189 62 53 49
325 775 189 67 55 48
330 770 189 64 55 49
335 770 189 66 55 49
330 904 326 83 71 59
320 815 263 50 41 42
335 774 190 70 57 50
332 882 241 146 116 87
329 789 191 73 58 51
345 770 190 66 56 49
344 775 190 68 57 51
343 778 191 71 59 53
350 770 190 65 56 49
348 773 191 65 55 49
335 780 192 71 59 51
330 965 309 56 52 52
331 786 192 72 59 51
335 785 192 73 59 51
291 953 289 77 73 76
326 796 192 77 60 53
325 800 193 78 62 55
430 860 349 62 49 37
335 790 193 75 60 53
330 800 193 79 63 55
338 776 192 71 58 51
340 781 192 72 59 51
351 771 192 66 56 49
350 780 195 72 59 52
340 790 194 75 60 53
340 795 196 78 62 54
340 800 196 80 63 55
345 796 197 79 63 55
307 861 274 156 122 95
350 789 195 74 60 52
346 963 246 94 89 93
348 798 196 79 63 55
350 800 198 79 62 54
325 805 194 80 63 56
325 810 195 82 65 57
325 812 197 84 66 58
325 815 198 85 66 58
330 805 194 80 63 56
335 805 195 80 63 56
330 812 197 80 64 57
330 815 198 82 64 57
336 906 347 45 42 42
335 811 197 77 62 55
335 815 197 79 63 56
325 828 205 88 69 62
325 831 208 90 71 64
330 826 203 84 66 59
340 804 196 81 64 56
341 806 197 80 64 56
345 805 198 81 63 55
340 810 197 78 62 56
409 816 291 55 47 43
345 810 198 79 63 55
345 815 198 78 62 55
313 952 247 72 68 69
350 810 198 78 63 55
345 820 200 78 62 55
338 832 207 90 71 64
345 825 204 81 65 58
349 819 201 79 62 55
325 830 254 174 127 105
329 831 255 180 130 105
359 770 195 63 54 50
359 775 195 64 54 49
355 780 195 69 57 51
475 854 325 85 67 54
378 949 303 51 45 43
353 780 197 72 60 52
360 780 195 67 56 49
378 901 213 69 60 60
361 770 197 63 53 50
362 774 197 64 54 50
365 775 199 64 53 49
482 810 246 83 62 52
434 889 259 71 62 61
364 780 200 65 54 49
361 785 198 68 56 50
364 785 200 66 55 50
366 785 203 65 55 49
355 788 196 73 60 52
359 800 201 73 59 53
406 911 305 62 54 50
364 790 200 69 56 50
366 790 203 66 55 50
363 798 201 71 58 51
362 801 202 72 58 52
366 795 202 66 55 51
370 775 200 66 54 49
370 780 204 64 54 48
370 785 205 65 54 49
371 784 207 63 52 48
325 930 340 75 71 70
375 780 205 63 53 48
373 782 207 63 54 49
374 785 207 63 52 47
308 904 252 113 86 69
381 770 203 63 53 47
378 773 201 64 53 47
483 838 308 42 35 29
380 775 203 63 52 47
385 775 204 59 49 45
385 780 204 55 46 43
385 785 204 51 44 42
370 790 204 66 55 49
375 790 204 64 53 48
374 879 192 118 94 77
370 795 203 64 54 50
370 800 203 65 55 49
387 848 271 100 78 62
293 952 279 81 76 76
375 795 203 64 53 48
434 809 186 87 68 55
380 786 207 58 48 45
380 790 207 58 47 45
380 791 206 57 46 45
385 790 204 48 42 41
380 795 205 56 45 44
381 856 201 50 45 46
355 805 200 77 60 53
357 807 202 74 60 53
360 815 204 74 59 53
355 820 204 76 61 54
360 820 205 73 59 54
299 904 263 154 116 91
359 823 206 73 59 53
360 825 208 70 58 53
365 825 209 60 51 49
415 890 353 72 57 47
292 895 284 84 74 72
365 830 211 65 54 50
366 830 212 71 55 50
375 805 204 58 49 46
375 810 204 54 47 45
385 815 199 53 46 43
380 810 203 49 44 45
370 822 207 53 46 45
375 830 203 56 49 48
380 820 200 54 47 45
385 825 198 58 48 45
377 817 201 57 51 50
455 775 183 73 56 49
385 830 198 60 50 47
377 828 201 58 50 50
366 882 191 101 79 63
370 881 190 110 84 69
306 906 322 145 120 101
375 881 190 129 104 92
380 876 191 126 102 87
385 876 191 121 97 84
372 887 182 85 66 55
375 886 185 92 74 64
468 833 251 79 60 49
370 885 190 103 83 74
374 889 184 75 61 54
405 900 319 58 51 47
381 885 189 90 73 66
383 882 186 109 86 75
384 885 188 97 79 71
380 896 184 87 77 71
450 815 225 66 54 49
383 893 185 87 75 70
380 889 190 76 65 60
385 890 189 95 81 74
325 835 209 92 72 65
325 845 219 68 60 61
324 847 224 103 86 77
330 835 209 91 71 65
330 840 210 77 62 61
335 840 209 74 63 64
329 842 212 64 54 55
335 843 211 118 96 83
328 847 222 170 130 107
335 847 217 186 130 101
331 848 220 187 130 102
335 849 219 181 122 94
340 835 207 73 60 58
340 840 208 107 86 77
311 872 307 118 90 71
344 834 206 73 60 56
346 832 207 72 58 55
340 843 211 170 125 102
340 847 217 178 123 98
348 843 211 163 114 90
345 850 219 166 115 91
345 854 225 159 108 85
350 850 220 152 105 84
350 855 224 136 93 74
325 841 239 173 125 97
323 842 236 164 129 99
329 845 239 181 128 98
325 834 249 172 126 102
324 832 251 164 122 98
327 833 252 182 134 108
328 837 246 179 127 100
329 840 244 179 126 100
328 842 241 179 127 100
331 845 249 169 120 93
331 845 254 157 113 87
327 848 229 188 135 103
333 852 234 196 137 102
333 852 237 191 133 101
334 855 239 176 121 88
446 816 301 153 100 74
332 854 240 172 120 88
335 860 239 165 116 83
326 865 250 109 79 47
331 850 244 169 119 91
330 850 254 136 100 75
329 855 254 111 85 63
331 860 244 152 109 79
330 865 244 145 107 75
328 865 248 126 93 64
333 865 242 146 104 72
337 853 226 182 122 95
340 856 229 177 122 91
345 859 230 155 111 83
337 858 236 182 126 93
338 857 232 181 126 91
338 861 237 164 113 82
340 865 238 151 108 79
344 861 233 155 112 81
348 857 227 144 99 76
350 860 229 117 85 67
351 881 209 56 52 52
349 879 214 54 49 49
352 876 215 53 48 48
352 871 225 59 51 51
348 878 218 51 46 47
347 890 206 70 63 63
344 895 208 70 63 64
352 890 200 87 74 68
344 884 214 59 54 56
343 884 219 51 48 48
342 891 211 64 57 59
343 888 212 62 55 57
342 896 210 67 59 60
339 890 219 51 47 48
343 892 317 117 90 73
337 896 220 53 49 49
346 882 215 56 51 53
322 867 251 116 86 52
324 875 247 128 100 70
326 880 246 134 104 76
330 870 244 143 106 73
336 870 240 141 105 73
330 875 244 146 110 77
333 875 242 146 111 80
415 888 289 34 32 33
335 875 241 135 105 76
497 844 281 122 96 71
333 879 242 146 114 83
325 895 239 103 80 55
335 895 229 57 51 51
330 895 239 88 73 56
330 850 298 152 122 95
331 890 240 106 86 67
353 973 256 85 81 83
334 895 234 69 59 55
333 894 237 81 68 58
321 891 246 113 90 68
335 969 304 62 57 56
325 890 245 99 77 57
325 893 243 87 68 47
330 885 243 137 107 78
332 885 241 137 110 83
329 890 243 118 94 69
328 893 242 93 73 50
343 866 237 145 108 79
340 875 238 118 91 65
340 880 238 101 81 61
460 855 259 84 66 61
346 875 235 105 82 65
346 870 235 129 98 72
347 877 231 63 51 50
343 883 229 53 46 47
343 883 232 62 55 52
495 805 244 95 77 60
404 894 234 73 63 61
338 888 232 58 52 49
355 835 209 129 96 78
360 840 214 127 87 68
366 835 211 69 55 50
400 900 329 73 61 55
364 835 212 93 66 55
431 770 307 166 121 92
365 865 205 52 48 47
355 850 220 129 88 70
491 808 234 100 83 67
353 852 222 130 91 72
354 855 223 103 73 59
345 910 350 73 68 67
359 850 218 91 65 56
355 860 224 83 64 54
357 860 221 68 54 51
358 860 218 60 50 50
406 871 218 64 57 61
361 860 215 56 48 50
356 865 219 57 48 50
361 850 216 73 57 55
367 850 211 53 46 47
363 860 212 53 47 47
363 863 212 53 47 47
370 835 208 57 50 50
372 840 206 53 46 48
375 840 204 57 49 50
515 864 284 90 75 65
370 845 209 54 46 47
491 800 234 109 82 60
372 843 206 51 44 45
377 840 201 60 53 51
380 840 201 62 53 50
379 842 202 63 54 52
373 850 207 46 40 42
373 854 207 47 44 44
374 864 198 52 45 47
369 864 203 53 48 47
429 871 277 42 38 36
380 850 204 55 48 47
380 855 203 50 45 45
345 974 255 85 82 87
384 850 202 54 47 47
385 855 200 56 49 48
380 860 199 54 47 46
376 865 196 50 44 45
375 900 209 74 65 63
380 862 196 56 48 45
385 860 199 64 54 49
383 865 196 64 53 47
353 864 227 83 65 53
361 871 205 56 50 49
356 876 205 55 50 50
359 874 203 57 51 51
357 871 210 53 48 47
356 881 200 68 59 57
358 878 202 57 51 52
364 869 203 56 50 49
371 911 346 58 46 38
365 880 193 95 76 62
362 872 201 60 54 53
358 868 213 54 48 48
353 874 213 54 48 49
355 885 199 80 68 61
435 894 343 96 77 61
360 885 194 94 76 66
355 890 198 87 73 67
359 893 201 71 61 58
364 886 192 94 76 66
375 870 195 59 52 48
370 875 195 82 69 59
388 807 291 56 48 44
370 879 193 112 90 71
375 875 193 101 82 66
500 799 231 133 107 88
380 870 195 81 67 56
386 865 197 76 61 52
372 893 195 67 54 50
376 892 192 72 61 55
382 882 192 105 84 74
380 894 194 92 79 73
301 895 260 159 117 93
385 894 194 94 79 72
431 836 228 64 53 52
380 896 205 68 57 54
386 891 204 68 59 59
384 895 204 73 63 60
381 896 218 70 63 64
352 866 226 66 55 50
417 835 186 105 78 55
304 910 254 95 80 72
296 925 254 65 62 64
359 969 298 50 46 45
299 920 254 66 61 63
302 911 256 99 84 73
303 914 253 76 69 68
305 915 249 69 62 63
302 926 245 65 60 61
300 871 299 96 71 54
297 921 256 66 62 63
298 924 252 67 64 66
481 825 272 57 47 39
320 910 234 118 88 71
318 909 238 89 68 57
310 905 249 100 81 65
309 910 248 78 68 63
307 907 251 95 78 70
347 823 272 181 135 113
319 900 244 127 102 77
315 900 249 118 92 66
318 898 247 125 102 80
318 904 243 115 89 69
314 909 243 87 72 59
306 925 240 65 61 62
310 925 234 63 58 59
317 917 231 156 110 80
314 914 238 81 69 58
399 893 347 75 63 53
315 920 233 113 86 66
391 805 196 57 47 44
317 912 236 88 71 55
318 914 232 134 101 75
312 927 231 65 59 61
317 926 226 66 60 61
310 915 243 68 61 57
308 913 247 67 61 59
307 921 241 66 60 62
305 930 239 62 58 60
303 935 238 69 62 62
301 935 240 73 66 66
304 941 238 78 71 71
301 939 240 75 68 67
295 930 254 63 59 62
296 935 249 70 65 67
296 940 249 78 74 75
296 945 254 73 69 71
299 930 248 66 61 65
301 930 244 66 62 65
299 935 244 75 69 71
298 934 247 72 67 69
438 888 347 77 62 51
303 929 242 62 58 60
297 931 250 65 62 66
363 973 283 61 57 55
349 973 298 71 68 68
297 938 246 78 72 73
301 944 245 76 70 70
300 946 249 73 68 70
306 944 240 77 71 71
304 946 243 75 70 70
297 944 250 76 72 73
305 950 249 71 66 68
298 947 253 72 68 70
301 948 250 71 66 69
304 952 253 70 66 68
409 886 289 32 31 32
302 953 256 72 68 70
305 955 254 72 69 71
311 935 230 73 65 64
326 916 225 58 51 51
307 931 235 61 57 58
305 935 235 70 63 63
309 935 233 72 65 64
306 940 235 80 71 70
310 940 233 84 74 72
315 935 228 78 69 66
317 930 226 67 61 61
395 825 283 53 42 39
318 937 227 95 83 78
316 943 231 93 84 85
436 811 217 62 52 51
320 944 231 86 77 79
315 945 234 84 75 76
453 814 226 74 59 53
310 946 239 78 71 72
320 946 233 81 75 76
320 949 239 76 71 72
309 951 248 70 65 67
309 956 252 71 67 70
311 958 251 71 67 69
356 864 295 113 90 66
310 960 254 74 70 73
320 951 243 77 72 74
315 960 249 75 70 73
318 957 247 77 71 75
432 862 316 44 37 33
315 965 254 78 75 78
374 924 329 49 43 43
316 968 256 88 85 89
320 969 255 86 83 88
350 922 190 92 83 81
340 967 252 92 89 94
353 921 191 75 66 62
363 909 207 81 69 67
333 905 224 56 51 52
336 910 210 73 66 67
331 906 225 58 52 51
314 811 260 71 59 55
333 909 218 58 53 53
333 908 222 56 51 52
335 920 209 86 76 75
326 920 220 58 54 55
325 925 219 72 65 64
332 920 210 90 81 80
329 920 214 75 68 67
335 915 209 84 75 75
329 915 219 55 50 52
328 918 222 56 52 53
328 926 217 83 74 71
343 898 207 73 65 66
345 905 204 82 70 67
338 909 207 80 71 72
340 910 205 86 74 73
350 900 203 79 68 65
337 901 215 61 56 57
338 904 212 68 61 62
337 906 211 68 61 63
337 917 206 88 76 74
451 861 304 51 45 40
337 920 206 86 75 73
478 843 266 87 66 59
345 920 204 75 66 64
345 922 209 67 59 58
350 921 194 91 78 76
349 915 205 87 73 71
351 915 207 86 72 70
350 920 204 89 73 70
350 921 208 80 68 65
351 923 198 72 62 59
365 850 282 136 109 86
340 923 210 72 64 63
480 850 285 96 76 59
410 810 294 55 47 44
340 925 214 76 68 66
344 923 210 68 59 58
342 927 217 84 74 73
350 923 211 79 69 66
350 922 212 75 65 61
350 924 215 82 74 71
320 900 239 176 134 106
321 905 235 154 109 87
321 911 231 143 100 73
329 899 237 87 68 48
329 903 232 77 60 49
333 899 233 78 65 58
323 919 227 57 48 47
352 942 232 86 78 80
322 922 226 54 49 48
322 930 221 78 69 68
325 930 219 84 74 71
332 928 216 88 76 73
335 931 218 89 77 75
406 907 259 68 60 60
335 936 224 81 74 74
339 933 220 79 71 71
345 930 219 81 73 72
345 932 222 85 76 75
344 928 216 82 73 72
350 929 219 82 74 73
350 931 223 83 75 74
325 944 231 82 73 76
330 941 228 85 76 78
330 943 231 86 79 80
335 940 228 89 82 83
352 977 263 90 83 84
335 943 231 90 82 83
475 856 329 75 60 48
330 949 235 86 80 82
330 951 238 85 79 81
335 946 233 89 81 83
335 951 238 88 82 85
330 954 240 87 81 85
335 954 240 91 85 89
323 952 242 83 78 81
325 955 243 83 77 81
326 954 241 84 77 80
330 957 242 89 84 88
330 960 244 91 87 91
335 960 244 92 87 91
340 940 228 89 81 82
345 952 237 92 86 90
350 955 240 93 87 90
480 771 248 58 44 33
340 957 242 92 87 91
340 960 244 92 87 92
345 960 244 93 88 92
350 957 242 94 89 91
355 900 204 79 68 64
360 903 206 75 65 64
440 815 199 73 58 54
355 910 208 79 68 65
360 906 207 74 64 61
445 800 308 171 129 100
360 910 207 80 67 64
365 900 204 86 72 69
475 815 249 82 62 51
363 906 207 76 66 64
361 912 206 85 72 69
445 890 343 78 61 50
365 910 206 83 71 69
386 850 201 56 49 49
354 920 195 83 70 68
445 804 307 171 128 100
355 920 199 83 70 69
358 920 200 79 68 66
355 921 209 76 65 62
355 915 208 87 72 71
360 920 204 80 70 68
357 924 199 73 65 62
435 825 190 115 91 71
365 919 205 77 69 68
360 927 218 74 68 67
363 923 211 72 65 63
366 926 223 73 67 67
372 898 201 84 70 66
315 901 323 124 105 89
375 898 201 78 67 62
375 905 206 80 70 69
447 877 267 68 55 53
428 817 192 85 64 48
375 910 208 77 69 68
380 898 194 88 75 70
377 897 204 70 60 56
380 899 204 75 64 61
376 897 210 67 57 58
381 900 209 74 66 65
375 900 214 68 58 59
377 903 214 69 62 62
394 885 220 67 61 64
474 859 274 83 66 54
378 905 214 75 70 71
377 899 217 66 58 59
380 900 219 69 62 63
381 905 219 69 63 64
383 898 221 70 64 65
382 900 222 67 62 63
383 904 221 65 59 60
385 905 224 68 61 61
379 910 214 75 69 70
381 910 219 72 64 64
369 915 205 81 71 69
371 914 207 78 68 66
369 919 205 76 67 66
370 920 209 73 67 68
373 919 210 75 68 69
370 921 214 74 70 71
370 922 219 73 68 68
508 826 277 109 85 65
370 924 224 71 65 65
374 924 225 73 65 65
378 913 215 74 68 70
380 915 224 70 62 62
377 917 222 73 65 65
498 832 316 74 61 51
474 843 309 70 57 46
335 930 339 66 62 62
370 927 227 70 63 63
381 916 228 72 63 62
383 913 226 71 63 62
377 922 227 74 65 64
381 925 233 76 68 67
309 946 326 65 59 58
382 922 232 73 65 65
363 928 221 76 70 69
364 928 225 74 67 68
360 935 230 82 75 76
464 840 265 89 75 64
355 940 231 86 79 80
359 938 231 86 79 80
464 839 250 87 69 62
362 936 232 80 74 76
365 940 234 78 71 71
360 950 238 86 78 80
355 955 240 92 84 87
365 946 238 83 75 75
365 950 240 78 70 71
327 907 339 41 38 38
355 960 244 87 81 84
400 825 194 57 49 47
360 960 244 74 69 72
366 952 242 74 68 68
365 955 243 74 68 70
441 866 305 45 40 36
370 930 229 70 63 64
374 929 230 75 67 68
290 920 309 164 124 103
369 932 232 69 62 63
370 935 234 75 69 69
376 935 238 76 68 69
369 940 236 81 73 74
445 820 299 145 92 68
368 943 236 82 74 75
370 945 239 74 66 68
288 930 305 156 114 95
374 944 240 63 57 59
377 932 237 78 70 71
380 930 239 78 70 71
383 928 241 79 71 71
380 940 244 67 60 62
379 944 245 79 72 71
382 942 247 86 77 76
384 940 249 87 76 75
369 948 241 69 62 63
370 951 243 74 68 69
376 951 249 83 74 74
370 955 249 79 72 72
369 959 254 87 80 79
375 955 254 88 79 78
379 949 250 86 77 76
384 945 254 85 74 72
325 962 248 89 86 90
325 964 250 90 88 91
323 968 256 88 85 89
330 964 249 91 88 92
350 954 318 54 48 46
334 967 252 92 89 94
340 962 247 91 87 92
340 964 249 91 87 91
340 970 254 94 91 96
395 795 194 55 46 45
345 970 253 91 88 92
341 974 256 89 85 91
350 971 253 81 78 81
350 974 255 81 78 80
355 963 246 81 75 78
355 966 249 77 73 75
357 967 252 76 72 73
355 970 254 80 75 77
359 968 255 84 79 79
361 962 247 78 73 73
400 800 190 62 51 45
402 770 191 60 49 44
406 774 190 61 49 45
412 769 186 63 49 46
415 770 185 65 51 46
414 772 187 63 52 46
415 775 189 56 45 40
351 967 306 65 63 64
405 800 188 63 52 46
416 786 190 58 47 42
415 790 189 63 50 45
415 800 184 74 57 49
408 799 187 67 54 48
414 794 187 66 53 47
407 802 186 69 56 50
335 925 343 70 66 65
410 803 185 69 55 49
415 804 185 70 54 47
415 810 189 66 52 45
412 813 191 64 52 46
416 813 191 68 53 45
425 775 185 57 45 39
423 776 187 59 46 39
421 780 190 61 48 43
419 784 188 59 47 43
425 780 185 59 47 41
422 782 186 66 52 46
430 770 179 71 55 44
422 892 329 62 52 44
470 770 254 59 46 35
430 775 183 64 50 41
469 775 219 73 57 50
430 780 185 62 49 42
425 790 183 75 56 48
419 790 187 63 50 45
436 893 335 64 52 42
421 790 185 67 52 44
420 800 182 80 60 50
432 812 206 61 48 48
424 794 182 82 62 49
425 800 182 91 67 54
431 797 183 94 69 56
428 798 181 101 76 63
430 800 184 92 68 54
435 770 178 74 55 41
440 770 178 80 58 47
435 785 178 99 73 53
440 780 178 93 68 52
439 784 179 87 64 52
330 980 269 77 73 73
445 770 179 91 66 50
445 785 189 77 57 48
361 809 282 179 131 111
441 791 189 76 58 50
436 795 179 88 66 52
435 794 184 83 62 52
436 798 180 83 63 52
440 795 179 76 58 50
388 929 250 84 73 71
300 880 308 165 124 105
440 798 180 79 62 53
410 829 194 82 61 48
490 791 243 85 68 54
444 798 185 76 59 47
440 801 189 73 57 47
420 805 184 77 59 49
417 808 186 70 54 48
419 811 188 70 54 46
420 815 190 70 53 45
449 869 265 66 54 52
422 813 186 74 54 44
425 815 189 77 55 45
421 820 190 69 52 43
425 825 190 106 82 64
425 829 188 122 96 78
435 805 188 76 59 48
435 815 189 99 76 63
439 810 190 81 63 49
445 812 190 90 67 47
445 815 189 96 72 52
435 825 184 139 112 89
435 820 187 123 98 78
440 819 188 113 86 65
405 885 294 32 31 31
440 825 189 97 76 56
435 830 189 102 80 58
466 781 224 74 57 51
443 821 186 105 79 57
340 870 310 147 116 86
299 955 264 80 76 78
443 823 188 92 73 57
390 775 203 54 46 45
391 780 200 57 49 47
390 785 200 55 47 46
462 810 238 68 52 45
396 770 199 51 45 45
469 769 245 66 53 47
400 770 194 58 49 46
398 883 192 91 78 70
400 775 195 60 49 45
395 780 199 56 47 44
398 780 197 55 46 45
400 785 195 56 47 44
390 790 199 51 44 44
386 795 200 46 42 42
386 800 200 49 43 42
389 800 198 57 48 45
400 790 195 56 47 44
398 789 197 53 44 42
395 800 193 59 49 45
400 795 192 57 47 43
319 967 301 70 66 66
404 772 192 61 48 45
405 776 193 61 49 45
405 780 195 57 47 43
404 785 196 56 46 43
406 785 198 57 44 40
410 777 192 55 44 40
410 782 198 52 42 38
414 777 192 54 43 39
414 784 197 60 50 45
415 784 194 63 49 45
409 789 199 69 51 44
391 810 196 51 44 41
390 815 197 53 46 42
391 813 196 52 45 42
395 810 196 50 44 41
400 814 196 49 43 43
400 815 197 50 44 44
390 820 197 56 47 43
360 865 290 94 77 59
392 822 196 56 47 44
390 830 196 59 50 48
350 941 329 58 53 52
388 830 197 61 51 48
312 857 266 128 103 78
400 830 193 63 53 49
404 807 192 52 44 42
405 810 194 53 45 42
404 812 197 52 45 43
410 815 193 62 50 47
415 820 194 71 55 46
418 783 193 61 49 43
437 795 194 71 54 48
349 978 264 85 80 81
437 795 197 75 58 49
441 799 199 68 52 46
450 850 249 76 64 60
445 790 194 75 59 48
445 792 197 68 53 45
446 793 194 77 60 48
445 796 202 71 58 50
426 815 209 56 46 48
430 811 209 62 51 51
427 812 213 62 52 51
418 820 193 74 54 47
425 825 199 75 57 50
426 825 195 82 67 56
415 865 334 43 38 35
462 811 291 152 99 75
430 825 194 85 71 61
431 822 196 78 67 57
428 823 197 80 64 56
427 820 204 58 46 47
427 817 206 61 48 50
425 820 209 54 46 48
422 821 213 53 45 47
422 823 211 45 38 45
421 825 214 55 46 49
423 825 214 55 48 50
395 870 277 37 35 36
420 830 214 52 44 48
423 830 212 53 46 50
425 825 218 60 52 53
430 825 220 67 57 56
431 831 222 76 62 56
441 805 194 76 58 46
438 813 202 65 52 51
445 804 194 80 62 47
346 906 352 50 46 44
484 851 272 103 81 63
442 806 197 92 70 51
381 951 294 52 46 44
445 810 194 86 66 50
441 815 194 89 69 53
443 808 203 61 52 50
426 852 330 45 39 36
435 809 214 66 54 54
411 888 292 33 31 33
440 808 214 60 52 52
445 807 214 59 50 49
446 807 218 59 53 50
442 815 222 75 61 59
435 824 193 96 75 58
438 823 192 100 77 54
432 817 201 52 36 42
435 820 220 71 59 56
439 819 221 71 57 52
436 826 222 73 57 52
440 825 224 70 55 49
445 820 224 64 51 47
441 827 228 60 47 44
438 828 226 74 60 54
440 829 229 62 49 47
444 823 226 64 49 47
445 825 229 62 50 46
447 822 227 68 55 52
471 795 269 79 53 34
443 828 231 58 47 44
398 862 191 86 70 64
400 880 283 33 31 31
405 835 190 73 58 49
410 835 189 89 68 54
415 846 189 99 77 59
425 833 282 45 33 31
416 844 186 108 82 64
413 848 191 94 71 56
386 877 186 106 83 74
371 896 324 32 30 33
388 877 186 96 76 64
372 967 279 73 68 69
390 880 189 102 81 72
389 878 186 94 76 62
397 872 185 108 87 76
397 871 189 98 76 66
396 874 184 100 80 66
395 880 185 104 83 67
389 886 185 101 82 70
419 898 265 79 68 65
391 886 189 101 83 71
394 884 185 108 89 78
404 866 190 100 80 67
404 869 190 92 76 65
403 878 191 85 70 60
420 840 186 113 85 66
423 839 186 106 80 58
422 837 191 97 72 59
430 834 189 101 79 59
433 833 187 102 84 68
391 835 196 60 51 49
389 835 197 61 52 50
390 840 198 59 51 49
386 845 201 58 50 49
400 835 192 63 52 47
390 855 198 76 61 53
390 865 195 91 73 56
395 850 195 79 64 54
392 852 196 73 59 53
392 853 196 77 60 50
395 856 199 95 75 62
400 853 196 91 71 62
394 859 200 95 75 61
401 860 199 103 89 84
393 863 201 102 80 63
400 861 203 86 69 60
400 865 205 81 63 57
403 841 192 80 61 48
403 845 192 84 66 54
412 845 199 90 70 58
416 841 199 96 74 61
416 841 195 91 66 51
415 845 204 75 62 55
416 842 203 73 61 56
416 847 214 52 42 46
405 860 199 90 74 64
401 865 197 97 77 63
405 864 198 91 76 64
404 864 206 76 62 58
450 822 296 141 86 65
407 857 203 78 65 56
407 862 207 108 97 94
445 893 321 88 71 54
410 850 194 87 67 55
410 850 199 84 65 55
414 855 205 69 58 55
415 861 198 73 65 63
410 861 207 73 63 59
414 850 214 56 42 48
414 855 214 59 48 51
412 853 215 60 47 48
382 942 305 58 50 47
416 850 219 52 45 49
414 855 219 58 51 54
416 855 224 61 54 56
415 860 214 65 59 59
310 950 324 63 58 57
386 868 197 93 74 59
390 871 195 103 80 66
391 871 203 88 71 62
430 890 348 92 73 59
390 880 194 93 76 66
386 876 201 91 73 61
386 876 203 83 66 60
386 879 201 81 64 56
391 875 208 65 55 56
391 880 209 64 55 57
395 866 193 88 68 57
493 828 299 60 49 38
395 870 195 87 68 58
394 870 199 91 74 62
400 870 193 93 76 64
395 870 205 79 62 57
312 968 261 84 80 84
396 872 208 68 58 57
400 870 209 65 56 57
394 875 195 85 69 60
393 875 197 83 69 60
393 878 197 77 63 58
400 875 192 79 64 58
395 874 210 68 60 62
396 876 213 68 61 63
395 879 214 69 62 64
337 803 277 170 127 107
397 872 212 67 60 63
398 878 216 64 60 62
400 880 219 64 57 59
386 886 198 93 77 68
389 885 204 61 50 52
390 890 194 96 80 71
386 891 209 64 56 60
419 858 276 37 33 33
390 890 199 82 70 66
388 889 209 64 55 59
394 887 197 85 74 68
393 889 198 86 75 68
392 882 217 70 62 66
386 891 218 72 66 68
391 891 224 66 61 64
390 895 225 65 60 62
396 886 223 66 61 63
400 885 224 62 55 57
393 888 221 68 63 65
404 874 193 77 63 55
405 875 219 63 56 59
402 876 218 62 56 58
404 880 225 63 56 56
407 872 224 68 60 60
412 867 219 62 55 55
472 790 265 62 43 33
410 871 224 67 60 60
403 880 198 73 60 58
395 895 228 60 53 54
398 888 226 60 53 54
400 890 229 66 58 58
400 894 230 70 61 61
406 875 227 65 57 57
410 873 226 64 56 54
410 875 227 62 55 54
415 875 229 62 54 53
416 880 233 67 57 55
405 885 229 70 61 60
401 896 233 72 63 63
406 890 233 69 60 59
406 896 238 75 62 59
411 886 233 70 59 58
316 968 298 61 57 58
467 837 267 79 69 61
412 882 232 66 57 55
414 884 235 71 59 56
412 887 237 72 60 56
416 885 239 72 60 56
409 889 235 69 59 58
408 893 236 68 58 58
416 891 249 67 57 57
322 912 342 42 40 40
414 894 249 70 60 60
416 892 254 59 51 53
447 892 294 75 62 59
421 837 194 94 71 55
424 835 204 70 56 54
423 835 209 66 54 53
422 837 205 70 54 53
419 844 193 73 58 48
418 843 206 71 57 54
428 833 192 97 70 54
423 836 212 54 46 49
423 840 219 56 51 52
420 845 214 55 48 49
417 847 218 50 46 47
420 845 219 54 49 50
330 971 300 62 57 57
335 820 268 185 134 113
420 845 224 58 50 52
422 842 222 55 48 52
425 840 224 67 56 55
428 833 221 74 63 62
428 839 225 79 64 60
418 851 206 67 56 51
315 964 304 72 67 68
418 855 205 66 57 54
420 860 219 63 54 52
420 861 224 60 51 51
424 861 219 64 54 52
423 861 216 64 54 51
426 845 228 72 60 59
428 844 230 74 60 55
421 850 228 57 51 54
418 854 226 55 49 51
425 850 230 72 60 61
428 848 231 73 58 57
500 830 319 68 55 44
427 851 233 72 57 57
427 855 233 67 54 54
432 852 237 51 42 44
428 860 231 58 49 49
428 864 231 57 49 48
427 857 237 62 51 50
434 854 240 54 45 45
427 859 237 62 51 51
428 860 234 62 52 51
429 860 240 58 50 50
431 861 243 57 48 48
430 865 244 63 53 52
433 833 226 69 52 52
438 840 236 62 50 45
445 845 240 69 58 54
472 775 264 95 66 44
445 841 241 69 57 53
446 847 242 70 59 56
355 775 295 74 61 56
433 849 236 52 44 44
432 857 242 51 43 43
468 803 275 116 76 48
436 862 247 59 50 51
440 864 250 62 53 52
445 855 248 71 61 58
445 860 250 69 58 57
440 866 254 66 57 55
420 865 224 63 54 53
417 867 227 63 55 55
424 868 231 58 50 48
420 870 234 60 50 48
425 869 234 62 52 49
419 875 235 63 52 50
420 880 238 68 56 54
394 909 235 73 64 64
425 880 239 64 54 54
431 866 248 67 57 56
325 964 309 60 56 55
431 870 249 71 60 59
508 873 291 84 71 67
427 872 242 68 57 55
500 870 294 87 73 65
418 888 245 67 56 55
420 889 249 64 54 53
424 888 251 60 51 51
426 887 253 64 56 55
430 885 249 66 57 56
428 887 252 63 55 54
457 822 237 79 61 54
430 889 254 66 56 56
433 869 251 68 58 55
435 870 253 67 57 56
440 870 255 64 54 52
475 805 245 79 58 47
432 872 252 70 60 58
434 875 254 73 63 61
433 877 250 69 59 58
340 977 291 61 58 59
363 898 333 38 35 35
435 880 254 75 64 63
438 884 254 70 61 61
451 771 176 92 69 49
454 773 176 73 55 44
458 770 176 67 49 40
450 770 178 100 73 57
456 769 189 73 54 44
450 781 188 73 55 47
450 783 186 80 60 51
450 784 189 74 55 45
461 875 319 53 41 41
455 780 189 75 58 46
455 783 190 86 65 49
458 770 177 69 53 47
459 775 189 81 62 52
455 790 190 95 72 52
452 792 190 104 81 55
450 795 189 93 72 53
456 769 194 78 59 50
498 833 316 74 62 52
451 782 194 76 58 50
451 784 198 69 50 43
455 785 194 80 60 50
453 782 197 65 52 43
459 775 199 74 58 53
310 855 274 155 121 94
460 775 204 67 53 49
462 770 208 58 47 44
459 780 199 69 56 51
458 784 195 75 58 49
459 785 199 66 53 49
460 780 204 67 54 48
460 785 204 59 49 45
461 780 209 57 48 43
464 780 214 61 51 46
462 786 213 54 46 44
463 784 214 55 44 40
450 790 195 70 53 42
455 790 195 71 53 47
292 920 313 163 124 103
450 801 194 75 59 47
454 795 192 70 55 47
450 796 204 58 47 42
456 796 209 53 44 40
453 799 209 52 42 43
457 792 203 52 43 42
459 790 204 54 45 43
461 790 209 54 45 42
458 793 206 54 45 40
452 801 213 69 58 52
454 799 215 55 46 43
464 785 219 65 51 48
462 787 218 56 50 46
461 791 224 60 49 43
459 795 224 56 47 44
457 797 218 52 46 43
456 800 218 54 46 42
459 800 224 60 49 44
471 769 206 67 54 49
470 770 214 77 59 49
469 774 216 83 63 56
472 770 219 74 57 51
468 778 220 77 60 53
468 778 225 74 59 49
509 865 293 88 78 72
475 770 224 74 56 46
465 790 229 68 53 45
461 795 229 60 51 43
460 800 229 64 53 48
462 797 232 80 62 50
467 781 227 81 64 56
466 785 227 72 57 50
474 774 230 86 66 53
308 859 274 154 120 93
356 972 295 63 60 60
479 768 225 99 73 54
480 775 230 111 82 59
478 775 232 109 82 64
475 780 229 97 72 53
475 785 229 107 78 57
480 780 228 108 79 54
467 772 247 69 58 53
392 882 347 58 49 43
285 935 289 88 76 71
470 769 249 56 44 35
467 769 254 56 45 36
481 769 246 62 49 36
474 772 254 57 43 33
476 775 254 59 45 35
480 775 250 61 47 36
478 776 252 69 57 47
476 780 255 56 44 35
470 795 234 79 59 47
470 801 239 77 57 47
472 792 232 82 62 49
475 795 239 82 59 45
473 799 236 76 55 45
474 799 239 79 58 46
481 795 241 95 72 52
320 974 264 102 98 100
480 800 243 87 67 50
448 805 197 84 66 51
450 807 218 57 49 43
455 810 225 67 52 44
462 806 239 75 58 52
457 811 227 73 58 50
459 810 229 71 56 51
458 813 231 75 62 55
457 816 232 77 60 57
463 810 240 68 53 45
463 814 241 68 53 44
451 821 229 71 56 50
449 824 230 69 54 50
452 817 227 71 56 49
454 819 230 80 63 57
450 825 233 76 60 53
456 821 234 80 62 56
451 831 238 78 61 56
455 830 239 78 61 56
460 820 239 77 62 56
455 832 243 71 56 50
462 817 242 72 60 54
465 820 244 90 72 63
289 915 304 163 125 101
331 979 265 87 82 83
463 825 241 81 63 58
465 825 244 84 66 61
464 829 245 83 66 60
470 802 243 81 60 53
469 804 245 78 59 51
470 806 248 75 56 47
466 810 248 77 60 54
480 805 245 87 66 52
480 810 248 86 67 55
465 850 277 41 35 32
470 820 249 63 47 45
466 830 248 67 53 48
469 830 250 73 56 50
475 820 249 82 63 51
474 824 251 76 57 48
476 826 253 80 61 50
480 825 254 86 65 54
475 830 254 83 63 54
510 776 224 93 76 66
511 780 219 106 80 64
487 774 232 88 69 52
485 780 229 102 77 56
485 777 226 96 71 50
486 778 226 97 74 58
485 784 234 110 83 59
487 782 232 112 84 63
488 770 234 72 56 44
488 770 239 69 53 40
488 775 234 94 75 56
488 775 239 80 61 47
489 780 234 99 74 57
359 958 312 58 53 51
485 775 249 58 44 29
487 776 245 69 52 38
486 780 249 65 50 38
486 785 249 77 59 47
484 780 252 59 47 34
488 771 243 61 48 33
488 775 244 71 55 41
488 784 247 75 57 45
485 786 239 106 80 60
332 835 257 172 123 97
330 897 322 118 94 76
486 799 240 89 63 45
496 791 230 108 78 55
490 791 235 101 75 57
515 868 289 85 74 70
490 790 239 100 80 64
492 795 231 110 75 52
489 795 234 99 73 53
495 801 233 106 84 67
487 787 244 83 67 54
485 790 249 86 70 58
312 948 327 64 58 56
481 790 255 65 51 42
405 880 353 71 58 46
482 798 241 89 70 52
485 801 243 94 69 54
486 795 250 73 57 45
483 795 252 67 52 42
382 882 338 38 35 34
495 791 244 87 69 53
496 799 241 97 78 59
503 780 225 98 82 69
501 787 233 103 83 65
505 786 229 110 85 65
507 777 232 92 83 74
509 777 232 93 83 74
501 787 230 104 81 62
500 790 228 114 86 62
505 790 228 127 99 77
500 788 234 98 79 62
500 790 239 97 80 65
500 795 240 97 77 58
503 795 238 99 79 60
505 800 238 97 83 68
511 789 225 145 109 89
509 786 233 103 83 66
509 790 233 105 85 65
300 870 284 135 106 84
510 795 229 117 95 82
505 801 233 139 109 97
510 795 233 103 88 76
510 801 237 106 88 70
499 791 243 95 76 60
499 794 243 92 73 56
350 770 294 78 63 58
503 792 242 93 74 55
492 804 239 102 80 63
491 805 234 103 81 62
495 805 233 100 79 60
485 805 245 94 70 56
486 803 250 79 62 51
485 805 254 72 55 46
485 810 246 91 69 57
482 808 256 76 61 52
490 806 245 100 77 57
495 806 249 89 71 54
494 806 254 85 67 50
490 809 246 94 71 53
495 811 248 96 77 61
303 898 311 103 83 62
505 845 327 102 80 61
495 814 249 89 69 58
482 823 251 95 72 61
484 823 251 102 76 62
485 825 254 97 73 58
487 817 252 104 79 67
500 801 232 146 120 103
501 809 236 116 90 66
505 810 235 110 87 70
504 814 239 96 78 64
510 807 231 115 86 66
510 864 264 82 67 53
505 805 239 107 85 65
330 975 263 96 92 95
507 812 229 101 84 69
506 813 229 93 75 62
504 806 243 108 86 64
501 814 244 94 75 62
497 813 246 99 79 66
500 809 250 95 76 61
503 814 242 94 75 62
499 810 252 93 73 59
450 833 240 78 60 56
450 835 244 76 61 55
452 837 247 74 59 54
453 836 247 73 59 54
455 840 247 82 65 58
449 845 244 73 61 59
455 845 248 82 66 60
465 835 249 73 58 51
459 845 250 88 69 62
295 956 289 78 74 76
466 840 253 86 64 59
440 875 294 41 35 34
455 850 250 91 72 65
453 853 251 93 74 68
448 858 251 70 54 56
449 859 255 86 73 71
458 848 251 89 67 57
460 850 254 99 77 67
464 849 256 92 71 63
467 836 252 81 62 54
470 844 256 83 65 58
475 834 255 85 65 59
388 896 206 74 61 59
388 905 220 69 62 63
389 905 224 68 60 61
390 910 234 66 58 59
394 900 230 62 55 56
393 904 231 65 57 58
454 823 293 135 85 65
397 900 232 69 61 62
400 900 235 74 64 65
392 912 237 73 63 62
395 910 239 77 67 66
397 907 237 76 65 64
400 911 249 78 65 65
389 915 235 65 58 60
386 922 239 70 63 64
390 920 244 79 69 68
386 926 244 72 63 64
387 922 242 70 61 61
387 927 247 70 61 59
392 926 253 81 70 68
425 893 261 66 57 56
395 915 244 85 74 71
394 919 249 81 70 67
395 920 254 73 64 61
401 911 254 76 65 63
393 924 255 72 62 60
406 901 244 82 68 65
406 905 249 77 66 64
407 902 248 76 64 61
407 907 254 72 63 61
409 899 244 76 63 60
411 900 254 64 56 57
409 904 254 70 61 60
412 897 254 62 55 56
286 770 263 55 46 46
287 774 262 67 52 50
285 780 259 178 129 103
286 785 258 179 130 102
407 803 297 58 51 49
289 770 265 63 53 49
404 868 329 38 35 35
290 775 264 58 49 47
291 769 267 86 71 62
295 770 269 88 72 64
290 785 260 89 70 63
291 784 262 46 40 42
295 780 265 82 66 60
298 771 271 88 72 65
298 781 266 83 68 61
300 785 265 78 65 59
304 777 271 80 65 61
305 785 268 73 62 58
301 774 272 85 70 64
305 775 273 82 68 63
294 787 261 62 52 49
291 794 257 63 51 47
297 788 262 75 62 56
300 790 263 74 62 57
469 879 304 83 66 54
300 795 260 69 58 54
302 793 262 71 59 56
304 796 261 67 58 54
308 782 271 74 63 57
310 785 270 71 60 57
306 768 277 86 71 65
310 775 275 79 65 60
315 770 280 77 64 58
315 775 278 78 64 58
335 963 312 85 81 82
315 785 273 74 60 55
318 782 276 76 61 55
321 784 277 74 60 54
306 789 267 71 61 57
310 790 268 69 58 55
313 787 271 71 59 55
315 795 268 67 56 53
314 800 265 69 57 53
320 790 273 69 57 52
310 805 260 69 59 55
306 809 257 67 55 53
291 885 279 183 133 116
315 805 264 69 58 53
319 806 266 67 55 50
316 810 263 70 58 53
315 815 259 70 58 55
317 814 262 70 58 54
318 816 261 54 45 45
312 818 257 69 57 54
316 820 258 64 54 52
317 823 257 48 42 45
312 847 276 146 118 93
440 894 329 69 54 44
315 844 279 114 94 73
320 844 279 97 77 55
315 845 289 137 111 88
352 813 277 184 132 114
320 842 289 106 88 68
311 861 265 131 106 81
310 865 259 125 99 73
305 865 269 142 113 85
309 860 269 140 111 84
320 851 265 108 83 58
320 856 260 105 79 52
317 852 266 106 84 64
320 849 268 110 85 61
312 862 261 123 99 75
309 855 279 160 124 97
311 850 289 157 116 95
306 860 279 151 115 92
308 858 278 156 122 94
450 835 274 44 39 36
306 860 284 134 60 72
306 860 289 142 60 80
305 865 284 108 59 63
314 849 273 131 108 85
316 846 292 153 120 99
405 820 288 63 52 47
466 815 279 80 55 43
310 855 294 118 50 60
307 857 292 151 67 85
307 861 293 145 95 102
430 880 284 33 30 32
305 865 294 116 67 70
309 860 295 146 85 96
310 864 299 121 83 78
313 849 291 163 123 104
510 820 294 99 78 61
315 850 294 147 111 90
312 852 292 121 91 64
315 855 298 123 65 65
320 855 299 138 108 84
314 863 301 144 128 122
320 860 301 138 78 81
315 865 304 120 74 70
320 865 304 103 72 66
296 875 269 123 98 75
304 870 264 139 111 84
300 871 269 124 99 73
300 875 264 129 103 77
396 906 329 68 58 54
305 875 259 142 112 83
303 873 262 142 114 87
301 880 260 141 109 81
304 880 258 145 112 83
297 876 266 123 98 74
292 880 274 169 121 102
289 940 309 47 44 45
293 879 273 157 115 93
292 877 279 153 112 90
400 845 267 70 48 40
295 875 284 125 96 74
292 877 282 150 111 89
434 892 333 59 49 40
292 880 284 164 120 100
294 880 289 147 108 90
300 870 274 117 94 71
302 867 285 106 62 55
302 867 289 126 66 70
297 872 282 118 93 71
298 874 289 142 105 87
295 895 269 179 130 110
304 885 257 146 110 83
297 885 265 159 118 93
301 890 260 155 113 89
303 895 258 152 113 87
292 885 284 180 132 115
292 895 279 89 70 65
293 890 284 143 100 89
294 890 289 136 98 88
294 894 290 83 70 66
292 896 288 123 105 91
306 870 260 135 108 81
309 870 258 129 102 74
295 880 294 153 111 92
295 875 304 159 123 102
375 870 284 53 46 39
295 880 304 180 133 115
300 871 304 103 81 64
298 873 294 109 74 64
297 876 307 167 125 107
305 880 309 142 106 87
296 885 304 175 131 113
296 895 294 109 84 73
300 885 308 164 123 107
298 886 306 174 131 116
298 895 305 158 124 102
301 895 308 129 101 79
311 866 303 119 64 64
368 882 292 53 47 42
310 880 310 139 107 86
315 870 308 129 101 80
320 867 307 127 106 87
320 869 309 119 97 74
321 871 313 115 92 67
312 881 312 163 123 104
430 891 324 57 48 43
315 880 314 165 124 106
320 875 315 137 105 81
319 880 316 165 123 106
308 894 311 97 76 67
306 896 313 105 84 65
311 890 313 111 84 76
310 895 314 104 86 73
315 885 314 166 121 105
321 880 318 164 121 103
318 885 316 162 116 101
321 885 318 162 117 101
315 895 319 114 99 87
316 892 317 54 46 46
318 889 316 130 92 79
325 785 279 71 58 52
329 771 286 73 61 56
385 860 274 47 39 31
330 775 285 71 60 54
332 773 287 72 60 53
335 770 290 72 61 55
334 776 286 70 59 54
335 780 285 70 59 54
336 778 287 71 60 54
453 775 307 165 119 87
335 785 283 69 57 53
324 790 275 68 55 50
405 893 339 75 61 51
330 790 279 67 56 50
328 792 276 67 56 50
331 794 277 66 55 52
330 800 275 49 42 42
335 800 278 80 66 61
410 850 274 37 33 32
340 779 288 73 60 55
446 891 340 79 61 51
342 783 287 73 60 54
345 780 289 74 61 55
345 790 285 69 57 53
341 794 282 50 43 44
380 895 347 55 48 44
345 801 280 178 133 112
346 799 282 166 127 108
446 866 300 45 40 37
346 788 287 71 59 54
473 771 279 158 108 74
348 791 286 66 54 49
349 795 286 79 68 63
340 770 292 74 61 55
344 776 291 73 61 56
360 902 352 56 50 47
350 779 292 75 61 56
350 785 290 74 60 55
325 810 268 77 59 53
323 812 266 45 33 36
329 807 271 118 91 76
327 803 272 45 38 40
335 810 273 178 131 110
323 822 261 177 136 114
325 825 259 182 133 113
326 823 262 183 130 110
383 953 283 53 45 43
326 828 257 180 131 111
330 820 265 182 130 111
330 824 263 182 129 109
332 818 267 182 131 110
330 826 260 185 132 112
340 806 276 180 132 112
345 805 278 182 133 112
340 814 272 183 133 112
345 810 275 182 131 112
345 815 274 184 131 111
350 809 277 183 133 113
340 820 270 185 135 114
336 823 267 182 130 110
344 821 271 183 135 114
339 830 265 166 121 95
345 830 270 159 120 96
350 820 274 181 132 110
350 830 273 149 115 91
355 795 288 71 61 58
356 799 287 177 134 114
357 774 297 74 61 57
360 775 298 73 60 56
355 780 294 73 60 56
356 784 292 72 59 55
360 781 295 72 60 55
365 775 300 74 61 56
366 774 302 73 61 56
333 916 346 71 66 65
365 785 295 66 57 53
364 782 296 72 60 56
366 783 297 70 59 54
326 843 290 111 90 66
360 795 290 60 52 51
365 790 293 63 54 51
364 796 291 44 40 43
370 776 301 74 62 56
370 780 299 72 59 55
371 784 297 68 57 53
375 780 300 69 58 54
385 780 303 72 60 56
384 782 301 71 59 55
385 785 300 68 57 53
374 771 306 68 58 55
400 770 310 78 64 58
380 770 308 73 60 56
370 790 295 63 54 52
345 976 294 65 61 60
376 789 297 64 54 51
370 795 293 55 47 44
370 801 290 118 93 80
371 799 292 37 34 40
375 795 294 61 51 48
375 800 292 47 40 42
385 796 296 63 53 50
355 806 281 184 134 113
360 805 284 181 134 114
299 925 320 142 107 90
358 807 281 182 132 112
362 803 287 183 137 116
355 825 274 163 124 101
359 821 276 168 126 104
359 825 276 159 120 97
355 830 275 152 118 95
357 832 277 154 120 97
365 830 278 161 122 96
371 809 287 182 137 112
370 815 283 170 125 101
374 812 286 177 132 108
377 813 287 172 128 104
330 953 322 72 66 64
380 810 289 148 116 94
380 814 287 163 123 100
368 817 281 166 120 98
371 818 282 163 119 96
375 821 281 159 117 92
375 819 283 158 116 91
370 830 278 158 119 95
378 822 281 154 112 87
384 817 286 158 118 97
380 830 278 158 123 100
385 826 280 150 111 89
385 831 276 153 117 96
374 801 291 63 48 46
385 804 292 56 47 45
385 807 291 48 42 40
355 885 304 57 49 40
325 846 269 96 70 46
334 835 259 167 121 94
336 835 264 158 116 90
335 840 264 128 94 71
334 844 264 85 66 48
330 846 269 71 54 39
325 844 279 93 73 49
324 842 288 103 83 61
330 844 274 77 61 41
335 845 284 105 82 57
440 875 259 67 57 56
335 846 289 117 92 64
325 850 264 107 81 55
324 848 267 110 79 56
434 868 307 44 39 35
330 850 259 92 73 56
338 834 266 155 116 90
337 841 268 87 68 47
400 830 279 43 35 37
339 840 270 106 81 58
345 836 273 134 104 79
435 878 289 35 31 31
340 841 274 92 73 51
344 839 275 116 90 66
344 843 281 111 89 65
339 847 288 116 91 64
347 832 272 147 113 89
350 836 277 143 112 86
350 840 279 143 114 88
341 848 290 120 94 66
349 851 288 122 95 68
330 936 336 66 61 59
325 845 294 139 113 88
322 847 297 158 126 103
290 925 309 167 126 104
330 846 294 134 108 82
328 847 297 151 123 96
326 857 302 150 121 94
331 848 296 144 116 89
336 849 295 134 107 78
335 855 300 143 115 85
330 860 304 143 116 88
334 857 302 142 116 88
334 862 307 145 116 86
337 848 291 122 97 68
340 855 299 136 109 80
430 885 349 72 57 45
338 857 302 139 113 86
341 858 301 138 110 81
347 853 291 125 97 68
351 854 290 123 95 69
348 857 297 127 98 70
350 860 299 129 101 73
348 862 302 133 106 75
349 865 303 133 106 77
340 866 308 146 116 84
322 877 317 151 112 92
330 868 311 126 101 73
509 823 290 96 74 61
335 871 313 139 110 81
330 875 318 148 114 89
