ply
format ascii 1.0
comment Created by Open3D
element vertex 2233
property double x
property double y
property double z
property uchar red
property uchar green
property uchar blue
end_header
281 900 300 208 156 140
240 826 227 210 150 122
338 532 282 85 26 38
402 891 151 72 58 51
248 803 240 171 128 100
338 633 152 49 37 40
322 709 269 38 26 29
385 858 196 57 49 48
243 813 237 182 135 111
248 813 237 180 135 109
253 813 239 185 141 113
433 784 207 55 43 40
254 808 241 179 137 108
254 811 241 183 142 113
243 823 233 206 148 123
248 818 235 192 141 115
249 817 236 189 139 113
248 823 234 203 148 123
297 954 236 77 72 74
241 825 230 206 144 117
247 830 230 213 150 124
318 562 89 133 20 41
252 820 235 196 143 114
255 821 236 198 145 117
413 773 173 48 40 39
251 830 230 214 153 126
424 603 289 169 117 87
254 831 231 213 154 128
426 577 198 179 9 49
247 835 218 215 138 112
250 836 214 220 144 118
254 836 209 228 153 126
250 836 218 210 135 110
253 837 218 207 136 109
273 528 223 36 24 26
358 949 303 54 49 46
254 836 222 216 148 122
319 518 58 160 8 40
313 964 233 83 80 83
317 518 63 147 5 37
320 522 59 156 11 39
373 813 168 68 54 49
319 528 64 126 17 40
278 518 127 98 30 40
288 518 122 49 33 38
283 528 127 46 33 36
412 708 213 53 35 33
368 868 144 126 98 80
288 523 123 95 24 37
376 856 161 130 104 84
383 528 92 93 21 36
285 526 125 51 35 35
288 528 125 119 18 36
294 846 209 43 45 53
287 529 126 73 26 33
288 533 127 102 16 34
304 538 93 54 31 33
326 970 241 88 79 83
303 543 93 77 27 36
312 518 78 109 13 32
334 790 176 78 61 53
312 528 73 151 5 35
311 527 77 143 6 33
315 518 69 132 7 36
313 518 73 131 4 31
316 518 67 142 4 36
417 593 193 120 29 44
314 523 68 151 6 37
388 559 106 109 27 40
316 529 67 162 7 38
310 519 84 116 11 34
310 518 88 118 9 33
311 516 86 121 5 33
310 515 89 118 3 32
326 876 182 49 45 45
312 833 249 160 122 98
309 523 83 98 18 34
311 521 81 71 26 41
308 528 83 95 23 34
308 633 148 204 11 42
307 523 93 87 20 31
343 578 113 182 24 50
311 533 76 157 7 36
310 538 79 84 26 37
390 634 266 155 108 94
453 738 167 79 60 41
313 543 78 102 24 40
315 532 70 168 9 41
488 919 239 72 61 52
397 676 186 93 53 38
318 533 68 140 19 42
320 531 65 64 25 29
317 538 72 171 11 41
263 703 189 88 58 45
363 698 169 96 24 30
438 533 220 39 31 32
319 537 69 153 11 35
314 538 74 157 12 42
333 933 307 40 38 38
358 598 273 186 7 58
315 542 75 132 27 49
318 543 74 188 14 43
316 544 76 187 15 38
399 672 197 196 35 32
300 937 210 82 73 72
308 533 83 54 29 30
306 533 88 42 31 31
467 737 159 87 66 48
305 529 94 65 31 32
323 558 266 162 11 52
308 538 83 64 32 36
306 538 87 47 30 35
439 543 173 120 30 45
308 543 83 59 31 36
373 602 139 177 21 45
306 543 87 100 23 41
305 543 89 97 25 39
304 523 108 85 17 29
304 528 108 54 29 29
303 528 113 77 24 32
291 514 121 63 29 33
314 791 256 120 84 67
327 728 273 166 10 52
306 899 221 157 105 83
293 523 122 93 21 33
416 718 168 55 42 34
293 528 123 148 4 35
295 522 120 127 7 34
344 708 161 132 12 34
298 518 119 132 12 34
353 728 166 133 12 34
303 518 113 109 8 30
299 527 120 129 4 33
281 934 262 182 143 121
296 524 121 129 9 34
297 528 122 142 3 34
298 623 247 117 26 44
303 533 103 53 29 31
304 528 103 86 20 31
304 533 98 61 29 33
303 533 108 46 30 31
303 533 113 42 29 31
303 782 165 83 64 53
302 543 98 64 30 34
301 542 102 44 30 32
288 958 273 59 56 58
300 544 104 49 29 32
300 543 108 86 22 34
299 543 113 114 9 33
418 603 228 115 25 43
423 598 258 129 92 65
301 537 113 47 27 29
300 540 113 83 23 35
393 873 258 43 38 36
290 531 125 151 3 37
292 534 126 153 1 31
295 537 125 153 4 33
309 553 88 172 9 40
303 533 118 60 25 31
299 543 118 117 5 32
300 539 119 115 6 34
436 752 210 59 49 42
298 538 123 127 3 32
459 728 248 64 52 42
301 536 121 114 10 32
307 518 98 110 10 31
307 518 103 111 6 29
306 518 107 111 6 30
323 647 155 164 12 43
405 682 226 67 35 36
305 518 109 111 3 31
305 523 103 105 11 31
305 524 99 98 16 32
429 558 263 119 72 57
426 643 278 145 101 67
306 521 103 109 10 30
306 526 97 73 24 30
304 548 93 147 12 40
314 547 79 100 23 39
346 516 291 49 21 28
318 548 78 194 14 42
303 913 304 82 58 61
319 551 80 201 15 40
307 548 87 167 9 40
368 838 174 55 47 46
309 548 84 131 19 42
399 653 218 95 29 39
311 545 81 33 34 35
391 773 285 168 127 97
312 548 82 56 28 37
313 553 84 175 14 42
305 547 89 158 11 40
306 550 91 164 9 42
353 823 174 61 51 49
343 713 287 129 17 47
311 555 87 180 11 42
313 558 88 185 12 40
413 858 218 62 52 51
307 558 92 158 11 41
277 758 167 145 103 69
378 618 262 171 9 54
310 557 89 174 11 43
318 557 84 208 15 40
414 833 213 53 44 44
318 559 86 184 13 42
315 515 246 134 0 36
308 563 93 152 15 44
310 561 90 152 6 37
345 886 284 135 104 75
309 567 95 150 16 41
318 565 91 210 15 44
259 802 180 172 119 85
302 553 98 152 8 38
397 547 266 72 19 29
298 548 113 121 4 32
298 553 108 133 5 35
393 784 156 87 63 51
388 893 228 63 56 53
297 553 113 123 2 33
300 558 103 140 11 38
302 558 98 123 20 39
301 558 101 121 17 37
296 558 113 130 5 36
294 548 129 76 30 36
295 554 124 37 31 30
323 943 208 78 71 73
295 555 119 79 23 30
295 559 114 126 6 34
297 548 118 111 8 32
296 553 118 98 14 30
417 683 286 168 112 82
297 548 123 57 25 30
394 691 171 68 49 40
383 768 283 48 43 43
303 563 98 83 30 38
300 563 104 121 20 37
452 743 168 75 52 37
304 586 110 152 19 48
304 567 99 125 33 46
302 568 102 94 29 38
296 563 111 140 9 35
392 668 193 72 34 34
353 673 269 122 6 36
303 573 103 99 27 37
299 573 108 62 33 38
300 571 105 72 34 40
294 563 118 89 21 35
448 728 248 68 54 43
441 763 271 165 112 79
295 568 114 103 27 38
293 568 118 50 31 33
292 563 128 52 30 33
384 739 151 57 45 40
291 568 128 41 31 31
323 560 86 163 12 42
293 563 123 69 28 35
471 925 225 72 56 50
292 568 123 51 31 32
295 573 114 80 31 39
257 623 183 114 26 41
395 638 276 173 132 112
308 573 99 113 23 41
312 570 96 120 33 47
313 573 98 67 35 40
288 842 218 51 44 45
344 564 97 171 20 45
404 683 208 54 33 35
318 573 97 95 24 39
299 577 109 62 36 41
420 575 167 195 16 52
297 578 112 100 29 41
302 578 107 66 34 38
300 581 110 100 29 39
424 688 238 78 63 47
303 583 109 93 29 38
301 584 111 135 28 46
303 588 112 119 27 41
295 581 115 132 16 30
290 578 128 46 29 32
291 577 126 36 31 33
289 583 128 100 24 39
294 588 119 44 33 38
292 588 123 63 30 39
295 592 120 30 32 41
296 584 116 111 30 39
297 588 117 93 31 41
298 593 118 128 25 42
291 594 126 90 23 39
421 623 291 177 123 91
292 598 127 91 21 37
294 597 124 93 29 41
293 603 128 148 14 42
295 601 125 159 12 39
378 523 284 70 26 32
303 594 116 132 24 41
303 598 119 93 32 40
349 733 286 168 10 54
296 594 121 43 29 37
298 602 124 174 17 44
412 577 154 141 22 46
407 853 204 63 53 54
284 648 232 150 8 46
461 698 239 73 55 40
297 604 126 196 16 46
303 603 123 115 28 41
399 707 184 45 36 35
303 608 128 219 14 47
277 609 151 65 33 36
391 692 275 117 74 64
308 578 103 145 27 45
388 903 273 34 33 33
473 968 244 98 78 58
313 579 102 75 34 38
308 583 107 94 35 42
410 570 142 186 32 58
393 887 223 62 55 52
313 581 104 82 34 39
343 783 172 65 50 46
313 584 107 68 35 39
444 773 223 63 48 42
501 923 230 80 72 67
308 587 109 75 33 40
313 587 109 170 26 52
430 558 210 117 18 40
313 590 111 107 25 40
266 673 191 88 50 46
318 579 102 180 23 48
318 582 104 178 25 48
308 593 114 159 28 47
468 921 237 64 54 49
318 592 114 122 22 41
308 598 118 128 28 44
313 598 118 217 16 49
383 678 183 50 35 35
308 603 123 61 32 38
308 606 125 61 28 34
314 600 121 215 16 43
313 608 128 187 17 46
318 594 117 214 14 50
318 599 122 219 15 45
269 713 183 88 26 36
398 913 301 46 42 41
314 605 126 174 21 47
323 518 54 141 17 43
328 518 52 85 31 37
263 703 238 100 41 40
353 778 272 67 58 56
328 516 50 51 33 35
322 519 56 174 11 41
325 521 55 129 24 40
328 522 55 160 14 49
394 584 138 165 23 49
323 523 58 173 12 38
324 527 59 180 15 42
322 529 62 107 21 41
332 516 50 65 29 34
333 518 52 85 32 37
346 724 285 183 11 58
323 598 264 126 27 47
333 522 55 191 14 46
325 596 266 51 28 27
333 524 57 207 14 38
333 527 59 213 15 42
333 529 62 208 14 41
263 698 192 85 63 46
401 713 285 170 124 98
333 532 64 183 16 42
266 722 186 43 33 32
338 518 53 75 34 37
338 524 58 159 19 42
404 909 225 73 63 60
338 528 62 169 18 44
343 523 58 93 33 38
344 520 56 165 19 44
341 526 60 82 21 34
529 993 229 109 90 72
347 516 55 153 23 45
348 522 59 94 30 38
378 698 279 66 24 32
276 678 176 117 19 37
352 527 65 81 35 39
558 959 214 101 86 74
414 558 287 160 115 93
355 520 61 57 37 38
360 514 61 55 35 33
357 516 60 70 39 43
361 517 64 100 24 40
510 893 202 97 80 64
323 538 68 188 15 43
354 693 166 114 16 28
367 903 283 104 77 66
322 540 71 193 11 39
270 752 247 46 33 34
323 543 72 210 14 45
333 534 66 159 19 41
338 531 65 197 11 38
323 604 127 216 14 47
338 534 67 193 13 42
280 901 288 189 139 123
343 531 65 105 21 38
343 533 67 106 24 37
338 539 71 116 18 39
338 543 74 180 19 45
343 544 77 168 20 49
349 530 66 81 29 32
352 532 69 100 28 37
354 534 72 152 21 46
433 713 273 148 101 67
386 646 255 69 50 49
348 538 73 97 25 41
354 539 77 191 13 48
323 549 77 194 17 45
328 552 80 122 26 41
390 903 226 63 61 63
332 546 75 213 14 37
333 548 78 211 14 43
283 933 288 193 145 123
323 554 82 211 15 42
328 554 82 175 19 50
328 557 84 209 13 41
333 553 82 188 19 47
398 658 278 161 121 99
333 556 84 212 15 44
323 562 88 51 30 38
339 584 116 148 28 47
321 859 217 99 70 55
323 565 91 122 21 41
328 568 93 110 22 42
323 571 95 218 14 43
333 564 92 63 32 37
308 852 218 188 126 96
339 545 76 179 9 39
423 703 284 164 107 78
338 548 78 209 13 43
343 547 79 207 14 46
296 635 151 26 36 42
404 788 172 56 46 43
347 546 80 203 13 36
429 558 213 91 21 38
336 551 80 188 16 58
338 553 83 201 15 44
388 855 150 100 73 54
307 533 244 60 28 32
339 550 81 204 14 40
318 768 259 68 57 52
344 550 81 202 14 43
343 553 83 201 14 45
370 673 176 47 35 36
337 556 85 211 15 45
340 555 86 207 14 47
343 558 89 144 18 40
433 728 218 56 40 38
347 552 84 173 8 42
353 543 83 193 12 44
286 630 151 46 31 34
414 672 285 170 115 85
351 546 85 193 12 40
350 549 87 189 12 44
386 698 177 62 49 39
352 548 89 189 12 43
483 933 258 79 60 48
293 773 162 64 53 50
351 552 90 192 12 47
347 557 89 53 29 33
351 556 95 76 24 33
337 561 90 208 19 44
386 540 96 81 22 35
315 961 225 81 77 79
257 804 182 175 122 87
338 564 92 184 23 50
498 899 215 74 60 46
337 566 94 132 30 38
343 563 93 120 24 43
346 561 95 142 17 45
384 558 273 78 27 36
323 573 97 216 15 45
413 913 294 57 51 47
330 575 101 217 14 45
333 835 196 67 54 51
352 557 98 91 27 40
451 762 234 82 63 52
338 568 98 135 29 45
342 567 99 152 17 45
344 569 102 139 25 45
337 571 100 89 22 39
340 570 101 154 26 46
340 575 106 189 26 53
316 892 208 43 38 42
460 519 238 201 12 55
348 562 98 176 10 45
349 564 102 128 18 43
348 567 104 83 34 38
352 562 104 118 23 40
351 566 105 57 34 39
347 572 109 73 30 37
345 575 112 137 18 45
349 574 112 86 31 39
390 643 192 75 27 35
354 569 112 86 29 40
264 773 174 146 104 68
448 949 274 71 59 49
355 894 192 53 48 48
353 572 114 70 33 38
323 689 267 64 25 31
357 528 69 134 25 41
363 518 68 164 10 39
365 514 67 127 9 37
368 518 73 110 22 38
381 561 276 118 31 46
360 520 66 123 35 39
463 933 233 71 54 50
412 808 193 65 52 48
362 522 69 124 19 37
366 522 74 176 10 41
366 526 80 167 13 40
365 529 82 126 30 44
498 955 240 66 53 40
369 524 82 172 15 45
367 527 84 129 18 39
356 531 70 138 27 47
299 907 302 167 120 106
357 532 74 77 27 36
391 903 225 62 59 60
362 532 79 72 32 38
356 541 84 185 10 37
358 543 88 186 11 42
363 533 83 117 19 39
309 851 209 169 111 86
360 535 82 137 17 35
504 901 215 67 55 44
364 534 87 161 17 43
453 689 238 89 68 47
366 532 89 151 18 39
369 533 92 184 10 37
383 873 198 55 51 51
362 538 88 186 12 44
361 541 90 192 13 39
366 541 95 192 13 44
391 611 170 209 20 53
373 518 83 134 21 40
375 514 82 153 16 35
375 520 86 190 13 39
338 708 159 61 33 36
448 733 233 98 78 58
415 789 186 56 46 41
370 520 81 45 20 35
373 529 92 134 7 36
377 517 85 190 13 35
378 518 87 176 5 33
377 643 179 71 26 38
353 933 309 48 45 45
378 523 90 174 5 34
376 526 90 175 5 33
383 524 91 108 16 36
369 530 91 186 12 38
373 533 94 111 20 37
401 648 236 53 24 32
378 533 94 154 6 37
295 579 251 127 4 37
383 532 95 109 22 37
369 539 96 182 8 37
364 544 97 195 14 37
458 892 226 56 46 39
355 726 291 175 13 58
395 884 222 59 53 50
368 543 98 188 10 38
374 535 96 121 14 28
353 686 280 125 7 38
388 708 278 92 30 36
521 1000 224 94 82 71
373 538 97 117 16 36
537 992 232 113 94 77
416 925 276 60 48 43
333 578 273 190 10 59
373 542 99 175 3 37
435 518 205 132 4 39
378 543 100 127 9 35
354 549 92 184 10 40
303 643 154 164 7 39
357 546 90 184 11 40
358 548 93 186 11 43
360 545 91 188 13 44
285 622 236 164 10 51
361 546 95 195 14 45
354 554 97 140 18 40
357 552 99 143 12 38
262 701 191 91 66 47
357 557 104 79 32 38
430 718 167 76 60 49
363 547 98 199 15 42
361 551 100 200 17 30
455 525 244 131 17 43
363 553 103 135 18 40
366 546 100 194 13 44
276 672 225 36 26 29
453 892 212 79 74 75
368 548 102 187 8 37
411 866 215 63 56 55
363 558 107 136 24 41
368 555 106 172 8 39
428 518 297 174 118 89
368 558 108 128 21 40
393 564 112 67 32 38
420 682 237 70 58 45
267 698 239 84 27 34
354 564 107 58 33 36
358 562 109 111 29 40
303 949 223 73 69 70
356 566 110 159 34 55
363 568 113 58 34 37
449 918 275 57 47 38
368 565 111 98 29 35
358 572 115 88 35 41
358 574 116 113 31 42
363 572 115 54 33 36
363 574 116 68 33 37
368 574 116 90 24 33
356 971 245 85 80 81
369 545 101 185 7 35
373 548 102 176 2 32
397 622 194 133 35 51
443 911 220 87 76 72
373 553 104 176 3 32
373 555 106 180 4 37
379 948 248 70 63 62
373 558 107 179 9 39
328 977 248 71 67 66
378 545 101 172 0 30
404 668 233 69 28 34
378 548 102 153 6 35
352 723 289 169 9 53
384 548 100 108 23 40
376 555 106 177 3 38
445 518 168 155 4 44
378 558 107 146 12 36
379 556 105 152 9 36
258 793 241 169 130 97
298 964 258 86 82 84
268 793 241 143 109 83
383 559 106 118 26 40
451 517 215 63 24 30
373 588 270 89 29 40
348 602 130 150 26 47
337 641 155 53 35 40
348 868 273 143 114 87
373 565 111 55 31 38
378 563 109 61 34 39
378 568 112 103 28 38
378 566 110 64 30 30
383 563 108 102 32 43
373 572 115 174 13 39
269 693 184 66 29 34
378 573 114 122 30 45
378 575 116 119 26 39
308 688 158 41 34 38
383 572 114 58 32 38
384 574 116 77 35 40
323 579 102 221 15 46
328 583 108 218 17 48
323 586 110 213 13 49
323 589 112 221 15 47
408 694 218 69 36 38
328 588 113 211 19 51
333 577 104 189 18 48
333 582 109 127 24 42
563 899 210 101 78 55
334 584 112 79 28 36
330 585 111 190 28 44
268 798 241 159 121 92
353 798 268 124 96 83
323 592 115 209 13 44
328 593 118 214 14 49
330 590 116 201 13 49
397 676 184 90 52 40
323 594 117 217 14 48
327 596 120 215 14 50
323 599 122 217 14 47
328 598 123 213 14 48
373 818 172 72 57 49
327 601 125 213 14 46
328 603 127 210 13 43
330 595 121 212 14 49
332 597 124 208 13 46
334 599 126 205 13 45
333 603 129 201 12 43
337 576 105 122 24 41
336 581 110 173 36 56
338 583 113 128 30 46
342 581 115 70 28 39
294 860 264 116 97 77
336 591 120 210 14 44
338 593 123 206 13 43
343 589 122 196 11 41
412 683 179 65 48 36
345 580 116 94 27 35
348 578 117 77 30 37
347 582 119 130 34 47
262 573 152 162 4 39
353 578 118 94 31 39
348 584 121 108 21 36
353 583 121 93 30 39
345 585 121 140 12 39
348 588 123 177 10 39
440 762 226 76 55 47
348 592 125 180 6 37
353 588 123 155 8 38
353 592 125 181 6 38
279 913 278 80 58 63
516 940 216 102 86 70
513 938 218 94 78 63
337 596 125 203 12 43
424 583 243 138 16 44
343 594 126 187 7 38
343 598 128 153 10 35
348 598 128 180 9 39
278 788 170 183 126 92
364 782 155 59 47 38
353 598 128 190 10 41
358 584 121 140 23 42
383 683 182 54 39 37
358 588 123 182 9 40
359 832 175 62 53 51
363 578 118 113 27 38
323 832 259 140 112 88
363 582 120 129 17 35
368 578 118 139 14 38
368 581 120 191 10 36
397 927 292 62 51 45
363 584 121 164 12 40
298 833 193 102 78 69
368 584 122 198 11 41
368 588 124 202 13 43
291 572 240 44 28 30
398 719 145 72 54 42
365 590 126 204 12 39
282 903 298 202 150 133
369 590 126 204 12 44
363 597 129 115 30 42
373 578 118 179 15 44
373 581 120 162 24 47
373 584 122 157 14 42
373 587 124 208 12 45
373 589 126 212 12 46
378 583 122 122 30 42
383 582 124 148 32 51
378 586 125 213 17 51
479 940 255 79 62 50
378 588 128 211 15 48
318 673 158 122 14 32
382 587 129 206 16 47
439 788 217 71 55 49
384 584 127 190 15 46
257 518 142 147 6 36
303 798 251 73 54 47
262 518 137 91 20 37
258 528 144 136 9 37
260 522 140 142 5 40
263 528 138 156 1 38
453 743 248 69 56 46
261 525 141 157 3 40
261 529 141 156 1 37
268 518 133 98 29 40
271 518 131 86 26 33
265 522 135 148 10 40
268 523 134 74 26 36
269 528 134 141 6 37
272 523 132 123 17 37
273 528 132 153 1 34
431 566 230 124 11 30
266 529 136 150 1 36
256 528 146 59 25 35
259 533 144 135 9 36
264 533 139 156 1 38
313 883 307 141 110 80
262 533 142 157 3 39
298 816 246 134 96 81
263 538 143 157 3 37
263 543 143 156 2 36
390 724 145 64 47 36
283 578 233 134 4 41
273 533 133 152 0 34
365 719 171 104 22 35
273 538 134 153 0 35
268 543 138 154 0 35
266 544 141 156 1 38
383 858 194 49 40 43
424 784 202 52 43 38
272 543 136 153 0 35
258 538 147 156 1 35
430 568 193 179 9 49
260 542 145 157 1 33
373 668 262 71 22 32
410 798 187 53 44 41
274 518 129 95 25 35
299 685 251 98 11 32
357 783 161 59 47 41
391 722 146 71 53 43
275 526 130 153 3 36
417 653 254 109 84 55
278 528 129 112 16 35
527 938 212 109 88 70
279 532 130 147 7 37
413 748 290 167 122 86
318 563 265 168 10 52
274 542 135 153 0 33
373 938 304 55 49 44
278 543 134 104 17 36
282 539 131 142 9 36
405 770 156 65 50 43
289 542 130 140 9 34
287 544 131 94 23 36
410 608 291 165 124 94
303 855 273 88 71 52
263 548 144 158 2 37
455 941 270 63 52 41
266 548 141 157 2 38
424 633 268 163 113 85
269 548 139 156 0 36
264 553 144 157 2 36
269 552 140 157 0 38
333 928 304 64 55 50
273 553 138 156 0 34
338 804 177 65 53 49
268 558 143 157 1 37
270 556 140 155 0 37
274 558 139 156 2 36
308 773 256 65 55 51
272 559 141 157 0 37
265 543 220 41 25 26
258 548 147 157 2 36
403 703 192 38 31 31
258 553 148 158 2 35
261 549 146 159 2 37
256 559 151 161 2 35
412 588 290 159 117 89
299 548 242 133 4 40
265 558 145 158 3 37
268 563 143 159 1 37
454 717 252 73 60 51
272 563 141 157 0 34
273 568 142 159 1 36
308 843 198 91 75 69
273 573 143 148 6 37
260 563 150 160 4 35
267 546 220 31 26 24
263 563 148 158 3 37
260 566 150 161 4 39
306 838 234 169 121 98
263 568 148 158 3 37
413 723 144 87 64 47
261 570 151 161 4 38
264 573 149 159 4 39
265 562 145 157 2 38
266 565 146 154 0 35
294 855 296 128 107 85
266 569 146 158 1 38
268 648 183 153 8 40
418 663 253 106 79 51
267 573 147 159 3 39
275 546 135 154 0 35
353 803 267 177 135 114
611 893 205 103 87 75
280 552 135 155 0 33
280 753 165 124 34 39
357 898 193 58 52 53
275 646 170 119 18 41
432 543 263 150 23 49
278 553 137 154 0 34
278 558 138 136 7 35
283 548 133 54 31 36
288 548 132 51 34 38
338 738 162 106 25 35
322 974 253 76 72 73
288 553 133 76 30 36
282 554 136 150 0 33
300 901 306 197 144 129
372 904 193 68 57 59
283 558 136 134 12 35
274 563 140 148 3 35
275 566 140 157 0 31
278 563 139 88 21 37
277 569 141 142 8 38
280 572 140 46 31 37
288 905 300 191 141 125
289 563 134 85 31 37
283 568 138 110 18 36
413 758 168 57 45 39
286 560 136 121 32 49
300 890 230 189 151 121
287 568 136 91 30 38
283 573 139 58 31 36
424 683 243 84 66 49
287 573 137 74 31 36
291 549 131 54 31 36
291 563 131 53 32 34
326 975 247 75 71 72
385 864 196 61 55 50
290 569 130 35 30 32
290 573 129 37 32 32
333 863 183 51 45 45
265 528 224 94 8 31
269 688 183 85 30 36
268 528 222 81 19 30
273 523 224 37 25 26
264 538 223 87 11 30
568 972 223 107 89 70
269 533 221 34 24 25
265 534 220 78 15 32
412 838 213 59 48 47
417 727 150 73 57 45
267 534 220 43 21 27
273 533 223 28 24 26
267 543 220 29 25 26
269 538 221 74 19 29
269 543 221 34 24 25
273 543 224 70 17 27
263 528 238 127 76 66
265 515 230 83 16 29
266 518 227 68 19 28
269 518 225 32 25 26
343 918 198 73 68 70
265 518 229 82 16 29
264 518 233 91 37 40
270 514 225 36 22 22
273 518 225 30 24 26
264 518 238 140 87 77
376 902 205 63 58 56
454 737 160 93 69 43
265 523 228 98 11 33
266 521 226 86 15 30
264 528 233 90 37 38
257 518 246 171 115 94
256 523 246 165 109 87
258 528 244 156 105 86
323 957 219 89 86 90
256 528 246 160 109 87
262 533 238 132 81 70
262 538 228 89 28 33
338 858 178 52 46 47
263 543 228 86 24 33
262 538 238 136 84 72
422 583 253 105 42 45
260 544 240 148 96 79
393 863 144 104 78 58
423 748 193 63 50 44
258 533 244 158 106 88
328 976 258 62 58 57
261 537 241 149 95 82
276 519 225 51 24 28
277 523 225 50 24 27
279 523 226 75 20 30
283 518 228 108 17 39
439 954 239 91 74 60
272 738 253 81 28 37
283 523 228 78 23 33
287 528 230 83 22 34
415 711 216 54 37 33
276 533 225 29 25 28
278 533 227 32 25 28
398 738 155 77 58 45
275 543 226 69 19 26
518 1001 220 97 86 77
276 537 225 29 24 25
278 538 227 57 27 32
283 533 229 70 24 32
289 528 232 74 24 31
527 973 224 101 80 62
286 531 230 35 25 27
438 538 148 50 32 36
435 951 251 89 73 57
282 538 229 59 26 30
378 738 287 89 30 39
333 779 172 83 63 54
282 543 230 34 27 26
285 538 231 56 22 29
284 543 232 38 26 28
288 543 234 38 27 27
264 548 223 80 19 30
273 553 224 71 19 29
272 558 224 29 24 26
268 563 222 53 19 25
268 568 222 68 15 26
421 748 176 52 42 35
272 568 224 103 11 34
265 573 224 48 18 25
379 658 182 106 15 29
342 925 206 72 69 70
361 856 256 140 103 82
277 668 224 31 26 27
272 573 224 103 11 34
266 702 240 101 27 41
263 548 228 87 25 32
260 548 239 150 96 80
261 548 237 139 86 71
261 553 236 142 89 73
510 927 221 97 79 64
353 713 163 117 19 33
448 929 243 66 55 48
259 558 239 153 99 82
413 718 288 172 117 85
420 690 204 53 38 30
441 903 221 57 47 39
476 958 247 88 71 56
266 559 227 80 17 29
257 548 242 158 106 86
257 553 241 160 106 86
256 558 241 160 106 86
369 870 168 94 75 63
425 580 236 114 28 42
262 568 233 131 80 67
373 863 178 64 52 49
258 563 238 155 102 84
258 568 238 155 101 83
261 562 236 146 93 77
293 792 170 86 67 58
260 565 235 147 94 76
262 573 232 131 81 67
370 870 163 97 80 66
260 573 235 149 97 79
263 818 239 188 139 110
418 863 254 52 46 43
264 573 228 60 29 29
256 562 241 161 107 86
414 519 86 54 32 41
275 548 226 104 22 39
275 553 226 89 21 34
278 548 227 38 25 28
274 558 226 79 18 29
278 558 227 75 25 34
282 548 230 30 26 27
284 548 232 35 27 27
416 553 290 166 120 95
284 553 232 35 26 27
288 548 234 46 26 29
288 553 234 62 27 32
284 558 232 63 28 32
334 822 190 62 52 51
287 558 234 50 26 29
378 643 257 113 17 39
274 563 226 123 13 42
274 568 226 100 18 38
278 568 228 66 21 31
275 573 226 85 13 30
278 573 228 119 11 40
284 563 232 81 22 34
284 568 233 97 19 36
286 567 235 97 21 37
288 568 238 57 26 31
502 968 228 90 80 69
323 668 263 79 18 34
297 918 218 67 57 56
283 573 233 120 9 38
286 572 235 52 22 26
344 975 243 75 70 71
431 557 163 115 34 45
290 518 231 60 23 30
311 869 231 158 119 90
293 518 233 66 24 32
293 528 234 44 27 28
428 703 229 64 50 39
295 529 236 42 27 28
514 968 239 90 72 57
299 518 237 51 27 29
296 522 235 58 26 28
302 523 239 80 23 35
301 528 240 118 12 39
498 988 232 86 78 71
304 528 242 118 14 42
292 533 234 48 27 30
416 797 296 180 131 100
294 533 236 38 28 27
291 538 235 62 24 28
291 541 235 27 24 24
433 548 258 82 26 37
298 533 239 40 27 27
301 532 240 48 26 26
274 699 248 39 26 30
300 535 241 66 25 30
299 543 242 134 4 41
303 538 243 103 12 35
366 962 248 82 78 79
350 734 166 134 17 37
302 542 244 135 3 42
304 544 247 134 3 41
305 520 241 47 26 30
436 911 215 66 54 48
438 778 243 96 64 45
308 528 244 62 25 31
309 904 208 70 58 53
312 523 245 117 15 40
313 528 247 109 13 37
402 927 258 78 70 67
318 518 248 138 2 41
434 732 214 54 36 37
317 528 250 121 7 37
320 525 251 133 2 40
281 643 229 148 8 46
310 530 246 67 26 32
306 537 245 69 19 32
308 543 249 134 3 40
312 538 249 124 8 39
311 541 250 134 3 38
310 544 251 135 4 41
316 891 212 46 42 44
313 543 253 134 4 40
318 533 253 135 4 40
314 539 251 136 3 40
290 545 236 42 24 27
372 638 174 78 35 41
293 548 238 78 20 34
290 553 236 60 27 33
394 633 273 166 124 104
295 555 241 26 27 28
295 559 241 34 28 28
296 552 240 115 8 39
301 548 245 134 3 41
390 628 262 128 69 63
301 552 245 133 6 40
330 856 275 137 110 81
303 553 248 133 4 40
298 558 243 48 24 29
300 554 246 130 6 41
302 558 249 132 5 40
412 833 208 63 51 47
292 563 239 62 25 31
291 567 240 51 28 30
294 563 242 40 28 29
294 568 242 72 19 32
295 574 247 133 4 39
299 563 247 61 22 30
296 568 245 126 14 44
299 568 248 89 17 34
502 901 199 93 73 61
302 563 249 125 8 38
413 693 209 51 36 31
305 559 252 132 4 39
301 567 250 123 8 38
302 568 253 125 4 38
297 573 248 129 5 39
299 573 253 127 4 38
363 607 139 168 28 47
393 847 157 75 53 39
300 570 251 121 6 35
288 743 260 125 26 48
408 628 288 177 132 105
403 883 243 66 57 54
301 572 254 128 5 38
425 658 273 134 93 60
307 548 250 134 4 40
578 892 222 93 79 65
306 552 250 134 4 41
308 553 253 133 4 40
312 547 254 133 4 40
386 688 177 60 46 41
305 554 251 133 4 40
306 557 254 131 4 40
263 578 152 159 3 37
263 583 153 154 4 38
260 587 155 161 1 36
286 910 295 199 148 133
437 533 138 110 34 45
476 940 231 68 44 43
258 588 157 159 1 35
258 593 158 158 4 36
351 626 150 34 33 41
263 588 154 144 13 41
261 590 156 142 5 37
577 977 223 120 102 86
339 976 266 52 47 43
262 593 156 138 19 43
268 578 147 161 4 38
265 578 150 160 5 39
265 581 150 162 5 39
266 584 151 162 5 37
333 748 269 75 60 53
264 714 189 76 54 43
273 578 144 157 0 35
426 836 240 67 56 51
271 580 146 161 1 37
257 753 235 143 99 80
272 583 146 161 1 36
267 588 152 156 7 39
273 588 147 123 12 38
321 614 260 32 26 32
267 593 152 120 25 41
258 598 159 148 9 36
263 598 157 68 27 35
293 708 259 149 4 46
263 608 159 161 6 39
282 891 298 111 79 62
268 598 153 73 30 36
431 699 259 125 90 58
270 596 150 44 33 38
273 598 149 62 29 37
272 603 152 152 16 43
269 603 154 95 31 40
268 608 157 125 25 42
270 607 155 83 37 43
435 767 285 167 115 82
402 578 264 65 32 34
273 608 153 56 30 35
287 578 137 81 26 36
385 854 169 83 70 57
288 588 133 41 30 32
288 593 133 104 25 41
278 588 144 144 5 34
282 588 142 152 0 32
356 769 275 66 57 54
283 593 143 153 2 37
418 758 292 163 117 81
391 643 194 60 30 35
285 588 140 149 0 37
286 588 137 117 14 36
492 968 233 84 78 72
373 613 153 119 24 43
285 593 140 145 1 35
286 593 137 138 6 36
348 698 163 118 13 27
437 907 209 85 66 57
275 587 145 143 1 34
276 590 146 47 24 28
279 592 145 99 15 34
277 594 146 43 33 40
288 598 133 150 10 39
432 543 288 170 116 87
283 598 143 115 19 38
286 598 138 97 18 34
392 617 179 151 39 59
284 603 143 49 31 34
286 604 141 61 22 31
284 608 143 74 32 37
286 608 141 134 28 47
507 954 224 78 54 42
413 663 248 85 64 43
274 602 150 164 8 39
278 603 149 117 24 39
279 608 150 92 32 40
399 549 265 53 23 27
282 603 147 47 31 35
337 957 306 68 63 63
256 595 161 159 6 36
257 603 163 167 6 41
259 608 163 165 6 40
307 568 260 167 9 52
257 608 168 154 15 45
260 606 160 156 3 36
298 933 304 192 146 127
442 773 218 66 51 42
261 609 161 158 4 38
328 628 262 111 27 45
256 608 173 71 28 37
326 970 289 55 50 48
264 612 160 164 7 38
284 618 237 104 16 40
271 610 156 79 28 33
358 892 278 124 98 78
269 618 159 152 17 44
423 648 283 180 124 97
288 613 139 87 23 37
415 543 287 157 113 92
284 613 143 62 31 35
286 614 141 85 28 37
393 907 283 33 33 35
343 670 266 48 22 30
285 617 144 118 33 45
280 612 150 55 33 36
278 618 153 83 29 37
275 617 155 75 26 35
362 911 209 68 65 67
344 908 295 108 84 69
279 623 154 126 23 42
369 864 187 56 47 48
277 624 156 106 37 48
283 618 148 100 30 38
284 623 149 79 33 40
425 697 216 54 42 41
282 624 152 114 31 44
400 584 147 203 17 50
288 622 144 133 29 44
287 624 146 122 29 42
278 628 157 47 34 39
279 633 159 40 33 38
283 628 153 78 34 41
288 628 148 100 30 41
288 633 152 53 32 38
373 643 177 73 32 40
289 632 150 44 35 41
373 823 173 63 51 46
280 637 160 53 31 42
285 636 155 195 25 51
288 639 157 127 21 40
432 708 273 147 100 66
293 863 298 189 139 123
403 908 293 39 37 37
260 612 164 166 7 40
259 613 168 166 12 47
258 613 173 89 31 41
264 618 164 158 7 39
265 622 165 158 13 42
263 623 168 68 28 36
259 618 173 86 29 37
260 621 170 55 38 35
425 588 261 133 97 69
261 624 173 57 32 35
266 615 161 168 7 40
268 623 163 72 32 40
270 621 160 43 33 35
257 618 178 118 25 39
256 619 182 97 25 36
262 628 173 82 34 42
264 633 173 124 26 42
269 628 164 94 37 45
340 876 285 136 103 75
386 631 185 40 32 36
267 629 167 83 33 37
328 653 262 47 23 30
272 628 162 59 37 39
308 723 261 148 11 48
268 633 168 67 34 39
270 632 165 55 30 35
265 631 170 99 37 39
271 634 166 41 34 39
318 738 262 62 50 45
267 638 173 132 23 44
259 628 183 52 31 37
264 784 241 156 116 82
261 625 176 53 32 36
261 629 177 80 29 40
415 584 172 133 27 45
263 633 178 147 10 42
260 632 184 121 22 45
262 634 183 177 6 48
413 738 188 44 36 36
260 633 188 61 36 36
265 637 178 172 1 44
348 723 163 142 5 35
261 634 187 108 23 43
260 636 190 63 42 40
274 637 164 53 34 38
290 602 130 172 10 40
291 604 131 177 10 42
293 608 132 175 12 41
294 607 130 189 13 42
406 622 244 68 34 34
433 533 288 168 114 84
294 612 134 187 14 44
292 614 136 172 15 45
289 617 140 159 18 45
258 814 187 194 134 101
293 618 138 175 18 45
292 620 141 110 20 35
447 733 247 63 50 41
294 621 140 94 30 40
303 613 132 219 14 44
303 616 135 219 14 45
298 618 137 210 14 47
303 624 142 49 35 41
290 626 145 170 30 52
293 629 147 77 32 40
293 632 149 70 34 40
258 643 193 128 81 59
377 703 282 46 27 30
329 810 181 75 60 52
292 635 151 33 34 43
303 630 146 205 16 48
298 638 152 168 14 42
300 636 150 52 30 35
359 918 207 75 68 71
311 611 130 221 15 45
308 616 135 220 14 47
313 616 135 219 14 46
313 618 137 218 14 44
313 621 140 214 13 45
408 689 170 62 48 38
313 624 142 211 13 45
319 610 131 216 13 44
341 804 260 196 142 122
429 563 227 136 12 37
319 615 136 212 13 43
389 939 258 84 73 68
313 922 194 87 75 71
316 616 135 218 14 50
318 618 138 212 13 43
318 621 140 211 13 45
313 633 148 199 10 42
308 639 152 189 7 40
420 597 256 127 84 61
313 636 150 193 9 41
423 905 265 34 33 34
313 638 152 185 6 39
318 629 147 203 11 42
398 598 163 95 40 48
348 758 169 52 36 39
408 824 274 164 104 79
318 633 149 197 10 41
402 878 133 78 64 51
316 636 150 191 8 39
436 718 258 125 89 57
268 578 223 34 23 25
263 578 232 135 86 71
260 578 235 151 100 79
258 583 237 156 104 80
260 588 235 153 101 80
386 701 167 54 40 37
339 558 277 78 22 33
257 588 237 157 105 82
260 593 235 153 102 79
263 593 232 145 96 77
265 578 228 61 37 34
266 580 226 24 20 24
388 793 283 120 95 76
265 583 229 87 56 48
266 588 227 63 42 34
265 588 230 112 73 61
539 903 223 90 77 67
267 593 228 84 56 45
272 588 225 33 26 24
262 608 232 152 104 83
408 868 148 92 77 64
260 603 235 155 106 81
257 603 236 157 108 82
260 608 235 154 106 83
392 851 166 83 67 53
308 728 262 105 23 42
263 603 232 151 102 81
524 982 237 99 81 63
267 598 228 92 61 50
270 598 225 39 23 25
272 598 225 94 21 36
265 603 230 144 97 80
267 603 228 113 77 63
513 926 221 98 80 63
408 869 223 63 55 52
265 608 230 148 101 82
398 674 178 96 55 46
444 759 226 75 59 49
267 608 228 125 88 72
272 603 225 66 22 29
270 608 225 48 28 23
273 608 225 36 25 26
358 613 142 175 24 48
275 578 226 104 18 36
278 578 228 135 6 41
336 884 296 158 123 95
277 583 228 125 9 41
363 663 172 87 26 31
280 583 232 134 3 41
313 633 257 79 30 37
274 593 226 61 26 33
278 588 229 122 12 40
277 593 229 125 13 42
434 528 204 145 9 45
280 593 232 134 4 40
282 583 234 135 4 42
347 522 286 45 27 31
388 638 258 100 52 48
284 583 237 138 6 41
488 699 252 119 90 67
287 578 239 46 24 28
286 583 239 121 13 42
275 612 226 41 30 29
284 588 238 137 5 41
283 593 238 138 5 42
285 593 242 140 5 41
275 598 226 140 18 45
277 598 228 136 11 42
279 598 232 140 9 43
275 608 226 34 27 28
277 603 229 50 22 29
279 608 233 40 25 30
281 598 235 142 9 43
282 628 229 34 26 27
281 608 235 71 22 34
282 608 238 94 26 41
284 598 243 133 8 42
404 604 182 109 38 50
288 593 248 114 16 39
403 723 143 84 62 47
284 603 242 93 26 39
289 603 246 104 27 42
288 608 244 109 25 43
256 614 196 91 22 38
427 899 227 43 39 36
256 616 196 96 33 50
273 613 224 41 27 27
270 614 224 83 62 48
269 618 224 101 74 62
273 623 223 40 27 27
269 628 224 111 78 65
273 633 222 34 24 23
273 638 222 42 23 24
277 623 224 92 25 38
277 628 224 118 25 44
278 633 224 83 23 34
493 908 213 87 74 63
407 904 262 30 30 33
395 658 203 101 23 34
278 638 223 93 16 34
449 907 214 94 75 64
364 897 283 112 80 65
257 613 236 157 108 83
262 618 232 155 104 84
353 944 216 74 69 71
262 623 232 156 105 86
259 618 234 157 106 84
257 618 236 159 109 84
259 623 234 159 109 86
265 613 230 151 103 85
267 613 227 134 95 78
267 618 227 142 98 83
266 623 227 147 101 85
262 628 232 161 107 87
425 764 201 66 53 44
362 627 159 43 35 40
424 613 289 168 117 87
264 628 229 158 103 87
264 633 229 160 103 88
259 628 234 162 109 88
256 628 236 164 114 90
413 603 243 159 12 47
256 633 236 166 114 94
399 564 117 138 26 46
348 914 296 51 45 43
261 637 231 165 108 90
258 638 233 166 112 91
267 759 240 49 41 40
263 638 228 162 105 89
267 628 227 148 99 84
426 722 154 89 68 46
425 911 215 68 53 46
460 745 231 90 66 50
266 633 226 150 98 84
320 861 220 131 92 70
280 613 232 121 16 43
276 615 225 41 26 29
281 614 234 158 11 50
283 613 238 147 12 48
282 618 233 154 10 48
281 620 230 156 9 49
318 928 308 177 136 113
287 623 238 158 12 50
453 913 253 55 48 43
288 613 243 83 23 37
289 618 242 128 23 48
280 628 226 63 22 27
284 628 232 47 27 30
280 633 226 69 23 30
383 863 143 113 89 73
284 633 232 45 25 27
286 624 235 81 11 28
288 628 238 85 26 36
284 638 232 141 11 46
415 538 287 155 110 91
291 582 245 135 11 42
294 578 248 132 4 40
290 585 246 135 10 41
291 588 249 79 22 34
390 774 155 71 54 46
292 593 250 37 28 31
432 558 283 165 115 83
294 588 252 62 24 33
298 578 253 141 6 42
381 872 195 54 50 49
298 583 254 172 11 53
298 588 254 169 15 55
402 583 148 202 17 49
301 588 255 151 9 45
293 598 249 91 27 40
388 768 284 133 100 75
295 598 251 127 29 49
283 663 168 119 16 36
290 607 246 105 26 39
302 598 255 33 29 32
297 609 250 145 21 49
299 608 252 145 22 50
302 603 254 38 28 31
303 608 253 112 31 46
291 610 245 124 41 53
358 883 168 84 74 67
292 618 244 119 23 45
422 829 250 53 43 37
295 617 246 96 24 39
298 613 249 61 30 34
459 729 233 105 71 47
398 850 155 75 56 40
300 612 251 41 28 31
303 613 252 79 30 38
301 618 250 149 33 58
302 623 250 115 25 44
443 798 228 79 62 53
291 629 240 91 31 45
293 633 243 124 15 42
293 638 243 136 9 44
375 935 227 68 61 61
296 628 245 50 26 30
296 633 245 129 15 43
378 938 233 78 70 69
298 633 247 123 20 44
302 633 250 79 26 35
304 633 251 42 26 29
296 638 245 87 16 36
322 567 265 128 8 39
302 638 249 114 28 46
358 958 288 64 58 57
304 638 251 100 22 37
578 958 186 114 96 78
308 613 254 136 26 50
308 618 253 116 25 43
311 618 255 60 28 33
312 623 255 71 29 35
308 633 254 89 27 38
373 808 271 63 53 49
268 839 213 163 110 91
311 628 255 80 28 35
308 638 254 93 26 40
322 518 250 142 3 43
358 553 283 147 15 48
323 523 253 138 4 41
321 528 254 136 4 40
390 570 116 66 36 37
321 532 255 136 4 40
328 608 132 202 12 43
400 643 223 59 29 33
331 606 130 203 11 45
333 608 132 153 13 39
334 605 131 192 8 38
311 805 250 180 133 108
338 608 133 154 16 39
343 604 131 69 29 37
348 604 131 68 35 37
348 608 134 103 32 42
353 604 132 116 36 48
429 688 268 137 95 61
323 612 134 208 12 45
428 698 223 49 38 36
323 615 136 206 12 47
328 614 137 202 11 41
323 623 143 104 21 39
373 862 148 142 115 102
324 620 141 167 14 42
328 623 143 45 34 38
333 611 135 168 18 44
333 614 137 203 14 45
333 623 144 53 36 39
323 626 145 199 15 48
323 629 147 203 11 43
328 626 145 113 25 35
412 557 124 175 22 50
328 628 147 194 14 45
413 598 291 163 120 91
434 793 244 84 55 39
328 632 150 187 11 41
396 653 209 87 26 36
437 738 203 59 48 43
328 635 151 130 17 39
331 626 145 97 42 45
432 733 163 69 51 40
333 628 147 156 22 44
333 634 151 46 34 38
508 994 227 82 70 60
342 611 135 46 28 35
338 617 140 127 21 40
378 648 258 64 25 31
402 710 155 75 53 43
338 619 142 151 36 52
343 616 140 121 32 44
343 618 142 128 33 47
324 972 244 90 85 87
343 622 144 175 32 53
403 718 144 74 53 42
348 613 138 105 31 42
341 713 285 39 25 31
353 614 142 166 26 49
348 618 143 95 40 46
355 850 170 47 44 46
353 617 144 90 34 42
344 624 147 101 33 43
354 620 146 113 39 46
338 628 148 100 34 42
338 631 150 50 32 37
343 633 153 66 37 42
275 898 264 192 138 119
342 636 155 86 34 39
340 640 156 43 33 35
343 639 157 115 30 43
422 903 253 34 32 33
302 887 233 105 81 56
482 924 253 65 53 43
347 627 150 42 37 43
408 914 238 57 49 46
348 632 154 80 38 44
352 631 155 58 23 30
353 633 158 83 34 42
433 741 170 44 32 25
349 634 156 52 33 38
348 638 158 123 31 45
352 637 160 144 16 40
367 774 163 70 54 42
356 601 130 144 20 40
358 603 133 133 30 45
360 600 131 103 34 39
373 564 280 157 12 51
432 933 281 56 46 37
364 599 132 86 33 39
367 596 130 112 35 43
363 602 134 89 35 41
360 605 136 49 31 33
415 685 191 73 42 39
328 848 202 78 59 53
368 603 138 106 33 42
298 855 296 131 108 86
367 606 140 66 29 40
368 608 143 89 33 41
372 727 172 47 36 40
293 743 160 146 5 35
377 591 130 208 15 45
378 593 133 203 16 48
384 589 132 206 16 47
269 708 248 96 23 39
382 592 134 204 16 46
374 594 132 115 29 42
374 599 137 200 20 51
397 859 144 92 69 48
370 600 136 126 22 37
432 543 268 144 78 63
374 604 142 131 23 44
378 598 138 205 16 48
383 593 138 208 17 50
266 708 243 95 23 39
384 595 142 210 16 52
411 710 176 42 35 31
381 596 139 208 16 51
378 603 143 210 15 51
374 609 147 67 33 40
452 757 247 68 51 41
370 911 221 68 62 65
384 599 147 204 15 48
379 604 147 210 13 50
430 690 156 62 49 39
376 606 145 207 9 47
381 601 145 211 17 50
382 602 149 204 15 49
268 658 188 60 45 42
384 604 152 196 14 47
380 605 151 186 7 48
460 693 244 78 59 46
382 607 154 104 22 39
357 611 140 139 26 44
364 609 142 165 17 45
367 611 144 188 28 56
398 674 193 158 43 32
354 624 151 158 31 49
385 705 160 51 38 37
357 622 150 157 31 49
358 623 153 144 26 46
364 614 147 118 22 39
368 613 148 188 22 53
373 753 154 66 52 46
363 617 149 117 33 47
364 619 152 176 24 49
367 616 150 66 28 38
360 625 156 107 19 32
368 618 153 180 18 48
363 622 154 154 25 45
354 630 156 75 25 32
357 627 154 201 17 49
357 632 159 146 25 45
372 612 149 166 26 54
370 615 151 200 18 54
404 623 228 85 32 40
410 762 169 47 38 33
375 615 156 98 49 55
372 617 154 187 16 49
373 618 158 72 29 38
276 898 262 185 134 112
443 929 238 63 54 51
372 622 159 64 31 38
377 612 154 40 34 39
335 911 300 158 116 87
377 617 159 55 36 38
441 764 215 60 47 40
359 634 162 129 25 43
333 971 283 55 52 52
359 639 166 126 16 38
318 898 311 189 135 113
363 633 163 95 34 42
369 624 162 141 25 47
368 628 163 146 26 49
366 631 165 83 26 31
368 633 168 58 34 37
361 636 165 102 38 47
367 637 170 113 36 46
380 615 161 55 33 35
418 708 207 49 38 37
383 613 163 52 32 37
427 563 163 73 35 41
384 614 167 83 39 48
378 618 163 55 33 37
262 643 192 116 50 45
376 621 164 38 31 33
378 623 168 74 35 41
381 616 164 90 41 43
382 622 173 56 32 37
272 723 177 101 17 32
379 624 172 93 36 42
483 889 208 55 46 44
384 624 177 88 31 42
371 626 165 53 32 35
373 628 168 56 35 39
369 629 167 69 29 37
372 632 170 43 34 36
373 633 173 88 32 41
375 629 171 77 34 35
376 626 170 49 37 39
375 635 176 33 30 34
374 638 177 77 25 34
381 631 180 57 26 33
384 628 182 158 24 47
380 635 181 62 23 28
377 638 179 129 18 38
380 638 182 136 13 37
269 643 173 100 27 40
429 785 206 59 47 41
273 693 242 80 23 33
273 643 169 137 30 47
270 641 170 63 28 34
272 644 172 80 22 32
270 646 175 48 24 30
263 648 192 115 58 50
303 849 218 190 129 100
265 641 183 166 3 41
266 643 183 163 5 43
429 573 243 119 25 46
266 644 187 146 17 40
383 897 269 36 34 34
267 648 188 123 26 37
265 647 190 113 38 41
270 653 180 106 29 41
411 888 252 47 40 38
272 658 178 76 28 36
284 678 169 66 30 33
270 658 184 39 33 37
272 663 178 78 27 34
319 936 205 81 73 75
271 663 181 42 33 35
263 658 192 108 74 54
268 663 188 53 43 40
273 668 178 100 23 36
273 673 178 138 10 36
271 673 181 116 14 29
268 668 188 60 35 37
492 973 235 82 72 64
266 668 191 79 55 46
268 673 188 86 32 38
399 648 239 36 26 31
278 648 168 62 31 36
276 650 171 56 32 36
276 653 172 129 11 36
279 653 169 131 19 39
419 677 203 60 46 34
280 646 165 102 19 32
281 649 166 55 29 32
542 904 227 83 71 62
288 653 163 161 4 37
274 658 174 150 4 36
408 674 188 82 56 38
427 593 287 170 119 88
275 663 175 133 15 38
362 825 171 64 54 50
279 658 169 60 27 35
278 663 172 56 33 36
275 667 175 111 24 36
456 930 253 73 61 47
278 668 173 74 34 38
393 743 155 67 51 40
445 773 228 69 54 44
283 658 167 144 9 39
363 863 254 55 42 36
285 657 165 165 0 41
425 724 215 50 31 34
288 658 164 165 0 38
400 634 218 53 29 35
289 663 165 158 1 36
421 638 263 163 115 85
441 772 253 154 104 71
287 664 166 155 2 37
446 541 247 67 28 37
440 518 195 98 30 45
283 668 169 124 20 39
287 668 166 145 6 35
383 833 178 76 62 59
287 673 167 85 23 31
271 678 181 112 19 37
270 678 184 61 29 32
436 536 220 32 32 33
532 1004 218 102 90 79
268 678 188 88 34 39
458 713 238 117 94 76
269 683 183 98 25 36
273 683 178 93 26 36
273 688 178 57 32 36
298 878 298 159 125 123
271 688 181 91 26 37
267 683 188 72 35 36
376 731 157 49 39 38
263 688 192 91 59 43
267 688 188 62 37 37
259 704 190 110 80 53
288 698 254 121 4 37
274 693 178 100 27 37
430 790 211 60 46 41
271 693 181 117 23 40
364 898 273 87 70 57
267 693 188 78 37 41
292 696 255 132 5 40
263 693 193 83 60 44
269 698 183 79 31 35
271 698 181 84 27 37
528 963 238 92 76 61
271 703 181 46 34 37
269 703 184 54 34 38
353 958 223 79 74 77
265 699 190 73 53 42
267 703 187 83 33 38
335 848 190 53 45 44
288 678 167 65 33 37
280 933 268 189 147 125
288 683 167 71 34 38
288 688 167 71 30 34
282 683 171 83 32 38
282 688 171 46 33 37
284 688 169 75 33 39
276 675 176 57 17 29
276 683 176 101 34 43
282 814 240 58 48 44
304 966 296 66 63 63
397 538 277 62 25 31
276 688 176 44 35 39
279 693 174 54 33 38
279 698 174 86 29 36
279 703 174 120 13 35
284 693 169 78 29 35
287 698 167 55 33 35
328 778 167 84 63 54
287 703 166 91 25 37
284 698 169 72 33 38
443 743 258 143 101 70
274 698 179 70 32 36
273 703 179 62 30 36
276 703 176 76 26 36
386 804 280 47 38 36
298 703 258 132 10 42
291 640 156 76 24 30
328 913 188 82 72 71
289 647 160 133 10 35
294 641 155 97 18 35
298 642 154 176 8 41
297 644 156 162 13 41
298 648 157 177 5 39
302 649 156 175 9 41
303 653 158 165 1 36
393 848 248 45 40 37
303 658 159 161 0 36
303 663 159 150 0 34
303 673 159 111 15 31
308 648 155 171 5 39
308 650 156 158 4 31
313 650 156 156 2 32
313 653 156 166 1 38
318 650 156 155 3 29
308 663 159 148 2 34
313 658 158 154 0 35
313 668 159 115 14 33
417 868 127 94 74 66
385 657 186 93 23 28
352 764 275 67 57 56
318 663 158 141 0 32
431 571 235 75 25 23
291 650 161 182 12 48
324 840 266 137 114 91
296 655 161 167 0 39
429 693 258 116 86 55
293 658 163 164 0 38
333 867 288 129 104 77
348 708 289 161 10 51
293 663 164 155 0 35
289 668 165 150 3 34
293 668 164 149 1 34
293 673 163 124 13 34
297 658 161 161 0 37
301 664 161 151 0 36
301 666 161 148 0 34
300 673 160 114 11 30
299 688 160 100 21 31
303 688 159 107 19 31
303 693 158 126 18 34
299 698 160 55 32 35
361 601 271 183 8 56
299 703 160 120 20 35
283 893 253 161 118 93
303 698 158 69 31 37
303 703 158 49 35 36
308 678 158 88 31 36
313 678 158 89 29 36
308 683 158 57 35 36
420 859 237 75 68 69
318 683 158 51 36 38
308 698 157 49 35 36
313 698 157 48 37 38
339 554 272 81 20 33
318 693 157 42 37 39
318 698 157 55 36 37
424 713 284 163 107 76
290 683 165 54 30 29
298 678 162 105 22 34
297 683 161 76 26 33
528 968 233 93 77 61
459 914 269 50 41 35
333 843 193 56 47 45
290 693 165 59 34 39
406 871 218 63 56 51
293 698 163 89 28 36
293 703 162 136 5 32
296 698 161 57 30 35
296 703 161 134 9 33
268 643 225 130 81 70
273 643 223 68 24 27
473 713 247 118 90 64
264 653 225 160 106 91
268 653 224 132 76 68
258 658 193 139 98 66
308 658 253 166 13 52
283 943 253 70 64 63
258 663 193 140 98 66
258 668 194 135 94 63
258 673 194 123 86 55
263 668 193 114 77 55
263 673 193 108 72 53
420 695 197 52 42 36
343 628 263 53 30 33
264 658 224 154 107 88
268 663 222 127 89 74
273 658 222 83 23 29
273 663 221 65 27 28
273 668 222 39 27 25
273 673 224 36 26 25
275 695 246 47 24 27
273 648 224 81 22 29
278 643 224 137 9 43
277 648 224 135 7 42
453 913 223 66 57 51
277 658 224 109 13 37
277 663 223 40 24 27
258 643 233 166 113 93
261 642 231 166 110 92
273 836 227 58 43 41
263 648 227 165 108 93
256 653 231 165 115 96
265 649 225 160 105 90
268 648 225 133 79 69
391 886 215 70 58 55
258 663 228 156 111 90
258 673 229 158 115 88
262 668 226 153 111 88
263 673 227 150 109 86
363 738 289 52 29 32
473 917 222 76 63 51
265 671 225 143 104 85
317 902 311 193 139 117
280 643 226 144 8 45
280 653 227 135 6 41
380 844 165 79 65 59
284 643 232 155 8 47
286 648 235 153 8 47
289 648 238 152 7 47
354 605 270 187 9 59
436 556 251 128 31 45
282 653 229 139 7 41
286 653 234 147 7 45
288 653 238 151 7 46
278 673 228 34 26 28
402 612 188 50 32 37
284 658 233 140 8 43
281 662 230 36 23 26
286 657 235 147 7 46
283 668 233 138 9 43
280 674 232 45 23 27
444 729 249 65 47 37
284 674 237 94 13 35
358 688 169 107 19 29
383 763 284 49 44 44
428 868 156 105 84 62
258 678 194 118 83 51
258 683 193 115 80 51
424 858 153 96 77 57
351 561 281 125 26 46
258 693 192 113 83 53
478 937 257 77 60 48
256 675 231 160 117 90
259 677 230 156 114 88
263 678 229 148 110 88
258 683 232 159 117 91
427 833 248 59 47 41
403 788 293 173 131 102
353 893 188 50 45 46
264 682 230 134 102 83
262 683 231 150 112 90
263 688 232 109 80 65
258 688 233 159 118 95
267 674 226 132 97 81
268 678 227 103 73 60
269 676 225 82 56 45
272 676 225 39 26 24
268 683 229 63 45 37
268 688 233 57 30 29
273 682 229 34 27 28
270 685 231 38 29 29
423 743 154 76 55 41
263 693 234 76 56 44
257 702 235 137 99 76
260 700 236 112 79 59
264 699 236 96 41 38
356 889 277 133 109 85
371 852 171 80 62 62
267 692 234 56 33 28
270 690 236 41 28 32
266 696 235 46 32 28
270 695 241 62 27 33
272 697 244 49 27 31
269 704 247 76 28 36
270 700 246 34 32 31
272 703 249 49 26 30
279 678 232 73 24 34
276 681 230 40 27 27
275 685 236 37 27 30
279 684 237 88 16 31
277 687 239 43 24 29
369 681 270 127 2 39
278 689 243 79 15 33
280 685 241 109 8 40
282 687 244 118 4 36
288 688 248 113 2 34
275 690 241 43 27 28
277 692 244 60 21 29
278 694 247 99 9 32
277 697 249 103 10 36
274 704 251 89 15 34
284 695 251 113 1 34
493 893 217 66 55 45
287 692 250 110 1 33
288 693 252 117 3 35
313 588 263 112 22 41
282 696 250 125 4 39
283 698 253 122 3 38
283 703 254 128 3 39
286 701 255 125 4 39
293 643 243 154 6 46
291 647 240 151 6 46
293 653 243 154 6 47
296 648 245 153 7 46
289 870 254 123 98 72
298 648 247 124 13 42
305 643 251 104 25 42
304 653 251 57 27 32
293 658 243 154 6 48
308 713 156 54 35 38
293 663 242 155 6 48
291 667 240 154 6 48
378 855 251 39 35 34
280 894 301 162 127 107
293 668 242 157 6 49
393 866 142 102 76 55
293 673 242 154 6 49
296 658 245 121 11 40
367 749 156 53 40 37
400 648 232 94 22 36
296 663 245 159 6 49
298 663 247 156 7 47
282 903 288 192 140 122
302 658 249 137 14 45
302 663 249 151 7 46
296 673 245 157 6 50
404 813 187 50 45 45
299 673 247 150 8 48
400 706 162 64 47 43
302 668 249 170 7 53
402 703 285 166 121 96
308 643 254 98 27 40
308 648 253 72 27 36
267 743 244 115 22 42
311 643 255 88 23 37
308 653 253 73 25 36
446 947 259 83 59 49
305 658 251 158 12 50
305 663 251 147 8 45
312 658 255 127 15 44
312 662 255 127 8 38
305 668 251 171 8 55
305 851 214 188 126 94
311 669 255 172 9 57
320 884 209 42 39 42
311 673 255 163 9 52
293 678 244 132 4 41
289 684 246 118 4 37
412 728 183 51 41 38
439 808 228 79 60 52
296 677 245 113 8 36
443 718 247 60 45 35
352 857 167 49 44 47
302 678 249 42 25 28
298 683 249 98 13 33
301 681 250 31 26 28
303 683 252 41 25 28
304 679 251 45 24 30
331 790 260 187 134 113
302 686 255 64 18 28
290 690 251 118 3 34
293 693 254 133 6 40
297 692 255 123 19 46
308 678 253 75 23 35
358 668 264 145 4 45
308 682 254 41 27 28
260 712 191 101 70 50
328 748 161 146 14 42
264 707 190 84 54 44
263 712 191 92 62 49
258 718 189 107 77 52
263 718 188 78 57 46
271 707 181 67 30 32
269 708 184 57 34 35
364 853 249 106 75 57
505 947 220 131 110 93
298 962 253 89 82 81
