ply
format ascii 1.0
comment Created by Open3D
element vertex 2226
property double x
property double y
property double z
property uchar red
property uchar green
property uchar blue
end_header
247 599 230 80 25 36
265 214 263 108 85 63
264 214 266 112 87 64
294 319 272 79 68 56
369 510 222 75 34 38
207 724 288 116 87 62
266 219 259 114 92 68
265 219 264 109 87 65
281 359 309 116 84 65
264 224 266 104 83 61
258 214 274 116 90 64
345 229 265 120 95 65
260 214 272 115 89 64
263 234 269 99 79 57
385 518 308 188 5 61
266 229 259 113 90 64
264 228 266 101 81 58
220 635 305 178 14 56
284 801 237 72 58 53
266 234 259 111 89 63
346 569 225 114 13 35
295 247 290 107 87 65
282 654 238 107 23 30
326 448 369 107 19 34
292 369 254 83 71 59
362 519 329 67 15 29
266 234 264 112 91 67
265 234 267 96 78 57
231 708 248 64 29 30
258 234 275 113 88 63
261 234 273 109 85 61
364 796 366 59 45 39
264 244 270 90 73 54
290 414 175 51 39 52
282 519 339 48 27 29
262 959 344 60 58 58
276 409 279 86 60 49
266 244 259 106 85 62
277 946 313 90 85 87
170 536 222 170 118 92
265 244 264 107 89 70
265 249 264 105 88 69
344 810 341 47 39 34
301 231 258 125 92 56
265 249 268 99 81 62
264 254 257 103 81 56
264 254 270 90 74 55
227 789 238 63 54 54
327 459 389 172 17 55
274 384 279 67 57 51
327 874 259 79 70 68
232 912 388 62 58 59
316 454 205 119 13 28
262 244 274 95 76 55
250 693 237 42 35 39
280 382 252 70 61 50
388 464 199 70 34 34
259 252 276 87 70 50
435 489 282 115 75 61
262 254 274 83 68 51
278 334 284 82 62 48
260 255 277 82 66 49
299 200 260 105 85 63
199 695 241 144 98 66
400 798 226 90 66 57
393 504 289 64 30 34
300 198 258 105 85 62
322 344 324 127 96 64
300 198 265 104 83 61
299 205 268 103 83 59
307 504 388 181 14 57
300 203 270 102 82 60
313 373 247 93 81 70
299 210 273 102 81 58
303 204 279 105 84 62
334 423 321 137 98 72
300 209 275 102 82 59
377 789 194 85 65 53
302 209 279 105 85 62
295 214 259 110 88 64
322 389 244 102 88 73
294 220 260 110 89 65
295 224 258 118 91 59
294 224 260 116 91 62
379 767 286 114 83 56
379 449 319 53 24 26
370 749 193 58 47 42
362 423 249 67 48 46
296 219 269 102 81 57
377 654 233 151 105 78
179 514 274 122 15 41
352 840 238 89 69 60
306 204 284 108 88 65
441 478 259 107 84 63
369 515 314 30 26 28
272 874 274 72 58 56
294 224 268 103 82 57
295 223 270 103 82 58
272 865 394 30 29 31
296 224 274 103 82 58
365 705 299 138 8 42
299 215 278 103 82 58
300 212 276 102 82 59
308 408 223 100 82 57
301 214 280 105 84 61
304 215 288 111 90 68
327 229 300 115 93 68
267 880 274 59 52 53
297 219 274 103 82 57
267 743 333 132 25 48
393 589 240 122 95 66
301 219 284 109 88 66
280 324 264 104 86 71
300 223 285 110 88 65
302 224 289 111 90 67
252 539 185 194 9 40
225 936 343 61 57 56
400 714 262 166 108 78
305 193 275 103 83 61
304 196 277 105 85 63
398 738 234 85 65 47
177 549 246 115 74 58
391 744 273 164 114 84
284 851 384 34 30 32
308 195 283 105 86 65
174 574 247 147 104 80
312 199 288 107 87 67
304 205 282 107 87 64
305 208 285 110 89 67
308 205 287 108 88 66
307 209 289 109 88 66
306 214 290 110 89 67
303 224 293 112 92 69
262 437 166 157 0 32
292 454 174 117 19 34
383 579 279 76 28 37
294 466 177 41 40 44
225 795 306 111 86 67
203 642 231 154 108 75
311 208 291 108 89 69
239 649 256 150 0 37
267 664 331 159 17 51
316 203 291 108 90 70
313 209 293 108 89 69
228 773 312 150 111 88
305 218 291 112 92 69
380 539 298 51 27 32
307 219 294 110 89 68
402 484 234 183 5 43
312 220 297 108 89 68
393 554 259 92 26 35
309 221 297 109 89 68
315 492 378 107 20 40
252 774 316 62 51 45
368 801 335 54 43 34
382 830 340 76 63 54
308 225 297 110 90 69
284 315 313 110 82 56
317 214 296 109 90 70
216 591 242 59 34 34
317 219 298 111 91 70
317 224 300 112 92 71
339 791 389 61 51 41
177 589 229 158 110 79
337 284 284 125 90 62
293 229 264 113 89 61
294 228 261 119 93 61
374 519 331 68 25 32
281 404 300 117 81 65
248 634 328 47 26 29
294 234 261 121 90 59
274 916 256 72 62 58
294 238 261 123 92 58
297 239 259 123 93 60
292 239 269 108 86 59
295 228 274 102 81 57
296 229 279 105 84 60
294 230 274 103 81 57
316 613 231 63 34 36
406 609 267 169 118 90
294 234 274 102 81 56
297 509 344 93 23 40
294 239 279 102 81 57
263 429 305 69 52 31
361 709 319 101 24 40
295 238 281 103 83 62
227 930 356 55 52 52
222 514 173 85 28 36
298 234 289 109 88 65
293 249 265 119 90 59
399 787 347 72 55 43
270 309 279 69 57 44
317 229 302 113 92 70
297 249 263 122 90 58
288 374 318 122 91 72
292 254 269 115 89 59
394 500 238 56 30 37
294 254 266 119 91 57
298 247 261 123 92 58
409 506 266 55 19 27
302 244 258 126 92 56
182 549 220 154 108 82
301 254 262 124 91 58
352 854 254 82 66 61
292 244 274 103 81 57
294 244 284 103 82 59
292 334 329 133 97 75
295 242 286 107 86 62
334 319 288 118 94 65
296 244 289 109 88 65
374 721 206 71 57 47
397 804 229 98 73 59
345 660 246 60 30 30
292 254 274 101 81 58
178 579 225 155 108 74
407 449 304 72 27 34
280 367 262 65 58 49
293 254 289 105 84 61
188 784 259 174 115 85
394 731 214 69 56 44
302 229 294 111 90 68
393 584 263 72 53 37
293 475 312 71 25 32
304 230 297 110 90 68
207 634 230 159 112 81
207 649 265 124 96 78
299 235 292 109 89 66
322 159 273 107 88 66
212 549 214 69 26 37
360 442 186 96 36 34
229 643 312 167 15 52
298 239 293 111 90 67
301 234 294 110 89 67
300 238 295 111 90 68
303 234 298 111 90 68
294 254 294 109 87 64
306 493 374 39 30 29
298 249 299 109 89 67
344 209 264 120 96 69
271 314 254 79 68 56
299 250 302 110 90 67
400 753 181 89 66 50
298 255 303 110 89 68
194 704 277 150 105 77
395 689 267 158 110 80
307 497 392 163 23 57
301 253 305 110 90 69
250 908 283 62 56 58
357 504 222 134 9 33
303 254 308 109 89 68
317 361 256 93 82 70
367 773 174 86 67 53
342 704 333 145 6 45
307 229 299 110 90 69
312 228 301 110 90 70
335 659 317 88 30 39
312 234 303 110 90 69
322 339 324 124 95 63
317 227 301 113 93 71
305 248 306 112 91 69
308 245 307 112 90 68
162 529 239 162 112 92
458 459 269 96 67 44
343 544 218 99 33 42
291 269 274 102 82 59
312 249 309 111 90 66
426 426 215 98 14 32
261 884 288 96 79 67
307 254 310 107 87 66
309 469 397 38 26 26
312 253 311 109 88 65
266 687 336 139 14 44
307 339 263 88 76 66
427 534 254 185 130 100
314 241 307 112 91 68
317 244 308 116 94 69
317 254 311 116 93 66
338 259 294 129 99 65
272 579 339 162 21 53
297 679 331 150 16 49
369 851 340 59 50 45
392 489 214 94 27 39
315 256 312 113 90 65
322 134 263 107 86 61
252 580 336 49 29 32
326 130 262 110 89 65
353 595 320 180 13 56
422 444 259 139 5 45
267 319 293 64 49 34
291 448 306 97 76 59
324 141 267 109 89 65
272 413 184 83 70 55
327 139 265 110 89 66
386 792 352 56 44 36
356 494 218 143 0 32
326 144 267 109 88 65
335 135 258 112 90 65
331 139 263 111 89 66
367 724 219 82 70 59
320 400 236 101 86 71
342 814 200 91 68 52
332 144 264 110 89 65
335 145 262 114 92 67
328 586 332 107 13 36
178 554 221 162 113 85
292 844 414 47 44 43
322 149 269 105 85 63
327 149 269 110 89 66
191 714 249 127 91 58
327 449 213 105 20 31
320 157 271 105 86 65
301 469 180 115 15 33
327 154 270 109 89 67
332 154 269 111 90 66
337 154 264 117 94 68
243 695 328 36 28 30
344 245 274 126 98 65
334 152 266 115 93 67
339 154 259 117 94 67
312 379 327 142 103 76
207 699 283 105 80 58
338 159 264 117 94 68
334 163 271 115 93 69
215 635 289 67 28 32
404 429 309 144 11 46
336 164 269 117 95 70
322 849 399 55 50 47
325 902 290 84 73 72
327 164 274 110 90 69
191 810 274 207 137 110
300 483 181 61 37 38
262 583 215 163 20 50
277 604 334 141 16 45
327 168 276 110 90 69
332 799 399 76 63 50
322 174 279 109 90 69
233 879 314 164 122 96
310 466 377 63 17 35
330 160 272 112 91 68
219 684 288 100 27 38
332 164 273 113 92 69
335 170 272 117 95 69
375 486 217 81 27 34
264 312 247 97 83 69
333 174 275 115 94 70
331 175 277 113 92 70
316 464 364 83 18 35
395 744 268 163 112 80
322 184 284 109 90 69
383 595 250 83 62 41
460 472 256 177 125 110
327 184 283 111 91 71
241 935 370 54 51 51
273 749 227 86 37 42
322 188 286 110 91 71
332 184 280 114 93 69
415 799 288 141 116 101
335 180 277 117 94 69
407 799 239 77 58 51
370 433 204 50 36 36
328 182 281 112 93 72
336 189 279 119 96 70
344 219 274 117 93 67
290 532 364 106 23 44
304 831 363 50 44 42
339 164 265 120 96 69
340 165 263 119 96 69
382 679 233 109 84 55
340 169 259 117 94 66
339 169 266 119 95 68
272 542 367 47 28 31
308 484 187 125 1 30
340 176 267 119 96 69
392 829 309 69 55 47
322 820 314 79 63 51
389 491 316 89 17 37
340 184 269 118 96 71
340 790 407 72 57 42
342 189 259 119 95 68
342 189 264 119 96 69
418 569 249 155 113 77
341 189 269 118 95 69
338 189 274 120 96 69
252 555 197 91 33 41
328 193 286 114 93 72
307 544 198 111 17 36
291 349 325 133 97 77
327 199 289 114 94 72
330 196 287 116 95 71
322 789 404 63 54 45
394 481 208 77 32 42
333 199 285 119 96 71
342 614 238 126 25 41
360 448 190 95 36 40
342 194 264 119 95 67
362 479 303 43 18 23
377 499 219 86 22 32
343 199 259 121 97 69
339 194 275 118 95 69
338 199 279 120 96 68
387 758 175 98 70 49
287 709 340 139 22 48
340 194 273 118 95 67
373 489 328 85 9 27
277 399 254 75 61 50
308 412 218 108 65 32
339 209 281 120 97 71
335 244 298 125 98 65
282 804 237 70 56 52
344 219 259 125 99 68
344 219 269 119 95 67
303 831 359 51 45 43
336 214 288 121 97 71
220 738 242 88 31 37
342 219 279 116 93 66
300 824 237 56 48 48
337 219 289 119 95 68
339 224 286 119 95 67
376 624 243 107 85 61
326 448 364 92 13 29
337 224 289 120 96 69
340 219 283 118 94 66
323 202 291 113 92 71
258 633 332 154 34 58
236 883 381 141 108 88
374 716 226 98 80 61
322 209 294 112 92 70
347 599 234 67 34 38
327 204 291 115 94 71
326 205 292 114 93 69
353 664 299 97 20 37
327 209 293 114 93 69
364 427 264 78 55 49
328 207 291 115 93 68
321 215 297 113 92 70
322 224 300 114 93 70
356 514 305 40 19 25
282 434 170 146 1 31
403 795 227 99 74 59
326 220 297 114 92 68
273 364 264 68 58 50
331 214 293 118 95 70
333 213 291 118 95 68
268 324 248 87 74 62
281 604 335 110 13 35
335 225 293 120 96 68
190 564 274 65 26 36
411 479 274 49 24 24
342 239 259 136 103 64
316 544 201 166 4 39
284 394 304 120 83 67
344 239 264 131 101 64
344 229 263 124 97 67
406 483 236 186 7 43
363 619 263 112 17 31
344 234 263 128 99 65
345 234 269 121 95 66
345 238 266 125 97 64
344 228 280 121 96 66
201 549 228 114 22 40
342 229 284 120 95 66
344 239 284 122 96 66
344 234 281 125 99 69
338 250 258 142 104 68
354 564 232 135 3 34
340 242 256 140 104 67
341 244 259 140 104 66
354 535 227 57 31 38
425 517 277 175 118 92
298 275 318 102 84 65
343 244 264 135 103 66
341 249 260 142 104 68
341 254 264 144 104 69
264 874 285 142 111 85
302 369 250 93 81 69
293 754 226 134 13 36
341 244 289 122 95 63
239 841 319 137 108 80
341 249 289 124 96 62
196 549 232 59 26 31
255 843 294 133 91 68
343 254 279 124 95 61
341 254 289 126 97 63
323 228 301 114 93 69
331 229 298 119 95 67
271 359 298 72 52 36
267 595 336 51 29 31
282 564 340 44 27 29
286 492 181 57 32 38
336 239 294 122 96 65
335 339 281 113 91 67
332 234 299 120 95 66
359 851 258 75 57 52
291 339 259 73 61 48
334 237 296 122 96 66
337 244 294 124 97 64
336 254 298 127 98 63
264 269 274 80 68 55
334 253 301 126 98 64
323 243 306 117 93 64
249 709 236 121 13 33
205 549 316 149 14 47
337 859 254 74 63 60
297 594 220 138 15 39
296 410 189 106 46 31
288 404 308 124 87 71
322 249 308 118 93 64
372 504 221 85 31 37
372 699 274 91 30 34
328 254 306 123 96 63
339 239 290 121 95 63
259 264 243 119 93 64
429 525 258 146 103 70
307 369 249 94 82 69
226 654 279 136 14 46
309 820 224 54 49 51
362 459 199 133 16 36
260 264 245 115 91 62
327 509 324 48 24 28
261 264 249 109 86 60
412 430 194 108 19 26
306 819 233 55 49 49
317 344 328 132 97 67
263 264 254 102 81 57
260 269 246 114 91 65
279 324 274 100 83 67
262 484 313 31 25 26
207 589 318 134 24 48
312 821 318 68 56 46
285 412 191 90 61 48
262 274 249 106 85 61
372 494 218 87 25 33
400 739 258 158 104 73
367 544 235 57 33 37
285 927 382 64 59 62
260 279 246 113 90 64
263 279 254 95 77 57
345 807 196 82 61 50
260 284 246 114 91 65
429 526 264 167 117 85
207 779 303 152 120 90
262 284 249 105 85 63
329 509 202 73 34 36
365 768 302 47 40 39
346 410 209 89 46 35
264 289 254 90 74 58
319 451 375 80 16 27
258 303 242 106 89 72
277 412 184 81 64 50
239 932 372 52 48 48
261 324 297 89 62 43
265 289 256 85 71 56
241 884 304 144 110 83
392 479 319 79 23 33
257 714 344 147 17 48
279 888 230 116 102 92
265 294 256 86 72 59
248 742 332 123 29 48
264 298 253 90 77 63
266 304 250 93 79 66
259 308 242 103 87 72
270 310 255 82 70 59
311 459 316 116 77 64
269 312 252 85 73 61
271 319 254 76 65 53
327 274 264 140 97 67
303 935 314 90 82 81
267 774 314 57 48 43
344 379 284 106 88 67
313 258 256 132 98 62
452 474 248 136 81 61
259 320 242 97 83 69
380 502 221 122 21 37
262 324 244 93 80 66
314 459 317 120 86 69
266 324 246 91 78 64
265 329 246 87 75 62
242 769 317 67 56 50
452 798 319 116 97 77
306 409 220 102 78 51
270 324 250 79 68 58
265 333 246 81 71 62
340 468 329 149 17 51
267 334 248 78 68 58
213 539 323 82 26 36
264 336 247 79 70 62
259 345 247 78 70 61
391 449 204 89 24 26
326 587 221 53 35 37
262 344 246 78 69 61
262 344 247 78 69 61
366 494 304 26 24 24
196 579 294 174 3 52
252 879 389 60 50 45
353 434 304 96 74 55
258 348 247 79 70 62
271 344 254 73 64 56
267 349 250 77 68 60
270 345 251 76 67 59
214 558 221 160 3 37
288 411 192 96 60 46
283 390 236 73 59 44
272 349 254 74 65 56
302 469 314 106 3 32
283 334 255 83 69 59
286 349 255 70 60 50
263 354 249 78 69 60
261 359 246 81 71 62
334 697 331 136 13 42
392 654 263 140 105 81
273 429 299 51 39 27
413 594 243 146 105 71
262 365 246 80 70 62
268 354 254 76 67 59
268 358 253 76 67 58
271 353 255 74 65 56
270 359 255 75 65 57
407 779 348 75 59 45
265 366 246 79 69 60
213 569 328 93 26 39
269 369 252 77 67 56
374 480 323 52 20 22
376 464 319 66 24 31
258 370 248 86 74 63
259 374 247 86 74 63
259 379 247 89 77 64
262 379 249 85 73 61
362 494 210 105 23 37
269 374 253 76 65 54
267 383 253 77 65 52
348 504 218 136 3 33
373 789 361 69 54 40
270 384 254 71 60 48
282 354 254 73 64 55
327 419 324 140 101 73
283 360 251 75 65 56
289 510 333 88 22 32
281 359 254 76 66 56
287 364 254 72 61 50
186 669 259 167 114 87
366 469 209 103 23 31
396 729 234 102 78 51
285 365 251 72 62 52
280 374 254 70 62 52
217 564 223 166 9 41
280 714 227 137 11 37
376 722 276 121 71 59
283 379 245 71 56 40
401 524 272 98 19 36
282 384 244 69 58 46
288 515 349 46 29 31
320 279 317 118 92 59
281 384 249 69 59 47
291 339 255 71 60 49
462 862 247 100 81 66
297 369 254 90 78 66
302 359 255 91 79 66
365 416 216 75 32 32
346 819 378 49 42 36
297 360 256 86 74 61
280 383 295 113 77 64
302 364 254 94 81 68
299 936 361 55 51 50
300 368 253 93 81 70
398 444 185 108 27 37
233 583 226 183 7 41
302 384 239 96 82 68
247 540 187 191 11 41
292 374 253 85 73 61
194 564 254 42 31 32
336 514 318 75 21 32
292 379 253 89 76 62
293 382 252 91 78 65
197 524 209 178 9 43
192 679 270 147 104 78
385 508 318 170 16 56
216 744 299 143 111 80
303 375 245 94 82 69
329 299 311 132 102 69
298 909 273 80 72 70
322 369 254 94 83 72
360 592 312 105 39 53
339 427 200 93 30 39
187 644 244 156 102 69
342 790 399 61 49 41
383 459 219 89 22 31
299 380 245 94 81 68
298 384 244 96 82 68
411 449 199 180 16 45
287 724 225 106 29 40
310 471 382 135 16 32
296 410 210 94 76 59
231 904 308 61 57 58
300 383 242 95 82 68
307 359 254 93 81 69
377 448 221 62 28 35
311 359 255 92 80 69
233 699 319 62 27 33
307 363 252 95 82 69
312 363 253 93 81 70
312 365 251 94 83 71
317 364 254 94 83 72
318 368 253 94 83 72
364 437 286 92 34 36
299 881 239 82 68 66
307 374 245 95 83 71
307 378 243 93 81 69
188 544 254 146 1 44
311 380 241 95 82 69
255 649 326 164 19 52
322 734 222 82 31 34
382 827 344 79 65 54
312 384 240 97 84 71
317 374 249 94 83 71
316 376 246 95 83 71
186 754 249 171 116 87
319 490 370 149 21 50
357 514 225 129 14 34
423 845 239 86 78 74
402 434 178 127 24 33
313 383 242 96 84 71
331 257 256 147 101 66
271 379 259 71 58 45
322 364 256 94 83 72
320 380 250 99 85 71
344 392 306 119 94 65
325 380 255 101 87 73
266 289 264 81 68 55
327 384 254 104 89 74
241 779 232 72 59 53
272 415 169 112 52 31
402 831 308 71 57 48
272 413 174 82 66 47
262 414 184 90 75 61
357 834 368 57 49 44
372 654 235 137 95 68
262 413 189 89 75 61
401 740 229 79 62 43
267 415 179 84 72 56
267 414 184 87 72 57
273 344 294 71 55 42
272 414 179 81 69 54
392 412 289 83 27 30
272 412 189 82 69 54
189 567 278 159 8 43
296 340 261 83 71 60
282 415 170 120 39 37
287 411 175 80 49 47
277 411 179 83 60 47
341 819 383 49 39 35
275 412 180 82 63 47
317 870 244 76 68 68
283 411 188 84 62 50
240 842 347 87 67 55
407 524 269 91 54 51
383 449 221 121 13 28
287 409 189 91 63 50
368 714 299 111 16 39
262 418 169 91 69 48
281 896 247 87 76 72
262 416 175 87 77 64
262 429 164 148 1 30
245 650 321 165 18 52
267 419 165 135 40 33
267 424 164 156 8 38
307 794 308 114 85 70
220 897 360 110 89 78
302 449 184 115 9 30
304 906 278 80 71 71
265 417 172 87 74 55
328 610 232 146 18 41
316 869 389 52 48 47
267 429 165 151 1 30
377 429 289 79 18 29
271 399 254 77 61 46
255 870 292 161 124 94
262 449 169 164 2 36
268 435 167 154 0 34
265 259 260 98 79 58
265 437 166 155 0 30
376 722 202 75 56 43
267 444 168 159 1 33
242 750 325 103 31 44
272 444 169 109 19 36
307 272 321 102 84 66
348 518 311 47 19 20
276 419 166 104 37 34
278 424 167 42 37 45
325 473 373 145 26 49
339 470 325 125 11 40
273 429 167 108 18 35
286 424 171 101 24 37
284 369 314 120 88 68
282 429 170 133 9 35
360 701 313 77 20 33
277 439 169 146 3 32
334 446 336 72 20 29
284 444 172 143 1 33
285 447 171 151 0 36
426 448 225 105 24 37
283 450 172 158 2 39
290 411 176 64 42 45
462 464 264 165 115 97
219 667 271 81 60 54
295 411 181 114 39 35
417 529 249 135 99 70
296 414 184 91 31 33
291 419 175 58 40 44
292 429 175 48 38 42
218 904 359 73 65 62
233 870 368 134 109 84
293 419 178 54 40 46
267 754 225 80 43 45
296 419 180 61 41 40
163 519 225 143 105 76
300 420 191 102 33 23
300 424 191 69 37 40
299 429 184 88 32 37
295 766 227 70 58 50
302 314 334 135 94 72
299 428 188 61 37 31
300 429 190 95 25 35
292 444 174 128 16 34
399 754 260 153 104 71
302 694 335 53 28 33
295 433 176 53 42 44
219 919 353 56 52 53
297 439 179 52 40 40
295 444 176 112 22 33
257 958 339 72 68 69
273 688 336 145 12 45
301 464 181 70 30 37
394 722 221 69 52 33
298 921 297 78 70 71
327 359 323 129 96 67
297 449 179 131 6 33
262 399 239 88 75 62
299 433 183 80 31 36
290 859 239 63 56 57
444 491 252 190 130 111
372 604 265 131 26 38
299 438 182 55 36 37
390 558 277 88 26 36
230 877 371 144 113 88
197 604 224 154 109 78
301 439 184 97 22 34
300 441 181 54 32 36
380 508 327 51 26 30
262 407 209 89 75 60
262 410 199 91 76 60
369 509 316 25 25 30
267 411 196 87 73 58
272 411 199 76 64 51
355 822 362 55 45 39
273 896 401 58 54 53
268 927 286 90 81 79
272 412 193 81 68 54
299 946 339 70 62 61
228 649 269 164 10 43
267 409 204 83 70 55
392 494 229 142 12 40
267 408 209 83 70 56
262 405 214 91 77 63
379 549 294 117 28 44
248 587 221 177 4 51
258 402 222 93 80 66
221 744 309 145 100 82
332 794 194 67 55 50
199 573 227 124 81 60
262 403 219 91 77 64
382 516 226 64 30 33
238 845 344 109 81 64
263 402 223 89 76 63
266 406 214 87 73 59
271 407 213 78 65 51
267 404 224 87 73 59
269 407 218 84 71 57
265 264 264 94 79 63
276 412 192 78 63 50
222 799 243 90 71 63
277 409 204 72 60 47
277 407 209 70 58 46
281 411 194 78 60 47
283 412 198 81 63 49
378 459 323 84 24 33
358 449 188 100 31 37
286 411 200 84 66 51
308 266 317 98 81 62
368 856 329 62 51 46
287 413 194 90 63 48
282 409 204 74 61 46
235 884 312 140 107 82
282 407 209 74 61 46
342 846 243 75 64 60
327 799 303 36 33 33
287 410 204 85 69 53
354 600 315 178 12 57
412 485 265 60 32 30
287 407 208 85 71 57
273 406 215 75 62 47
202 719 237 134 98 63
276 407 212 69 59 48
282 406 211 76 62 47
287 405 214 86 71 56
420 772 229 90 66 47
354 844 302 47 38 37
312 825 339 50 42 39
282 403 219 80 66 50
302 833 364 51 45 44
282 400 224 79 66 53
287 403 218 86 71 55
257 818 297 154 112 95
284 401 221 84 69 53
262 399 229 90 77 63
278 827 330 69 58 48
259 398 234 94 81 67
357 834 355 53 46 41
253 539 328 99 1 30
215 614 236 120 77 59
237 599 330 68 28 34
259 398 239 93 79 65
262 399 234 89 76 62
213 798 246 185 124 94
266 400 230 87 73 58
247 828 288 148 109 86
267 396 231 85 71 56
302 338 332 141 98 77
296 503 334 61 25 31
372 820 357 72 59 50
267 399 234 85 71 56
267 399 239 83 70 55
317 699 227 104 25 31
398 804 295 86 66 53
262 389 249 89 75 61
397 784 274 133 98 71
429 525 270 171 115 87
449 486 275 184 121 107
260 390 246 91 78 64
258 394 243 94 79 64
202 818 289 200 138 110
259 397 242 92 78 63
324 483 202 116 10 31
264 393 248 87 74 60
287 820 308 67 57 46
187 539 222 129 74 62
263 398 242 88 75 61
268 389 252 76 64 50
270 391 251 76 63 50
267 396 245 82 69 55
415 794 284 128 104 87
267 393 249 81 69 55
270 394 249 77 64 50
311 649 327 44 27 30
270 399 244 79 65 50
252 949 324 73 68 69
271 399 249 78 63 48
270 394 254 76 62 47
419 479 266 81 23 29
176 589 251 142 102 77
312 473 320 105 2 33
272 406 229 80 66 52
242 944 354 60 55 55
271 405 234 78 65 51
270 401 236 81 67 52
270 401 240 81 67 52
242 639 324 108 24 42
290 837 350 56 49 43
271 404 239 77 64 50
221 929 344 61 56 56
272 408 234 79 65 51
261 304 293 70 55 39
272 404 249 78 62 47
272 404 254 75 61 47
438 484 249 109 88 63
324 465 389 117 26 42
278 399 239 72 58 43
267 299 284 72 62 52
282 389 239 69 57 46
287 395 230 85 72 58
282 394 234 75 59 41
281 394 239 72 57 40
347 574 337 93 22 37
280 397 238 72 57 40
425 459 239 59 36 38
300 877 402 52 46 41
287 393 233 84 71 57
273 404 294 49 42 36
279 389 249 72 63 54
381 568 255 58 29 33
279 389 254 72 64 55
236 759 232 59 50 48
257 858 369 81 72 66
279 396 241 74 58 42
279 395 244 75 61 47
231 698 252 75 24 33
340 269 274 135 97 65
278 399 244 74 59 44
257 955 359 56 53 54
278 399 249 75 60 47
233 850 344 113 86 66
356 822 322 63 51 42
278 394 254 73 63 53
281 389 244 70 59 48
372 776 359 56 45 40
285 385 245 77 63 48
288 389 248 87 73 58
280 393 243 74 60 46
357 419 244 66 41 41
343 536 317 56 20 26
276 403 229 74 61 49
336 554 322 64 23 29
279 401 226 76 63 50
279 401 229 74 61 47
219 524 327 47 27 31
263 633 241 41 35 39
261 853 366 122 85 76
273 408 244 76 62 48
180 605 232 161 111 80
217 519 326 51 29 31
402 609 268 163 113 88
275 407 241 75 61 48
297 829 334 55 48 42
322 884 364 46 42 40
175 594 251 149 104 79
275 407 249 76 61 48
178 594 252 140 101 76
275 407 254 75 61 47
234 724 327 163 15 52
297 399 224 97 82 67
292 410 194 102 59 42
259 684 236 81 28 37
291 413 195 97 62 46
342 699 233 82 29 31
294 411 198 101 66 49
297 410 199 99 70 48
191 734 243 131 95 64
327 554 323 68 23 29
296 413 200 99 70 50
291 410 205 90 74 59
405 802 239 77 60 54
208 563 230 91 30 39
292 408 209 90 75 60
392 654 238 127 89 55
198 813 270 208 138 110
364 455 207 116 25 32
293 413 203 94 73 56
194 549 303 165 1 49
298 411 203 98 71 49
334 781 204 45 40 40
299 414 192 104 26 30
301 410 195 117 40 25
446 478 239 132 81 57
224 876 362 156 123 96
363 694 289 149 14 46
302 409 199 107 57 36
302 414 195 114 27 28
298 413 208 96 73 56
302 413 204 102 58 43
290 406 211 90 74 57
297 404 215 94 79 63
402 740 204 83 65 52
292 402 218 92 77 61
271 324 279 66 57 47
297 402 218 97 81 64
327 469 210 74 32 35
182 769 274 158 110 77
453 470 273 98 74 46
297 401 220 97 82 65
322 829 209 82 64 53
302 400 224 98 83 69
272 464 307 38 26 27
303 402 222 97 84 70
301 410 215 97 79 60
336 794 384 54 46 40
328 329 314 127 99 65
242 823 293 47 39 42
303 408 218 97 81 60
303 412 213 99 72 51
305 411 199 116 36 28
267 779 230 76 60 52
223 543 200 102 20 37
306 414 204 111 37 30
312 409 208 132 32 20
318 406 206 120 46 25
390 710 231 106 83 56
338 822 319 62 51 42
317 409 206 135 24 28
316 408 208 134 29 24
242 529 180 196 9 42
417 760 212 110 80 59
317 414 208 130 20 28
318 412 206 129 17 31
249 545 357 107 22 40
311 409 215 114 61 25
307 404 224 98 84 70
342 709 230 63 34 35
305 406 221 95 84 71
372 479 229 121 21 38
259 851 411 38 36 37
310 413 215 114 57 25
252 903 402 72 68 67
312 409 224 101 82 54
312 412 219 112 66 29
378 424 284 68 23 30
313 406 213 113 63 28
377 454 309 54 23 26
317 405 214 108 64 35
212 729 291 99 66 49
297 324 333 135 96 74
376 509 234 79 27 34
317 408 219 104 72 46
270 843 414 36 33 33
318 406 217 104 68 42
192 594 222 153 109 77
319 406 222 99 77 57
315 412 221 107 73 44
292 390 235 92 79 65
292 389 239 92 79 65
297 390 235 95 81 67
297 388 239 97 82 68
207 734 291 121 90 64
194 549 228 107 45 43
292 395 229 92 78 63
292 397 227 92 78 63
239 845 310 134 107 79
351 664 250 49 36 35
297 397 227 96 82 67
223 590 328 68 26 33
190 520 219 132 22 37
317 289 268 127 95 62
292 393 233 91 78 64
374 831 253 160 107 87
297 392 232 94 81 67
299 386 240 97 83 68
231 925 369 55 52 53
302 389 235 97 84 70
377 774 169 91 69 52
195 559 245 46 31 33
302 388 237 97 83 69
222 644 279 121 19 42
342 474 218 50 35 39
302 386 236 97 84 70
353 413 254 84 70 61
302 397 228 97 83 69
233 932 320 76 70 70
389 496 224 150 9 39
302 392 232 96 83 69
417 499 279 78 41 29
384 744 210 67 50 41
292 391 244 91 78 64
257 939 304 90 82 80
292 389 250 90 76 63
183 539 279 149 9 44
296 388 244 94 80 67
295 388 248 92 79 65
292 392 244 91 78 64
252 924 385 54 49 49
307 390 235 96 83 70
370 683 237 110 86 58
221 526 187 204 18 58
402 804 234 94 72 60
202 599 299 170 10 50
308 388 237 95 83 70
272 594 220 144 26 45
311 391 236 98 84 70
406 799 249 82 61 47
315 482 352 123 0 44
307 396 230 98 84 70
246 873 381 118 94 75
310 396 231 99 86 73
341 799 378 59 51 45
243 568 210 89 30 39
358 841 302 46 39 38
312 399 230 99 85 70
307 393 233 98 84 71
312 394 234 100 86 71
317 389 240 99 85 71
252 599 335 52 29 33
278 329 289 86 64 50
316 395 235 100 87 73
205 768 301 152 118 86
317 705 337 41 28 30
397 804 339 73 57 44
441 499 254 190 126 101
317 394 238 101 87 72
436 509 259 185 123 93
408 490 242 180 8 40
313 398 232 100 86 72
192 654 243 127 85 51
319 397 237 97 84 71
334 451 361 165 16 53
319 387 242 97 85 72
285 283 289 90 74 58
392 419 213 125 27 32
257 530 322 104 2 32
309 402 227 100 85 69
346 604 323 181 5 58
312 404 228 99 85 70
310 405 226 98 86 70
361 434 184 114 32 37
316 401 231 100 85 69
317 405 230 99 86 70
323 324 320 127 96 63
318 403 233 99 85 71
301 424 194 88 31 32
378 469 224 116 13 29
376 791 302 134 102 79
287 833 416 56 46 38
303 424 198 104 27 31
307 719 224 95 26 33
302 429 194 106 19 32
303 434 194 112 13 31
332 769 219 54 47 46
304 433 198 109 18 31
270 528 370 102 21 34
304 439 193 114 11 28
379 554 291 83 32 40
223 573 225 176 10 38
293 849 234 65 59 59
276 846 257 173 121 97
304 443 192 119 3 28
304 418 202 110 32 33
248 875 401 38 36 37
342 459 349 170 16 55
307 424 204 113 23 27
329 480 360 171 11 54
259 900 265 81 72 71
309 418 207 125 26 29
336 354 274 105 88 70
312 419 209 130 20 27
310 424 206 121 17 28
267 314 290 64 53 41
320 335 266 96 83 70
350 877 286 75 61 57
364 729 310 154 14 48
317 654 235 111 20 33
403 836 284 86 69 65
312 424 208 126 13 29
310 429 206 121 14 28
317 419 209 134 19 27
207 539 209 185 10 46
317 424 210 120 9 28
306 434 199 110 18 30
267 294 279 73 63 54
305 436 196 112 13 28
371 776 363 55 46 38
305 439 195 113 12 25
195 530 311 155 2 47
317 822 324 66 55 45
308 434 203 112 15 29
237 830 259 78 63 57
311 434 205 119 15 27
309 439 202 110 17 28
406 619 240 147 105 70
356 419 274 78 67 58
331 329 309 131 102 69
308 444 199 114 10 31
401 779 268 140 100 71
309 449 198 115 5 32
309 442 202 108 18 28
315 280 322 121 94 64
252 789 309 55 47 43
385 588 272 74 27 33
365 670 248 93 73 53
262 845 363 118 91 72
312 444 204 110 17 25
311 449 200 114 10 29
273 438 301 48 38 28
313 449 204 112 16 29
252 809 303 46 38 39
231 699 314 51 29 33
289 383 317 121 90 72
421 443 209 84 34 41
313 434 208 116 17 30
314 444 207 116 15 26
317 444 209 100 21 30
252 754 324 69 54 51
358 754 310 80 52 49
317 434 210 95 26 34
205 561 232 125 26 49
218 617 317 180 33 64
317 439 210 71 32 35
262 454 170 128 17 39
218 724 294 83 27 36
262 942 372 82 79 80
262 464 173 65 37 41
267 454 171 97 31 40
322 544 203 112 27 40
272 453 171 49 36 40
302 669 234 45 36 37
268 456 172 99 28 40
272 455 172 56 35 38
267 459 173 116 27 39
391 822 285 59 47 38
272 459 174 98 29 39
262 469 174 74 33 37
197 649 264 111 86 68
262 474 174 54 38 40
228 909 310 65 59 59
187 530 236 91 28 41
262 479 174 45 39 42
192 624 230 173 120 84
267 469 175 142 16 40
272 469 175 68 32 39
267 474 176 113 23 39
267 480 177 54 38 40
272 474 176 113 23 41
318 871 248 78 68 68
270 477 176 80 20 22
273 475 177 93 30 43
277 454 172 81 28 37
287 474 310 31 25 28
277 464 175 42 37 41
282 459 174 78 28 35
287 459 174 77 32 37
407 599 267 167 116 88
201 594 225 143 104 77
277 469 176 45 37 43
287 469 176 76 35 39
382 494 328 150 19 51
307 579 214 100 27 39
351 614 313 151 18 53
277 474 177 88 34 42
282 472 176 74 40 42
187 524 224 66 46 44
282 474 177 62 37 41
282 479 178 64 36 39
285 472 176 47 38 37
287 479 179 80 33 40
195 724 281 149 106 79
264 484 177 55 37 39
277 544 339 77 22 35
267 484 177 84 32 39
343 639 310 95 19 35
267 494 178 45 39 44
262 504 176 146 7 33
330 267 261 144 99 69
260 509 176 128 10 33
339 372 272 106 89 71
262 509 177 129 11 31
382 824 284 39 31 29
263 505 177 143 8 38
268 499 178 45 39 43
267 509 179 120 21 35
344 837 356 48 41 37
277 489 313 41 27 29
293 844 239 63 56 57
361 818 215 96 73 56
277 484 179 58 36 40
290 268 278 93 75 57
230 518 327 82 14 28
277 494 181 79 31 38
377 702 232 96 80 63
335 799 384 57 47 39
287 484 180 104 30 41
287 489 181 70 35 38
267 798 307 41 35 36
367 499 214 61 34 39
282 492 181 83 37 45
330 501 322 54 25 32
287 494 182 109 27 39
312 605 227 95 28 37
272 849 368 87 71 58
357 489 305 44 20 20
224 663 259 89 51 44
275 502 181 73 35 39
278 499 182 144 7 33
282 504 184 150 1 32
392 834 284 74 59 50
370 547 327 181 5 58
420 474 254 93 15 30
287 499 184 153 5 37
287 504 184 152 0 34
295 454 176 117 17 35
227 874 364 147 116 91
415 493 250 135 12 32
292 459 175 89 33 37
282 554 340 74 23 33
292 464 175 53 35 40
257 925 385 77 72 72
364 749 306 81 36 42
324 302 316 124 93 59
297 459 178 99 24 36
364 856 282 88 72 65
298 454 179 120 12 31
226 759 315 158 121 96
300 450 181 120 4 31
407 584 239 135 104 67
241 551 197 78 31 39
368 855 334 65 57 52
203 513 190 182 9 43
300 454 181 123 10 30
303 454 184 122 6 32
303 459 183 110 12 32
231 576 222 141 18 41
297 469 178 92 23 38
292 474 177 131 20 37
292 479 179 83 36 40
297 479 180 64 35 39
303 469 183 123 8 32
236 873 375 136 109 86
307 489 393 126 18 41
303 474 182 128 9 33
301 479 181 70 33 40
303 479 182 105 23 36
304 452 187 118 2 36
306 469 185 122 5 31
322 579 218 62 39 43
307 269 319 100 83 65
308 469 189 116 5 30
319 806 400 62 50 38
310 470 191 114 6 32
299 434 312 127 96 77
237 552 326 31 26 25
306 474 185 125 3 32
315 483 349 120 1 38
306 479 184 126 8 31
353 514 223 128 12 34
309 474 188 119 2 32
387 720 204 102 70 40
294 525 352 148 12 49
415 502 264 119 70 60
311 474 190 114 2 30
311 479 190 121 4 30
292 488 181 46 35 39
296 488 181 61 37 39
343 639 247 41 34 35
272 874 412 57 54 53
292 490 182 47 35 41
297 490 182 58 34 38
249 866 409 41 38 38
297 494 184 146 14 39
332 444 359 72 22 29
299 486 182 51 35 36
345 817 337 51 42 36
302 484 183 79 29 35
198 769 298 150 116 85
312 384 327 142 102 75
277 584 214 124 23 41
280 323 277 91 76 62
302 489 184 108 24 37
302 494 185 158 4 33
297 499 185 165 1 34
291 508 186 151 0 35
232 754 233 57 49 46
313 485 339 87 14 31
294 506 187 158 0 34
317 474 359 131 6 42
297 509 188 155 0 35
301 499 186 159 1 33
336 603 231 54 33 39
365 666 277 66 30 39
337 460 217 80 29 35
304 496 187 151 1 31
338 441 344 88 44 43
342 664 244 85 27 26
200 608 261 96 65 53
387 499 224 149 10 40
303 500 187 156 1 33
397 544 258 103 37 37
302 504 188 157 2 34
306 489 185 141 5 32
282 589 335 169 15 53
311 484 190 122 3 30
341 454 353 118 17 40
308 489 188 135 2 31
362 429 279 83 38 38
312 489 190 126 3 30
306 493 186 147 0 30
307 509 190 154 6 35
311 509 191 67 32 38
308 454 194 119 3 30
409 789 246 84 63 44
309 452 197 118 4 30
271 369 298 67 49 34
356 649 294 122 24 46
309 459 192 115 5 28
174 583 231 158 111 80
390 497 230 151 10 45
310 459 195 117 5 30
313 870 238 85 72 68
430 442 226 43 34 35
313 459 199 118 9 30
227 894 324 73 64 59
353 429 304 114 87 63
309 463 192 113 5 31
282 854 384 35 31 33
311 464 194 110 10 31
314 454 203 117 9 30
314 458 202 119 19 28
317 459 204 79 27 31
209 572 236 96 40 48
315 461 201 101 26 34
462 454 269 145 104 90
315 465 200 83 25 32
276 404 264 75 59 46
318 464 203 80 31 37
319 457 207 79 29 28
312 469 194 108 10 30
313 474 193 114 7 30
268 704 231 129 14 34
410 434 176 168 23 46
314 468 197 103 13 29
316 469 199 111 16 29
315 471 196 110 5 27
332 755 320 64 52 48
213 665 237 138 94 65
315 474 368 113 9 39
318 469 203 101 26 33
285 344 321 122 89 69
315 475 196 117 13 33
317 474 199 95 23 32
322 604 228 58 34 37
349 403 289 104 84 63
343 875 334 59 51 49
313 479 193 120 3 31
318 479 198 72 26 33
331 478 329 130 18 47
330 364 322 130 98 67
319 473 202 69 32 35
354 654 296 95 29 40
314 484 192 121 4 29
316 484 195 119 9 31
314 489 192 121 6 29
364 674 280 73 30 36
381 604 260 65 39 33
316 489 195 122 3 29
322 774 314 52 44 41
318 484 197 116 11 33
297 574 210 188 7 40
387 504 314 174 12 57
314 494 192 128 5 30
347 484 220 118 11 34
367 763 183 84 60 46
317 494 194 125 4 30
319 493 197 123 6 32
207 614 228 144 105 75
314 498 192 129 8 31
317 499 194 126 5 29
314 504 192 70 30 36
377 499 229 73 31 38
317 504 193 104 19 33
339 414 191 123 48 32
367 734 203 66 55 44
342 415 190 113 74 53
373 469 314 58 24 27
322 429 324 128 96 75
351 416 190 116 78 62
303 869 400 45 42 42
347 420 176 161 34 29
343 419 184 115 41 40
323 880 269 68 61 60
343 424 180 77 31 35
365 483 206 134 14 38
339 418 191 84 33 37
338 407 220 81 55 45
359 781 356 56 49 42
357 419 264 83 73 64
341 419 189 93 39 39
344 428 181 64 34 37
404 460 199 162 21 47
347 417 184 105 87 70
352 420 179 157 51 44
292 574 336 116 30 46
352 418 184 118 82 66
351 421 176 181 26 26
303 276 322 98 82 65
324 870 253 84 72 69
346 417 187 106 91 71
219 900 363 89 76 69
400 714 244 140 98 66
347 429 179 86 28 35
355 624 302 168 10 53
345 431 182 57 39 39
349 427 176 147 13 45
434 511 257 179 117 90
352 428 176 163 4 35
373 479 319 44 19 25
325 836 402 48 43 42
352 430 177 152 9 38
348 433 180 96 31 36
346 434 184 78 31 37
274 359 284 60 51 43
190 634 237 171 114 82
352 434 179 114 22 36
277 704 341 146 13 47
403 624 238 148 105 68
409 795 245 75 58 41
348 439 184 90 29 35
247 883 302 113 78 55
353 438 180 99 30 39
344 432 185 85 32 38
280 344 305 109 79 61
345 435 188 117 20 36
402 785 222 82 60 50
361 454 199 126 18 37
347 439 189 109 22 34
348 444 189 103 23 36
322 654 324 99 24 40
350 445 187 80 31 35
351 449 189 49 34 36
357 420 180 181 45 36
357 419 184 156 61 48
266 705 342 146 12 46
354 422 177 194 11 26
357 424 178 183 22 29
219 699 242 131 96 67
262 752 327 74 47 47
373 489 229 120 18 32
357 417 189 130 64 55
355 426 176 172 1 25
362 420 184 174 37 39
383 619 262 99 69 53
267 339 297 68 51 34
361 421 181 185 28 37
306 488 330 94 16 34
222 714 304 67 28 34
366 424 185 136 28 37
362 418 189 143 46 41
426 449 249 150 18 45
366 420 189 122 33 34
422 796 327 84 70 55
279 420 297 77 57 43
365 421 186 148 36 34
292 699 227 95 27 31
421 474 249 107 21 29
363 430 184 147 29 38
290 597 336 78 16 28
368 585 257 107 8 29
359 435 182 101 38 44
277 803 236 78 63 56
418 774 229 88 63 50
358 439 183 89 33 38
344 388 274 100 85 69
363 434 189 123 32 39
336 813 387 53 45 39
427 840 260 95 76 60
220 684 241 132 96 67
322 405 205 122 46 28
322 409 204 133 36 33
327 405 209 113 53 33
222 639 239 135 96 73
335 374 317 126 97 65
419 843 264 80 65 54
323 413 205 113 32 30
321 415 207 131 18 32
327 789 308 44 39 39
328 409 201 147 39 34
327 414 204 96 40 33
375 422 234 88 30 30
332 409 199 143 42 36
337 408 199 129 58 44
352 719 233 50 32 33
360 762 307 70 57 52
268 304 284 67 57 45
332 406 204 121 50 35
370 771 166 98 70 40
332 405 209 109 53 37
289 339 262 71 59 46
382 544 289 56 27 33
247 849 300 131 95 67
336 406 205 115 54 40
335 421 202 81 30 39
439 786 310 87 68 45
337 410 195 130 61 43
398 776 346 83 70 58
302 924 369 54 51 50
332 414 200 139 30 33
381 834 304 71 58 48
337 469 349 108 20 42
337 414 194 125 43 31
336 414 198 135 33 30
302 499 349 33 30 33
331 415 202 116 31 39
376 782 362 57 45 34
322 407 220 96 73 55
393 771 188 83 63 50
267 289 274 79 67 54
327 405 219 91 67 51
348 810 380 60 48 40
401 488 235 178 7 43
328 406 222 88 70 56
369 730 196 79 62 49
343 819 380 50 42 36
320 412 224 97 82 65
332 405 214 96 61 46
241 707 242 45 33 35
267 794 308 45 39 38
179 612 236 168 117 85
337 405 214 93 61 47
465 449 260 162 124 110
387 484 324 121 21 43
332 405 219 87 66 53
224 745 236 105 27 36
379 424 279 73 26 31
368 433 264 71 35 38
400 726 241 132 95 63
213 527 195 200 13 55
331 406 222 86 68 54
303 454 312 122 88 71
208 665 272 112 85 65
332 407 224 85 67 54
334 407 221 80 59 48
331 889 339 58 51 48
373 465 228 114 15 34
282 734 334 151 19 52
337 408 224 80 57 47
342 409 199 115 72 53
342 407 204 106 62 47
297 499 384 65 24 29
340 406 206 107 56 42
372 484 319 42 18 24
341 406 209 100 55 41
343 408 209 92 53 39
332 634 320 58 27 32
272 789 309 49 42 39
342 410 195 117 76 56
346 409 204 95 57 44
435 846 261 93 74 59
347 413 194 106 83 66
351 415 194 112 71 57
352 415 199 103 59 47
327 649 239 105 19 27
349 412 204 93 45 36
337 399 319 130 98 69
216 654 268 96 56 48
349 412 209 86 35 30
287 279 299 107 86 62
339 407 215 85 59 45
271 364 298 69 49 34
202 799 254 177 116 85
262 869 394 31 30 30
340 406 212 94 57 43
342 408 214 84 51 40
399 791 223 93 68 52
342 409 219 81 49 41
403 743 199 81 64 52
186 549 284 142 15 47
267 533 334 90 13 30
342 409 224 81 53 45
210 535 321 88 25 36
326 509 200 98 29 35
372 768 174 88 62 45
367 769 300 77 61 53
347 410 214 83 42 34
346 411 219 83 42 36
342 683 320 117 13 36
325 490 201 121 3 28
346 411 224 82 43 38
377 554 249 116 9 29
348 412 224 82 38 35
352 414 219 82 34 33
338 855 361 53 46 41
336 490 210 122 5 29
412 744 209 95 67 47
352 414 224 80 35 35
242 629 250 159 0 36
309 456 388 86 11 25
346 628 246 141 24 42
321 394 240 101 86 71
351 669 249 38 36 38
320 390 241 102 87 70
329 388 253 104 90 75
318 821 322 71 58 47
323 393 243 102 87 72
343 585 227 136 21 41
326 394 245 103 88 73
202 724 237 139 101 68
380 598 265 103 26 33
293 889 244 80 71 70
330 386 256 106 90 74
330 391 251 104 90 75
333 399 248 105 90 74
277 674 237 110 23 31
334 397 252 102 90 78
379 421 244 93 35 27
327 408 229 90 76 61
327 404 239 99 85 69
326 406 235 95 81 65
316 794 223 68 57 52
372 783 185 90 66 49
442 479 249 106 84 57
272 525 369 57 26 29
328 407 234 92 78 63
332 408 234 92 76 62
329 407 238 96 81 67
256 839 299 101 70 52
353 805 369 60 48 38
327 794 410 83 67 52
331 405 240 100 85 70
337 409 239 92 75 62
411 784 215 91 66 50
332 404 244 102 88 72
392 449 323 50 21 27
337 407 244 100 84 69
337 404 249 107 91 75
259 424 310 84 64 43
366 559 240 163 8 38
341 400 255 111 96 81
259 627 241 46 36 40
297 809 413 80 63 49
219 572 226 173 12 49
359 855 264 80 65 59
342 410 229 81 54 47
344 596 331 186 8 59
342 409 234 81 56 49
342 409 239 83 61 52
348 412 229 79 42 38
352 414 229 75 38 36
346 411 234 78 50 44
346 411 239 75 50 46
348 412 239 71 47 44
261 259 277 76 63 48
425 756 211 100 77 58
306 814 393 63 52 41
352 415 234 68 43 41
352 415 239 66 43 42
338 407 248 105 89 73
342 408 244 89 71 61
342 408 249 102 85 71
339 403 252 110 93 77
282 329 309 112 82 60
442 858 255 109 89 68
372 689 234 105 84 60
342 404 254 110 94 78
344 407 252 107 91 75
232 524 178 180 10 43
347 410 249 89 72 62
347 410 244 76 56 51
349 412 243 71 51 48
332 674 321 106 15 38
352 414 244 68 47 45
371 764 298 141 105 84
349 412 248 80 61 55
302 444 314 127 94 76
352 414 249 79 63 55
350 411 250 87 71 61
351 410 255 89 77 66
392 779 345 70 58 48
309 456 380 88 17 40
322 419 209 137 5 33
324 417 206 94 22 33
328 418 206 45 33 36
332 419 204 56 32 36
333 423 205 60 32 37
226 739 314 141 13 43
404 819 274 83 61 51
192 614 261 115 82 63
334 418 201 121 19 41
337 419 199 119 26 34
299 836 231 59 53 52
332 429 210 77 30 36
322 424 210 116 9 30
296 913 270 82 75 74
267 947 316 89 85 88
321 428 211 48 31 36
328 428 211 120 18 35
327 430 212 62 28 34
330 431 212 75 30 36
412 449 289 83 20 32
323 434 212 47 35 38
291 259 284 98 78 56
320 438 211 74 36 35
322 439 213 68 33 35
368 859 324 62 50 44
321 445 211 118 13 32
323 444 212 118 16 32
402 800 326 76 62 55
364 511 327 55 28 38
421 434 195 178 27 49
376 800 363 62 49 38
323 449 212 124 11 29
327 444 213 87 25 32
317 364 328 136 99 69
333 433 211 45 33 36
331 434 212 98 27 38
350 406 289 102 83 61
332 439 213 92 26 33
279 354 274 72 58 49
281 438 295 55 44 32
355 416 249 72 54 50
337 434 209 49 33 37
338 439 210 88 29 35
459 471 253 178 122 104
398 792 276 122 93 71
335 436 212 98 25 33
348 699 238 88 28 27
389 520 285 137 15 46
332 449 214 51 31 37
237 803 240 79 63 58
337 444 213 58 30 37
337 449 214 84 29 37
279 330 298 99 74 56
358 483 205 121 18 34
339 423 195 107 28 40
340 421 192 77 23 42
260 630 242 49 36 41
246 829 324 155 114 92
242 515 172 179 2 37
265 296 287 73 62 51
340 424 194 93 31 39
342 429 194 74 33 37
340 426 198 92 21 35
407 420 214 85 31 27
340 430 203 105 31 41
266 884 264 64 59 60
311 488 344 108 10 37
344 434 194 90 30 37
362 773 175 88 68 53
339 432 206 65 27 31
341 434 204 66 32 37
340 435 207 62 26 39
343 438 204 96 26 37
341 439 208 124 17 36
342 444 209 87 27 38
345 436 192 123 17 39
422 524 249 123 94 59
344 437 199 84 32 36
392 415 259 63 26 23
230 852 341 131 102 79
346 444 204 73 31 37
344 442 206 123 24 45
345 445 208 84 32 42
377 424 209 118 24 34
312 354 329 139 98 73
348 449 204 56 35 35
380 430 315 67 4 26
235 646 316 113 16 41
347 449 209 63 31 35
343 448 211 47 30 38
340 446 212 39 35 41
342 449 213 61 32 36
356 416 209 78 32 28
366 729 308 155 13 49
357 416 219 82 29 31
356 416 224 78 33 34
388 504 309 184 4 58
382 415 214 106 29 37
394 476 202 124 30 41
382 415 219 93 34 38
383 415 224 92 34 37
324 367 257 94 83 71
355 416 254 81 68 59
354 417 194 118 68 58
357 418 194 118 59 53
355 416 199 101 53 44
179 638 250 175 122 91
357 417 199 95 44 43
385 772 160 90 71 57
356 416 204 84 35 34
358 417 204 81 32 35
292 657 237 61 33 33
362 418 194 113 38 40
406 765 248 107 76 53
320 918 338 60 53 52
217 599 244 124 25 37
367 419 199 88 28 33
367 419 204 81 35 30
368 429 194 61 35 34
175 563 246 133 94 71
359 417 219 83 30 31
362 417 214 78 33 29
178 629 258 161 114 88
266 868 393 30 29 30
396 438 322 71 22 32
364 416 211 77 35 29
253 922 387 54 50 49
388 745 194 100 75 54
339 466 344 170 15 54
273 505 317 81 19 32
366 419 214 81 34 34
265 532 358 75 13 32
253 690 332 37 28 28
362 419 224 82 32 33
440 502 256 187 129 99
364 416 216 76 32 29
267 945 313 88 84 86
367 444 209 61 34 35
365 416 217 75 32 32
366 420 219 84 33 36
307 289 329 113 89 62
252 823 318 108 89 69
382 464 325 36 28 26
365 421 223 83 32 31
367 423 224 89 30 30
364 435 193 121 28 38
363 439 194 73 33 37
366 434 194 87 30 34
368 434 199 68 34 35
365 437 196 110 28 36
366 438 199 98 31 37
323 275 262 141 99 68
367 439 204 57 34 36
312 688 331 56 24 29
279 310 293 96 73 55
224 669 297 74 30 36
362 444 199 81 32 37
365 442 201 76 32 30
187 538 240 105 21 33
353 840 294 65 54 51
360 711 322 87 22 37
365 443 204 60 35 36
353 649 258 92 23 34
316 827 364 38 33 35
354 418 289 77 61 48
369 440 208 51 36 37
366 449 209 124 23 38
247 624 243 163 0 37
278 389 264 75 64 54
377 759 285 118 84 59
369 445 212 64 30 35
368 424 194 74 34 32
372 419 209 90 33 35
377 419 209 122 25 32
411 793 243 80 60 46
369 429 197 53 37 35
311 504 374 178 11 56
169 564 234 162 112 82
416 550 246 141 107 72
371 429 200 51 36 33
372 429 204 60 35 35
356 723 232 57 35 34
307 509 359 176 4 56
368 422 211 84 36 38
272 851 422 55 49 46
371 422 219 100 27 33
357 754 208 49 39 40
288 885 405 52 48 47
395 453 322 151 20 51
449 486 253 198 136 115
372 423 224 98 32 29
301 809 398 55 45 35
377 418 219 112 27 34
196 669 243 136 92 58
322 289 318 125 93 60
377 419 224 105 27 30
172 569 229 158 110 78
277 523 359 61 27 30
374 421 223 112 25 26
390 488 317 47 27 31
360 421 243 63 40 40
377 429 213 75 26 35
380 416 211 117 26 32
384 417 212 92 26 41
317 798 398 69 57 46
382 423 211 113 22 34
342 399 314 127 98 67
246 920 386 54 50 51
379 426 212 120 20 42
307 614 230 58 36 38
382 425 212 123 17 37
212 534 323 105 24 39
353 490 221 148 0 32
211 758 301 115 85 52
325 538 322 144 11 45
340 607 327 182 14 58
370 432 200 44 35 35
372 434 209 67 31 34
370 437 206 57 35 33
322 484 339 129 31 49
371 438 210 62 33 35
372 439 214 69 33 36
373 434 213 94 28 35
375 437 216 89 26 29
349 654 252 63 30 32
374 440 217 98 26 39
454 466 255 91 67 30
402 799 289 86 69 56
371 444 214 56 31 35
325 494 201 123 5 28
186 629 261 140 103 80
220 924 334 62 57 57
373 444 218 78 29 35
377 444 220 100 21 33
304 936 351 45 39 35
372 449 219 87 29 37
382 433 216 58 28 32
391 569 273 57 30 33
223 644 244 125 84 64
247 522 176 134 26 46
382 435 217 70 30 30
289 881 406 55 50 48
321 474 339 80 24 35
382 439 218 87 26 33
356 416 229 74 35 37
366 799 344 52 42 34
385 797 216 77 58 49
407 474 284 73 24 33
312 794 225 76 61 55
307 684 230 63 32 36
357 418 234 71 37 37
362 420 229 76 34 33
365 421 229 80 34 31
399 770 207 62 51 48
410 523 252 131 73 59
362 420 234 71 33 34
364 422 235 70 35 35
315 497 350 164 21 56
363 422 239 66 37 38
412 554 246 133 104 70
257 831 247 193 146 125
367 424 234 78 34 33
367 424 239 72 37 38
325 842 211 105 81 64
327 464 324 61 35 29
355 416 246 67 47 45
360 421 249 68 49 47
348 831 218 100 75 55
367 425 244 64 43 45
360 421 254 78 59 54
181 524 220 139 88 74
362 424 254 72 53 48
340 361 294 114 91 66
367 426 249 68 46 43
344 555 322 55 21 28
460 472 272 184 115 112
227 810 300 50 40 39
368 427 251 69 44 41
200 600 268 55 29 33
282 694 338 129 14 42
362 705 241 72 55 45
368 428 254 70 45 42
372 424 229 92 34 26
342 504 314 70 20 29
370 481 216 74 28 28
377 420 229 102 29 23
375 544 249 55 30 35
374 821 238 87 68 59
342 460 217 52 33 37
348 654 305 149 17 49
365 669 261 58 53 56
378 420 234 101 32 24
351 767 188 70 56 48
326 889 354 51 45 43
376 422 239 85 35 31
374 541 242 45 28 32
397 424 319 135 11 42
297 724 223 69 33 34
369 427 230 88 33 28
369 427 232 84 35 30
378 747 281 126 88 63
382 418 229 92 31 31
382 418 234 93 34 30
382 419 239 98 33 27
228 855 320 143 111 83
372 425 244 74 40 35
344 378 289 108 88 67
377 423 244 86 36 28
403 824 269 71 55 51
372 426 249 70 41 35
372 428 254 64 40 35
377 484 216 71 28 33
312 822 324 61 51 43
374 426 253 66 37 32
392 539 278 74 28 35
377 424 254 66 31 28
382 420 244 90 32 27
230 635 316 141 26 51
382 420 249 81 28 25
212 739 239 142 104 74
380 422 249 78 30 26
380 422 254 66 27 25
336 660 241 71 32 34
353 454 189 49 32 36
231 615 247 156 8 38
357 454 189 100 30 40
264 725 341 168 8 54
360 449 317 117 4 36
203 564 314 155 11 48
321 464 206 73 36 39
297 789 229 72 58 51
297 781 311 52 44 41
327 454 213 100 23 33
325 456 211 60 33 33
325 459 210 41 37 39
328 464 212 67 34 36
280 425 296 62 49 35
179 633 246 162 110 78
332 454 215 100 22 36
250 683 326 42 27 31
382 809 229 86 64 54
337 454 216 114 18 33
365 518 322 71 22 28
336 458 216 111 20 33
357 864 274 87 71 66
318 914 314 65 56 53
337 464 217 67 32 35
351 594 235 118 25 39
321 469 205 57 36 37
322 474 204 44 38 40
324 473 207 53 38 42
323 479 203 69 30 34
337 584 334 128 9 38
327 474 209 71 33 35
404 832 276 82 66 57
362 489 299 38 19 24
333 519 321 70 16 29
472 875 248 97 84 70
326 480 205 111 19 30
212 769 305 155 118 87
329 469 212 72 35 37
278 729 336 168 10 56
336 469 216 76 27 33
330 475 211 99 24 33
319 864 384 53 49 48
332 479 210 110 16 29
252 850 362 132 102 85
336 474 215 53 34 36
337 479 214 77 28 33
319 894 366 51 47 45
286 279 294 98 79 58
351 831 362 51 46 44
350 450 199 65 34 35
257 737 337 126 20 46
333 808 195 79 62 55
351 454 194 81 31 37
350 451 202 61 37 31
349 452 204 96 37 39
257 930 293 88 80 79
313 826 349 40 34 34
350 454 208 88 27 35
252 839 283 169 116 88
322 823 339 42 35 34
417 469 234 143 21 42
353 459 194 84 34 38
351 459 199 69 34 35
