ply
format ascii 1.0
comment Created by Open3D
element vertex 2221
property double x
property double y
property double z
property uchar red
property uchar green
property uchar blue
end_header
331 815 363 132 92 74
350 944 272 59 51 48
280 29 254 64 37 28
354 70 199 129 35 46
234 483 237 142 1 40
416 432 151 121 22 30
252 289 273 154 105 79
379 309 256 123 96 64
331 810 368 126 86 68
257 709 208 97 22 29
299 932 314 36 35 36
286 84 257 128 14 44
400 549 198 105 22 39
455 890 298 79 65 52
233 486 233 143 0 39
335 119 217 120 89 56
331 839 172 60 51 48
347 219 265 117 94 68
346 199 214 118 95 67
359 831 289 50 40 38
253 375 258 118 95 70
336 934 216 76 68 70
388 382 241 98 81 63
281 694 201 80 28 27
271 929 217 65 59 62
263 428 151 154 1 40
251 289 277 154 107 80
347 110 201 144 43 55
348 650 225 50 28 32
395 709 232 83 52 48
233 485 237 139 0 37
444 459 310 98 19 34
233 489 237 142 0 38
342 849 372 170 112 92
416 427 172 108 42 40
233 490 229 142 0 38
368 398 210 93 78 64
239 429 262 95 24 37
314 928 173 87 78 77
350 687 213 92 65 60
406 420 217 90 71 58
234 494 227 142 2 38
372 585 206 188 11 45
329 214 242 107 87 66
301 804 272 195 136 118
290 854 242 139 103 80
380 334 257 121 95 63
272 199 244 123 95 61
233 495 229 146 0 40
312 808 281 191 134 114
331 434 147 122 15 27
255 945 288 186 135 113
253 274 300 128 98 72
233 494 232 146 0 39
393 560 323 172 12 55
248 603 209 160 4 39
375 329 266 127 100 68
341 459 297 106 7 35
346 174 215 129 99 63
233 494 237 146 1 39
327 114 227 136 96 72
361 664 308 65 28 33
271 129 276 116 93 66
399 719 231 87 64 50
321 481 289 30 24 26
279 119 257 114 84 57
390 514 367 161 11 52
234 497 226 146 5 42
402 763 227 44 38 38
234 484 247 134 2 37
233 489 241 143 1 40
249 400 289 147 108 83
266 439 142 158 3 38
234 489 243 141 2 39
287 520 283 91 6 29
366 573 312 43 26 29
440 419 227 119 11 36
329 249 247 103 83 59
321 644 208 108 15 25
401 420 192 89 73 58
261 424 202 66 31 36
235 484 252 141 2 40
255 304 303 135 100 75
349 144 214 126 97 61
247 914 267 107 91 80
315 390 238 79 65 47
236 484 257 157 1 47
441 745 261 85 68 52
237 489 257 160 0 49
310 602 322 59 18 23
316 49 232 95 30 31
361 509 306 102 10 35
372 324 231 101 83 62
299 454 297 60 22 30
281 79 227 121 40 46
291 479 287 53 24 29
243 534 198 146 4 36
234 494 247 132 6 37
276 74 277 121 95 70
323 89 250 102 60 52
162 724 199 136 107 85
352 183 259 118 96 71
369 711 400 132 105 78
286 504 292 105 12 37
251 364 292 127 98 68
356 704 322 141 9 45
235 494 252 154 3 46
328 307 234 98 82 65
380 737 340 102 76 56
349 16 253 108 47 52
412 559 257 187 10 49
349 65 194 107 45 33
348 950 264 53 47 44
237 494 255 161 0 49
350 16 257 108 42 49
402 422 262 79 59 47
480 444 262 81 31 36
233 499 227 147 2 40
350 815 299 69 56 53
305 932 199 89 81 82
151 694 177 107 93 80
334 124 249 113 87 63
441 420 322 123 18 43
274 41 239 112 94 75
492 895 232 105 88 71
351 760 324 85 62 55
398 831 210 64 55 51
321 404 182 96 83 70
294 48 272 124 92 78
287 353 245 95 83 70
339 470 294 118 7 39
233 499 232 142 5 40
336 124 250 115 91 65
203 832 197 114 85 64
451 428 297 136 14 46
329 770 186 44 38 36
351 104 237 117 95 69
352 714 328 89 23 35
448 421 299 122 16 43
189 827 190 104 76 49
233 509 227 74 24 37
303 794 285 61 47 47
419 432 351 70 15 31
254 635 220 107 29 42
234 509 225 115 20 41
248 749 218 134 104 77
233 509 237 59 31 34
305 834 268 153 117 96
233 544 228 92 26 37
374 767 330 135 97 76
422 814 257 68 54 43
284 171 254 106 83 55
275 484 142 62 30 36
329 214 227 118 94 65
233 499 242 56 27 32
388 407 273 72 63 54
328 204 232 114 91 65
306 394 232 94 79 63
267 148 279 113 91 67
248 374 272 119 95 68
351 409 172 92 77 61
337 46 207 122 85 59
396 759 201 70 55 44
385 823 184 70 54 49
270 856 290 119 96 71
233 499 245 43 27 31
405 509 322 91 10 32
233 509 245 93 35 44
329 687 186 78 56 43
417 500 296 88 47 51
424 444 335 113 0 34
371 794 177 66 53 47
336 398 197 92 78 63
328 420 149 76 36 33
251 529 182 129 9 36
234 509 248 67 22 32
362 734 411 161 119 94
361 894 292 41 36 34
239 584 240 69 30 34
399 723 415 174 120 91
339 824 372 157 103 75
367 179 237 114 93 69
391 504 372 123 16 43
338 45 259 112 66 54
237 509 251 133 8 44
261 39 277 124 35 52
246 504 258 149 10 49
271 825 182 187 115 82
351 413 152 90 76 61
251 454 283 37 29 32
246 509 256 133 7 42
373 755 354 171 124 105
276 509 273 85 18 33
361 254 215 131 98 58
284 444 143 81 32 36
246 259 267 145 103 72
263 455 184 97 17 30
355 573 356 89 28 39
476 449 257 59 35 39
373 754 366 170 120 103
281 469 137 54 36 39
166 744 163 181 120 89
244 259 272 140 103 72
292 560 290 36 28 28
323 586 344 54 24 31
448 449 182 112 25 44
420 426 212 88 40 42
255 389 298 144 105 82
265 83 209 147 11 38
247 264 267 147 103 74
233 524 232 92 28 37
281 26 297 131 57 60
347 786 169 71 54 45
241 474 267 47 31 34
252 743 276 188 7 60
260 604 268 109 29 45
366 804 322 175 128 101
346 134 213 130 98 60
341 679 206 88 43 34
288 628 315 128 36 52
351 374 222 94 82 71
392 604 282 105 31 44
250 259 261 144 101 69
274 134 244 116 86 49
404 484 366 142 13 47
251 264 262 146 102 69
416 794 237 52 43 40
318 99 232 123 22 40
249 739 216 107 75 58
253 258 259 141 99 66
295 699 313 44 29 31
319 843 182 66 58 55
429 508 282 107 23 39
266 409 207 82 64 53
321 957 224 89 84 86
256 259 257 140 98 65
383 727 200 66 53 47
252 329 282 134 101 71
408 455 374 172 1 53
292 275 265 99 78 55
444 494 262 73 25 35
300 844 222 187 133 99
331 429 148 118 23 28
351 859 176 73 63 60
257 264 258 141 98 66
374 805 329 175 125 99
370 229 218 122 96 63
254 329 276 127 98 67
269 744 195 90 75 59
241 809 187 176 129 101
367 407 191 92 78 63
375 411 187 94 79 63
254 261 260 143 100 66
380 249 237 119 94 63
376 439 303 72 48 36
386 913 278 100 80 69
248 389 290 141 103 79
289 73 257 118 51 57
331 34 227 105 86 68
191 763 186 165 112 91
293 967 229 84 81 85
417 427 252 64 38 35
279 124 257 112 84 55
292 239 288 121 97 68
311 434 152 84 24 28
252 269 263 147 102 69
244 539 259 81 29 40
231 739 177 92 78 62
242 535 256 113 27 42
262 434 295 116 70 59
403 535 328 186 5 62
250 279 272 155 106 79
186 814 187 142 98 74
256 269 261 144 100 67
245 264 277 137 102 72
394 567 209 186 13 47
296 899 303 160 114 91
246 259 287 126 96 68
266 99 273 114 94 72
396 484 377 95 25 40
336 659 315 122 14 42
267 85 211 146 12 38
248 560 260 114 3 33
251 299 287 136 101 73
245 264 282 135 101 72
318 932 182 88 79 81
399 815 184 79 63 55
414 473 360 174 0 57
246 269 277 143 104 76
271 38 242 111 93 75
409 747 376 193 128 101
261 374 247 109 90 69
321 659 209 99 20 29
427 489 246 97 21 36
323 364 276 81 57 43
247 269 287 135 100 74
418 541 248 93 34 42
356 570 337 47 26 30
276 31 289 138 25 52
369 532 380 185 9 58
395 878 318 55 43 37
416 464 332 112 6 37
248 274 273 151 105 78
342 775 384 105 76 56
241 589 207 144 20 45
331 474 291 82 20 33
412 451 135 184 9 38
336 50 193 123 31 15
282 828 192 164 102 74
361 269 218 130 99 61
418 506 319 130 15 47
249 275 271 154 105 78
271 79 211 146 11 39
410 454 371 166 1 52
342 364 290 129 93 71
252 279 268 152 104 75
331 965 237 85 78 79
331 239 227 123 96 65
380 829 182 58 49 47
418 435 369 126 10 41
441 419 312 99 22 37
343 254 265 106 84 60
255 751 183 97 76 53
326 39 227 75 53 39
253 272 264 149 103 71
438 470 314 28 28 26
330 154 237 107 85 60
332 304 276 71 58 42
261 209 246 126 97 62
267 411 152 108 31 40
254 275 265 149 102 70
429 442 139 178 13 47
252 284 272 154 106 79
248 380 264 113 91 66
447 484 257 161 12 46
264 25 215 126 39 14
417 465 146 169 16 41
146 724 192 159 124 102
179 838 190 116 88 63
327 109 246 116 87 68
254 348 271 126 99 68
388 719 257 61 26 32
393 556 328 57 26 34
448 481 276 201 27 60
351 194 262 117 95 71
333 248 224 128 100 67
423 804 252 58 47 41
253 282 269 152 104 75
274 708 299 132 19 47
255 289 271 151 104 77
381 408 212 96 80 62
426 899 282 91 73 63
158 702 165 107 87 62
385 489 366 46 25 29
247 274 277 148 105 78
299 646 309 72 37 39
424 543 263 99 19 33
271 419 135 134 7 33
376 499 151 171 7 37
278 80 221 141 13 38
243 715 276 96 23 39
412 520 319 66 21 32
416 464 362 150 10 50
314 12 289 99 42 39
322 753 190 57 37 39
247 274 282 144 104 77
288 75 257 126 41 53
247 274 287 135 99 73
272 634 297 74 27 34
373 264 259 124 96 60
249 281 282 148 105 80
266 36 244 112 88 68
401 854 253 55 47 44
351 693 154 74 58 47
261 114 272 112 93 73
249 284 282 150 106 81
380 444 394 128 10 38
411 434 137 126 18 24
412 825 241 61 50 46
247 264 291 129 97 70
248 269 291 132 98 72
390 421 157 94 66 53
315 69 237 107 28 29
249 264 293 128 97 71
376 479 144 138 11 35
216 725 173 92 79 66
286 545 160 61 30 35
372 299 263 125 95 63
251 264 297 126 97 70
340 803 391 193 132 105
410 494 352 179 3 56
414 557 234 79 33 38
376 749 317 79 63 48
371 519 307 97 12 32
329 121 244 113 83 63
252 734 281 181 0 57
264 941 299 176 134 117
253 259 300 121 95 69
256 259 302 119 94 69
267 11 292 95 58 48
367 836 180 67 61 61
285 99 252 128 21 43
345 369 225 91 80 69
399 421 178 80 65 52
342 164 255 112 89 64
249 269 293 130 97 71
247 488 266 168 1 53
382 560 191 170 17 44
288 38 255 102 20 23
321 464 145 63 37 36
329 134 232 113 86 59
271 34 246 107 91 74
252 269 297 129 98 71
329 687 178 75 57 41
336 64 188 102 37 28
380 349 242 102 85 65
248 938 275 188 140 121
253 269 300 127 98 71
349 51 213 108 81 61
376 429 131 102 35 39
248 278 290 130 96 70
249 279 292 129 96 70
372 806 174 78 65 61
340 112 199 167 108 115
327 329 276 73 63 53
286 199 252 109 84 51
154 764 199 176 136 118
380 697 231 64 53 46
244 590 205 54 31 35
252 279 297 126 96 70
336 44 261 111 18 40
384 483 390 51 25 26
255 274 302 126 97 71
393 456 389 161 3 48
288 239 293 120 96 69
250 909 257 147 109 92
382 394 231 100 85 69
290 971 241 96 92 94
283 191 255 107 84 55
255 279 302 125 96 70
401 464 138 78 31 37
328 51 208 116 99 79
275 40 243 106 88 69
403 817 273 60 39 34
250 284 292 129 97 70
248 633 232 155 14 46
393 506 349 85 10 30
274 628 289 53 26 31
250 289 292 130 100 72
265 459 181 115 8 32
248 448 285 96 18 32
308 391 225 92 76 60
359 577 325 44 25 26
252 289 297 127 97 71
399 415 237 64 52 45
356 255 215 130 98 59
268 356 249 101 87 72
288 793 266 75 60 55
255 284 302 124 95 69
261 74 207 123 39 38
356 294 223 88 74 60
231 564 232 114 22 42
253 285 300 125 96 70
266 159 282 111 90 68
316 945 211 94 89 91
331 74 252 118 93 71
400 492 154 51 36 40
253 289 300 129 99 72
291 614 195 129 17 38
296 799 272 164 123 107
337 194 256 109 86 62
389 603 291 89 26 39
251 589 257 98 29 42
346 16 252 106 60 57
296 534 280 74 19 31
355 934 242 79 69 67
255 289 303 128 98 71
382 832 306 140 92 70
350 19 267 106 36 43
252 294 277 149 105 80
428 454 299 86 35 35
394 411 223 98 82 67
284 831 208 66 54 58
366 413 162 91 76 59
354 170 255 116 93 67
356 909 232 66 58 57
416 878 273 72 60 54
254 295 275 149 102 76
251 294 282 144 104 78
386 364 257 115 91 64
253 612 209 90 25 36
297 500 293 89 7 28
275 69 213 131 26 31
268 15 300 97 47 41
448 481 298 68 14 26
251 294 287 136 101 74
341 699 167 75 57 44
330 714 187 57 43 39
353 99 222 112 29 41
254 299 276 137 98 74
261 49 212 119 35 26
410 902 330 87 67 53
392 874 237 73 63 60
256 299 273 139 99 75
344 446 299 118 1 37
393 536 180 142 9 31
255 304 276 125 95 66
336 364 229 85 74 63
253 304 278 128 96 67
268 783 251 79 63 56
251 299 282 136 99 73
406 484 311 69 22 26
251 304 287 136 102 73
248 690 234 111 26 40
271 10 282 91 56 49
341 388 212 95 81 67
310 775 303 82 65 59
329 86 207 136 3 43
303 853 224 152 111 81
255 309 276 119 92 63
277 509 148 51 29 35
386 899 257 80 64 56
369 460 140 167 0 29
361 179 252 115 93 69
255 314 276 118 93 64
253 314 278 126 98 67
397 693 402 111 88 65
255 319 276 121 95 66
249 816 188 172 126 103
303 632 315 137 28 49
291 900 217 94 71 52
347 906 206 58 52 53
253 319 278 129 100 69
333 660 215 90 27 33
252 314 282 132 102 71
255 294 303 131 100 73
258 134 243 121 98 71
326 893 287 92 70 57
252 304 292 137 102 74
329 224 237 111 88 61
314 36 264 103 10 33
252 304 297 135 102 74
181 709 192 80 67 53
253 299 300 129 97 72
238 599 246 70 26 36
246 559 257 121 1 36
296 429 152 97 26 33
354 84 203 140 30 49
145 749 177 175 122 94
390 528 356 96 25 41
400 440 291 78 47 41
255 299 303 131 98 73
405 889 257 93 81 77
266 164 242 130 99 62
397 854 257 50 43 40
249 625 220 121 25 46
317 507 149 154 4 34
253 304 300 135 99 74
405 489 346 55 20 31
283 52 240 86 27 21
171 719 198 152 114 95
261 684 282 139 2 43
318 774 181 54 47 43
252 309 292 136 103 75
238 439 261 126 15 38
383 625 282 143 32 49
252 309 297 137 102 75
377 585 323 64 24 35
253 309 300 136 101 76
402 509 352 183 5 57
356 174 216 127 99 62
446 899 291 74 59 49
174 752 164 174 112 83
248 384 290 138 102 78
279 83 227 131 22 42
301 828 188 72 58 54
346 784 380 125 78 58
252 314 292 138 103 76
357 698 319 146 8 45
253 314 300 139 104 78
254 374 299 141 106 79
184 769 182 163 92 73
408 551 289 103 24 39
267 479 172 58 29 32
255 314 302 134 100 74
253 317 300 139 102 77
283 401 207 106 90 72
287 562 169 79 35 40
255 319 302 136 101 74
306 409 167 98 83 65
316 459 147 66 35 36
232 764 200 121 92 70
270 205 295 113 93 70
409 781 211 55 46 42
255 324 276 125 98 67
292 279 266 94 74 53
271 544 276 110 6 33
253 324 279 130 100 69
420 426 217 86 35 40
253 344 274 126 99 68
413 506 300 84 47 50
430 478 168 81 30 38
253 329 278 131 100 69
316 709 198 111 14 28
260 223 299 111 91 70
405 499 356 93 18 36
205 739 169 136 94 57
364 360 224 90 79 68
336 864 162 96 82 73
355 64 217 117 96 77
357 385 295 126 96 69
272 22 255 105 91 76
249 639 242 159 1 44
252 324 287 140 105 76
257 329 272 114 91 64
311 11 268 127 48 29
371 843 188 62 55 56
281 495 279 55 25 29
254 334 276 129 100 68
332 194 251 101 81 60
254 409 294 149 110 85
318 68 224 128 24 42
485 879 290 90 74 58
438 469 207 168 7 45
401 864 257 74 67 62
253 334 282 134 102 71
325 344 277 74 59 45
312 39 257 88 23 31
476 449 262 58 35 38
253 334 287 137 105 72
256 344 267 117 93 66
368 727 380 139 97 78
342 69 248 111 50 52
276 644 298 96 30 43
241 594 212 164 7 42
329 706 186 63 48 38
281 774 172 102 80 53
438 466 170 184 13 43
360 149 227 113 93 71
253 349 273 125 99 68
253 340 274 127 100 68
321 474 292 47 22 28
372 224 252 117 93 66
186 858 191 183 129 124
253 339 282 132 101 69
380 254 247 119 93 60
281 149 262 108 85 59
253 339 287 133 102 70
313 816 378 139 102 81
203 757 200 175 132 115
330 388 216 88 73 58
296 309 267 88 74 59
253 344 282 129 99 67
350 598 335 52 27 30
396 414 212 97 81 64
337 915 316 37 33 34
253 344 287 130 100 68
356 239 268 123 98 69
363 789 171 73 58 49
361 339 281 117 89 57
291 743 185 92 26 29
281 64 278 131 21 49
334 887 188 67 61 61
380 249 242 120 94 63
253 349 277 125 98 67
274 36 244 107 90 72
362 540 379 180 9 58
252 349 282 124 97 66
281 104 242 121 36 40
388 490 384 35 28 30
280 224 248 119 91 56
252 349 287 126 98 67
329 309 272 70 58 46
323 368 257 70 57 44
243 404 271 134 102 72
262 113 232 144 99 76
242 739 252 174 0 53
428 505 212 180 9 50
407 774 297 135 98 64
253 324 292 145 107 79
346 439 301 89 14 31
253 324 296 145 108 81
246 554 258 114 12 38
238 518 250 132 16 41
428 446 140 184 14 43
296 644 204 151 0 35
391 489 307 83 18 29
262 865 257 133 106 81
275 209 295 114 92 67
456 913 272 87 74 63
341 761 324 66 54 51
194 766 184 174 119 96
286 649 206 138 3 32
396 910 272 65 55 51
295 849 232 167 121 91
250 419 288 145 106 82
425 444 323 72 22 31
366 409 182 93 78 63
330 824 175 55 46 44
348 133 215 124 96 61
249 383 261 114 92 67
390 448 395 175 6 55
253 329 295 142 105 78
407 559 302 173 9 47
266 174 244 130 99 61
253 344 291 130 100 68
406 874 262 81 71 63
434 502 305 190 9 52
254 325 298 142 104 78
365 514 377 43 25 27
324 597 320 49 21 25
281 284 261 90 71 50
306 649 205 118 8 28
425 453 143 186 14 42
272 598 189 114 24 41
260 244 303 117 94 70
256 324 302 140 103 76
371 209 247 115 93 68
292 788 276 82 64 59
256 329 302 139 104 75
266 229 302 114 93 70
356 604 327 142 18 48
366 729 417 162 119 92
336 34 227 117 79 51
405 907 325 75 61 51
258 401 234 101 89 77
156 709 160 113 86 54
346 39 257 128 22 48
288 705 310 41 24 29
381 464 377 82 6 29
254 334 297 136 101 74
365 609 218 48 34 37
373 218 248 115 92 65
256 334 302 134 100 71
357 565 362 92 24 39
241 514 252 136 12 46
278 361 239 98 86 73
253 339 292 134 102 71
316 845 275 171 132 105
307 789 291 83 65 59
297 299 271 93 77 60
254 336 294 136 105 73
253 724 285 162 0 51
366 895 321 42 37 35
254 344 293 130 100 68
328 391 214 87 71 54
333 748 173 51 40 36
311 539 159 42 34 38
368 904 247 68 64 66
289 976 269 67 61 61
321 484 288 47 25 28
285 363 236 99 85 72
382 614 236 59 28 35
316 12 257 109 53 38
364 161 236 113 92 69
266 714 201 87 24 27
252 409 292 147 108 83
346 264 217 135 104 66
314 59 242 90 38 33
254 344 297 128 97 68
499 876 252 95 78 64
331 795 378 118 90 70
356 344 225 89 79 69
252 563 265 156 1 48
254 358 266 122 96 67
388 834 190 56 49 51
256 344 302 128 97 68
340 723 335 56 25 32
351 359 224 87 76 66
351 599 202 159 22 45
360 897 319 43 38 36
366 844 187 59 53 55
253 349 292 127 98 67
412 427 262 71 47 39
321 419 153 58 40 40
395 489 376 44 27 31
254 349 294 127 98 67
243 559 255 151 2 47
344 51 203 124 103 80
201 842 175 102 79 48
361 839 277 41 35 33
302 20 297 158 108 91
256 354 262 117 94 67
467 913 271 106 92 81
361 929 252 66 59 59
257 112 226 145 32 55
253 354 272 122 97 69
184 842 185 121 94 75
284 204 249 113 86 52
364 557 345 31 28 27
228 761 170 143 98 59
313 379 247 88 71 52
253 355 269 123 97 68
423 784 250 61 47 42
285 169 262 107 86 61
499 884 243 106 87 69
254 352 270 124 98 69
327 850 167 69 56 55
253 359 268 122 96 67
261 789 167 139 96 55
284 291 320 107 87 64
316 438 150 108 21 26
386 410 212 96 80 63
252 359 272 120 95 67
336 869 167 81 67 61
276 254 252 96 76 53
342 53 196 95 58 24
268 411 197 48 33 31
290 920 184 83 74 72
252 369 262 119 95 68
403 576 230 191 13 49
311 359 262 97 73 55
254 367 260 120 96 68
417 715 260 62 47 37
352 412 156 89 76 62
252 364 267 119 95 67
286 254 302 117 93 67
250 364 272 117 94 67
260 25 287 130 37 57
251 369 267 116 93 67
398 561 314 41 25 28
340 224 215 133 102 63
249 369 272 117 94 67
255 490 269 110 16 42
459 439 275 100 17 38
365 504 382 50 27 31
334 158 220 122 94 59
249 811 199 160 121 95
286 749 292 80 64 59
250 359 282 122 97 67
251 359 287 123 96 66
321 39 232 75 36 27
266 494 168 126 2 32
355 675 207 75 52 40
482 893 289 85 71 56
324 370 257 70 57 45
329 129 232 119 89 62
313 57 251 103 66 52
248 370 277 122 96 67
355 759 184 52 43 41
346 339 225 84 74 65
366 239 262 121 95 64
384 369 265 116 92 63
426 430 257 65 23 30
250 364 287 125 98 67
303 606 330 63 20 34
251 449 286 94 25 39
282 29 256 60 37 29
248 369 282 124 97 67
307 633 315 131 27 47
350 854 151 99 78 75
326 29 272 137 97 77
318 45 228 58 32 23
258 140 275 107 89 70
422 499 318 131 16 43
266 269 310 117 93 67
316 413 156 103 44 39
336 385 217 94 81 66
249 367 282 123 97 67
252 764 207 105 82 55
251 444 288 51 29 33
356 634 311 179 6 57
386 740 334 94 71 52
249 369 287 127 98 68
240 784 203 136 103 74
247 379 272 121 96 68
248 379 267 116 93 67
326 104 247 116 87 68
248 384 263 113 91 67
295 869 231 134 102 75
346 424 296 107 82 59
331 234 252 99 80 59
353 124 243 111 90 66
247 384 267 118 94 68
346 674 317 61 22 30
305 483 296 84 9 27
266 639 212 72 27 33
351 169 257 117 94 70
264 435 147 158 3 43
291 965 227 84 82 85
314 33 245 84 34 25
281 351 244 97 83 69
336 594 193 87 31 40
157 769 200 172 133 117
246 384 272 124 98 69
251 374 262 117 93 68
249 374 267 114 92 67
423 864 265 94 82 74
345 27 272 133 76 70
320 878 356 133 88 77
276 14 263 89 77 64
296 619 322 39 28 31
409 444 356 106 0 32
337 174 218 129 100 63
334 111 206 144 27 42
257 234 300 111 90 69
249 373 271 116 94 68
379 711 305 147 33 56
317 810 377 128 103 82
439 484 310 130 11 42
326 17 245 90 78 66
318 89 228 116 17 36
269 951 225 71 66 67
250 379 262 114 92 67
301 393 216 102 87 71
285 74 272 121 23 44
387 479 368 38 25 26
346 694 147 91 66 51
249 377 265 113 91 67
379 230 234 118 95 68
326 44 222 87 61 46
375 509 370 45 22 31
247 374 282 127 99 69
279 94 234 115 32 38
411 799 212 87 67 58
247 379 277 126 99 68
248 914 258 138 114 92
338 415 290 108 78 60
276 109 237 119 74 58
246 384 277 129 100 69
337 149 250 106 82 58
356 759 386 118 75 56
247 379 282 129 99 70
216 859 161 104 84 63
334 533 294 113 9 36
334 362 230 84 72 61
351 547 305 113 0 33
246 384 282 132 100 71
288 49 251 122 29 35
233 583 226 164 11 51
385 411 203 95 80 64
248 371 274 120 96 68
311 444 308 72 24 30
391 405 232 100 85 69
248 370 286 127 99 68
332 249 256 95 78 60
192 814 203 121 81 60
266 820 207 172 128 101
331 289 267 70 61 53
360 406 188 92 77 63
331 525 155 169 1 36
401 750 256 47 37 34
175 754 196 139 97 80
253 355 296 124 95 65
295 29 263 122 34 32
246 539 261 61 29 32
377 808 331 175 126 100
253 359 296 128 97 67
379 235 241 122 97 69
420 459 337 75 12 29
448 450 172 89 33 40
291 564 291 52 28 30
486 873 296 85 71 55
398 476 359 77 16 32
286 603 189 181 4 38
314 761 314 81 64 59
256 354 302 130 97 70
256 359 302 134 100 73
305 414 292 66 51 35
355 59 222 111 21 38
324 308 253 77 66 55
254 552 264 112 1 36
258 269 305 122 96 71
308 451 149 96 25 35
265 14 216 123 46 15
359 160 219 108 88 67
410 464 356 52 24 24
254 364 299 134 99 73
244 811 180 195 132 100
447 481 272 172 14 47
250 506 259 85 14 34
256 364 302 139 103 77
334 867 149 80 61 45
271 394 227 95 84 73
321 12 262 111 60 48
360 317 224 84 73 61
325 404 262 83 56 45
254 369 299 138 103 77
341 124 212 141 101 65
352 744 388 118 87 67
187 748 195 167 117 101
323 354 272 73 57 42
466 449 288 141 11 45
256 369 302 141 104 78
241 779 203 126 94 66
293 504 145 129 3 27
413 800 278 69 51 43
250 374 292 136 103 75
377 530 304 99 4 32
315 59 237 93 32 33
252 374 297 140 105 78
372 319 231 102 83 62
328 108 218 132 60 53
318 59 224 103 44 35
398 596 273 171 14 48
257 374 301 143 106 81
354 878 202 58 51 53
275 65 214 104 37 26
271 584 183 156 13 41
286 959 222 84 79 82
351 274 218 132 99 63
250 379 292 139 104 77
171 713 162 98 82 63
285 188 253 106 83 56
252 379 296 142 106 80
343 359 290 132 94 72
312 29 248 95 38 32
155 724 161 138 99 63
250 384 292 140 104 79
422 437 273 67 38 37
252 384 296 141 104 80
247 389 262 113 91 68
345 69 188 116 24 26
317 886 175 81 68 66
245 549 196 143 1 35
281 49 283 125 98 73
242 808 192 165 121 95
354 577 330 44 23 32
244 404 273 135 104 73
353 529 305 108 3 34
246 394 262 115 93 68
378 337 240 104 86 66
356 214 212 123 96 62
265 369 245 104 87 70
252 559 188 131 18 41
471 434 287 151 11 47
394 706 227 70 36 36
243 400 267 125 98 68
261 13 287 90 47 42
244 394 272 128 100 70
244 399 272 131 102 71
342 930 220 72 65 66
367 444 134 61 38 40
394 735 282 122 20 42
266 154 241 133 101 63
381 494 305 90 15 31
340 194 258 113 90 64
245 389 277 130 100 70
246 389 282 135 102 74
335 59 256 132 103 79
265 429 192 47 34 37
253 555 266 126 10 39
433 862 264 89 75 68
261 824 182 186 123 89
441 452 287 112 18 33
246 394 282 137 102 74
361 523 159 172 7 40
330 164 227 112 88 60
346 684 191 73 50 42
400 594 267 130 22 45
262 39 213 123 42 28
247 394 287 142 105 78
342 834 352 168 116 96
247 399 287 143 106 80
330 499 288 77 23 33
429 488 231 95 25 40
261 64 272 117 26 45
266 47 226 112 91 70
324 863 160 102 84 70
249 702 225 90 26 37
243 430 285 48 28 33
282 54 237 76 36 26
290 404 301 124 89 70
243 404 262 123 98 68
266 239 249 127 95 58
311 404 182 102 87 70
243 406 258 117 94 68
291 398 207 106 91 75
431 479 317 112 18 40
335 234 221 128 100 66
306 894 178 87 74 74
399 498 366 63 20 31
243 404 267 129 101 70
354 919 233 73 63 61
340 542 164 171 14 43
243 704 252 114 22 42
315 69 247 104 26 42
358 746 186 50 45 43
335 105 250 118 93 65
250 474 274 69 30 35
262 249 306 118 94 69
331 592 309 92 6 33
271 411 147 98 60 48
268 925 223 66 59 62
459 467 268 121 19 44
242 409 267 132 104 73
243 414 272 134 101 72
169 825 203 194 150 135
294 299 311 116 88 60
244 404 277 137 105 74
286 543 158 70 30 35
247 409 286 145 107 81
243 410 275 137 104 74
243 414 275 135 102 74
346 840 273 153 114 89
147 764 192 185 135 115
326 759 188 47 40 40
392 479 363 29 28 27
250 389 292 143 105 81
371 589 207 187 12 45
251 399 292 146 107 82
276 314 328 127 94 70
256 394 297 148 108 85
283 219 250 114 86 52
256 399 297 150 109 85
251 404 292 147 108 83
328 290 257 72 62 51
379 723 360 104 81 55
303 294 292 111 88 63
266 169 285 111 91 69
372 600 319 170 7 53
330 159 227 113 89 59
311 434 310 118 11 38
249 410 289 145 107 81
327 704 187 59 43 37
293 258 293 120 95 67
246 774 212 148 108 79
253 402 295 147 107 84
328 175 236 105 85 61
407 814 322 192 126 96
277 119 247 108 82 51
299 281 277 92 75 57
254 406 294 149 110 84
367 789 326 150 108 80
283 928 199 78 68 68
321 464 296 85 12 30
346 700 326 75 19 30
384 513 376 132 16 47
370 859 198 62 55 55
333 87 193 143 9 41
271 866 249 120 85 35
272 279 315 101 81 60
326 534 158 166 5 36
405 769 277 112 80 56
276 824 182 189 117 89
279 46 239 84 47 38
240 714 252 136 7 43
249 414 289 145 107 82
402 509 311 73 18 29
358 158 249 114 92 67
252 414 291 148 109 85
280 44 242 78 41 28
301 10 287 104 54 52
239 418 258 91 28 42
360 904 227 70 63 64
264 272 309 117 92 66
341 754 173 65 51 46
279 69 218 120 25 31
239 425 258 111 21 40
238 420 260 74 26 32
262 396 234 96 83 72
261 524 266 110 8 35
344 796 309 72 59 56
386 449 395 164 8 51
239 424 262 78 25 34
327 939 212 81 75 77
176 819 187 148 102 76
328 289 239 100 83 65
397 835 227 68 58 57
258 41 244 101 82 71
260 299 308 132 96 73
239 424 267 125 13 40
411 544 207 188 15 46
186 734 164 166 109 76
307 21 283 107 42 47
272 27 295 150 14 54
240 429 267 70 22 33
262 74 271 116 35 48
351 794 382 172 113 88
239 434 262 116 16 37
248 705 223 64 28 32
341 364 228 87 77 67
351 144 251 113 91 65
294 480 289 57 23 30
321 569 303 107 1 32
398 495 368 38 26 27
239 439 263 107 17 37
271 11 297 101 63 51
252 419 290 150 109 86
379 240 246 121 96 65
321 104 232 148 80 69
401 713 366 105 86 65
267 504 163 128 6 30
240 434 267 61 29 34
479 443 276 56 21 32
329 214 247 101 82 60
437 439 241 68 28 36
239 439 267 96 20 36
440 416 235 109 14 33
326 412 160 84 69 52
438 475 314 45 28 28
342 149 214 133 100 61
365 694 193 68 51 41
263 14 215 123 46 15
328 214 232 115 92 66
281 405 202 103 88 72
368 659 240 90 21 31
357 714 167 86 61 49
291 569 293 48 27 30
447 899 279 102 85 70
237 449 262 89 24 36
307 14 288 90 53 47
376 844 268 27 25 24
305 464 305 83 20 32
314 773 174 54 48 46
238 445 266 131 9 38
335 104 201 132 15 39
262 604 271 113 17 42
381 844 207 59 51 52
239 443 268 132 7 37
422 794 267 57 45 39
341 99 195 118 79 70
238 449 267 137 9 38
239 447 269 143 8 38
379 282 234 115 88 55
333 104 250 117 94 68
333 139 246 109 83 62
245 754 242 167 2 51
239 449 272 103 21 39
242 419 272 107 61 49
355 124 232 114 93 70
253 654 257 132 6 42
240 424 272 82 21 34
355 69 217 111 19 39
372 760 391 155 96 70
377 229 242 120 96 69
346 874 182 65 58 57
251 489 268 166 3 52
425 504 316 151 8 47
331 879 167 90 77 72
243 419 276 113 87 64
241 434 277 109 21 37
337 803 300 70 58 55
271 449 172 137 2 37
316 935 166 91 83 85
271 199 293 111 90 68
410 569 281 176 6 55
386 504 377 163 9 52
290 69 257 101 58 51
299 22 300 169 111 94
430 882 269 74 60 47
351 899 302 34 31 32
389 499 360 38 25 27
241 424 277 67 33 33
400 760 307 98 77 54
271 329 322 141 96 78
148 736 195 167 130 109
324 12 296 144 28 58
348 931 309 65 52 47
244 419 278 129 99 73
258 18 290 99 19 34
365 773 396 198 134 102
242 425 281 92 48 41
268 52 216 98 68 40
362 224 263 121 97 70
431 428 207 91 31 35
361 853 192 58 53 55
245 419 282 135 102 77
276 89 275 126 18 46
419 426 246 65 31 33
244 427 284 90 54 43
296 589 298 121 8 39
284 79 242 132 21 42
345 74 188 133 22 33
362 759 188 78 58 45
340 369 289 127 90 70
246 429 287 58 40 35
171 753 164 179 116 87
271 20 257 102 88 74
414 798 280 82 57 45
275 689 294 33 27 30
316 699 328 97 13 33
250 424 288 129 96 74
441 882 246 104 85 71
347 109 212 115 82 62
314 49 242 94 24 30
386 694 423 142 109 86
144 709 189 155 121 98
240 434 272 59 26 30
291 419 151 121 13 28
348 124 215 116 91 62
321 834 387 176 137 118
259 654 274 154 3 48
242 434 282 64 30 34
186 847 205 175 124 119
418 535 211 46 31 36
332 214 252 100 81 60
242 439 282 60 27 34
373 731 362 134 100 80
244 440 284 80 31 38
373 484 390 112 17 39
241 444 277 101 18 38
397 432 131 93 79 59
355 174 256 116 94 68
414 472 337 38 25 29
363 158 232 116 96 73
419 489 337 180 0 58
388 699 212 57 45 38
327 79 197 141 4 42
429 463 336 47 25 30
431 428 202 95 22 34
273 501 154 148 2 38
338 649 314 166 9 52
241 449 277 98 27 40
354 517 154 168 7 35
379 284 237 117 90 57
260 954 292 49 44 44
224 757 200 125 98 76
243 448 280 103 39 50
250 614 252 80 28 38
245 444 283 73 28 35
284 402 205 108 91 73
310 344 282 103 75 57
279 119 262 116 86 61
296 874 296 126 97 70
286 74 247 108 81 65
211 844 193 125 90 81
281 751 184 94 76 55
276 34 248 100 84 67
300 319 307 113 85 57
247 444 286 37 28 30
256 419 293 153 111 88
382 514 378 69 22 34
256 424 293 148 107 86
372 654 252 129 14 38
249 429 289 90 68 53
340 568 179 65 32 33
391 435 377 89 23 35
365 689 311 131 18 45
388 797 196 72 57 52
251 429 290 99 72 57
334 329 230 83 72 62
329 86 210 130 1 37
374 761 364 169 116 95
263 20 214 127 39 14
361 249 214 132 99 58
353 84 229 111 17 41
385 837 196 54 48 49
378 334 263 126 99 68
334 224 220 126 99 66
321 564 172 85 28 37
325 864 366 117 61 57
346 447 139 140 2 28
252 439 291 77 31 38
374 211 240 117 94 68
381 832 173 67 58 52
306 961 299 78 69 65
244 766 200 109 82 57
329 293 236 100 83 66
375 690 203 67 47 39
417 894 277 75 61 55
261 169 243 132 101 62
354 53 231 95 66 52
278 121 264 114 84 61
382 549 347 100 34 44
256 434 293 126 35 47
400 415 232 73 59 49
436 869 247 95 81 71
281 24 256 81 47 34
156 693 177 109 95 82
253 442 290 30 24 29
311 904 182 86 75 77
363 712 319 143 10 46
331 244 227 125 98 65
341 59 252 114 88 68
252 689 222 49 33 38
326 509 287 59 25 29
319 71 225 131 20 44
292 754 297 85 68 61
350 809 173 79 60 47
307 334 267 84 70 56
445 747 263 74 56 40
301 405 182 101 86 69
256 443 290 78 28 37
369 587 330 114 26 41
237 454 262 83 21 34
275 388 231 96 85 74
238 454 267 135 17 43
221 884 166 119 77 66
272 639 296 83 22 36
351 429 138 134 12 31
328 179 232 108 86 62
351 649 310 144 14 47
316 474 145 84 33 35
257 778 241 66 55 51
358 781 394 197 132 104
238 452 270 134 23 50
346 764 403 176 131 108
512 902 248 110 90 73
191 719 166 91 76 59
339 927 325 71 63 59
240 454 272 113 24 43
404 852 238 54 48 49
341 284 272 83 68 52
336 79 187 134 27 40
278 58 225 86 45 33
352 875 196 58 53 53
170 705 173 96 82 67
351 459 303 47 26 28
287 454 146 92 27 32
236 459 262 112 17 36
150 749 194 171 130 113
434 772 275 67 50 39
457 429 293 102 15 37
276 349 248 96 84 71
341 392 206 94 79 65
206 884 173 120 68 66
380 489 371 47 21 27
239 464 269 75 28 37
233 544 232 84 25 35
297 269 277 99 79 56
324 360 246 68 59 50
244 734 232 108 19 41
390 399 262 83 70 58
399 469 380 146 9 48
426 427 247 65 21 28
281 863 252 113 84 43
240 479 263 51 24 31
367 555 343 30 28 30
242 454 276 137 24 49
266 14 262 91 76 64
244 450 279 52 25 30
480 917 276 94 81 71
371 494 307 96 9 34
276 124 247 114 86 52
247 454 281 35 29 32
373 706 379 112 79 54
487 879 288 92 77 61
351 369 292 128 96 68
367 194 221 113 91 66
243 458 275 107 23 40
381 489 147 99 33 42
246 459 277 79 29 37
267 185 245 129 99 61
294 229 267 104 82 56
376 454 392 126 7 37
446 748 253 99 71 49
244 465 274 81 23 35
246 469 273 84 32 41
253 453 285 32 29 33
256 454 286 55 30 33
295 254 272 101 80 56
306 934 202 86 77 78
398 446 389 169 1 49
308 342 267 75 63 52
366 234 262 121 95 66
256 479 276 156 9 51
286 383 225 102 89 75
385 404 277 75 64 54
328 809 174 56 47 41
254 456 284 80 30 38
321 69 212 107 45 44
411 769 342 171 115 82
250 464 278 131 23 48
265 419 197 58 36 38
336 169 218 128 99 62
272 459 157 115 16 37
248 458 280 45 28 33
290 194 262 106 85 62
177 803 184 164 113 86
251 459 281 76 27 36
301 594 186 179 4 37
402 449 383 172 1 54
276 22 255 102 87 72
380 519 376 56 25 31
288 332 255 87 75 62
442 495 250 89 22 34
270 112 227 147 69 62
252 463 280 154 18 51
303 387 235 98 83 68
360 748 325 77 39 37
242 468 270 56 30 32
261 97 214 120 80 70
366 434 133 84 39 43
250 934 257 178 137 115
341 809 382 191 127 98
386 424 292 67 57 45
256 934 242 70 63 60
249 940 267 179 137 115
335 850 163 91 71 64
275 245 305 119 95 67
439 473 187 190 11 52
310 349 267 80 65 50
336 214 256 107 86 63
332 109 207 137 22 44
246 759 171 109 84 52
243 472 270 85 32 38
361 854 187 53 47 51
275 401 219 103 90 76
281 499 141 154 6 32
446 754 267 78 58 45
242 479 266 29 29 32
376 675 222 68 54 42
266 364 246 102 87 71
336 445 299 79 20 32
244 475 269 60 28 33
309 335 286 109 78 58
384 710 291 143 2 44
334 154 220 123 95 61
246 474 271 58 30 33
363 630 230 46 27 31
400 514 309 71 21 32
275 99 227 126 30 43
381 259 242 120 93 60
466 430 282 135 19 43
245 479 268 109 27 43
429 503 211 178 9 47
293 50 261 126 26 47
248 468 275 116 34 50
296 319 262 82 70 57
251 469 277 72 27 34
212 732 194 105 85 64
290 380 228 105 91 77
354 62 230 111 9 39
375 509 386 157 8 49
376 384 287 114 90 64
430 885 276 76 59 52
252 474 276 89 33 42
387 422 142 93 76 58
256 474 277 64 28 33
447 434 197 149 8 45
274 84 218 145 11 39
318 83 245 108 77 64
392 399 247 79 68 57
323 349 242 72 62 53
445 426 192 131 17 38
306 479 147 88 31 37
253 477 275 151 37 60
238 483 260 164 2 50
276 411 143 100 80 54
376 394 222 97 83 68
341 749 173 62 48 42
278 782 265 80 63 56
269 484 166 125 6 32
313 374 252 95 75 53
354 782 170 63 50 42
336 844 343 145 93 86
335 179 221 127 99 64
274 78 214 144 10 38
241 484 262 134 12 47
151 769 197 185 140 122
408 499 322 82 18 33
261 499 267 82 26 36
411 878 282 64 51 46
336 789 396 184 134 114
376 644 277 94 22 36
240 494 258 165 0 51
283 400 218 105 91 75
370 497 149 165 4 31
243 483 265 51 20 31
271 417 134 137 10 37
193 874 164 171 118 102
386 459 304 76 16 26
377 496 150 176 6 36
396 534 317 96 9 31
246 484 267 149 15 51
311 794 178 58 50 48
380 504 366 39 25 29
244 486 264 167 5 54
350 838 168 97 77 62
242 493 260 167 0 52
332 17 246 94 81 67
246 494 262 159 5 50
296 39 277 127 19 47
207 773 178 219 146 117
338 239 260 103 83 61
271 154 242 124 93 55
251 484 271 112 19 42
276 826 197 188 123 89
341 954 277 63 59 59
340 499 294 71 19 33
334 657 214 68 30 33
400 769 204 70 54 45
243 744 247 168 0 52
318 399 262 67 51 36
263 767 260 85 68 62
256 489 271 64 29 35
432 729 244 76 57 52
378 679 257 100 18 35
352 144 216 121 96 64
448 446 184 126 14 41
245 500 259 166 4 52
290 759 288 82 66 60
340 858 167 87 71 62
251 499 263 71 27 36
378 693 251 95 24 37
288 29 260 67 40 32
251 504 261 95 29 40
342 264 266 92 74 53
301 505 150 123 17 36
261 49 222 82 65 51
424 473 342 71 25 36
255 504 263 59 30 33
326 511 150 122 36 47
264 31 284 116 51 50
171 819 188 155 107 82
402 549 317 80 22 34
379 627 295 91 15 29
324 922 314 35 33 33
166 769 203 156 120 103
324 349 245 70 61 51
368 412 299 96 78 58
252 498 265 128 18 46
348 866 190 65 59 60
337 234 218 132 102 65
353 59 233 120 43 52
422 449 322 63 25 30
386 909 318 65 53 43
384 351 256 114 90 62
272 48 231 113 95 78
273 22 300 107 79 57
256 499 266 82 27 37
336 409 167 92 78 62
456 459 296 160 3 51
338 570 365 90 9 31
371 474 307 100 11 32
271 474 280 62 28 33
361 149 232 114 93 71
334 111 214 132 91 68
370 416 144 87 71 55
251 509 258 133 9 44
381 354 242 101 84 66
283 782 270 80 63 58
256 509 262 54 25 30
409 438 381 49 27 30
330 31 229 98 85 70
194 716 190 82 69 55
383 530 348 76 17 34
263 14 214 123 46 15
291 10 307 130 33 51
277 114 247 110 79 51
430 494 222 168 9 45
356 539 166 152 14 39
265 14 213 123 46 15
338 234 260 106 85 62
318 73 250 110 5 37
396 797 345 191 130 100
263 19 215 126 41 14
372 580 201 190 12 45
362 199 258 119 96 69
259 619 264 74 29 35
263 28 213 125 42 22
264 18 214 126 41 14
303 500 150 60 28 33
424 517 236 160 9 42
389 837 192 54 47 49
455 474 292 84 19 33
341 339 288 127 90 68
255 574 191 155 2 35
434 484 315 150 13 47
271 10 287 94 57 48
389 572 320 107 23 37
276 59 222 87 48 29
477 449 267 135 28 49
379 234 232 119 95 66
406 794 204 87 66 53
262 464 183 119 18 32
265 18 215 125 43 15
325 649 209 104 14 27
364 692 224 65 54 47
488 892 240 103 88 74
249 552 259 93 15 36
265 24 213 127 39 14
286 174 267 111 88 61
251 749 267 76 34 41
331 114 222 121 87 58
266 218 299 113 93 71
326 499 146 93 27 38
341 639 315 179 8 56
321 499 147 148 5 32
265 29 213 124 43 25
310 374 242 93 75 54
143 700 169 116 93 66
312 39 252 91 34 35
402 560 211 59 26 33
186 726 165 131 94 56
331 13 291 152 33 62
271 40 238 113 96 79
260 23 256 100 81 70
294 756 299 84 67 60
262 25 253 102 84 70
258 30 253 98 83 68
266 28 251 106 85 66
397 514 358 59 24 30
322 877 365 173 122 110
271 28 250 103 89 73
243 588 204 94 17 29
353 109 227 107 86 63
282 334 254 89 78 66
416 509 292 87 47 50
271 30 249 104 90 75
373 575 334 71 21 32
425 489 287 88 48 52
466 869 289 65 49 38
276 25 253 100 86 71
315 839 377 179 119 110
449 483 287 204 15 53
396 428 137 101 76 56
450 434 192 157 11 48
351 609 328 67 24 31
426 431 162 110 16 31
216 849 172 126 94 76
274 31 249 104 88 71
195 727 164 115 86 50
305 389 295 104 75 55
279 26 254 86 70 51
298 339 314 122 89 63
176 784 203 139 100 82
432 480 283 88 47 52
409 572 242 171 12 51
263 36 213 123 43 29
168 822 205 186 146 133
436 449 318 110 19 40
319 24 245 93 34 32
288 412 150 108 53 26
271 734 291 179 0 56
380 509 381 178 7 56
262 39 216 120 45 30
321 678 319 133 9 41
404 832 275 40 33 32
254 673 226 96 32 41
276 823 212 58 47 45
262 44 213 120 42 29
265 34 213 123 44 29
274 129 244 118 86 51
296 10 297 124 44 56
270 182 244 129 98 60
334 96 200 131 6 40
199 825 201 111 70 49
285 89 252 104 63 51
354 119 237 114 93 70
286 804 257 86 68 62
318 933 177 89 82 83
281 408 162 96 61 51
277 804 241 74 59 55
265 39 212 124 41 27
435 429 227 94 19 34
296 414 153 133 7 24
257 434 203 111 12 31
406 754 372 195 127 101
329 69 190 126 25 32
252 589 198 44 32 37
287 69 247 104 75 61
441 444 312 101 15 37
265 44 216 119 48 32
259 94 269 109 19 41
373 254 220 129 98 59
326 324 237 76 65 55
266 49 217 112 70 41
266 48 222 108 87 65
411 714 232 92 62 52
321 410 162 84 71 58
301 469 148 47 36 38
351 411 158 90 76 61
332 445 299 72 22 32
258 50 214 100 43 34
438 500 269 166 16 53
406 849 252 66 58 52
258 51 223 69 58 48
390 874 272 41 36 34
296 746 184 88 29 29
381 834 302 127 84 63
312 34 247 103 32 30
336 605 201 62 34 37
316 619 326 134 26 48
431 439 331 128 7 41
271 229 247 127 96 60
266 204 295 112 92 71
368 550 364 86 23 35
261 59 209 113 24 21
361 408 182 92 77 63
351 24 262 116 37 48
351 104 202 129 25 42
266 54 212 108 27 20
296 30 287 142 61 70
351 234 212 130 100 61
185 706 182 93 79 64
293 901 213 79 61 49
461 439 257 89 10 36
269 56 214 85 46 24
304 435 293 60 25 27
269 51 218 115 99 80
280 94 237 113 43 41
271 50 222 116 100 83
292 889 228 97 77 54
397 904 312 55 46 40
321 809 392 174 140 121
273 53 221 118 99 80
266 59 211 102 29 23
280 434 138 62 40 40
311 768 181 53 47 46
304 359 301 122 87 67
458 466 246 200 25 59
270 59 213 85 34 22
379 254 228 125 97 60
179 769 195 143 93 72
281 30 289 121 67 61
272 59 216 84 43 24
271 64 212 99 34 26
370 888 279 34 32 33
321 478 290 34 25 27
314 385 243 81 66 47
268 91 215 148 14 42
296 344 253 89 77 64
243 798 205 160 119 91
303 326 258 93 77 61
375 659 282 66 30 35
158 754 200 160 124 107
258 416 209 40 38 43
308 20 254 133 35 24
276 64 217 92 33 20
265 74 273 118 16 44
279 65 218 108 34 28
279 60 224 94 34 21
411 915 282 74 63 56
321 819 390 198 153 134
294 249 263 100 79 55
377 299 257 123 95 61
278 62 220 90 31 14
471 906 279 115 98 80
406 494 312 58 22 28
311 604 193 180 4 37
282 104 252 129 83 68
325 770 313 75 61 57
279 64 222 103 29 27
374 229 251 117 93 64
332 94 202 129 7 40
261 48 227 95 73 57
251 934 287 184 139 121
385 394 233 104 89 74
263 46 228 108 76 54
258 46 238 100 79 67
266 44 232 118 81 57
336 511 150 140 18 41
405 478 148 88 34 41
395 752 385 189 122 95
347 99 243 112 85 63
305 725 189 99 23 26
316 408 167 91 77 61
265 42 236 120 78 54
357 676 188 84 63 58
341 409 167 92 77 61
294 898 216 94 72 58
272 42 236 112 95 78
376 415 167 90 76 61
466 888 278 109 88 63
406 479 367 175 3 55
275 89 222 142 14 40
281 464 137 71 36 38
266 19 298 110 33 48
373 208 239 119 96 71
259 18 261 96 71 61
266 859 291 147 117 94
451 439 177 106 26 40
349 154 214 127 97 61
204 771 180 223 151 125
261 34 247 107 85 66
267 444 151 97 13 36
325 59 202 81 41 30
440 469 192 182 9 51
260 38 246 104 84 67
324 592 330 42 27 28
259 42 241 102 78 63
266 619 202 86 33 39
271 36 244 110 93 75
307 884 177 85 74 73
201 768 173 215 140 110
315 473 295 91 7 29
365 512 154 154 4 35
285 38 285 135 16 50
336 784 382 109 83 63
257 50 227 84 70 60
368 738 415 168 121 94
286 224 253 111 84 51
274 46 234 111 95 79
386 421 147 92 75 58
250 609 252 124 24 45
370 489 388 68 24 32
341 79 187 130 25 38
281 406 192 90 76 62
275 49 232 108 89 70
280 49 238 83 39 29
281 368 315 156 110 90
281 40 248 80 37 29
303 444 305 88 24 36
353 58 211 110 35 41
278 33 250 75 54 39
323 306 250 81 71 60
314 827 194 54 44 42
464 863 291 83 68 53
269 434 182 53 34 36
249 934 261 180 138 116
242 593 208 99 24 41
341 229 262 111 87 63
281 34 252 59 38 31
305 14 292 124 63 64
493 901 257 106 87 72
379 345 239 100 83 65
383 374 237 94 80 66
327 739 187 51 38 38
336 404 182 91 77 63
340 855 162 109 85 68
381 809 333 172 122 97
366 842 272 34 30 29
277 43 241 90 67 50
358 576 328 59 22 32
436 430 252 72 19 29
331 24 237 100 81 65
341 614 208 133 22 40
281 84 237 113 45 46
282 43 246 76 43 31
283 32 255 55 43 30
396 499 308 63 23 28
258 265 305 119 93 68
330 139 232 112 87 60
346 329 225 83 73 64
378 294 252 122 95 62
301 539 283 69 21 30
402 514 332 76 21 35
331 299 272 70 59 48
287 34 256 88 34 28
370 734 377 144 100 83
345 114 212 120 90 59
262 914 238 114 91 74
301 960 303 74 68 66
331 419 148 95 36 30
348 687 211 91 60 54
376 704 196 68 53 45
326 839 274 174 134 109
285 35 254 78 36 28
258 15 286 89 62 53
286 39 252 98 29 23
340 164 254 109 86 61
431 434 152 114 17 27
289 429 149 61 36 37
376 249 252 119 93 61
186 852 200 197 143 138
266 813 216 124 96 81
282 49 241 84 37 24
266 444 147 116 15 38
276 424 299 148 105 85
338 842 164 84 66 56
285 44 248 77 48 33
181 845 183 100 81 60
363 178 220 110 89 65
275 624 288 132 14 44
354 59 230 120 38 48
360 922 301 66 54 49
328 124 241 118 86 67
261 94 213 138 32 46
331 600 196 84 28 39
461 459 292 166 1 52
286 49 247 101 36 30
284 41 249 96 36 32
318 860 374 156 94 86
304 434 302 119 23 41
322 55 212 80 64 50
308 657 205 114 18 26
386 420 152 91 73 57
431 855 260 104 91 81
287 44 251 130 41 37
302 894 299 153 112 88
402 418 217 94 78 63
312 728 190 98 21 26
341 294 277 94 75 53
347 37 230 96 71 51
274 51 228 115 97 80
495 894 259 115 89 68
389 852 214 72 59 56
276 129 247 114 85 52
276 54 227 102 82 63
292 401 198 106 90 73
351 697 148 93 65 48
277 52 231 84 55 36
364 180 250 118 96 71
263 418 155 154 5 43
185 804 184 147 99 73
340 144 215 133 101 63
437 444 241 78 33 33
279 51 234 85 37 37
481 869 302 79 61 45
280 59 227 91 43 29
312 874 283 144 102 79
282 64 232 89 48 39
293 234 260 105 82 53
341 464 297 126 1 39
283 64 236 84 43 37
281 329 256 88 76 64
407 554 307 184 9 55
284 64 238 100 29 34
271 184 288 113 92 69
409 421 219 87 64 54
286 54 247 86 39 35
314 400 280 69 51 33
346 319 286 126 88 67
362 169 247 116 94 70
272 885 301 134 103 78
288 54 252 114 32 38
306 739 187 65 31 38
267 635 287 69 23 31
353 936 289 69 60 55
335 134 248 112 85 62
282 189 251 108 84 53
348 860 359 184 125 110
328 31 229 102 84 65
252 909 253 164 121 100
431 735 252 73 56 43
440 439 217 121 21 41
285 59 242 92 33 34
504 892 292 101 82 62
310 354 277 100 70 54
306 509 151 138 12 37
262 34 281 114 41 49
285 64 242 106 31 34
385 465 305 74 17 26
343 382 220 97 85 74
287 64 247 115 38 44
322 417 283 57 45 33
316 13 252 110 57 40
447 444 192 161 8 46
323 372 264 74 56 45
432 529 267 173 12 50
335 149 248 108 85 60
329 194 226 122 97 69
365 710 188 65 51 44
395 434 291 72 54 44
336 114 212 130 86 62
321 13 252 103 69 47
156 744 168 177 119 87
368 294 225 97 81 63
401 504 342 85 18 34
307 24 257 125 38 30
433 505 297 52 29 35
311 19 252 117 26 23
289 382 310 145 101 85
440 469 182 183 10 48
336 89 250 112 27 43
441 854 253 95 84 76
348 35 258 127 15 45
423 524 217 103 32 43
136 709 182 179 128 109
332 89 197 137 6 40
284 230 295 118 94 68
361 484 306 40 25 28
441 429 337 95 26 38
426 464 152 53 32 36
308 24 254 117 35 32
426 509 222 168 8 45
402 435 368 38 26 30
289 49 254 118 30 36
246 764 171 114 87 50
446 433 252 75 19 30
333 294 229 112 92 70
257 129 243 118 95 70
256 549 267 112 6 34
309 29 252 103 62 48
338 860 162 96 80 71
186 744 196 167 119 102
462 425 289 96 22 34
381 374 232 88 78 67
351 134 217 114 92 65
401 430 392 130 24 48
308 28 257 109 49 42
387 429 293 68 56 44
309 30 257 107 41 36
276 466 284 120 15 42
341 164 215 130 100 62
351 114 242 115 93 69
360 680 207 76 52 37
272 518 270 68 23 31
445 875 294 80 64 50
233 572 235 51 27 28
316 19 247 125 29 30
441 419 236 105 15 33
380 770 363 165 114 90
320 19 246 105 52 38
313 16 249 125 37 31
336 760 324 70 55 52
254 743 210 123 94 69
294 295 310 115 90 59
321 54 217 74 42 32
351 774 403 194 135 107
281 799 252 72 56 52
313 19 249 142 22 27
316 29 246 68 43 37
442 424 322 133 11 41
283 168 255 106 84 58
319 28 241 62 39 32
496 884 262 133 109 91
397 489 373 45 28 31
321 24 242 80 33 31
277 479 280 38 26 28
318 26 244 70 36 24
413 516 186 204 18 51
159 756 170 179 122 89
469 848 259 88 82 77
320 59 217 82 31 30
291 539 156 160 9 38
299 751 309 80 63 60
379 244 228 122 96 65
265 439 147 161 3 42
373 372 225 86 77 67
394 867 270 43 37 33
371 204 242 116 93 67
377 339 237 103 85 65
320 64 217 107 50 41
334 318 230 94 80 66
328 851 163 72 60 56
171 699 182 99 84 69
338 839 378 168 113 89
319 64 222 116 26 33
289 40 254 125 33 28
386 514 372 174 12 56
346 514 152 138 18 39
354 873 184 69 61 61
355 215 265 122 99 72
305 478 300 62 18 28
335 134 217 126 97 62
291 44 257 101 57 46
342 576 185 188 8 39
351 584 312 42 28 27
245 604 249 50 29 32
347 69 191 125 30 31
263 201 295 112 93 73
393 490 358 79 2 31
168 814 189 176 122 98
406 763 267 46 35 33
376 469 392 73 23 32
263 429 142 157 3 40
289 54 254 119 35 39
342 199 260 114 91 66
289 60 253 114 42 43
366 800 171 81 68 60
325 379 232 86 69 49
442 490 297 112 21 42
334 11 274 142 97 103
334 254 225 127 99 65
346 444 301 119 2 37
288 64 250 118 22 40
336 41 219 120 89 65
289 64 253 117 14 40
438 449 241 78 26 34
290 64 257 118 23 43
141 704 187 154 120 97
356 849 262 65 45 36
318 35 238 70 41 30
277 489 281 78 25 34
273 808 231 72 59 54
316 64 252 111 78 65
291 44 281 115 38 48
294 229 282 119 94 64
318 40 233 72 34 29
264 432 195 65 26 29
296 625 318 35 30 31
317 39 237 74 33 28
381 694 422 150 112 91
354 51 224 105 37 34
304 883 192 43 41 41
319 37 235 75 29 25
317 44 232 75 37 25
313 631 205 67 32 32
381 889 248 61 54 54
318 49 227 79 38 23
289 419 149 119 14 31
319 48 226 73 34 24
381 509 306 38 27 28
315 44 237 70 46 30
286 679 301 111 13 39
266 11 282 91 50 45
316 34 267 114 71 65
317 699 200 79 28 30
458 466 256 218 16 59
336 899 197 62 56 58
395 838 213 64 52 49
310 34 252 102 39 34
346 431 300 76 43 30
271 11 268 86 72 62
353 94 213 116 48 51
274 474 141 70 32 35
365 603 213 42 33 40
310 34 257 101 24 32
367 808 321 174 128 101
439 458 211 113 20 40
312 39 247 87 26 27
182 717 165 95 79 61
361 409 177 91 77 63
246 759 198 99 75 53
274 139 275 121 96 67
315 39 242 88 30 30
271 954 227 70 66 67
324 28 236 71 45 31
304 688 314 101 20 39
356 284 221 128 98 64
255 604 262 77 30 39
282 189 283 109 86 60
274 453 162 101 23 38
279 74 218 130 12 30
252 909 282 142 102 87
384 779 194 72 56 46
346 189 261 115 93 68
434 522 266 73 39 39
314 39 245 91 35 31
314 44 242 77 63 48
447 888 282 84 68 55
221 879 158 165 112 105
277 371 234 98 85 74
312 44 257 101 70 58
381 694 287 71 25 36
294 264 264 98 77 53
451 479 282 190 15 51
371 234 257 119 94 66
316 10 277 117 48 42
313 49 248 112 22 38
411 508 173 144 28 47
310 364 242 94 76 59
313 49 252 103 28 41
318 54 227 74 38 37
272 820 175 196 129 102
411 869 256 111 104 106
265 358 250 104 88 72
400 529 342 177 13 59
