ply
format ascii 1.0
comment Created by Open3D
element vertex 2246
property double x
property double y
property double z
property uchar red
property uchar green
property uchar blue
end_header
425 759 192 64 51 46
379 763 278 66 56 52
339 416 118 92 76 58
430 494 86 74 31 36
366 923 206 63 56 59
340 416 122 92 76 59
293 433 288 139 14 45
344 416 123 92 76 59
237 643 213 170 117 89
234 598 213 149 109 77
344 416 128 92 76 59
291 385 250 75 61 44
456 471 321 200 164 162
574 937 205 97 88 80
349 417 128 92 76 59
374 438 306 102 22 38
354 423 73 99 82 64
359 422 78 100 82 65
395 593 268 131 85 74
535 946 219 77 69 63
358 425 70 98 81 65
364 428 68 97 64 53
367 430 69 81 36 30
369 428 73 87 64 55
339 528 277 88 29 39
364 425 74 100 80 66
437 410 185 111 19 31
359 422 88 102 83 66
276 428 252 135 2 41
369 423 83 103 79 65
372 956 240 78 73 74
365 945 305 66 57 56
369 423 88 105 80 65
374 957 243 75 70 70
369 423 93 107 78 61
421 419 178 78 31 34
324 573 108 194 12 43
298 649 156 159 6 36
368 438 69 59 41 43
416 431 166 63 25 35
362 443 65 96 31 36
362 447 65 104 19 32
420 420 242 63 24 29
410 797 186 60 48 45
280 443 253 135 6 42
367 443 70 90 38 44
393 628 193 48 34 38
446 525 158 173 15 47
367 446 70 44 40 45
364 413 223 69 60 52
449 459 318 91 12 30
337 374 291 125 97 64
369 448 73 61 40 43
431 733 280 164 110 79
299 923 298 164 136 119
371 433 71 92 35 38
374 427 78 102 75 63
374 433 73 97 36 43
378 430 75 65 51 41
408 868 214 65 57 54
379 429 78 93 57 47
404 603 183 76 34 40
459 448 278 90 20 37
381 465 300 43 27 31
317 393 165 98 84 70
384 433 78 81 34 41
241 556 190 135 2 39
372 425 80 103 78 65
438 418 198 95 22 29
374 426 83 101 73 58
373 425 88 103 72 58
375 426 88 98 65 53
374 425 93 109 60 50
379 428 83 107 57 48
379 427 88 100 57 48
280 699 246 126 7 38
233 578 223 155 113 84
458 496 313 201 128 110
384 429 83 92 33 36
448 846 133 107 87 67
554 879 213 97 80 65
376 426 91 104 57 51
377 425 94 110 52 45
477 478 317 134 97 72
390 693 277 126 83 71
384 427 93 105 35 37
317 643 255 30 28 31
370 438 71 64 42 42
243 573 199 98 20 36
437 811 225 88 70 57
374 438 74 91 33 39
344 503 289 101 28 41
366 484 76 121 14 33
370 443 72 68 40 43
373 442 74 55 38 39
569 939 207 90 82 74
290 393 239 70 58 45
243 523 157 97 28 37
395 905 254 38 35 34
354 633 261 143 21 49
375 443 76 87 33 39
394 818 164 64 52 49
372 446 75 47 34 39
379 438 76 120 17 33
261 323 306 131 100 71
473 414 219 125 24 42
313 388 311 150 108 77
514 957 238 86 66 54
310 583 261 154 12 46
437 511 114 190 16 47
384 438 78 95 27 38
376 440 76 112 19 31
334 932 300 57 50 48
379 443 77 141 7 31
384 448 79 158 0 33
304 601 125 212 14 47
354 420 103 102 83 64
356 421 102 103 83 64
462 467 249 161 25 49
410 698 173 48 37 34
524 883 194 62 55 51
264 478 227 77 6 24
354 420 108 100 80 62
354 419 113 97 75 59
324 388 172 123 102 82
357 420 105 103 81 62
421 440 70 122 9 26
325 737 262 71 57 52
358 420 108 104 76 60
355 559 117 131 29 44
360 421 108 105 74 58
389 551 110 112 24 37
359 420 113 104 69 55
364 422 103 107 72 56
369 423 98 109 69 54
369 423 103 111 58 48
419 573 294 175 119 89
364 422 108 108 63 51
309 553 88 197 13 43
343 976 243 65 60 60
469 419 268 104 23 37
364 421 113 109 55 48
369 422 108 111 51 45
333 902 165 75 63 62
369 422 113 111 46 44
332 843 187 60 49 47
312 291 265 76 60 39
524 883 203 53 43 36
354 419 118 95 74 58
364 899 196 52 45 45
359 420 118 100 66 54
394 808 168 61 49 46
438 769 205 50 41 37
354 418 123 94 73 58
354 418 128 93 75 59
463 453 238 69 28 37
451 431 125 110 7 36
359 419 128 96 71 57
389 708 277 99 44 43
362 420 115 107 58 49
364 421 118 107 52 47
319 573 267 165 12 51
369 422 118 110 45 44
452 491 224 105 22 32
236 556 203 158 0 47
444 523 238 119 23 41
328 416 170 98 82 66
364 420 128 101 63 52
365 421 122 105 55 49
430 798 206 65 50 46
299 273 262 97 76 50
369 421 123 109 47 45
366 421 126 104 54 48
339 598 132 163 12 38
504 941 253 57 49 43
439 420 253 59 22 26
367 420 129 104 56 49
300 888 233 121 96 72
249 593 238 164 116 91
374 424 103 112 48 43
419 713 146 76 57 43
374 424 108 112 44 43
329 433 305 113 27 43
374 423 113 111 42 42
434 905 228 74 65 57
374 424 98 113 54 47
384 427 98 107 29 35
384 426 103 107 22 32
439 458 313 67 16 24
382 425 109 109 34 36
381 955 252 80 74 72
384 426 108 108 24 32
278 383 293 153 105 87
424 429 108 101 24 32
374 423 118 111 41 42
299 468 283 105 17 37
457 487 128 77 33 40
404 789 181 63 53 50
368 418 228 69 61 53
423 638 278 124 89 55
374 422 123 110 40 42
374 422 128 110 37 41
404 563 283 150 106 89
379 424 123 110 34 39
384 425 118 110 33 36
281 386 297 157 110 90
350 588 271 153 10 47
330 454 21 165 4 33
321 449 29 122 18 33
321 450 25 138 0 41
508 900 206 54 46 40
321 453 25 144 4 34
324 458 23 178 12 40
329 458 23 169 8 33
321 458 25 159 5 43
325 461 25 184 12 37
251 617 184 85 31 40
324 463 27 183 12 35
328 461 25 179 9 33
421 423 153 93 19 39
364 591 130 85 34 37
329 464 27 175 8 34
333 453 23 86 26 37
415 431 153 97 25 40
332 457 25 61 34 35
334 458 28 86 19 38
414 432 143 111 14 38
255 618 178 112 29 43
336 458 33 145 4 38
335 463 33 154 3 36
323 470 31 136 12 39
330 470 31 56 28 38
413 608 254 111 78 53
274 831 222 90 66 61
287 514 239 82 24 33
329 473 33 93 25 37
389 425 143 106 19 39
497 966 238 110 94 79
444 473 208 79 19 33
332 466 30 160 7 43
441 529 237 179 12 47
374 813 263 72 59 55
321 395 171 104 88 72
436 773 280 173 117 85
333 468 33 138 4 34
469 437 103 135 30 40
337 450 30 55 43 36
229 523 178 39 31 33
339 643 157 108 21 38
489 933 228 85 71 60
337 452 30 45 37 35
374 563 118 149 11 37
337 453 33 80 29 36
336 463 38 145 0 30
320 396 212 99 81 62
356 638 260 165 13 51
321 476 35 121 25 52
554 893 213 91 77 67
324 476 35 112 24 42
335 468 38 139 4 38
363 967 253 75 68 68
389 883 258 39 35 33
332 472 34 163 1 38
449 443 68 105 17 35
254 613 178 95 25 36
334 473 38 95 20 35
336 473 42 82 28 37
331 475 36 177 2 39
333 478 39 62 32 38
445 482 155 65 23 30
278 588 228 137 11 43
389 416 293 73 59 51
324 263 262 88 69 45
336 479 47 110 17 41
409 858 249 45 40 37
434 928 223 73 62 58
233 563 223 160 116 88
339 453 43 132 5 35
463 453 272 50 26 33
337 457 34 110 17 31
337 458 38 143 6 39
463 453 78 76 35 42
336 460 36 152 2 37
283 628 228 45 27 29
337 461 39 147 1 37
340 463 47 142 0 37
335 402 184 87 74 59
345 458 53 152 0 37
344 463 53 152 0 32
345 453 52 143 0 33
240 823 218 211 150 125
345 463 57 160 5 39
406 676 231 46 26 29
404 429 143 103 19 35
374 422 133 108 42 44
351 454 56 164 2 37
339 624 146 117 33 46
404 897 233 68 59 51
292 402 246 71 57 42
344 959 217 86 83 86
348 457 55 166 5 37
346 460 56 160 3 32
348 463 59 167 4 40
384 883 259 40 37 35
350 464 61 170 1 40
241 578 189 110 22 36
299 283 314 126 97 66
336 464 41 134 0 26
428 449 305 65 28 32
339 473 48 148 3 37
346 401 290 122 97 68
337 476 45 132 24 42
338 478 48 143 6 37
342 468 53 154 1 36
437 837 233 111 100 100
341 470 51 155 1 31
365 844 165 62 52 50
299 513 263 171 10 53
341 474 52 160 6 37
250 533 244 161 109 92
345 468 58 159 6 38
340 479 57 168 7 37
384 791 155 67 53 44
343 477 59 168 8 37
299 533 253 67 24 32
272 312 286 120 94 66
285 553 129 107 28 40
324 969 273 62 58 58
461 459 228 89 26 37
347 468 60 164 3 36
349 473 63 165 0 37
346 474 61 163 2 34
242 702 191 120 92 60
324 483 39 178 12 38
329 483 39 148 16 41
414 509 91 66 35 39
294 407 133 89 77 65
292 683 161 78 29 33
419 658 283 180 121 94
324 488 42 166 9 37
384 568 268 73 28 33
330 484 42 110 27 40
434 418 233 59 25 25
324 491 45 164 14 41
272 313 283 121 97 70
328 491 45 177 21 50
468 453 98 182 11 50
345 534 92 199 11 42
335 648 156 144 4 34
333 483 43 81 33 40
443 484 156 34 27 30
335 483 48 120 21 39
332 486 45 50 39 39
331 489 46 162 13 46
336 484 52 88 21 36
335 488 53 89 32 42
444 743 253 129 93 63
285 438 267 136 16 46
334 493 58 107 27 39
436 426 116 106 27 33
335 489 58 81 30 38
314 784 161 81 63 53
452 498 258 181 5 57
405 469 307 107 12 33
347 673 160 126 12 30
281 408 272 119 20 40
335 494 62 124 25 41
479 910 223 68 57 49
324 497 49 54 35 39
286 622 236 171 13 53
324 503 53 108 29 40
328 496 50 61 39 42
277 406 151 93 80 68
329 498 53 73 30 37
323 507 55 136 27 46
327 506 55 48 24 21
418 613 259 119 89 59
394 431 82 103 27 27
324 512 59 179 10 36
328 507 58 69 31 36
327 512 64 151 5 39
237 703 203 140 98 67
331 504 62 64 34 38
424 693 233 82 55 41
390 943 295 58 51 48
332 497 59 97 27 37
334 498 63 106 25 41
360 873 258 107 83 67
440 513 222 80 23 34
337 481 50 154 4 42
285 388 302 160 112 94
431 800 244 127 83 59
377 789 270 73 61 55
338 483 53 139 13 40
337 486 55 107 20 40
337 262 275 117 89 59
337 487 59 91 32 39
465 454 82 91 28 41
412 892 256 44 38 34
341 484 61 159 6 40
230 518 233 189 138 115
406 693 179 48 40 37
343 488 64 103 25 42
269 488 228 45 19 24
344 513 283 94 29 41
418 852 215 79 65 58
354 453 58 153 0 36
356 453 61 143 0 35
409 430 123 109 19 34
465 710 246 71 56 42
414 618 293 174 122 91
356 450 61 141 0 36
271 755 165 135 103 67
359 453 64 140 2 32
457 421 198 90 10 28
353 458 59 166 2 39
355 459 61 160 0 35
455 943 252 102 80 63
427 723 281 165 109 78
354 463 63 166 0 33
439 440 311 109 31 46
359 458 64 146 0 32
351 479 66 96 17 32
403 598 289 161 117 94
335 504 67 66 32 37
379 663 257 73 20 31
309 409 133 91 77 62
414 503 298 136 96 86
330 509 67 166 7 38
329 513 68 169 7 40
334 508 69 147 16 42
424 427 118 103 26 32
554 980 261 102 85 69
333 512 70 178 8 37
334 513 72 166 10 43
336 510 71 175 18 44
329 863 288 135 108 80
288 401 141 91 78 66
344 493 67 140 20 40
442 516 225 108 30 43
393 653 193 107 20 34
345 489 66 59 32 38
447 809 236 66 53 43
254 538 238 135 85 72
309 853 228 183 134 106
349 488 67 93 29 40
349 493 69 71 36 39
351 494 71 58 36 39
426 547 210 114 22 43
304 328 258 87 71 54
338 497 65 127 24 43
339 498 67 104 26 36
339 503 68 97 30 38
491 931 266 64 53 46
466 453 258 48 31 32
354 557 271 128 18 45
414 930 246 50 44 45
464 443 83 145 19 34
344 498 69 117 22 37
348 562 114 62 33 38
294 293 315 129 100 70
444 428 278 60 23 31
338 507 70 73 31 35
422 427 157 57 23 32
339 509 72 78 33 36
349 628 260 103 26 39
265 418 134 94 31 36
369 478 293 166 12 52
345 504 71 130 27 42
348 497 70 46 37 41
349 503 73 48 34 38
349 507 74 60 34 36
426 593 273 159 115 81
471 438 114 149 12 46
461 434 279 142 9 41
344 513 77 77 31 33
346 510 76 90 43 47
420 428 148 108 14 39
349 513 78 96 33 41
416 464 311 136 27 46
380 708 158 56 41 37
431 454 196 120 6 32
272 703 177 48 33 37
366 453 71 88 25 39
373 823 165 67 53 45
363 463 69 140 3 29
443 498 108 193 15 48
468 896 196 88 78 70
365 458 71 131 3 28
311 835 241 163 124 100
300 339 315 145 104 75
365 463 71 114 15 29
368 458 74 87 31 37
380 902 210 62 54 53
368 463 74 79 29 36
373 503 294 85 23 33
358 466 65 162 0 33
385 951 278 50 45 43
413 908 253 38 35 36
359 468 67 160 0 34
352 476 65 142 18 41
404 672 193 130 69 51
354 478 67 127 11 34
359 478 69 142 4 34
283 443 258 155 4 49
363 468 69 153 0 35
301 391 230 70 57 46
363 473 70 156 0 32
395 728 145 71 54 40
365 473 71 155 0 33
448 456 314 123 11 40
368 468 74 143 4 34
304 962 243 96 91 91
435 493 173 71 24 33
389 813 163 70 55 49
294 963 268 85 82 87
368 473 74 158 0 32
364 478 72 157 0 34
367 477 74 158 0 34
427 757 194 74 58 50
412 513 293 145 102 92
370 478 77 160 0 33
371 449 76 65 34 38
473 413 223 114 27 42
371 458 76 69 35 37
374 458 78 106 22 33
442 511 125 187 16 48
374 463 79 135 4 30
308 796 165 87 67 58
259 738 180 118 88 58
256 548 233 125 75 66
376 464 81 136 0 29
430 846 125 103 77 57
385 450 81 161 0 31
377 457 80 118 16 30
379 458 82 136 2 29
423 608 288 171 119 88
383 462 85 146 0 29
371 468 76 143 0 30
427 558 273 152 110 76
421 890 242 138 135 138
475 478 298 195 136 121
370 473 77 160 0 33
443 513 168 142 4 43
373 473 79 154 0 33
284 273 283 117 96 74
375 473 82 148 0 31
249 583 199 76 26 36
375 478 82 156 0 30
277 391 230 106 75 56
379 468 84 142 0 28
232 752 191 155 107 78
519 952 238 77 59 53
378 473 85 144 0 31
380 473 87 144 0 31
368 498 84 161 2 37
426 878 243 64 54 50
385 464 86 152 0 34
382 467 85 147 0 30
452 502 248 122 21 45
384 468 87 150 0 29
459 738 214 90 69 49
414 558 295 172 123 97
384 473 88 149 0 32
377 478 85 149 0 27
284 538 127 133 13 35
266 324 316 127 95 70
380 478 87 145 0 29
409 428 178 55 27 32
385 618 261 110 42 44
250 573 159 47 33 36
354 483 68 94 27 38
281 383 269 120 89 65
274 368 298 156 106 88
462 723 231 96 78 60
358 482 70 118 15 37
359 488 72 83 31 36
353 492 70 86 27 37
356 489 71 87 28 31
259 778 232 161 123 90
359 493 74 75 37 40
369 483 78 133 7 30
304 358 313 146 106 77
365 489 77 68 37 41
368 488 79 87 32 41
362 491 75 62 39 45
305 552 89 187 12 39
364 493 78 78 36 40
361 494 76 86 39 42
559 987 258 102 85 68
367 492 80 94 29 43
329 568 107 194 11 41
347 385 218 90 75 61
449 498 283 201 130 112
269 343 283 116 89 60
369 493 83 142 9 33
312 373 311 142 104 73
425 463 193 114 7 35
435 932 238 49 42 41
459 913 228 47 41 36
355 528 287 106 25 41
366 495 81 111 18 33
358 497 75 62 37 40
357 501 75 40 38 39
443 769 209 64 49 41
359 503 78 125 16 38
356 504 76 40 35 37
352 506 75 69 39 35
437 801 214 76 59 51
354 508 78 73 33 37
353 512 79 127 28 43
363 497 79 85 27 35
327 865 212 75 57 52
459 453 313 58 25 27
365 498 82 144 3 37
339 624 260 57 28 33
229 523 173 101 28 41
364 503 83 144 10 37
348 389 282 120 95 66
598 887 220 102 86 77
251 554 240 159 104 85
367 502 85 109 17 36
362 511 85 161 2 40
348 794 260 182 132 112
364 513 88 152 13 41
370 503 87 56 32 39
379 503 97 159 0 31
371 484 81 150 1 33
372 482 80 160 0 34
439 428 108 93 36 31
374 483 83 158 0 32
372 694 170 104 16 25
372 488 84 159 1 32
265 708 186 90 62 48
371 494 86 162 3 29
412 680 178 75 54 33
372 492 85 163 4 31
411 810 195 55 44 45
374 493 88 159 2 32
377 481 85 155 0 36
337 402 201 99 83 66
378 493 90 151 1 33
406 687 213 75 32 37
381 489 91 71 24 32
384 493 93 89 27 34
370 498 87 140 6 32
373 502 90 55 31 36
373 508 94 159 10 38
372 511 95 178 8 36
377 496 90 158 2 29
284 293 314 115 90 66
330 778 256 74 58 53
464 457 313 80 66 57
429 933 253 73 62 55
379 498 93 162 2 32
457 472 220 78 15 25
375 509 97 167 4 32
324 396 211 99 82 64
377 496 295 96 24 37
434 450 66 161 9 36
362 410 193 86 72 58
395 939 238 74 66 65
374 513 98 167 3 34
385 499 97 157 2 32
381 500 96 164 0 36
257 488 136 96 42 45
379 508 98 163 0 32
327 483 290 173 13 53
378 512 100 162 1 35
444 443 137 112 17 37
382 511 100 142 8 33
347 379 277 113 90 64
418 421 218 70 29 27
409 424 203 74 39 36
436 780 247 130 85 57
408 897 248 45 40 36
384 513 101 93 22 32
385 510 101 154 6 40
288 573 128 63 28 34
374 598 266 56 28 30
260 413 139 93 31 37
274 593 223 69 22 33
398 464 86 129 19 33
257 554 151 160 4 39
263 413 137 83 36 36
395 608 278 167 122 101
331 388 210 103 85 65
314 658 253 108 19 40
549 873 203 105 86 66
265 410 138 121 23 25
286 655 231 150 8 47
264 409 143 128 38 31
266 414 135 79 31 35
365 686 275 126 4 39
270 410 134 143 21 30
344 523 83 105 26 39
269 413 133 123 17 31
408 931 281 57 47 43
394 788 153 95 68 55
269 409 138 148 31 21
269 409 143 128 46 35
369 420 143 101 78 65
258 412 148 133 21 35
241 596 236 163 116 90
258 411 153 147 22 33
419 869 227 80 79 86
335 699 276 131 10 40
264 409 148 126 46 32
259 410 158 134 45 36
257 411 156 142 26 24
264 409 158 102 75 56
409 933 278 60 49 43
431 701 256 126 92 61
269 409 153 96 78 61
426 569 203 160 4 47
270 404 160 96 80 68
350 708 286 161 12 50
349 393 283 122 96 67
348 670 266 116 9 34
269 409 148 114 63 43
422 578 217 164 10 46
275 388 160 94 81 68
289 903 243 171 125 102
279 388 158 90 79 68
251 591 169 36 28 34
381 709 154 55 42 40
279 393 157 87 77 68
320 328 273 82 68 53
277 398 157 89 78 67
409 558 128 103 31 42
430 419 182 63 19 29
284 393 154 87 77 68
354 928 199 69 64 66
282 392 156 86 77 68
288 386 156 88 78 69
284 397 152 90 78 66
314 328 308 134 100 73
289 399 143 90 78 65
489 933 249 65 54 45
288 397 148 90 78 67
233 588 218 152 109 79
280 395 155 86 77 68
259 563 228 97 50 47
274 409 133 128 38 34
278 410 134 80 54 48
249 568 239 162 109 87
274 409 138 121 50 36
339 688 273 129 13 41
468 423 213 46 36 38
274 410 143 108 62 49
279 410 138 92 62 53
273 686 230 33 28 29
409 707 142 88 58 45
348 813 167 60 50 50
280 409 143 90 78 66
289 403 138 90 78 66
272 763 235 46 37 33
296 928 214 62 59 61
286 404 140 92 78 64
284 409 139 91 78 65
427 562 247 127 22 45
288 411 132 87 74 55
290 408 134 90 76 62
399 643 218 123 20 41
435 725 117 98 76 54
423 453 189 62 23 32
283 411 137 89 76 63
343 697 280 135 8 42
270 443 238 129 7 43
278 407 148 92 80 67
280 404 149 93 78 64
399 420 273 77 67 59
277 343 271 107 85 59
263 507 233 79 8 24
379 733 283 99 21 39
274 403 158 94 80 68
401 703 180 44 34 34
314 778 158 78 60 50
241 533 160 56 35 39
276 404 154 92 80 69
421 574 248 107 30 42
272 406 156 94 81 69
426 739 135 89 66 43
281 405 145 93 79 65
255 817 185 195 135 104
444 422 190 116 11 25
286 400 144 92 78 63
263 393 173 104 86 67
392 643 194 85 22 35
409 538 288 146 101 86
424 414 188 98 43 32
261 399 174 102 85 67
268 388 167 106 88 69
300 562 99 100 30 39
254 713 183 119 90 57
359 690 281 128 10 41
270 388 164 103 87 69
266 398 165 99 84 68
269 398 162 94 81 69
258 388 183 104 86 66
260 388 179 107 87 67
260 393 178 105 87 68
262 393 176 105 87 67
432 718 276 159 105 73
257 386 186 103 85 65
257 548 228 94 28 37
313 368 311 142 107 74
297 840 215 136 107 82
259 398 178 101 85 67
261 404 169 99 81 63
319 418 308 165 14 52
262 406 166 97 78 62
257 407 173 90 74 60
296 543 99 88 21 38
299 393 233 70 57 44
424 902 248 49 45 42
439 748 273 166 114 79
262 629 172 106 30 42
262 401 171 101 84 67
268 403 162 97 79 66
258 402 177 100 84 67
437 831 237 73 60 51
272 443 240 134 3 46
273 388 162 98 84 68
272 308 288 119 95 67
273 398 161 91 79 68
240 618 204 144 104 70
499 908 228 77 64 53
390 950 290 70 62 58
364 964 268 60 53 51
273 402 161 97 78 66
258 418 142 82 33 35
260 418 139 73 35 36
260 423 138 68 36 38
256 418 144 114 24 36
428 548 229 133 11 36
257 423 142 46 35 39
314 888 304 159 117 96
262 423 136 91 33 39
424 743 149 64 47 34
359 468 305 149 20 49
264 433 134 125 15 33
260 428 138 49 37 37
258 428 142 47 37 40
314 863 223 165 118 90
304 383 311 159 115 85
404 903 227 64 59 57
258 433 142 54 37 41
260 433 138 44 34 37
283 893 293 162 122 102
336 265 276 118 89 58
309 328 259 86 71 54
439 458 68 122 18 36
262 428 136 95 34 33
349 408 223 69 60 52
269 418 132 115 22 33
269 423 131 78 34 38
268 428 131 107 19 33
271 428 130 123 13 33
270 433 130 132 5 28
257 438 142 70 33 38
419 743 151 48 35 26
262 436 136 93 30 37
406 662 243 51 39 34
394 618 278 172 126 105
314 318 268 77 64 50
284 283 308 109 89 67
264 443 133 127 9 32
260 448 135 134 12 33
369 957 277 55 49 47
258 443 138 104 29 39
399 683 284 165 122 96
501 946 234 70 56 52
257 442 141 79 32 34
267 437 131 135 6 33
255 523 144 151 6 37
270 438 130 133 2 31
324 263 307 127 97 63
294 398 143 89 76 64
299 398 144 92 78 65
433 502 95 98 21 35
291 390 150 89 78 67
290 394 149 88 77 66
294 392 147 88 77 67
459 483 273 106 22 35
295 389 149 85 76 67
295 395 145 85 75 66
299 386 151 86 76 66
266 323 293 107 83 54
299 389 149 86 76 66
295 393 244 73 59 42
425 678 263 130 94 59
359 863 158 72 61 58
304 387 152 92 79 67
303 389 150 88 77 67
304 393 149 90 79 68
452 501 234 159 12 39
434 458 149 46 26 26
301 396 146 92 79 65
423 687 202 57 41 31
304 398 147 93 80 67
503 928 221 99 85 72
454 923 209 74 61 59
302 400 145 93 79 65
293 405 135 91 78 65
296 406 136 91 78 64
429 724 143 64 48 41
360 673 167 54 36 36
291 410 130 94 79 59
299 408 133 92 79 66
300 402 142 91 78 64
303 405 139 92 77 63
422 517 215 65 24 32
415 713 162 52 42 36
464 928 218 83 70 63
304 407 137 91 77 63
334 514 285 94 24 39
306 392 151 91 79 66
267 513 131 71 33 40
246 600 200 109 78 57
308 388 154 93 80 68
401 920 239 44 39 41
315 303 273 74 60 42
308 393 153 95 81 67
427 926 286 48 42 38
310 388 157 93 81 68
310 393 157 97 83 70
307 398 150 94 81 67
430 927 228 77 64 59
309 398 153 94 81 67
464 733 243 60 45 34
486 919 225 87 72 60
311 397 157 95 81 67
313 389 159 96 82 68
313 393 159 98 85 71
313 398 159 96 82 68
404 868 212 59 52 50
429 918 219 73 65 64
407 670 235 64 37 40
324 708 268 62 29 35
308 405 144 93 78 63
249 753 228 176 126 101
310 406 142 92 79 64
314 407 143 93 78 62
320 411 132 92 78 64
403 788 289 174 132 103
306 402 146 94 79 64
354 893 283 144 110 81
256 831 195 226 151 119
364 964 238 91 87 89
249 693 189 124 94 59
308 404 148 94 79 64
324 393 307 140 103 71
314 406 153 94 80 64
414 899 224 71 60 51
543 962 233 103 88 73
319 408 148 93 78 62
509 934 221 95 83 73
319 407 153 94 78 62
319 407 158 94 79 63
315 388 163 96 82 68
287 949 263 95 84 79
317 389 165 96 82 69
319 393 168 101 86 70
313 444 300 108 17 39
285 268 298 117 95 71
315 398 163 98 83 69
318 398 168 100 85 69
316 400 166 97 82 67
315 403 163 95 81 67
324 529 279 80 28 37
316 402 166 95 82 68
447 451 65 58 47 44
324 693 267 37 29 31
318 403 168 97 82 67
317 405 163 95 80 64
256 384 211 113 89 61
257 392 215 118 90 64
258 393 218 119 92 65
257 397 219 115 89 64
259 398 222 111 87 65
259 403 224 85 63 49
441 773 268 163 109 75
438 506 306 196 132 103
351 718 286 168 12 54
369 863 159 101 78 62
318 498 279 152 11 44
263 398 225 113 88 65
269 388 227 115 86 63
266 393 226 116 87 64
269 393 228 112 84 61
464 927 213 85 70 62
265 398 226 112 86 64
416 692 285 170 114 84
320 868 220 121 88 63
269 398 228 109 81 62
366 849 245 126 93 69
236 618 209 150 108 75
262 402 225 94 72 55
355 697 161 110 15 29
342 390 291 125 98 65
264 403 227 90 58 46
267 406 230 110 14 37
299 613 248 65 31 36
290 738 155 123 14 33
395 908 233 64 58 57
285 488 248 84 25 37
256 543 233 120 72 62
384 459 304 136 19 46
268 538 137 154 0 36
269 408 233 103 18 37
424 498 87 58 37 39
301 643 246 114 24 44
393 628 278 173 129 109
271 400 231 96 71 52
429 434 311 121 26 45
444 493 218 117 8 31
268 412 230 120 6 40
421 659 279 169 112 82
269 413 233 118 7 38
389 773 148 80 60 49
271 410 236 115 17 36
271 413 236 119 8 39
274 798 233 60 50 46
299 943 293 195 150 131
428 537 267 134 24 47
343 373 282 117 92 63
277 392 233 95 66 50
278 393 238 81 58 44
280 389 238 78 58 42
272 398 230 102 77 55
236 782 185 173 117 86
274 398 232 91 66 50
379 678 262 60 21 28
325 847 195 110 75 60
484 922 213 91 75 63
276 393 237 92 63 48
278 398 234 84 59 45
340 909 182 79 70 68
280 398 238 67 51 36
284 387 234 84 60 43
232 763 210 164 115 85
400 667 203 109 30 36
359 963 228 76 70 73
289 388 238 71 58 44
281 388 242 68 55 41
409 483 82 65 33 37
464 488 288 190 127 115
280 393 242 66 53 40
455 443 207 102 10 26
284 385 241 70 57 44
314 263 258 90 70 44
273 308 283 117 95 70
379 883 128 111 94 88
284 388 243 69 56 43
304 648 154 158 6 36
449 415 233 71 22 22
338 567 271 157 21 53
432 492 210 32 29 34
284 393 243 68 57 46
289 388 253 84 65 44
278 718 168 116 13 28
424 843 243 59 52 48
280 400 246 73 58 47
288 398 242 71 57 46
395 688 282 156 116 92
286 394 255 88 68 47
334 818 183 64 50 45
324 409 158 94 78 62
288 398 252 79 61 44
459 943 272 77 62 49
274 402 234 67 49 38
390 768 281 152 115 85
390 495 300 124 28 47
424 418 163 65 30 36
278 401 235 64 47 35
278 403 238 52 39 28
444 448 199 116 4 31
434 919 217 72 63 62
272 411 235 112 2 34
469 717 228 102 81 61
273 413 238 120 5 38
277 407 244 68 31 30
420 668 258 116 86 56
277 408 248 104 18 36
280 405 253 74 52 41
241 588 236 160 113 88
278 408 253 101 21 36
275 413 243 116 7 37
337 481 295 120 22 39
276 414 247 116 5 35
421 461 182 101 13 32
528 898 204 82 68 58
325 411 137 93 78 63
277 412 248 112 5 35
278 413 253 109 9 35
284 402 248 74 58 45
477 908 206 71 61 56
289 402 243 71 57 44
394 430 88 105 24 26
379 420 218 68 58 48
285 402 245 74 57 45
289 402 248 71 58 43
366 411 208 70 60 51
264 423 229 65 25 32
395 908 253 38 35 34
402 791 171 55 46 45
273 533 132 151 1 35
260 433 226 78 18 30
264 433 228 92 19 35
266 418 231 54 19 27
478 972 271 91 76 62
266 423 231 45 25 25
266 426 231 72 26 30
267 433 230 95 23 37
431 529 127 50 31 35
271 428 238 116 9 36
270 433 238 43 24 28
334 622 261 146 23 51
271 430 241 101 16 35
426 565 171 172 27 59
258 438 225 55 22 25
416 720 175 65 54 49
260 443 226 82 15 31
472 486 317 202 135 124
259 448 227 80 19 30
295 869 244 123 95 65
345 383 283 121 95 67
409 429 153 96 22 37
494 964 238 99 83 69
267 438 230 93 19 36
399 424 183 62 29 33
374 537 110 167 0 30
267 441 230 102 15 35
241 719 185 125 96 61
438 427 190 61 31 31
268 448 233 133 5 40
239 563 203 137 7 39
271 436 241 28 30 30
424 421 253 64 23 29
272 422 239 119 5 35
275 423 248 91 20 36
276 423 252 114 8 38
277 418 254 117 3 36
294 608 132 191 15 44
277 423 254 130 7 41
422 438 152 84 22 35
272 426 240 120 5 36
513 897 198 65 49 45
420 423 158 73 24 36
272 428 243 118 5 36
413 872 142 102 84 66
420 851 150 92 74 58
272 433 243 63 21 30
412 566 145 150 27 45
278 433 253 142 4 44
277 435 250 129 14 45
279 438 253 138 5 43
391 550 270 57 24 30
289 813 172 87 69 61
302 686 156 82 22 30
272 440 240 76 7 26
274 443 243 140 3 43
276 442 247 143 1 44
327 566 105 198 11 39
245 568 188 127 8 37
272 448 240 126 8 41
275 448 243 93 14 37
418 728 168 54 44 40
468 453 108 180 11 51
282 445 255 137 6 44
285 367 311 163 115 95
405 914 248 35 32 33
282 448 254 107 20 40
309 388 223 85 70 54
464 448 228 142 15 41
318 388 212 100 81 59
281 483 237 91 24 37
464 448 233 162 13 47
309 633 148 187 6 39
320 388 209 100 81 60
252 518 146 152 4 37
235 817 208 205 142 113
254 698 231 168 122 97
410 930 280 62 51 45
319 393 213 100 81 61
314 388 223 94 77 59
349 573 123 82 34 40
315 391 218 99 80 60
354 638 261 150 17 48
319 388 219 101 82 63
318 392 217 100 81 62
295 388 234 69 57 45
441 491 160 147 17 53
309 293 264 78 60 38
309 556 90 173 9 35
395 673 282 159 119 95
319 938 203 80 73 75
293 388 236 70 58 45
295 393 234 70 57 45
242 564 174 170 4 50
293 393 237 70 57 45
374 912 289 38 36 36
290 398 239 71 57 45
264 458 132 128 12 35
294 398 237 71 57 44
298 388 232 69 57 45
304 388 228 72 60 48
437 742 199 64 51 43
299 393 238 72 58 42
301 388 239 72 59 42
282 318 266 98 79 56
506 946 229 81 57 56
303 392 233 71 58 44
309 948 297 56 49 50
298 397 234 71 56 44
237 550 174 131 22 44
421 737 285 165 113 79
293 388 248 75 59 42
291 388 250 78 62 44
424 926 238 67 55 52
291 393 250 79 62 43
349 598 270 184 10 58
339 738 272 105 44 52
409 817 277 176 116 89
335 570 270 186 10 59
290 398 249 74 59 43
297 392 242 73 59 42
291 402 240 71 56 44
307 391 228 75 62 49
281 298 274 102 84 66
312 387 226 86 71 55
383 612 164 101 39 48
351 887 155 84 70 63
264 453 132 138 3 31
258 453 137 69 33 33
258 458 137 53 35 38
282 794 235 58 49 42
258 463 136 55 33 36
243 793 182 174 117 85
399 923 238 44 39 42
239 598 233 157 112 86
409 678 178 80 55 39
267 452 131 136 1 32
440 505 292 185 117 92
266 458 130 134 3 32
260 473 135 128 12 33
264 468 132 132 6 32
248 633 196 134 100 65
279 323 320 136 99 75
424 563 268 127 91 65
263 473 132 133 4 32
444 488 157 48 26 31
250 831 199 235 160 132
363 927 204 62 56 59
258 468 137 102 30 38
421 423 178 67 30 33
258 473 137 86 24 35
258 478 137 128 14 37
266 468 130 134 1 31
421 470 190 92 8 37
266 478 130 132 3 30
537 945 252 74 59 46
367 410 260 84 73 61
414 695 225 76 38 36
460 490 281 189 117 103
474 418 233 146 21 47
259 488 134 65 35 36
291 855 269 123 102 82
452 482 103 197 12 51
263 483 132 138 11 37
263 488 132 101 32 36
543 950 260 95 75 59
318 449 300 127 27 49
258 483 136 47 33 37
263 493 132 48 35 38
266 483 130 130 6 32
265 488 130 98 26 35
299 858 258 115 95 76
240 653 213 149 99 70
266 493 130 58 35 37
544 948 253 88 71 55
260 498 134 105 26 37
309 613 253 136 24 49
418 506 90 59 33 32
264 503 132 70 35 37
408 603 243 120 20 41
404 918 293 51 45 42
424 422 128 108 28 38
385 628 183 79 30 37
343 902 175 80 70 70
258 503 136 72 33 37
314 463 293 111 22 43
412 430 148 98 20 36
260 508 135 55 35 38
333 543 274 66 29 36
354 803 162 55 46 43
264 508 132 57 34 36
261 512 135 76 26 35
294 548 108 142 4 36
258 508 137 65 35 41
473 469 288 135 67 68
266 503 130 45 33 36
427 422 172 46 29 29
399 429 108 107 15 27
266 506 130 79 41 42
267 510 131 80 30 36
409 882 254 43 37 33
290 468 268 154 11 47
304 668 156 130 9 31
257 453 225 60 17 26
414 903 223 105 98 95
259 453 227 66 24 31
259 458 227 45 23 25
354 583 272 153 10 46
264 458 229 104 10 35
264 463 229 110 6 36
270 458 232 124 9 40
494 943 243 115 101 99
267 459 230 121 7 38
438 802 219 82 64 56
268 463 230 117 9 37
354 738 283 179 14 57
270 463 232 100 15 35
450 706 228 114 90 65
453 737 224 116 102 89
439 818 244 64 49 39
259 468 229 76 5 23
344 693 158 89 24 32
256 471 230 67 4 27
440 420 256 58 21 26
306 462 291 166 13 52
259 473 231 74 5 23
264 468 230 102 3 31
286 492 252 114 22 39
264 473 229 86 5 27
460 484 321 135 96 78
259 478 228 74 6 24
268 473 230 97 15 35
270 473 231 74 19 31
460 443 129 60 27 30
269 478 229 96 5 30
298 707 156 117 13 28
329 398 303 132 100 67
271 476 231 125 20 40
258 558 152 163 5 38
273 453 239 110 17 40
395 613 183 148 28 47
458 496 298 193 125 105
272 459 235 111 15 38
422 426 122 104 27 35
274 458 238 89 22 37
277 459 240 43 27 28
434 479 207 49 27 32
454 909 228 44 38 35
278 463 239 49 28 29
355 402 233 70 62 54
271 562 140 154 0 37
276 452 242 41 27 30
329 658 259 114 21 43
333 358 292 121 96 65
277 454 244 41 29 31
276 456 241 36 25 30
279 458 243 81 21 35
291 563 114 49 30 34
413 763 148 89 68 58
280 463 243 89 27 37
408 689 213 93 28 40
281 457 247 135 17 47
283 463 248 53 26 29
374 918 292 41 38 38
282 464 245 64 26 33
276 468 237 73 26 36
435 788 248 128 85 58
250 633 235 174 124 98
281 404 258 77 51 37
274 473 233 80 22 36
278 468 239 49 26 29
437 833 234 92 80 75
248 633 236 175 127 101
276 472 236 53 33 39
308 298 265 75 58 37
279 473 238 95 24 37
280 478 238 75 26 34
410 431 106 105 11 27
281 468 242 63 27 32
443 718 220 75 60 47
279 803 232 52 44 39
472 419 262 94 25 38
299 278 313 124 96 65
424 878 247 55 47 42
282 468 244 46 28 31
404 718 138 76 58 45
281 473 241 94 22 35
436 501 178 37 29 31
283 473 243 82 27 35
400 497 90 51 33 37
284 473 248 78 28 36
357 591 271 179 8 57
393 898 228 71 64 61
425 414 193 100 50 34
285 468 253 68 27 34
389 758 148 65 50 41
285 473 253 74 31 36
245 713 227 166 116 90
454 713 237 66 53 40
289 323 318 132 98 64
283 478 243 70 25 33
282 479 240 60 27 29
311 828 237 166 125 102
285 478 248 104 26 42
448 477 84 179 15 44
286 478 253 65 31 36
329 393 198 94 77 60
358 876 168 53 44 45
451 464 211 58 24 22
316 518 281 118 16 41
287 479 255 34 27 31
390 584 137 207 17 50
429 419 238 59 26 27
259 483 228 80 4 25
379 683 263 80 8 24
384 823 258 62 50 47
260 488 228 81 1 26
264 483 226 80 4 25
559 938 207 95 82 70
387 556 271 55 24 30
264 488 226 77 6 24
408 833 246 42 37 35
417 936 263 61 49 41
265 492 225 74 4 25
262 495 231 80 0 26
258 493 238 84 22 32
444 427 113 100 30 31
269 483 228 82 13 30
269 493 227 61 14 26
457 464 141 35 28 31
439 463 203 67 23 30
435 729 133 73 61 49
256 491 240 99 58 55
261 497 234 83 3 30
290 483 263 42 29 31
328 666 260 74 22 31
260 503 239 83 17 30
264 503 233 83 5 28
262 503 237 83 3 26
260 509 228 79 10 25
258 513 233 78 17 30
260 510 225 81 8 28
257 513 238 94 41 44
262 506 237 83 6 28
265 503 229 82 4 27
269 503 228 84 2 26
425 608 283 164 112 80
432 798 243 114 75 53
271 663 220 123 88 77
269 508 227 87 4 28
268 513 225 39 20 26
337 776 165 80 61 52
344 412 153 94 79 64
333 410 149 91 76 60
264 773 231 122 91 62
231 538 228 175 125 104
270 512 226 81 12 28
299 313 262 88 73 56
258 503 242 124 76 71
454 452 315 109 22 41
497 967 234 100 86 72
257 512 241 134 83 76
272 488 230 29 24 25
379 558 278 75 26 36
464 707 227 104 81 58
275 488 231 34 25 27
454 453 138 74 26 34
466 446 125 65 27 33
278 483 234 68 22 32
274 493 230 86 17 31
553 942 213 91 81 72
361 912 201 64 60 62
275 492 231 85 16 34
394 818 268 78 54 51
282 483 239 86 27 36
281 488 236 61 26 32
448 804 232 71 55 45
441 481 155 24 26 25
393 862 157 112 88 70
394 488 92 138 11 36
420 749 143 75 58 45
314 763 157 142 12 36
281 491 236 98 33 44
283 483 243 50 26 30
461 961 280 80 67 55
368 938 214 71 65 66
283 488 243 38 28 30
415 739 167 60 48 45
289 273 308 109 88 64
286 483 252 39 29 32
287 483 254 35 30 31
253 598 173 43 31 33
460 727 238 72 59 48
286 488 252 44 26 32
284 493 243 74 26 36
274 538 132 121 13 35
454 763 223 73 55 44
446 505 126 188 13 42
394 478 90 147 5 36
285 493 248 116 24 44
320 393 209 99 81 61
287 493 253 107 24 41
440 921 266 40 36 35
274 503 230 112 5 34
451 725 241 73 60 48
300 507 267 164 11 53
276 502 231 130 7 40
277 498 230 133 7 41
284 928 253 165 130 107
401 658 223 50 28 32
279 498 232 132 8 41
360 894 188 55 49 48
277 505 230 136 7 44
275 787 165 173 118 84
304 588 258 135 13 42
278 508 230 138 7 43
290 403 298 167 118 98
282 498 235 107 10 37
278 513 229 136 9 43
283 498 238 103 16 37
282 503 235 141 6 43
299 733 256 58 26 32
230 523 212 143 27 46
284 503 238 137 9 43
292 429 285 77 17 34
281 513 231 88 17 35
349 383 273 112 90 65
267 338 287 119 93 63
249 832 203 236 158 134
284 508 238 134 10 42
286 498 247 56 24 31
286 501 246 121 27 47
287 504 245 152 13 50
477 711 238 98 78 59
367 733 286 43 29 31
288 498 253 67 23 36
359 916 290 43 42 42
332 768 160 88 61 53
287 508 244 108 14 38
432 748 281 160 110 75
288 513 243 92 26 38
470 484 303 192 124 112
289 508 248 159 9 51
290 513 248 137 20 46
291 508 253 161 7 50
292 509 254 161 7 48
428 812 273 187 120 93
236 522 197 90 25 39
293 513 253 118 12 39
330 718 272 71 28 36
324 411 133 92 78 63
339 563 109 147 23 43
369 633 258 152 12 47
389 812 160 81 63 55
322 410 135 92 78 64
274 683 228 36 27 29
398 506 296 77 20 30
237 542 216 112 38 37
329 412 133 93 78 63
324 409 143 93 78 62
329 411 138 93 78 62
509 942 243 76 64 54
334 413 133 93 78 62
289 723 157 101 21 30
399 831 252 40 35 34
330 411 142 93 78 61
366 713 166 112 22 31
334 412 143 92 77 61
334 412 138 93 78 62
320 535 76 193 12 47
444 453 142 92 25 36
329 409 158 92 77 61
314 958 223 77 72 75
314 968 288 63 59 58
314 603 258 58 29 35
334 411 148 91 76 60
439 508 173 135 7 38
251 553 155 151 1 33
336 411 152 91 76 60
259 553 223 86 5 28
334 410 158 92 77 61
375 519 289 110 31 45
453 493 233 166 12 44
344 414 143 92 77 61
436 708 248 89 44 38
399 833 174 54 46 46
424 424 273 71 48 42
439 413 187 112 21 32
347 415 135 92 77 60
425 613 278 147 101 67
349 415 143 93 78 62
402 733 285 179 130 102
352 390 250 92 79 64
339 412 148 91 76 61
344 413 148 92 78 62
337 410 155 92 77 61
340 411 157 95 79 64
344 411 158 98 83 67
316 284 266 79 62 40
342 410 160 99 83 68
349 413 153 97 82 67
259 713 231 136 89 72
424 430 308 69 35 39
349 413 158 101 85 69
432 699 243 95 35 36
407 608 243 80 26 37
274 338 316 154 103 86
292 283 266 97 77 54
405 689 183 51 42 35
436 788 278 172 117 84
321 384 171 121 100 80
419 427 303 70 33 33
321 386 171 119 99 80
414 848 152 93 73 54
322 392 170 111 94 77
434 429 293 76 58 51
387 420 188 67 39 37
334 938 304 40 38 39
252 584 201 65 23 32
399 438 310 81 29 37
324 393 172 118 99 82
399 583 278 153 109 93
293 379 310 159 111 91
329 393 174 103 85 67
449 708 236 69 55 43
549 934 204 97 86 77
321 398 171 103 87 71
332 398 175 101 84 67
296 910 229 72 61 58
333 388 179 95 79 62
408 674 183 77 54 39
333 393 178 98 82 64
331 388 189 90 75 59
331 393 188 88 73 58
330 393 193 91 75 59
332 388 188 89 74 59
241 816 226 197 142 117
454 428 203 101 10 33
261 836 205 211 140 112
332 394 187 86 72 57
331 398 176 101 84 66
409 683 168 67 50 36
334 398 178 99 82 64
334 398 183 88 74 58
408 823 193 65 55 52
333 398 188 87 72 58
333 398 193 90 76 60
322 408 169 98 83 67
449 508 138 180 13 45
324 408 172 103 87 71
329 403 174 109 92 75
329 408 174 104 87 71
398 815 274 171 123 102
323 410 163 95 79 63
449 422 206 75 28 28
418 723 183 41 35 35
424 413 173 81 30 39
423 496 85 117 37 46
321 411 168 97 81 65
325 412 164 96 80 63
394 893 223 63 56 55
473 482 308 197 132 115
328 411 164 96 80 63
329 414 168 97 81 65
533 902 210 91 70 57
329 413 173 97 82 66
333 412 169 98 82 66
417 633 260 139 103 71
319 877 300 147 116 85
293 438 283 110 21 41
334 413 173 95 79 62
359 881 153 86 75 68
334 403 177 99 82 65
334 688 154 97 24 32
400 904 253 41 37 35
422 518 206 133 9 38
334 403 193 92 77 62
329 625 146 192 8 42
335 407 194 94 79 63
455 735 219 104 85 67
330 413 177 92 77 61
244 643 198 133 99 65
333 413 177 91 75 58
344 408 173 100 84 66
434 435 78 91 17 38
339 410 163 99 84 68
345 411 162 101 85 69
344 409 168 102 86 69
349 412 163 103 86 70
309 263 311 128 100 68
348 410 168 102 85 68
321 493 281 145 10 41
349 410 173 99 83 66
339 403 179 97 81 64
340 406 177 98 82 65
344 407 178 96 80 64
329 758 259 74 60 53
414 637 291 196 138 110
449 428 203 100 15 33
289 763 157 117 61 50
435 438 192 107 12 34
342 405 182 94 79 63
344 407 183 94 79 63
304 283 261 94 73 48
338 405 186 92 77 62
339 407 188 93 78 63
400 426 168 61 25 35
412 842 246 46 40 37
339 408 193 95 80 64
344 408 188 94 79 64
253 588 236 159 107 82
394 843 245 44 39 37
236 598 210 142 104 72
293 733 255 47 26 31
344 407 193 96 81 65
379 852 183 40 34 40
405 648 247 71 54 39
349 406 191 96 81 65
329 773 158 82 61 51
276 305 316 110 87 61
349 408 188 95 80 64
409 488 303 53 24 29
333 278 297 136 97 70
349 409 178 96 81 64
349 409 183 95 80 64
350 416 138 92 77 61
351 416 141 93 78 62
442 531 240 105 14 41
337 797 170 69 54 48
369 943 218 76 69 70
469 920 265 52 45 40
413 623 254 117 89 59
330 416 173 96 80 65
332 416 173 94 79 64
364 908 203 63 58 60
270 303 308 108 89 69
352 415 144 95 80 64
269 308 298 99 82 63
354 415 153 100 85 69
354 414 158 103 87 71
409 698 163 58 46 38
419 878 249 57 50 45
454 443 293 88 10 27
389 763 280 127 93 69
358 415 154 103 87 71
359 415 158 104 88 71
359 414 163 102 85 68
430 528 283 162 111 80
319 613 258 53 29 33
363 415 168 98 82 65
344 678 159 122 12 29
380 643 255 55 22 28
364 415 173 98 82 64
354 843 172 49 43 45
354 407 192 94 79 64
354 410 183 95 80 64
278 758 161 143 106 69
358 410 188 93 79 63
357 410 185 95 80 64
360 411 187 93 78 63
301 898 229 148 115 88
359 408 193 90 76 61
280 293 312 104 84 64
273 354 309 160 110 93
464 463 98 180 10 47
299 568 103 76 33 37
364 414 178 96 81 64
364 412 193 84 70 57
314 448 299 85 22 37
287 922 246 140 111 89
369 414 188 84 70 56
260 523 139 156 1 37
372 415 190 78 64 52
372 415 193 73 60 49
422 663 277 158 106 73
358 888 163 82 71 63
339 622 261 120 23 44
434 553 193 123 18 42
359 418 133 95 76 60
388 814 269 44 37 37
354 417 138 93 78 61
354 416 143 95 80 64
277 286 287 118 97 75
284 692 244 122 6 37
359 418 138 95 78 62
359 417 143 98 82 66
364 419 133 99 71 57
329 268 303 131 97 66
353 404 229 70 61 53
364 418 143 100 82 67
274 558 223 78 24 34
279 533 128 129 14 37
369 420 138 102 68 58
408 705 147 90 65 55
403 572 139 204 17 50
343 478 299 69 19 29
356 416 151 101 85 69
465 453 263 43 32 34
425 414 198 98 52 35
359 416 153 103 87 71
364 417 153 103 87 71
369 419 153 101 84 69
358 848 257 153 121 93
372 420 140 102 61 55
373 420 143 101 66 58
375 421 143 101 52 50
384 424 133 107 22 39
388 903 218 60 53 53
450 508 243 181 13 50
379 422 138 106 30 41
444 909 209 74 64 60
384 424 138 107 21 39
389 803 173 56 48 46
382 601 150 179 11 45
406 764 177 47 40 40
373 419 248 79 69 59
384 423 143 104 19 38
375 421 148 97 58 53
374 420 153 96 74 61
438 920 265 37 35 35
306 446 296 171 14 53
376 421 151 94 60 53
379 421 153 88 45 43
337 271 285 129 94 59
384 422 153 89 26 33
471 428 253 69 27 30
380 421 158 81 53 45
369 417 163 97 81 64
294 748 155 145 9 36
407 931 240 75 68 65
556 984 259 102 85 69
319 268 263 86 67 43
354 708 159 109 21 33
547 1001 259 97 86 77
365 416 168 98 82 64
366 416 171 98 82 64
341 867 279 130 102 70
236 573 215 136 101 69
369 416 173 96 80 63
302 328 316 144 105 75
374 419 163 93 75 60
374 418 168 94 77 61
279 553 228 40 26 28
269 673 223 128 94 79
374 418 173 93 77 61
404 866 153 104 84 66
445 500 283 189 120 102
381 421 163 78 50 43
384 422 163 75 34 35
374 416 188 76 62 51
384 421 168 69 35 37
296 473 277 33 27 30
434 420 252 60 22 27
246 693 190 124 94 58
488 954 252 97 79 65
379 419 173 85 64 53
382 420 169 75 47 42
383 420 173 74 48 43
319 673 257 74 26 36
404 497 301 67 26 32
385 421 173 68 37 38
370 416 178 93 78 62
323 750 255 69 57 50
374 417 183 81 65 53
329 909 173 81 71 69
384 420 183 69 43 39
379 418 188 71 51 43
243 693 224 165 115 89
384 420 188 67 40 37
405 723 286 178 128 98
433 896 128 106 88 74
326 386 195 99 80 61
327 385 200 99 81 61
360 771 271 73 59 58
464 911 219 47 40 34
328 388 198 97 79 60
303 514 265 172 11 53
458 473 233 111 24 39
325 388 203 100 81 60
267 323 291 107 83 55
327 389 201 97 79 60
344 603 134 141 16 40
264 718 182 83 62 47
244 593 193 57 27 33
327 394 202 95 78 60
287 468 259 144 21 49
324 398 208 98 81 63
334 388 208 102 85 67
332 395 194 91 75 60
323 262 260 88 68 42
329 398 208 99 82 65
325 388 214 101 83 63
328 393 211 100 83 64
440 429 192 64 26 31
286 933 244 70 63 62
325 283 303 139 102 71
322 391 216 100 82 63
413 508 298 156 114 100
329 403 203 96 80 63
326 403 205 96 80 63
233 538 203 53 32 35
281 433 262 92 19 38
384 918 218 61 56 57
325 402 207 97 80 63
420 623 263 151 112 79
330 403 199 94 79 63
331 407 199 96 80 63
332 404 196 95 79 63
334 408 198 96 80 64
384 723 144 71 55 49
331 407 202 96 81 64
332 401 206 98 82 65
289 368 312 162 115 92
254 763 174 129 97 62
339 388 204 103 86 68
262 323 301 122 94 64
420 704 146 73 57 41
399 503 92 72 33 37
339 393 203 101 85 68
343 385 205 105 88 69
344 392 201 101 85 68
400 701 156 69 50 49
314 268 311 131 100 64
345 394 199 100 84 68
344 398 198 100 84 67
244 819 225 204 146 122
449 904 211 75 65 60
347 389 204 99 84 68
476 472 307 127 97 72
407 612 244 71 30 36
348 388 208 95 81 66
350 392 208 91 77 63
347 394 200 100 84 67
237 548 196 62 29 33
410 623 252 112 85 58
399 877 128 97 79 66
441 927 215 65 55 52
346 386 211 98 83 67
350 388 218 86 72 59
293 533 243 66 26 33
350 398 218 80 68 56
451 505 248 182 12 48
424 523 203 141 12 45
254 828 193 218 148 117
340 403 199 100 84 67
350 888 173 63 54 50
466 485 292 158 95 84
267 825 225 209 161 135
314 795 166 83 66 55
339 408 198 98 82 65
342 406 196 98 82 66
404 421 238 69 52 45
337 406 201 98 83 66
459 423 204 61 31 38
349 403 218 73 63 53
348 403 223 71 62 53
346 405 220 69 60 51
384 738 147 53 42 37
325 347 268 94 77 60
349 411 219 69 60 52
349 412 222 68 60 51
348 388 228 75 64 53
330 278 300 138 102 72
346 386 233 68 58 49
481 971 253 87 70 50
348 388 233 67 58 50
350 393 233 67 58 50
348 389 238 65 56 48
420 428 158 64 29 34
346 386 242 77 67 58
352 527 285 72 26 31
351 391 243 84 74 63
351 391 248 90 77 64
279 538 129 66 25 35
284 353 314 154 108 83
351 387 252 93 79 64
350 402 227 71 62 53
352 395 205 92 78 64
374 833 166 54 48 44
365 534 284 98 32 43
354 398 208 82 70 58
353 393 213 82 70 58
352 390 214 85 73 60
388 420 193 67 43 38
349 858 163 50 44 46
434 429 288 74 58 51
352 393 216 82 70 58
328 470 295 92 12 32
279 832 222 52 44 41
355 398 213 77 66 56
353 405 194 94 80 64
354 403 198 93 78 63
243 568 173 154 9 47
456 760 222 75 56 44
304 488 278 165 15 54
356 406 196 91 77 62
359 407 198 85 72 58
358 404 203 81 69 57
356 401 207 79 68 56
359 403 208 75 65 55
363 409 203 74 63 52
440 720 123 81 64 49
431 711 275 150 102 69
361 406 208 72 62 53
365 411 198 77 64 52
327 521 70 120 18 36
462 453 223 54 28 32
369 414 198 73 60 49
287 558 127 57 30 34
266 628 225 157 105 90
369 414 203 70 59 49
369 414 208 69 59 50
264 803 173 178 124 89
360 406 214 71 62 53
353 404 216 74 64 54
253 830 220 216 152 124
372 424 239 78 69 59
359 409 217 70 61 53
355 411 223 69 60 52
359 413 223 69 60 52
365 412 213 69 60 51
368 414 213 68 59 51
363 410 217 69 60 52
365 412 218 69 60 51
434 934 258 87 70 61
418 901 221 84 74 71
367 414 218 68 59 51
367 415 223 68 59 51
443 783 213 71 55 46
372 415 198 70 58 47
372 415 203 69 57 47
372 415 206 68 57 48
286 566 130 56 29 31
353 398 233 68 60 52
352 400 230 69 61 53
354 738 164 106 18 30
352 395 235 67 59 52
471 430 243 154 24 48
357 399 239 82 72 63
352 393 248 91 77 63
409 430 148 97 20 35
409 917 263 34 34 36
254 623 193 87 59 50
451 503 155 149 9 43
355 397 248 91 77 62
357 399 243 84 74 63
301 880 235 132 103 76
339 923 188 83 74 74
354 398 253 96 80 64
434 768 203 59 46 39
355 407 227 68 60 52
358 404 233 69 61 53
409 507 90 41 35 40
358 409 229 68 59 51
326 559 271 52 25 27
339 363 273 102 83 64
360 407 233 69 61 53
422 643 282 169 117 85
356 411 226 69 60 50
272 739 245 133 30 52
362 410 233 72 63 54
364 412 228 69 60 52
389 763 148 59 46 39
394 419 268 78 68 59
365 412 233 74 65 57
363 472 302 181 7 57
367 415 233 71 63 55
451 504 238 177 15 54
284 263 283 120 99 77
235 563 233 163 117 93
334 533 275 131 26 48
367 415 238 80 71 62
334 748 263 76 61 54
360 403 243 84 74 63
294 688 248 128 11 41
358 400 253 95 79 62
377 865 161 81 73 66
361 406 242 83 73 62
362 405 245 85 75 64
284 893 283 156 111 93
385 846 155 86 68 58
362 405 248 89 75 62
364 408 248 86 73 61
238 553 239 163 116 93
362 404 253 90 76 61
389 853 158 92 73 60
418 432 148 109 16 40
339 967 298 71 65 62
303 518 78 113 17 37
365 408 253 85 73 60
416 676 246 79 63 45
365 412 248 83 72 60
367 414 248 82 72 61
368 414 253 81 71 60
496 905 224 65 55 46
374 416 198 69 56 47
298 258 310 115 93 67
374 417 208 68 57 48
314 813 241 191 139 116
438 433 288 68 52 47
384 419 208 67 55 46
354 643 261 140 16 47
374 418 213 68 58 49
295 628 242 51 26 30
370 417 218 68 59 51
370 423 223 68 59 51
374 424 222 68 60 51
379 419 213 68 57 47
384 419 213 67 57 47
233 523 238 162 115 92
378 422 224 68 59 50
354 863 158 60 54 55
334 564 107 132 20 41
334 847 265 154 122 95
534 966 258 93 75 57
384 420 218 68 57 48
384 420 223 68 58 48
294 938 218 78 72 73
369 418 238 80 71 62
370 417 243 79 70 60
466 438 270 128 21 44
370 423 233 78 69 60
509 913 218 87 72 59
502 916 210 106 87 69
371 423 238 79 69 60
371 426 225 69 60 52
421 419 154 84 22 37
424 700 146 72 58 45
472 438 113 149 13 45
375 425 228 70 62 53
359 774 153 60 47 40
292 950 232 79 75 76
445 718 221 82 68 54
371 426 234 78 68 60
374 427 238 78 68 59
365 792 266 69 59 57
379 423 228 69 60 51
314 258 257 92 71 46
389 417 278 77 67 58
384 422 233 70 61 52
263 648 191 130 84 61
295 478 273 95 26 39
454 473 218 97 18 35
384 422 238 73 65 56
440 418 203 97 21 30
377 426 234 77 68 59
377 426 238 78 68 59
370 417 248 80 70 60
373 423 243 79 69 59
443 513 224 109 22 39
375 423 248 79 69 59
504 917 219 88 74 62
286 422 277 144 16 48
372 420 253 80 70 60
375 426 242 78 69 59
379 424 243 78 68 58
314 893 213 78 58 46
389 421 233 70 61 52
399 648 218 88 27 37
384 422 243 76 67 58
554 893 204 102 80 65
295 962 258 93 90 92
434 444 64 177 10 35
434 448 64 170 11 34
403 674 169 80 57 43
466 475 276 79 23 30
404 763 163 47 38 37
413 904 254 48 43 41
447 444 298 80 54 44
234 808 203 179 123 92
439 444 64 165 12 35
439 448 64 154 22 43
279 753 161 139 102 66
401 661 220 66 30 36
444 444 64 105 23 32
325 858 208 84 62 53
444 448 64 104 32 41
375 681 265 108 8 32
426 465 197 89 16 23
480 897 192 98 85 74
329 598 263 89 31 41
539 903 195 95 81 73
389 429 83 94 35 35
469 473 322 101 64 61
396 584 147 205 17 53
415 593 193 119 33 45
388 430 80 85 39 34
339 463 299 61 29 32
444 423 268 58 18 25
389 433 79 87 36 38
419 874 232 143 135 137
389 428 88 97 33 35
287 353 261 96 77 55
331 874 174 52 48 48
406 874 223 61 58 59
390 431 82 107 28 38
396 431 86 114 20 28
397 430 89 111 19 25
332 365 296 125 98 66
389 443 78 128 13 34
366 772 147 64 49 38
435 436 77 93 17 37
445 508 163 142 2 43
394 438 76 129 32 43
381 833 171 67 52 48
347 746 160 97 36 38
394 448 80 133 7 35
399 443 78 68 34 37
447 491 104 198 14 51
355 878 147 121 102 93
519 912 208 93 77 64
369 918 209 62 57 60
404 432 88 110 15 25
404 432 93 105 13 26
404 435 80 120 26 22
286 391 301 163 113 94
404 438 78 106 28 32
446 705 236 86 78 73
404 443 78 79 30 36
404 448 79 102 22 36
409 443 77 131 9 30
340 378 288 122 96 64
414 439 79 120 12 25
411 445 75 129 4 32
421 418 173 68 28 34
415 578 228 151 10 45
414 442 77 149 12 18
299 703 254 139 10 43
289 294 316 127 98 72
409 434 88 105 13 26
409 433 93 107 10 25
304 950 222 73 68 71
309 488 279 185 12 58
411 436 82 100 24 40
414 437 83 93 16 38
414 433 93 105 12 28
339 453 300 79 30 38
433 930 238 53 46 44
285 573 133 79 29 38
