ply
format ascii 1.0
comment Created by Open3D
element vertex 2192
property double x
property double y
property double z
property uchar red
property uchar green
property uchar blue
end_header
295 663 269 53 21 28
290 668 264 39 29 31
427 739 333 171 116 83
298 669 276 125 8 40
299 660 275 142 1 42
402 609 348 173 125 99
299 665 275 140 2 44
378 884 226 56 52 53
300 658 274 145 0 43
470 784 280 85 64 53
302 659 277 146 2 45
302 664 278 144 1 45
303 669 281 141 3 44
304 644 280 152 5 47
422 814 191 84 69 58
307 644 282 150 6 46
312 644 287 143 12 46
401 793 188 82 63 53
304 654 280 151 4 47
306 654 283 152 5 47
372 888 299 55 44 38
309 654 285 126 11 42
312 654 288 55 26 33
304 659 280 149 4 46
306 664 282 149 5 46
309 659 285 148 7 47
312 659 288 146 10 45
312 664 288 159 7 50
312 669 288 152 8 47
315 644 289 87 21 36
302 965 322 80 75 73
317 649 291 40 28 32
317 654 291 104 22 42
317 659 292 145 10 44
314 663 290 156 8 49
317 664 292 156 9 50
290 673 268 44 30 33
294 675 276 82 23 34
297 679 281 129 6 40
366 864 297 139 103 82
289 686 280 51 27 28
431 813 331 199 137 110
297 684 283 123 2 38
297 689 287 119 1 36
300 672 279 132 7 42
418 859 247 57 48 47
301 679 283 127 3 40
302 684 287 125 4 39
412 784 336 182 136 106
291 693 288 126 4 38
422 694 268 38 30 30
306 673 284 136 4 41
308 674 286 117 8 39
341 886 210 71 60 57
307 679 287 122 12 40
312 674 288 91 17 38
301 688 289 124 4 38
293 695 290 126 2 39
292 699 292 126 2 39
292 704 294 132 8 41
447 864 285 61 53 47
297 699 293 124 2 38
296 703 294 131 7 41
302 694 292 132 9 41
297 704 295 137 12 43
301 698 294 133 11 42
362 649 304 104 22 40
303 700 295 132 12 41
313 679 291 42 25 30
309 681 290 123 18 45
434 560 303 83 30 37
312 689 296 71 22 33
317 679 293 34 28 29
316 682 294 37 27 28
393 909 261 57 51 51
319 681 295 34 27 29
458 851 291 83 72 62
308 694 295 145 16 47
307 704 297 141 13 44
315 693 299 52 28 34
317 694 301 78 25 38
317 699 301 83 23 37
314 700 300 23 26 32
367 944 338 49 44 42
317 704 301 43 28 32
259 709 260 151 108 83
313 948 253 77 70 71
258 714 260 153 109 85
258 719 261 154 108 85
342 659 302 112 22 42
262 714 262 143 101 78
267 709 263 127 84 66
273 714 267 132 30 44
487 774 298 88 71 57
282 818 219 201 140 110
258 729 260 157 112 88
262 729 262 148 103 81
258 734 261 158 112 88
262 734 263 149 102 81
514 455 208 85 23 33
267 724 264 133 82 67
266 729 264 137 86 69
269 724 265 122 54 51
282 774 278 64 54 48
422 619 277 149 24 49
269 729 265 125 57 53
266 734 264 139 86 69
268 734 266 131 62 57
273 734 272 146 12 45
275 709 273 140 13 43
276 709 277 142 13 44
392 888 243 63 53 52
279 709 286 132 14 43
419 583 342 156 111 77
275 714 273 149 8 46
461 885 286 66 57 50
277 719 282 162 8 51
279 719 286 161 9 49
274 724 272 159 7 49
273 729 272 150 9 45
276 724 277 164 7 50
279 727 285 44 23 27
274 730 275 158 6 48
276 734 277 143 14 46
278 734 281 50 30 34
280 724 288 163 15 52
281 729 287 108 31 46
288 710 295 149 13 47
332 894 346 191 137 118
424 644 307 141 104 76
280 714 289 135 13 46
280 719 289 165 10 52
282 719 292 151 13 48
287 714 296 157 11 49
288 719 296 165 11 52
407 830 308 115 79 66
283 724 292 159 13 51
450 759 312 172 122 86
285 725 294 168 11 53
288 724 296 171 12 54
286 734 293 138 18 47
429 835 256 55 47 44
436 912 269 73 61 54
425 644 313 148 104 71
262 739 263 150 103 81
262 744 263 147 101 79
433 824 252 51 43 43
266 744 264 134 83 67
268 744 266 128 57 54
270 739 269 142 45 52
457 838 285 85 75 68
272 739 272 142 12 44
272 744 272 141 15 44
265 749 264 132 86 67
418 569 342 159 112 79
446 937 272 89 73 58
268 749 266 127 66 57
270 749 269 140 52 56
262 754 264 151 108 83
492 957 268 103 85 66
262 759 265 145 107 81
428 881 249 72 56 47
262 769 267 151 118 87
342 952 345 73 67 66
265 754 264 130 91 68
265 757 264 128 92 67
267 759 265 113 77 55
393 639 312 152 104 91
270 754 268 115 74 57
400 887 244 60 52 52
272 754 272 65 46 43
327 850 242 136 89 69
318 850 292 128 97 75
271 759 268 126 88 64
267 769 268 118 91 62
375 839 205 82 64 54
407 724 332 176 127 101
353 804 213 58 49 47
271 764 268 134 96 68
277 744 277 110 15 38
304 851 317 153 120 94
279 739 281 72 32 39
279 744 280 61 32 35
273 749 276 121 24 45
283 739 287 84 32 42
404 564 319 44 22 30
281 744 283 44 27 31
283 744 286 81 31 39
281 749 283 86 40 46
277 754 277 62 51 47
275 756 274 54 44 44
275 759 274 43 37 37
275 764 273 36 33 35
277 764 276 54 45 41
417 559 317 73 27 37
275 769 274 32 32 37
280 756 279 73 59 52
280 760 279 70 57 51
284 752 285 72 61 54
287 754 286 77 63 56
286 759 284 77 63 56
288 759 285 78 64 57
281 769 278 67 55 49
354 659 305 149 15 50
283 764 281 71 59 52
284 769 280 70 57 51
307 964 277 80 76 78
287 769 282 72 60 53
446 754 322 173 119 86
284 738 290 36 28 30
285 741 289 34 27 33
288 748 290 43 33 34
291 707 294 140 13 44
294 706 295 138 13 43
292 719 298 169 11 54
302 719 299 181 3 57
292 724 298 170 11 53
387 580 333 78 28 38
292 734 297 121 18 45
302 724 299 180 6 57
342 924 343 89 69 58
302 729 299 166 13 54
515 449 210 140 13 44
417 785 195 93 69 52
302 734 299 55 27 32
333 729 312 152 14 47
307 709 298 150 12 47
289 929 292 65 59 58
307 714 299 161 6 50
311 713 299 156 9 49
308 720 300 170 6 53
317 714 300 122 18 43
308 724 300 177 9 56
312 729 300 67 25 34
308 734 300 64 29 36
317 729 301 96 23 41
292 754 288 81 66 59
289 763 285 74 61 55
290 766 284 73 61 54
439 707 314 140 97 65
293 769 285 72 60 54
297 764 288 77 64 56
297 769 287 74 61 54
289 738 295 177 13 56
297 739 297 81 25 37
433 774 162 90 79 76
297 744 296 121 30 49
292 749 292 85 45 49
297 748 295 76 54 50
437 888 247 91 70 56
297 750 293 75 62 56
302 739 298 58 30 33
436 828 258 71 57 51
301 750 294 74 62 57
293 752 290 80 66 60
297 759 289 80 66 58
362 849 211 51 45 46
302 754 293 73 62 56
382 945 317 54 48 45
302 769 289 74 61 54
307 744 297 67 56 52
312 744 298 69 59 54
307 749 296 68 58 52
318 737 300 60 51 45
332 909 346 127 105 85
317 744 298 63 55 51
317 749 298 64 56 51
308 753 295 68 59 53
362 674 311 127 9 39
307 759 293 70 59 53
312 754 296 66 57 53
309 757 295 69 58 52
313 759 295 66 57 52
495 946 234 93 81 72
312 769 293 70 57 51
317 754 298 63 56 52
314 763 295 67 57 52
417 783 193 89 65 49
315 766 294 69 58 51
316 769 294 69 57 51
318 769 295 69 57 51
324 649 295 61 22 31
327 649 296 50 29 33
392 824 196 88 64 48
321 654 294 133 17 46
337 644 300 90 29 41
464 811 285 90 68 57
332 654 299 104 24 43
321 659 294 146 12 45
323 664 296 143 9 45
327 659 296 119 16 41
347 966 261 85 81 84
331 663 299 119 8 36
335 658 299 160 18 53
337 659 300 129 22 46
333 665 301 110 9 33
337 664 301 95 18 35
337 668 304 47 23 29
342 649 302 107 18 39
347 649 303 102 21 39
352 644 303 40 28 30
352 649 303 102 26 40
347 654 303 62 24 32
347 664 304 156 11 49
338 670 305 38 27 30
404 567 318 39 30 29
342 669 306 71 24 33
312 827 223 93 73 64
351 659 304 162 10 51
345 667 304 127 9 36
320 674 294 134 12 45
320 678 294 39 24 27
371 811 309 47 42 42
322 679 296 75 25 34
326 674 298 119 21 43
326 679 299 86 23 36
320 687 299 38 28 27
456 715 295 61 46 35
322 689 302 37 27 29
323 686 300 85 25 34
326 688 303 41 27 29
355 931 350 58 54 55
331 684 303 73 26 34
335 674 304 58 29 35
337 674 306 49 27 30
335 678 304 59 28 32
309 861 288 107 84 57
337 679 306 62 29 34
333 685 305 55 25 29
321 699 304 134 20 48
321 704 304 106 24 42
323 695 305 78 28 37
320 893 242 43 40 41
323 703 305 129 28 49
331 693 309 49 29 33
408 835 189 99 81 66
338 690 310 52 27 30
312 934 242 83 72 71
336 698 314 41 28 31
335 702 314 87 30 40
429 673 305 112 84 55
342 674 308 64 28 33
341 679 308 78 25 35
340 683 309 39 27 30
342 684 311 37 28 30
346 673 309 41 27 32
347 675 310 63 26 33
347 679 312 126 20 44
503 957 248 115 96 79
352 672 309 36 29 32
352 674 311 38 29 32
346 688 314 84 32 41
352 689 318 118 17 40
341 693 314 81 24 34
457 774 296 70 53 41
342 695 316 100 15 35
338 696 315 36 28 26
342 699 318 99 19 38
457 904 282 58 49 46
341 703 319 76 20 34
407 828 312 167 120 97
351 693 319 119 3 35
346 698 319 124 7 38
357 644 304 59 28 33
392 849 218 57 49 50
357 649 304 80 26 36
357 653 304 34 26 29
357 655 305 58 26 33
362 644 304 81 26 37
367 644 304 130 20 45
367 649 304 132 14 43
357 664 305 161 9 51
357 669 307 124 12 41
367 664 305 151 12 46
435 770 158 89 76 73
382 949 282 72 66 64
372 649 303 148 13 46
377 649 302 130 9 39
372 809 310 60 53 50
377 654 303 79 16 32
382 644 301 120 9 37
448 789 302 118 77 55
382 654 301 42 22 26
332 949 348 72 68 68
370 656 305 153 13 49
372 659 304 149 14 47
377 659 303 104 16 38
377 664 303 126 7 38
382 664 302 106 3 32
371 665 305 148 13 45
378 668 304 120 4 36
357 674 311 101 18 36
439 801 329 188 131 105
357 677 314 95 26 40
353 680 315 62 29 30
312 839 262 179 127 101
357 684 318 46 26 30
368 672 309 138 11 43
395 624 328 179 128 110
362 684 318 119 13 39
366 681 315 123 5 36
372 673 308 137 11 42
372 675 310 134 8 41
370 681 315 132 5 41
373 688 319 129 3 40
377 685 316 125 1 38
382 674 306 94 8 31
384 672 304 65 21 28
407 804 229 57 49 50
380 681 310 122 10 39
383 683 309 91 3 28
382 685 312 103 4 31
343 704 321 51 25 33
352 694 321 121 2 37
356 849 305 158 123 94
460 873 299 75 61 51
347 699 321 132 9 40
267 824 262 207 151 126
347 704 323 109 17 39
348 696 320 122 6 38
351 703 324 138 13 44
352 704 326 143 13 45
366 686 320 122 2 36
403 664 331 169 128 103
354 691 320 125 6 35
357 694 323 123 2 38
356 698 324 127 2 39
357 699 326 133 10 42
357 704 327 143 14 45
414 667 291 44 29 32
358 696 325 127 4 40
362 695 326 127 4 39
367 692 324 125 5 36
362 699 328 132 10 41
382 814 203 76 58 48
360 703 329 136 12 43
363 701 330 137 13 43
367 698 329 70 21 33
287 832 229 64 50 52
367 701 330 89 22 36
367 704 331 87 20 35
372 690 321 129 2 39
372 693 323 129 4 39
402 819 202 87 67 50
372 695 326 126 10 38
377 694 323 131 8 41
372 699 328 105 20 38
424 610 282 178 10 53
376 696 325 134 11 42
377 699 326 103 18 37
331 714 308 63 26 33
373 703 329 115 26 42
378 697 324 122 15 43
382 699 323 46 25 28
384 702 324 39 29 27
322 714 302 54 26 32
322 719 301 65 24 32
326 714 304 62 24 32
326 719 303 118 17 42
324 708 305 146 33 54
448 754 317 174 122 89
327 709 306 80 29 38
328 714 306 129 29 50
332 709 312 53 29 34
330 710 309 51 26 32
337 709 317 77 28 37
335 714 314 75 21 32
335 719 313 90 21 35
439 815 313 181 116 89
327 724 303 145 14 46
326 729 303 105 26 42
322 734 302 62 43 41
326 734 303 58 47 43
422 783 222 46 40 40
331 729 308 138 24 50
335 724 314 150 16 50
337 724 317 92 23 39
335 729 314 162 12 53
401 624 343 179 131 105
453 729 267 68 53 40
337 729 316 140 16 48
329 734 305 59 48 44
331 734 308 65 49 45
335 734 314 117 31 50
337 719 317 81 27 37
438 815 317 189 123 96
340 712 319 136 31 56
338 734 316 170 20 57
346 735 319 179 13 58
321 740 299 62 51 44
327 739 303 64 52 46
322 749 299 64 54 47
447 804 292 59 42 33
328 814 290 189 138 115
327 749 301 67 55 49
330 744 304 70 57 51
331 749 303 70 58 51
329 739 305 65 53 48
416 584 322 114 83 56
332 739 307 68 55 50
330 741 304 68 56 51
399 659 326 172 125 104
337 739 312 67 55 51
335 741 309 71 56 51
336 744 308 71 58 52
322 754 298 65 55 48
452 759 307 158 110 76
322 759 298 66 56 50
328 754 301 68 57 50
328 759 300 69 57 50
417 729 334 179 125 96
322 764 298 68 57 51
332 754 303 71 59 52
377 909 317 100 69 57
332 769 301 72 59 53
338 754 306 75 60 54
342 744 312 78 63 56
342 739 316 108 44 53
425 612 264 64 27 36
287 830 263 62 51 47
420 517 335 79 32 38
340 740 314 74 60 55
339 748 310 76 61 53
300 946 260 78 72 73
364 882 304 147 119 94
340 750 309 76 61 54
312 847 312 93 74 51
347 739 318 139 31 54
347 744 317 76 60 55
439 815 306 159 100 74
345 750 314 78 62 56
350 745 319 77 61 56
351 749 318 77 62 56
338 759 306 75 61 54
340 755 308 76 61 55
410 714 334 178 126 100
343 759 310 77 63 55
338 769 306 73 59 53
427 579 297 149 22 51
341 764 308 74 60 53
347 759 313 77 63 55
348 754 315 77 63 56
347 769 311 75 61 55
429 585 294 158 12 50
351 764 314 74 61 54
352 769 313 73 61 54
412 629 301 106 62 47
355 751 319 76 62 55
356 754 319 75 61 55
394 642 320 176 132 114
357 759 318 74 60 55
357 764 316 73 60 55
362 769 317 66 57 55
366 765 319 68 58 55
342 714 321 66 26 34
384 900 246 70 64 64
346 709 324 36 27 32
348 714 325 76 31 40
372 790 202 53 43 40
346 719 324 142 18 48
348 718 325 169 18 56
412 519 337 51 25 29
352 714 327 104 21 42
341 819 293 159 119 97
352 719 327 149 15 52
332 979 287 58 54 53
350 725 324 185 11 58
348 734 321 183 12 58
451 529 292 87 28 39
352 734 323 175 12 55
349 738 320 163 20 55
349 742 320 81 54 49
304 851 321 163 127 105
352 744 321 72 53 51
356 709 329 157 12 50
358 710 330 159 12 51
458 738 267 90 68 46
356 714 329 173 13 55
357 719 328 178 12 57
362 709 332 154 12 48
507 903 281 87 70 56
362 714 332 163 11 51
362 719 332 165 12 52
421 624 267 118 30 45
357 724 328 174 11 56
353 728 325 181 11 57
357 734 326 161 12 51
360 869 305 149 113 88
360 725 329 164 11 51
367 729 332 102 23 41
361 734 329 171 12 54
363 734 330 173 13 55
375 706 330 109 32 47
375 709 330 64 28 34
372 714 331 42 30 32
382 714 328 64 29 37
416 731 335 181 129 101
378 714 329 69 33 39
372 724 331 45 29 31
424 663 305 112 82 55
375 729 330 45 27 30
372 734 331 80 26 37
377 734 329 72 27 34
375 734 330 66 26 33
378 729 329 116 27 46
386 826 304 61 50 47
382 724 328 125 18 46
382 734 327 128 28 48
355 739 324 48 25 31
353 748 320 78 63 56
291 889 296 166 123 97
362 744 327 152 25 55
364 738 330 179 14 58
312 849 247 188 126 96
367 739 330 101 26 40
366 741 329 127 17 44
367 744 328 85 27 39
367 749 326 66 55 52
366 751 324 78 64 60
453 724 272 79 55 40
392 837 295 56 48 44
362 799 310 46 39 42
362 754 321 74 62 58
363 758 320 71 60 56
367 759 321 72 61 57
374 740 329 48 32 33
369 956 323 64 57 54
377 744 328 95 30 39
382 744 328 134 27 47
382 749 328 89 48 51
368 752 325 81 65 61
372 759 322 72 61 57
377 754 326 71 60 55
313 794 290 55 42 40
375 756 324 72 61 57
373 768 320 68 60 57
377 764 323 66 58 55
377 769 322 65 58 54
380 761 324 65 58 54
412 555 319 66 27 36
437 934 272 168 141 131
408 556 319 48 28 32
417 555 319 76 32 36
405 741 329 178 127 103
404 561 319 49 28 32
387 864 227 56 51 52
452 514 302 177 11 55
407 564 317 44 26 29
417 839 288 43 37 34
406 569 317 46 24 30
387 884 233 58 52 53
408 570 313 59 24 31
407 574 317 58 22 32
412 563 316 73 25 33
409 566 314 51 20 30
412 566 314 70 30 38
417 563 315 105 28 42
417 565 314 71 24 35
412 573 310 69 29 34
412 575 309 75 28 36
447 544 287 60 29 35
428 540 319 180 5 57
363 908 232 65 59 60
432 539 317 175 10 55
446 529 302 167 16 53
438 524 318 174 0 56
437 529 317 173 2 54
446 519 312 141 18 50
448 519 307 53 25 32
309 957 340 54 52 53
446 513 316 179 10 57
443 524 312 184 4 58
443 529 307 179 12 56
446 524 307 105 21 43
445 527 305 159 18 51
444 525 308 185 15 61
448 794 297 98 66 49
441 523 316 178 1 57
443 534 302 160 19 51
448 529 298 94 20 40
452 874 286 82 68 63
444 530 304 177 13 54
445 533 301 175 17 57
447 539 292 142 19 49
445 538 296 148 17 50
449 535 293 35 27 32
444 545 293 169 21 52
442 539 302 164 16 52
444 536 299 116 18 44
357 839 217 56 47 45
434 530 319 170 2 54
437 539 312 64 24 35
397 869 292 50 45 43
436 544 311 97 30 44
434 540 314 121 15 44
433 544 313 102 22 40
440 534 311 133 17 48
334 876 218 54 51 52
440 537 310 31 22 31
448 554 267 128 31 49
446 549 282 102 25 43
445 548 286 77 23 36
444 551 284 193 16 59
441 559 282 188 9 56
418 684 282 60 33 36
440 559 287 183 11 54
492 894 277 69 56 45
445 553 281 192 13 57
439 570 267 187 7 55
439 569 272 187 8 54
444 565 262 190 13 56
372 924 248 67 60 62
441 569 262 187 8 54
445 562 261 123 15 42
441 568 267 192 9 55
440 567 272 194 10 55
298 869 292 138 108 80
440 572 261 178 4 52
438 569 277 181 8 52
420 718 335 176 118 88
332 819 290 166 125 103
438 564 287 67 24 35
437 569 287 125 22 45
437 574 277 174 9 51
436 574 282 175 11 49
422 891 296 40 36 34
436 574 287 157 18 49
441 563 277 191 10 57
422 554 317 38 28 31
440 563 282 189 10 55
423 549 318 44 25 29
380 952 282 73 67 65
423 560 313 113 24 44
348 919 338 104 80 63
432 549 312 169 15 55
426 549 316 46 26 31
426 558 311 176 13 56
433 554 308 101 21 40
425 553 315 57 26 32
431 568 301 183 14 58
428 570 303 173 14 55
428 575 298 87 27 38
426 574 302 68 25 35
358 970 271 79 75 78
422 564 312 130 29 49
424 639 312 142 106 73
425 666 303 107 79 52
421 568 311 65 27 37
424 565 309 82 28 39
423 569 308 69 26 36
422 574 307 56 29 35
420 572 310 43 31 30
446 703 259 72 53 38
425 562 310 174 18 61
431 563 305 71 23 32
424 575 304 49 23 32
438 549 302 118 28 45
439 550 299 98 24 36
439 555 298 91 31 41
439 556 294 152 21 47
363 779 203 59 48 45
437 554 302 41 30 32
441 549 297 120 19 42
407 779 191 86 63 48
440 548 300 175 21 57
441 554 292 171 14 50
440 553 296 107 25 41
467 729 262 91 69 47
435 553 305 40 30 32
434 556 304 39 28 32
461 859 297 69 61 54
384 915 250 68 60 61
436 569 292 52 31 35
435 572 295 132 30 51
408 524 337 51 21 28
409 526 334 95 8 28
412 529 333 132 13 42
417 519 336 80 31 38
417 524 333 83 28 36
392 534 362 166 111 94
416 522 335 119 24 42
408 524 341 63 34 36
332 969 327 59 53 51
413 515 339 55 30 31
417 514 337 50 27 31
363 839 213 60 50 50
259 812 224 187 125 95
412 514 352 149 109 81
413 519 352 153 115 85
414 524 352 173 123 95
414 529 347 154 106 82
408 539 332 53 23 29
408 540 335 75 43 39
287 814 273 58 48 43
408 543 332 51 34 30
410 534 337 81 43 38
417 534 331 138 15 45
412 833 302 94 59 51
412 544 326 40 28 30
417 539 327 133 16 45
409 540 329 54 25 32
410 537 331 49 23 31
409 542 335 85 55 46
392 924 272 83 75 72
418 536 329 147 13 47
414 534 347 165 115 87
415 544 342 156 109 80
415 536 344 156 108 82
317 848 328 140 114 92
415 539 345 163 112 85
387 810 201 82 61 50
413 539 352 169 120 90
414 544 348 165 116 87
376 884 222 59 55 57
413 544 352 167 118 87
387 519 367 122 86 71
387 525 364 130 71 67
387 529 362 113 56 55
392 524 367 172 122 98
391 529 363 171 120 103
390 526 364 174 120 105
387 515 369 129 90 75
387 512 370 137 97 80
397 519 369 175 122 92
398 515 369 182 124 95
397 524 369 170 119 89
397 529 368 181 126 98
387 535 359 129 40 50
387 533 360 115 48 51
387 539 357 107 33 43
354 818 300 188 141 119
266 820 264 214 163 139
391 539 358 125 75 65
392 544 357 136 87 75
393 539 362 167 116 97
394 533 365 175 123 102
300 960 297 79 74 73
398 539 365 182 128 106
394 543 361 170 118 99
397 544 363 178 126 102
402 514 367 175 121 94
402 519 367 162 113 82
405 514 365 175 121 94
405 524 365 163 115 84
411 564 356 169 118 91
405 529 365 168 118 89
408 529 363 169 119 88
411 514 357 160 115 87
410 514 360 159 110 81
410 519 360 160 115 82
410 529 360 170 120 93
402 539 365 181 124 98
402 544 364 182 125 98
412 834 297 45 35 35
407 539 362 169 118 90
411 534 357 169 120 92
410 534 360 165 114 89
410 542 360 168 118 89
310 919 241 69 63 64
385 560 344 153 15 49
340 862 227 51 45 44
386 555 348 153 20 51
387 559 346 149 23 50
392 554 352 134 83 72
390 556 349 123 60 57
387 569 341 129 21 46
471 939 246 111 96 86
391 565 344 122 40 50
389 562 345 144 27 50
392 564 347 140 80 72
386 570 339 144 18 48
391 575 338 92 43 44
389 572 340 98 24 39
316 970 292 85 81 82
393 574 342 136 90 78
394 564 351 165 114 94
394 568 350 166 114 95
395 570 349 167 116 96
457 889 282 77 67 59
397 869 232 66 56 55
497 946 259 101 81 64
394 573 346 163 114 94
397 574 352 173 121 99
347 979 292 53 50 49
403 556 323 50 29 27
386 934 267 75 67 66
407 554 322 44 27 28
407 554 327 34 26 29
406 558 320 55 37 31
307 829 267 136 100 80
427 783 228 51 46 45
407 559 328 60 39 32
409 549 327 36 27 28
352 923 342 41 38 38
459 750 289 75 57 45
413 546 324 35 26 33
387 614 306 148 10 46
417 545 324 138 16 46
414 816 235 67 55 54
412 549 332 77 50 39
437 694 307 125 91 58
414 548 336 116 76 57
409 557 330 86 61 48
412 559 331 104 71 50
424 668 300 95 72 48
416 554 337 142 101 71
314 849 267 177 126 97
415 555 334 119 82 56
416 559 333 125 88 59
415 549 347 164 116 86
414 548 349 166 118 86
414 549 352 165 118 86
414 554 353 165 117 88
415 554 351 165 118 86
357 804 306 197 147 126
415 559 351 163 117 86
404 567 320 39 26 29
406 566 324 45 26 25
409 567 325 74 52 40
412 569 327 101 71 50
407 864 291 47 41 39
410 561 329 93 66 50
413 563 330 107 77 51
417 569 332 138 103 70
409 573 320 42 25 27
411 574 322 82 58 46
288 822 219 133 99 82
413 574 326 107 78 55
415 570 329 118 87 58
416 564 347 162 116 83
415 569 350 164 116 86
415 574 350 165 116 83
387 546 354 107 32 43
390 546 354 117 62 57
393 549 357 161 110 92
395 550 359 176 121 101
397 549 361 181 126 103
307 904 339 168 124 108
394 554 356 169 117 97
394 557 355 172 121 99
397 559 357 176 122 100
398 554 360 179 123 101
407 789 212 45 37 39
398 569 356 176 123 100
378 801 204 58 48 47
399 573 355 176 123 101
402 549 362 182 126 99
402 560 359 185 128 101
408 554 359 172 119 90
402 558 360 183 125 101
406 558 360 179 120 95
411 549 357 166 116 86
411 559 356 170 120 89
414 559 353 166 119 86
402 569 357 182 125 100
402 574 356 180 124 100
515 473 196 156 21 51
407 574 356 180 124 94
410 569 355 172 119 90
418 520 334 72 26 35
421 514 336 53 29 31
422 519 333 48 28 31
422 524 331 49 25 31
420 528 330 94 20 37
423 529 328 163 14 54
397 919 330 55 49 47
432 514 327 170 11 53
432 799 238 61 52 49
387 818 311 66 56 51
428 519 328 81 21 35
426 519 330 65 31 35
429 514 329 101 18 40
408 588 311 68 22 33
347 789 211 76 59 53
412 913 287 70 58 51
427 524 327 175 9 56
430 523 325 174 7 55
433 524 323 172 4 54
428 530 324 178 1 56
419 541 324 154 15 52
423 539 323 173 8 55
422 544 322 170 13 53
427 534 323 177 2 55
425 533 325 176 5 53
425 543 320 177 11 56
328 835 296 146 113 90
433 520 324 172 8 55
434 516 324 172 8 56
435 523 320 168 1 51
440 517 320 179 0 53
487 794 296 102 75 64
420 552 320 41 29 33
416 549 342 158 112 81
417 554 342 159 115 81
419 569 337 157 113 81
418 574 342 160 114 80
417 574 347 162 113 81
387 608 312 66 26 32
386 606 314 58 30 33
412 584 304 111 21 42
408 579 308 63 23 32
406 579 312 86 19 34
407 584 312 69 23 33
460 817 283 85 66 56
408 579 316 49 24 30
450 739 302 124 89 61
408 589 307 80 22 34
411 583 305 60 29 33
395 897 254 61 53 54
417 579 306 90 29 41
372 929 346 47 42 39
410 576 319 55 32 27
412 584 318 82 53 43
409 588 304 141 26 52
451 519 302 81 24 36
420 690 271 35 30 31
410 590 306 118 19 42
410 590 313 66 28 32
304 869 326 134 80 91
410 586 314 61 14 39
413 589 316 94 58 45
416 590 318 113 78 55
427 892 299 43 39 37
416 593 300 77 25 35
413 599 299 153 11 48
347 950 252 85 80 83
417 599 297 149 11 45
416 604 296 127 18 44
411 604 302 145 10 46
411 609 302 76 25 36
412 594 312 84 41 39
413 593 316 106 68 49
416 669 267 69 27 33
417 594 317 117 80 57
415 600 314 115 74 56
412 609 307 90 43 41
392 669 302 55 25 28
387 887 234 60 54 53
414 604 311 112 64 51
414 609 310 111 71 52
373 960 277 81 77 77
416 609 313 117 82 56
416 634 262 115 28 45
415 638 262 77 33 40
516 470 138 214 22 52
414 640 262 49 28 34
292 924 277 54 51 53
415 638 267 101 21 37
414 640 267 60 31 36
485 938 232 87 81 78
415 637 276 174 12 50
414 636 279 177 11 47
412 634 287 165 16 53
413 639 282 162 12 48
386 610 308 92 23 38
393 613 311 149 28 52
403 644 337 182 135 112
356 948 249 79 72 73
392 619 307 141 16 45
389 623 305 144 10 46
392 624 306 132 24 44
485 939 247 112 88 72
394 614 317 145 93 82
395 614 315 142 87 79
454 540 273 36 31 33
394 619 317 150 98 86
395 618 315 145 90 80
394 624 313 146 92 80
394 624 317 155 105 90
387 629 303 143 11 46
391 634 303 126 33 45
392 639 302 112 38 46
390 626 304 141 10 44
390 629 304 135 21 44
382 939 332 58 50 46
393 629 306 126 50 51
286 784 205 165 112 78
392 634 307 126 66 60
395 627 310 140 71 69
394 634 317 165 118 102
417 609 293 79 27 36
437 814 322 195 129 102
413 614 297 76 29 39
417 614 292 60 29 35
414 614 294 73 31 40
416 619 291 86 28 40
412 619 297 106 23 40
415 623 290 97 29 41
319 857 259 187 130 96
411 624 297 133 22 43
412 624 302 103 55 47
413 614 307 94 58 46
414 612 310 110 73 52
415 615 309 109 76 53
322 889 237 46 42 43
414 623 305 105 70 52
407 639 297 105 42 43
487 943 247 103 82 65
407 639 292 104 18 39
412 629 292 162 18 51
410 629 297 131 28 44
378 844 204 96 74 61
409 630 297 125 36 43
417 624 287 112 25 43
416 630 304 106 76 50
410 790 200 68 53 47
410 637 290 143 21 43
411 634 299 106 51 43
415 626 304 107 76 53
337 953 345 75 70 70
418 919 303 53 42 36
364 848 299 153 119 93
432 589 267 53 28 36
432 589 272 146 26 50
431 589 287 175 10 50
431 594 267 47 31 35
430 594 272 55 30 36
429 600 267 139 30 50
430 597 267 131 35 50
430 597 272 81 30 37
427 604 267 102 28 41
429 596 278 41 32 33
430 593 282 88 22 38
428 599 282 98 24 42
408 835 221 52 46 47
427 604 277 154 17 48
425 609 277 176 14 51
426 604 282 177 12 51
459 920 289 65 52 47
422 609 287 157 10 50
425 607 285 179 7 55
436 579 272 178 12 50
356 899 327 144 111 85
434 584 272 129 16 42
432 589 262 84 23 38
435 578 282 158 14 46
435 577 287 145 27 49
434 580 282 164 17 50
265 831 246 209 138 109
434 580 287 130 24 46
371 790 314 65 57 55
433 584 282 178 11 49
421 588 300 159 14 51
426 584 297 172 12 54
433 579 292 71 28 35
429 581 294 74 17 30
431 584 292 142 16 47
430 588 291 176 8 54
429 591 289 178 16 58
424 586 299 173 8 55
457 729 272 99 69 42
422 594 297 169 7 52
423 595 294 177 7 56
420 599 295 161 7 49
422 604 292 166 12 51
421 608 291 108 19 42
427 594 292 165 9 50
425 592 295 179 6 57
324 894 228 62 55 56
352 919 236 71 63 66
426 598 290 160 10 47
383 865 226 59 55 57
418 604 317 123 87 60
272 794 272 182 140 107
418 608 316 126 90 63
420 604 319 134 97 65
401 908 272 57 51 50
424 614 262 94 32 41
424 614 272 38 30 35
422 619 262 58 32 37
421 624 262 86 34 43
422 619 267 36 30 35
423 614 277 76 25 38
421 614 287 149 14 48
419 621 284 178 12 54
437 934 307 69 59 51
420 622 281 165 15 50
424 611 278 168 14 50
369 834 209 58 49 47
425 612 275 100 17 34
462 761 300 82 58 41
419 630 262 67 33 37
420 627 258 39 28 33
419 630 267 122 34 48
420 628 267 111 27 42
420 627 271 90 23 33
419 625 278 57 27 33
418 629 277 42 30 35
421 614 317 135 98 67
329 871 238 43 39 40
418 619 311 119 88 60
449 931 274 85 70 57
419 623 310 122 91 61
421 624 312 125 93 64
420 616 314 129 96 66
422 619 317 136 100 67
413 659 301 76 59 39
442 809 312 172 112 85
424 624 316 134 99 67
453 725 299 69 49 38
425 625 318 151 112 77
420 630 308 119 91 61
424 634 315 149 109 76
427 734 333 172 115 84
425 632 314 142 106 73
388 708 324 52 27 30
424 640 318 155 107 76
482 922 302 88 78 69
425 639 317 153 108 76
384 577 335 67 24 33
437 779 232 50 42 41
337 784 303 59 47 45
471 818 303 85 66 54
387 584 331 75 27 34
394 589 337 157 111 93
403 785 188 86 67 55
394 579 342 157 111 92
395 580 343 166 117 97
394 584 341 164 116 97
395 584 343 169 120 99
394 577 345 165 115 95
396 584 347 170 121 99
398 579 352 175 123 99
398 584 351 174 123 99
394 589 340 169 122 100
399 589 350 172 123 99
387 596 324 91 30 37
387 599 321 67 27 34
391 594 327 88 62 55
393 594 332 145 101 86
423 664 333 175 118 91
394 594 337 167 120 99
393 604 327 153 109 93
317 924 346 185 144 124
393 609 322 148 103 88
393 609 327 163 116 99
393 604 332 170 121 103
394 604 337 172 122 102
394 608 336 173 124 103
399 806 221 48 40 45
410 842 290 43 38 35
394 594 340 169 121 100
303 772 199 116 88 63
395 594 343 170 122 99
397 594 347 172 124 99
462 809 277 73 58 50
399 592 350 173 125 100
398 599 346 173 125 99
395 605 339 172 124 103
382 850 207 100 79 68
399 609 346 172 125 101
416 580 323 110 80 56
414 644 262 109 23 39
322 849 327 138 112 87
417 579 327 129 95 67
413 583 320 100 70 50
427 789 183 85 67 51
412 579 353 172 119 86
351 889 331 161 121 97
412 584 353 171 117 87
412 589 352 174 120 88
402 594 351 174 125 98
400 596 349 173 126 99
402 599 350 175 125 99
407 594 352 180 126 98
407 599 351 180 126 99
412 829 312 169 115 89
401 604 349 174 125 99
403 604 350 177 127 100
407 604 350 179 127 98
412 594 351 173 119 89
415 594 350 170 117 88
414 600 349 170 118 86
412 604 350 174 118 89
410 608 350 177 123 93
417 604 347 170 117 88
412 609 349 174 119 90
402 584 353 178 126 100
404 582 355 181 127 102
407 589 353 180 127 98
410 578 355 176 123 88
308 890 267 122 88 60
409 581 354 177 120 89
394 614 327 168 120 102
394 614 332 174 124 105
396 614 337 176 127 105
394 619 322 161 113 98
394 624 322 166 118 101
478 774 303 90 70 56
394 624 326 175 126 108
394 618 331 176 127 107
395 619 332 178 128 108
396 624 332 181 130 110
421 835 185 114 91 71
397 624 337 182 132 108
397 614 342 175 128 103
399 624 341 181 131 106
399 798 222 56 48 50
394 629 322 172 122 105
394 628 325 178 128 110
395 629 327 181 131 111
395 630 324 178 127 110
397 629 332 183 131 111
398 629 337 183 133 109
437 764 333 164 112 78
394 639 321 177 131 111
395 640 323 179 132 113
399 638 335 184 135 112
466 739 260 84 62 43
402 614 347 174 127 100
450 720 268 71 57 47
447 809 247 83 64 56
400 620 344 177 130 104
403 624 346 179 129 103
407 619 348 180 128 101
411 725 334 180 128 99
546 970 252 78 64 51
407 624 347 183 131 105
416 624 346 174 120 90
405 631 344 185 133 105
400 634 338 183 134 109
408 633 345 191 137 108
416 629 345 179 123 93
417 639 343 183 123 97
412 634 345 192 134 107
412 636 344 193 135 108
419 577 338 159 115 82
420 579 332 153 112 79
420 579 337 158 113 82
420 580 329 146 108 75
433 684 317 144 100 65
452 819 267 79 61 51
421 584 332 155 113 80
420 584 337 158 112 79
390 843 207 85 68 55
326 966 270 78 74 77
465 844 292 85 76 68
420 591 324 142 105 71
421 589 337 157 111 77
420 589 342 155 109 75
418 589 347 162 113 84
374 773 320 69 59 58
419 597 320 126 92 64
421 844 247 49 43 43
421 594 323 142 103 72
422 594 337 155 109 77
424 599 332 156 111 77
423 599 337 153 106 73
422 604 322 149 109 76
424 604 327 155 111 78
424 609 326 155 110 75
424 604 332 156 110 76
423 604 337 153 106 72
391 911 325 36 33 34
410 774 204 44 35 38
425 605 329 154 110 76
424 609 337 156 108 73
421 594 342 157 109 77
421 599 342 159 113 80
421 609 342 167 116 85
322 794 207 86 66 57
423 614 322 150 108 75
425 614 331 155 107 72
424 614 333 154 106 72
424 622 320 150 110 74
425 624 322 156 111 77
425 624 326 156 109 74
347 804 216 66 54 48
424 619 332 155 106 72
363 869 303 151 116 94
424 621 329 155 107 72
366 809 205 60 49 42
424 624 328 156 106 73
419 614 344 169 118 87
419 619 344 169 117 87
425 629 322 158 112 81
425 629 326 159 109 77
317 779 293 68 56 50
424 629 328 157 107 73
425 626 334 153 104 69
424 634 327 155 104 73
425 632 325 158 107 78
425 638 320 155 106 78
424 639 332 134 93 60
421 629 341 164 115 83
407 754 331 177 130 102
421 639 340 176 122 95
462 519 262 157 16 49
461 514 272 108 25 42
461 519 267 95 29 40
460 529 262 174 12 48
459 525 268 109 21 39
430 674 317 140 98 64
431 877 255 65 54 51
459 529 264 160 13 49
455 528 282 130 33 51
472 759 267 82 62 48
453 529 287 67 27 37
459 515 278 60 28 32
460 514 277 93 26 38
458 514 287 61 28 35
456 529 277 122 29 47
306 809 284 143 109 92
457 539 262 95 30 41
453 544 267 42 32 36
455 542 266 55 32 30
452 544 272 40 31 34
458 534 267 47 30 33
454 535 278 43 30 32
454 530 283 65 32 36
453 539 277 34 31 35
455 537 275 42 35 38
451 539 282 91 26 40
450 543 281 140 34 55
449 540 288 161 19 51
465 513 262 57 26 31
465 512 265 103 16 39
411 818 234 66 55 55
455 513 296 162 16 49
412 829 237 71 58 58
466 814 292 106 76 61
456 514 292 120 27 47
455 518 291 98 23 38
453 519 297 93 28 38
455 517 295 111 0 31
454 520 293 133 34 52
449 520 303 39 26 31
454 515 298 171 14 54
450 528 296 51 29 32
357 965 317 63 58 55
453 524 292 111 29 44
455 522 290 122 42 58
450 513 306 182 11 56
450 533 291 37 29 33
456 814 268 80 62 52
450 537 290 31 26 36
454 546 258 100 33 40
450 548 272 76 31 38
449 556 259 167 30 53
450 552 265 72 23 28
450 547 275 120 37 51
414 643 272 129 15 37
414 649 267 74 26 34
415 645 272 155 14 46
414 654 267 85 29 39
414 654 272 100 24 39
410 644 287 95 28 41
410 649 287 88 29 40
310 966 294 77 70 69
414 654 277 91 27 39
411 654 287 45 29 32
427 825 312 168 99 75
413 659 262 99 27 37
278 807 214 190 132 99
337 880 341 144 113 81
414 663 261 98 21 36
415 664 263 80 30 37
414 658 267 64 30 34
414 657 271 69 28 32
415 659 272 65 28 34
416 669 272 123 27 43
415 656 274 125 38 49
414 659 282 68 28 35
414 663 283 34 28 33
417 669 282 43 35 33
415 666 285 34 30 35
387 644 300 108 15 37
387 649 300 67 24 31
272 784 273 167 127 95
392 644 302 103 43 49
392 649 301 67 42 43
387 654 301 41 26 29
393 644 307 108 65 55
394 644 312 147 99 88
394 649 312 141 96 84
394 654 312 132 89 76
395 654 317 168 118 102
395 655 314 147 100 87
313 855 292 101 79 56
393 659 302 66 39 43
407 759 332 176 128 101
392 664 302 89 19 35
387 669 303 46 21 26
395 664 307 89 64 56
397 894 297 38 36 36
395 664 312 123 79 68
395 659 317 160 112 97
395 669 312 117 75 65
404 643 295 96 28 42
407 644 297 88 47 40
407 649 292 58 30 36
408 654 293 33 29 33
408 654 296 57 44 36
409 648 289 86 27 36
415 644 299 95 68 46
412 650 300 88 64 44
410 650 290 44 26 31
416 896 266 54 44 42
410 654 299 77 58 40
411 659 291 32 29 31
409 662 294 49 32 36
412 663 297 55 43 36
411 659 299 67 53 37
417 665 298 68 53 39
452 878 247 81 64 55
437 919 277 85 70 66
461 709 276 102 77 49
342 919 342 142 109 85
417 669 292 41 31 32
392 674 303 58 26 28
317 944 247 76 68 69
386 676 305 44 20 25
387 679 306 47 20 26
342 844 227 61 51 50
392 679 306 42 32 31
260 790 215 176 119 84
397 839 193 103 80 60
394 675 306 57 39 38
362 854 208 54 47 46
387 689 312 79 7 26
442 779 237 62 50 45
519 476 174 58 30 34
397 815 318 75 59 53
388 687 309 72 4 26
392 684 308 60 21 28
395 679 309 78 52 45
395 679 312 107 69 60
394 685 311 74 42 38
395 689 317 113 70 60
386 691 316 90 16 35
387 693 317 57 22 26
388 692 314 69 16 23
421 644 303 108 79 56
422 879 287 44 38 35
423 649 307 136 102 70
423 654 306 123 92 60
424 644 312 146 106 73
378 950 271 74 68 69
471 715 268 105 76 50
424 649 311 141 102 69
425 655 308 137 100 69
420 659 304 99 75 47
422 664 302 96 73 48
422 709 335 173 114 84
418 668 296 57 45 34
420 671 294 39 30 35
423 659 305 115 85 55
523 459 192 118 21 41
426 659 308 136 98 68
427 659 312 140 100 68
427 659 317 140 97 65
428 664 317 140 96 64
428 669 307 121 89 59
302 835 231 96 73 65
429 669 317 139 97 63
413 841 289 41 37 33
430 671 317 139 97 63
417 674 262 39 30 32
417 674 267 46 29 32
417 674 272 93 26 37
412 734 334 180 130 101
359 902 324 131 100 78
418 679 267 47 30 31
419 688 262 59 35 34
419 687 267 55 31 33
348 926 345 40 37 37
419 689 273 35 29 32
417 674 277 68 34 34
418 679 277 57 30 32
421 680 288 48 34 32
402 734 328 157 106 88
418 684 277 41 29 30
418 689 277 65 34 35
305 956 270 81 76 77
462 790 299 108 77 61
422 684 287 64 33 36
420 686 284 69 32 36
421 695 272 52 29 33
424 698 258 67 34 33
421 889 251 69 55 52
424 697 269 52 28 34
465 772 259 87 66 56
423 698 272 83 26 36
402 669 331 166 125 99
438 699 312 139 97 63
427 691 263 64 39 33
427 691 266 65 39 32
432 693 268 62 45 34
433 695 271 57 40 33
427 697 269 52 33 31
419 693 273 36 26 33
419 693 277 51 33 34
294 915 282 75 66 62
420 695 277 68 31 35
419 693 281 64 39 35
423 699 277 83 27 36
427 689 288 67 35 37
427 695 284 80 31 35
317 879 337 136 83 79
424 692 285 72 35 36
424 702 276 86 25 37
428 701 278 81 27 36
432 698 282 93 28 39
437 691 262 78 59 45
438 691 266 79 64 52
437 694 272 67 52 43
382 885 295 37 33 30
438 702 260 62 43 38
445 691 259 83 59 37
446 691 262 73 54 39
445 694 259 84 60 41
447 694 262 69 52 39
442 690 267 71 55 42
309 870 278 121 94 67
441 692 268 75 61 49
442 694 272 75 62 53
473 734 277 73 56 40
446 690 267 63 49 37
442 704 258 72 51 41
470 763 299 78 60 45
467 769 297 87 65 49
440 702 260 69 51 43
448 699 262 63 48 37
434 696 275 58 36 34
435 696 288 117 22 41
486 920 300 96 83 71
447 696 276 65 49 37
295 930 329 179 134 112
448 701 286 57 44 32
445 702 284 58 43 36
430 699 330 161 107 76
423 674 296 70 55 41
328 978 287 67 64 64
423 679 292 50 36 35
309 846 318 97 80 63
424 678 295 60 43 37
426 675 298 83 64 44
429 678 301 88 67 48
378 950 317 64 56 53
431 680 303 99 75 54
427 684 292 50 31 32
425 685 289 61 36 36
429 688 291 49 31 33
456 860 273 109 88 73
430 686 294 40 31 31
432 689 297 39 27 29
431 674 312 133 94 60
309 906 254 84 56 45
434 689 302 88 69 49
434 688 317 145 100 65
434 693 297 59 26 28
466 704 282 80 61 43
435 695 298 66 31 30
436 694 302 104 80 53
457 858 290 77 69 61
438 699 302 109 84 55
439 703 301 104 78 52
352 849 217 58 49 47
440 701 295 85 14 32
448 936 268 93 79 66
446 705 291 67 35 31
440 705 302 115 85 56
435 690 316 144 100 65
440 893 300 44 39 37
435 694 317 145 100 66
434 692 319 146 100 64
438 699 307 128 92 60
439 703 312 137 95 64
437 699 317 144 98 65
440 704 307 130 93 62
399 643 330 185 136 115
397 654 322 176 127 108
407 789 222 52 43 43
396 669 322 159 116 96
400 644 333 183 136 115
402 654 332 169 131 108
404 652 335 171 128 107
306 869 328 131 85 91
412 893 298 36 33 33
405 645 339 187 137 113
408 648 340 192 138 114
412 644 342 197 139 112
333 864 242 54 47 47
412 649 341 197 141 114
417 644 341 187 125 100
410 651 339 194 141 115
412 654 339 192 137 113
400 664 328 168 124 102
403 659 331 170 129 106
451 724 301 76 52 40
408 659 336 183 134 110
406 664 333 174 129 104
400 669 329 164 122 99
408 669 335 176 128 102
412 659 338 189 135 110
412 664 337 184 130 103
417 664 337 184 125 98
417 669 336 179 121 93
396 679 322 142 101 84
396 684 322 140 98 83
398 684 327 147 106 88
398 689 326 147 108 88
386 696 320 40 27 28
387 699 321 48 28 28
392 704 323 94 38 39
487 947 277 86 74 64
398 699 326 136 95 78
402 674 331 161 121 96
403 684 331 161 120 95
406 689 334 172 125 99
408 674 335 174 125 99
349 857 309 130 102 69
412 674 336 175 124 96
418 771 172 86 73 64
461 873 248 82 70 61
412 679 336 174 122 96
317 965 332 64 58 57
408 684 335 175 126 99
408 689 335 176 127 100
441 779 331 176 119 89
417 674 336 176 119 89
461 739 291 73 56 43
417 679 335 173 117 86
406 694 334 172 125 99
408 694 335 177 127 100
403 699 331 162 118 95
401 704 328 151 109 89
403 704 331 164 120 97
412 699 336 179 127 98
412 704 336 179 126 99
417 694 335 175 120 89
417 699 336 175 119 89
422 644 337 170 118 88
422 654 336 180 124 96
377 789 316 67 59 56
424 644 322 150 100 70
425 649 327 124 85 52
425 645 328 120 80 51
425 649 331 150 105 70
426 654 327 136 95 61
425 654 331 163 111 80
424 654 334 174 120 91
420 643 340 180 125 97
418 650 339 185 125 98
421 664 335 180 120 92
420 669 335 177 117 90
423 669 333 173 116 87
426 659 322 134 91 60
367 884 197 91 78 74
327 819 218 84 66 57
426 659 327 148 100 68
427 664 327 153 104 71
517 963 237 106 92 78
287 899 307 186 134 115
425 664 331 170 114 85
427 669 327 155 104 72
429 669 322 143 98 65
422 674 333 170 113 83
422 679 333 169 112 81
420 689 335 171 114 84
423 689 334 168 112 80
430 674 322 145 100 66
428 674 327 155 105 74
430 676 325 151 104 72
418 878 289 40 35 32
430 680 326 151 102 70
426 674 331 165 111 81
431 684 326 155 105 73
426 684 331 163 108 76
423 694 334 169 113 81
298 874 288 144 112 84
422 699 335 172 114 85
427 694 332 163 109 77
377 924 341 44 40 38
429 692 329 159 106 74
427 704 333 167 110 79
430 696 330 158 105 74
430 704 330 163 108 78
433 689 322 149 102 68
497 957 271 97 79 66
434 694 322 151 103 70
435 695 321 149 100 68
435 699 322 150 101 69
434 698 324 153 103 71
442 709 258 69 43 38
444 710 260 67 48 41
448 709 266 62 45 38
302 883 337 112 83 64
446 714 262 64 43 36
444 718 260 55 41 34
447 719 262 58 41 35
448 714 267 61 43 36
448 724 262 58 45 38
408 812 184 112 91 74
446 706 296 73 34 31
443 708 299 76 37 34
446 715 301 88 57 42
437 804 331 189 130 103
446 739 317 164 112 80
439 712 319 147 99 67
372 784 316 67 58 56
441 709 312 139 97 64
440 710 316 144 100 65
443 714 312 141 97 64
444 717 308 136 96 63
443 719 317 150 104 70
295 934 328 184 137 117
446 724 312 148 101 69
448 729 307 136 95 65
330 837 229 50 45 51
447 729 312 151 105 72
490 928 247 89 80 74
444 724 317 154 104 72
444 722 314 149 102 69
448 734 312 154 106 74
447 744 317 168 114 83
385 705 325 70 27 33
392 709 324 83 36 38
387 714 326 35 29 31
457 714 277 98 72 46
392 713 324 56 36 36
470 764 263 79 60 46
396 709 324 86 43 42
398 709 326 125 83 69
397 719 326 124 60 55
392 729 326 154 24 50
387 734 327 166 12 52
397 724 326 126 55 53
397 729 326 119 50 50
397 734 326 106 45 46
403 709 330 166 121 98
301 884 282 146 111 82
407 709 333 174 125 99
444 911 275 61 51 48
401 714 328 155 109 89
298 919 262 82 67 63
404 719 330 172 124 100
407 719 332 176 127 100
409 707 335 178 126 100
412 709 335 179 126 98
412 719 335 181 128 99
404 729 330 174 124 101
308 850 325 147 118 95
404 732 330 176 124 101
407 734 331 179 129 103
413 724 335 180 128 97
530 902 276 92 78 70
417 734 334 180 127 97
292 779 282 73 61 54
373 854 287 119 84 64
392 739 327 90 26 38
387 744 328 102 32 43
387 749 327 62 47 45
397 744 326 107 41 43
397 749 325 89 45 43
387 764 325 61 54 51
404 812 325 179 134 111
385 766 324 62 56 53
392 764 326 45 39 39
392 769 326 52 44 41
352 809 302 199 145 125
397 764 326 130 94 69
397 769 327 138 102 74
402 744 328 156 108 89
417 739 334 179 126 95
277 832 237 222 148 117
412 749 334 179 132 102
417 748 334 175 127 94
402 759 327 143 100 76
405 754 329 175 127 102
347 869 207 61 53 49
405 758 329 172 125 99
404 765 330 166 121 95
270 826 230 216 147 116
403 769 330 167 125 96
407 764 332 173 127 99
407 769 333 174 129 100
414 754 335 177 131 99
409 769 335 175 130 102
417 764 336 172 127 95
421 714 335 174 116 86
423 714 334 172 115 84
422 719 334 174 116 86
427 709 333 168 110 80
427 719 333 169 112 81
432 719 331 166 109 79
462 799 272 72 57 48
387 889 237 61 54 55
422 724 334 174 117 87
422 734 334 177 120 90
417 891 296 37 34 33
432 724 331 168 110 79
432 734 332 169 111 80
436 709 326 156 104 73
436 714 327 159 105 76
475 801 305 87 67 52
437 719 327 162 108 77
439 718 324 157 107 74
434 713 329 162 106 78
434 718 329 164 108 78
353 860 208 49 44 45
440 715 321 152 103 71
441 719 322 155 105 73
437 724 328 165 109 78
353 858 308 135 106 73
437 729 328 166 110 78
435 729 330 168 110 79
438 734 328 167 111 78
440 725 325 165 111 81
418 829 183 87 74 64
443 729 322 164 111 79
317 962 336 70 64 62
443 734 322 166 113 80
441 734 326 168 114 82
427 744 333 168 115 81
435 781 229 52 45 43
432 744 332 166 112 79
427 749 333 165 115 80
415 901 310 42 39 38
432 749 332 162 111 77
421 755 335 168 121 87
427 754 334 163 115 78
428 757 334 163 113 78
432 754 333 161 111 76
400 816 319 163 123 99
431 760 335 163 113 79
422 764 336 169 122 88
406 837 295 42 35 34
438 739 328 168 112 81
386 914 252 69 62 63
438 744 328 167 111 80
439 748 329 165 111 78
443 739 323 168 115 83
445 744 321 170 115 85
442 749 326 167 114 82
437 754 331 161 111 77
437 759 332 162 111 77
439 753 329 164 113 80
434 764 334 164 114 79
437 769 333 168 116 82
442 754 327 166 113 82
435 803 239 61 51 47
442 759 327 167 113 81
367 954 262 78 70 70
507 900 278 83 68 55
445 757 325 170 115 81
440 759 330 163 111 79
443 769 327 171 116 83
460 721 295 68 53 41
444 763 324 169 116 82
446 769 322 171 116 82
445 766 325 170 116 83
452 739 297 68 48 35
445 769 325 172 118 84
440 764 330 166 112 80
449 694 267 61 47 37
450 695 268 59 47 37
312 934 343 181 138 120
449 699 265 54 41 35
450 699 267 56 45 35
450 698 264 53 41 34
449 705 266 58 44 35
451 704 268 59 45 35
383 904 246 74 67 68
452 698 277 81 60 42
452 698 282 78 60 45
452 700 287 68 53 41
456 700 287 75 60 48
462 704 277 110 82 53
337 894 217 76 65 63
463 703 289 90 71 52
465 695 288 95 72 49
465 701 283 74 57 43
442 799 240 69 54 48
465 704 287 77 59 42
452 704 291 66 52 40
457 924 301 64 54 47
453 701 291 70 56 46
456 704 292 71 56 46
463 695 291 94 70 48
463 699 291 91 69 49
443 784 327 178 121 92
462 704 290 84 65 46
450 709 268 62 46 39
452 709 272 88 65 44
452 719 272 87 67 48
454 710 275 103 75 48
457 718 276 105 72 42
463 706 274 109 82 56
461 714 276 115 87 55
463 714 273 126 104 79
450 725 264 51 43 37
452 724 267 67 52 40
454 727 270 82 58 37
457 724 273 105 67 40
464 720 268 116 92 66
401 798 184 71 56 48
463 729 267 106 82 58
467 710 273 116 88 59
467 715 268 110 84 59
473 713 272 104 75 54
471 719 268 102 76 55
475 719 272 87 64 50
466 709 287 76 59 41
362 904 232 63 58 59
472 711 281 87 71 57
468 713 283 68 54 40
466 714 287 75 58 41
420 771 214 43 37 39
337 977 302 58 54 53
472 714 282 82 66 51
473 719 283 76 62 47
476 719 277 81 63 49
467 724 265 103 79 57
468 727 265 106 81 59
467 726 264 94 70 47
324 847 319 104 84 60
471 724 267 88 66 50
464 730 264 94 74 53
467 735 259 77 57 36
467 734 260 83 62 42
456 772 254 87 63 51
473 725 272 79 60 43
497 894 277 66 53 45
473 729 272 77 59 44
468 734 283 64 49 35
473 729 282 68 53 41
474 724 277 83 65 48
475 722 276 80 62 47
474 721 279 82 65 48
474 729 277 82 63 46
473 724 282 71 56 42
312 894 341 169 125 106
450 710 289 63 49 37
452 714 296 70 50 39
457 714 293 66 50 37
450 716 300 78 48 39
451 720 300 75 49 39
462 709 291 83 63 44
459 718 294 66 51 37
457 724 297 65 48 36
456 728 295 57 42 31
453 735 294 58 42 33
457 734 293 59 45 32
463 724 293 74 58 43
462 729 292 74 57 42
462 734 291 73 57 42
464 735 288 73 56 44
449 734 307 143 99 69
464 709 289 89 68 48
465 720 290 80 63 45
465 724 290 77 61 45
427 923 321 70 63 58
465 729 290 74 57 41
457 739 262 63 50 40
458 744 261 77 62 48
404 790 222 53 43 42
462 739 262 87 70 52
458 749 261 88 70 55
463 739 287 70 54 41
462 744 287 70 53 40
452 945 297 69 58 53
464 750 284 67 52 39
457 759 260 100 75 50
456 764 261 99 72 46
386 942 322 60 52 48
458 754 261 98 75 55
458 759 288 68 52 40
463 754 282 69 55 42
461 754 286 71 55 44
460 759 285 68 52 41
464 759 279 71 56 42
463 764 282 68 52 39
467 739 259 70 51 34
383 945 312 59 51 48
467 744 259 67 50 35
470 744 259 74 57 40
464 750 259 90 70 49
412 854 236 56 47 46
465 748 260 86 67 50
470 749 259 72 55 39
473 739 267 68 52 39
473 749 267 81 61 45
467 739 283 64 49 37
465 739 285 65 49 37
394 900 256 58 53 54
465 742 285 64 50 38
377 912 323 47 39 34
471 744 281 72 59 50
302 784 203 111 83 68
471 748 277 71 57 45
466 749 281 66 52 38
464 745 284 64 49 37
467 759 257 84 62 44
470 753 259 79 60 42
471 759 271 81 62 48
466 764 258 88 64 48
468 769 262 78 59 49
469 760 260 82 60 46
469 764 261 79 59 47
377 916 331 36 33 34
470 769 267 78 58 47
470 769 271 81 62 51
464 754 279 68 53 40
466 759 276 73 57 43
465 752 281 70 56 43
286 894 312 195 140 125
289 934 287 54 50 51
464 764 278 72 57 44
468 764 273 79 61 47
350 870 325 150 118 84
519 476 160 216 22 61
455 744 295 69 53 42
451 744 302 124 88 60
454 749 298 68 50 39
453 749 302 112 78 54
458 744 292 70 54 40
460 744 290 69 51 37
457 749 292 69 53 41
391 909 258 60 54 54
449 738 308 150 104 72
450 739 307 147 103 71
450 744 307 150 106 73
450 744 310 158 111 79
451 749 307 149 106 74
454 754 298 72 53 40
421 787 229 53 48 48
453 754 302 119 83 57
454 762 299 91 62 46
457 763 298 76 54 41
457 764 301 95 66 47
453 770 298 98 69 50
457 769 298 78 57 44
404 906 315 40 38 38
457 759 292 65 50 39
400 928 298 89 77 70
458 769 291 60 45 34
459 769 288 61 47 38
462 769 297 78 58 44
463 760 298 72 54 39
425 814 193 85 74 64
463 768 302 79 58 43
452 754 307 153 109 75
427 859 266 60 49 45
449 754 314 174 123 88
449 759 314 175 124 88
450 768 311 166 113 80
365 851 300 152 116 91
450 760 315 175 124 88
467 765 298 78 59 45
467 765 301 72 55 42
470 764 302 77 60 46
476 769 304 92 74 60
443 876 247 72 54 44
466 775 285 81 67 56
488 758 298 92 70 53
487 760 302 92 70 54
489 756 301 93 71 55
491 758 298 92 70 54
292 779 203 162 112 76
287 889 317 175 127 111
483 765 306 94 74 59
484 761 305 86 65 51
487 768 306 99 76 61
491 760 306 91 71 56
383 825 203 70 53 47
318 909 232 68 62 64
489 906 290 83 74 66
272 779 207 155 108 71
272 784 208 167 115 79
261 774 210 168 115 80
272 774 208 129 93 58
266 785 210 174 119 83
437 838 290 57 47 43
258 788 214 176 117 84
262 799 217 174 119 83
259 798 219 172 116 81
267 789 211 178 121 87
302 779 286 70 58 51
273 789 209 172 117 84
268 798 214 179 125 89
272 794 210 175 119 86
272 799 212 177 123 88
282 779 205 156 107 72
282 784 206 164 112 77
277 789 207 170 116 82
287 789 206 169 114 81
287 794 207 171 118 83
274 792 209 173 118 84
277 793 209 172 117 84
373 792 203 51 42 38
277 799 211 175 120 85
