ply
format ascii 1.0
comment Created by Open3D
element vertex 2216
property double x
property double y
property double z
property uchar red
property uchar green
property uchar blue
end_header
373 550 302 165 11 51
318 525 146 129 24 42
333 405 217 93 78 62
348 205 257 112 89 64
412 140 241 115 92 67
520 502 237 99 29 38
485 707 219 168 111 81
419 845 161 67 51 49
423 530 173 84 33 42
296 724 245 70 16 28
321 445 173 104 12 35
405 100 201 130 28 42
344 221 225 128 95 58
349 210 226 126 94 58
363 406 182 85 64 54
346 213 224 125 93 57
405 120 244 117 94 68
442 570 202 146 3 35
332 607 195 122 44 50
410 446 150 71 35 36
445 889 284 72 61 54
342 235 276 116 93 66
419 541 175 100 32 40
351 215 229 125 92 57
408 407 143 103 69 43
270 500 233 69 34 39
271 420 283 126 29 45
388 230 211 129 98 60
320 711 305 35 29 32
348 220 227 127 93 58
392 225 253 121 97 72
373 325 232 101 82 61
440 626 249 182 0 58
339 234 279 112 90 65
353 225 232 125 91 58
468 480 262 161 8 50
485 430 185 103 30 37
400 66 249 132 29 54
351 211 256 112 88 61
339 276 245 90 70 46
426 350 256 125 98 66
349 425 140 119 15 35
333 230 223 137 101 65
323 233 224 140 101 65
323 755 211 96 30 37
386 106 206 137 19 41
323 300 252 113 85 58
328 234 224 140 102 65
415 926 247 69 62 65
428 905 287 60 52 52
328 236 225 139 102 65
398 156 250 114 90 66
346 430 139 141 7 29
463 565 263 100 9 34
333 705 207 112 19 34
389 500 155 149 1 32
323 245 228 135 98 63
403 485 292 151 14 47
344 854 234 169 118 88
310 623 219 205 10 51
460 587 243 150 33 56
419 250 211 130 99 60
328 245 227 137 99 64
307 490 182 60 30 33
445 580 211 121 18 35
322 251 230 123 90 58
318 190 261 109 92 74
396 255 259 118 95 69
403 220 206 124 96 60
326 252 230 123 91 58
328 255 231 115 87 56
333 245 227 136 99 63
413 940 252 67 60 61
398 403 172 93 79 64
352 305 312 125 91 65
332 249 229 132 97 62
306 450 143 112 7 35
421 352 265 120 93 59
427 225 237 116 92 66
333 255 232 116 88 56
414 195 210 127 99 65
339 745 204 88 32 37
483 630 199 121 93 60
398 75 186 132 29 36
336 230 224 136 101 63
343 230 228 131 95 58
353 705 318 108 19 38
373 440 312 160 16 51
283 735 258 128 95 64
271 621 308 166 118 93
336 233 224 136 101 62
358 950 316 53 50 50
522 470 207 50 40 33
338 235 226 134 99 62
430 598 279 139 4 41
363 540 159 59 34 40
313 435 113 146 25 37
338 240 228 134 98 62
434 556 185 154 1 34
372 370 252 72 59 45
341 239 229 132 96 60
286 476 311 120 86 67
337 421 134 127 33 33
381 195 238 111 89 65
378 35 267 131 21 48
363 901 175 75 65 63
387 799 275 189 134 112
307 695 237 131 14 43
273 435 317 79 27 36
504 490 217 101 14 28
343 240 232 129 94 59
413 320 272 138 94 69
347 229 229 128 92 58
352 230 233 124 91 56
393 590 299 173 15 54
346 233 229 129 93 59
393 425 143 138 3 27
348 235 232 127 92 57
413 450 153 58 36 41
408 50 222 83 43 34
362 569 169 95 23 40
346 239 234 127 91 58
348 240 237 125 91 58
411 81 212 122 23 43
463 555 262 152 11 48
351 234 234 125 91 57
303 630 232 149 20 47
270 530 267 88 21 35
353 235 237 123 90 56
349 237 235 127 93 59
338 560 311 63 27 33
416 345 214 95 84 73
318 429 142 87 15 30
411 538 169 64 36 41
284 625 274 129 96 65
388 20 237 90 76 64
348 977 282 77 74 74
383 525 159 40 36 41
448 724 132 100 71 50
458 840 217 76 58 52
412 614 194 115 34 43
296 449 134 79 25 33
372 533 159 151 3 29
396 500 295 155 9 47
299 580 192 132 8 37
472 702 194 120 89 55
352 240 238 121 88 56
339 245 231 131 95 61
380 255 246 98 80 61
324 915 227 81 64 57
343 245 233 128 94 58
418 480 161 122 22 37
344 246 236 125 91 56
343 798 290 80 63 56
493 455 255 36 28 30
339 256 235 108 82 53
353 690 201 119 12 30
302 489 148 52 28 30
363 460 312 66 28 33
498 766 210 79 63 48
287 520 197 93 26 35
343 255 237 109 82 52
276 560 276 37 30 36
423 360 267 123 96 63
409 145 216 109 91 71
348 245 237 122 89 56
398 615 193 123 23 37
423 715 131 82 57 44
352 245 238 119 86 57
348 250 238 116 86 55
415 927 236 69 62 63
373 385 222 86 71 60
308 735 222 130 8 34
348 255 242 107 82 54
361 301 281 123 97 67
349 251 240 112 84 56
271 806 287 189 132 105
515 486 203 89 26 35
395 13 255 90 60 55
416 485 285 154 10 47
393 260 256 98 80 59
504 423 207 85 24 32
310 240 276 116 94 70
371 978 239 83 79 82
353 250 242 112 83 54
361 365 242 134 101 86
452 407 207 101 75 62
383 195 217 115 90 58
392 245 253 111 89 66
317 409 236 99 85 70
383 205 217 119 92 60
470 527 215 54 33 29
348 406 202 85 70 54
363 981 252 72 68 69
373 350 257 76 64 51
430 582 279 171 23 54
381 212 220 115 89 58
360 402 198 84 67 56
383 215 217 120 93 59
363 899 173 77 66 62
385 125 237 117 87 66
432 957 304 68 53 48
523 490 196 147 9 37
381 215 220 115 89 57
379 225 223 113 88 57
403 716 189 60 36 36
422 859 273 39 35 32
290 425 234 65 34 37
384 225 217 124 95 60
381 225 221 119 91 57
353 195 232 114 89 58
334 696 310 48 26 31
398 505 158 67 32 37
353 200 232 117 91 58
483 625 199 118 91 60
353 195 237 109 87 61
354 205 232 120 92 59
457 530 207 41 35 38
353 205 247 109 85 56
388 515 157 99 29 35
424 200 227 122 99 74
374 380 262 62 51 40
324 315 254 103 82 57
354 210 237 112 88 59
284 760 247 122 91 56
334 430 130 129 11 33
314 905 257 164 122 100
268 480 287 123 76 71
355 215 237 114 88 60
411 85 222 109 45 47
478 508 209 49 34 37
379 630 299 95 39 45
355 219 237 117 89 58
295 580 309 86 63 53
402 75 188 134 26 35
276 710 299 161 110 84
356 221 237 116 89 59
410 168 249 121 97 71
413 750 131 63 50 38
414 930 275 62 55 59
503 450 252 41 30 31
319 356 249 95 81 67
345 224 268 113 90 63
356 224 238 118 90 58
354 210 242 108 84 56
326 337 249 93 79 64
353 395 246 89 73 56
271 515 272 114 19 38
284 580 237 170 8 44
308 430 160 123 6 38
405 123 244 118 95 69
354 215 242 108 85 57
343 720 203 132 6 31
301 499 186 68 28 32
354 215 247 109 84 56
410 60 227 125 23 43
407 855 163 53 44 46
538 515 231 173 136 121
353 210 252 110 86 58
341 418 177 60 34 29
425 892 240 75 64 62
411 76 222 116 46 48
352 215 257 114 90 62
413 475 158 87 33 40
281 510 210 146 4 38
369 894 157 81 70 64
355 220 242 108 85 57
286 542 210 163 8 42
493 939 281 114 92 71
332 942 210 80 71 73
312 240 278 116 95 71
355 225 242 108 84 57
313 515 312 168 15 53
414 240 259 126 99 67
356 223 242 108 84 56
361 370 297 133 95 72
328 840 232 181 124 97
354 225 252 111 85 57
374 50 261 117 23 43
478 820 252 67 53 41
378 220 227 108 85 59
353 225 257 113 88 59
337 281 305 102 84 64
378 200 227 111 89 63
422 280 218 128 96 58
344 685 204 126 10 30
378 200 232 116 94 71
284 441 324 62 29 32
378 205 232 116 95 71
295 461 213 93 21 29
454 660 212 69 56 40
478 815 212 125 87 73
523 460 214 98 28 34
528 959 282 94 84 75
379 205 237 107 86 63
307 631 231 170 14 49
384 195 242 114 91 66
383 200 242 113 90 66
314 435 208 76 29 30
468 735 231 161 113 87
389 880 162 80 69 64
383 205 242 111 90 66
305 692 244 127 18 42
358 445 145 143 6 34
423 940 282 60 55 54
378 210 232 113 93 71
423 404 172 145 50 41
358 370 247 128 99 83
378 215 227 109 87 61
480 840 257 69 55 44
520 433 234 61 21 23
399 39 221 110 94 80
379 210 237 107 87 65
478 680 231 167 125 95
307 459 205 66 29 28
406 52 213 90 72 50
413 894 298 38 34 33
280 475 223 72 28 32
458 605 237 173 15 54
303 826 293 191 134 108
378 220 232 108 89 69
422 665 209 48 36 35
343 365 317 143 102 73
319 279 244 114 85 57
338 11 267 117 37 48
408 710 298 85 30 41
510 551 204 114 91 65
378 225 227 109 86 57
378 225 232 108 88 65
378 225 237 109 91 72
425 355 221 92 81 71
368 19 291 177 123 119
423 340 222 97 85 73
361 749 310 168 43 69
266 492 324 159 118 97
380 212 240 96 78 57
407 41 228 78 44 27
383 215 243 104 83 61
428 310 247 130 101 67
508 480 244 136 13 41
410 321 215 88 76 64
313 403 240 99 85 70
383 330 267 71 59 47
507 529 217 48 34 35
423 854 157 91 71 56
328 445 127 143 1 32
422 200 237 116 94 71
298 630 242 63 29 38
464 546 220 48 32 37
300 760 224 48 44 44
381 382 280 63 47 31
380 220 241 98 79 59
323 500 316 173 12 54
446 624 237 181 14 57
419 359 269 123 96 61
380 225 241 99 82 63
433 380 252 110 88 63
385 108 212 127 35 43
382 220 243 100 80 58
450 719 257 36 29 34
423 406 157 184 18 19
306 344 283 125 98 68
380 230 223 116 90 58
384 235 217 125 96 59
454 934 289 64 53 44
270 485 247 110 18 35
445 612 249 180 12 56
381 240 221 123 94 61
442 760 143 77 59 48
380 240 224 120 92 58
271 425 312 95 24 38
353 404 202 83 69 54
387 125 242 115 91 69
372 465 310 148 21 49
384 245 217 126 97 61
431 371 228 110 90 67
441 733 126 89 67 52
305 236 261 117 93 66
393 215 253 119 96 71
380 245 224 122 93 59
392 54 190 122 30 19
369 390 222 83 68 58
475 571 222 101 27 41
288 725 306 171 119 91
524 455 216 72 35 34
384 250 217 127 98 62
398 955 236 74 67 69
477 777 186 142 98 70
295 500 146 130 10 39
385 170 240 110 88 64
525 453 220 35 32 32
382 250 222 123 94 60
269 495 262 101 24 38
380 249 224 121 93 59
308 900 267 174 128 106
306 465 147 93 17 33
378 525 301 111 28 43
285 473 309 116 82 64
306 229 258 117 94 69
354 381 229 94 76 55
427 795 127 67 56 47
382 255 222 123 95 61
354 230 237 122 90 57
355 230 247 104 80 52
299 455 212 92 22 27
336 222 275 113 92 68
346 403 210 86 71 55
356 226 246 106 82 52
271 480 242 88 25 36
353 401 207 83 70 55
354 230 252 110 84 55
361 803 285 156 118 98
377 879 151 116 92 73
354 230 257 112 87 57
265 778 282 179 124 95
291 515 191 73 25 30
355 235 242 112 85 56
417 406 280 113 83 59
398 165 211 127 96 58
279 700 301 164 113 88
354 240 242 115 86 56
341 695 205 129 4 33
354 245 242 115 85 57
361 383 246 120 93 77
355 245 252 105 80 52
349 375 314 144 102 75
354 245 257 108 82 53
343 570 168 131 27 43
363 405 187 85 59 50
354 250 247 103 80 54
354 250 257 105 80 52
402 925 305 41 36 36
358 525 155 153 0 33
410 340 274 137 97 73
345 281 250 92 73 53
407 25 262 118 44 51
418 395 277 133 97 66
435 861 228 50 44 49
353 255 252 101 78 52
379 230 227 113 87 57
516 483 206 46 38 37
304 481 193 45 29 29
494 496 221 91 22 34
406 110 219 104 79 55
421 454 159 98 34 38
276 450 284 64 27 31
338 765 306 81 66 59
378 230 237 108 90 71
393 580 178 50 36 41
395 225 255 121 97 71
330 814 219 77 61 53
343 540 153 139 24 40
354 390 308 127 93 71
296 489 200 96 20 32
286 556 216 111 22 39
378 235 232 110 87 60
379 240 227 117 89 56
385 836 167 41 38 38
352 404 239 88 73 57
448 704 190 74 54 42
423 406 162 178 23 19
440 606 210 97 27 36
428 854 273 40 35 33
425 210 222 122 99 72
390 135 245 115 93 68
470 572 237 50 26 30
379 240 232 112 87 58
384 225 246 106 85 62
450 735 245 40 25 32
429 230 227 119 96 70
444 535 180 115 15 37
383 235 246 97 77 55
383 240 247 94 75 55
379 245 232 113 88 58
425 215 237 113 91 67
416 160 241 116 94 69
378 245 237 108 87 65
403 200 209 118 94 66
379 250 232 114 88 58
381 251 225 121 92 58
258 480 292 117 71 68
443 495 170 92 21 33
356 280 272 105 83 57
409 125 222 110 91 71
368 905 176 81 71 70
533 480 236 41 28 30
267 510 287 48 31 33
406 74 240 133 18 51
381 255 226 120 92 59
353 380 242 100 80 63
380 255 227 117 90 59
380 255 232 112 87 58
316 883 298 121 54 64
386 852 187 40 38 40
482 530 266 64 30 33
412 784 270 87 67 59
378 250 237 108 86 63
398 355 211 92 81 71
378 245 242 105 88 70
304 525 161 88 20 33
380 245 245 97 78 57
362 380 262 96 74 61
380 250 246 97 79 58
353 11 262 94 39 39
289 495 203 119 5 31
338 845 232 174 117 91
382 255 248 92 75 55
304 500 162 73 24 31
384 250 250 90 73 53
375 407 154 94 77 63
384 255 250 89 72 53
465 492 190 165 3 37
388 55 192 107 27 21
288 600 242 55 32 36
322 859 297 148 115 93
387 60 191 105 34 24
541 499 229 66 44 40
388 65 188 103 38 25
483 415 202 108 34 39
379 320 223 106 86 65
389 61 188 112 27 23
385 108 208 132 16 44
454 560 216 144 11 35
298 395 257 102 84 66
304 380 302 125 98 70
393 65 187 100 40 24
399 60 191 87 43 20
402 61 193 86 46 29
387 12 248 75 65 57
308 720 300 144 94 80
378 599 184 170 5 37
288 705 307 168 117 92
393 14 247 87 73 63
269 585 288 137 100 71
393 16 243 92 77 63
436 700 163 56 47 37
444 761 146 74 57 46
268 430 266 93 27 38
388 11 257 84 60 54
417 879 199 74 63 61
425 209 227 122 99 74
409 746 133 59 48 40
412 564 179 161 3 37
392 12 253 82 63 57
395 517 160 86 36 40
406 22 243 109 63 58
426 310 228 106 86 64
295 763 229 56 50 48
394 13 251 85 66 59
292 580 212 84 29 37
398 16 247 98 77 66
465 861 267 83 68 57
268 510 257 65 29 36
388 25 232 95 81 68
373 395 262 63 50 37
438 575 273 157 18 51
401 105 245 119 96 71
386 23 235 91 79 66
419 224 210 125 98 64
393 21 237 105 77 61
524 467 207 55 44 40
407 85 237 107 82 64
392 815 157 45 40 39
398 590 297 145 18 48
392 27 229 111 77 55
388 32 223 104 82 65
423 404 182 111 69 56
402 790 141 59 47 37
297 440 111 77 36 40
278 475 227 77 32 33
429 766 269 92 71 63
540 752 200 111 90 72
476 553 216 72 27 31
393 30 227 123 71 46
425 390 210 103 89 75
317 460 319 149 20 48
373 370 257 69 57 44
523 550 201 157 116 80
522 580 208 158 112 76
292 439 321 84 30 37
304 670 299 155 116 91
420 924 280 59 51 52
392 32 224 122 71 49
286 467 305 114 76 62
293 795 237 63 52 50
357 285 262 110 89 70
382 259 249 93 76 58
325 391 234 92 80 68
394 23 235 111 79 59
398 26 233 107 91 71
296 719 252 105 15 34
313 426 157 81 17 29
443 837 266 46 38 32
508 490 247 41 28 32
484 591 207 81 62 40
393 220 253 118 94 69
275 490 224 74 33 36
398 24 236 105 91 76
484 801 212 90 65 53
398 22 238 103 89 73
343 889 314 139 108 79
296 597 215 123 23 41
268 454 307 71 53 43
416 842 239 24 23 24
354 900 314 169 125 101
373 27 274 138 45 58
395 28 230 121 77 31
393 540 164 104 24 36
324 18 266 174 136 131
316 650 230 168 6 43
388 18 240 87 75 61
369 867 187 32 30 33
394 18 241 98 79 62
392 170 248 114 92 67
418 190 247 119 96 70
423 695 287 81 22 36
318 480 131 155 10 36
397 17 244 97 81 67
398 19 242 101 86 72
463 675 231 118 83 66
413 225 206 125 97 62
403 14 257 101 49 48
298 630 247 125 26 47
398 889 287 35 32 31
407 16 257 110 40 46
406 26 238 85 44 38
291 639 310 174 127 100
358 465 313 49 29 32
408 225 206 124 96 61
308 240 272 117 94 69
509 561 220 114 82 66
538 490 191 94 74 55
323 838 270 54 44 43
318 315 258 113 88 61
472 539 270 41 26 30
406 32 234 63 36 19
322 292 250 116 87 60
301 383 294 125 98 70
403 21 242 107 88 75
457 474 169 150 4 31
402 17 248 104 70 63
394 245 208 130 99 61
404 23 240 109 92 80
504 791 228 86 63 47
407 21 247 112 43 49
374 799 173 63 52 49
407 25 242 99 60 53
408 25 247 94 40 37
269 490 262 82 29 37
393 135 212 128 90 54
350 887 215 42 38 42
500 423 201 92 32 37
405 18 250 109 55 55
408 20 252 111 37 45
412 455 153 76 30 39
408 20 257 114 31 44
306 728 225 89 22 34
298 520 178 122 16 34
408 25 252 102 49 44
348 940 312 101 75 67
364 360 277 98 72 52
338 320 253 88 74 58
409 30 242 69 47 39
413 405 281 106 75 53
409 30 247 96 39 41
433 870 287 42 37 33
303 380 297 127 99 70
500 646 205 140 101 63
343 740 203 97 27 33
448 930 279 82 65 57
309 250 277 119 95 68
310 305 264 120 93 66
460 413 170 146 19 20
419 175 232 114 93 71
406 480 290 129 18 45
347 255 281 115 92 64
394 874 264 58 44 37
409 30 252 126 78 68
281 557 230 99 35 41
322 315 255 107 84 59
291 498 200 115 5 30
470 740 181 107 83 56
338 11 262 112 41 46
300 508 139 46 33 39
390 45 194 129 31 13
388 46 202 112 83 59
350 380 234 92 75 58
416 929 266 65 58 60
450 770 249 161 114 87
398 325 278 131 93 71
393 46 202 118 81 54
398 46 207 119 99 78
393 41 212 120 77 51
409 925 226 69 60 60
285 446 238 92 22 27
393 38 216 120 79 49
358 23 261 104 29 43
379 835 183 57 52 53
286 827 289 203 136 109
358 376 229 107 83 65
391 65 255 115 68 57
268 440 281 64 24 31
385 220 245 110 87 64
388 34 222 102 85 70
305 240 262 118 94 66
504 516 238 103 21 35
388 36 218 104 87 71
316 665 230 44 28 36
319 345 310 123 97 69
393 36 218 118 76 53
403 280 266 103 82 59
405 46 248 132 25 49
301 714 241 102 20 33
393 34 222 125 70 48
385 42 214 101 86 70
282 760 252 107 78 48
392 42 209 119 74 53
299 380 282 124 98 70
365 407 174 93 64 56
293 785 307 177 133 101
311 685 295 74 49 44
401 71 188 122 28 28
498 810 232 90 70 59
398 36 222 114 92 71
408 885 196 67 60 61
405 673 289 116 9 36
396 37 219 120 86 49
410 139 220 111 92 73
398 40 217 117 97 73
381 285 226 111 89 64
415 315 268 124 88 58
388 300 218 101 83 65
385 150 219 118 88 51
394 43 210 120 82 57
276 690 298 164 111 86
411 790 130 86 69 58
482 795 255 79 60 47
311 906 292 185 134 119
363 425 317 113 20 40
504 635 223 187 133 104
310 342 300 124 97 68
397 42 213 121 95 64
488 801 217 84 62 50
419 915 276 59 52 54
400 43 215 119 103 86
367 26 273 148 34 60
388 50 197 111 64 40
385 52 199 113 99 84
389 50 193 120 24 18
413 939 308 45 41 39
353 370 252 116 91 75
386 49 201 109 92 70
386 48 205 107 93 77
395 48 197 118 73 36
454 540 207 41 35 37
347 28 260 145 18 53
442 700 262 62 20 32
376 891 290 128 99 70
398 50 197 114 88 59
413 145 227 116 95 72
400 48 206 121 105 88
361 345 292 127 89 66
321 409 231 95 81 68
428 713 129 78 53 40
372 330 257 75 62 50
378 395 267 59 47 35
422 859 134 115 91 71
401 47 209 120 105 89
420 912 299 45 41 40
272 525 232 58 30 36
310 346 259 110 90 67
488 500 256 142 21 46
318 205 268 110 92 73
423 945 307 48 44 42
425 270 249 132 99 64
292 570 311 117 78 65
407 46 222 78 45 35
406 47 219 77 64 47
402 56 198 98 77 50
417 849 248 39 35 32
383 406 157 92 77 63
417 330 218 97 84 70
272 505 272 128 17 42
299 401 248 99 85 71
373 388 217 97 75 63
483 645 228 188 139 114
402 51 203 125 109 92
354 412 152 62 47 43
340 855 266 134 93 74
403 50 207 105 92 78
425 305 226 107 86 63
457 864 282 70 56 46
404 54 201 120 103 84
383 270 252 88 72 56
407 56 203 86 72 55
302 685 262 43 34 34
283 770 305 164 120 90
405 53 207 91 79 65
407 56 207 83 63 41
368 430 315 105 23 41
423 670 272 146 10 45
312 815 230 76 60 53
405 63 195 83 47 19
421 269 214 131 97 58
325 441 125 164 5 36
428 750 282 174 26 60
360 366 270 92 71 52
406 66 194 106 49 36
410 140 244 116 93 66
408 65 197 104 48 38
514 757 221 113 88 58
338 590 181 90 35 42
325 338 249 94 79 64
408 60 202 87 53 30
460 862 274 62 52 47
410 60 207 102 43 37
334 244 284 115 93 69
410 64 201 108 47 40
278 540 227 118 24 42
276 791 255 177 118 87
425 953 284 61 54 53
405 49 216 98 87 74
389 94 193 153 16 45
410 60 217 113 58 53
464 413 252 71 61 52
303 740 303 170 113 90
373 402 310 60 47 37
418 290 217 118 92 61
416 245 209 130 98 57
339 908 315 200 151 135
410 63 212 115 81 66
550 453 228 37 32 29
449 425 269 84 29 37
411 65 212 114 79 66
393 958 292 58 52 53
410 65 217 123 101 82
428 696 194 68 49 44
350 298 309 110 86 59
338 515 146 131 18 36
320 827 284 64 53 50
411 57 219 110 27 45
458 455 166 139 8 36
375 296 246 86 73 59
411 57 222 116 29 43
411 60 222 114 28 42
498 785 242 81 62 46
492 964 307 90 73 61
403 14 267 101 43 44
325 955 305 64 51 49
410 65 221 116 64 59
258 475 317 113 91 67
271 453 307 69 38 36
386 33 225 100 87 74
412 135 227 116 96 73
390 404 275 65 48 36
399 34 226 110 95 79
294 625 262 67 35 40
398 45 256 130 106 82
408 295 271 124 97 68
356 280 277 113 89 60
555 463 215 46 34 23
393 55 257 123 82 66
399 50 253 123 29 50
463 832 260 53 42 34
479 550 212 62 31 33
305 260 271 123 94 65
298 465 138 105 12 35
408 455 151 127 19 36
311 660 242 154 5 43
438 505 171 137 7 34
392 60 256 129 101 76
409 70 227 115 51 52
394 60 254 132 105 78
317 335 256 102 84 65
282 520 326 157 116 88
398 60 252 114 85 66
468 413 237 64 44 42
394 65 254 120 93 71
323 770 212 65 54 47
373 29 271 138 34 56
398 65 251 119 58 55
373 710 308 153 18 50
322 305 307 124 93 65
413 404 172 104 71 57
403 35 227 102 89 76
313 500 135 168 5 36
389 840 148 75 63 59
361 444 315 138 20 43
323 475 131 74 34 37
377 330 227 101 82 61
427 810 128 98 78 66
404 34 231 85 67 48
319 755 305 146 34 55
529 530 225 145 110 93
404 39 226 85 70 55
320 872 268 145 117 91
340 417 162 50 25 27
413 950 287 60 56 57
298 765 228 62 53 48
273 640 307 171 122 96
359 361 243 135 99 85
388 255 213 130 100 64
387 875 276 142 110 89
423 730 181 52 45 40
407 35 233 81 36 28
428 320 237 120 95 66
460 716 124 100 72 53
378 290 252 78 65 52
268 435 268 64 30 35
409 40 237 102 31 37
493 620 228 179 130 102
320 464 320 160 16 50
470 502 205 33 32 43
453 800 173 78 59 51
383 435 147 139 2 29
498 951 281 104 83 61
483 430 255 88 23 36
411 46 234 126 34 39
423 255 252 128 100 65
400 117 210 124 95 61
464 660 202 86 71 54
343 490 141 61 39 42
400 450 294 127 16 41
403 710 299 64 34 39
407 40 251 129 19 46
373 650 301 140 22 49
412 330 271 132 91 66
404 35 258 131 23 48
388 610 299 75 31 39
429 370 262 125 98 65
298 620 306 170 123 99
294 485 137 130 16 40
426 220 222 121 99 74
408 45 242 124 96 79
423 854 177 60 52 53
379 894 180 72 63 62
394 210 209 125 97 60
434 385 247 105 86 64
400 46 254 128 106 83
448 530 182 114 16 35
421 918 279 60 53 56
409 40 247 122 35 50
411 908 305 55 49 46
328 955 307 53 47 47
343 764 305 84 67 61
373 11 287 131 54 55
417 220 209 124 98 64
388 445 146 138 0 29
481 768 194 145 100 69
307 390 308 120 96 70
306 239 264 117 94 67
392 320 215 87 75 64
410 35 242 97 47 40
397 795 157 46 42 41
353 460 316 99 30 42
345 248 279 117 93 66
309 430 320 88 27 38
410 35 247 117 34 43
487 430 255 68 30 35
386 817 175 51 45 46
421 195 218 116 95 72
361 408 181 84 62 52
409 40 242 118 46 50
329 794 213 77 61 52
338 405 212 90 76 62
498 645 204 133 97 57
405 56 239 125 105 89
458 685 202 95 78 58
516 760 218 134 96 68
297 395 287 115 92 67
409 50 237 127 20 44
344 285 251 87 69 48
405 60 239 110 31 44
371 855 206 56 52 53
383 480 303 59 29 33
368 408 162 93 73 57
348 705 318 37 29 32
468 849 248 79 62 55
408 60 237 119 18 42
405 65 239 94 33 36
434 861 206 74 62 58
390 813 169 49 44 48
307 230 262 117 95 69
321 311 255 112 86 59
272 790 298 171 120 91
315 686 224 44 38 42
407 65 237 102 36 43
457 590 252 141 36 54
268 575 312 164 117 93
365 557 165 172 3 38
384 392 199 95 81 66
410 50 227 116 39 42
363 910 308 161 115 93
399 393 195 95 80 65
410 50 232 120 37 47
445 742 130 95 72 56
410 55 227 117 63 59
426 226 241 117 93 67
410 55 232 119 93 78
418 950 284 63 57 56
373 795 172 63 53 48
416 205 209 122 98 68
305 278 263 140 101 74
410 60 232 122 36 48
462 859 277 63 52 46
343 450 137 79 27 37
411 61 225 127 21 43
412 920 301 44 39 37
411 64 225 130 21 46
410 65 227 123 49 55
338 315 318 137 96 76
469 546 253 92 25 38
409 65 232 116 73 64
353 445 143 142 2 30
416 152 232 114 94 73
266 585 292 150 109 79
402 55 247 113 40 46
464 750 234 156 108 82
364 30 262 131 51 61
330 715 209 134 5 32
429 355 247 119 95 68
328 515 315 112 21 41
407 50 242 130 29 48
378 21 283 150 105 83
443 560 197 146 5 35
404 50 247 135 17 50
504 560 212 94 57 31
390 830 264 153 120 99
364 12 272 121 45 54
346 206 260 111 89 64
319 935 222 71 66 68
303 489 129 159 12 38
406 49 246 131 27 50
333 300 251 87 70 50
430 432 160 91 32 36
406 53 240 126 81 72
362 375 242 130 100 83
402 50 251 127 32 53
369 946 211 86 80 83
303 435 317 56 26 30
377 335 227 97 79 60
358 595 181 166 9 41
402 60 247 114 34 45
430 698 205 59 48 47
403 65 242 104 65 55
400 62 249 120 41 48
328 514 144 111 19 35
403 230 206 125 96 60
256 473 308 126 101 77
387 160 242 110 88 65
413 616 195 139 25 42
423 716 162 47 40 35
318 765 305 169 128 98
265 775 287 174 121 92
385 66 189 97 31 20
411 585 295 112 23 40
410 942 240 75 68 69
291 600 232 156 12 45
365 12 277 120 51 55
324 806 294 45 40 40
424 300 252 133 98 65
388 75 187 138 17 35
368 505 307 167 17 52
430 240 227 124 99 71
385 74 189 139 14 34
421 211 214 115 94 70
385 78 189 140 11 40
476 714 230 178 126 99
415 335 215 94 82 71
429 255 222 126 97 62
474 793 234 59 44 32
328 370 318 139 103 77
331 909 221 78 61 55
451 838 220 87 64 64
314 345 306 122 97 68
388 80 188 146 21 43
393 75 185 134 40 45
544 500 190 137 103 75
434 566 191 152 0 36
268 444 273 99 26 39
429 806 152 53 48 49
393 80 187 133 28 40
363 20 277 139 43 57
315 944 229 81 77 78
362 380 287 112 79 58
386 240 215 128 98 62
442 707 180 71 62 57
390 956 230 75 68 69
432 385 262 123 96 63
398 70 186 115 37 29
418 840 167 47 41 42
386 81 190 149 12 39
424 260 252 128 99 64
281 586 257 167 8 48
389 84 189 153 17 44
351 281 290 116 90 57
406 192 255 123 99 72
278 535 326 171 121 99
304 445 213 92 22 28
440 702 215 67 56 49
433 455 277 89 27 36
309 215 262 116 94 70
301 650 266 107 42 43
335 853 247 190 131 100
387 85 191 155 13 42
426 230 242 119 95 68
388 90 192 155 15 42
331 911 309 158 117 105
337 225 276 113 91 67
421 185 223 121 99 76
513 514 207 181 18 39
411 76 226 110 37 41
298 750 305 180 127 98
328 428 325 129 22 42
420 354 215 94 84 74
463 450 168 127 15 35
440 519 274 105 35 46
393 91 190 158 25 49
398 85 188 143 31 46
428 345 247 122 97 68
315 953 290 153 107 91
408 580 182 61 37 40
449 470 269 68 28 35
448 450 162 90 35 39
393 95 192 156 29 47
403 195 209 122 96 64
340 892 315 146 111 86
304 534 149 189 9 41
402 80 189 143 21 37
398 95 192 120 69 60
268 475 287 102 71 57
307 445 211 89 23 28
426 256 250 128 100 65
401 66 189 101 48 31
343 955 313 54 51 52
404 75 191 134 27 41
315 365 249 103 87 70
504 423 217 59 26 29
442 760 262 88 71 63
378 380 278 62 47 31
294 570 309 114 49 50
348 981 262 66 61 61
404 80 191 144 30 47
403 85 192 152 26 48
480 779 224 108 83 68
400 86 190 147 26 39
446 758 144 74 54 40
492 549 251 68 27 34
413 635 203 67 32 35
403 580 181 67 35 39
385 84 194 154 11 43
513 959 291 85 70 56
468 490 262 128 21 45
276 470 285 80 61 53
412 300 214 106 87 67
367 868 202 50 46 49
303 550 158 118 28 40
385 89 198 150 11 44
362 871 301 142 113 81
352 320 312 126 88 63
386 91 196 151 12 41
348 401 212 85 71 56
272 540 247 166 0 44
381 388 216 96 83 69
385 93 199 145 11 42
385 94 203 134 13 41
386 96 201 137 12 36
463 475 173 153 3 38
408 874 273 33 30 29
313 516 171 87 19 33
409 70 197 125 41 46
406 80 193 141 26 45
398 525 162 60 37 40
408 80 197 144 28 47
388 400 182 94 80 66
410 70 200 126 43 48
285 545 213 162 8 42
327 435 124 163 8 37
412 70 202 127 43 50
495 766 190 114 84 61
285 672 269 127 93 55
537 454 221 56 34 38
319 455 177 94 20 33
412 70 207 126 37 48
410 75 200 136 31 46
412 75 207 132 38 53
408 181 209 128 100 63
446 624 241 186 8 58
317 428 146 84 19 33
411 80 207 128 29 47
411 66 216 117 79 61
410 72 219 104 39 42
311 204 259 116 94 71
410 70 222 114 21 40
449 735 232 89 29 37
315 953 238 76 72 74
408 833 138 113 87 69
368 425 143 81 35 37
411 69 220 114 12 39
483 685 227 170 122 93
411 75 217 113 63 59
410 75 217 109 72 61
410 80 212 117 33 45
343 530 151 84 32 39
321 450 177 95 19 33
380 957 220 74 69 71
411 80 222 114 37 46
332 684 210 46 33 36
337 440 133 126 7 32
407 85 197 149 25 50
311 958 279 55 49 50
318 805 222 79 61 53
405 91 196 144 19 44
423 380 272 135 100 69
413 880 197 73 64 62
333 21 268 152 111 90
398 135 248 122 97 68
299 465 208 63 30 28
404 95 197 141 23 43
320 916 233 63 59 61
436 629 218 38 32 37
493 810 229 98 76 61
410 85 202 145 32 51
473 810 248 62 48 37
354 407 193 83 67 51
411 83 207 130 28 46
483 789 252 77 60 47
310 730 219 132 5 32
410 85 207 130 37 51
412 826 162 49 41 44
296 501 140 152 12 39
414 832 142 91 79 71
338 956 221 74 69 72
409 90 207 129 37 50
310 964 277 79 77 79
410 85 212 109 61 56
410 85 216 101 68 54
300 498 134 179 5 44
535 472 199 111 71 56
288 485 317 141 102 83
410 90 212 112 43 47
410 129 225 113 93 70
383 455 147 141 0 30
419 465 284 95 26 37
410 90 217 130 30 48
388 320 272 82 62 40
409 766 279 85 66 56
388 110 247 125 100 76
315 672 229 77 24 33
353 630 303 50 29 32
411 172 250 118 94 67
410 95 217 114 71 60
410 90 222 120 44 49
350 239 269 118 93 64
388 69 255 120 58 59
350 14 269 118 51 54
325 665 219 81 23 35
411 236 260 129 102 70
393 70 253 117 25 46
388 75 253 122 98 74
405 935 226 69 61 62
350 355 255 92 75 58
318 601 196 132 18 40
335 921 199 67 60 61
453 845 222 80 64 56
393 80 252 116 27 46
285 554 218 109 26 41
392 98 250 129 103 75
290 549 309 62 41 36
311 484 173 64 29 30
532 441 237 62 15 25
503 490 248 105 22 39
424 450 160 49 37 38
313 839 262 63 53 52
439 831 187 71 57 55
399 80 247 107 75 59
298 490 146 58 27 30
397 75 251 119 18 44
409 475 289 143 18 46
413 395 198 94 81 67
361 380 242 124 95 78
352 455 144 122 14 30
396 80 250 114 81 62
280 485 218 80 29 35
425 587 283 180 14 59
289 469 304 62 39 36
388 85 253 127 25 49
295 407 243 102 88 74
275 685 279 142 99 69
368 645 198 85 27 32
272 465 252 121 9 33
393 85 252 111 63 54
338 339 251 88 75 61
388 95 251 117 87 67
393 90 252 118 31 48
291 760 235 109 78 58
453 408 177 178 10 28
373 490 308 101 28 43
338 261 290 114 92 67
393 95 251 116 79 64
378 555 301 164 8 50
398 85 248 114 95 73
397 90 250 115 36 44
349 833 219 161 114 87
338 870 307 178 142 116
427 250 247 124 97 64
505 567 220 107 75 61
363 375 277 99 73 53
313 530 312 167 14 52
396 94 250 115 46 52
501 428 199 128 8 35
393 745 177 45 37 37
408 70 232 113 93 72
408 75 232 104 84 67
325 662 219 128 5 33
401 85 245 93 52 40
457 412 168 173 11 18
301 710 305 170 117 92
405 76 239 126 19 50
479 760 222 140 100 69
507 435 250 145 23 48
386 250 215 128 99 64
411 80 226 103 32 38
289 545 202 155 6 41
410 80 229 105 22 39
393 445 146 141 3 31
323 971 272 69 62 61
398 265 209 131 100 61
318 640 293 157 27 53
313 956 262 86 78 75
428 769 142 62 52 46
407 950 257 67 60 61
403 70 242 109 62 56
433 466 165 116 26 37
449 963 316 86 67 53
406 387 199 94 81 68
465 428 170 109 33 28
401 70 245 113 92 74
333 830 276 58 49 49
406 71 240 124 23 47
404 80 242 113 20 42
390 165 245 111 89 66
464 792 158 89 65 51
309 365 253 110 90 67
486 558 250 54 29 37
401 79 245 107 36 45
477 705 230 176 125 98
311 960 271 75 73 75
316 517 170 69 19 31
374 385 277 61 51 41
405 85 239 105 79 62
305 449 150 81 16 30
372 315 237 100 80 59
407 90 237 111 91 69
537 480 196 60 40 37
393 600 186 74 32 37
409 95 237 114 37 45
425 210 232 116 94 69
409 85 232 106 37 44
411 86 230 113 21 43
350 412 178 77 59 51
358 983 260 64 62 62
332 16 273 126 55 60
368 730 194 87 28 34
383 480 152 144 1 31
433 625 262 184 14 58
432 474 164 52 38 40
337 915 202 55 52 53
411 90 227 108 61 54
411 125 232 114 93 71
390 722 189 67 35 36
398 398 186 94 79 64
411 91 231 109 24 43
464 770 175 101 72 51
388 350 216 93 81 67
457 794 157 74 58 49
348 700 202 123 14 32
274 815 287 203 141 114
410 92 225 114 85 68
258 510 302 198 150 134
368 10 262 113 49 46
411 95 231 115 34 44
278 770 251 114 85 50
402 90 246 110 23 40
281 684 270 131 96 61
334 179 259 108 88 66
410 882 195 70 63 62
399 466 150 67 37 43
482 730 207 141 95 63
384 386 203 97 83 69
404 90 243 104 54 48
453 930 278 83 68 54
328 640 217 80 29 36
402 95 246 116 33 49
379 387 208 97 83 69
404 95 243 115 25 44
285 412 252 82 40 36
409 746 289 123 42 55
413 760 127 65 50 41
389 115 217 115 77 52
385 140 232 110 86 60
406 91 240 109 87 66
314 216 270 112 93 74
328 705 308 122 14 40
421 361 214 93 84 75
448 715 177 60 47 41
499 962 321 94 77 62
473 850 267 70 54 44
438 518 174 89 25 37
407 95 241 113 26 41
391 97 195 152 17 45
390 104 199 145 15 43
375 385 281 61 51 41
420 185 242 120 97 71
393 105 197 140 33 45
365 397 208 84 73 63
381 279 254 87 72 57
436 888 259 64 52 52
437 640 247 174 11 55
302 740 226 86 27 39
341 508 144 92 22 33
385 98 204 128 15 38
385 100 207 125 22 40
348 240 272 118 93 65
533 952 291 83 77 71
333 279 304 102 83 64
388 105 202 142 18 42
378 285 237 101 82 60
303 425 317 76 24 31
373 920 302 64 54 48
393 110 198 139 46 51
531 555 208 158 114 79
355 308 260 89 71 50
388 470 150 144 3 30
389 110 202 153 18 45
274 500 222 74 26 35
403 595 296 45 30 33
392 112 200 160 25 49
394 99 194 142 48 50
350 851 275 135 103 82
393 605 189 54 33 38
364 694 309 144 5 45
303 525 308 58 25 30
398 105 196 116 86 78
468 430 261 160 8 51
393 130 212 128 88 53
428 715 292 165 12 52
398 110 197 131 100 91
406 17 270 104 49 47
398 300 272 104 82 58
388 110 212 125 72 61
404 635 288 60 28 33
391 112 211 127 88 66
387 111 221 118 78 56
433 385 222 99 82 65
316 422 324 105 29 44
470 790 190 148 97 69
275 554 252 166 0 44
393 210 252 117 94 68
398 113 202 148 79 72
399 112 200 169 78 85
452 485 169 117 23 35
304 245 262 119 95 67
271 535 267 166 0 46
368 710 195 115 13 30
279 465 312 66 30 35
391 112 208 124 91 68
353 245 262 110 85 56
416 211 209 123 98 68
360 881 168 62 56 56
391 116 215 120 81 55
393 120 212 132 88 62
398 895 293 35 32 31
391 118 215 121 80 55
349 380 237 87 73 59
385 115 223 116 80 56
383 50 262 128 99 73
368 402 311 61 50 39
316 287 250 119 88 58
387 115 221 114 78 52
406 99 241 116 73 62
306 445 152 99 18 33
392 855 261 139 110 88
428 675 267 144 4 44
328 525 147 72 35 41
388 125 217 122 87 57
413 401 187 95 81 66
443 959 302 76 63 52
379 295 256 72 60 47
266 580 307 162 117 91
390 125 214 124 86 55
388 175 216 123 92 51
386 125 220 119 87 58
308 430 122 60 33 41
431 698 135 72 54 43
393 790 277 62 50 48
407 125 218 108 89 70
519 595 217 182 126 95
395 119 209 139 92 62
398 120 209 139 99 64
422 810 122 100 73 57
359 310 292 123 90 62
297 625 242 43 33 36
440 708 279 77 11 29
395 124 209 141 97 61
393 320 276 112 83 60
398 180 253 119 96 71
398 126 210 134 99 61
298 730 305 179 125 97
403 100 197 138 27 42
340 527 150 65 32 32
353 690 311 135 14 43
363 430 316 132 20 44
391 245 210 131 100 63
408 864 143 101 80 65
402 105 198 133 31 41
467 716 189 95 76 52
368 865 287 146 116 87
404 105 201 130 31 43
354 881 203 41 39 41
344 195 258 110 88 62
290 491 204 114 9 30
318 280 246 116 86 56
406 105 203 133 28 44
407 105 207 134 32 48
421 670 275 146 10 46
294 510 187 102 16 29
333 935 312 191 147 125
325 722 310 163 16 50
304 435 217 87 25 31
402 109 199 128 32 39
366 22 278 146 75 69
556 497 226 126 90 68
398 215 207 125 97 60
301 456 309 150 17 49
378 55 260 126 26 48
428 829 177 57 47 48
408 860 151 96 77 64
403 110 202 141 40 49
304 385 253 106 87 66
406 109 207 135 38 49
402 873 269 32 28 26
397 271 210 132 100 62
316 680 225 48 39 40
439 958 311 85 69 55
446 407 230 72 63 53
404 110 216 100 75 52
265 740 277 150 105 76
408 105 212 121 41 47
440 575 201 147 2 34
503 761 207 95 73 55
408 885 287 37 34 33
354 370 242 119 93 75
351 291 301 111 86 57
405 107 216 102 76 55
282 413 262 68 59 53
408 105 217 112 58 52
352 276 286 119 93 62
406 108 212 116 76 62
328 920 308 110 88 73
363 853 284 149 121 95
476 837 260 74 59 47
409 100 212 105 53 47
410 100 217 112 45 46
497 534 208 153 19 39
310 790 224 73 58 49
318 230 278 110 91 71
358 395 247 93 75 59
361 370 259 111 86 76
368 24 277 150 38 59
410 100 222 117 31 43
432 380 237 103 85 65
419 215 211 122 98 68
327 811 220 76 60 52
401 113 203 141 73 66
353 345 257 88 71 54
343 470 137 43 40 43
493 542 250 111 9 35
441 672 226 41 29 30
503 775 231 82 65 48
314 340 257 105 87 68
424 265 216 129 97 58
401 113 207 122 86 61
402 115 212 108 86 60
468 935 284 71 58 48
298 765 306 173 126 93
368 780 182 53 45 43
291 765 236 110 82 58
404 115 216 96 77 56
297 404 298 108 88 66
321 450 124 159 6 38
421 255 255 129 101 67
419 450 284 34 28 30
261 484 290 101 74 54
402 120 212 113 92 66
307 930 287 186 147 125
334 273 299 95 79 63
431 402 208 109 96 86
405 120 215 101 84 64
311 945 246 59 56 59
407 120 218 102 84 65
388 750 182 60 42 40
403 125 212 120 95 66
403 620 291 34 30 31
405 125 216 109 90 69
319 412 223 93 80 66
295 804 239 65 55 53
409 120 222 109 90 69
305 925 272 149 122 107
403 220 258 125 100 74
403 555 172 58 34 39
393 100 249 126 100 71
313 530 177 89 17 30
333 675 211 128 7 30
343 909 315 202 153 135
414 930 257 65 57 60
426 305 250 131 98 66
393 105 248 123 98 69
373 680 303 71 22 33
303 765 223 64 52 48
449 719 128 103 75 52
338 445 132 105 19 30
420 209 249 123 99 73
392 719 190 77 30 30
292 409 267 84 71 59
418 555 289 73 30 36
393 435 143 137 10 30
393 110 248 123 98 69
398 405 287 77 33 32
398 100 247 126 101 72
355 877 229 76 63 52
343 606 191 148 27 46
334 422 193 82 68 55
426 221 236 114 92 67
394 97 249 121 94 69
513 764 203 124 93 66
346 413 190 86 70 55
459 690 231 111 72 59
398 110 247 122 96 67
384 120 232 119 87 65
425 679 211 45 37 41
384 120 237 118 87 66
385 125 227 117 86 61
373 496 154 142 1 28
386 126 239 116 88 69
386 116 244 119 95 72
385 119 241 117 89 67
373 715 193 105 20 31
348 215 262 117 94 68
323 971 287 62 56 53
386 120 243 116 92 69
385 123 240 116 87 66
411 554 174 143 30 46
389 125 246 117 95 71
271 419 301 93 37 43
398 115 248 123 97 65
379 58 260 129 16 50
436 707 128 87 65 47
459 560 220 103 14 31
398 120 248 122 96 65
523 555 202 160 116 79
451 725 247 149 14 46
407 105 237 116 93 67
411 99 227 118 22 41
431 366 251 115 91 65
407 874 153 90 79 73
393 130 247 120 95 69
409 100 232 117 56 55
471 435 260 151 15 47
409 105 227 117 92 67
388 45 262 116 72 59
398 220 257 122 98 72
326 678 215 77 21 25
320 307 305 123 95 65
409 105 232 119 95 69
421 805 137 85 76 68
449 505 269 82 30 38
328 695 211 99 24 32
438 870 238 79 69 74
270 495 234 39 33 37
409 110 227 116 95 71
404 232 260 126 101 74
307 550 309 156 17 49
304 265 257 135 101 70
383 910 296 71 55 46
418 735 133 59 47 40
353 601 186 141 22 41
409 110 232 118 95 70
308 740 300 122 76 64
378 455 308 163 15 50
402 110 245 117 93 66
348 935 202 80 73 74
403 240 206 128 97 59
314 290 253 130 93 65
396 480 295 66 25 32
404 110 243 118 95 71
262 510 318 168 122 100
406 110 241 114 93 70
305 269 253 138 100 69
408 185 253 122 98 71
352 380 231 93 74 56
427 560 184 157 0 36
409 115 237 116 94 69
285 520 323 168 121 98
330 461 130 84 31 36
428 290 232 122 95 63
359 19 267 117 43 52
410 120 227 114 93 71
329 228 279 113 93 71
404 559 294 156 8 49
334 484 320 168 13 53
453 595 257 73 33 39
410 120 232 115 94 72
410 120 237 115 94 70
489 494 254 150 13 47
395 491 155 154 0 35
345 22 269 150 98 81
427 295 237 123 95 62
312 435 147 94 17 33
410 125 226 116 95 72
408 795 268 76 60 55
283 450 237 93 22 27
348 545 156 76 34 39
343 24 267 155 108 87
456 848 274 58 48 42
411 122 232 114 94 72
391 225 210 129 99 61
303 411 232 99 86 74
301 613 305 159 118 96
317 399 241 92 80 68
402 115 246 118 94 66
542 495 228 46 27 27
405 115 243 118 95 70
328 740 311 171 19 54
445 551 191 146 12 38
348 495 143 84 35 40
271 719 271 140 100 70
293 770 307 170 127 95
506 785 237 87 67 51
407 120 242 114 93 69
413 180 212 121 96 65
413 390 278 133 97 66
408 125 242 114 92 68
393 805 271 189 133 111
406 126 245 119 96 70
394 165 213 126 95 56
333 540 314 116 27 44
388 135 217 122 89 57
275 560 278 39 31 36
258 505 297 159 113 101
315 255 285 116 94 70
391 758 179 28 23 36
388 760 287 82 64 55
385 128 236 116 86 64
386 135 220 123 91 59
316 435 163 121 5 36
466 712 189 93 74 51
428 590 278 154 10 48
305 649 254 150 3 40
386 236 215 128 99 62
404 731 165 38 30 33
378 50 262 119 74 61
390 138 214 126 91 56
506 624 225 181 132 101
402 440 144 86 36 39
478 480 258 161 16 48
388 140 217 122 91 57
420 180 232 115 94 71
391 142 215 125 92 53
430 403 206 104 92 80
391 144 215 125 91 53
338 857 297 100 81 60
434 395 217 141 114 86
386 140 220 123 90 59
422 320 223 100 84 67
388 145 217 121 90 56
295 455 118 165 10 42
413 445 151 74 37 38
350 854 229 146 101 78
417 619 199 78 27 34
386 144 220 121 89 58
319 386 244 92 80 69
287 770 242 139 98 63
280 584 257 172 6 48
398 135 210 130 97 59
398 140 210 128 96 57
453 955 282 97 84 75
509 435 249 132 20 45
398 145 211 128 96 58
468 416 261 103 39 40
515 610 212 176 123 89
388 150 217 121 90 53
303 815 301 185 133 106
348 310 316 131 91 67
400 867 165 68 60 59
385 150 222 117 88 56
387 204 215 121 93 57
374 430 313 95 25 40
388 155 217 121 90 51
355 887 169 83 71 63
422 420 153 107 23 35
393 155 213 127 95 54
272 535 272 174 4 49
292 525 187 49 34 34
373 45 262 114 31 44
525 483 239 42 28 28
438 465 165 77 33 37
391 154 215 126 93 52
469 576 252 99 36 47
390 157 214 124 92 52
295 507 189 105 12 31
373 510 305 162 17 52
390 159 214 124 92 52
498 771 234 88 68 50
308 715 300 136 91 76
385 153 219 118 88 50
464 480 176 108 22 35
363 750 308 97 48 52
416 905 233 70 62 61
386 156 220 119 89 52
283 420 317 51 23 26
393 225 208 129 98 60
468 660 201 95 77 56
315 202 265 109 91 73
386 158 220 117 87 51
295 401 257 96 81 65
388 465 149 122 15 35
398 155 211 127 96 58
398 160 211 125 95 58
353 409 187 85 63 50
405 130 215 112 92 69
270 480 247 115 15 34
314 241 280 116 95 73
408 135 217 109 90 70
403 140 212 124 98 65
438 425 158 101 29 37
328 735 311 178 20 57
375 398 265 62 50 37
406 140 214 115 94 70
432 704 172 52 45 37
454 816 191 79 58 53
409 140 217 108 90 70
373 11 272 126 55 60
333 760 207 71 43 43
468 411 187 133 34 39
410 135 221 110 92 73
442 695 227 104 19 38
318 550 158 128 24 42
411 140 222 114 95 75
316 249 284 116 94 71
393 155 247 112 90 67
497 544 232 169 20 52
318 585 311 63 28 35
313 940 297 184 140 118
411 146 218 110 92 72
408 150 213 118 94 66
426 222 219 118 95 70
403 155 211 124 96 60
403 160 210 123 95 59
389 350 275 98 69 49
408 160 211 122 96 64
410 149 216 109 91 70
303 510 139 127 18 38
422 370 271 128 97 66
411 150 218 109 91 71
293 440 122 95 27 40
426 703 199 70 52 40
448 480 268 128 19 42
412 155 217 108 90 70
428 395 271 133 101 67
323 340 251 95 80 64
405 186 209 127 97 59
517 475 240 144 14 44
352 270 257 93 75 54
414 650 205 43 33 36
412 160 213 112 91 69
368 725 194 66 31 36
414 155 222 115 95 74
385 129 231 112 84 60
305 779 224 74 59 49
288 411 247 79 58 48
333 190 263 110 90 69
352 846 225 155 106 82
272 445 302 113 25 41
410 942 264 66 59 60
394 245 256 117 94 69
371 900 300 153 116 90
277 440 266 80 23 33
385 135 231 109 84 58
442 823 178 87 69 66
396 158 249 111 89 67
410 374 205 91 80 70
386 130 237 116 87 66
385 145 227 110 86 58
385 141 235 112 87 63
397 295 215 112 90 64
338 710 317 80 28 39
338 391 238 95 80 65
304 412 229 99 86 74
335 734 315 179 21 58
328 259 233 105 81 53
338 15 277 115 42 47
343 290 252 83 65 45
443 580 207 135 12 33
290 618 262 66 31 37
434 895 288 57 49 47
418 335 262 127 93 60
386 140 237 112 87 63
358 550 161 100 29 41
385 145 236 110 85 61
429 887 236 74 63 62
313 429 122 70 36 35
386 145 238 110 86 62
381 385 269 60 45 28
317 591 309 77 30 37
295 471 209 91 23 31
421 819 250 79 61 54
388 135 242 114 91 68
390 130 245 116 93 70
373 480 152 147 2 31
391 908 299 40 35 33
427 605 198 55 31 36
393 135 247 119 94 69
393 495 155 152 0 31
282 635 275 145 108 73
388 145 242 111 89 66
309 695 232 49 34 36
414 626 200 74 27 33
393 140 247 118 94 68
398 520 161 51 37 41
437 718 174 50 44 38
378 585 304 164 16 51
390 145 245 114 91 68
328 845 242 196 133 105
393 145 247 118 94 69
294 406 297 92 76 59
398 130 248 123 98 68
398 145 249 122 97 70
296 438 316 83 26 36
386 150 239 110 88 64
343 409 201 87 74 60
284 630 273 136 101 66
384 155 232 109 86 61
375 688 304 77 19 31
384 160 232 109 86 61
440 679 220 46 36 39
386 155 239 109 88 65
306 755 220 128 6 32
413 355 211 92 82 72
508 765 223 89 70 54
382 325 267 68 58 47
381 267 234 108 84 57
309 935 292 189 143 121
390 150 245 113 92 69
313 670 292 69 47 44
394 786 279 84 64 58
393 150 247 116 93 68
466 858 271 66 54 46
542 458 235 188 14 61
368 490 153 111 21 36
559 495 219 122 89 71
388 155 242 110 89 66
390 155 245 113 91 67
381 563 169 170 6 40
495 767 210 83 67 51
398 160 250 118 95 70
412 130 232 114 94 72
411 132 224 111 92 71
413 135 232 114 94 72
483 450 258 102 26 40
323 425 162 58 20 27
411 130 237 112 92 70
333 414 201 85 73 60
414 140 232 114 93 71
413 140 237 113 92 68
344 416 182 76 53 45
414 145 237 115 93 70
479 616 225 127 92 75
436 465 275 73 31 37
333 264 294 112 91 68
403 130 247 119 94 64
305 492 184 58 30 30
460 491 176 45 35 37
417 230 256 124 98 70
510 471 216 71 38 40
398 480 153 91 26 35
403 135 247 120 95 67
453 545 279 47 27 31
406 131 245 115 92 67
303 431 122 57 33 41
383 504 154 123 15 34
318 885 302 134 62 73
403 140 248 121 95 66
440 775 142 55 47 45
495 652 224 190 142 111
408 145 246 115 92 65
503 970 316 93 77 66
403 145 248 121 95 65
301 475 309 72 27 35
409 135 243 116 93 67
290 570 212 105 30 40
411 132 240 112 91 69
465 791 186 128 84 62
358 919 182 78 68 67
333 545 156 118 29 42
411 135 241 112 90 65
393 310 215 94 80 64
358 880 307 162 128 94
410 144 244 116 94 69
498 450 254 95 26 39
325 628 214 166 16 51
302 509 154 73 24 35
415 150 232 116 95 73
289 411 243 80 55 49
463 825 212 200 130 104
317 836 242 74 63 61
415 150 237 115 93 69
415 154 226 118 97 75
415 153 230 117 96 73
315 706 219 98 23 34
562 475 212 133 105 80
415 154 238 115 93 69
376 748 300 93 71 60
408 150 247 117 93 66
408 305 214 99 82 65
415 910 230 74 65 65
332 863 265 112 83 52
425 250 249 126 98 65
300 620 304 166 122 99
403 150 249 121 96 67
402 157 250 120 96 68
403 160 250 121 97 70
408 155 248 118 94 66
398 446 145 130 14 37
411 151 245 117 94 68
378 675 196 54 34 35
275 435 286 115 16 39
415 160 243 116 93 68
305 552 181 35 25 31
372 355 247 75 62 49
323 424 146 73 20 29
391 165 215 124 93 53
518 770 204 117 85 62
334 19 271 162 116 110
281 600 271 157 20 43
372 415 315 144 19 46
369 771 294 85 65 57
260 433 268 174 4 41
385 165 219 116 88 52
315 340 305 123 98 69
388 165 217 121 90 50
315 427 149 76 22 23
393 175 213 126 96 56
465 451 170 144 4 36
385 171 219 115 87 49
423 710 127 90 64 47
308 730 222 127 9 33
329 881 249 123 98 72
398 610 191 138 20 40
394 170 213 126 95 55
268 505 262 68 28 33
458 745 235 124 86 64
403 390 198 95 81 67
308 360 302 124 98 69
398 175 211 128 98 60
333 510 143 149 15 40
301 365 277 124 99 70
393 185 212 127 96 57
374 890 292 137 103 75
416 270 260 131 98 64
402 954 242 71 66 69
333 950 309 82 60 59
387 189 215 122 93 55
397 895 157 94 79 69
387 215 247 115 92 68
391 186 215 125 96 57
393 190 212 120 93 58
280 675 274 138 97 67
395 510 294 160 4 49
288 410 297 66 57 48
391 188 215 124 95 57
270 779 259 178 120 88
396 738 159 40 34 33
310 300 263 128 95 71
418 405 167 145 49 39
427 220 227 119 97 72
403 165 210 125 97 61
372 973 285 77 73 75
403 170 210 126 97 61
408 925 302 41 37 35
418 195 212 121 97 68
412 165 213 115 94 69
378 576 175 148 9 42
314 925 247 58 55 57
311 940 293 182 138 116
348 310 257 91 75 58
392 743 295 72 58 51
403 170 252 122 98 71
353 375 251 120 93 80
363 395 227 84 71 57
457 650 222 74 48 33
348 879 309 164 130 96
302 437 109 86 31 39
536 442 232 63 28 20
414 165 217 110 92 72
415 164 220 114 95 74
449 420 269 96 27 37
393 920 306 41 37 37
488 660 226 172 134 107
361 360 300 133 94 71
399 200 255 122 98 73
488 545 212 167 19 39
403 180 210 128 99 61
368 680 196 57 34 36
417 340 267 128 93 62
303 505 154 56 26 30
403 185 210 127 98 61
427 230 237 117 93 65
400 654 200 111 15 26
475 832 230 81 65 55
408 184 210 127 98 61
486 610 201 117 91 62
310 226 270 115 95 73
302 826 246 86 66 60
408 186 209 127 98 60
353 406 197 83 69 53
511 624 212 175 122 88
408 190 209 127 98 61
411 187 209 125 97 59
428 735 288 199 5 64
353 430 319 153 18 50
283 478 314 93 69 52
414 190 210 126 98 63
320 430 204 86 29 31
417 250 209 132 99 58
453 945 276 73 60 52
387 165 242 111 90 67
418 645 207 56 32 33
326 747 309 168 19 53
387 170 242 111 89 66
464 706 135 95 71 51
361 383 242 116 91 74
363 330 277 110 78 60
346 221 266 116 92 64
385 175 241 111 89 66
318 360 249 96 82 68
348 530 152 127 18 35
395 165 250 113 91 67
371 384 247 71 60 47
398 880 177 70 62 63
257 469 297 101 79 60
394 175 250 118 95 71
368 435 315 162 16 51
513 955 283 90 75 63
398 175 252 120 97 71
312 470 167 70 25 31
373 396 297 61 50 40
386 180 243 114 92 69
381 908 184 72 65 65
267 464 291 124 97 78
322 204 269 110 91 73
389 185 246 111 90 66
413 205 208 120 96 67
378 375 267 63 50 33
389 190 246 112 89 65
391 190 249 111 89 65
394 190 251 115 93 67
481 764 187 144 100 68
403 165 251 122 97 70
406 161 250 120 96 68
391 825 265 160 120 99
371 315 247 82 68 53
408 170 251 120 97 69
415 165 244 117 95 70
410 164 249 118 94 67
449 601 257 46 29 31
296 461 120 174 6 37
343 575 309 163 20 52
363 590 179 177 2 39
413 170 247 118 95 70
388 685 298 95 27 39
418 375 207 92 81 71
414 175 248 118 95 69
482 834 234 79 61 54
403 180 253 122 99 73
403 185 254 122 99 75
502 454 204 177 0 33
408 190 254 121 97 70
435 636 253 178 5 56
414 180 248 120 97 71
361 978 239 77 73 74
374 498 154 142 0 33
432 833 248 41 35 30
412 180 251 120 96 70
413 190 252 120 97 71
269 610 307 168 120 95
363 750 196 131 3 33
364 315 282 127 92 69
416 155 232 114 94 72
385 856 154 61 53 52
362 355 292 129 90 68
416 157 224 119 98 76
289 600 314 164 116 86
315 895 259 147 112 88
413 520 166 105 28 40
435 853 210 62 54 55
353 869 303 148 119 87
416 152 236 113 92 68
298 585 307 96 53 50
278 535 222 120 16 38
417 160 237 115 93 69
428 950 283 61 51 51
368 403 187 86 71 59
373 445 147 142 4 30
416 170 218 112 93 72
399 951 235 74 68 70
