ply
format ascii 1.0
comment Created by Open3D
element vertex 2224
property double x
property double y
property double z
property uchar red
property uchar green
property uchar blue
end_header
154 502 311 188 141 127
500 535 290 87 40 36
158 498 305 140 96 86
216 417 331 64 54 44
400 620 249 161 108 98
152 505 318 172 132 108
158 508 310 171 126 108
266 430 323 42 33 25
296 825 318 117 94 68
153 510 318 153 119 96
350 849 289 33 31 30
160 450 258 103 13 38
162 455 263 53 27 32
343 766 195 68 55 44
164 453 265 83 24 24
166 455 268 96 24 36
361 820 193 91 69 58
281 870 268 54 49 51
470 905 422 98 84 72
367 710 293 65 29 35
266 36 244 111 94 78
162 460 258 53 31 37
244 917 379 56 52 52
278 476 315 75 18 31
161 460 263 84 27 37
262 795 244 77 61 55
360 883 333 73 65 65
162 465 263 95 31 43
301 820 308 123 98 70
162 465 268 85 25 36
168 461 271 53 23 30
169 448 265 104 6 36
231 475 337 100 27 41
371 805 183 86 65 54
396 590 308 167 19 52
171 450 268 106 9 34
173 452 271 118 0 38
492 563 321 119 9 35
174 454 274 116 1 38
297 859 370 125 94 73
176 455 278 111 2 35
170 465 274 83 15 32
173 462 276 111 10 31
188 525 225 140 9 39
302 278 345 113 91 67
366 800 178 87 67 53
296 919 392 55 48 45
177 460 288 105 5 34
166 500 338 154 113 89
163 468 260 57 29 35
332 881 257 71 63 62
385 501 220 57 36 36
163 470 268 117 15 41
481 770 323 97 79 62
338 454 216 99 37 41
261 450 179 109 23 33
307 217 316 111 92 73
166 480 268 126 21 42
480 775 326 99 80 63
306 170 292 105 87 68
168 479 258 51 32 34
282 506 348 106 28 42
258 23 292 119 16 41
291 355 348 160 112 92
347 664 231 39 33 34
168 471 276 121 0 34
393 552 232 139 22 43
172 470 288 117 4 36
391 871 409 93 78 66
241 925 313 80 74 73
301 455 317 72 39 39
299 738 326 67 52 44
369 717 260 141 16 41
172 466 283 113 1 36
261 60 217 88 37 24
169 475 280 122 1 37
304 73 222 79 44 29
276 550 327 174 9 54
252 836 323 138 103 78
172 475 288 121 8 35
174 477 289 104 10 40
336 495 204 121 17 28
174 465 291 102 9 36
320 47 230 146 55 31
316 910 293 74 66 67
338 408 236 88 41 30
306 575 204 45 35 40
471 780 287 103 84 65
311 120 274 110 89 67
299 297 356 117 92 64
179 448 280 96 2 30
177 450 289 123 12 38
312 300 297 113 87 61
178 455 282 105 4 31
182 710 293 160 111 83
361 555 210 112 21 37
166 452 295 115 49 42
167 459 295 118 47 45
193 417 298 60 43 32
295 224 314 113 94 74
356 568 315 102 22 39
311 785 303 107 83 71
320 893 264 81 73 73
165 461 296 119 58 52
314 440 341 77 30 33
209 646 294 193 122 117
166 465 297 85 43 44
380 516 215 52 35 38
462 791 283 90 75 59
440 500 263 52 37 33
175 450 292 143 14 40
311 60 228 87 57 43
261 600 330 53 29 33
174 468 292 100 22 40
191 575 314 75 32 34
311 185 255 142 104 65
418 632 240 192 129 103
391 814 257 102 77 65
391 433 265 96 8 33
175 455 292 138 12 39
169 449 296 115 36 39
259 937 369 63 59 59
171 460 293 104 15 33
175 460 292 116 9 39
259 470 326 43 20 24
171 449 309 107 62 61
326 12 283 128 27 49
366 610 253 124 21 45
178 544 298 87 25 33
291 340 282 90 76 62
275 295 302 127 101 79
395 797 248 114 89 69
171 451 312 109 68 65
334 858 235 84 69 62
306 645 317 54 28 33
171 455 318 122 79 72
362 700 243 137 14 44
228 803 265 72 59 55
417 852 313 91 71 66
175 453 315 110 51 52
176 455 318 118 67 69
292 677 220 49 39 37
301 685 329 122 14 40
317 874 354 43 40 38
227 655 283 121 6 36
298 75 258 94 66 54
163 469 300 103 61 56
241 824 312 45 36 32
325 140 273 113 91 67
167 473 300 85 55 39
317 355 339 138 101 74
166 480 302 87 56 37
366 595 278 110 28 47
169 466 296 58 19 26
295 408 217 125 20 18
268 767 325 80 64 52
341 21 263 104 61 58
175 476 293 91 23 36
296 580 205 57 38 40
279 80 250 110 52 42
175 480 293 80 26 39
191 665 287 130 93 60
371 879 338 62 52 52
339 425 258 74 50 39
171 474 299 67 29 36
296 675 327 117 18 41
412 608 231 106 88 69
352 482 320 96 14 35
457 913 423 97 83 69
171 480 302 75 41 37
442 504 262 45 36 36
175 476 298 75 19 33
175 480 301 59 32 34
491 550 324 82 26 36
169 481 309 86 55 43
212 624 278 46 32 37
479 532 275 76 34 30
260 510 359 128 18 42
330 75 262 131 29 52
172 480 312 78 55 43
235 606 237 134 30 46
181 449 314 100 23 33
181 480 318 78 53 43
351 884 388 56 51 50
167 485 268 149 12 40
399 797 241 109 82 62
158 460 332 129 94 75
477 562 275 112 88 59
419 462 260 82 39 26
290 391 335 142 101 84
166 490 273 161 5 43
171 500 293 91 23 36
266 510 185 143 2 33
251 620 329 120 31 48
169 481 258 41 30 37
334 793 197 57 49 48
170 485 258 69 32 35
426 550 308 52 31 33
185 750 323 169 118 89
169 487 266 88 21 32
292 455 363 69 18 26
170 490 263 125 11 38
237 536 343 50 22 27
351 715 203 130 98 69
336 420 224 55 41 40
169 495 263 143 0 38
164 457 336 135 100 83
270 32 250 102 88 72
169 490 267 141 7 38
330 460 336 173 21 56
168 495 268 146 1 37
430 842 314 92 71 67
169 494 267 145 2 36
276 500 318 60 22 28
405 486 234 54 35 36
168 495 273 158 3 39
345 514 205 61 31 39
304 110 270 106 86 66
291 180 268 109 86 59
322 101 206 166 25 47
168 482 281 129 2 38
235 539 343 49 24 26
386 635 239 122 76 65
276 850 372 141 103 88
339 70 238 126 44 52
323 423 216 54 38 38
168 485 282 110 11 36
169 484 285 119 5 39
455 590 273 167 114 82
345 868 369 35 33 34
175 530 332 136 90 71
271 30 252 82 65 51
270 883 395 95 73 63
314 315 342 132 99 67
169 488 285 33 28 33
321 850 294 41 36 32
263 321 262 83 70 57
178 506 328 149 103 92
170 490 288 64 26 35
168 491 286 81 26 36
170 505 258 149 0 39
246 475 333 43 23 27
257 485 324 33 23 24
346 851 238 76 61 59
359 734 301 160 21 52
168 500 268 146 0 39
169 500 273 150 3 39
286 956 348 67 65 67
168 503 268 148 0 39
179 740 303 171 116 92
226 550 343 73 22 32
277 90 253 93 61 50
332 486 325 49 26 30
169 505 268 149 1 39
269 303 319 112 89 64
332 105 243 139 38 56
321 64 213 158 45 28
274 427 195 105 24 26
160 510 335 151 110 87
169 505 273 150 3 40
304 119 227 119 20 42
170 510 258 118 13 37
464 784 279 96 81 66
301 145 253 117 89 58
291 420 206 100 26 24
169 510 263 147 5 41
400 863 343 69 58 59
168 500 283 167 6 47
169 501 278 159 3 41
490 511 314 53 30 25
285 60 268 104 73 60
331 820 278 104 79 66
170 495 289 83 23 36
330 444 347 132 17 39
261 195 248 120 95 66
381 874 308 73 65 65
322 335 323 128 101 70
272 645 230 107 25 38
431 450 272 60 33 38
168 500 286 154 9 42
170 500 288 134 17 43
276 505 185 131 12 34
169 502 283 167 6 48
386 500 315 170 21 54
169 505 283 163 4 44
394 764 164 86 67 53
251 775 243 75 60 54
276 50 243 95 33 25
276 504 320 68 20 31
168 504 287 146 16 44
407 577 286 160 25 42
169 505 288 110 20 39
295 105 258 104 33 44
259 280 273 96 75 51
170 510 278 154 1 40
170 510 283 155 4 42
170 515 283 148 6 42
173 482 291 96 23 40
241 525 185 47 35 40
306 194 304 109 91 72
261 335 258 78 68 59
316 310 338 135 100 69
401 574 273 61 27 34
173 486 292 82 21 37
174 484 294 78 23 35
357 561 211 163 3 37
175 485 301 47 27 32
172 490 293 61 26 33
176 560 298 96 61 44
266 566 201 147 18 45
361 735 298 103 24 40
222 814 279 81 64 60
367 632 218 83 65 46
172 495 293 74 25 34
167 490 304 68 48 36
171 490 302 46 31 30
321 205 263 143 105 66
173 492 298 40 25 29
176 540 298 119 21 39
361 500 213 92 32 38
262 210 253 113 89 60
176 545 283 90 28 39
174 490 298 51 27 34
457 801 267 112 89 72
174 488 301 59 42 41
173 495 298 38 27 27
356 445 233 118 20 29
162 490 306 76 59 41
163 494 306 78 65 47
191 650 324 152 111 87
291 245 323 112 93 73
452 473 303 75 20 25
176 520 243 66 34 38
166 490 308 72 55 38
357 670 258 88 27 40
310 805 297 149 105 82
443 498 316 39 29 30
261 541 191 85 30 35
167 495 307 68 53 41
167 495 305 58 44 33
267 310 313 105 81 59
274 523 341 69 24 30
204 389 256 106 87 66
169 485 309 84 59 47
269 370 323 122 89 70
326 45 272 125 22 46
172 485 312 77 57 43
175 485 314 72 57 43
245 636 325 155 23 51
316 355 283 102 89 76
302 320 354 143 98 75
468 781 286 103 87 70
311 235 267 145 106 65
278 260 308 115 91 65
169 490 310 78 60 44
194 492 325 82 19 33
334 918 343 73 65 65
169 495 310 79 60 48
176 490 314 74 52 40
354 633 266 179 16 55
164 585 301 146 108 77
356 685 233 70 42 43
376 826 268 43 36 32
170 505 293 70 24 34
173 500 298 62 24 33
411 450 318 79 38 34
311 624 220 58 38 38
172 500 304 32 27 27
301 460 314 41 25 27
172 505 298 88 19 34
237 780 249 75 60 53
172 505 303 43 23 30
278 942 316 93 87 88
174 507 304 103 20 49
173 510 298 75 24 35
318 897 276 75 69 69
261 180 248 116 91 62
166 505 308 97 67 56
272 396 259 84 70 56
446 805 308 80 71 63
303 124 228 131 23 43
169 500 309 76 55 48
180 465 329 95 27 34
249 704 335 33 29 33
176 500 314 65 45 40
334 405 317 133 101 72
288 206 292 109 89 68
313 457 355 61 27 34
176 505 313 58 38 36
176 510 309 42 26 29
336 695 317 46 27 30
178 485 316 71 57 46
475 496 321 155 20 50
178 490 316 74 48 40
287 210 293 110 90 68
390 874 332 70 57 54
329 438 351 51 23 34
177 495 316 75 50 43
408 508 226 96 31 26
262 655 234 130 10 31
185 491 320 57 26 29
356 435 234 61 38 40
234 922 350 61 56 54
279 386 330 130 97 79
180 504 318 45 37 35
236 535 189 92 32 40
181 506 314 45 25 26
460 558 286 82 29 34
358 832 212 80 62 51
243 662 250 47 31 29
179 510 310 38 26 29
320 171 291 111 91 69
331 842 207 103 81 65
185 541 310 78 8 26
316 100 270 109 30 44
282 501 322 78 12 30
181 510 312 47 24 28
341 857 287 41 35 34
178 507 318 63 46 45
321 755 205 68 36 37
176 510 318 94 59 54
291 625 221 47 35 39
186 500 319 36 24 25
421 535 304 161 23 54
201 480 329 72 22 31
186 505 318 36 26 25
261 225 253 119 92 63
291 445 316 70 50 41
153 451 321 137 101 83
346 735 307 157 23 53
243 847 334 110 84 60
259 422 321 59 43 28
154 448 320 132 97 79
154 450 324 131 94 76
214 766 266 65 54 51
157 450 328 122 84 71
153 455 322 142 104 87
332 85 248 132 98 79
218 803 275 71 58 54
316 895 263 81 73 72
154 455 324 138 100 83
251 745 337 149 25 52
158 450 331 135 97 81
161 450 333 138 98 84
221 810 278 78 63 58
296 835 243 112 84 71
158 455 331 138 99 80
221 813 331 190 136 110
271 400 313 111 81 64
281 819 318 108 82 62
154 460 325 138 101 82
154 463 325 132 98 77
347 428 273 79 60 49
160 465 335 130 93 75
470 540 319 116 20 41
502 547 275 122 102 80
286 780 314 64 51 44
151 475 323 150 105 87
304 44 252 78 31 30
150 480 323 155 111 91
153 466 326 128 92 73
189 580 297 86 37 37
373 710 196 101 79 54
358 822 260 63 50 44
286 235 278 129 91 55
153 470 327 144 100 79
154 470 329 137 97 75
251 410 319 91 67 47
380 770 252 145 109 81
159 470 335 151 103 87
152 475 328 162 112 92
210 661 312 134 93 74
411 450 263 97 28 26
192 540 219 148 7 39
260 645 237 135 4 34
296 550 322 121 23 43
289 797 226 82 64 56
152 480 327 156 111 89
301 135 253 111 85 56
347 896 348 66 59 63
279 78 266 109 33 45
156 475 332 151 108 86
154 480 330 153 109 87
415 872 364 78 66 61
195 485 328 87 15 31
316 55 228 103 84 63
326 530 315 67 29 35
160 475 335 162 112 94
222 785 264 72 58 53
344 848 230 79 63 61
183 613 330 153 110 81
152 495 323 155 113 91
157 485 332 151 110 88
203 391 296 117 92 64
286 795 228 80 63 56
195 405 278 118 93 65
278 75 269 109 25 41
297 114 248 114 72 56
299 115 258 121 86 66
160 485 335 152 111 90
153 490 326 151 109 88
476 761 278 92 78 63
277 946 322 83 77 79
246 555 198 65 34 38
269 635 231 71 36 37
153 495 327 153 111 89
402 606 247 133 79 74
156 495 332 151 110 86
417 600 262 150 97 91
251 640 243 127 8 34
336 15 288 137 35 54
361 904 393 67 58 53
160 490 335 150 110 88
262 205 263 107 88 66
321 475 198 55 33 36
160 495 334 145 109 83
300 90 264 102 80 61
153 505 326 156 115 93
316 640 222 119 19 31
197 525 215 117 15 33
156 500 332 155 114 89
154 505 329 159 115 93
157 505 332 156 113 91
311 150 284 109 89 67
456 544 263 120 18 39
160 500 335 149 109 86
368 610 243 52 26 31
301 315 293 87 74 59
282 220 278 113 89 61
226 524 185 77 34 38
418 518 226 98 34 27
160 505 335 155 113 91
154 510 328 154 114 91
219 750 256 124 11 37
157 510 332 154 113 91
346 486 210 46 35 34
168 450 323 121 77 68
166 450 333 125 84 72
266 684 335 65 29 35
168 459 334 121 86 69
275 738 341 49 31 32
400 442 303 60 43 30
168 453 321 119 79 69
169 452 327 118 73 65
172 460 323 136 80 72
170 460 328 101 68 54
347 847 232 78 62 59
501 540 289 70 42 42
260 340 301 62 47 32
334 64 261 133 16 49
173 463 325 127 75 64
394 442 255 70 32 32
253 466 330 30 24 26
253 933 314 77 68 68
175 464 324 109 25 43
253 414 320 79 60 40
271 480 319 33 26 27
324 365 331 134 100 70
252 588 215 131 39 49
333 455 211 58 39 39
169 460 333 113 79 64
376 710 239 140 90 69
394 858 425 67 55 49
480 501 292 112 33 39
320 284 294 157 106 75
163 457 336 140 104 85
342 18 272 103 48 46
166 460 336 127 95 76
305 120 223 128 19 40
166 465 337 132 99 80
169 462 336 125 90 72
305 35 258 88 51 38
172 470 334 113 81 63
338 431 345 158 23 54
310 391 254 107 91 75
380 436 250 70 34 34
176 469 329 103 44 44
296 369 262 99 85 72
351 460 223 88 29 31
176 471 332 102 49 44
173 473 335 119 87 71
176 474 334 103 64 52
322 345 328 128 101 69
162 470 337 154 106 90
324 640 306 63 27 34
447 531 246 166 1 38
330 390 283 108 91 72
162 475 337 161 110 93
310 241 326 114 94 71
162 480 337 157 111 91
287 895 283 66 57 54
166 475 339 151 110 91
166 480 339 157 115 95
294 105 248 104 34 40
170 470 337 127 96 77
171 475 338 131 100 80
196 416 308 60 52 44
171 480 338 145 110 89
175 476 336 112 83 64
331 900 288 87 75 72
324 381 280 107 91 74
177 456 322 110 41 51
227 670 308 83 22 34
287 880 288 68 57 51
181 456 323 92 24 34
224 602 241 198 12 51
179 671 310 159 108 79
287 885 278 59 50 49
183 452 321 95 33 33
409 588 314 145 25 53
180 458 325 91 22 35
461 480 303 76 21 30
370 770 268 154 111 86
326 11 297 142 31 56
309 878 405 37 36 37
216 565 213 103 34 44
178 462 326 101 26 30
265 320 273 68 57 47
347 855 243 79 64 61
420 476 249 62 37 35
182 466 332 120 81 69
432 840 358 75 60 52
296 475 338 54 19 26
187 451 322 102 21 33
231 520 336 59 23 29
291 376 259 97 83 69
201 505 329 90 25 35
161 575 303 142 107 75
291 415 209 110 20 23
188 570 307 89 79 76
186 454 324 100 26 35
293 898 248 69 58 51
326 815 193 65 55 53
187 456 327 110 48 48
388 740 218 139 94 62
190 449 324 96 12 30
256 545 193 136 24 43
349 427 293 83 69 55
285 210 288 106 86 64
331 245 293 126 99 69
316 875 363 34 32 33
190 454 329 117 67 62
392 842 352 38 34 33
186 465 334 137 99 80
479 502 304 72 22 28
188 457 332 147 110 100
191 465 332 137 91 79
258 280 252 125 99 69
320 100 267 113 42 48
340 425 263 77 60 46
482 499 318 66 18 27
181 470 333 114 75 60
320 315 328 131 99 68
192 470 329 99 59 53
180 740 313 176 118 92
353 731 305 169 15 56
430 601 249 138 104 65
328 175 273 119 95 68
184 477 320 80 58 48
421 625 233 174 119 88
392 859 290 69 57 56
184 477 322 79 55 44
342 415 293 107 87 64
184 480 321 71 48 38
376 891 394 81 72 65
191 480 325 62 22 26
243 877 376 154 117 93
319 924 371 57 51 48
297 470 364 173 20 56
188 480 335 140 93 83
331 894 274 85 74 72
267 394 267 98 86 83
190 475 332 121 77 69
193 475 329 68 32 30
189 506 320 36 23 23
196 400 278 119 93 65
321 140 248 133 103 68
329 235 306 122 97 67
345 686 306 66 23 31
182 476 336 125 98 73
185 480 336 144 99 85
162 485 337 155 111 91
280 80 253 110 38 45
292 888 384 36 33 33
285 446 195 107 24 27
166 485 338 158 115 95
331 855 228 107 83 67
162 490 336 155 113 91
163 495 336 145 107 84
371 720 273 163 23 52
166 490 338 157 114 94
259 245 271 102 80 54
166 495 338 150 111 87
176 485 338 151 110 87
241 620 243 110 27 44
401 605 243 115 73 60
171 495 338 152 113 89
254 578 331 103 28 38
176 490 338 159 115 93
328 242 281 137 105 68
209 388 305 115 92 65
183 675 321 169 115 91
177 505 334 161 111 95
319 366 279 102 88 75
311 145 244 150 104 72
296 85 248 93 71 55
163 500 336 150 110 88
234 916 360 52 49 50
340 36 240 131 107 80
163 505 336 154 112 90
277 501 334 62 18 26
302 115 268 107 83 61
166 505 337 157 115 90
306 410 212 100 31 29
331 240 298 123 97 67
244 612 236 105 19 33
166 510 337 150 109 85
171 500 338 160 119 97
171 505 337 158 116 95
176 500 337 171 124 104
241 445 334 111 23 41
403 493 231 99 32 23
175 504 336 169 123 102
171 510 337 148 108 85
261 695 339 124 16 41
303 103 225 124 14 42
183 483 321 66 43 34
201 530 213 122 6 32
379 716 195 108 81 53
273 617 331 36 28 28
183 491 335 154 110 99
232 915 328 68 62 61
325 145 253 134 104 70
224 612 325 146 22 50
188 487 324 83 28 28
185 535 233 169 10 43
447 504 316 165 23 56
187 485 334 145 96 88
476 561 317 54 25 31
186 495 323 49 28 27
185 495 328 89 58 52
187 491 329 83 46 44
326 55 269 118 32 45
246 890 313 120 85 68
316 495 327 160 24 53
424 472 255 43 37 36
198 608 296 72 27 31
185 490 333 142 96 88
181 485 338 161 115 96
325 260 318 128 99 63
201 620 293 95 48 41
181 490 337 162 115 97
180 495 336 160 116 99
361 530 310 170 19 55
185 484 336 160 109 98
308 333 291 98 85 70
182 500 328 117 79 72
184 488 336 161 112 99
264 791 241 77 62 55
182 500 323 54 40 33
297 85 253 103 33 42
348 756 193 90 72 55
181 500 333 151 106 96
274 796 236 79 62 56
261 110 243 131 86 63
374 736 246 138 94 71
177 502 335 167 114 102
326 15 293 144 28 57
326 585 209 114 29 41
297 215 265 132 98 57
396 899 398 77 66 57
362 853 303 42 37 35
178 507 323 117 81 68
395 496 225 96 34 29
220 520 335 49 29 33
177 510 328 145 97 84
316 105 270 106 81 61
356 426 268 83 27 33
185 499 323 43 32 28
361 460 325 180 15 57
324 285 318 131 98 65
343 419 282 93 78 61
196 405 268 111 89 64
329 370 303 116 94 70
184 498 328 105 70 63
189 496 320 44 29 22
205 545 324 143 13 44
310 429 352 88 33 40
325 235 274 138 103 65
478 787 283 109 83 60
191 500 323 41 25 25
338 907 359 60 53 55
311 160 288 105 86 66
191 505 323 44 23 25
191 510 322 60 23 29
299 111 259 116 84 65
179 498 336 164 116 101
204 388 295 118 93 64
198 387 272 119 94 66
286 335 354 152 104 87
200 390 263 114 91 65
241 695 243 51 35 38
199 390 267 118 94 66
311 145 282 108 88 65
289 740 216 112 26 39
198 390 269 119 94 66
198 390 273 120 95 66
377 597 324 45 29 32
221 715 263 98 19 31
196 430 323 76 19 29
334 83 241 122 81 69
263 315 268 80 67 52
201 395 258 107 87 65
200 400 257 106 87 66
316 15 254 75 63 54
306 510 191 74 33 35
327 165 263 125 99 68
215 560 334 69 25 32
198 396 264 115 92 66
331 415 224 49 39 40
298 71 244 91 23 30
364 614 258 182 7 59
199 398 261 111 89 64
309 49 241 79 34 29
349 853 290 36 30 29
199 393 266 117 93 65
403 777 192 78 58 49
390 451 250 83 31 28
335 470 209 54 33 37
328 165 273 117 93 66
197 395 273 119 94 66
396 738 184 74 62 50
197 400 268 114 91 64
267 359 272 84 74 64
330 520 200 85 24 33
371 876 404 55 49 46
319 128 231 134 77 68
191 780 328 180 124 96
366 819 198 92 71 59
196 400 273 117 92 64
202 390 258 108 87 64
300 209 310 106 88 68
198 391 277 121 95 67
263 859 295 164 117 85
199 802 330 194 131 104
199 389 278 121 96 67
359 669 225 67 46 34
432 453 280 86 15 28
200 390 283 121 95 67
207 635 298 125 85 77
443 468 309 61 18 25
328 165 278 119 95 67
197 395 278 119 93 66
320 235 270 143 106 65
280 270 323 114 93 69
326 165 283 117 94 68
306 259 275 152 104 69
322 275 324 131 98 63
396 825 243 71 56 51
198 396 282 119 94 65
199 394 284 120 95 66
327 100 258 105 69 57
292 480 363 121 26 45
200 395 288 118 93 66
438 830 293 99 80 64
386 505 220 72 34 37
197 400 283 119 93 66
306 869 234 86 71 66
199 399 289 118 93 65
311 396 335 145 101 77
197 405 258 104 84 62
355 629 239 172 31 49
317 56 224 124 77 48
196 405 263 105 85 62
305 469 352 166 23 55
314 54 232 80 53 39
195 405 273 116 92 65
301 895 412 63 58 57
195 410 258 94 75 55
248 890 386 151 114 98
340 489 321 69 29 37
193 412 263 93 76 58
328 205 273 128 101 68
276 85 243 134 33 40
194 413 257 83 64 49
278 882 255 75 65 64
248 682 240 38 38 44
193 412 268 104 84 62
369 599 267 61 26 32
380 481 225 94 29 29
304 155 251 133 97 60
432 475 267 98 25 28
195 409 268 106 85 61
327 255 313 124 96 63
371 788 160 95 74 59
272 844 265 191 131 108
193 411 273 111 89 64
283 818 333 111 91 69
430 842 287 91 79 70
332 100 223 151 28 54
194 409 273 113 90 64
193 415 268 95 78 59
336 440 217 54 38 39
374 866 366 52 44 40
196 405 283 119 94 66
271 100 238 126 50 49
305 830 313 132 104 77
271 700 345 76 32 38
200 595 263 183 8 48
257 86 216 151 8 39
371 660 227 120 79 65
316 885 415 52 48 48
211 590 238 199 13 52
321 640 309 67 27 34
360 884 368 59 51 51
194 410 278 116 92 66
172 530 283 160 8 45
196 410 288 115 92 67
211 530 332 46 27 31
303 66 234 73 35 27
298 108 262 111 83 65
200 400 293 116 92 65
292 32 284 140 61 69
267 90 232 123 35 40
207 390 303 115 92 65
451 765 247 86 73 59
202 395 293 117 92 65
311 205 261 146 105 64
203 395 297 115 91 64
260 235 258 112 86 57
184 555 318 101 58 51
202 400 298 115 91 65
197 540 214 115 16 34
441 515 312 167 24 52
204 395 299 115 91 65
243 618 240 76 30 31
206 395 303 114 91 66
261 320 253 102 85 68
198 542 210 58 34 43
329 824 277 103 80 67
405 640 213 141 101 65
204 400 304 113 90 65
208 395 307 115 92 67
198 402 291 117 93 66
391 440 254 61 36 35
361 435 333 156 21 52
201 405 298 115 91 65
331 70 262 108 59 53
197 410 293 111 89 65
250 925 373 60 56 57
379 808 260 96 70 55
243 828 270 51 48 53
319 236 321 117 95 70
274 927 385 87 82 82
183 519 230 156 8 40
199 408 295 115 92 65
387 895 403 66 56 49
286 402 240 103 88 72
196 414 298 83 70 56
200 409 298 112 89 64
263 300 283 77 62 46
201 410 303 110 88 65
296 536 191 103 34 42
506 565 323 172 21 54
198 412 301 105 86 66
199 413 304 97 79 62
315 232 321 114 93 71
236 460 336 98 29 42
411 500 314 36 28 31
203 405 303 114 91 66
208 699 291 111 75 56
197 416 313 57 51 45
412 857 347 105 84 67
204 405 305 113 90 65
207 405 312 113 90 65
236 805 259 77 61 54
310 96 271 109 20 41
286 590 326 47 26 31
204 409 309 111 89 65
205 414 314 84 71 57
282 270 328 113 93 72
176 620 289 138 105 71
321 730 318 70 39 41
276 610 327 33 26 29
212 391 312 116 93 67
311 510 193 94 32 37
266 700 227 79 31 37
374 858 284 87 71 68
216 390 314 117 93 67
328 190 273 121 96 68
297 155 263 104 83 60
209 394 309 115 92 67
364 599 281 178 24 57
261 895 278 59 54 54
211 400 313 116 93 68
291 405 329 133 95 80
215 395 314 116 93 67
219 389 315 118 94 68
326 55 228 107 86 65
221 390 317 119 94 67
302 645 319 68 25 33
289 256 281 129 89 57
216 549 199 109 35 43
218 392 316 117 93 68
376 770 162 97 72 52
217 395 316 116 93 67
299 145 258 109 87 61
321 115 268 116 94 70
321 620 309 127 30 50
311 450 338 58 22 27
221 395 318 118 94 67
276 540 329 172 11 55
302 181 296 107 89 69
266 390 313 77 55 45
280 250 308 117 94 69
421 454 308 49 26 25
258 280 274 95 74 51
216 405 318 117 93 66
387 551 222 168 16 49
390 740 198 62 49 37
209 409 315 111 89 66
302 21 293 152 104 86
211 414 319 84 70 56
306 930 378 58 54 54
211 599 248 192 12 49
354 695 201 139 104 72
306 75 269 105 30 43
215 410 319 115 92 66
270 499 347 53 21 28
219 404 320 118 93 66
355 739 301 167 24 56
193 417 293 65 50 43
189 571 321 79 45 37
193 420 308 35 28 29
290 440 315 110 84 68
194 420 313 37 27 29
248 526 330 81 14 28
192 640 324 148 110 85
341 465 329 120 19 45
193 425 312 33 29 29
195 425 318 60 23 30
273 777 320 74 59 48
241 455 334 104 24 40
456 805 333 94 83 73
288 448 196 110 21 24
271 332 280 88 69 57
197 417 318 62 49 39
291 400 332 138 99 83
397 592 318 141 22 50
193 430 313 66 34 38
308 452 364 62 24 31
351 815 187 84 64 54
318 41 235 75 56 45
194 430 315 47 37 34
276 377 265 78 66 53
193 431 316 26 26 22
228 550 346 129 21 46
281 10 293 135 89 81
296 11 273 110 39 28
311 795 299 160 110 88
452 484 321 39 32 33
194 430 318 46 28 30
194 435 315 99 11 33
217 600 244 196 12 52
194 435 318 94 13 32
358 672 226 64 45 34
309 107 211 145 22 45
301 570 203 56 33 38
193 437 317 100 7 29
257 390 256 87 75 63
279 244 299 112 88 61
376 850 348 36 34 33
302 172 291 104 86 66
250 445 331 63 23 28
235 925 343 60 56 55
252 392 256 94 81 68
211 595 327 39 26 31
341 60 248 125 63 58
309 938 366 59 56 57
253 394 256 93 80 67
276 819 318 108 80 60
255 394 256 90 78 65
236 550 197 93 32 41
270 104 243 134 80 67
226 390 319 121 95 67
394 791 228 91 64 47
224 394 320 120 94 66
211 690 323 140 99 73
436 550 307 47 29 32
230 660 268 116 21 42
213 578 225 202 14 51
241 390 320 127 95 69
283 757 325 70 55 47
213 538 331 94 30 39
246 395 319 124 90 68
337 850 288 32 29 28
330 250 288 135 103 68
247 400 320 120 87 64
252 390 315 120 83 64
300 841 357 126 102 77
202 555 213 144 26 48
319 345 336 130 99 66
321 440 358 80 28 36
261 100 223 147 15 40
250 390 316 124 87 67
458 504 282 44 35 34
393 438 289 80 33 33
253 393 315 117 80 63
308 826 218 60 55 54
386 480 228 70 36 30
275 85 268 113 75 63
339 898 317 67 60 63
256 395 314 115 77 60
426 520 229 49 35 38
254 396 316 114 78 61
361 755 283 83 66 58
361 429 298 74 61 49
373 572 221 154 14 35
412 761 193 102 75 56
251 405 318 102 74 52
321 320 328 131 100 69
278 82 258 111 26 41
256 405 316 92 64 46
242 830 273 75 64 62
256 410 317 78 56 37
420 833 323 79 62 47
321 425 368 156 22 53
256 419 319 65 48 29
309 301 346 126 94 61
206 416 323 64 56 47
223 401 321 120 95 67
441 837 332 100 77 64
196 555 317 119 8 36
204 582 241 198 14 51
188 575 273 57 31 36
321 601 332 127 13 40
201 416 323 64 54 46
211 415 323 69 58 47
154 532 316 165 120 96
290 374 262 97 83 68
211 416 328 65 55 46
214 413 320 101 83 64
306 450 319 107 73 59
481 535 323 61 30 34
395 864 299 86 72 75
216 414 323 88 72 55
271 11 273 89 71 60
204 780 340 166 121 91
276 630 227 84 33 40
293 900 403 62 56 56
221 405 322 119 93 65
217 411 321 116 92 66
294 232 271 133 96 60
221 410 323 119 94 67
351 865 263 73 61 58
221 416 328 83 68 51
340 18 286 137 38 57
178 650 289 161 107 84
401 562 316 55 29 34
197 420 323 114 10 35
330 799 193 60 52 48
346 897 387 66 59 58
321 435 333 84 38 38
259 250 268 104 81 55
261 925 297 85 76 74
303 790 215 80 63 56
198 421 326 115 11 32
200 420 328 103 24 36
263 784 235 76 59 55
196 425 323 97 13 32
201 470 329 53 30 32
309 887 257 75 64 62
276 370 268 76 64 53
199 425 329 95 21 35
297 236 322 112 94 74
315 766 206 67 55 49
354 833 259 60 52 44
291 315 294 80 68 55
256 665 238 127 12 36
466 565 277 123 93 63
197 430 328 72 19 31
199 430 330 90 22 39
361 580 217 144 16 37
261 400 313 96 63 48
202 417 327 66 53 42
279 470 316 38 27 28
202 421 332 96 25 35
205 425 334 77 26 35
202 430 332 94 27 39
325 488 326 103 31 42
206 430 334 86 29 39
195 440 323 106 15 34
281 374 266 84 72 60
296 180 288 106 87 66
198 435 327 72 23 32
254 770 331 78 62 52
220 505 335 143 23 47
318 12 296 130 48 53
389 735 218 142 94 63
235 705 248 134 6 36
198 440 327 134 20 44
202 435 332 100 28 42
320 310 308 108 86 62
302 201 306 108 90 71
206 440 333 52 29 31
286 225 303 111 91 69
371 855 278 76 62 56
206 445 332 51 28 32
215 631 298 40 31 33
217 797 340 176 133 109
211 417 332 64 55 46
211 418 334 63 53 44
216 418 334 61 51 43
219 417 331 66 54 42
284 64 267 102 72 58
188 755 326 164 117 87
221 419 333 60 50 42
258 618 230 166 6 42
222 418 330 70 57 44
211 421 337 115 27 42
310 17 290 128 73 71
263 319 295 68 62 55
325 35 239 125 77 57
356 428 313 70 58 46
283 454 191 110 21 27
216 421 337 105 32 40
211 430 337 117 23 42
338 32 280 149 22 57
239 658 256 127 6 34
391 575 244 43 31 34
336 60 232 100 73 57
261 12 288 88 43 44
221 425 338 146 23 49
241 560 202 144 21 42
316 919 303 71 63 64
426 579 303 101 25 40
304 478 346 179 8 57
209 435 335 43 26 29
260 860 298 164 122 91
251 740 337 147 18 47
361 520 311 114 25 44
289 401 330 133 95 80
369 633 225 72 44 24
211 445 334 54 29 31
214 442 335 113 26 42
427 571 273 52 30 33
211 435 336 72 28 35
322 265 323 129 99 63
198 603 301 71 23 28
376 490 316 176 19 55
216 435 337 114 23 42
216 440 336 125 25 45
246 820 263 85 66 59
266 686 337 68 31 37
221 440 338 125 24 45
276 26 255 71 44 31
221 445 338 124 26 45
351 428 278 80 59 48
232 387 321 123 94 67
311 246 271 147 103 67
231 390 321 124 96 68
226 395 322 121 94 66
313 128 275 109 89 67
236 390 321 126 96 68
238 388 320 127 95 68
242 568 205 177 9 53
251 470 332 36 24 25
240 391 321 127 96 69
236 395 322 127 97 69
336 700 217 65 27 32
356 450 232 97 27 27
329 103 215 173 27 55
265 952 348 66 63 64
236 400 323 126 96 68
265 450 180 121 17 29
256 916 288 81 71 66
241 400 322 126 95 68
231 405 325 126 98 69
401 575 327 55 28 30
376 425 248 83 30 35
322 515 196 56 36 40
296 635 322 102 24 41
471 580 279 179 120 87
225 409 325 123 96 68
224 413 325 120 94 68
316 594 324 118 9 35
317 45 234 77 63 47
204 630 307 129 87 75
226 415 327 110 87 63
289 745 216 98 27 35
183 730 321 166 113 88
231 410 326 128 99 70
236 405 324 126 97 69
301 445 372 148 18 46
241 405 323 124 94 67
237 410 325 127 97 70
270 927 297 96 87 84
307 90 208 129 16 39
411 530 222 72 32 39
366 830 223 122 83 69
290 281 291 131 87 58
264 52 225 119 104 90
241 410 324 122 92 67
315 758 206 65 35 36
261 586 211 185 4 42
286 390 333 138 98 83
245 780 247 78 61 54
238 413 325 124 93 69
269 310 328 127 99 73
239 416 326 116 89 64
355 774 281 81 64 57
245 405 321 116 86 62
315 204 260 146 105 66
266 825 343 105 44 49
271 855 278 187 137 107
381 434 298 68 55 41
238 450 335 102 32 45
294 469 346 67 12 28
461 585 278 180 121 90
273 343 291 82 68 53
291 485 312 43 24 27
246 415 323 102 78 56
281 15 307 162 120 112
332 901 303 73 65 65
248 409 320 104 77 54
361 844 254 78 63 58
261 195 268 91 74 56
249 411 321 97 73 51
226 420 333 61 50 42
233 654 316 32 28 30
292 496 344 121 22 46
265 396 259 62 54 48
231 418 330 99 78 57
477 786 278 121 90 68
310 40 247 62 55 48
248 522 352 67 21 32
233 423 335 94 26 36
241 425 332 116 36 42
315 939 328 92 84 83
237 430 335 80 27 36
362 851 263 75 63 61
226 421 337 104 29 36
376 430 273 77 17 28
434 610 250 180 123 92
447 816 337 82 68 53
242 934 357 57 53 54
381 725 238 155 106 79
226 430 338 93 27 39
231 430 337 121 26 45
497 582 286 181 116 94
320 289 299 144 98 72
311 110 271 112 91 69
234 430 336 113 29 44
251 675 326 44 28 30
315 45 238 61 47 36
411 579 263 71 32 36
207 565 327 128 16 41
237 435 335 102 26 40
237 440 335 107 22 40
366 425 258 83 14 28
376 635 232 98 53 45
411 550 253 181 14 43
313 478 196 78 21 27
301 675 219 50 34 37
241 440 333 93 27 39
226 440 338 100 26 40
236 910 368 71 65 63
231 435 337 104 24 40
260 396 254 80 68 57
340 604 302 66 27 33
333 100 243 116 36 46
349 724 311 163 18 53
321 140 277 110 89 66
388 745 209 89 64 45
306 288 290 146 101 70
231 440 337 71 29 35
226 445 338 69 28 35
231 445 337 79 30 38
234 435 336 101 23 38
436 825 348 50 41 33
341 625 227 105 34 38
234 440 336 77 28 37
292 905 404 65 60 60
295 450 368 119 13 37
235 445 336 114 25 43
384 728 181 64 52 39
242 418 325 110 84 60
307 97 271 106 21 40
428 458 304 62 17 28
369 757 171 65 51 42
297 525 325 58 25 32
425 511 235 72 38 26
245 421 326 95 74 54
345 799 277 72 57 50
242 423 330 84 66 48
294 188 290 108 89 68
226 455 338 91 29 40
246 430 331 110 23 40
423 468 321 162 24 58
251 425 328 67 53 37
224 587 330 126 42 54
326 12 288 132 30 50
255 421 321 66 49 31
256 425 324 61 45 29
304 120 270 107 86 63
256 430 328 63 34 29
317 891 252 96 85 79
376 454 326 58 29 32
298 75 239 88 40 36
249 430 331 53 25 29
258 943 325 74 69 69
246 440 331 43 27 29
176 625 329 166 117 93
246 445 332 103 26 40
243 507 330 54 14 22
406 745 178 82 63 51
248 435 330 100 27 42
251 435 330 90 24 35
288 316 295 80 68 54
394 838 343 41 35 33
200 585 319 120 32 47
256 440 329 48 26 29
249 442 331 40 23 25
294 665 326 164 6 52
252 445 330 58 23 30
195 595 278 130 18 39
196 455 331 135 101 96
481 505 322 168 24 56
200 453 330 116 63 63
291 934 303 88 81 81
217 460 336 38 28 30
473 499 297 98 10 33
267 790 319 85 68 59
383 866 431 67 53 42
201 455 331 105 36 45
195 459 331 137 92 88
276 495 185 132 9 31
283 70 252 121 34 44
328 592 326 121 10 38
197 460 330 107 58 60
236 560 343 183 14 58
319 458 346 137 26 51
327 150 273 115 92 66
196 465 329 95 42 43
194 463 331 133 84 76
185 549 318 94 42 43
351 510 208 68 32 39
401 863 440 98 77 59
201 465 330 83 31 36
466 789 288 100 84 68
251 875 382 141 113 88
291 408 217 121 16 17
202 450 331 64 26 30
323 142 251 132 102 69
310 71 270 112 26 44
380 872 410 73 61 53
391 866 414 79 67 59
206 450 332 61 27 31
251 545 343 183 6 58
310 450 323 95 62 49
316 450 202 93 34 36
206 455 332 81 31 37
311 85 269 111 82 62
300 877 241 84 71 62
287 895 288 66 57 55
179 532 246 178 8 49
436 471 321 157 23 53
303 85 215 113 19 36
265 913 280 83 72 71
199 607 287 62 34 37
317 335 338 131 100 66
203 465 331 66 26 33
271 511 328 41 27 27
356 545 209 105 25 38
306 690 329 62 25 33
259 240 268 104 82 56
316 599 329 87 14 32
269 355 325 124 91 71
261 913 280 77 68 64
206 460 332 63 30 34
405 801 238 99 74 60
381 875 337 62 51 51
322 335 313 125 98 68
206 465 332 87 27 38
196 475 327 67 25 30
213 684 320 134 94 71
392 772 172 97 73 58
303 76 223 92 38 35
196 480 328 77 19 28
203 469 331 53 24 32
361 501 315 70 25 33
206 470 332 74 28 35
363 442 330 178 16 57
323 385 330 134 98 70
346 865 363 34 33 33
203 478 331 86 24 34
345 426 278 83 69 56
311 65 223 101 83 63
215 455 335 94 29 39
436 904 412 89 77 65
211 465 334 99 26 38
217 455 336 42 29 30
237 705 244 141 9 41
256 450 330 55 22 26
228 623 255 176 7 45
221 455 337 69 29 36
271 415 312 62 49 41
218 465 336 73 30 34
211 470 333 90 23 37
303 660 320 152 14 49
309 778 306 66 51 44
216 470 335 119 22 41
216 475 335 100 25 39
276 890 403 40 39 40
357 446 330 180 19 57
216 480 335 110 24 42
218 470 336 107 21 38
184 561 284 96 36 41
221 470 336 113 25 41
361 560 211 164 6 36
323 86 264 117 28 44
302 860 364 118 91 70
305 32 275 110 63 58
217 740 263 106 26 40
366 476 219 85 35 33
218 475 336 111 23 40
211 735 332 160 114 84
221 475 336 113 23 41
221 480 336 107 27 42
201 485 329 111 18 39
379 845 293 80 66 57
276 290 302 139 110 87
260 611 226 102 30 40
196 490 327 94 18 34
194 495 325 53 24 30
258 551 335 174 3 54
196 495 326 57 27 33
364 715 243 118 22 42
302 289 350 121 95 67
206 485 331 138 19 45
213 670 297 203 139 141
344 28 276 119 100 76
206 490 331 135 20 44
221 815 328 187 130 104
174 525 332 133 84 67
204 495 330 104 22 38
332 825 189 83 67 60
372 464 231 81 32 28
207 495 331 123 22 44
294 20 265 93 27 32
270 385 267 69 60 53
195 505 325 95 22 35
201 500 328 94 23 37
197 505 326 94 23 37
371 760 169 65 49 43
195 510 325 83 26 38
359 682 255 109 25 43
204 500 330 131 20 45
284 406 325 126 91 77
207 500 331 141 20 47
390 873 412 89 72 64
297 85 238 109 37 43
207 510 331 130 20 43
461 485 284 41 31 34
308 433 206 87 37 34
216 485 335 151 23 51
269 300 313 101 81 59
211 490 333 149 19 47
281 260 288 134 100 70
252 475 330 28 24 24
216 495 334 156 20 50
259 350 254 79 69 60
219 485 335 134 27 48
301 290 291 129 93 61
336 45 268 120 43 51
276 570 327 148 22 49
487 582 310 213 144 126
220 495 335 154 19 50
332 844 209 106 82 65
301 262 336 109 89 68
262 90 222 140 14 36
222 490 336 152 23 51
369 588 283 170 28 55
435 578 326 100 24 36
211 500 333 151 19 48
216 500 334 159 21 51
428 473 321 122 26 40
421 850 303 88 71 60
211 510 332 157 21 50
311 95 203 143 28 42
487 514 294 124 16 41
220 510 335 72 28 35
266 20 299 112 34 47
222 505 336 124 24 45
300 440 358 81 23 35
222 510 336 50 28 31
219 627 267 165 7 46
241 450 334 102 20 39
164 590 325 165 118 92
260 285 263 104 83 59
241 460 335 87 22 35
226 450 338 73 30 36
231 455 338 51 31 35
270 355 275 104 85 72
226 465 337 56 28 31
231 465 337 83 29 37
319 310 332 135 101 70
236 455 336 49 27 30
452 800 328 67 53 40
172 620 294 152 110 78
291 330 356 154 105 84
239 461 336 88 24 38
342 26 279 127 35 54
252 685 327 43 24 28
240 466 336 99 26 39
231 620 325 44 28 32
266 12 265 86 73 62
321 888 416 67 62 61
326 470 202 47 38 41
303 46 254 77 28 34
303 119 244 128 84 65
284 886 252 87 75 68
302 630 320 118 30 47
497 529 298 110 18 38
310 423 363 83 31 38
241 475 335 117 20 41
238 480 335 141 18 46
376 505 314 69 27 36
241 480 335 106 17 37
340 894 373 61 53 58
317 70 270 116 34 47
231 470 337 68 28 34
211 760 338 155 117 84
324 350 323 126 100 70
315 131 276 110 90 66
307 187 301 110 92 73
226 480 337 117 27 45
285 65 258 102 30 39
236 470 337 72 28 34
262 205 253 113 89 60
240 470 336 90 28 36
261 455 179 83 32 35
236 475 336 117 23 43
274 79 239 137 29 42
321 245 274 146 106 68
236 480 336 147 19 49
239 474 336 125 22 47
246 450 332 130 17 42
263 106 227 139 24 41
333 800 185 73 59 50
242 465 335 101 23 38
246 465 334 89 18 33
286 475 313 60 18 27
314 187 301 113 95 75
245 606 231 67 34 39
250 450 331 82 20 32
251 460 331 67 23 30
313 932 370 60 56 56
216 816 293 189 130 100
251 465 332 59 23 29
168 620 303 176 126 95
256 460 329 55 20 26
256 465 329 32 23 25
242 470 335 100 18 34
246 470 334 80 21 32
246 480 333 38 23 26
456 576 303 106 60 58
245 621 241 45 36 40
406 465 319 175 14 54
330 395 323 134 102 74
253 470 330 26 24 25
256 470 328 38 22 24
433 508 247 85 39 26
166 595 298 148 108 79
456 535 314 150 23 51
310 465 328 89 14 34
255 475 327 31 23 24
340 728 211 96 23 32
257 480 324 28 24 24
346 25 273 114 53 53
234 895 353 93 77 69
400 804 229 118 86 67
468 488 303 77 20 27
250 475 331 29 24 25
250 480 331 26 24 25
227 590 331 93 25 39
260 190 267 90 74 56
252 480 329 27 24 24
225 590 330 129 27 48
391 581 264 34 25 27
308 95 205 134 20 41
161 550 328 165 117 94
333 22 285 129 90 71
224 494 335 150 18 51
360 848 294 35 30 30
238 495 335 101 9 33
328 870 246 77 64 62
241 495 334 74 11 25
352 855 258 72 59 55
226 485 336 112 23 40
226 490 336 137 20 46
331 455 209 64 39 39
226 495 336 150 18 47
463 478 290 102 18 33
263 878 295 125 101 77
185 560 313 93 70 69
251 926 308 78 70 68
231 490 336 152 19 49
231 495 336 143 16 45
236 495 336 125 13 41
237 505 335 74 11 25
241 510 332 52 17 22
411 586 313 161 23 50
325 140 253 133 104 70
193 568 245 62 37 39
377 785 154 106 77 53
226 500 336 157 21 51
322 340 308 124 99 70
226 505 336 98 22 37
346 885 283 79 67 65
180 715 303 160 110 82
235 500 336 111 11 35
249 715 236 132 7 35
285 930 295 89 81 80
235 505 336 94 12 32
355 603 323 173 21 55
235 510 336 78 12 25
266 12 293 106 69 65
246 485 332 43 22 25
246 490 332 47 19 24
245 495 332 59 12 22
247 495 329 56 14 23
316 235 268 144 105 64
257 490 324 44 21 25
253 496 325 64 12 24
312 375 267 97 86 74
400 843 327 46 39 36
256 495 324 61 16 25
246 500 329 57 12 23
287 45 257 105 60 50
331 85 253 122 36 50
446 469 308 66 18 25
298 70 258 95 16 36
246 505 329 55 16 24
381 589 331 92 35 44
243 510 330 52 19 21
321 165 288 110 89 66
186 575 324 130 86 68
250 505 326 42 23 25
287 55 268 107 38 47
250 511 326 39 24 28
252 509 325 38 25 26
346 578 320 134 14 43
285 205 278 97 79 59
256 510 324 39 26 27
361 481 215 49 39 40
261 25 254 100 86 72
261 31 249 104 89 73
301 50 263 95 67 54
470 775 271 112 87 62
282 665 225 45 37 39
266 25 253 103 89 75
266 75 218 138 14 37
258 844 296 169 113 86
273 75 236 107 61 49
266 22 255 104 90 76
281 300 353 112 91 69
280 923 285 92 84 84
328 220 303 124 99 71
329 905 390 67 62 62
310 474 342 176 17 57
271 22 255 101 88 74
335 390 313 123 97 65
266 31 249 106 91 76
301 615 217 67 38 40
274 22 255 98 84 70
276 30 253 53 37 27
286 470 367 83 26 36
279 27 255 85 27 24
288 52 264 116 21 44
343 46 258 133 92 79
318 858 303 43 38 34
367 842 286 39 34 31
225 531 335 69 23 31
395 445 254 94 24 29
349 700 211 94 69 51
301 410 212 90 30 26
261 50 223 120 102 86
246 755 238 76 44 45
336 85 218 132 37 47
467 811 338 86 66 54
262 54 222 107 90 72
286 625 328 67 27 34
256 665 327 121 25 45
259 61 215 102 34 28
337 70 248 129 32 46
452 537 251 158 8 40
386 574 324 57 24 30
261 65 214 127 28 34
435 516 239 87 37 26
439 896 404 114 93 71
311 290 293 137 95 67
258 58 216 86 41 20
262 63 216 113 34 35
383 733 204 97 70 48
302 55 267 96 23 37
331 440 318 87 33 36
450 516 259 87 32 28
265 55 224 93 71 50
426 611 264 177 118 99
268 64 222 111 29 28
441 555 282 45 29 33
361 835 238 88 67 59
327 155 263 123 97 66
299 474 357 177 15 56
269 61 224 98 42 20
184 598 291 110 78 59
270 65 223 112 34 30
368 440 241 48 38 40
260 46 229 117 100 84
420 595 264 137 85 80
307 180 254 139 100 62
292 240 274 135 94 59
231 750 247 98 28 37
261 44 233 116 99 82
216 630 303 40 30 32
311 155 286 107 87 66
267 44 238 112 97 82
291 480 188 123 15 30
261 36 244 110 95 79
261 38 241 112 96 81
267 34 246 110 93 77
257 250 248 125 98 67
365 700 239 96 61 55
269 22 300 124 23 50
163 595 318 170 122 96
267 40 243 111 96 80
251 625 238 91 34 41
338 429 251 71 38 33
270 41 244 89 65 49
495 785 339 99 85 73
271 44 242 82 46 33
428 812 259 110 84 77
268 53 231 83 62 32
271 55 233 69 40 27
196 695 328 160 112 86
259 197 271 87 71 53
270 51 234 74 48 32
272 50 238 80 39 31
201 540 208 64 29 34
352 675 232 52 27 34
281 430 315 77 61 46
304 335 351 139 97 71
268 58 226 88 38 20
271 60 228 92 46 24
229 776 256 73 58 53
194 790 328 185 129 101
161 545 308 136 106 77
273 60 232 100 44 35
296 280 347 103 86 68
271 65 228 93 45 29
273 316 342 116 89 63
351 505 207 50 37 39
351 560 210 156 1 34
273 33 251 64 30 24
282 40 252 101 34 27
280 41 250 94 50 35
344 20 281 105 41 44
260 500 321 38 25 28
386 854 327 58 50 45
277 45 247 69 47 37
280 45 249 110 43 38
294 105 253 103 21 37
243 885 325 106 82 69
349 754 196 103 82 61
284 37 255 98 29 23
391 675 213 165 109 79
284 45 255 93 67 45
274 51 240 84 34 27
273 54 237 70 43 30
350 619 282 95 25 41
329 235 303 120 95 66
346 685 303 52 28 32
271 27 294 140 33 58
274 56 235 82 39 26
266 325 283 65 55 45
321 415 219 59 40 36
274 60 234 105 42 33
315 346 289 104 90 76
346 550 208 146 4 34
277 55 243 100 45 28
327 475 202 108 25 36
190 710 325 160 110 84
311 540 196 101 32 38
278 50 246 108 36 34
280 50 248 108 33 31
196 645 318 132 94 75
361 695 243 133 17 43
281 55 248 105 42 38
317 32 240 93 61 39
251 670 242 116 9 30
277 60 242 124 35 35
198 640 315 143 98 82
395 859 314 63 53 44
306 200 307 111 92 74
200 531 325 150 13 47
403 868 451 104 83 64
168 568 331 161 114 91
279 60 245 122 27 36
312 858 225 97 79 70
281 60 248 131 25 34
246 926 313 75 68 69
280 65 248 123 46 48
309 877 383 32 31 33
251 570 334 153 24 52
282 50 252 113 33 31
460 575 274 157 117 83
283 55 252 131 46 41
352 626 274 179 12 57
246 755 333 144 109 85
284 55 254 124 67 60
287 892 286 64 57 53
311 200 308 112 94 75
320 125 272 112 91 67
246 740 237 62 32 38
283 60 252 125 56 47
433 519 236 106 31 30
275 80 271 112 34 47
266 411 203 165 8 19
311 16 254 89 71 58
275 685 226 119 14 32
308 17 255 91 54 45
259 316 296 62 49 35
416 470 320 169 20 53
346 615 224 37 33 39
312 56 233 71 39 31
309 25 252 88 32 26
306 924 299 76 69 71
371 480 219 63 33 34
324 142 276 112 91 67
312 22 250 84 63 47
306 855 353 105 85 64
308 25 255 82 29 27
310 30 253 80 28 26
308 854 225 89 70 63
312 30 248 79 32 29
316 25 247 94 67 48
318 67 205 158 16 14
281 670 329 92 19 36
212 535 331 58 26 32
321 20 248 98 78 61
452 469 288 84 11 28
276 305 343 114 88 60
315 19 251 94 81 69
345 785 282 72 55 49
306 355 274 98 86 74
329 109 228 117 52 50
320 17 250 77 64 52
177 635 327 172 122 96
201 785 338 172 124 95
298 450 371 150 19 47
313 32 245 80 28 29
294 472 190 40 37 43
317 26 245 102 85 66
351 430 303 76 64 50
321 29 242 123 76 54
321 31 239 127 69 42
451 555 288 88 22 31
391 505 314 81 23 37
313 62 224 105 90 74
273 53 281 124 24 46
436 815 268 106 84 69
314 63 221 112 98 81
306 50 243 77 36 25
321 59 222 156 34 23
416 844 288 74 62 52
317 62 220 143 40 21
353 685 204 135 101 73
358 684 252 113 23 43
321 61 219 153 32 18
398 772 176 82 64 53
356 867 323 38 34 33
280 270 292 129 98 72
303 56 244 79 47 39
192 625 324 148 104 81
300 55 253 87 28 32
301 50 253 80 32 37
300 60 248 81 37 29
302 625 320 75 26 34
299 64 247 87 49 38
270 413 218 132 21 19
320 402 239 102 82 61
268 859 284 182 131 101
302 60 243 79 33 29
272 848 270 187 129 106
280 893 264 77 67 63
350 774 286 78 61 53
354 848 289 33 31 31
285 880 268 63 55 52
282 491 339 46 23 26
300 65 243 82 35 33
401 553 310 69 23 33
406 585 303 169 21 54
258 285 280 82 64 44
298 66 249 89 62 47
351 885 288 66 57 56
271 915 398 55 51 50
180 520 310 59 24 30
298 65 253 82 55 39
316 40 238 71 47 36
321 35 237 128 63 36
270 764 326 72 58 49
315 670 316 127 23 46
319 38 236 106 60 32
321 45 232 141 50 29
292 22 299 140 93 72
356 426 328 70 51 40
310 35 248 67 40 33
159 580 308 161 115 87
312 40 244 70 44 28
194 592 277 171 17 48
308 36 254 72 40 34
371 829 268 45 37 32
361 505 314 66 28 33
364 874 284 65 56 56
309 34 252 67 36 29
301 230 266 139 100 61
308 32 255 72 32 28
339 64 252 136 40 53
308 37 250 63 51 41
461 736 237 93 86 80
178 520 239 79 29 39
250 879 384 141 110 88
435 585 278 118 71 69
307 41 249 72 62 53
310 45 243 73 42 27
309 43 246 74 64 54
314 35 242 80 34 24
314 40 241 75 36 27
324 362 290 113 93 72
402 655 223 194 130 100
314 43 241 67 43 28
461 799 278 93 70 54
246 630 244 44 37 39
307 55 238 64 42 27
446 570 293 92 43 43
311 50 238 74 38 30
289 190 273 104 84 61
310 59 232 78 38 31
308 62 230 85 34 30
305 60 237 77 43 24
281 858 380 120 103 87
316 50 233 76 59 45
271 85 238 109 56 43
463 583 306 173 126 119
321 50 229 147 41 23
370 879 343 63 54 55
321 54 227 144 35 23
330 863 324 30 30 32
452 510 268 67 34 32
257 354 305 70 49 32
209 621 282 90 34 42
314 50 236 68 40 29
456 476 308 76 22 28
327 190 268 130 102 70
202 620 298 102 63 56
281 445 193 105 22 26
313 57 230 84 60 41
307 793 215 81 64 56
304 49 247 72 35 27
377 456 325 48 29 29
463 513 281 49 34 28
305 54 242 77 38 27
336 415 313 122 93 68
294 170 273 99 79 58
421 480 248 60 38 38
308 52 240 67 40 30
390 444 326 124 20 45
304 58 241 84 41 28
298 70 253 90 24 35
301 680 218 51 36 38
440 467 317 76 20 32
261 70 212 142 16 34
181 626 330 163 114 89
233 901 338 50 46 48
358 688 236 62 39 41
291 485 187 131 9 32
157 555 313 169 121 95
261 75 213 145 9 37
263 461 325 26 24 25
264 67 215 129 24 31
291 200 293 110 90 69
331 100 218 164 25 58
194 519 216 102 11 31
246 940 353 60 56 57
325 12 280 124 26 48
267 70 217 124 22 26
358 665 200 134 101 69
402 633 246 166 108 91
286 500 185 112 21 34
269 66 220 119 35 38
266 465 322 37 22 23
269 70 220 122 27 35
330 830 192 88 71 62
417 464 257 69 39 26
324 123 230 157 29 53
268 76 221 137 17 40
344 32 245 116 88 65
273 792 315 64 52 44
347 857 308 34 32 32
270 922 390 51 46 44
299 488 319 65 19 27
269 74 220 132 26 32
306 15 293 105 56 53
441 570 284 112 50 45
423 592 266 132 82 78
269 75 223 132 21 37
269 79 224 132 24 38
347 660 283 151 12 47
260 85 219 150 9 40
262 86 221 149 11 38
329 230 303 120 96 67
260 89 220 150 13 40
371 490 317 175 20 56
261 95 223 141 14 36
345 594 330 138 15 43
201 715 286 126 90 62
271 70 228 109 34 36
271 75 233 100 65 51
269 79 228 107 35 34
349 629 276 179 23 59
301 245 271 142 100 63
270 80 233 120 32 39
445 501 315 58 16 29
291 351 273 92 78 64
268 82 228 127 26 33
267 85 228 123 41 42
336 839 198 90 71 59
481 500 313 62 24 25
466 588 296 199 136 114
272 90 237 123 31 33
272 80 238 125 41 43
342 898 411 74 67 63
271 595 329 37 29 31
424 588 264 121 78 64
293 872 245 67 58 61
265 90 228 117 41 40
265 95 228 130 32 39
267 95 232 113 57 45
308 310 350 128 94 64
269 90 235 122 27 28
271 95 238 114 72 51
406 550 248 185 14 45
381 545 213 115 29 40
274 70 234 122 38 41
346 595 217 90 31 38
275 70 238 131 26 40
326 480 329 118 22 45
302 125 248 120 86 61
388 772 168 78 61 50
296 850 238 66 60 60
278 66 246 118 73 60
208 664 315 131 96 72
275 80 243 137 30 38
277 75 248 129 81 64
277 80 247 116 59 42
336 33 241 119 100 79
296 280 287 146 98 69
425 610 238 136 100 63
279 75 250 113 77 62
311 166 251 144 102 67
316 75 203 132 25 24
441 576 273 112 76 40
316 255 329 120 95 64
309 300 295 110 86 60
366 560 212 128 19 39
284 69 254 100 35 42
410 635 219 148 105 69
274 90 240 126 36 40
301 185 298 106 88 68
456 900 419 98 82 67
273 82 241 122 51 48
245 522 336 48 26 30
287 383 256 99 84 68
291 918 285 86 79 79
304 96 217 129 8 40
431 530 238 185 0 44
336 755 302 73 57 48
273 84 241 109 41 34
274 86 240 126 33 38
309 494 331 181 18 57
356 421 253 79 14 29
281 680 334 128 15 40
426 588 257 112 82 45
365 695 283 92 21 38
278 85 247 138 36 45
394 663 209 181 120 91
279 84 253 122 24 47
183 735 321 168 116 88
155 540 318 175 125 102
398 868 451 99 79 62
278 86 253 112 40 50
276 90 243 125 34 40
356 428 308 72 60 48
327 96 207 162 30 55
351 876 377 43 38 37
350 605 292 178 20 57
277 95 248 117 39 44
277 95 253 103 51 48
331 865 338 30 31 33
289 776 221 73 59 53
264 108 230 150 82 70
425 828 336 45 38 31
261 109 228 147 57 58
305 725 327 121 24 46
446 579 313 122 18 42
264 96 225 142 30 40
264 99 225 147 24 48
300 361 270 97 84 70
428 513 236 81 39 29
267 100 233 110 60 45
358 602 285 185 17 59
265 105 229 131 29 40
269 100 235 126 51 51
