ply
format ascii 1.0
comment Created by Open3D
element vertex 2222
property double x
property double y
property double z
property uchar red
property uchar green
property uchar blue
end_header
327 403 195 89 74 59
274 303 328 133 97 66
270 248 275 97 80 59
275 228 274 96 80 62
285 238 276 98 79 57
275 248 274 97 79 59
280 243 275 99 80 59
427 501 181 120 16 40
275 253 274 97 78 57
378 431 262 64 46 40
280 253 276 98 78 54
329 883 195 46 43 45
398 473 190 117 12 38
295 218 310 123 96 65
306 393 225 110 88 68
377 638 178 38 34 37
294 907 271 103 84 75
280 313 228 115 82 62
284 243 277 99 79 55
355 972 240 70 65 64
283 246 277 99 78 52
294 208 309 124 97 65
285 248 280 98 78 53
283 253 277 98 77 53
257 225 292 121 101 80
376 872 242 43 40 39
424 473 226 82 25 35
451 758 240 117 85 59
460 920 255 79 62 51
257 229 309 112 92 71
333 405 274 106 87 66
258 232 312 113 93 72
322 873 212 141 109 82
330 412 105 109 91 75
261 228 315 112 93 73
259 233 315 112 93 72
260 238 319 112 92 71
352 438 103 105 16 35
271 487 77 119 25 35
292 708 248 155 11 48
403 611 206 90 32 39
325 935 188 91 82 82
515 900 232 102 82 65
258 241 317 113 93 72
315 633 255 74 31 38
365 428 325 73 59 50
284 228 319 124 98 67
275 298 175 113 89 63
326 966 226 97 92 94
230 593 210 125 94 63
287 228 317 123 97 68
287 238 317 124 99 70
277 324 322 135 98 71
285 243 320 126 99 69
333 405 256 90 76 62
342 411 232 67 54 46
320 967 250 67 62 61
290 198 276 99 79 55
263 455 277 173 5 51
336 612 268 107 37 45
295 198 280 100 79 52
296 388 316 123 96 62
292 203 278 100 78 51
290 473 76 75 30 39
365 478 116 109 15 35
289 208 277 98 78 55
313 395 303 119 94 67
294 203 281 100 79 52
264 333 200 116 91 61
260 253 324 114 93 70
290 673 234 150 11 46
315 683 251 80 26 35
294 208 281 99 78 54
409 588 265 110 83 53
315 463 311 78 27 35
360 412 140 80 45 39
305 808 229 72 55 50
282 284 283 88 68 43
408 487 212 39 26 30
297 200 283 105 82 53
299 197 281 104 81 52
303 196 287 122 95 63
411 593 200 91 33 42
299 208 286 113 89 58
289 213 277 98 78 55
292 213 278 98 78 55
284 538 260 133 18 45
345 748 260 79 63 56
288 223 277 98 78 56
315 858 282 170 135 108
536 863 210 89 76 65
294 217 281 100 79 53
460 909 294 45 40 38
294 223 282 99 78 54
405 623 295 186 133 102
324 313 200 125 99 71
432 473 245 136 17 42
335 573 126 182 7 38
338 415 77 91 78 65
296 223 285 106 83 54
297 212 283 104 82 56
299 213 285 112 88 59
356 878 261 139 108 78
405 417 120 67 24 25
315 420 56 101 73 52
447 737 198 74 62 53
303 198 290 121 94 63
298 198 304 123 97 66
484 878 230 39 33 30
311 377 265 104 85 66
365 638 258 175 16 56
300 198 300 125 98 67
400 418 175 94 15 34
262 348 190 115 91 64
302 203 289 123 96 63
370 943 300 66 58 55
301 208 300 126 99 69
566 880 223 109 87 72
426 489 332 173 118 97
435 867 99 103 85 66
296 198 306 124 97 67
291 208 311 123 98 69
344 515 292 144 28 50
296 207 306 123 97 67
289 208 313 123 98 70
372 833 141 79 62 49
302 213 295 123 97 66
299 213 304 126 100 70
300 218 290 119 93 59
380 415 185 67 30 29
297 222 288 113 88 58
335 966 275 60 56 54
299 223 290 119 92 60
302 218 295 122 96 64
302 223 295 122 95 62
291 213 311 124 99 71
289 213 314 124 100 73
264 338 210 112 88 58
289 218 314 124 99 70
320 748 148 89 31 38
374 692 155 89 57 46
289 223 314 124 98 68
297 218 306 123 97 67
391 722 119 89 64 55
327 398 250 71 60 48
268 327 222 115 82 60
288 231 277 98 80 58
290 410 115 80 58 50
294 228 281 99 78 54
313 365 172 95 83 69
418 506 297 196 145 114
294 233 282 99 79 56
330 403 245 66 56 46
296 233 283 103 82 55
296 238 283 103 81 55
262 350 187 113 90 63
347 509 108 126 11 38
290 248 281 99 79 54
345 429 330 192 15 60
422 910 234 62 54 51
395 513 124 171 0 35
380 838 125 106 87 73
292 262 317 125 99 67
296 243 283 104 82 56
297 228 307 125 98 66
285 313 228 116 84 63
355 873 260 139 108 79
293 246 282 101 80 53
295 248 284 106 84 55
363 870 253 139 110 84
411 584 185 129 37 51
407 628 253 98 77 51
380 848 230 38 30 28
414 598 294 172 120 91
410 895 248 40 36 35
375 414 160 80 42 37
442 743 265 164 114 80
289 253 281 98 77 50
370 788 136 82 61 48
291 249 283 101 79 53
291 253 283 102 80 52
410 488 118 61 33 39
449 449 138 59 32 31
418 720 177 56 46 42
294 253 286 108 84 55
299 243 286 111 87 58
301 233 295 121 95 62
295 518 94 98 24 38
232 548 246 144 95 77
326 439 68 163 0 33
299 228 304 125 98 66
286 918 255 168 137 121
288 274 163 105 83 56
301 228 300 125 98 64
260 298 280 104 80 49
400 618 210 131 34 46
416 603 290 171 119 88
301 233 300 125 97 64
299 238 305 125 98 66
301 238 300 124 97 64
305 377 250 103 80 63
495 812 243 64 51 40
294 228 310 123 97 65
295 411 95 82 57 48
294 233 310 124 98 66
289 228 315 123 97 67
290 233 314 123 97 67
249 778 169 160 110 74
295 238 310 125 98 67
297 233 307 125 99 67
275 363 326 133 103 69
301 243 290 119 93 60
265 328 200 121 93 62
302 243 295 119 93 60
276 378 162 102 85 66
351 879 132 125 107 99
304 768 237 68 57 52
300 248 290 118 92 58
391 573 289 170 122 104
295 283 163 95 77 55
301 243 300 123 96 63
394 802 120 88 73 60
288 904 262 138 105 93
407 604 237 163 26 55
301 248 300 123 96 63
480 929 295 87 73 62
351 433 100 89 29 36
297 253 289 113 88 57
279 453 105 142 0 40
299 253 291 119 92 58
335 420 330 69 59 50
280 829 211 132 101 86
414 917 231 55 52 54
354 425 255 87 75 62
276 268 171 119 93 63
401 676 191 103 70 60
295 243 310 124 98 68
296 248 311 125 98 66
404 608 256 90 64 43
326 398 190 88 74 59
295 908 235 158 121 97
366 743 130 53 42 36
288 244 318 122 96 66
373 882 182 56 53 55
293 243 313 124 98 68
275 293 175 115 91 65
291 253 316 120 94 65
363 435 282 82 71 60
460 708 201 96 75 56
298 243 308 127 100 67
295 634 153 118 18 37
298 253 309 128 99 68
357 431 267 86 73 60
365 742 278 84 35 42
264 238 321 114 93 71
311 353 174 91 80 70
266 239 323 117 96 73
310 278 165 105 84 61
310 853 281 179 141 119
270 235 323 119 97 74
438 710 240 95 54 43
259 247 321 111 92 71
265 813 170 191 132 99
265 248 325 117 95 71
421 564 180 196 19 53
322 383 185 93 77 60
257 254 323 112 92 71
265 253 326 119 96 72
365 543 281 134 20 47
350 609 267 115 31 47
255 698 228 179 130 106
270 243 324 121 98 72
248 548 158 155 0 36
270 253 326 124 99 72
275 233 322 122 98 72
413 440 309 53 30 30
279 243 323 127 101 71
327 412 197 86 72 57
262 396 233 95 69 54
323 131 265 144 25 55
395 417 245 61 18 26
321 134 270 143 11 51
338 840 183 89 64 55
232 551 176 102 36 46
272 263 185 116 92 65
411 523 285 125 68 56
270 263 190 119 94 66
428 862 212 77 66 62
267 310 198 118 92 60
331 416 69 98 76 58
270 273 185 117 92 63
261 373 180 112 90 65
310 421 54 106 62 47
270 278 190 118 93 64
315 593 263 40 30 32
350 420 238 65 52 44
300 373 160 96 83 71
473 696 202 99 74 51
310 847 265 94 75 53
270 283 185 116 92 64
306 402 149 93 78 61
298 359 162 90 79 69
272 288 180 118 94 67
270 288 185 117 93 66
277 258 171 116 93 67
425 832 227 42 36 32
276 273 171 121 95 64
293 523 276 154 14 47
435 485 332 127 78 70
274 273 175 122 95 62
273 746 163 123 97 68
392 918 230 67 62 64
405 909 285 32 32 34
320 463 311 60 27 31
279 268 169 118 93 64
350 432 285 81 70 59
286 258 161 110 88 61
298 760 237 81 66 58
286 263 162 109 87 60
281 268 166 115 90 61
398 529 307 177 133 111
284 268 164 111 87 59
435 429 124 96 23 32
281 273 166 116 90 59
287 268 162 108 85 58
287 271 162 107 84 57
400 898 250 36 34 34
273 257 183 114 92 67
395 863 237 41 38 37
273 263 179 116 91 62
273 268 179 116 91 60
273 273 178 118 91 60
274 278 175 122 96 65
425 513 134 58 30 34
277 278 171 121 95 64
288 515 272 172 14 54
274 283 175 120 95 66
277 283 172 121 95 66
305 957 230 83 79 80
279 283 169 118 92 62
227 517 245 89 54 49
409 677 164 73 53 41
277 288 172 117 93 64
335 748 151 85 31 37
330 423 333 158 30 55
345 423 280 90 76 61
281 278 167 115 89 59
285 278 164 109 85 56
282 287 167 114 88 58
221 533 215 116 34 46
441 724 213 140 114 105
412 421 127 62 17 19
259 406 164 99 85 71
273 276 178 121 94 62
273 288 178 117 94 68
269 298 185 121 96 67
272 308 177 114 91 65
320 953 210 73 69 71
448 461 112 189 19 46
267 309 191 121 96 66
470 728 214 76 60 44
368 488 302 149 15 45
267 313 187 122 97 68
235 589 206 94 62 46
395 806 114 93 77 60
280 425 56 126 12 24
266 313 190 121 96 67
268 307 189 122 96 67
250 813 216 192 142 118
360 718 283 41 28 30
380 417 215 62 22 26
372 615 168 44 39 44
300 848 265 105 86 65
267 318 186 123 97 67
303 673 242 156 15 50
280 293 170 113 88 59
406 458 160 105 13 34
277 293 172 113 90 63
280 303 169 109 86 61
298 273 300 122 93 61
275 421 65 99 27 30
285 293 166 112 85 55
383 534 292 66 25 33
282 294 167 115 87 56
401 452 161 123 11 37
322 264 173 119 94 67
282 302 167 109 86 60
295 338 166 90 79 68
273 294 178 116 93 66
350 414 101 105 37 39
274 308 174 111 89 63
405 568 256 74 27 37
322 270 185 123 98 69
236 673 224 190 130 107
360 633 259 90 22 35
434 428 284 55 32 28
274 313 174 112 90 64
265 453 66 145 16 41
276 308 171 109 87 61
285 673 164 100 27 37
337 423 287 88 75 62
392 749 153 52 46 45
420 518 199 132 11 41
276 313 171 109 88 64
274 318 174 114 91 64
298 499 287 181 16 57
310 748 147 67 32 39
285 308 166 114 89 59
285 313 167 114 88 60
432 457 253 122 24 43
295 389 151 93 80 66
283 308 168 111 88 61
304 801 157 89 68 60
540 873 236 108 90 73
416 453 214 83 21 31
285 317 167 110 87 61
283 314 168 111 87 60
269 498 256 74 23 36
285 318 168 108 86 62
275 788 223 123 95 76
300 263 160 103 82 57
397 683 283 174 127 102
305 258 159 106 84 57
290 273 162 103 82 56
291 277 162 100 80 55
327 925 178 86 74 72
276 384 162 96 82 66
362 842 142 82 67 60
295 273 161 100 80 56
305 263 161 104 83 58
310 628 254 71 28 37
300 268 161 102 81 57
265 333 215 116 89 58
279 288 281 87 68 44
242 684 197 133 94 63
300 273 162 100 80 58
304 272 162 101 82 59
285 446 62 56 37 35
355 423 240 74 58 51
454 763 205 71 55 46
282 344 233 125 90 71
290 278 163 102 80 55
406 708 174 56 37 35
409 423 205 114 10 32
290 288 164 99 78 54
270 403 236 64 49 35
295 280 163 96 77 55
365 413 155 80 46 36
394 468 316 155 17 50
429 443 275 59 31 34
295 288 164 94 77 57
417 441 306 55 38 35
389 690 147 76 42 37
301 327 221 109 82 54
303 276 162 99 80 59
336 438 73 158 0 36
305 278 163 100 81 61
381 769 130 70 55 50
266 723 229 142 42 51
271 427 314 178 18 57
300 283 163 97 78 58
275 298 219 108 82 58
305 283 164 100 81 60
326 413 200 89 74 58
259 373 221 116 88 64
309 267 162 103 83 60
311 269 163 104 83 60
310 273 164 104 84 61
245 803 214 184 135 108
313 258 162 107 86 60
316 258 164 108 86 62
265 438 59 169 1 33
442 429 92 139 30 45
313 261 162 106 84 59
315 263 165 107 86 61
319 258 166 110 88 65
272 469 127 50 37 36
282 446 62 47 29 41
318 263 167 110 88 63
426 727 190 59 46 40
314 273 166 108 87 63
362 891 120 94 73 64
221 583 239 175 124 100
260 738 224 153 101 84
415 858 231 48 41 39
318 266 167 110 88 64
378 764 143 48 39 37
320 268 170 114 91 65
444 713 220 49 37 31
317 273 169 112 90 66
461 925 304 61 52 44
311 288 169 106 87 65
320 273 175 120 95 69
355 553 276 170 18 54
235 768 190 166 114 85
268 756 169 90 69 46
227 552 207 77 29 39
317 665 253 122 12 36
318 277 172 118 94 68
317 280 173 121 96 69
401 413 195 113 46 35
315 278 205 128 100 71
313 282 167 108 87 65
445 479 336 89 44 46
417 574 184 38 35 38
314 288 171 112 90 66
421 482 166 74 18 30
261 432 57 165 5 37
280 293 284 84 66 43
265 613 161 134 12 36
316 288 175 114 90 66
250 548 155 158 4 38
318 282 176 120 94 68
320 283 180 117 93 67
304 786 152 84 65 56
318 286 177 118 93 68
460 733 200 93 70 53
272 778 157 157 109 74
514 908 255 89 72 62
456 758 215 68 53 43
318 385 259 89 73 55
499 775 246 98 76 54
290 293 164 100 80 57
295 293 164 93 77 59
290 298 164 101 82 60
414 494 189 40 27 28
290 303 164 104 84 61
233 569 209 98 34 37
433 713 269 152 104 71
252 831 198 223 147 119
281 508 110 131 2 39
295 303 164 95 79 61
345 603 146 75 33 39
300 293 164 96 79 60
398 438 180 86 21 36
315 303 211 126 101 72
390 892 246 39 37 37
300 303 165 96 80 62
304 298 166 100 82 62
383 658 260 101 61 54
295 308 165 97 79 59
290 888 275 163 117 99
295 313 166 94 77 59
408 485 188 102 30 44
300 483 80 94 30 38
295 318 167 92 76 60
300 308 166 98 80 61
300 318 167 92 77 61
305 313 169 98 82 65
302 367 290 103 84 64
305 318 170 95 80 64
302 319 168 92 78 62
410 513 200 131 6 41
440 724 225 89 27 39
307 299 168 102 84 65
338 601 142 140 24 41
306 303 168 104 86 67
261 673 193 96 70 40
340 413 105 113 83 69
310 298 170 109 89 66
300 412 95 85 62 51
309 303 171 109 90 70
312 303 173 106 87 67
339 748 256 80 63 57
313 296 172 116 93 70
314 298 175 106 85 63
262 380 262 82 68 52
317 289 178 116 93 68
407 547 222 75 31 40
402 631 293 192 139 113
434 533 165 86 35 42
317 293 179 111 90 67
322 606 263 35 28 32
320 288 185 115 92 68
320 293 185 113 92 69
384 790 94 92 77 64
318 298 181 105 87 67
344 588 272 137 12 41
303 337 167 87 76 65
320 298 185 110 91 70
289 639 158 129 24 42
318 303 181 102 86 70
321 303 185 110 92 72
380 423 250 61 26 29
473 705 202 96 74 54
309 308 171 106 87 68
328 491 87 88 39 41
317 323 179 96 81 66
320 573 266 185 15 58
348 491 102 126 30 39
311 308 174 101 84 67
317 308 179 99 85 70
506 854 201 93 75 58
322 273 190 124 99 71
419 543 245 45 31 34
319 313 181 103 87 70
272 258 199 117 93 67
270 263 195 118 94 66
315 333 210 124 93 69
277 583 142 151 1 35
271 263 199 119 94 67
245 568 220 91 14 31
270 268 195 119 94 66
272 753 161 126 99 67
272 268 200 121 95 67
268 288 195 121 95 66
274 681 222 37 26 28
272 284 209 108 87 64
399 498 315 108 82 71
278 366 163 100 85 70
276 258 204 117 92 65
230 648 230 184 131 106
259 483 250 76 24 35
390 713 275 131 64 59
275 268 205 118 91 66
237 693 210 153 104 76
274 273 206 115 90 63
281 263 209 117 90 62
540 854 215 85 75 66
276 273 209 109 86 62
300 382 234 103 78 61
384 677 165 72 52 44
281 258 208 117 89 63
285 263 211 120 93 64
284 267 212 118 92 64
287 265 213 122 95 67
369 922 197 72 67 69
423 563 200 169 11 49
273 277 206 112 89 63
279 277 212 101 77 56
281 278 214 101 78 58
455 703 219 64 51 39
272 280 208 110 88 65
276 284 214 99 78 59
282 274 213 114 86 64
360 433 255 84 72 60
422 695 190 64 49 40
326 957 293 66 62 60
285 282 217 107 83 61
405 693 284 182 128 99
397 860 116 100 86 78
281 289 219 105 80 59
507 826 230 83 67 52
282 284 218 108 88 66
448 780 232 122 85 63
281 414 100 73 30 38
285 288 220 110 88 64
315 938 292 112 81 73
320 488 84 78 29 37
293 893 238 169 122 100
334 908 294 153 120 93
267 296 192 121 94 64
396 628 289 186 139 114
267 303 195 123 94 62
267 304 192 122 95 64
540 894 235 101 79 59
268 297 196 122 93 62
268 298 200 123 92 61
265 268 328 123 98 70
416 568 175 194 19 50
435 926 295 72 59 51
268 303 200 125 93 61
267 296 207 121 91 61
268 298 205 124 91 61
290 582 258 187 15 59
308 924 292 189 143 124
413 721 164 68 52 51
268 303 205 123 91 59
267 295 208 118 91 61
228 559 209 163 8 46
325 718 148 135 9 34
271 293 214 113 86 60
252 826 208 216 152 126
391 816 253 63 52 49
420 454 108 177 3 36
268 303 210 127 91 63
275 433 310 181 19 57
375 414 185 63 30 28
380 603 165 55 33 38
271 304 219 114 85 60
317 388 168 101 86 70
266 313 195 118 93 62
439 523 175 139 20 45
386 863 184 69 63 64
267 314 199 119 91 58
327 480 83 155 10 37
404 478 321 43 27 30
316 838 225 169 127 102
266 318 195 120 94 62
269 308 215 108 84 55
406 414 260 60 14 21
380 799 115 111 91 76
269 313 220 117 86 61
266 328 210 113 87 56
282 483 279 94 22 36
300 908 225 82 71 66
278 358 323 125 98 66
267 318 212 118 88 57
265 633 170 121 22 42
283 298 287 87 66 41
268 318 210 117 88 56
267 314 218 122 88 62
322 298 195 119 97 73
258 476 138 127 5 33
410 814 266 160 110 86
272 314 223 115 82 62
394 737 125 62 49 42
381 883 123 86 73 65
350 763 259 76 61 55
441 738 265 161 110 78
274 293 216 111 84 60
360 643 259 172 13 54
525 885 253 64 53 45
281 484 78 75 30 40
417 643 280 161 113 79
277 290 218 105 78 56
273 297 217 114 86 60
370 428 315 71 60 51
343 428 77 115 6 30
236 578 204 86 27 37
275 303 221 108 80 58
265 448 285 86 27 37
385 578 150 182 13 41
279 298 221 108 81 58
375 432 321 74 55 48
420 419 115 54 28 25
281 299 223 110 82 59
429 873 237 53 47 42
405 854 187 60 56 56
248 824 189 227 157 129
280 303 224 109 81 59
285 298 224 116 87 62
369 504 123 55 30 30
268 328 179 120 94 65
300 418 65 98 69 52
420 916 245 39 36 34
279 312 227 112 81 60
386 785 113 77 62 47
336 888 151 86 71 67
282 310 228 111 80 61
239 808 200 186 132 104
298 534 282 52 29 34
457 446 132 37 30 27
315 258 205 130 102 72
331 416 196 82 69 56
405 708 282 184 129 101
290 264 213 124 96 67
295 263 212 123 96 66
261 343 195 116 92 64
290 273 214 126 98 66
294 265 213 124 97 68
356 423 236 75 55 49
295 268 213 124 96 66
282 477 284 47 25 32
306 348 220 118 89 65
382 614 178 98 13 26
260 288 279 107 83 54
305 263 210 126 96 66
300 268 212 125 97 64
300 273 213 123 93 64
290 278 216 120 92 66
291 282 217 114 89 64
229 538 250 148 99 83
289 284 218 112 89 64
380 431 295 63 37 36
290 288 220 111 89 64
296 287 217 113 88 57
410 402 210 114 39 34
303 274 213 126 96 67
430 704 230 104 31 41
365 918 194 67 62 65
304 278 213 126 95 67
310 487 82 69 32 39
272 493 127 38 37 35
400 917 255 35 34 35
300 283 215 122 91 63
302 925 207 68 63 65
315 263 205 131 101 72
317 259 202 130 103 74
320 258 200 130 103 74
370 443 109 143 5 33
419 768 177 53 44 42
321 278 195 126 99 71
546 865 192 98 82 71
317 263 202 132 103 73
408 634 252 93 74 51
280 478 76 113 24 38
315 268 205 131 101 72
295 414 85 87 61 50
315 273 205 128 99 71
317 268 202 133 104 73
305 678 153 116 16 29
300 378 250 103 81 63
319 268 200 130 103 74
425 425 123 115 14 37
302 914 212 64 56 54
319 273 200 130 103 75
235 568 244 156 104 83
309 263 209 128 98 69
406 425 283 56 26 20
370 718 281 79 30 40
418 433 221 82 26 31
310 268 209 125 96 67
411 713 175 46 38 37
310 273 209 125 98 67
324 467 77 147 12 40
381 685 160 75 48 44
313 271 208 126 95 67
379 793 105 91 71 54
315 283 205 127 100 71
355 527 288 98 35 46
445 446 102 144 19 43
319 283 200 130 103 74
320 288 200 128 102 73
306 277 212 125 96 66
310 278 210 124 96 67
455 907 260 51 44 40
310 283 211 126 96 68
320 768 148 73 55 48
310 288 211 125 96 68
308 289 213 125 95 65
368 866 167 62 55 60
303 389 225 116 92 73
469 768 249 68 54 40
280 473 115 96 17 34
314 288 209 125 98 68
376 778 150 55 49 46
338 858 183 52 46 45
296 297 222 116 89 59
295 298 223 118 89 61
320 763 149 84 50 47
298 290 218 112 85 55
292 685 238 126 9 40
299 293 219 115 88 57
315 613 259 64 31 36
300 298 220 118 87 59
221 518 200 163 9 48
300 768 236 77 64 56
295 303 224 118 85 62
305 468 73 163 7 36
305 303 216 123 92 62
400 708 281 179 129 103
315 858 225 164 123 98
298 308 223 114 82 58
237 768 208 167 118 88
298 313 223 112 80 57
321 293 200 126 101 73
342 864 156 56 50 50
496 803 240 90 70 55
279 348 168 100 85 69
386 798 107 96 73 48
319 293 204 127 102 75
320 298 205 126 101 74
321 303 205 128 103 75
340 558 120 108 23 38
408 738 161 66 51 45
412 865 208 54 51 52
281 478 115 58 24 32
311 293 211 123 96 67
413 543 281 132 98 69
427 456 326 65 55 45
309 293 213 124 95 65
246 608 185 104 31 41
310 298 214 121 93 63
270 445 63 64 37 39
312 297 212 121 94 63
321 308 206 129 103 76
437 468 280 162 16 45
477 796 237 59 48 36
310 318 215 126 91 67
307 318 217 121 86 63
384 852 135 111 86 65
306 378 300 115 91 65
263 258 278 107 86 60
433 724 273 163 109 76
314 313 213 130 99 73
425 523 260 184 9 57
316 313 211 131 101 76
310 368 169 94 82 70
297 919 222 58 55 57
367 863 242 131 100 80
295 898 235 171 126 102
257 482 248 69 30 35
316 318 211 131 98 75
314 318 213 130 96 74
279 468 100 139 0 41
318 318 208 131 100 76
299 333 167 88 76 65
386 950 244 68 64 66
346 891 152 84 70 67
290 308 226 115 84 61
260 653 225 181 128 107
348 793 154 50 44 42
291 312 227 115 83 59
337 683 153 60 31 35
285 513 270 169 13 53
260 273 329 120 95 67
290 353 233 125 87 69
340 608 146 121 28 42
295 313 226 113 81 58
290 318 229 119 81 62
424 718 205 87 54 46
317 910 192 68 57 54
295 318 226 113 79 57
271 333 175 115 92 64
280 373 161 99 84 68
267 328 181 125 98 66
265 328 190 122 96 66
265 333 185 126 99 67
264 333 190 121 96 66
269 348 174 117 93 66
271 353 171 114 92 67
399 503 315 168 129 112
266 343 180 120 95 66
230 598 210 131 98 64
268 342 178 119 94 66
267 349 177 119 94 66
400 693 283 178 128 102
236 558 170 124 21 41
273 332 173 112 90 63
266 618 162 57 32 36
280 333 169 100 84 66
285 323 169 103 84 63
310 788 234 65 53 48
415 942 275 94 82 78
391 614 190 84 32 39
330 663 257 149 15 47
408 416 202 100 25 43
398 635 233 148 14 40
260 348 205 110 88 62
284 328 169 99 82 63
286 333 167 95 81 67
275 338 171 107 88 67
370 593 271 41 29 30
440 447 297 75 24 35
296 380 240 97 73 57
197 516 236 228 157 139
275 343 170 108 89 67
422 488 228 122 9 30
280 338 169 99 84 68
229 548 204 43 33 36
314 383 280 106 87 66
255 658 194 123 84 52
429 508 241 53 29 33
262 335 198 116 92 63
403 668 225 62 29 33
275 348 170 107 88 68
515 918 280 96 80 65
278 423 125 82 25 35
289 913 245 171 135 110
431 828 205 74 61 55
283 338 168 95 82 69
305 823 171 98 75 66
280 353 166 100 85 71
292 298 300 114 81 52
284 352 168 98 84 70
305 883 226 145 112 83
266 443 84 142 1 41
285 373 160 95 82 68
416 513 305 171 110 83
410 478 180 68 23 32
285 378 158 93 80 67
284 382 158 90 78 66
287 380 157 89 78 67
450 437 97 162 20 42
267 363 172 117 94 66
267 368 171 116 93 67
350 411 190 68 59 51
378 536 282 59 19 28
269 363 170 115 93 67
419 547 156 60 33 35
269 368 169 114 92 65
319 471 77 77 34 36
263 357 184 114 91 65
268 485 78 104 20 45
262 359 186 113 90 64
405 916 226 61 56 58
422 702 184 58 44 38
402 429 189 59 22 29
263 363 179 114 92 66
398 626 217 31 31 34
325 458 311 57 26 32
340 753 152 64 33 37
261 363 185 112 90 64
257 446 67 162 7 37
244 658 199 157 111 79
263 367 178 113 90 64
371 838 154 48 43 44
260 368 185 112 90 64
258 368 190 111 89 63
409 698 210 76 26 35
264 373 175 113 91 67
263 378 174 112 91 67
264 383 170 111 91 68
263 382 173 111 90 67
400 688 284 179 129 103
425 753 281 164 116 80
416 894 224 73 62 59
271 373 166 110 89 66
227 563 217 122 62 48
228 634 218 164 114 81
401 589 174 111 37 48
486 879 235 38 34 31
268 373 168 112 90 65
267 380 167 110 90 68
270 383 165 105 87 67
405 608 295 176 122 91
420 476 333 69 26 32
400 433 305 58 22 23
259 373 185 113 90 64
262 373 177 112 90 65
373 601 157 46 29 33
421 553 164 111 33 43
258 372 189 113 90 64
259 383 179 110 90 67
280 358 165 98 84 71
273 358 168 112 92 69
261 364 267 84 70 54
377 930 203 73 66 67
272 360 167 113 92 67
416 428 220 104 15 29
275 363 165 105 88 69
330 498 90 73 34 37
274 368 164 105 88 68
279 362 163 98 84 70
296 863 275 142 54 73
510 887 245 74 64 55
311 482 303 154 18 51
345 548 279 80 30 39
277 368 162 101 85 69
280 368 162 99 84 69
283 361 163 96 83 71
281 773 228 60 50 43
285 368 161 96 83 70
369 597 152 104 31 45
300 473 304 46 26 31
288 454 307 169 19 54
274 378 163 105 86 67
274 383 163 100 84 66
266 404 234 61 48 35
215 519 262 189 135 114
401 409 180 78 32 34
291 325 167 94 79 63
296 322 167 91 77 62
295 328 167 90 77 63
281 358 233 125 91 71
390 513 297 85 18 31
290 323 168 98 81 63
290 333 166 93 79 66
300 328 168 90 78 65
285 384 240 82 64 48
305 323 170 92 78 64
299 329 167 89 77 64
301 332 168 89 77 65
416 940 265 86 76 77
422 431 246 55 26 28
265 638 185 158 7 44
305 333 170 89 77 65
405 913 234 62 56 55
295 348 166 92 81 69
296 349 168 92 80 68
429 806 197 68 56 54
413 826 240 35 29 29
280 343 280 86 72 54
280 503 82 153 4 35
319 368 205 117 91 68
300 343 167 89 79 69
302 343 168 89 79 68
305 343 170 88 78 68
314 965 250 75 69 68
305 353 170 91 80 70
431 702 244 99 73 53
409 859 233 45 39 38
311 328 173 89 77 64
358 844 148 68 57 55
466 894 223 77 63 54
311 333 174 89 77 66
267 602 218 107 23 38
349 871 143 62 55 54
375 430 300 65 42 40
314 333 176 91 78 66
400 413 175 83 22 33
429 828 201 64 53 50
308 338 172 88 77 66
311 338 174 88 77 66
360 949 295 60 55 54
277 638 219 104 16 37
284 333 301 99 77 50
310 343 174 88 77 67
315 753 243 67 57 51
435 463 149 73 27 32
308 348 172 89 79 69
314 338 176 89 77 65
314 348 176 92 80 68
400 713 280 181 130 104
314 353 176 92 80 68
282 570 254 122 17 45
316 343 180 95 81 66
430 773 190 63 50 45
318 338 182 100 84 66
318 343 182 100 84 67
319 343 185 106 87 67
415 583 275 145 108 72
537 870 239 90 72 60
278 654 168 58 24 30
431 443 290 89 14 30
317 353 179 95 81 67
319 348 185 105 87 67
320 348 190 108 87 64
290 373 159 94 82 69
275 383 327 144 107 74
267 577 223 88 27 40
295 368 161 94 82 71
438 460 325 64 23 25
290 378 157 92 80 69
289 377 158 93 80 68
281 469 73 66 37 39
290 383 156 91 78 66
293 376 158 93 81 69
295 383 155 92 80 67
426 778 185 57 47 41
270 448 290 67 26 33
280 713 245 155 16 49
298 375 157 97 83 70
280 298 285 81 64 41
208 525 238 222 160 135
299 585 257 176 17 55
304 374 161 98 85 72
300 378 156 97 83 70
375 773 130 73 58 51
402 899 218 64 58 58
300 383 155 95 81 67
283 460 111 135 1 35
283 328 308 103 78 50
300 571 263 190 6 61
303 379 157 96 84 70
406 443 145 73 25 32
303 383 157 95 82 69
410 493 120 58 33 38
306 383 159 97 83 70
278 523 256 86 27 41
290 358 162 94 82 71
290 363 162 93 81 70
298 364 162 89 79 69
304 362 167 91 80 70
301 371 164 97 85 72
303 375 303 117 92 62
330 957 211 90 85 89
306 358 168 91 80 70
310 363 170 89 79 68
312 362 173 89 78 68
315 358 175 92 80 67
431 488 285 124 22 43
464 779 239 120 93 72
315 363 175 97 83 68
314 368 172 99 86 72
444 498 145 185 16 46
368 586 273 83 30 40
315 443 64 173 1 33
318 363 177 96 81 64
319 368 176 113 95 77
291 807 223 68 57 50
317 357 179 96 81 66
319 359 180 97 82 66
310 728 148 116 20 35
371 888 255 91 73 58
304 388 309 121 95 65
290 437 57 153 8 37
367 811 248 150 102 83
313 954 218 79 74 76
335 412 191 72 63 53
270 835 201 213 152 128
420 868 233 44 39 36
508 909 222 103 80 61
351 513 115 144 0 35
413 633 262 151 111 78
320 363 180 93 78 62
400 513 314 186 136 116
315 478 79 99 29 38
321 368 180 90 76 61
314 373 171 103 89 74
265 313 332 131 99 65
316 373 173 119 101 82
497 906 280 87 71 56
401 415 250 56 19 22
330 414 85 91 75 60
422 550 163 60 33 33
363 800 252 155 123 105
313 384 166 99 86 72
398 771 162 62 50 47
293 648 158 159 0 37
320 378 175 116 97 79
304 362 224 124 93 73
285 439 58 50 37 41
385 418 235 56 21 25
265 323 195 123 96 64
290 573 262 183 16 58
415 698 282 173 114 84
416 483 219 117 6 32
266 323 200 122 91 61
267 320 204 120 90 59
365 463 113 121 12 32
268 321 209 114 86 54
453 468 144 139 20 44
402 693 168 50 40 34
414 478 216 118 7 32
266 328 220 116 84 59
271 323 224 121 83 66
530 894 250 95 77 63
344 453 85 146 0 35
265 333 210 115 89 58
350 853 155 57 48 48
302 550 108 159 17 49
304 403 314 121 96 67
405 478 115 56 38 41
263 337 194 118 93 64
264 338 205 109 86 58
394 819 251 55 45 42
445 926 280 85 67 52
302 377 306 119 94 65
261 343 205 111 88 61
339 932 182 94 85 87
238 564 169 140 16 39
426 910 230 67 58 55
262 340 204 111 88 61
261 353 215 111 87 58
272 428 137 107 13 30
506 800 236 89 72 59
385 677 174 66 48 44
263 341 207 108 85 59
320 613 144 138 12 39
458 475 320 134 104 77
261 348 195 115 91 63
390 832 235 43 36 35
259 353 205 110 88 63
263 343 210 108 85 57
418 408 236 115 26 42
262 344 209 109 86 60
262 349 215 110 85 56
262 354 218 116 87 60
267 343 223 129 91 68
285 483 79 79 31 40
266 353 224 124 89 68
343 586 137 149 28 49
311 388 301 118 94 65
300 803 158 88 69 60
271 343 228 125 83 66
321 333 190 111 90 66
271 348 228 125 85 66
345 410 165 84 72 60
275 333 229 117 80 62
478 936 266 93 81 69
280 333 231 116 83 66
345 895 160 81 71 67
380 421 245 61 26 29
285 323 230 120 82 65
270 402 243 66 51 38
285 333 231 114 81 62
380 824 241 96 75 64
196 516 240 215 147 125
288 306 313 138 96 67
236 783 190 169 116 86
505 878 234 82 71 61
310 333 215 118 88 64
275 338 230 123 83 65
275 343 230 125 83 65
279 348 232 129 91 72
280 343 320 123 92 63
279 503 120 78 21 33
285 338 231 115 80 64
274 528 129 67 27 34
413 406 247 52 35 30
257 602 217 30 22 24
285 342 232 120 85 65
381 494 302 99 26 39
416 733 173 65 50 43
463 692 205 101 78 55
285 344 233 122 87 67
329 970 240 78 73 74
285 353 234 126 91 72
306 388 306 120 94 64
315 847 265 98 79 56
259 358 200 113 90 64
257 359 202 113 90 64
352 585 143 103 17 35
336 819 174 65 51 44
482 884 209 105 88 84
257 359 205 113 90 64
258 362 199 113 90 64
257 365 197 114 91 65
340 432 290 82 71 60
258 357 211 112 89 62
325 728 148 97 26 35
377 953 277 58 50 47
259 358 215 114 89 61
260 363 220 118 90 63
279 733 159 49 35 41
520 902 250 96 75 67
329 708 266 84 36 42
257 368 218 119 92 66
262 365 223 117 89 64
290 393 150 92 79 65
266 358 224 120 87 66
499 820 222 72 56 40
261 373 224 115 86 63
342 813 238 162 119 98
483 906 246 68 56 50
258 378 221 115 88 64
260 383 225 113 85 62
269 358 227 120 84 66
229 539 191 98 33 43
338 902 161 91 82 83
290 778 229 65 55 52
267 368 228 113 82 61
266 452 284 59 21 30
267 399 162 93 79 65
319 868 215 164 123 96
270 363 229 115 82 62
270 368 230 111 80 60
449 425 106 66 35 31
454 473 300 168 126 104
263 378 227 112 84 61
249 593 230 136 89 76
265 383 229 109 80 60
325 533 279 150 30 55
266 373 228 111 82 61
271 384 233 104 73 56
275 358 231 118 81 64
281 414 110 35 29 33
415 548 285 141 103 68
285 358 234 127 92 74
280 373 234 102 76 57
385 568 145 158 13 40
274 377 232 104 74 53
275 383 234 100 71 53
301 323 221 109 80 55
403 497 206 44 25 32
302 331 222 109 81 55
300 338 225 114 83 59
303 338 223 116 86 58
365 593 271 90 25 40
433 424 279 36 23 31
300 343 225 117 85 61
310 583 125 184 8 39
260 448 144 125 5 31
388 701 142 65 48 42
317 328 207 126 95 73
215 533 254 183 124 103
295 378 230 116 87 69
422 672 265 133 95 60
320 328 205 125 93 71
393 828 171 53 48 50
319 333 205 121 91 68
310 602 136 186 6 38
307 322 217 118 87 60
307 331 217 114 85 60
313 322 213 126 94 71
324 308 200 124 99 72
309 677 153 55 28 32
312 325 212 124 92 70
383 431 276 60 43 38
420 823 235 32 28 30
313 334 213 121 91 68
274 583 144 149 6 37
319 338 205 118 90 66
304 368 275 86 74 61
305 483 300 189 17 60
320 343 200 113 88 63
318 343 204 117 89 65
365 823 241 157 121 98
253 549 153 161 6 39
296 507 283 168 16 52
320 353 195 113 90 66
296 668 238 168 12 53
318 347 204 115 89 65
352 796 248 197 144 123
310 849 279 144 117 93
221 548 253 174 121 101
446 483 156 50 28 33
385 568 274 41 26 28
417 573 290 151 106 72
317 353 206 117 91 67
332 583 268 175 14 54
218 525 223 106 29 37
274 578 235 150 11 47
415 883 215 72 63 60
311 343 215 120 91 66
433 502 265 177 12 54
510 907 229 82 69 60
280 278 326 127 97 61
368 861 150 66 57 53
273 313 286 67 54 39
306 343 221 116 87 62
308 338 218 117 87 62
277 333 322 128 95 66
437 523 160 134 30 47
306 353 221 120 91 69
277 436 57 190 9 41
360 432 285 81 70 59
359 554 277 151 14 46
386 810 164 49 46 48
315 348 210 120 92 68
234 543 230 105 41 43
377 695 122 67 52 41
443 821 216 73 58 51
313 348 213 121 92 69
242 576 180 50 29 33
305 933 289 192 149 132
313 353 213 120 90 67
290 323 229 118 78 61
370 768 265 83 68 60
335 643 156 127 9 29
290 328 229 113 78 57
285 803 159 180 125 90
267 424 88 121 9 38
293 323 228 115 80 60
295 328 226 109 78 57
386 798 158 56 50 50
384 789 111 84 64 47
295 343 229 118 84 62
295 348 230 121 85 65
374 442 270 81 69 58
448 460 308 124 13 46
290 348 233 122 85 66
292 353 232 124 85 68
297 338 227 114 83 58
297 342 227 117 85 62
298 353 228 122 88 69
429 730 232 74 49 45
508 856 204 105 84 66
416 422 126 88 16 29
280 473 105 133 1 38
345 832 247 159 129 100
301 348 226 119 87 64
304 358 224 122 92 71
300 363 225 124 92 73
330 674 152 53 35 38
260 748 222 167 115 95
261 452 278 174 6 55
304 373 220 127 97 79
229 528 245 120 69 64
360 944 301 59 53 51
299 378 224 127 96 79
286 357 316 123 96 64
226 618 234 171 122 96
304 378 219 128 97 81
233 543 235 107 59 55
302 378 221 128 97 81
405 463 200 94 3 31
406 703 175 54 38 34
428 738 278 163 110 78
302 382 222 127 96 80
304 383 220 125 96 79
415 453 149 73 26 33
303 384 223 125 97 79
237 652 211 179 120 91
345 868 150 57 51 51
319 358 200 117 91 68
318 358 204 117 90 66
349 961 280 86 79 77
317 358 206 117 90 66
380 513 299 128 25 45
360 428 235 76 60 53
320 363 195 113 90 67
416 633 275 132 92 62
295 513 280 168 16 52
449 753 197 64 49 40
538 862 215 89 76 66
319 363 200 117 92 69
320 368 200 117 92 70
425 423 275 58 35 32
311 358 215 121 92 69
306 358 221 121 92 69
310 363 215 122 93 70
312 364 212 121 93 70
308 363 218 123 93 70
260 424 80 143 2 47
308 366 218 123 93 71
268 415 317 174 125 106
294 365 267 89 77 65
314 358 210 120 92 68
470 934 290 80 64 48
323 303 195 118 96 73
313 358 213 121 92 68
315 368 209 118 91 68
370 433 285 78 65 56
320 373 200 117 92 69
316 378 205 116 91 69
311 373 211 121 92 72
411 484 118 72 33 34
311 378 210 119 92 71
194 514 240 214 148 127
350 938 304 58 54 53
419 445 138 101 22 29
307 392 158 94 81 68
311 383 210 118 93 70
430 803 275 190 128 102
429 444 265 37 30 32
308 383 214 120 94 74
341 544 114 117 18 38
380 423 102 94 23 30
315 373 209 117 90 69
314 377 209 117 91 69
313 383 208 116 92 68
450 422 115 104 27 38
417 578 280 149 110 75
295 358 230 125 88 70
294 368 229 127 92 74
338 414 240 74 63 52
298 358 228 124 90 72
297 364 227 125 92 73
310 854 245 111 91 69
270 353 271 88 74 59
350 668 160 79 28 31
424 931 245 74 64 62
292 373 232 122 87 72
429 791 185 54 45 41
290 373 234 120 87 74
430 913 250 31 30 32
296 382 230 112 84 68
290 382 240 94 72 57
294 380 235 103 76 59
418 663 275 155 104 73
295 381 235 102 77 59
350 422 255 87 74 61
300 380 237 99 75 57
295 548 104 102 26 36
226 618 215 160 113 81
305 379 240 95 73 56
340 453 314 171 17 52
415 403 235 62 31 28
305 383 235 99 76 58
294 381 245 97 75 59
290 463 71 110 29 41
290 382 250 90 72 54
278 578 139 156 2 38
289 381 253 91 74 56
298 277 300 123 93 58
292 380 252 95 76 59
295 379 250 100 79 61
560 871 235 81 67 53
385 427 265 53 30 28
294 381 249 95 75 58
305 374 256 109 87 67
503 918 235 102 81 65
300 379 245 100 77 61
307 905 211 115 80 66
323 258 195 130 103 74
305 376 253 107 84 65
305 614 143 82 27 35
306 381 238 94 72 54
310 382 240 91 70 54
309 375 256 109 86 66
322 302 200 122 98 72
311 381 244 90 70 53
310 523 99 163 5 37
260 343 333 147 107 74
315 383 245 85 66 50
310 738 246 66 55 49
423 566 198 175 13 50
313 380 251 93 72 55
447 476 152 63 28 28
385 416 190 86 39 31
438 736 199 79 56 41
314 379 255 100 78 62
312 381 248 91 71 54
268 405 322 173 122 103
316 382 255 95 73 60
265 388 256 79 66 52
324 258 175 121 96 68
323 261 172 119 94 67
323 263 175 120 95 67
325 258 180 119 95 67
379 867 181 56 51 54
324 263 180 119 94 67
323 263 190 128 102 74
441 494 305 187 124 103
323 267 180 117 93 65
322 269 179 118 93 67
268 653 188 72 39 39
315 498 301 141 17 44
270 393 164 93 80 67
340 888 150 82 69 66
321 283 185 117 93 66
438 486 292 73 48 36
321 283 190 120 96 68
398 621 211 136 31 48
321 293 190 116 94 70
368 431 247 78 55 48
320 498 89 168 2 35
322 303 190 115 95 74
300 688 154 45 35 37
239 783 180 175 118 87
365 433 285 82 71 60
351 624 158 55 31 37
321 308 185 111 93 73
395 864 115 98 85 77
265 398 165 92 80 68
435 523 185 145 13 44
323 308 191 118 98 75
410 449 328 98 28 45
405 683 194 64 59 54
274 789 158 167 115 81
323 313 187 118 97 74
324 318 190 120 96 72
295 753 148 102 24 32
322 258 197 129 101 71
315 563 267 92 20 38
441 863 230 74 65 60
321 288 195 124 99 71
352 451 103 132 0 34
410 868 205 57 52 51
418 896 227 91 88 91
322 298 200 123 99 73
458 756 207 73 55 47
325 398 280 110 89 66
319 425 327 122 24 47
323 308 195 120 97 73
310 713 148 85 30 36
278 545 110 165 0 47
341 862 276 134 107 77
323 313 204 130 102 74
416 523 202 46 23 31
324 318 200 124 97 71
402 498 200 74 27 36
323 321 187 118 95 71
322 328 190 113 91 67
272 508 94 147 0 44
360 923 295 35 34 35
323 326 191 114 91 67
320 343 190 108 87 63
280 633 160 121 25 41
290 458 306 166 19 54
321 363 185 99 82 64
431 754 184 76 58 50
434 533 185 125 22 43
321 368 185 98 81 62
426 727 185 52 43 40
274 647 217 91 16 30
390 909 289 39 37 37
223 543 214 90 35 40
321 373 185 96 79 61
378 472 307 126 10 35
434 777 194 62 48 46
236 543 166 120 30 43
321 373 190 106 86 64
290 803 159 125 94 75
322 378 185 95 78 60
322 328 200 119 91 66
392 907 234 55 51 49
320 338 200 113 88 63
409 883 207 61 54 53
295 425 52 154 52 43
320 343 195 109 86 61
321 378 195 110 88 65
300 372 260 105 86 67
275 453 95 141 0 43
405 433 140 89 19 33
265 426 59 134 12 32
262 425 62 98 16 31
300 618 144 87 30 38
265 424 65 96 28 37
261 429 57 184 19 36
493 876 210 102 81 70
340 412 210 73 56 47
265 429 56 181 19 40
345 583 271 143 13 44
305 388 230 107 85 67
270 422 65 93 26 34
269 698 230 73 28 33
258 439 63 160 5 37
367 416 217 67 38 36
261 442 62 133 11 36
265 443 61 133 15 38
398 549 302 180 132 109
365 508 299 73 29 36
434 498 265 174 6 55
260 448 65 117 21 41
270 438 59 142 11 36
407 505 218 35 29 34
270 448 64 59 39 39
375 414 135 62 35 29
280 422 60 111 7 27
503 808 231 83 63 50
391 868 120 96 79 67
284 463 295 177 16 54
330 927 181 94 83 84
279 421 64 103 28 36
275 433 56 184 7 38
318 691 257 72 30 34
344 822 242 151 120 94
414 474 170 113 9 35
280 433 56 182 7 38
422 820 241 103 65 50
300 469 73 150 17 44
277 425 57 133 11 34
362 497 298 125 24 43
344 478 91 68 39 41
365 498 299 101 20 37
374 836 139 94 79 64
285 419 65 93 54 39
360 412 185 67 52 44
371 944 210 77 70 72
286 420 62 93 59 42
399 415 114 110 27 28
285 433 55 161 10 40
275 438 59 171 6 37
281 433 105 68 27 34
280 436 57 174 5 33
378 793 152 54 46 48
275 448 64 76 31 37
363 922 192 63 59 60
278 445 63 169 10 44
399 768 161 57 46 42
285 448 64 91 32 39
290 423 55 112 63 48
280 813 220 93 77 66
295 423 55 123 61 47
258 455 272 114 15 38
400 828 176 50 48 51
290 419 65 93 64 46
290 420 61 98 66 45
284 465 73 132 32 51
425 474 336 73 22 32
336 873 160 49 44 44
453 777 249 122 83 55
290 421 59 101 66 44
295 418 65 97 68 48
290 428 52 197 29 47
364 868 160 54 47 49
428 818 202 59 48 46
289 430 53 188 11 29
300 424 52 138 50 44
300 419 60 105 67 51
298 421 58 109 66 49
301 430 53 167 16 42
295 406 134 92 77 62
300 433 55 175 7 38
305 429 53 83 32 40
276 816 167 197 136 105
301 508 289 152 14 45
386 926 297 40 38 38
305 433 56 71 32 35
389 439 328 106 36 41
295 437 57 182 5 38
300 436 57 179 6 34
432 500 272 184 13 56
300 439 58 172 2 32
305 436 57 134 8 37
400 698 155 59 47 41
458 453 130 84 28 39
300 443 60 168 3 34
300 447 62 111 18 36
350 948 200 90 84 86
332 915 173 113 103 101
305 446 62 73 31 39
410 628 293 185 126 99
310 424 52 119 43 39
254 818 179 191 130 99
329 419 62 148 55 49
310 418 60 110 68 54
305 437 318 104 29 42
364 815 242 170 127 105
310 417 65 109 69 54
280 598 245 162 17 52
258 465 262 102 24 36
310 426 52 68 38 40
244 608 238 162 112 87
411 598 265 115 88 56
303 503 292 157 15 48
310 428 54 62 38 42
310 433 56 80 31 38
230 643 215 170 116 85
317 391 292 117 94 68
315 417 65 114 69 56
433 475 158 50 24 37
320 419 60 100 78 60
378 844 157 45 38 42
319 420 57 109 70 53
401 423 180 97 16 34
316 434 58 105 27 38
348 518 112 149 0 35
321 429 58 71 31 38
346 758 258 77 62 56
311 435 58 173 6 35
310 438 59 184 7 39
305 449 64 127 23 37
412 528 277 54 25 33
236 668 211 126 90 57
308 446 62 163 3 39
429 424 92 144 27 39
350 713 280 177 17 57
405 943 250 84 74 72
310 448 64 152 10 35
420 438 134 47 29 30
375 768 266 71 59 54
311 445 63 176 5 35
315 438 60 175 9 39
497 920 239 97 80 64
319 437 61 164 11 40
426 478 230 70 24 33
266 523 239 99 24 40
314 442 62 178 4 33
494 920 246 85 65 51
506 920 280 104 88 74
317 440 63 181 6 37
360 678 164 103 16 25
365 412 135 77 42 39
320 443 66 172 1 37
285 415 81 101 44 44
379 435 328 74 49 43
304 388 156 94 80 67
280 415 85 94 36 39
265 668 191 85 60 43
277 415 87 90 23 33
245 558 220 98 6 30
348 420 273 95 81 67
280 414 90 90 26 36
427 453 235 78 27 34
560 874 240 84 68 52
530 888 241 91 70 55
284 287 286 91 70 42
456 898 210 84 69 63
280 414 95 76 24 34
285 413 90 81 40 37
284 338 310 98 76 50
385 415 160 78 34 33
285 412 95 72 30 31
281 414 105 59 27 33
287 410 104 73 27 31
285 411 110 54 33 34
281 413 115 42 30 33
282 410 121 67 46 45
459 425 110 106 35 37
345 708 151 121 14 28
285 409 120 85 64 55
564 923 295 101 89 77
281 410 125 73 57 46
279 568 246 50 28 32
295 798 227 63 53 49
285 409 125 88 74 61
513 915 284 102 83 70
390 685 126 73 54 41
260 424 70 107 25 41
267 405 157 93 79 65
511 833 230 71 57 45
265 422 70 99 30 39
281 508 115 85 17 34
410 418 120 52 25 24
260 424 75 113 17 40
265 422 75 111 25 39
257 425 71 119 20 41
428 518 246 169 16 47
329 398 260 91 77 62
264 399 232 80 61 45
257 425 75 108 14 37
257 425 78 113 1 38
435 848 215 67 61 61
305 372 265 106 87 68
260 433 81 140 0 43
428 455 320 63 53 42
360 429 334 108 50 51
270 421 69 98 34 36
271 420 71 102 33 36
458 447 111 184 20 44
402 706 162 51 43 40
516 891 244 78 60 52
267 420 76 115 26 41
257 568 218 94 6 28
284 308 319 143 102 76
270 419 75 107 31 38
334 913 294 156 120 94
270 419 80 106 26 34
325 783 242 49 42 43
311 422 328 193 19 64
268 421 74 107 33 38
424 523 270 182 15 57
325 817 166 79 61 51
262 424 83 138 0 42
265 423 85 135 4 40
370 814 246 127 92 78
264 428 86 147 0 46
310 416 70 102 71 57
262 431 83 143 0 45
265 433 85 146 0 44
310 474 307 143 27 52
320 407 140 92 77 62
267 420 85 138 7 48
407 541 217 115 35 47
453 436 97 189 19 48
403 691 164 47 38 36
270 419 85 89 16 30
271 419 89 79 27 32
440 927 280 84 68 55
292 269 316 130 101 68
370 812 249 108 74 65
267 428 88 145 4 45
303 525 287 34 27 35
267 432 88 142 1 47
403 670 206 113 33 39
270 428 90 66 19 32
342 428 282 83 72 60
437 853 218 86 79 78
339 420 325 70 61 52
270 433 90 112 7 39
269 638 170 97 27 39
257 443 66 159 6 38
280 788 224 49 42 40
440 923 300 51 43 38
260 443 80 142 0 43
401 763 278 178 131 103
257 448 75 152 0 43
284 728 247 175 18 56
260 448 81 143 0 42
247 517 223 96 9 32
356 583 278 171 17 54
263 434 82 142 0 44
264 438 82 143 0 44
296 663 239 164 11 51
264 443 82 142 0 42
206 527 245 208 141 118
425 507 315 192 127 99
385 893 249 36 35 35
416 568 221 149 9 46
340 798 160 60 48 44
281 488 121 42 29 33
263 446 82 144 0 46
266 437 84 145 0 45
314 873 224 118 86 59
268 435 87 149 0 42
230 618 210 148 106 72
268 439 86 145 0 43
271 438 89 146 0 45
260 708 228 145 99 83
227 538 207 40 32 32
290 613 245 80 30 38
277 648 167 113 14 37
288 672 232 147 11 43
269 443 86 144 0 45
305 723 250 178 14 57
268 446 87 147 0 54
271 443 89 143 0 44
274 667 217 32 23 23
275 420 70 101 35 37
355 593 274 180 15 57
345 972 225 61 57 56
283 465 292 175 15 55
260 723 226 147 93 78
466 744 205 78 59 48
445 426 99 88 8 43
276 420 67 101 34 36
358 768 139 57 46 42
275 418 75 101 34 36
275 417 80 100 31 34
395 418 210 84 50 30
280 416 80 102 37 40
410 428 131 109 13 34
285 418 70 93 53 42
285 417 75 100 45 44
260 828 210 215 154 127
235 573 244 162 109 88
346 426 303 77 66 56
276 419 94 71 24 34
273 423 92 45 25 29
275 423 94 44 26 31
255 588 215 29 23 24
278 416 92 125 1 22
283 460 297 168 16 58
314 398 304 120 96 68
308 955 223 78 74 76
278 417 96 73 28 32
275 428 94 64 22 30
274 434 92 134 4 41
278 428 97 141 5 45
267 677 222 151 107 92
370 444 275 84 72 61
279 433 95 141 0 41
274 438 92 142 0 42
465 718 215 71 55 45
276 438 93 141 0 42
454 469 325 102 82 62
278 438 96 139 0 43
340 844 253 142 113 85
274 443 92 141 0 42
273 446 92 141 0 42
360 412 180 68 51 44
275 448 95 141 0 43
282 679 229 115 25 46
473 689 205 87 67 49
330 478 84 126 19 36
276 443 94 140 0 43
278 442 96 138 0 40
289 273 320 131 102 67
425 427 285 66 30 24
279 418 100 57 28 31
278 423 97 117 8 47
280 428 100 117 8 40
418 598 280 137 97 61
355 483 110 118 11 35
280 433 100 70 18 34
280 418 105 42 30 31
281 418 110 49 30 32
281 428 110 52 29 32
279 418 115 54 32 33
279 418 120 63 37 40
292 913 240 167 131 105
279 423 120 39 31 35
416 504 290 57 29 30
279 418 125 43 33 35
277 416 127 46 38 37
395 419 255 51 22 23
280 428 115 62 32 36
380 883 122 85 71 64
280 423 115 62 29 33
343 410 136 91 64 55
280 433 115 48 31 35
278 428 125 102 21 39
277 426 126 85 14 35
370 523 126 100 25 37
280 433 125 119 11 34
280 438 100 107 10 40
320 842 181 162 111 83
279 443 100 135 0 40
281 438 105 57 23 32
282 443 110 121 7 38
279 438 120 126 10 36
279 438 125 103 8 30
410 828 240 34 30 29
295 648 240 163 13 50
277 440 126 95 13 31
345 427 300 79 68 57
279 443 120 106 6 31
276 448 125 104 4 30
360 414 210 67 45 41
233 540 238 109 62 60
232 662 224 190 135 110
277 443 122 101 10 29
400 676 163 94 64 43
281 438 115 94 22 36
525 928 298 86 71 57
404 413 185 86 19 34
278 453 97 140 0 42
281 443 115 129 1 36
335 818 171 68 53 47
300 623 146 179 11 40
330 743 149 123 20 36
412 446 142 39 26 31
295 415 80 90 61 51
232 536 232 77 58 51
441 823 215 77 63 55
305 963 255 68 62 60
430 793 280 181 126 98
360 968 255 78 72 71
423 871 212 74 65 59
300 415 77 92 67 54
305 415 76 94 71 58
404 732 146 59 46 41
305 414 80 91 71 57
290 413 85 88 53 46
429 808 226 66 45 36
420 411 261 58 32 29
274 418 135 35 32 36
349 908 176 73 67 67
409 463 206 94 12 35
290 412 95 77 45 39
310 605 138 186 7 36
273 693 174 90 31 39
290 412 90 81 52 44
398 728 277 179 127 104
408 413 200 119 16 36
295 412 90 83 60 48
223 548 215 139 35 45
300 414 85 88 67 53
305 412 95 89 68 55
418 508 227 74 27 30
315 415 71 101 72 59
312 415 72 98 72 59
316 848 230 169 128 103
315 415 75 95 73 59
315 414 80 93 75 59
320 415 75 94 75 59
320 414 80 93 76 59
310 413 90 93 76 59
430 428 124 87 22 34
310 412 95 94 76 60
271 483 89 87 11 35
250 573 161 127 13 38
315 413 85 93 77 59
310 443 317 36 29 30
315 413 90 96 79 61
320 413 90 97 80 62
320 412 95 100 83 65
289 411 99 83 31 35
290 410 100 82 42 40
233 514 228 57 20 26
292 410 97 82 53 45
290 410 105 73 40 38
365 723 140 53 41 38
293 410 97 82 53 45
296 411 99 82 55 48
295 410 105 78 54 47
288 411 106 66 34 35
290 410 110 73 47 42
289 411 109 69 40 37
300 411 100 84 59 50
314 843 205 183 127 98
300 410 105 82 60 50
245 693 226 179 126 103
301 411 104 84 60 51
395 674 165 84 58 44
261 785 223 174 133 101
405 825 247 42 38 37
328 817 232 173 130 105
305 411 100 89 67 55
310 416 321 75 63 50
305 410 110 89 71 55
308 399 157 96 80 64
295 410 115 83 67 53
435 738 184 71 53 43
290 409 125 89 75 61
395 948 275 66 56 53
374 447 280 83 72 61
300 409 115 87 71 55
300 409 120 90 75 59
392 922 228 71 66 66
305 410 115 91 74 57
305 409 120 91 76 59
300 408 125 91 76 60
310 412 100 95 75 60
357 738 151 58 42 40
310 411 105 94 75 60
310 410 110 92 75 59
378 534 282 96 18 35
377 918 203 60 56 58
359 468 112 122 11 35
315 411 105 100 83 66
320 411 105 104 88 71
347 539 118 48 34 36
269 748 226 150 17 46
320 412 100 102 85 68
314 410 111 97 81 64
196 517 250 206 140 120
285 333 305 102 79 51
320 411 110 106 90 73
273 744 232 64 27 35
310 409 120 92 76 59
411 869 209 56 51 52
338 410 238 66 56 46
315 410 115 97 81 64
472 791 244 78 68 59
320 410 115 103 87 70
321 411 114 106 90 73
422 491 333 182 129 105
320 410 120 99 83 67
320 409 125 95 80 63
295 417 70 92 66 50
434 493 275 178 13 55
392 945 239 67 60 63
236 683 210 151 103 74
290 416 75 96 56 48
409 438 205 113 8 30
305 416 74 95 71 57
397 651 242 68 28 34
365 413 190 63 40 36
290 416 78 99 49 46
284 318 310 119 82 55
300 417 70 94 69 53
402 420 268 54 22 23
300 416 74 93 67 54
309 416 73 96 71 59
482 895 224 66 55 50
315 416 69 105 71 58
300 606 137 193 9 39
380 433 320 66 46 42
337 876 287 158 123 97
270 443 295 91 24 38
320 416 68 108 71 58
399 778 166 70 56 53
265 332 278 94 79 64
315 448 66 120 13 36
288 307 302 111 77 45
319 506 298 184 21 58
295 450 63 152 24 48
410 503 195 121 9 39
315 548 111 182 7 38
300 449 63 112 29 39
261 453 66 121 15 37
415 693 197 47 34 27
257 452 71 164 5 43
258 449 68 161 3 43
257 452 75 159 0 40
335 433 70 157 0 35
346 773 254 75 60 55
257 452 78 147 0 46
260 453 80 122 6 41
310 398 220 106 86 65
258 454 75 163 2 46
398 667 282 170 128 101
305 778 234 63 52 47
310 388 215 117 92 71
252 633 197 113 79 52
260 458 70 166 3 39
262 456 67 167 3 39
250 793 170 172 116 83
372 860 136 87 65 57
265 457 67 150 10 39
434 448 285 53 25 30
383 795 118 89 69 49
262 462 71 164 5 40
370 738 279 53 28 32
388 460 307 99 18 34
326 418 200 89 74 58
265 463 70 86 24 38
259 458 75 134 14 42
311 378 275 95 79 61
387 545 133 157 18 39
260 458 80 47 26 30
264 458 139 107 7 30
261 463 80 35 28 29
270 453 66 100 27 40
294 948 255 85 76 76
270 457 67 90 31 29
