ply
format ascii 1.0
comment Created by Open3D
element vertex 2247
property double x
property double y
property double z
property uchar red
property uchar green
property uchar blue
end_header
297 735 321 137 46 51
300 726 321 141 32 49
312 720 320 177 11 56
317 720 320 175 13 55
312 725 320 185 11 59
292 739 321 137 69 61
289 742 320 157 97 77
336 650 287 147 15 47
358 782 106 105 79 60
343 645 279 112 27 44
338 645 284 159 18 52
341 645 282 115 20 42
271 810 232 85 67 57
338 650 284 119 22 44
339 654 285 36 27 30
344 654 280 40 27 29
334 932 300 43 38 34
346 650 277 97 26 39
352 871 292 41 36 34
349 650 275 120 26 44
351 650 272 41 26 30
349 655 275 69 33 39
342 660 283 129 20 44
343 665 284 143 13 44
340 661 286 136 21 48
362 680 268 41 28 31
341 670 287 143 6 45
343 669 284 140 6 43
349 660 275 92 20 35
352 660 273 68 24 35
352 665 273 145 19 47
344 658 280 122 40 54
350 666 276 139 14 39
301 973 278 52 50 51
353 670 273 131 15 42
351 670 277 127 11 40
327 645 293 151 5 47
321 645 297 147 6 45
324 649 295 147 4 48
327 650 293 146 3 45
328 655 294 145 8 45
322 650 297 144 8 45
322 655 298 142 10 45
330 645 291 153 7 47
331 650 291 147 5 46
331 655 292 145 10 45
293 895 179 93 79 77
333 650 290 148 8 46
403 770 163 71 52 43
334 654 290 145 13 45
322 660 299 143 11 44
407 859 268 87 71 60
323 664 300 141 10 45
282 865 243 146 108 80
320 662 301 139 15 44
327 665 298 143 5 45
322 670 303 134 13 43
327 670 299 140 5 44
332 660 293 146 10 46
332 665 294 148 8 47
334 658 290 132 13 47
333 670 294 144 4 45
331 670 297 142 3 44
272 860 262 109 80 45
338 670 290 145 5 45
418 790 209 114 83 60
342 675 288 141 12 45
345 676 286 142 13 48
348 680 284 120 19 41
343 679 289 71 20 32
346 680 287 72 21 33
350 677 281 143 15 43
317 900 303 107 78 62
353 679 279 92 23 37
307 825 203 84 67 59
352 685 283 83 23 34
349 683 285 82 26 38
350 686 286 58 29 31
382 832 253 58 49 41
322 675 304 68 20 32
281 910 192 91 82 81
328 675 299 138 8 43
327 680 303 131 13 43
337 675 293 136 10 44
332 680 298 137 9 43
336 681 296 135 15 43
333 684 299 137 10 43
322 685 308 118 16 39
320 687 311 55 31 32
326 686 306 130 10 41
332 690 303 134 5 42
337 690 298 137 9 43
370 833 138 91 73 62
334 688 300 137 8 42
334 695 304 134 6 41
323 689 310 109 16 38
327 690 308 130 10 41
322 695 313 76 27 35
322 699 315 42 26 29
325 702 316 37 28 28
330 691 306 132 5 42
331 695 307 133 8 42
333 700 309 133 8 42
330 701 312 134 10 42
382 805 143 79 59 48
337 700 303 137 9 43
335 705 307 135 5 42
334 704 310 134 7 41
332 705 313 135 9 43
340 676 291 128 12 42
304 778 190 80 61 53
342 685 293 66 23 32
280 967 295 76 71 71
345 686 291 41 28 30
258 911 322 87 76 70
338 695 299 140 11 44
341 695 297 118 17 42
339 699 300 142 13 45
327 775 172 64 50 46
338 705 303 139 9 43
342 700 298 147 17 47
342 705 298 135 17 45
340 704 301 115 6 30
348 690 289 48 28 30
347 695 292 64 28 35
352 695 288 32 28 31
377 804 133 97 71 56
344 700 295 148 23 51
350 705 291 68 27 35
345 705 296 144 22 49
367 730 277 111 19 39
354 645 270 89 26 40
356 645 267 88 31 40
359 642 265 105 43 52
359 650 264 48 26 31
354 650 270 43 29 32
356 655 268 94 21 38
363 645 259 34 29 30
386 745 261 175 15 56
363 650 259 32 29 31
363 655 258 103 25 40
361 655 262 93 22 38
365 650 257 38 29 32
271 890 325 189 137 122
354 660 270 125 32 49
357 665 268 137 20 47
338 940 273 69 61 57
357 670 268 110 17 39
359 666 265 125 21 43
362 665 263 123 20 45
364 665 260 147 18 49
360 671 266 84 18 35
356 675 273 125 17 41
320 963 276 68 64 65
358 680 274 72 27 35
363 675 264 114 16 38
402 829 178 110 80 65
324 797 164 47 43 42
368 675 258 97 19 37
365 676 262 96 17 35
361 675 267 66 27 35
364 678 265 36 27 27
362 685 273 54 29 32
329 797 135 60 53 51
364 684 269 72 23 31
366 685 268 80 24 34
292 930 209 99 93 95
368 684 264 118 21 41
365 687 271 46 30 29
354 674 275 92 16 33
358 839 130 92 74 62
359 684 275 51 28 31
355 686 281 59 25 28
360 687 276 74 16 25
358 689 279 63 24 32
414 784 209 118 84 61
356 690 282 63 27 33
354 693 285 51 22 27
307 795 193 83 66 57
363 689 274 50 27 31
357 840 143 103 84 72
361 690 277 60 27 32
363 695 279 95 24 37
368 695 274 44 26 30
361 696 281 104 29 42
367 705 279 40 29 31
362 700 282 45 27 29
370 676 256 36 27 33
373 685 258 46 27 31
416 819 192 136 94 72
370 682 261 29 27 29
371 686 262 110 21 39
376 686 257 57 29 31
377 690 258 58 28 32
373 690 263 73 25 34
321 948 239 77 69 71
369 693 270 35 27 31
371 696 272 57 25 30
374 694 265 56 24 30
375 701 271 129 16 38
378 694 259 36 28 31
380 692 256 41 27 29
382 695 258 89 16 34
383 699 259 126 6 40
377 849 173 86 70 63
369 698 275 66 23 33
373 705 274 55 23 31
289 780 205 84 66 57
370 701 276 36 27 29
351 720 288 70 26 36
351 725 287 103 32 46
357 785 108 103 77 61
348 725 289 144 19 49
353 725 284 88 23 38
348 730 288 147 17 50
350 729 286 93 23 42
347 735 288 120 29 48
352 735 283 113 29 44
294 912 191 84 74 72
322 715 319 147 17 48
327 715 318 131 17 45
315 819 282 165 106 84
327 720 319 110 20 42
335 710 307 141 2 43
334 710 310 140 2 44
333 715 313 151 4 47
334 718 310 157 0 49
267 950 234 76 70 72
335 721 312 166 0 52
331 720 317 164 12 52
322 725 319 184 15 59
322 730 318 181 18 60
322 735 318 99 30 43
327 735 317 144 18 50
336 725 312 176 1 57
377 780 118 79 59 46
333 725 314 173 5 56
305 866 306 142 115 86
271 869 256 112 92 70
337 735 308 129 18 48
342 710 298 153 13 48
338 715 303 150 1 47
338 720 304 161 0 51
342 715 298 156 5 49
343 720 298 161 1 50
353 710 289 54 24 32
362 818 135 90 67 55
345 710 296 155 18 52
347 715 293 167 13 54
344 716 295 164 7 52
346 720 293 167 10 54
350 714 291 153 19 50
349 717 290 173 21 58
325 953 287 60 55 53
349 721 290 138 24 53
343 725 298 169 2 53
341 725 302 172 1 55
343 735 294 65 28 37
339 735 303 173 18 57
342 730 298 176 9 57
340 730 303 178 6 57
341 735 298 164 18 54
340 734 301 179 14 57
344 725 295 170 4 55
345 735 292 74 19 34
339 724 305 172 0 56
340 727 306 177 2 56
341 750 288 93 71 61
345 744 287 88 68 57
347 745 283 88 67 57
345 749 282 91 68 58
352 765 272 88 66 55
343 760 278 91 69 59
337 760 288 93 70 60
338 755 289 94 71 60
344 756 279 91 68 59
341 760 283 92 69 59
338 766 284 91 69 59
367 715 277 56 29 33
348 756 275 85 63 55
347 760 274 84 64 54
346 759 277 86 66 57
352 755 273 83 63 53
352 760 272 86 65 54
344 762 275 85 64 55
334 752 299 96 74 65
334 751 303 85 56 54
335 749 302 98 55 57
322 740 316 63 27 34
277 850 311 171 131 110
322 745 315 54 28 33
321 743 316 60 33 36
327 745 313 169 20 56
322 750 313 71 32 37
331 740 312 145 18 50
330 744 311 178 16 57
334 737 310 34 26 30
336 740 308 36 27 32
335 744 306 45 27 30
333 745 308 147 23 51
331 750 308 152 29 55
328 765 298 92 70 59
337 755 293 94 72 62
264 906 229 59 48 47
333 761 294 92 71 60
336 759 292 93 71 60
331 755 303 92 73 64
329 766 295 89 68 58
334 762 290 91 70 61
403 780 168 112 79 57
329 761 299 93 71 60
330 764 296 91 70 60
357 815 248 76 61 53
321 759 307 93 74 65
326 758 306 93 74 65
343 740 293 45 32 35
341 745 293 80 63 57
339 740 300 62 27 33
338 740 303 58 27 33
341 740 297 75 28 37
339 747 294 93 73 63
339 751 290 95 72 62
340 748 291 95 73 62
354 717 285 57 21 25
357 720 283 114 29 44
367 710 278 64 30 35
364 710 280 30 28 30
362 720 278 91 29 39
366 720 276 74 27 35
360 718 281 77 18 27
356 725 282 161 21 55
359 721 280 78 22 33
358 730 280 57 23 31
356 730 281 113 16 40
382 855 272 54 45 38
362 730 278 121 18 43
367 735 278 154 17 49
341 935 248 74 68 70
377 710 272 108 20 40
318 825 148 58 50 47
379 708 270 152 17 44
362 750 273 84 66 56
380 712 271 114 20 45
383 720 269 43 27 32
260 854 293 158 120 95
373 710 274 107 27 44
370 714 276 54 31 34
371 863 194 87 67 60
369 720 275 96 29 42
372 720 274 110 24 41
349 906 277 72 64 66
377 720 273 47 28 31
338 880 187 82 73 72
376 735 272 98 22 42
298 903 178 98 84 79
378 736 269 189 10 61
382 730 268 187 11 59
380 729 271 173 19 57
371 726 276 70 26 34
371 735 276 95 23 40
368 751 270 86 67 59
355 738 281 69 53 49
322 810 278 169 118 98
353 747 275 80 60 51
259 876 260 127 101 72
357 747 275 79 60 51
357 750 274 81 62 52
312 885 152 145 121 109
362 740 279 94 41 46
362 744 277 74 58 52
367 745 274 90 51 53
337 945 253 71 65 70
366 744 276 76 50 49
309 845 194 45 42 42
362 747 275 80 64 57
356 760 271 87 65 55
357 765 270 87 65 55
357 850 173 70 60 57
362 755 271 87 66 56
362 760 269 88 67 57
277 949 229 90 84 87
367 755 268 88 67 59
366 760 267 89 68 59
368 761 264 90 69 59
372 740 273 149 19 51
377 740 268 185 13 59
376 745 267 175 20 58
373 745 269 159 28 57
372 750 268 89 65 59
370 748 271 81 66 60
378 751 264 76 52 51
382 740 264 182 11 58
382 745 263 123 23 47
379 741 265 183 13 59
332 881 292 39 35 33
292 850 303 127 102 75
378 745 265 143 18 48
370 738 276 177 22 61
372 755 264 90 69 61
376 759 257 95 74 65
371 754 266 89 69 60
374 752 265 88 70 64
382 755 258 87 63 60
386 701 257 128 6 41
340 843 143 97 76 63
387 705 258 132 6 41
385 706 262 133 3 41
388 709 259 137 5 42
385 712 266 144 11 44
363 768 90 96 72 55
392 715 258 148 8 45
388 715 264 150 8 46
392 720 258 163 10 51
388 720 264 167 10 53
390 720 262 165 6 51
280 919 326 167 128 103
386 720 267 143 17 50
392 725 258 172 11 54
390 725 262 178 7 57
386 725 267 120 21 46
389 736 260 179 8 57
386 740 262 180 9 57
388 740 259 180 9 58
380 789 237 76 60 53
388 745 259 184 13 58
391 740 257 180 13 57
369 867 221 78 69 68
390 744 257 180 16 58
385 748 261 163 20 54
384 752 260 105 26 41
336 790 123 61 53 50
335 789 128 53 47 44
334 792 124 60 52 48
334 798 125 82 66 57
350 769 112 59 48 38
349 776 108 77 62 49
349 772 110 72 59 46
347 775 113 69 56 45
347 780 108 82 62 51
346 779 113 72 57 48
347 785 108 83 62 53
344 781 114 72 59 50
343 785 113 75 57 51
260 854 288 151 115 89
352 785 108 91 69 55
343 775 123 53 45 38
343 780 118 62 51 44
341 785 118 62 52 48
339 782 124 52 45 39
339 781 128 52 45 40
337 785 128 51 44 40
341 780 123 56 48 41
340 779 128 50 43 38
340 783 121 56 48 41
275 874 252 113 89 62
346 775 118 57 47 38
350 768 120 47 39 31
319 785 179 75 60 51
347 769 128 49 42 37
345 774 122 53 43 36
343 790 113 86 64 53
347 788 110 85 63 52
347 791 112 89 67 54
350 788 110 89 66 54
293 800 309 132 96 74
352 790 113 100 74 60
346 794 113 89 67 55
339 786 120 61 53 50
282 839 283 43 35 34
338 790 119 75 58 52
287 944 225 96 89 92
341 795 117 90 68 55
345 798 119 88 68 54
352 794 118 94 69 57
348 797 121 79 59 48
352 800 123 83 61 50
335 802 126 89 70 56
334 807 125 86 65 55
331 810 128 83 64 55
342 801 122 82 63 51
342 814 124 89 69 55
347 805 124 80 60 50
264 834 250 83 65 60
347 810 124 91 70 55
297 944 224 98 93 96
346 813 125 91 70 55
347 815 128 96 76 56
352 809 125 96 73 53
352 811 128 92 71 53
362 769 93 96 72 55
366 768 93 102 75 57
355 770 101 87 66 49
354 776 100 90 67 54
358 770 99 91 69 53
362 771 97 98 73 54
365 773 100 114 83 59
367 775 103 104 76 57
361 779 104 108 79 63
362 781 107 102 74 57
307 825 283 97 61 48
364 777 106 106 75 56
368 777 106 90 66 51
367 780 108 89 65 50
262 841 278 69 55 58
366 784 113 92 68 52
368 781 112 88 66 51
357 789 114 96 69 56
357 796 122 91 68 54
361 788 115 88 65 53
362 790 118 85 62 48
352 785 267 86 65 56
364 787 116 88 64 52
367 785 118 80 58 47
298 775 194 82 62 54
363 791 122 81 59 46
368 787 122 75 55 45
367 790 123 78 58 45
362 794 124 85 61 46
360 798 125 89 63 49
362 800 128 86 63 48
367 795 127 75 56 44
367 800 129 83 61 45
377 768 100 77 60 48
377 771 108 78 59 47
370 778 110 70 52 43
382 769 103 77 57 42
315 895 172 95 89 88
370 784 119 82 59 48
375 778 115 92 71 58
377 776 116 95 73 56
267 941 227 77 70 70
283 900 193 64 59 60
372 831 237 52 43 35
373 782 121 80 60 49
409 808 172 116 77 61
358 843 135 87 69 61
376 782 121 63 45 41
377 785 123 62 49 39
382 780 119 81 63 52
378 783 120 65 52 38
383 785 120 86 62 46
382 785 122 76 56 43
382 782 121 74 55 43
372 789 125 71 54 43
377 795 124 82 61 45
372 800 128 85 61 43
377 798 125 81 61 45
382 794 124 93 71 56
261 905 233 106 78 60
381 799 129 96 72 58
356 805 124 102 75 56
358 806 128 96 71 52
359 802 126 100 73 53
361 804 129 90 65 45
297 770 193 94 40 45
311 770 182 128 20 41
306 775 187 78 60 51
308 775 185 76 59 51
306 785 192 78 62 53
311 785 187 76 61 52
314 774 180 71 54 47
351 904 278 74 65 66
316 780 182 73 58 49
318 780 179 73 58 50
311 790 188 80 64 54
307 800 193 85 66 57
316 790 182 80 63 53
318 790 179 72 58 51
313 790 185 81 63 54
314 800 185 83 65 56
344 788 270 78 59 54
319 811 153 51 45 43
319 816 149 54 48 45
318 820 148 60 52 48
317 820 153 58 51 47
316 820 158 54 48 45
315 825 158 47 43 42
319 830 148 60 52 50
316 830 153 58 51 48
293 775 199 82 63 55
314 826 160 47 43 42
314 830 159 55 49 47
319 807 164 49 44 41
319 807 168 50 45 43
318 810 163 54 48 45
316 815 163 53 47 44
315 815 173 50 45 43
317 810 173 51 46 44
312 805 188 83 66 57
310 806 192 85 67 57
311 810 193 85 68 59
315 805 182 69 57 50
390 863 255 102 74 65
315 815 183 51 47 45
376 894 288 109 92 94
313 815 189 74 61 54
311 815 193 83 66 58
315 820 163 51 45 43
315 820 168 48 43 41
306 968 291 72 68 69
315 824 163 46 42 40
378 831 238 65 52 43
278 775 214 80 63 54
313 825 168 44 40 39
327 955 278 64 57 55
315 818 183 50 46 45
313 825 178 47 42 41
324 838 275 157 121 95
313 825 183 47 43 41
314 820 188 60 52 49
319 829 270 148 111 84
313 825 193 70 59 54
313 830 188 45 40 38
314 830 193 54 48 47
269 769 220 76 60 53
268 775 224 80 64 55
270 772 221 80 62 53
272 780 223 81 64 55
282 770 208 91 56 53
287 770 203 101 49 52
282 928 325 51 41 40
284 768 205 125 36 50
285 771 206 79 62 54
286 775 207 83 65 55
288 775 204 81 64 56
286 780 207 84 66 57
277 770 213 83 59 53
275 771 216 79 61 53
279 780 215 81 63 56
273 785 224 80 63 54
275 782 221 80 63 54
276 786 222 81 63 55
278 784 219 80 63 55
278 933 215 83 76 77
281 775 212 81 64 55
284 780 210 84 65 56
281 780 213 83 65 56
284 783 210 82 64 55
280 782 216 80 64 55
279 789 220 82 64 56
278 800 223 81 63 55
355 918 307 80 68 61
279 796 220 80 64 57
287 795 213 82 65 56
287 800 214 83 65 57
282 795 218 81 64 56
282 800 218 80 63 56
263 769 228 76 60 54
261 770 232 72 58 54
259 769 234 71 58 53
260 778 236 74 60 53
262 785 233 76 60 53
264 768 225 77 62 56
265 771 227 79 61 55
265 780 231 76 61 53
262 790 233 77 61 52
260 790 236 77 61 52
258 795 239 78 61 52
258 800 239 81 63 53
260 795 236 79 62 52
329 941 295 49 42 40
263 799 235 83 64 54
333 912 216 74 67 69
261 800 237 83 65 55
311 850 204 37 33 35
271 790 227 80 63 54
267 795 232 83 64 55
268 794 230 81 63 54
272 795 228 81 63 55
274 794 225 80 62 54
275 797 226 81 63 55
278 805 224 80 63 55
284 800 215 81 63 55
283 805 219 80 63 55
280 801 221 80 63 55
364 876 222 65 55 57
286 805 217 81 64 56
283 815 223 85 66 58
420 860 274 113 102 92
288 815 219 85 66 58
286 820 223 85 65 57
259 804 240 83 64 55
357 846 277 44 36 31
263 810 240 85 65 56
267 815 238 86 66 57
272 815 233 86 67 58
261 811 241 84 65 55
361 899 283 85 71 66
262 815 242 85 65 56
264 814 240 85 64 56
262 820 244 86 66 55
261 821 246 86 66 55
264 824 245 86 65 57
263 829 249 86 66 58
265 816 241 86 66 57
266 820 242 86 66 57
419 811 187 127 89 67
267 825 243 86 66 58
273 830 239 81 63 58
277 810 227 84 65 56
273 810 229 84 65 55
279 819 230 85 67 58
279 824 230 85 66 58
274 823 235 86 66 57
275 830 237 75 60 56
285 822 226 84 65 58
283 830 229 76 60 55
289 768 200 139 25 50
290 771 201 78 61 52
317 950 303 58 53 53
293 780 200 84 65 57
291 780 202 84 66 57
289 784 205 83 66 57
294 784 200 84 66 57
290 785 317 160 115 78
299 778 195 82 63 53
290 787 206 83 65 58
291 790 207 83 66 57
296 790 202 84 65 57
293 790 204 82 65 56
291 795 208 83 66 57
296 795 202 83 65 56
294 795 205 84 65 57
294 798 205 84 66 58
298 790 199 83 65 57
301 790 196 82 64 56
299 798 200 81 64 56
301 795 197 82 65 56
289 794 210 82 64 56
290 796 211 83 65 57
305 801 196 85 67 59
395 794 143 91 68 50
293 805 208 84 66 57
298 805 204 84 66 57
300 801 201 83 65 57
301 805 202 85 66 57
297 810 208 86 67 58
298 815 208 87 68 58
341 860 165 76 64 62
302 815 203 87 68 59
300 816 206 87 69 58
294 809 210 85 67 58
295 811 211 85 67 58
304 862 193 43 41 42
295 815 212 86 67 58
400 780 149 70 54 45
290 812 216 87 68 61
326 880 153 99 85 77
303 820 204 89 69 61
312 891 178 93 80 73
301 820 207 87 68 60
305 895 311 145 111 87
294 819 214 85 67 58
296 820 213 86 67 58
297 825 214 87 67 60
292 820 217 86 67 59
292 825 218 87 67 59
290 825 221 85 66 58
296 826 216 88 68 60
357 905 311 74 63 57
297 830 218 85 67 59
297 945 324 64 58 56
301 826 212 87 68 60
304 830 210 81 64 57
328 817 265 133 87 67
356 837 143 113 99 91
302 830 213 83 65 58
306 805 197 86 68 59
307 810 197 88 69 60
309 815 195 86 68 59
305 816 201 87 67 59
309 819 195 84 67 58
312 826 198 77 63 55
372 890 278 85 68 59
306 820 202 88 68 60
405 840 253 89 68 54
304 824 205 87 69 60
313 830 199 72 61 55
311 831 201 75 61 56
315 829 196 70 60 55
288 890 188 58 55 56
286 890 193 48 45 47
285 894 192 57 53 54
319 840 149 67 57 53
315 840 157 59 53 52
318 845 149 80 66 59
316 845 153 67 58 56
314 845 159 59 53 51
316 850 153 78 66 60
382 875 293 54 46 40
319 850 150 91 73 66
319 854 150 92 75 69
315 850 157 65 58 55
314 850 159 61 54 52
315 855 157 71 61 58
314 855 159 64 57 55
317 860 153 91 77 72
319 858 150 89 74 68
317 865 152 89 74 69
314 862 155 85 75 70
314 865 155 88 76 72
313 865 158 72 63 59
357 889 223 65 57 59
303 865 193 43 41 42
307 895 158 101 86 81
309 835 174 52 48 46
311 840 173 52 47 46
310 845 173 50 45 44
313 835 163 56 50 47
313 845 163 55 49 47
310 834 183 49 44 43
331 830 268 135 101 79
309 838 180 52 48 46
310 840 178 51 47 45
309 836 187 52 46 43
311 835 189 48 43 40
412 826 228 102 75 62
310 840 188 49 45 43
310 845 178 49 46 44
310 845 188 48 44 43
310 845 193 48 44 44
310 850 173 49 45 44
310 855 173 50 46 45
320 840 146 71 57 53
311 865 168 52 48 47
310 860 172 51 46 46
309 861 174 49 46 45
310 864 172 50 47 47
313 860 163 58 52 49
312 865 163 58 52 49
309 850 183 46 43 43
309 855 178 46 43 43
310 853 176 47 44 43
308 855 188 45 44 44
317 902 187 84 79 80
307 855 193 43 41 42
309 850 188 47 44 45
309 850 193 47 44 45
307 865 178 49 46 47
305 864 183 49 46 47
306 860 188 47 44 45
304 862 189 49 46 47
314 870 155 87 73 69
317 880 148 148 124 111
315 879 152 161 146 135
313 880 154 161 145 135
307 885 158 123 102 88
309 881 159 113 96 83
309 886 154 137 111 100
308 890 154 128 106 93
306 890 158 119 102 92
309 893 155 127 105 97
320 773 301 92 72 61
312 894 154 117 95 85
317 885 148 122 95 81
314 886 150 129 102 94
314 889 150 125 102 87
318 891 153 122 99 86
316 894 155 112 90 78
323 942 300 45 40 39
317 895 158 106 89 82
303 876 173 51 47 49
433 781 199 133 95 69
301 880 173 56 52 55
272 875 319 135 102 84
304 866 184 49 46 48
301 870 188 46 43 44
338 822 131 96 77 62
299 876 184 50 47 48
302 875 178 50 46 49
301 874 183 50 47 49
300 878 181 52 48 51
341 864 284 41 35 33
298 875 188 46 44 44
300 873 193 40 37 39
297 890 173 95 81 75
303 890 163 113 97 89
301 890 168 101 86 78
314 817 285 172 118 96
410 814 169 110 78 60
304 894 164 110 99 95
305 890 311 155 118 94
303 895 168 102 91 89
300 891 171 94 81 77
301 895 172 93 82 79
293 885 183 54 52 55
295 883 182 54 53 56
288 886 193 42 41 42
291 884 193 41 38 40
294 882 184 48 46 50
291 890 182 73 67 66
293 890 178 87 76 74
289 891 184 71 65 64
396 855 272 73 60 50
361 893 274 65 53 52
301 790 307 70 55 48
290 895 182 92 80 77
296 895 176 92 79 75
311 870 163 66 58 54
308 870 168 54 50 49
310 869 167 56 51 50
306 875 168 60 55 55
310 875 162 70 60 57
305 870 178 51 48 50
304 872 180 50 46 49
304 887 160 111 93 81
304 889 160 118 105 97
319 886 172 86 72 71
316 895 168 95 86 80
318 891 164 106 92 82
317 895 163 97 85 79
302 968 292 75 72 72
314 891 175 102 91 83
345 910 240 59 53 48
316 890 173 96 84 78
312 891 183 91 84 84
309 894 184 96 89 86
339 926 272 46 40 38
317 891 182 91 86 87
266 835 248 62 52 54
269 834 245 59 49 52
271 835 242 64 55 55
271 841 247 177 123 97
398 870 278 97 81 72
266 841 252 139 105 86
271 846 253 191 131 103
273 849 254 189 129 101
278 835 234 75 63 61
281 835 232 100 80 72
286 835 227 95 78 70
282 840 233 172 120 96
285 841 231 169 119 95
281 841 236 171 118 94
286 845 232 161 113 90
281 845 237 169 117 92
290 888 200 34 31 33
276 841 242 170 116 91
274 844 245 171 117 90
275 847 247 178 122 96
280 847 241 168 116 90
284 848 235 161 115 88
287 850 233 148 104 81
285 851 237 152 106 82
287 860 238 138 103 74
286 865 237 125 97 68
357 869 289 43 38 34
277 850 248 180 122 95
279 854 249 176 121 91
276 851 252 185 126 98
280 852 246 174 118 90
282 855 243 160 112 83
389 859 256 123 104 96
280 855 247 172 120 90
282 860 243 150 109 79
282 895 198 48 46 47
284 892 198 42 40 42
284 892 194 48 45 48
284 892 201 40 38 39
282 895 203 45 43 45
285 893 204 37 35 38
278 896 218 45 43 45
277 895 223 48 46 47
282 895 213 40 39 42
394 862 261 106 89 84
287 891 213 43 41 45
285 893 212 42 40 44
283 891 224 50 46 50
282 894 218 44 42 44
286 890 218 48 46 48
267 880 254 106 87 67
268 887 239 138 101 70
272 887 240 90 67 43
267 896 233 113 77 59
272 895 228 71 56 48
268 890 239 155 110 81
271 893 237 99 64 42
261 895 248 110 87 67
263 890 248 141 107 83
261 890 253 109 90 69
266 884 247 157 124 96
337 930 303 55 48 45
272 880 248 94 76 56
265 894 242 120 78 67
288 870 235 115 91 66
284 870 239 121 94 69
288 875 234 79 67 55
286 875 236 98 80 63
286 880 233 56 52 49
278 870 248 119 96 70
279 871 245 123 102 82
276 875 248 112 91 70
275 880 247 96 81 65
382 800 133 96 72 58
278 875 244 98 82 65
274 877 249 112 91 67
282 870 243 123 97 71
281 875 242 104 85 66
277 885 238 79 68 56
279 882 239 79 68 58
274 896 224 54 48 46
277 894 228 59 53 52
277 894 233 66 59 54
276 889 237 78 65 52
278 890 234 69 61 56
377 886 278 94 74 64
284 887 225 54 50 51
282 885 233 60 55 54
285 884 227 49 47 47
285 883 231 48 46 47
280 890 232 59 54 54
280 893 231 57 53 54
275 884 246 97 80 63
336 774 282 89 69 58
299 853 299 122 98 74
337 930 238 81 73 73
292 840 223 151 112 87
297 840 219 126 98 79
396 814 165 121 84 62
346 842 152 82 65 56
297 845 223 137 102 78
300 836 216 51 44 47
301 840 217 109 86 72
299 843 220 137 102 79
302 845 218 130 95 75
304 862 203 43 41 43
302 850 222 118 86 68
302 855 218 54 47 46
341 769 167 64 39 38
301 855 222 80 60 52
301 860 213 51 45 45
304 860 209 49 45 48
299 861 218 52 47 47
297 865 223 59 52 52
300 858 222 57 46 44
308 833 204 73 59 56
262 880 319 134 98 78
277 924 203 85 76 75
375 804 236 68 52 44
312 835 203 68 57 53
311 836 207 68 57 52
312 840 208 54 49 49
313 840 198 54 49 47
314 845 208 52 48 48
304 833 210 76 60 57
306 836 212 63 53 52
307 840 213 62 55 54
309 838 210 54 50 50
311 841 211 51 48 48
308 850 198 40 38 39
389 866 257 104 81 68
311 855 204 37 34 37
304 862 198 40 38 39
307 860 207 48 45 49
313 850 208 42 38 40
307 850 218 76 57 49
310 849 216 70 54 47
289 835 225 57 51 54
405 840 256 80 62 48
291 841 227 157 115 90
292 845 227 146 104 81
295 847 226 139 101 79
302 928 330 45 43 43
292 850 229 140 101 78
291 855 232 133 97 74
296 850 227 134 99 76
293 855 230 129 94 72
297 855 227 123 91 71
291 860 232 124 94 70
296 860 228 100 76 61
289 860 235 130 97 71
301 870 198 43 41 42
299 871 205 46 44 45
299 870 208 46 44 45
299 876 197 37 34 37
297 880 198 37 35 37
299 875 204 42 40 41
299 875 208 44 42 43
297 880 208 42 41 43
300 875 203 41 38 41
296 870 223 58 53 53
294 881 214 48 46 51
297 875 213 45 43 45
291 880 223 47 45 47
295 874 222 50 46 48
327 935 228 81 74 74
294 877 219 45 43 47
295 878 216 49 47 49
298 870 213 42 39 42
292 884 198 36 34 35
341 929 243 74 66 66
294 882 198 36 34 36
382 884 278 87 73 64
293 886 201 33 31 33
295 883 200 34 32 34
293 886 208 42 41 44
263 959 244 79 75 78
295 884 208 42 41 44
292 889 203 32 31 32
360 897 311 69 60 53
289 887 215 46 44 47
295 883 211 40 40 42
352 891 223 61 53 54
291 884 217 51 49 52
290 888 212 44 43 46
292 875 228 52 48 48
384 882 276 83 70 60
334 787 134 47 41 38
332 790 143 49 43 39
336 784 138 50 44 41
337 770 168 58 38 35
334 786 143 51 45 41
336 784 143 51 45 42
331 795 133 55 49 46
330 794 138 45 40 39
329 796 143 44 40 38
330 794 143 45 40 38
328 796 148 47 42 39
287 932 211 95 89 91
328 795 153 53 46 43
325 798 157 51 45 42
326 875 163 97 81 70
334 787 148 53 47 44
336 784 148 53 47 43
336 784 153 52 47 45
333 786 158 50 45 44
330 794 148 47 42 40
338 781 133 49 43 40
341 940 258 60 54 53
340 778 138 51 44 41
350 768 134 49 41 39
347 770 138 53 47 45
345 773 138 50 44 41
345 773 143 50 45 43
267 820 332 197 137 108
343 775 148 44 41 40
342 905 228 69 60 59
343 775 153 44 41 41
341 775 158 47 43 43
338 781 148 52 46 43
338 781 153 50 45 44
340 779 148 48 44 42
340 778 153 46 42 42
338 776 159 51 46 44
345 773 148 45 41 40
346 769 158 44 41 42
344 772 154 43 40 41
327 770 172 74 36 38
323 785 174 62 52 46
327 780 172 62 53 48
326 785 172 61 51 47
382 832 267 56 44 35
330 775 171 59 48 47
287 959 317 74 68 65
332 780 168 55 48 46
332 785 163 49 44 43
335 779 162 51 46 44
337 776 163 49 45 44
335 778 167 51 47 46
328 785 169 56 49 46
320 772 176 114 48 59
323 790 174 60 52 49
326 790 172 54 48 46
326 795 163 46 42 41
324 797 168 48 45 44
321 800 172 52 47 46
325 794 171 51 45 46
329 791 163 47 43 42
330 789 163 47 43 42
330 790 167 47 43 43
347 836 239 44 36 31
321 789 177 65 54 49
345 768 166 57 40 42
328 805 134 68 56 50
327 805 138 59 49 48
324 810 139 62 54 52
323 815 138 64 55 52
325 809 137 64 54 51
329 811 130 90 72 62
323 805 148 47 41 40
321 805 158 48 43 41
321 810 148 52 46 43
320 808 158 48 43 40
327 825 134 87 69 58
323 820 138 72 59 55
321 825 143 63 53 50
322 830 143 63 54 51
324 829 140 69 56 50
332 825 132 81 63 51
337 825 133 96 74 58
320 827 146 63 55 53
343 821 131 102 81 61
342 825 132 103 81 63
347 818 130 107 81 59
347 820 132 104 80 60
348 817 131 109 80 55
350 819 134 90 67 51
346 915 253 50 44 44
352 820 138 92 69 52
297 825 293 80 63 57
345 828 135 104 84 66
348 826 142 104 78 59
344 831 136 102 82 64
346 830 138 100 79 64
359 807 131 102 76 54
357 811 132 99 72 49
357 814 134 92 67 50
362 806 131 98 72 50
350 859 170 82 69 62
365 802 131 95 69 47
367 805 131 94 67 50
362 810 133 91 66 50
362 815 134 87 63 51
354 817 136 88 66 48
357 819 139 90 65 52
354 822 141 96 71 52
330 835 271 138 105 84
357 824 144 86 64 57
265 917 325 185 146 126
365 818 134 91 69 55
362 820 138 85 64 53
362 823 140 85 65 56
362 824 143 85 65 57
366 819 139 80 60 51
368 816 137 84 62 50
357 827 147 85 65 60
357 830 148 91 71 64
362 827 148 77 59 53
362 830 152 89 71 68
342 880 189 83 72 70
367 826 147 90 70 61
368 830 149 92 70 62
376 803 129 97 71 53
267 960 313 62 58 57
371 809 134 96 69 55
371 814 139 92 69 56
375 813 140 84 59 46
376 814 144 81 62 52
381 803 134 96 71 57
379 807 141 74 54 45
384 801 137 93 71 56
378 811 143 76 58 47
380 809 144 73 56 45
378 812 146 70 54 44
381 815 149 79 61 51
383 815 152 90 69 56
288 837 279 85 61 47
384 811 152 91 67 56
385 848 228 73 59 57
375 827 144 85 67 56
373 829 144 80 65 57
375 828 143 81 66 58
375 818 145 81 61 51
377 820 147 86 64 54
372 831 147 82 66 58
380 820 149 91 69 57
383 820 152 92 70 57
378 826 152 91 71 59
384 827 162 85 63 53
382 830 163 84 65 56
348 815 254 144 103 81
349 812 255 144 102 80
351 815 252 145 106 85
343 821 254 137 96 75
342 825 253 136 101 81
322 909 308 46 40 38
338 830 254 138 109 89
341 830 252 127 98 79
343 831 249 103 78 64
347 825 249 125 88 71
350 819 251 145 106 85
352 820 249 144 107 87
349 822 250 138 97 79
410 835 242 91 69 54
360 838 244 34 30 27
352 825 247 124 88 72
302 974 268 60 56 57
346 829 247 99 74 61
350 828 246 97 69 55
344 827 250 125 94 76
364 787 255 82 62 55
368 790 249 76 58 52
366 800 247 67 53 46
317 950 238 82 76 78
367 795 248 72 56 49
362 795 253 75 56 49
363 800 249 66 50 44
272 836 308 156 101 78
365 794 251 80 61 54
364 797 250 73 56 50
383 775 239 85 69 61
381 785 238 80 64 57
377 770 253 92 70 62
372 780 252 86 65 58
378 775 249 83 66 58
414 779 192 141 99 68
373 781 250 85 67 59
377 780 248 82 66 58
321 960 253 83 78 81
381 770 248 79 63 56
380 774 247 81 66 60
380 780 243 89 72 64
343 922 303 77 67 66
296 810 302 64 53 47
380 778 246 85 68 61
380 783 241 87 70 61
376 800 237 73 56 49
383 785 234 62 51 47
324 893 300 60 45 39
408 810 218 81 61 48
383 790 233 57 48 43
382 795 233 56 45 41
382 800 232 53 44 39
379 796 235 69 54 47
376 790 243 84 67 59
375 788 246 81 65 59
371 800 242 73 57 50
374 796 240 78 61 54
368 811 239 66 51 44
353 860 172 77 64 59
357 805 253 58 46 43
354 816 250 144 109 88
358 811 250 45 37 36
362 805 248 60 47 43
364 806 245 59 47 42
365 803 246 65 52 47
361 810 248 49 42 39
362 815 243 56 46 40
367 825 234 40 34 31
374 887 276 87 66 56
364 830 235 37 32 31
368 832 237 43 36 31
357 820 247 90 72 62
356 823 246 114 88 75
359 821 245 34 31 33
357 825 244 48 39 37
362 820 243 51 42 38
361 825 242 40 35 33
372 805 238 69 53 45
377 805 233 60 47 40
374 806 235 65 50 43
377 815 231 46 37 32
373 811 234 64 48 41
371 810 237 67 51 44
369 816 234 66 52 45
370 813 236 66 50 42
379 812 230 44 37 33
382 810 231 50 41 33
370 804 241 69 54 46
374 816 230 57 45 39
377 820 232 47 38 31
372 825 233 43 35 29
372 829 235 51 42 34
380 824 235 59 45 34
381 829 239 51 40 33
378 832 242 45 36 30
382 830 243 41 33 28
372 886 268 73 59 57
287 795 323 168 128 96
322 835 143 69 56 51
327 885 292 57 49 43
327 835 138 94 73 58
328 839 139 98 76 62
325 836 141 90 70 58
332 835 136 98 77 63
335 837 136 108 83 62
333 844 140 129 98 74
323 844 145 92 70 57
327 850 147 110 86 75
277 842 306 125 94 74
322 865 151 113 95 85
330 854 149 121 96 84
332 855 153 122 96 73
408 770 178 145 103 72
333 852 152 128 99 72
336 853 155 93 73 60
329 857 152 130 106 95
330 859 155 124 99 76
354 917 310 74 61 54
332 860 157 115 90 71
416 785 208 120 85 62
341 834 130 123 96 73
341 832 130 122 96 75
415 786 211 110 79 58
343 835 132 106 85 69
347 836 135 101 78 64
352 836 135 95 75 63
347 835 138 101 79 64
344 834 141 106 86 71
347 840 138 98 78 66
347 839 143 93 74 62
316 919 209 74 66 67
352 840 138 101 78 65
352 836 143 91 71 60
351 841 143 101 78 67
339 846 153 77 61 52
342 845 158 80 68 61
342 842 156 77 65 59
347 840 148 80 62 52
352 834 146 80 61 53
351 846 152 84 66 58
290 780 317 149 107 72
338 851 156 79 64 55
345 852 155 89 74 64
346 854 158 81 69 64
353 849 153 75 61 55
389 775 229 93 71 57
352 849 158 72 59 52
335 863 160 99 79 66
352 845 169 72 61 57
349 842 170 66 55 53
367 878 300 43 38 35
349 844 170 72 62 58
352 841 169 69 57 54
342 856 163 80 70 66
343 861 167 79 65 60
348 852 162 77 63 57
352 850 163 76 63 58
352 850 168 77 65 59
351 854 169 80 66 59
349 849 175 70 58 52
352 855 173 77 64 59
347 862 171 81 67 60
352 864 174 81 67 61
322 879 144 111 84 63
322 871 150 125 94 74
326 870 154 163 143 133
322 874 148 138 113 99
334 835 259 129 102 84
322 881 148 115 92 71
325 876 148 122 96 97
326 875 153 130 115 112
334 952 263 61 56 56
325 879 148 112 93 83
372 841 158 79 63 57
326 875 158 100 86 76
325 880 157 92 81 71
321 884 149 117 91 75
302 919 319 39 37 37
324 882 152 111 92 81
325 884 154 110 97 89
325 884 157 97 82 73
322 880 168 86 72 67
324 877 163 95 79 68
325 878 169 90 78 74
318 902 197 74 68 69
327 879 173 82 76 77
328 876 172 84 75 75
333 866 162 98 81 72
330 868 160 105 84 70
336 869 169 84 72 70
337 870 173 83 71 69
318 869 289 139 110 81
329 872 166 92 79 70
332 875 173 85 75 74
333 876 177 81 72 70
338 876 182 82 72 71
335 878 180 82 73 74
320 884 167 90 77 72
321 890 162 103 89 80
320 893 161 99 90 83
324 882 176 78 71 73
327 885 178 85 78 79
328 887 181 83 78 79
325 888 180 86 81 83
327 890 183 85 80 81
326 895 184 87 82 84
332 885 183 81 73 75
335 883 185 85 77 77
337 885 188 82 73 72
331 889 184 80 74 74
329 892 186 85 80 80
331 894 189 85 80 81
332 895 193 82 75 76
337 890 193 81 73 72
339 867 171 75 67 67
343 866 177 78 66 64
333 848 264 52 43 34
342 870 178 81 70 68
348 867 182 82 69 62
346 869 184 81 69 65
352 865 178 82 67 61
385 834 174 90 69 60
388 827 171 123 85 67
352 868 184 82 68 59
352 869 188 84 68 58
352 870 193 87 71 65
343 881 192 86 75 72
338 886 192 82 72 71
297 969 293 71 66 65
340 883 190 83 73 72
357 835 133 92 73 61
357 836 138 99 79 67
360 839 134 88 71 61
361 838 141 82 66 55
366 834 141 83 69 61
301 916 316 62 55 50
360 845 143 86 71 63
359 840 147 105 86 74
356 847 147 99 81 74
362 835 153 89 72 67
360 840 149 95 81 71
362 840 153 83 69 63
366 837 158 76 60 51
319 952 241 80 74 76
368 839 158 72 57 48
361 845 148 83 72 66
361 845 153 78 68 63
359 848 143 86 71 59
359 848 140 86 71 59
357 849 148 87 71 64
354 848 150 74 58 55
357 850 158 73 63 59
387 866 283 54 46 40
360 848 158 77 66 62
369 832 139 89 72 63
371 835 149 86 70 62
369 835 149 84 66 59
372 840 153 84 68 61
376 835 154 81 66 58
376 843 159 91 74 65
359 847 168 72 61 58
364 840 163 72 62 57
367 840 168 73 60 53
368 837 166 74 60 53
362 845 163 72 63 60
364 841 167 72 61 54
357 849 163 74 63 60
357 851 183 71 61 56
357 852 186 71 60 56
357 864 179 67 56 51
360 851 181 70 60 54
360 853 181 68 58 52
362 860 179 72 60 56
363 861 182 74 61 55
360 863 180 72 61 58
367 860 183 89 71 64
365 863 184 79 65 59
370 888 269 64 54 53
367 861 188 94 74 66
368 862 192 94 74 66
374 843 164 80 61 55
378 840 163 90 74 66
378 845 167 89 73 64
381 834 164 90 71 62
382 835 168 90 70 61
380 839 169 89 71 62
382 840 173 92 72 63
379 847 173 89 73 64
380 844 169 91 74 66
383 846 183 96 75 68
374 848 170 74 58 50
312 900 178 90 85 84
372 850 178 82 66 59
284 843 292 52 44 38
371 853 180 85 68 61
372 855 183 87 70 62
377 849 178 88 70 63
377 851 183 94 75 68
374 852 181 86 70 62
376 853 184 92 73 66
377 855 188 94 74 65
372 861 193 89 70 63
380 848 179 92 73 66
381 849 183 96 77 69
382 850 188 95 74 66
381 853 189 96 75 66
385 778 236 73 58 52
382 855 193 88 69 61
358 866 182 74 61 56
357 869 188 78 65 59
357 869 193 76 64 58
360 868 188 72 60 56
360 868 193 71 59 56
393 842 197 145 93 76
352 835 239 33 29 28
352 840 238 30 27 26
344 840 240 62 52 43
344 845 239 57 48 42
338 835 253 105 83 67
339 836 249 75 57 43
339 840 249 61 49 38
340 833 251 105 80 65
342 845 244 64 54 45
342 846 248 49 41 35
338 844 254 63 53 44
342 844 253 42 35 31
350 833 241 49 35 32
347 844 253 29 25 25
352 841 253 34 30 28
338 849 247 63 52 42
339 849 245 64 53 43
341 848 244 60 50 42
336 893 194 80 74 73
332 896 198 77 70 70
337 895 203 78 68 67
348 876 198 86 71 67
351 874 199 86 70 65
348 880 198 85 72 69
349 880 202 85 69 66
351 880 204 86 71 67
343 891 208 83 70 68
340 894 204 82 71 69
346 883 198 86 73 70
350 885 195 86 73 69
343 922 307 73 61 62
350 882 197 86 73 70
347 884 203 81 68 66
348 886 207 87 73 70
352 885 208 80 69 67
352 889 198 83 69 68
346 889 209 84 70 68
344 892 211 86 71 70
356 874 203 74 61 58
346 893 214 81 69 67
352 888 210 79 69 68
346 894 218 69 60 60
344 896 222 67 58 60
349 892 217 67 57 59
348 896 227 72 63 62
350 893 225 68 58 57
353 892 227 60 53 54
367 864 198 84 66 60
367 864 203 85 69 62
366 864 208 83 69 65
377 859 198 85 67 61
372 860 203 81 63 59
278 822 325 186 135 109
372 860 208 81 64 58
376 858 208 83 66 59
380 858 199 86 70 65
379 857 204 85 69 62
404 833 250 71 54 41
382 857 203 85 67 62
308 854 290 135 108 81
380 858 201 86 70 63
370 863 215 74 63 61
375 858 213 80 64 59
373 861 218 75 62 58
372 865 223 69 59 58
374 861 224 65 53 53
384 852 214 73 57 54
339 852 272 32 28 26
383 851 218 76 59 58
380 853 217 71 54 53
357 835 238 31 29 29
362 834 238 35 32 30
359 837 241 36 32 29
357 839 248 34 30 27
357 839 253 35 30 27
360 838 248 36 31 28
413 855 268 87 71 59
360 838 253 35 31 28
376 833 235 76 63 55
376 833 238 68 55 46
376 833 248 44 37 30
379 832 253 48 40 33
374 856 228 118 108 114
374 857 231 130 124 127
288 831 298 54 44 42
375 860 229 92 77 85
374 858 232 118 111 119
286 800 323 171 128 96
375 863 230 74 58 65
375 865 233 81 65 72
259 963 303 67 61 59
375 865 238 74 66 72
382 849 228 72 58 58
382 849 233 78 65 66
379 852 237 72 59 57
382 850 238 76 64 61
377 860 243 75 62 58
382 855 243 75 63 57
384 852 241 76 66 60
379 857 241 78 65 59
381 859 244 77 64 57
277 865 314 146 100 88
381 864 249 85 67 57
383 866 252 83 66 56
355 873 200 79 66 61
354 877 206 82 70 67
394 822 166 114 79 61
359 872 206 78 66 63
363 866 198 69 57 54
323 945 299 49 45 44
361 870 208 68 57 57
360 874 209 72 62 61
359 880 212 75 64 63
364 867 212 73 59 59
278 970 254 82 77 78
362 870 213 66 57 56
363 871 217 66 57 56
366 869 219 74 63 63
360 881 214 73 64 64
362 875 218 68 58 58
361 880 218 70 61 60
363 880 223 68 58 59
347 856 282 42 36 33
366 874 224 66 57 57
354 887 211 74 63 62
358 885 213 76 66 65
360 908 290 74 64 65
293 848 298 113 92 70
396 770 222 130 94 66
356 888 214 67 57 57
357 889 218 63 54 56
370 869 224 74 65 64
368 876 227 66 56 56
364 881 226 66 57 56
357 890 228 63 56 56
356 894 238 61 52 51
366 884 233 70 60 60
360 888 229 73 64 63
361 889 233 73 63 61
362 890 238 74 64 62
357 895 248 68 59 59
359 892 242 72 63 59
357 896 253 71 62 60
290 804 316 163 122 92
368 885 243 77 69 67
368 886 248 71 63 65
305 923 199 86 81 81
362 891 243 75 66 63
363 891 248 76 66 64
361 893 248 74 65 63
366 889 248 74 65 64
363 892 253 70 60 58
372 870 228 72 62 62
373 870 233 78 69 68
375 869 238 68 59 62
370 874 229 75 65 65
370 879 234 83 73 71
371 880 238 80 71 69
373 875 238 79 70 70
374 872 241 69 64 64
377 870 248 77 63 59
375 873 244 70 61 63
377 875 253 82 66 61
381 870 253 90 70 60
369 882 238 80 71 70
370 884 248 73 64 66
371 884 253 71 63 65
368 886 253 71 64 65
284 901 190 86 79 77
282 905 193 86 79 78
343 775 275 90 67 58
286 900 188 90 82 80
285 905 187 95 86 85
288 905 184 93 82 81
287 910 187 91 81 79
282 915 193 88 78 75
287 914 189 88 77 74
287 916 193 87 77 75
292 900 179 92 80 77
300 828 286 41 38 38
291 901 181 92 80 77
292 905 183 90 80 77
292 910 187 87 78 75
295 909 189 81 72 70
302 901 178 88 78 74
302 902 183 79 71 67
299 902 188 78 70 66
302 903 187 84 79 76
303 901 191 78 74 76
338 900 213 85 72 70
318 910 203 76 69 69
292 915 192 91 81 79
297 920 190 94 85 83
297 915 192 95 86 85
302 913 191 91 83 83
302 921 192 87 79 78
323 912 311 39 37 37
307 899 163 76 63 57
308 898 160 77 62 55
312 898 160 90 74 67
312 899 163 84 70 64
312 900 168 83 72 67
315 898 163 97 83 76
307 900 183 77 71 68
311 899 184 88 83 83
306 900 188 83 77 78
307 904 188 85 80 81
412 780 183 148 104 73
312 906 191 83 79 80
272 964 243 82 78 81
319 898 180 91 85 83
317 903 189 76 71 71
316 910 189 82 78 79
307 915 192 88 83 84
305 916 190 94 87 88
306 920 194 88 82 82
273 905 213 57 53 53
271 910 213 61 57 57
270 908 216 59 54 55
327 825 268 143 105 83
271 915 208 75 67 67
262 915 223 65 60 62
261 919 222 65 61 62
264 916 220 69 64 65
258 921 224 68 62 62
260 923 221 67 61 62
270 914 211 72 66 65
266 915 218 68 62 63
265 914 221 66 61 62
394 867 266 96 66 67
327 914 314 39 36 36
264 925 215 74 65 64
267 925 214 80 70 68
282 880 324 152 116 89
270 925 211 84 73 71
265 923 216 65 59 60
279 905 199 65 60 61
279 901 203 52 50 51
278 900 208 53 50 51
277 905 203 59 55 57
276 905 208 57 54 55
397 839 193 155 105 86
279 910 195 89 80 78
397 841 198 129 88 73
278 910 198 80 72 70
398 841 203 114 87 77
276 910 202 70 64 64
280 904 197 64 60 61
276 900 213 51 48 50
275 903 212 56 52 53
274 902 214 55 51 52
307 790 302 86 67 56
274 901 218 52 49 49
279 915 195 88 79 75
332 910 213 71 65 65
277 915 198 85 76 73
275 914 201 79 70 68
294 885 320 166 127 102
279 921 195 84 75 72
279 923 199 88 79 76
277 926 207 85 77 78
287 920 197 88 78 77
282 923 194 87 78 75
287 923 200 91 82 82
282 924 203 89 80 80
264 897 238 127 93 77
262 900 238 123 93 73
259 906 235 140 106 78
267 900 229 67 51 47
269 897 230 78 53 45
270 903 226 62 54 52
260 898 247 88 70 56
260 914 227 59 55 58
259 930 220 87 76 73
262 933 219 77 68 67
272 930 213 83 74 75
267 932 216 81 71 70
267 934 219 76 67 67
272 935 218 83 75 75
268 938 224 77 70 71
272 940 223 78 71 70
282 929 209 85 79 79
277 931 213 81 74 76
277 936 217 84 77 79
274 943 224 80 73 73
277 944 224 89 82 84
282 934 214 90 84 85
287 936 218 95 88 90
282 941 222 96 89 91
287 941 222 95 89 90
262 937 226 73 66 65
266 946 232 75 68 69
271 942 226 74 66 67
259 948 239 73 68 70
266 951 236 74 69 71
267 955 238 77 72 74
269 953 235 79 74 76
272 956 237 83 78 81
272 960 238 83 80 83
262 960 248 82 78 81
338 901 307 38 35 35
259 958 249 77 73 75
261 961 253 89 85 87
265 956 241 76 72 74
276 957 236 93 89 93
277 960 238 93 89 92
278 958 235 93 90 94
282 947 226 96 91 93
299 817 295 71 55 49
282 950 229 96 90 94
287 950 229 96 90 93
282 955 233 95 91 95
282 958 235 97 93 98
302 910 193 89 82 83
295 922 196 106 97 96
297 924 198 111 105 105
292 925 203 111 105 108
292 927 206 103 97 99
297 925 203 110 105 107
308 821 289 54 43 42
297 927 206 102 97 98
307 910 192 85 79 80
317 905 198 76 70 70
318 907 201 75 69 69
319 912 206 73 66 65
415 820 211 124 89 69
308 920 198 87 81 81
308 921 202 87 81 80
313 916 202 79 72 71
306 924 204 87 82 82
343 851 276 42 35 31
308 926 207 85 79 79
267 940 327 45 43 44
313 921 208 74 67 67
397 829 253 65 52 41
311 924 209 76 70 71
314 917 206 75 67 67
319 917 211 82 75 75
314 922 211 73 67 70
319 921 216 84 77 77
318 925 217 79 71 73
297 932 211 101 96 98
292 941 222 96 90 92
297 938 220 97 92 94
297 941 222 98 92 95
303 931 212 94 89 91
340 925 278 53 47 46
302 936 218 93 88 90
302 940 222 96 91 94
411 780 213 116 82 59
307 930 213 87 82 82
307 933 215 86 80 81
307 935 218 84 78 80
312 935 218 86 80 82
304 937 221 90 85 87
306 937 221 82 78 79
312 937 221 77 71 73
312 940 223 79 73 75
357 841 272 42 36 31
315 928 215 80 72 74
316 934 219 70 63 66
317 939 224 77 71 72
292 943 225 95 90 92
292 946 227 95 89 91
409 828 234 95 70 56
292 950 229 95 89 92
293 952 231 93 89 92
297 951 231 95 89 93
292 958 235 95 90 94
297 961 237 92 89 93
301 946 226 97 91 94
302 950 229 95 88 90
300 952 231 96 91 93
302 955 232 93 87 90
302 958 235 90 86 88
302 960 238 86 82 85
329 942 241 83 75 76
316 944 229 79 71 72
308 946 226 86 81 82
307 950 228 87 80 81
312 950 233 83 77 79
307 955 233 84 79 80
308 957 237 85 80 82
310 958 240 85 81 84
316 948 234 81 76 78
339 926 292 58 50 50
314 952 237 81 75 77
308 961 242 86 81 83
313 957 241 84 79 80
312 960 243 84 78 80
317 955 242 84 77 79
316 958 244 84 78 79
267 965 248 91 87 89
295 804 306 42 39 41
268 963 244 86 82 85
267 966 253 92 86 86
278 962 241 93 90 92
277 964 243 87 83 85
335 943 282 55 46 43
277 966 248 82 77 77
279 968 250 86 81 82
286 966 247 83 78 81
281 972 252 80 75 75
282 973 254 68 63 64
286 972 251 68 63 63
297 963 240 90 87 91
302 963 240 86 82 85
393 780 128 87 66 51
288 963 240 87 83 85
360 784 261 89 69 60
297 966 243 89 86 89
290 968 245 93 90 93
297 970 248 88 84 87
293 971 252 89 86 88
290 973 250 60 55 57
314 951 308 62 57 57
297 968 245 86 83 85
278 974 258 65 60 61
312 964 248 85 79 81
309 967 251 89 83 86
313 966 252 81 75 79
306 968 249 85 81 82
311 968 254 82 78 83
318 962 252 82 76 79
327 900 173 86 75 69
324 901 174 83 72 65
329 898 168 92 82 78
330 900 173 94 85 82
323 898 179 81 76 75
322 899 183 83 78 78
327 899 193 76 70 70
330 900 176 91 85 83
329 897 193 79 72 73
328 900 202 75 69 70
327 905 203 74 67 67
327 910 208 76 67 66
329 897 198 77 70 70
332 900 204 73 66 68
330 903 205 73 67 70
332 905 208 71 65 67
336 898 205 74 65 65
329 907 206 73 66 69
327 912 212 74 66 65
335 903 210 74 65 66
331 909 209 69 63 64
334 906 212 72 67 68
337 905 213 77 68 68
336 910 218 75 67 69
321 914 209 78 72 71
322 920 218 76 69 70
327 916 218 78 70 70
328 920 223 77 69 69
323 925 221 63 57 58
326 925 224 70 63 64
330 913 214 68 62 61
421 787 190 137 96 68
332 915 223 72 65 65
335 913 220 77 70 71
339 897 207 84 72 70
339 897 212 85 73 71
340 898 214 85 73 71
339 900 216 87 74 71
338 906 217 83 72 71
277 810 332 178 128 99
341 900 218 86 74 72
297 900 318 154 111 89
340 905 219 84 73 72
338 911 223 79 70 71
332 925 228 74 64 63
338 920 233 79 69 69
335 924 230 68 59 59
339 912 227 82 74 74
340 910 228 75 67 66
344 910 238 65 57 54
345 898 225 74 64 65
347 901 233 69 61 60
349 897 231 69 61 60
345 903 234 69 61 60
351 899 238 56 48 48
348 901 243 58 51 47
349 902 253 66 57 55
344 910 241 56 50 47
346 910 253 62 54 54
340 913 230 81 72 71
343 915 238 71 63 63
341 920 238 75 67 67
311 799 297 69 54 47
339 922 236 81 73 73
338 925 237 84 74 74
341 925 239 78 68 69
344 916 242 65 58 57
344 926 247 78 71 72
345 915 244 57 50 49
346 915 248 53 47 47
346 920 248 62 56 57
345 924 245 75 69 69
346 925 253 51 44 42
323 930 222 59 54 55
326 934 225 78 71 71
322 940 228 79 72 72
324 937 226 81 74 74
321 944 233 82 75 75
327 939 233 80 73 74
322 945 237 80 72 74
312 840 278 142 109 81
334 932 236 75 67 68
336 934 239 81 72 72
327 946 242 83 76 76
337 935 243 84 74 74
336 939 244 83 74 74
335 944 249 73 66 70
324 947 241 77 70 71
292 780 314 145 101 68
322 950 243 83 76 77
326 949 244 85 77 77
327 951 248 81 74 75
263 844 263 67 54 56
321 954 244 86 79 80
322 955 248 84 78 79
324 952 246 84 77 79
327 954 253 72 67 70
331 949 248 78 71 73
334 947 252 68 63 68
335 948 255 69 65 68
330 953 255 66 62 66
339 936 247 74 67 68
340 928 240 80 70 69
339 941 252 74 68 71
340 939 253 75 69 69
345 928 250 64 57 56
345 929 253 51 45 43
361 850 281 58 47 38
407 835 223 107 84 73
353 896 238 57 49 48
353 896 243 61 54 53
353 897 248 65 57 57
354 897 252 64 54 53
355 898 254 67 57 54
387 776 116 97 74 58
390 784 119 99 74 59
392 780 123 98 75 58
393 775 128 71 55 44
395 774 125 71 55 45
386 788 120 108 82 64
388 791 128 94 69 53
391 789 129 93 67 52
385 793 125 102 77 57
386 794 128 102 76 59
392 770 133 71 54 43
391 775 133 63 47 38
389 773 138 66 52 43
393 772 141 62 55 49
395 768 131 74 55 42
397 771 142 68 57 50
394 775 141 59 51 45
397 775 143 62 52 45
394 779 133 74 58 46
394 786 132 96 72 55
395 781 134 76 58 46
394 779 138 65 51 41
396 780 143 63 51 44
395 785 138 80 60 49
397 785 143 70 54 46
392 790 133 91 68 53
390 793 134 78 58 47
392 795 138 83 61 48
387 801 143 74 55 45
393 796 143 87 64 49
391 798 143 76 55 45
395 789 139 90 66 51
388 801 147 76 56 44
398 790 148 86 64 52
394 797 146 88 64 50
396 798 149 93 69 53
397 799 153 100 72 54
399 796 152 92 67 53
401 770 143 82 62 49
403 770 148 84 61 48
404 770 153 86 63 46
405 768 150 84 61 44
405 768 152 89 65 46
259 964 273 80 76 77
414 822 187 134 93 72
403 775 158 91 67 51
401 785 153 72 52 43
400 789 150 95 70 57
344 925 265 47 40 35
406 790 158 84 60 50
403 796 157 105 75 57
402 800 158 108 76 56
404 770 167 89 63 49
404 776 167 104 74 55
404 771 171 120 86 60
406 770 173 130 94 66
406 775 173 134 98 68
402 780 163 91 67 52
404 785 168 116 82 59
405 780 173 135 98 69
405 785 174 138 98 69
408 775 178 144 103 72
408 785 177 140 100 71
410 770 180 148 104 74
410 770 183 153 107 76
412 770 188 155 108 76
413 770 193 150 105 71
413 775 193 146 102 69
413 785 183 150 105 74
272 805 336 182 131 100
414 780 188 144 101 70
416 785 189 145 102 74
415 782 190 138 97 67
404 788 167 111 78 59
405 790 168 118 80 60
404 795 169 113 77 57
404 797 161 102 72 56
406 800 163 104 74 57
404 795 171 127 86 61
406 795 173 133 90 63
404 798 172 127 85 62
407 800 173 133 89 63
408 795 178 137 94 66
304 796 300 86 69 57
410 789 180 145 99 71
412 790 183 149 104 73
415 786 185 155 108 77
281 780 332 169 122 91
417 790 188 158 112 83
413 792 186 156 109 78
395 867 281 75 61 51
409 793 181 139 97 68
414 798 187 145 101 71
385 803 144 78 59 47
388 806 152 90 67 53
391 804 154 92 67 54
387 815 154 97 70 56
393 815 158 98 70 56
425 799 197 126 90 65
394 802 156 98 70 52
397 803 159 112 79 55
386 819 154 96 71 57
388 821 158 102 75 58
386 824 159 92 69 55
305 808 296 78 62 51
389 807 162 86 64 52
388 815 168 106 77 61
392 810 164 108 75 57
388 813 160 92 70 56
397 810 164 129 90 65
394 814 166 118 83 65
387 825 163 106 78 61
392 824 164 114 79 62
388 818 172 109 80 64
387 826 168 115 82 64
385 828 165 94 70 59
385 829 169 100 75 62
392 829 173 137 92 70
397 820 167 124 85 63
397 824 169 116 80 61
397 828 174 118 81 65
397 830 178 129 89 71
398 832 181 131 91 73
407 805 163 108 76 58
408 805 168 110 76 59
408 805 172 125 83 63
333 845 263 78 62 48
402 814 164 127 89 66
407 814 164 119 84 63
407 816 167 114 80 61
411 810 165 112 79 61
410 813 165 113 80 60
412 810 173 119 81 61
413 805 177 138 95 68
416 801 184 140 97 70
