ply
format ascii 1.0
comment Created by Open3D
element vertex 2201
property double x
property double y
property double z
property uchar red
property uchar green
property uchar blue
end_header
219 869 250 137 109 81
397 747 186 76 58 47
217 869 255 142 112 83
220 866 251 139 111 83
221 868 248 128 101 74
219 875 246 138 108 79
375 711 181 63 48 39
223 874 244 135 106 76
367 872 247 40 35 34
215 885 247 143 108 80
209 884 256 157 116 91
214 889 250 153 114 87
210 894 256 185 134 114
218 884 245 145 110 81
221 883 243 146 112 82
224 884 241 143 110 78
375 774 190 66 52 48
308 569 282 138 11 42
373 764 170 98 72 55
223 894 240 139 107 77
221 894 243 149 112 84
216 890 248 151 111 84
350 556 158 79 28 37
229 833 221 88 66 58
308 634 190 73 35 39
243 969 265 71 65 63
231 836 223 80 63 56
373 876 253 43 37 33
234 833 217 92 68 60
234 838 221 73 59 55
238 843 225 172 129 101
239 842 221 180 138 110
243 834 211 70 55 54
248 834 209 64 55 56
248 838 211 159 122 98
248 840 214 186 130 103
244 842 217 189 129 99
243 845 225 197 133 104
246 846 224 192 128 100
313 883 166 98 82 74
253 839 211 176 125 102
253 841 213 180 126 103
253 843 216 180 124 99
253 848 221 177 118 89
226 836 228 72 59 61
388 919 295 123 95 78
268 919 305 42 40 41
230 837 226 77 60 58
228 838 235 56 49 51
228 837 239 49 44 43
394 789 260 148 100 69
233 838 235 51 40 41
233 837 239 48 41 39
238 835 241 53 37 35
237 841 231 88 72 61
228 835 245 51 40 40
228 836 242 48 40 44
233 834 245 54 43 44
238 833 245 51 41 41
237 832 248 61 50 49
229 855 252 104 77 47
211 882 283 110 77 56
233 852 254 96 75 52
228 864 245 116 92 63
233 860 246 103 77 42
225 856 256 138 108 84
403 874 250 98 80 78
226 862 248 114 91 66
411 816 233 70 53 48
233 851 256 96 76 55
243 969 255 83 79 80
238 855 250 95 72 47
238 859 245 103 73 39
372 579 245 134 19 43
379 554 190 74 28 37
237 862 243 104 76 39
238 864 240 108 81 46
243 834 240 93 62 45
244 838 239 137 98 76
315 941 266 71 64 64
243 844 230 181 122 94
246 846 231 178 120 89
246 845 235 170 119 91
313 564 280 103 15 35
245 842 238 163 115 90
342 604 190 94 34 41
247 849 240 140 98 76
345 601 193 99 42 55
242 832 244 65 47 35
249 834 245 149 108 87
247 849 245 90 68 52
249 844 250 85 62 46
247 849 250 66 54 42
345 669 271 45 24 24
252 834 250 153 113 91
251 838 251 132 95 75
254 834 255 146 107 86
250 845 254 67 54 40
337 649 206 114 16 33
251 842 252 93 67 51
398 769 245 83 60 43
347 619 205 114 30 43
248 848 255 68 57 45
247 854 235 154 108 81
408 864 260 68 55 45
207 919 270 187 146 125
246 854 240 123 90 67
242 863 239 101 74 44
244 859 240 94 71 47
247 859 235 143 105 77
251 851 228 175 119 89
263 534 273 61 28 32
249 854 231 167 119 88
253 854 229 163 113 83
253 859 229 154 112 82
253 864 229 131 99 67
453 809 265 120 87 67
246 853 245 78 62 45
398 718 215 62 49 38
243 853 250 84 68 52
218 804 269 154 119 88
241 862 243 103 73 40
238 889 225 178 136 107
247 869 234 128 98 68
237 894 225 142 101 79
306 952 252 69 65 67
253 879 225 87 73 59
268 954 304 80 73 71
243 885 225 89 72 50
243 889 221 103 75 43
384 769 200 60 48 43
242 886 222 90 67 37
403 883 290 86 73 60
243 894 219 121 81 50
248 891 222 83 64 40
373 864 226 64 55 56
255 882 222 75 65 55
255 895 212 55 51 51
254 891 221 83 73 65
249 895 217 88 72 57
273 518 91 207 13 38
252 892 219 85 73 63
228 870 241 127 100 71
233 869 240 124 98 68
228 879 239 139 108 74
228 874 240 134 105 73
198 794 275 180 136 105
231 879 238 136 106 74
235 871 237 129 102 71
238 939 310 43 42 43
234 879 237 136 106 76
238 879 235 116 94 71
227 868 243 125 98 67
264 968 236 85 79 81
230 866 242 119 94 66
233 865 242 113 89 59
231 882 238 137 106 74
230 885 237 136 106 74
229 894 236 114 90 64
239 885 230 90 75 58
263 816 262 180 126 105
236 889 230 113 90 68
237 883 234 112 91 69
235 890 232 119 98 77
236 893 229 136 110 82
248 879 230 120 97 74
246 874 233 112 87 60
246 877 233 102 80 56
252 874 228 116 93 68
320 931 287 69 61 59
278 894 185 79 69 67
251 878 228 113 92 70
243 883 229 88 72 54
248 885 226 88 73 57
322 875 174 95 84 77
222 904 239 124 96 77
223 909 235 72 65 62
220 909 241 125 101 79
212 899 254 176 130 108
315 936 286 69 59 55
214 899 250 162 119 96
214 904 250 150 115 90
211 909 253 152 122 97
209 909 256 151 123 99
218 899 245 162 119 94
216 904 248 150 114 88
224 914 230 62 58 59
219 914 240 89 76 65
220 919 235 58 55 57
218 919 240 67 61 59
222 914 235 62 57 58
221 912 238 71 63 59
221 918 234 57 54 56
224 924 225 63 59 61
220 929 231 57 53 56
397 711 231 86 59 47
218 929 235 55 51 53
215 915 246 144 115 88
381 691 283 158 108 77
213 914 250 155 122 95
211 919 253 158 123 96
215 924 245 81 71 66
268 799 269 162 117 98
338 888 221 69 60 59
215 929 242 58 53 53
423 819 275 68 55 42
214 929 245 66 59 58
212 924 250 131 106 86
237 961 240 84 80 81
211 924 253 157 123 96
335 673 282 130 11 40
212 929 250 95 77 68
211 929 253 135 107 88
216 919 244 90 76 66
216 924 243 68 62 61
225 934 221 76 69 71
215 934 241 55 52 53
217 939 290 161 116 98
215 939 240 58 54 56
368 768 287 174 127 91
219 934 230 63 59 61
442 858 278 89 73 58
221 933 228 65 61 63
216 934 239 56 53 53
219 939 230 73 68 69
237 908 307 131 109 90
220 938 227 78 72 73
224 943 225 68 63 63
221 941 228 80 74 75
223 869 290 167 148 143
223 945 230 67 62 63
217 939 235 64 60 61
309 950 255 76 71 72
363 699 287 164 114 86
216 939 238 59 55 57
374 649 281 164 108 83
216 944 239 69 64 65
214 934 245 57 53 53
324 659 198 115 15 30
211 934 253 78 67 62
210 934 256 94 76 68
273 560 124 144 23 43
214 944 245 66 62 63
210 939 255 70 62 60
212 944 250 71 66 65
211 945 255 83 75 71
219 948 236 74 68 67
218 949 240 77 71 71
223 954 240 82 76 76
214 954 256 70 66 66
216 950 245 83 77 76
361 828 199 66 51 51
216 951 250 77 70 69
216 951 254 82 76 74
328 629 279 103 23 39
220 952 241 82 75 76
223 955 245 84 78 78
219 952 250 78 72 71
321 589 283 152 14 49
218 954 255 75 69 69
223 955 250 81 75 74
222 956 254 77 71 70
224 958 256 71 67 68
273 960 290 76 69 68
338 834 260 48 40 38
231 907 223 73 62 54
318 754 295 79 66 61
228 909 225 66 59 59
348 888 230 68 60 59
239 900 216 144 101 78
238 904 215 149 105 77
234 905 221 88 71 57
234 909 216 100 77 60
433 859 274 91 76 63
237 909 214 147 104 75
343 534 280 100 47 44
313 594 160 212 17 49
239 919 205 68 62 62
349 654 280 138 89 75
237 924 205 74 66 65
240 924 202 80 71 68
286 602 162 173 52 71
227 914 225 64 60 61
278 832 207 151 112 85
283 561 283 41 26 30
226 919 224 64 58 60
433 839 270 94 75 68
228 919 220 65 60 61
229 914 220 65 60 61
231 913 218 64 57 55
453 794 251 122 96 72
378 803 201 63 50 44
230 916 217 58 52 54
230 920 216 64 59 61
328 898 285 35 33 35
231 924 214 67 61 63
230 924 216 65 60 63
225 930 221 71 65 67
235 916 212 63 58 61
238 914 210 58 51 52
237 918 209 68 62 63
248 909 205 54 51 51
245 911 207 52 47 49
212 904 280 114 88 74
253 904 200 58 54 55
390 692 258 140 105 71
252 903 204 54 51 52
255 901 202 57 54 56
253 909 195 77 70 69
249 910 201 60 56 56
254 905 195 62 57 58
378 904 260 76 63 60
255 909 192 87 78 77
363 754 286 171 124 90
243 903 213 95 61 46
249 900 211 64 56 52
246 902 213 73 56 45
243 897 218 117 75 54
243 909 210 56 46 46
327 534 296 167 117 96
235 936 308 49 46 47
240 906 212 131 96 72
243 914 205 62 57 57
243 920 201 70 63 62
240 916 207 61 54 53
248 914 200 69 62 61
243 924 200 84 74 72
240 927 202 81 70 67
248 924 200 85 74 71
253 919 199 79 69 67
255 918 197 78 68 66
253 924 200 92 81 79
253 927 202 86 76 76
313 704 189 123 11 31
253 929 204 79 71 72
260 881 217 55 49 49
349 764 166 53 45 41
233 899 230 103 84 64
354 595 199 136 32 47
231 902 229 86 74 64
356 892 268 34 34 34
228 899 234 105 85 66
225 900 237 111 87 68
338 599 180 114 33 44
230 905 226 72 61 56
225 916 227 63 59 61
226 913 228 63 58 59
330 802 172 64 55 51
225 919 226 61 56 59
283 886 288 140 109 82
233 934 210 83 73 72
228 934 215 79 70 69
230 934 212 82 73 70
226 934 219 77 68 68
229 939 216 79 72 71
233 937 212 82 73 73
347 659 271 70 39 36
233 940 214 80 72 72
228 943 220 70 65 66
225 942 222 69 63 64
228 945 225 67 62 64
230 942 217 75 69 71
233 945 220 71 66 67
236 930 208 77 67 66
389 709 244 80 54 46
238 943 216 77 71 73
233 948 225 67 62 64
237 945 218 75 70 71
238 949 220 74 69 70
237 950 224 70 65 66
240 952 222 74 70 71
260 816 203 90 69 59
238 954 226 71 67 68
253 933 207 77 70 71
248 935 209 79 72 74
243 938 211 77 70 71
352 842 202 63 53 51
243 940 213 78 71 73
367 694 225 58 36 36
243 944 215 80 73 75
253 935 209 78 71 72
270 885 191 65 60 63
253 939 211 79 72 74
252 940 214 82 76 77
255 942 212 82 75 78
244 948 217 80 75 78
248 950 219 80 75 78
243 953 221 77 72 73
335 776 172 63 54 52
243 955 224 75 71 72
248 954 221 80 76 79
419 865 263 82 69 63
254 947 217 88 83 86
273 539 275 42 28 31
253 956 223 91 86 91
262 664 287 176 11 56
253 959 225 88 85 89
323 799 275 73 57 52
227 946 229 63 59 61
302 819 194 52 47 47
228 949 231 65 62 63
232 950 229 66 60 62
226 950 234 72 69 70
333 574 155 174 11 42
233 954 231 70 66 67
233 958 235 78 75 77
318 900 290 31 32 34
238 958 231 76 72 75
235 957 232 73 71 72
337 649 274 97 16 35
233 960 245 88 83 82
228 958 250 87 81 79
228 959 255 72 68 69
233 960 250 91 85 84
322 654 197 89 21 29
232 960 254 72 68 70
240 962 236 80 77 80
239 962 240 89 84 86
236 961 245 91 86 86
238 963 245 94 88 88
285 618 293 73 31 32
238 964 250 77 71 73
376 624 275 143 108 71
237 965 254 80 76 78
239 967 255 83 78 78
383 889 244 78 64 63
247 961 228 79 76 79
241 961 233 79 76 78
243 963 235 85 81 83
318 826 261 99 76 64
247 966 240 94 89 89
405 798 220 69 56 50
251 961 228 81 78 82
396 892 267 86 71 63
251 967 237 85 81 81
253 967 240 94 88 87
246 966 244 89 81 84
248 968 245 84 78 79
242 966 249 83 78 78
240 967 252 82 78 80
248 971 255 76 71 73
293 926 318 46 43 42
253 969 245 83 77 79
255 973 246 69 65 65
251 971 253 74 71 74
253 973 255 71 68 68
254 973 250 69 65 65
376 794 197 68 54 46
358 709 189 55 43 35
177 774 260 171 120 91
179 774 264 173 121 93
182 774 267 172 123 93
406 873 256 89 72 68
184 774 269 173 125 96
180 779 264 176 125 97
359 600 251 103 21 39
184 779 269 178 128 100
182 784 266 178 126 98
184 784 269 181 131 102
187 779 271 179 131 102
178 789 260 182 129 100
179 789 264 182 129 98
184 789 269 181 131 103
183 799 265 185 133 102
182 794 266 181 130 100
400 759 203 78 61 46
188 789 271 182 134 105
188 794 271 180 132 104
188 799 270 184 134 106
190 789 273 182 133 103
181 801 262 189 134 105
298 709 187 132 14 36
183 804 265 188 133 104
184 809 264 192 136 107
186 805 267 186 133 103
380 514 202 37 26 29
192 805 272 187 136 110
188 814 265 196 139 113
186 816 261 198 138 110
385 703 244 58 38 36
192 816 267 202 145 121
193 814 269 200 146 122
398 789 209 95 71 53
185 817 258 202 142 114
188 819 260 200 140 113
260 912 302 136 106 79
323 534 124 162 3 35
189 818 264 198 140 113
189 823 259 203 143 114
193 819 265 205 147 122
191 821 262 200 142 114
313 684 296 74 30 35
203 774 275 175 131 98
208 774 274 167 125 92
203 779 276 177 132 102
371 830 174 69 54 43
208 784 274 171 131 98
198 789 275 181 137 106
333 519 125 99 17 31
203 789 275 182 138 107
428 879 280 118 95 82
203 799 275 181 138 110
406 887 272 81 67 58
208 794 274 176 133 102
397 724 260 150 106 73
208 799 274 175 132 102
218 774 271 143 103 72
398 854 240 83 71 64
383 734 170 70 51 43
223 774 271 137 104 77
333 709 304 113 19 41
218 784 270 161 118 85
365 850 218 58 52 50
223 784 270 146 108 81
213 794 272 164 126 93
324 822 177 56 48 46
213 799 271 164 126 93
218 789 270 164 121 89
218 794 270 164 123 89
400 710 184 87 67 46
391 523 190 165 15 47
218 799 269 158 121 90
233 792 268 62 49 45
223 794 268 146 110 83
293 554 279 154 6 47
224 799 267 131 103 78
222 799 268 159 119 88
211 794 273 167 129 95
203 814 270 189 141 114
208 814 269 182 137 110
198 804 274 181 135 107
198 807 273 185 138 112
203 807 273 186 143 117
408 894 290 112 91 82
207 807 273 180 137 110
266 962 294 81 75 73
198 823 263 206 150 124
195 817 268 205 150 127
198 817 268 200 146 122
198 825 261 203 145 117
202 822 263 201 151 127
203 825 261 196 146 121
208 819 265 184 133 110
208 822 263 184 136 114
394 824 220 79 63 54
387 749 279 170 116 85
203 820 266 197 148 123
203 818 268 192 141 113
207 817 268 183 133 105
203 828 259 191 136 109
353 554 270 89 25 38
213 804 271 168 127 95
213 813 269 177 134 104
213 815 267 174 129 103
223 804 267 139 111 84
369 619 258 112 90 66
220 806 267 147 114 84
223 809 266 141 112 88
218 814 267 162 121 93
216 813 268 169 128 98
355 560 267 40 28 33
210 804 272 174 133 100
213 819 265 170 125 100
272 967 232 85 83 85
268 947 217 95 90 93
213 828 259 179 131 109
218 821 262 153 114 87
218 824 260 164 125 101
223 824 260 117 90 73
223 827 258 109 86 71
228 784 270 52 43 41
233 784 270 62 51 47
238 784 271 67 59 53
225 772 273 50 44 38
228 773 273 49 42 40
228 775 272 47 42 41
233 774 274 64 54 50
239 935 309 43 40 42
232 776 272 63 52 47
376 620 274 144 107 74
238 774 275 66 58 54
235 777 273 67 59 54
239 779 273 68 58 56
393 884 295 56 47 41
237 780 272 69 59 57
240 782 273 66 57 55
233 789 269 62 50 45
228 795 267 55 45 42
228 793 268 52 44 41
298 664 192 59 35 37
233 795 267 64 52 45
224 796 267 109 87 67
228 799 266 54 44 41
238 792 268 63 53 49
373 683 243 53 39 36
243 779 274 70 56 57
243 783 273 69 58 55
243 785 272 68 58 53
248 779 275 79 65 57
248 959 305 65 59 56
249 773 278 76 63 58
308 849 254 127 96 76
253 773 278 75 60 55
253 775 277 73 59 52
442 856 278 89 72 59
253 779 276 71 58 53
336 897 265 33 32 34
268 974 245 65 61 61
243 789 270 68 57 53
377 779 288 174 126 92
258 769 192 74 59 50
243 795 267 65 55 53
329 770 287 88 70 60
243 793 268 68 57 52
248 794 269 75 61 52
247 800 267 73 63 56
288 539 274 125 19 42
245 797 268 73 61 51
248 798 268 74 62 53
253 799 269 65 55 51
252 786 272 73 59 52
233 804 264 59 51 48
228 804 265 50 43 40
228 809 264 48 42 40
373 914 307 60 48 37
308 897 187 66 58 57
232 808 263 61 53 45
261 893 199 53 50 52
228 814 264 53 44 40
233 814 261 57 49 46
230 816 262 54 45 36
233 929 305 148 113 96
238 804 264 61 53 49
385 520 159 181 23 52
238 809 262 60 52 47
278 941 311 62 55 50
239 808 263 62 53 48
238 814 262 64 53 49
227 818 263 50 42 40
258 559 279 85 27 37
228 824 259 44 37 39
391 707 188 103 77 60
233 823 259 60 52 51
230 826 257 53 44 45
314 889 204 69 64 65
234 826 257 63 52 51
343 674 275 61 23 30
238 823 258 61 53 49
243 809 264 61 53 49
340 527 280 102 46 42
394 719 249 116 91 62
243 804 265 64 56 51
243 814 263 61 52 49
243 816 262 62 55 52
248 814 264 54 47 47
250 802 268 69 59 52
296 722 187 90 19 28
253 804 268 56 49 48
252 805 267 58 50 48
253 809 266 61 50 47
298 549 116 87 35 41
253 814 264 98 71 60
307 947 274 67 59 55
243 819 260 61 53 50
243 822 258 62 53 51
253 819 260 116 78 64
254 816 262 142 98 80
221 849 275 168 125 103
222 849 280 172 129 109
224 846 280 138 110 86
224 849 284 169 129 109
224 854 260 146 113 87
220 855 270 172 130 106
219 864 260 150 117 87
222 858 260 151 115 89
332 629 201 62 36 37
220 860 261 150 115 87
408 749 225 68 52 39
218 864 270 155 108 93
288 910 299 57 45 39
221 854 275 172 126 106
223 854 285 159 117 97
220 859 275 149 106 86
307 674 192 51 35 37
219 859 280 134 64 68
383 819 215 73 57 51
220 856 274 166 124 100
221 857 276 153 110 89
283 634 188 113 18 37
221 857 280 138 103 80
220 860 284 135 36 63
222 858 286 128 67 67
224 860 289 130 52 66
308 614 180 57 36 39
223 864 289 128 54 71
208 879 260 140 108 83
343 929 310 71 62 55
207 879 265 147 112 88
207 884 260 170 122 101
311 897 202 66 59 60
207 889 260 189 136 119
206 889 265 193 139 124
288 719 187 134 9 34
207 894 265 191 137 120
208 894 270 177 124 108
386 784 283 173 121 89
215 870 260 146 113 86
215 871 264 136 99 76
213 874 260 128 100 73
213 874 265 121 93 69
363 664 289 182 129 101
210 876 260 125 99 73
210 876 265 128 100 74
358 915 284 61 46 38
313 744 190 97 27 35
213 874 270 121 93 72
210 876 270 128 97 76
298 900 285 77 60 53
268 749 287 76 62 55
217 868 260 149 115 87
331 680 289 129 9 39
219 869 270 105 58 62
288 963 240 84 79 82
216 872 267 96 62 56
415 856 238 67 52 51
258 784 190 78 62 52
216 872 270 86 48 43
388 534 195 110 22 39
209 880 274 133 97 77
213 874 275 131 81 75
211 877 272 138 105 82
276 694 188 127 9 31
211 879 275 151 112 92
214 874 280 143 76 80
212 879 280 158 114 96
422 866 246 98 82 73
212 879 285 132 96 79
217 869 280 145 123 118
364 720 182 58 47 44
329 590 164 48 33 38
216 872 274 97 42 48
216 872 281 108 33 46
211 883 276 141 102 83
288 685 294 54 29 32
210 881 286 75 45 41
330 867 177 76 66 61
209 889 285 160 116 98
383 689 280 155 107 77
210 894 285 168 121 105
226 912 302 64 56 56
211 896 285 164 118 103
213 879 290 110 81 62
323 849 180 94 73 56
213 880 294 104 75 63
220 870 288 164 128 125
367 659 241 69 55 44
218 874 290 134 71 75
220 876 293 140 101 87
222 872 291 116 43 56
390 525 261 151 18 52
223 879 296 135 101 83
210 881 290 95 70 56
295 595 288 107 6 36
209 884 294 173 132 114
213 884 296 155 120 100
210 888 294 197 145 128
213 889 296 187 140 122
210 893 290 180 132 113
211 895 291 191 142 126
213 894 294 193 143 128
217 883 297 141 109 88
222 882 297 116 86 65
224 893 298 183 134 117
228 848 265 111 87 66
228 847 269 112 90 68
228 846 271 112 89 67
233 848 265 97 77 57
238 847 265 87 69 50
238 846 270 91 73 53
228 844 280 112 92 71
233 844 280 99 81 61
377 889 302 53 43 36
225 846 283 145 117 93
233 844 285 120 99 77
238 845 275 95 77 56
232 939 306 47 44 46
238 844 280 101 82 61
238 844 285 117 96 74
224 851 262 135 105 81
367 654 289 158 112 79
228 850 260 107 84 63
390 704 215 53 42 35
230 851 257 97 77 58
233 850 260 96 76 55
226 854 287 167 123 106
395 759 266 159 109 77
243 847 265 76 61 44
248 847 260 67 55 43
273 744 187 92 29 37
243 846 270 85 68 49
248 846 270 81 66 48
255 840 258 105 81 61
250 846 260 66 54 43
349 649 220 96 26 36
253 845 265 71 57 41
250 847 272 86 70 53
253 847 272 90 73 55
243 846 275 94 76 56
247 846 280 109 87 63
242 846 285 118 96 72
357 834 205 80 65 60
377 528 151 197 22 48
249 847 280 111 88 63
248 849 285 122 98 71
249 847 275 100 81 60
253 849 280 112 90 64
252 850 284 118 93 66
230 846 288 153 124 101
233 846 288 143 116 91
233 849 290 164 130 108
238 846 288 140 115 91
285 966 267 61 57 57
248 929 309 44 40 39
238 849 290 159 130 105
229 854 289 162 123 103
228 859 290 139 96 81
233 859 292 154 124 98
238 854 292 166 133 108
313 558 276 126 8 39
248 859 294 152 123 94
238 859 293 163 132 105
238 864 294 160 129 103
243 849 289 148 121 95
243 853 292 161 129 100
432 813 276 72 59 46
243 856 293 160 129 99
247 850 289 139 113 85
248 853 291 148 118 86
353 924 311 60 51 45
248 856 293 153 122 89
253 859 294 149 120 89
228 868 292 135 120 118
225 871 293 147 96 93
233 869 294 113 80 80
228 879 299 135 105 85
229 876 298 136 107 83
233 878 301 131 102 78
337 918 275 74 67 69
238 869 296 130 95 79
234 880 303 143 107 83
292 834 264 150 117 93
348 829 175 102 77 58
238 874 300 125 99 73
228 884 301 150 113 92
263 569 283 125 19 40
231 882 302 148 111 89
233 884 304 169 126 108
230 885 303 175 130 113
308 920 313 45 41 40
358 569 280 142 112 81
230 893 303 191 136 121
236 889 307 187 135 120
238 894 307 192 140 123
360 599 259 93 43 38
306 542 112 191 11 36
239 892 308 189 137 120
279 965 234 89 84 87
343 714 200 66 29 31
242 868 297 152 123 94
243 875 304 138 110 80
403 794 235 91 67 57
248 875 304 152 121 91
252 866 298 155 124 91
255 867 297 154 123 89
253 874 301 159 126 95
252 879 304 156 122 94
402 877 256 80 68 69
278 602 162 72 33 36
248 879 305 154 122 93
253 884 304 156 119 93
253 889 305 160 118 93
363 654 242 61 48 40
243 884 308 173 131 108
243 889 309 185 137 116
247 884 308 166 125 99
247 889 308 176 130 106
399 819 241 66 50 42
243 893 308 190 138 119
249 894 307 173 126 104
307 896 273 31 31 32
250 889 307 167 122 98
253 894 305 162 116 93
208 904 260 119 95 78
206 909 270 124 104 89
208 909 275 107 88 75
418 734 176 90 67 53
208 919 260 177 138 116
207 919 265 188 146 126
207 924 270 177 134 113
207 914 275 119 104 96
208 914 280 126 107 94
273 829 206 71 62 59
208 919 280 186 143 121
208 924 275 180 136 115
259 548 116 209 15 48
208 899 265 143 107 90
209 899 270 134 100 87
210 897 279 159 115 101
212 899 280 146 109 96
293 774 281 75 61 56
211 900 276 129 97 88
209 904 275 77 60 60
318 629 284 57 28 31
212 903 276 91 72 70
211 896 282 165 119 105
212 899 285 152 107 92
211 907 281 114 86 68
378 699 285 166 112 81
208 924 260 176 136 112
380 765 178 70 54 43
210 953 270 59 56 58
211 913 287 163 127 104
209 919 285 187 145 125
209 929 275 183 138 116
209 929 280 188 141 121
210 929 284 186 142 123
211 930 286 187 142 123
215 897 293 189 140 127
267 860 284 132 104 74
216 904 292 172 135 117
216 900 292 184 142 128
223 899 296 140 104 89
346 603 196 55 31 40
216 908 292 157 124 105
218 909 295 122 99 82
222 908 297 114 90 71
223 909 299 95 77 64
215 914 294 172 136 116
214 919 294 183 142 121
212 924 290 183 140 120
389 876 280 39 34 31
385 540 255 185 16 57
213 929 290 185 137 119
215 929 293 180 135 116
343 884 245 37 34 33
217 914 296 151 124 106
217 919 296 182 143 122
390 708 216 61 47 37
219 919 299 184 143 124
260 846 273 117 95 71
373 574 245 64 31 36
217 924 296 182 139 120
217 929 296 183 139 121
220 924 298 185 142 122
220 929 298 182 138 121
223 929 300 185 142 123
209 934 260 112 87 77
258 724 189 135 6 34
209 934 265 140 108 92
341 675 278 128 11 39
209 934 270 174 134 113
209 939 260 82 72 68
398 709 181 80 58 42
209 939 265 96 82 75
351 639 222 73 30 38
210 943 271 86 72 66
211 945 270 66 56 54
431 861 272 107 90 80
209 934 275 190 142 120
363 739 162 69 51 41
210 934 280 192 141 120
307 816 267 166 116 97
210 932 283 191 144 124
210 937 279 188 138 117
211 940 276 138 98 84
309 543 272 99 11 32
211 944 275 70 57 54
363 849 210 59 49 46
213 939 285 174 126 106
214 944 284 86 62 56
216 944 286 78 56 52
211 946 260 69 62 60
359 866 223 78 63 58
210 950 265 58 54 55
414 834 255 81 74 68
212 954 260 73 69 70
213 959 265 78 73 76
211 955 270 66 63 65
288 560 124 101 27 39
218 957 257 73 69 70
218 958 260 74 70 70
211 948 275 48 44 45
210 950 275 49 47 49
383 789 209 52 41 37
214 949 285 46 43 44
212 954 280 55 52 54
214 958 275 74 71 72
214 958 280 58 54 55
214 954 285 55 51 52
305 887 267 36 33 33
215 957 283 55 51 51
293 544 275 150 12 45
218 960 280 64 59 58
324 905 230 70 62 61
218 959 285 60 55 54
214 934 290 188 138 117
215 933 293 186 138 117
218 934 295 188 143 121
388 864 246 72 62 52
298 634 189 127 27 41
216 936 292 188 140 116
223 934 299 180 138 120
219 938 294 161 118 101
218 944 290 68 51 48
222 940 296 121 89 78
346 685 207 54 34 34
222 944 295 57 48 46
224 939 299 105 79 71
224 944 299 50 45 45
215 952 288 52 49 49
217 949 290 50 46 47
375 543 212 135 30 55
220 949 294 49 46 47
383 805 214 79 61 54
218 954 290 50 47 48
220 953 294 50 47 48
363 554 267 77 30 36
223 954 295 56 52 53
440 816 277 89 67 52
223 959 290 68 62 60
221 956 292 57 54 54
224 957 294 64 59 56
224 952 298 56 53 53
392 803 206 78 60 52
225 899 298 137 98 88
363 824 175 79 59 45
226 899 297 138 108 92
227 904 301 81 63 61
452 808 260 129 93 69
391 804 245 98 69 55
231 896 302 160 113 99
233 899 304 131 99 86
297 844 189 52 48 49
233 904 305 76 62 64
233 909 306 131 113 98
238 899 306 154 114 98
315 936 280 69 59 59
238 904 306 103 82 72
235 910 308 154 133 116
228 914 305 116 102 95
233 919 307 188 146 125
225 919 303 189 150 130
225 922 303 191 147 128
228 924 304 185 142 121
226 929 302 191 150 130
238 914 309 139 115 101
238 919 308 188 148 125
243 904 307 140 111 91
243 907 307 151 123 99
253 899 305 159 115 93
253 904 305 155 116 90
243 914 309 159 127 105
243 919 308 178 141 118
246 914 308 163 128 104
243 928 307 79 57 52
399 728 185 92 67 45
246 927 307 71 52 44
253 914 305 157 123 99
273 524 269 83 27 35
253 919 306 114 90 74
249 926 308 61 49 46
229 934 304 129 98 86
228 939 304 60 50 50
226 944 302 49 46 47
228 944 304 51 49 50
278 563 126 189 25 54
233 934 306 79 63 58
237 933 307 56 48 46
235 939 308 43 41 43
238 944 310 50 46 46
227 949 301 58 55 56
229 949 304 58 55 56
273 784 276 68 56 52
227 956 296 62 57 57
387 690 256 123 97 66
228 958 295 69 62 60
233 960 295 67 61 60
230 952 303 68 64 63
233 953 304 63 58 57
232 955 301 63 58 56
233 958 299 72 66 64
398 839 220 92 76 64
238 958 300 67 61 60
235 948 308 58 55 55
238 948 309 59 54 53
237 950 307 61 57 56
244 930 308 45 40 39
407 824 221 87 67 57
248 933 311 42 41 42
242 939 312 45 43 44
243 944 312 57 51 51
332 554 141 170 8 35
249 935 313 42 41 43
254 931 313 40 38 39
253 939 316 61 57 56
352 639 225 51 31 35
243 959 300 66 60 59
248 949 311 72 67 66
248 946 312 74 69 69
273 635 287 93 28 38
243 954 306 69 63 60
244 952 308 73 66 63
358 794 176 82 62 48
253 946 312 76 71 72
253 956 307 72 66 63
283 579 286 173 11 55
263 610 174 144 26 47
224 962 265 81 78 81
365 688 288 171 118 86
221 961 268 88 83 83
221 961 280 54 50 49
224 962 284 59 53 51
228 963 260 75 69 72
342 547 142 118 11 32
225 962 262 72 68 78
228 963 265 71 66 70
395 744 244 75 56 38
230 962 257 77 72 76
233 965 260 77 69 72
233 965 265 71 63 65
233 964 270 70 64 63
236 966 260 72 64 69
238 967 260 73 67 70
239 967 265 70 65 65
264 793 273 55 42 45
373 678 241 60 44 41
228 963 275 64 59 57
228 962 280 66 61 60
233 964 275 71 64 62
319 886 177 83 74 68
233 964 280 72 65 62
368 769 169 100 74 57
229 962 284 65 60 59
273 719 294 174 19 58
233 963 285 75 69 67
237 966 275 68 61 57
239 967 275 64 58 55
237 966 280 68 62 58
239 967 280 60 56 54
358 864 220 73 60 56
288 824 205 79 63 56
236 966 285 59 54 51
238 967 285 55 51 50
333 927 302 73 62 54
247 971 260 74 69 68
388 900 304 61 52 44
243 969 270 64 58 55
402 715 234 75 52 40
249 972 260 62 58 57
253 973 260 49 46 46
250 972 263 54 48 44
253 972 264 61 56 55
253 970 270 71 67 68
243 967 280 65 63 63
243 966 285 67 64 65
244 966 282 72 69 70
258 944 214 89 83 86
248 966 285 65 62 63
253 968 275 70 67 67
252 966 282 69 66 66
255 967 283 69 66 66
398 860 226 111 92 83
232 961 290 68 64 62
357 808 185 79 58 47
362 593 206 175 23 47
238 963 294 60 56 55
242 961 296 63 59 58
409 779 230 102 74 56
364 535 148 83 23 33
248 964 295 65 60 59
248 965 290 62 59 60
263 950 306 70 66 66
245 962 298 62 58 58
253 965 290 63 60 60
253 965 295 57 54 53
258 514 95 147 12 41
264 513 92 129 15 40
260 512 92 181 10 45
269 961 228 101 96 100
262 515 93 77 27 37
259 518 96 77 22 34
270 512 87 204 15 44
268 520 94 117 20 38
273 520 94 208 14 41
369 624 286 159 114 81
273 524 96 211 13 45
387 826 211 81 62 58
277 516 88 216 15 39
278 524 95 213 14 43
313 810 272 143 115 96
283 516 88 197 10 38
288 515 89 82 23 36
283 524 95 205 11 43
363 935 300 86 75 67
398 774 211 86 62 47
288 521 93 212 12 59
376 558 259 159 26 55
288 524 95 210 13 42
258 524 101 159 11 42
394 847 235 89 72 62
259 527 102 133 15 40
263 524 99 163 12 44
263 528 101 131 14 39
268 525 98 210 13 46
343 794 171 69 54 46
257 535 108 164 10 40
262 536 108 191 11 44
267 531 103 164 7 36
269 537 107 198 13 48
408 834 234 71 58 49
268 539 109 205 12 43
338 864 246 39 34 33
404 724 195 68 54 43
268 543 111 208 13 42
273 538 106 145 17 42
411 710 182 80 59 43
273 543 111 205 12 46
256 540 113 177 9 43
258 544 115 191 12 45
278 529 100 204 10 43
280 527 97 186 4 44
283 527 97 147 5 43
283 529 99 108 18 35
288 527 97 202 11 37
288 529 99 169 18 41
274 532 102 172 3 41
278 532 102 212 13 39
257 904 303 153 113 87
278 541 108 101 20 31
260 895 201 53 51 53
333 719 305 65 25 34
283 532 102 124 14 34
283 535 104 164 23 47
288 532 102 100 32 41
283 538 106 115 27 40
283 540 108 124 35 46
283 544 111 139 21 40
257 550 118 208 15 49
263 549 116 215 14 48
390 530 250 185 19 52
262 551 118 218 14 51
258 554 121 155 21 45
258 556 123 130 36 50
421 860 227 84 67 64
268 549 115 216 14 43
273 546 113 213 13 40
268 552 117 216 12 46
268 554 119 153 11 38
273 552 117 216 13 43
264 557 122 85 35 38
269 557 122 142 26 50
387 842 248 65 51 41
268 560 124 143 19 41
258 879 300 159 123 96
338 779 169 62 50 46
273 557 122 173 15 45
263 562 127 97 26 37
268 562 127 140 29 47
273 563 126 151 24 45
311 618 288 127 17 47
278 554 119 218 14 47
361 674 237 59 38 38
283 546 113 211 12 45
283 549 115 172 11 44
283 552 117 145 6 35
396 887 250 82 67 65
398 820 224 84 68 56
288 554 119 170 11 43
378 834 250 60 45 38
284 557 122 205 9 48
288 557 122 164 24 50
283 563 126 67 32 37
293 524 95 206 12 43
296 512 87 96 29 42
343 759 286 66 55 47
298 514 90 76 32 38
297 518 92 80 40 38
344 629 285 147 98 78
298 520 94 42 37 42
301 512 92 57 36 36
409 748 214 85 65 49
303 514 95 49 39 39
300 516 93 41 40 44
298 523 96 83 24 37
293 529 100 187 11 41
295 526 98 208 12 57
299 526 98 83 23 41
298 529 100 173 11 42
301 523 97 53 38 37
304 519 99 48 35 37
303 528 101 97 20 38
358 674 285 159 108 87
293 532 102 147 8 31
287 957 284 59 53 50
293 534 104 132 23 44
293 540 109 117 25 36
298 534 105 103 26 38
303 530 103 182 10 40
375 622 263 142 115 85
268 649 192 157 0 36
364 624 249 88 53 42
298 543 111 69 29 34
412 742 179 73 55 49
303 539 110 185 10 43
305 514 98 46 41 39
306 512 97 42 31 42
278 859 274 144 114 84
310 514 103 101 30 41
311 512 102 42 41 45
313 514 105 77 28 37
310 520 103 148 3 31
312 519 106 140 6 36
307 524 102 109 18 33
309 524 104 162 3 36
306 528 102 76 12 20
308 529 105 171 6 38
315 520 108 156 2 39
378 794 286 179 127 97
319 514 109 107 19 35
318 519 111 163 3 37
313 529 110 166 7 37
314 530 114 159 6 35
320 520 114 166 7 31
277 817 202 83 66 57
319 529 119 157 4 35
309 535 109 176 8 40
418 849 239 103 82 67
310 531 108 168 7 39
304 536 108 165 0 43
437 833 271 110 90 81
308 544 115 183 10 41
309 540 113 180 9 35
313 534 115 163 7 35
353 649 290 174 121 100
311 537 112 174 9 42
268 942 314 62 56 53
313 544 116 182 9 39
318 534 120 157 4 35
411 723 226 91 69 49
314 545 118 179 9 39
381 807 283 176 123 94
317 539 120 157 5 36
320 539 123 155 4 33
261 888 209 47 45 49
320 544 124 155 4 34
455 791 258 104 87 70
293 546 113 87 26 36
293 554 120 109 29 41
318 908 306 38 36 37
292 557 122 152 34 48
293 560 124 99 33 42
298 545 113 55 35 40
298 551 118 81 29 35
303 550 118 89 29 36
298 554 120 123 28 42
307 597 162 223 13 54
303 554 121 149 26 43
297 557 122 98 19 32
298 559 125 81 33 41
288 744 188 84 32 37
300 556 123 197 10 54
367 843 211 57 49 45
367 599 235 165 19 50
303 559 125 98 32 40
293 563 127 131 24 44
263 634 191 56 36 40
307 548 117 128 14 33
332 923 261 72 64 66
308 550 119 166 11 42
313 549 120 182 8 39
400 747 173 83 70 58
308 558 126 157 26 46
312 558 127 112 27 40
314 551 123 181 9 38
318 549 125 169 7 38
316 557 127 75 26 38
322 513 111 95 16 34
324 514 115 156 5 37
322 519 115 167 8 34
324 519 119 168 8 35
396 897 272 98 81 69
327 518 121 165 4 33
329 519 123 153 4 35
278 532 272 37 30 31
321 522 117 169 8 38
320 525 118 166 7 38
326 522 122 161 0 32
379 559 250 141 28 49
331 512 122 163 0 34
377 514 205 41 26 29
333 514 124 164 0 34
333 524 126 76 24 35
322 533 122 161 4 39
320 536 123 157 5 37
358 904 250 66 58 56
408 739 230 72 54 33
328 534 126 147 6 34
343 837 258 41 36 34
258 570 134 62 36 39
331 533 127 160 11 39
338 514 126 166 0 32
338 895 285 39 36 36
338 519 127 127 9 35
342 513 127 174 2 36
341 517 127 167 0 31
258 568 132 49 35 40
263 568 131 113 34 46
356 732 169 59 48 41
263 570 134 83 28 40
268 565 129 128 26 43
273 565 128 129 33 45
338 854 191 68 58 57
375 788 198 62 49 44
273 569 131 73 33 39
268 575 139 149 29 46
333 699 301 71 17 31
278 571 133 153 23 46
274 859 211 60 52 48
283 565 128 133 31 49
283 568 131 206 16 47
288 568 131 140 20 41
283 571 133 204 13 48
282 869 195 53 50 52
368 684 245 65 48 38
309 566 133 133 26 34
283 573 136 184 14 47
288 571 133 159 17 43
392 903 304 68 54 46
288 573 136 157 21 43
283 576 138 215 15 53
263 971 270 62 58 58
277 955 223 92 87 91
265 647 192 162 0 34
288 576 138 168 16 44
283 714 187 109 20 34
293 565 129 111 29 43
293 568 131 88 32 39
330 625 198 58 33 39
293 575 138 69 30 37
298 564 129 49 36 41
303 564 130 92 35 42
302 567 132 80 33 37
303 572 137 207 17 38
303 574 139 133 27 44
372 639 284 163 112 82
359 690 197 82 62 42
319 555 129 60 33 35
318 559 130 84 30 40
337 836 256 47 39 37
308 561 128 122 25 36
308 564 131 158 26 48
268 923 310 33 32 34
313 563 131 88 23 36
338 549 297 182 131 102
313 565 134 131 18 42
313 568 136 139 20 40
309 571 138 163 19 42
308 574 140 138 23 43
313 574 141 117 28 43
353 694 284 104 51 42
317 562 132 143 30 52
318 564 135 149 21 42
320 561 133 114 34 35
298 888 271 49 41 37
258 577 142 161 28 49
258 579 145 111 31 43
384 819 265 145 94 71
263 578 142 81 31 38
290 882 182 73 62 61
263 580 144 102 37 44
273 578 141 161 27 48
272 581 143 149 20 44
258 584 149 208 15 50
387 689 274 156 109 78
263 583 146 137 24 43
263 585 149 214 16 51
259 587 152 222 14 52
263 590 154 222 14 49
268 583 146 132 25 44
273 584 145 211 18 51
339 692 287 133 10 40
268 586 148 216 13 53
272 591 153 223 14 50
258 594 160 191 12 48
263 593 156 219 13 48
383 514 268 71 27 35
268 594 156 210 14 48
266 596 158 189 27 46
269 597 157 124 14 45
273 599 160 116 27 42
278 576 138 133 22 43
353 905 309 48 44 43
319 667 287 145 13 44
278 579 140 192 20 49
382 528 161 175 21 45
278 584 145 223 15 48
377 778 170 86 64 50
283 579 141 225 15 49
313 929 235 74 66 67
283 581 143 227 15 47
283 584 145 226 15 48
412 759 229 71 54 41
283 589 150 211 17 51
274 597 157 156 22 43
278 592 152 182 6 46
278 597 157 116 32 36
283 599 160 93 31 40
288 594 155 74 34 40
258 974 255 60 57 57
286 597 157 95 48 51
256 596 163 214 14 45
258 599 165 214 13 53
263 600 164 134 19 41
259 602 167 176 13 45
298 544 275 147 14 44
363 568 180 195 20 46
263 603 166 192 17 50
258 609 175 201 16 53
263 608 171 159 26 48
268 603 166 156 28 48
268 606 168 74 27 35
373 564 240 134 16 41
268 608 171 131 33 46
376 798 197 67 53 48
272 606 168 111 15 32
274 607 167 195 20 47
278 607 167 184 25 52
278 610 170 152 25 48
283 602 162 199 41 74
283 604 165 206 19 49
288 609 170 142 25 45
399 870 270 56 45 36
268 613 176 143 35 51
265 901 187 84 74 71
259 612 177 97 22 35
263 618 181 72 35 39
267 616 178 189 30 59
304 849 256 147 113 90
273 619 180 49 34 39
258 629 190 105 22 38
258 634 192 71 32 35
268 628 187 51 37 40
273 628 186 91 32 38
273 631 188 93 30 38
369 579 226 152 16 47
268 634 190 47 37 40
263 639 192 70 31 35
273 639 191 142 15 37
283 610 170 176 28 52
298 890 273 51 43 38
283 612 172 121 25 39
393 699 260 143 105 72
381 691 208 53 43 33
288 612 172 124 29 39
275 617 177 33 33 43
278 619 179 58 30 38
278 622 182 103 30 45
283 620 179 198 15 48
362 837 255 85 54 41
288 617 177 116 28 44
278 631 188 125 19 35
278 634 189 91 29 39
288 625 184 156 16 44
288 629 186 151 17 41
283 639 190 126 15 36
288 634 188 161 8 41
366 644 288 155 109 75
288 639 190 128 17 35
293 581 143 211 18 52
353 544 272 67 25 32
298 580 143 194 12 49
303 578 142 59 33 38
293 584 146 226 15 48
293 586 148 225 14 50
290 591 153 41 35 39
345 891 290 36 35 36
293 768 283 76 62 55
303 583 146 220 13 47
298 586 148 223 14 45
303 585 149 220 13 45
298 591 153 225 15 47
378 830 265 135 89 68
293 594 155 172 19 44
293 596 158 202 12 40
298 594 156 225 15 50
298 598 161 201 14 49
303 593 156 222 12 49
308 579 144 157 23 47
308 582 147 217 16 49
313 584 150 202 12 48
307 587 152 219 13 44
311 587 152 213 12 40
318 583 151 201 12 43
314 586 153 211 12 46
278 759 283 74 60 54
293 513 289 176 121 102
263 734 187 77 32 36
319 585 154 200 11 44
293 601 163 85 31 42
294 606 168 166 9 52
298 600 163 200 20 47
303 603 166 164 20 45
348 919 313 59 52 48
298 606 168 77 34 43
308 600 164 224 15 51
403 878 260 76 65 62
326 824 178 66 54 49
312 602 167 223 15 48
308 605 170 75 30 37
307 607 172 53 37 39
258 614 281 128 23 46
313 609 175 54 34 39
263 939 209 86 79 81
314 596 163 209 19 54
387 754 279 166 114 81
318 596 163 127 25 42
314 601 168 222 23 54
379 924 294 100 79 69
314 606 173 78 28 36
381 696 221 42 35 33
318 601 168 88 27 39
283 923 315 36 34 36
318 608 176 161 28 49
347 728 195 61 44 47
293 614 175 188 16 46
298 611 173 209 20 50
303 613 176 65 31 37
293 619 180 85 26 39
293 622 182 47 36 44
293 625 184 60 34 40
294 616 178 203 14 47
303 615 179 57 36 40
296 622 182 61 30 35
299 621 183 104 29 36
303 618 181 112 34 44
303 621 183 56 32 39
303 624 185 79 35 40
264 664 288 176 9 54
365 652 243 63 50 43
293 632 187 102 36 45
396 733 200 66 49 43
298 629 186 74 32 36
303 628 187 57 36 39
438 826 278 82 65 52
296 632 187 40 34 35
303 634 189 69 33 38
307 617 182 70 38 42
308 624 186 52 37 39
314 611 178 58 36 35
318 610 179 90 33 37
307 627 187 49 32 36
308 629 188 96 32 39
310 625 188 105 37 44
313 629 190 51 35 38
308 639 192 97 32 42
313 634 191 98 26 40
317 629 192 64 31 41
263 704 296 161 13 52
258 639 193 89 29 36
312 638 192 147 16 37
315 636 193 151 8 31
316 632 192 74 19 28
318 634 194 128 15 35
324 540 128 177 14 38
324 544 129 165 5 34
333 534 129 123 24 41
329 536 128 106 19 36
334 530 128 60 29 36
380 545 179 184 21 48
333 539 130 54 33 37
386 775 202 69 54 44
385 541 251 118 29 45
332 542 132 86 23 40
264 885 205 51 49 52
333 544 135 138 17 39
343 515 128 171 1 36
339 524 128 70 27 35
348 529 134 124 23 38
353 524 135 88 24 36
383 529 240 123 22 41
342 533 132 106 23 36
338 539 134 49 32 37
338 543 136 64 29 38
343 544 140 128 25 43
380 722 178 71 58 42
344 540 138 57 31 36
345 530 133 138 28 46
298 900 280 52 45 43
348 534 136 85 29 34
349 535 138 89 35 36
353 534 140 54 33 35
348 539 140 82 34 39
347 543 142 85 29 36
388 894 265 77 65 64
349 545 144 51 33 38
352 543 146 46 36 38
324 549 130 139 2 31
329 545 134 194 12 40
323 554 131 100 24 39
321 558 132 58 30 40
287 603 287 32 25 29
323 559 135 113 22 41
324 555 133 94 15 34
388 873 250 68 59 49
326 558 136 151 7 43
328 559 140 127 10 39
332 548 137 202 12 46
378 869 250 43 38 34
333 549 139 198 12 45
330 550 138 173 9 38
282 873 189 54 50 53
355 567 287 149 113 82
330 554 139 158 5 36
331 558 142 161 4 36
335 556 148 178 5 56
334 560 149 76 25 37
283 544 276 146 15 44
322 563 136 89 33 41
320 566 138 178 11 49
323 568 141 178 10 44
425 816 273 83 69 53
327 564 141 163 13 42
329 564 144 153 10 38
351 832 180 82 66 56
323 574 145 183 11 40
326 573 147 181 12 38
324 576 149 182 10 40
328 574 150 165 10 40
443 809 259 111 86 56
331 567 147 131 34 48
333 569 150 117 23 41
335 566 153 72 40 44
329 570 148 143 9 39
284 951 296 59 53 51
449 799 255 126 98 71
338 548 141 202 13 44
336 897 278 36 36 38
338 550 144 206 13 45
343 549 145 146 24 45
345 546 143 43 35 33
384 804 281 171 119 91
338 553 146 195 11 45
339 895 234 69 62 61
339 555 149 168 24 53
350 605 204 154 31 49
337 558 151 88 29 39
342 552 147 169 14 52
339 560 154 94 27 35
330 776 176 47 41 44
344 556 153 52 33 30
332 840 183 101 78 62
397 740 166 100 74 50
347 548 146 54 33 38
347 553 151 87 27 37
348 555 154 61 34 39
326 881 167 97 86 78
354 615 219 58 30 35
347 557 156 58 33 39
344 574 169 178 14 42
348 559 160 93 34 40
351 552 152 141 27 34
293 534 271 73 28 34
353 553 155 98 32 41
354 555 159 135 34 50
338 564 155 126 22 41
336 569 156 57 35 38
336 572 157 130 19 33
337 574 160 65 26 35
268 832 207 155 116 95
341 568 162 45 32 37
343 569 165 97 26 39
344 565 164 61 29 32
340 571 163 54 35 37
347 567 167 119 34 44
350 561 163 65 26 30
370 846 228 148 140 143
390 749 277 171 117 88
338 754 291 77 63 58
261 734 188 63 34 38
350 566 168 41 30 40
347 573 171 181 16 46
356 512 132 188 11 38
358 514 134 187 12 40
358 519 136 163 15 38
348 744 289 76 32 37
357 524 137 158 25 44
359 525 138 98 24 36
343 885 224 67 60 58
356 527 137 139 32 43
358 529 140 121 30 42
368 514 135 203 18 45
404 764 210 90 70 56
363 519 138 95 15 32
303 829 259 154 120 98
368 519 140 181 17 41
300 844 187 52 47 49
360 520 138 118 20 36
363 524 140 94 30 39
340 683 203 57 29 32
368 529 146 166 18 41
357 533 142 99 30 43
409 854 251 93 80 77
355 536 143 45 36 40
357 538 146 46 33 35
360 531 143 134 21 47
409 739 225 71 53 38
359 540 149 39 30 38
405 773 222 74 60 51
366 532 147 81 26 33
362 542 152 132 25 42
367 538 152 93 24 37
379 890 243 75 62 61
309 839 181 58 52 51
390 521 173 58 36 41
349 674 214 82 30 33
368 539 154 150 27 45
364 541 153 191 22 53
433 814 279 66 51 39
373 513 136 199 20 44
337 654 206 110 16 32
373 524 145 192 20 43
370 608 263 127 103 76
374 521 143 193 20 43
377 512 137 194 20 47
439 816 257 107 79 55
378 514 140 191 21 45
381 513 141 192 22 46
383 514 145 191 21 46
372 527 147 188 19 42
385 766 199 66 52 46
381 518 146 191 21 47
382 519 150 191 21 47
384 519 155 191 20 44
377 523 146 194 21 47
380 521 149 192 22 47
303 859 179 55 48 48
258 719 189 136 3 33
382 523 155 191 20 44
390 729 277 169 115 88
351 582 182 39 34 40
384 524 160 99 22 37
381 527 157 191 21 51
380 530 159 191 20 47
348 892 275 36 33 35
369 531 148 151 18 34
373 534 155 135 27 47
408 829 234 71 58 51
372 538 156 137 19 41
287 880 183 74 62 60
368 544 160 46 33 37
357 618 226 50 31 37
373 539 160 138 22 43
334 745 296 68 28 36
371 543 161 71 34 42
383 529 165 143 25 42
379 535 164 191 21 45
380 536 168 189 20 44
382 534 170 149 21 43
384 535 175 186 21 48
376 538 161 191 21 46
377 539 165 168 20 45
376 542 166 188 24 60
413 889 280 97 76 66
379 539 170 190 21 45
377 543 170 191 21 46
378 739 285 177 120 90
380 540 174 190 20 46
340 524 285 125 88 72
381 537 171 190 20 46
382 539 175 188 20 46
384 539 180 131 26 42
368 892 264 53 46 42
381 542 176 179 22 49
382 543 180 130 20 38
383 544 185 126 33 46
273 913 301 46 43 43
358 574 260 114 25 42
354 550 154 169 26 47
358 549 155 102 29 41
409 854 265 67 56 44
439 806 274 76 62 47
360 546 153 104 27 41
270 968 232 79 75 79
373 849 246 42 34 32
308 750 296 74 61 56
359 551 158 114 46 51
365 546 158 39 33 39
367 548 161 68 33 37
360 556 164 90 20 33
290 966 255 81 77 79
365 551 163 151 24 44
368 549 165 68 32 39
368 906 264 71 60 57
385 764 195 64 50 41
362 553 161 106 24 39
361 557 167 114 19 37
364 555 169 104 32 42
368 554 170 77 27 38
342 639 210 83 27 36
364 560 174 193 20 49
428 824 278 77 57 46
368 559 175 194 21 47
355 566 173 207 21 51
358 563 170 87 26 37
361 562 172 144 24 46
363 564 175 190 22 47
355 571 178 199 19 51
359 570 179 198 20 46
357 573 181 196 20 48
366 562 177 195 21 47
367 568 185 193 21 46
369 565 184 192 21 47
283 835 208 136 101 75
360 571 183 196 20 39
362 573 186 195 20 48
370 550 169 48 32 38
355 808 283 168 127 101
373 549 170 71 29 38
374 550 174 53 28 36
372 553 176 102 24 38
377 548 176 162 21 48
375 551 178 60 27 33
371 557 177 190 21 42
374 554 179 170 21 46
372 558 181 169 19 43
374 560 184 152 21 43
375 556 184 49 30 30
402 746 214 77 58 42
378 549 180 168 22 44
380 546 183 171 30 53
381 548 186 60 30 34
384 544 190 89 31 42
380 551 188 47 35 35
376 553 181 154 25 46
374 564 190 189 20 48
370 693 228 50 34 35
372 568 191 190 21 49
375 561 188 191 20 46
375 514 207 45 26 29
375 518 207 54 31 31
348 714 290 49 29 34
383 514 200 58 26 32
378 519 205 49 28 30
380 517 202 39 24 27
379 529 206 39 28 31
384 524 201 123 22 46
382 529 204 40 27 31
375 831 262 121 77 60
384 529 201 47 25 30
373 514 215 79 22 34
374 519 210 71 24 34
373 519 215 68 28 35
373 514 220 98 25 40
383 524 240 156 17 42
374 514 225 63 30 34
374 519 225 60 28 34
374 524 210 113 24 44
372 524 215 39 26 30
372 524 220 45 27 34
372 524 225 58 27 36
371 529 220 35 28 34
376 524 208 118 29 44
379 534 206 33 28 30
382 534 204 44 28 30
383 539 205 44 30 31
372 534 215 91 19 37
370 697 228 60 40 39
372 534 225 137 20 45
303 839 186 56 50 51
373 539 215 103 23 42
372 544 220 79 21 35
371 543 225 121 17 38
377 534 209 33 27 28
396 844 239 75 60 56
313 869 181 80 67 60
378 544 210 73 28 35
374 524 230 112 15 34
376 513 226 45 27 32
377 514 230 39 29 31
378 514 234 45 27 33
378 519 235 95 14 31
384 514 239 152 16 42
381 519 237 129 10 36
366 588 206 187 20 49
384 519 239 156 17 40
376 524 232 129 12 38
378 529 235 79 22 32
381 524 237 123 7 37
380 529 238 52 26 30
408 736 183 67 52 37
370 544 225 156 23 51
335 673 203 77 26 26
374 544 234 87 23 36
283 946 218 87 82 83
377 534 235 85 21 33
284 733 293 66 51 47
380 534 238 49 29 32
383 534 241 60 25 35
362 798 181 94 68 45
380 539 238 64 28 28
334 888 247 32 32 33
377 544 237 74 24 31
323 598 166 58 35 41
379 544 239 67 30 36
382 543 241 143 19 42
368 574 195 191 20 47
383 549 200 107 27 41
382 549 205 86 28 38
298 910 204 72 66 67
380 555 195 156 24 50
379 559 200 133 23 42
381 553 195 111 25 38
418 829 250 126 96 83
381 554 200 127 28 45
417 829 265 72 60 48
381 554 205 87 24 37
387 935 303 80 66 55
373 549 215 121 22 44
368 690 287 173 120 86
370 549 222 154 14 46
374 559 216 151 16 48
372 554 220 152 14 46
370 554 222 154 14 48
381 549 208 122 30 48
381 554 208 155 23 52
447 808 256 122 92 61
375 565 194 191 19 49
358 890 275 44 40 38
358 860 215 66 55 51
338 819 175 86 66 51
373 569 195 190 20 47
370 571 194 191 20 47
369 574 200 187 20 46
370 575 204 186 20 48
374 570 205 183 18 48
376 563 196 189 20 48
349 654 220 87 30 36
376 567 197 189 20 49
378 564 205 173 18 48
376 568 205 182 19 46
373 564 220 154 12 47
375 564 217 157 14 49
375 569 217 159 13 48
374 574 210 181 19 47
372 574 224 157 15 48
292 963 265 60 54 51
374 574 220 162 16 49
378 564 210 169 19 50
376 569 210 176 20 48
376 569 215 164 15 49
376 572 212 173 19 47
370 549 228 157 17 47
371 549 230 144 15 40
374 549 235 66 29 34
278 945 306 58 52 51
375 550 238 35 30 31
370 559 230 39 31 35
372 554 235 47 30 34
313 834 254 150 114 94
363 659 290 181 128 100
374 559 239 107 18 36
376 548 237 30 28 35
280 871 196 57 54 55
378 549 240 68 26 35
289 883 276 137 111 89
377 554 241 63 26 34
380 550 243 168 20 46
384 544 245 154 23 43
379 554 244 178 21 50
377 558 241 62 23 34
381 553 246 189 19 49
377 559 255 113 24 42
404 866 265 57 46 36
370 564 235 66 28 39
371 562 237 126 23 46
370 566 238 143 40 59
369 574 230 123 15 40
327 928 260 77 69 72
369 574 235 75 29 39
370 574 239 69 26 32
375 565 244 168 26 53
374 569 245 74 30 36
375 566 252 50 29 34
264 840 268 133 108 83
373 569 255 62 27 34
372 574 241 91 24 37
271 872 209 51 47 49
353 619 292 168 119 87
332 612 186 107 31 44
372 574 255 109 30 46
373 574 250 88 30 40
377 564 245 106 29 42
377 564 250 70 28 35
376 563 254 65 31 38
376 567 249 78 25 41
358 689 285 153 103 83
335 606 183 142 46 53
321 577 147 188 10 44
323 579 150 185 10 42
326 577 151 179 10 40
323 584 155 187 10 42
327 583 157 181 9 41
328 584 159 162 11 39
322 588 157 195 11 44
325 586 158 187 10 37
320 845 247 85 57 46
328 588 161 80 29 41
331 578 156 175 10 37
333 579 160 175 11 39
330 581 158 175 9 38
332 584 161 141 13 40
323 595 164 59 34 39
386 542 248 48 25 31
328 594 166 86 35 41
326 597 167 151 53 68
323 600 169 44 35 41
328 599 170 68 33 40
280 876 187 57 53 52
323 605 174 131 36 50
326 602 172 43 34 43
394 734 240 75 55 41
332 598 172 48 33 37
335 595 173 59 37 38
332 603 177 65 30 35
326 607 177 44 35 36
329 606 178 94 41 50
333 604 180 93 37 43
410 866 243 91 76 70
332 608 181 96 38 45
263 543 277 34 31 32
402 724 211 56 43 32
333 610 184 100 33 44
312 883 184 78 70 67
400 744 237 62 45 33
336 578 162 174 11 50
341 577 167 173 9 48
288 714 187 78 30 35
339 584 170 41 34 39
342 579 170 141 14 40
341 583 172 94 36 47
344 580 174 173 16 44
343 584 175 71 31 37
336 587 167 42 35 42
339 590 174 42 34 38
340 586 173 40 35 41
347 579 176 174 17 42
348 584 180 46 35 39
364 648 245 73 53 42
350 576 178 180 15 39
352 578 181 73 25 38
352 583 185 124 24 41
345 586 178 69 38 42
346 588 182 71 35 39
348 589 185 118 29 44
345 591 184 140 27 42
349 590 189 142 27 47
338 594 175 50 33 39
394 519 250 177 22 50
336 598 176 99 32 39
339 595 179 127 29 46
344 594 185 92 34 42
342 599 185 115 32 44
340 600 184 125 34 46
334 880 214 70 61 59
336 603 181 58 33 39
268 944 215 95 90 91
398 705 182 86 63 43
339 604 185 68 36 41
339 610 189 106 36 45
345 596 188 70 39 42
323 610 180 179 38 54
322 612 182 75 35 36
382 749 284 171 117 84
323 614 185 61 34 37
365 864 243 39 36 34
326 612 182 149 40 51
325 616 188 87 33 36
328 618 191 88 34 41
333 615 189 166 28 49
283 704 298 102 29 43
323 624 194 117 28 41
332 617 192 170 29 48
338 613 191 115 25 38
354 579 184 75 23 36
354 585 189 187 19 44
359 580 189 191 20 46
357 584 191 181 19 43
362 578 191 193 20 47
343 609 195 57 33 39
349 595 194 99 32 42
351 592 192 100 30 40
