ply
format ascii 1.0
comment Created by Open3D
element vertex 2232
property double x
property double y
property double z
property uchar red
property uchar green
property uchar blue
end_header
379 704 209 69 51 43
344 454 312 64 49 32
299 604 223 107 28 41
459 804 248 89 68 58
339 459 314 58 45 28
422 537 274 33 32 38
432 807 245 71 55 45
339 464 318 58 45 29
339 724 338 174 16 55
340 461 316 58 44 26
300 520 423 160 19 55
344 463 318 57 44 29
276 777 250 147 101 67
276 667 260 153 0 39
351 452 316 80 63 47
328 971 324 59 54 52
346 462 315 61 47 29
428 538 384 181 120 96
353 455 314 75 58 42
354 454 316 81 63 46
359 454 317 82 63 47
355 459 316 73 56 41
364 454 318 78 58 42
241 719 312 171 116 91
368 783 210 63 50 43
364 459 318 71 53 37
463 809 294 79 70 63
364 464 317 67 50 34
247 606 288 189 0 52
369 464 318 66 47 31
464 774 238 86 65 55
394 508 433 89 26 39
359 475 313 61 47 32
359 474 318 63 48 33
360 477 316 59 45 31
290 564 413 155 25 53
339 847 324 101 81 58
391 466 371 80 7 27
364 469 316 64 48 33
369 768 326 76 62 55
363 469 315 65 49 33
363 478 314 59 46 31
228 529 258 122 17 40
373 454 316 73 50 35
392 713 341 183 5 58
376 458 315 68 45 32
374 464 317 66 44 31
304 919 303 142 112 89
379 454 313 68 42 33
384 464 318 68 47 41
377 472 318 65 43 31
356 482 310 59 46 31
242 740 310 171 115 91
421 895 354 62 52 45
356 482 311 59 46 31
252 795 272 186 125 93
246 578 445 131 87 69
415 484 373 119 8 34
359 482 312 59 46 31
394 919 273 67 59 61
417 474 278 75 26 35
394 779 318 76 61 54
324 471 333 60 45 31
285 509 418 87 20 31
321 471 335 61 45 31
258 593 348 104 55 37
443 639 293 135 100 63
324 473 323 59 44 30
389 874 238 69 61 59
413 489 348 66 21 28
323 472 328 60 45 31
454 759 298 154 110 76
394 454 363 94 0 29
327 487 461 126 32 47
327 472 324 59 44 30
327 472 326 59 45 30
322 472 333 61 46 31
252 621 273 109 28 40
406 464 328 48 27 31
334 469 323 59 45 30
311 939 356 128 93 81
302 878 313 147 111 83
238 724 303 164 112 86
324 470 343 59 43 29
329 470 338 59 44 29
324 470 348 59 42 28
309 654 327 166 15 51
329 470 348 58 43 28
386 956 325 57 52 51
329 471 353 58 42 28
294 734 239 136 9 35
402 425 288 95 20 34
302 497 467 184 16 58
452 690 283 142 101 64
334 469 338 59 45 29
294 784 326 51 45 44
251 563 218 173 16 50
408 754 204 59 47 41
295 820 315 61 51 48
453 774 302 158 115 82
339 469 328 59 45 29
429 625 274 98 81 64
344 467 324 59 45 30
344 468 328 58 45 29
344 468 333 59 45 28
339 964 348 60 55 54
435 497 383 84 26 32
286 505 413 82 14 30
348 466 322 57 44 29
242 551 236 169 13 41
349 468 323 59 45 29
253 799 272 184 124 92
351 467 320 60 46 30
349 468 333 59 45 28
384 904 248 62 54 54
339 470 343 59 45 29
460 770 234 96 70 54
234 519 238 87 21 34
344 469 338 58 45 29
344 469 343 58 45 29
339 470 348 58 44 29
339 470 353 58 44 29
349 469 338 59 45 28
324 845 342 143 115 90
258 825 315 204 147 121
394 482 390 66 7 26
349 469 348 59 44 29
319 644 233 114 14 34
374 968 293 89 83 85
324 471 363 57 38 26
409 698 212 65 49 43
322 471 366 58 39 26
438 536 415 181 111 108
249 643 347 187 129 104
329 471 362 57 40 27
329 472 364 57 41 27
257 566 411 147 97 77
230 544 263 56 25 35
334 472 363 57 42 28
251 631 310 82 65 44
309 709 344 145 14 45
399 894 369 49 41 34
334 473 368 57 41 27
304 611 226 97 29 37
400 692 217 56 45 38
324 473 373 59 41 27
324 474 378 58 40 27
324 476 383 57 40 27
329 475 378 56 40 26
329 476 383 56 39 25
334 476 382 55 39 25
423 888 357 70 57 50
339 471 358 57 43 29
344 471 358 57 43 28
344 472 363 57 42 28
349 471 358 58 43 28
339 474 373 55 40 26
339 476 382 54 38 24
248 554 218 77 31 37
344 476 382 53 37 24
349 475 378 53 38 24
354 469 328 59 45 29
358 471 323 61 45 31
309 634 328 59 27 31
359 470 328 60 45 30
354 469 333 59 45 28
359 469 333 60 45 29
409 569 248 148 16 39
402 424 283 92 22 32
360 472 322 62 46 31
410 895 278 78 65 62
364 471 325 63 45 31
431 621 320 190 124 97
364 470 328 62 45 31
301 929 346 176 135 114
370 471 324 65 45 33
379 644 317 97 22 38
364 475 378 58 34 25
369 468 333 64 42 32
349 929 377 60 55 54
364 473 323 63 46 32
369 473 323 65 46 32
354 469 338 59 45 28
259 518 398 40 27 28
448 496 390 114 86 65
359 468 338 61 44 30
359 468 343 63 43 30
402 546 380 199 137 120
418 494 258 74 30 33
379 579 217 51 34 38
392 447 338 81 16 32
359 469 348 65 41 29
408 865 243 60 57 58
364 468 338 63 42 30
414 804 304 62 51 45
368 467 343 67 37 30
364 468 348 69 37 30
335 858 274 174 120 89
474 786 282 72 59 49
369 467 353 73 33 29
379 465 333 69 40 39
385 460 334 67 25 31
384 459 338 71 23 29
422 878 281 59 50 54
381 461 343 73 22 28
291 732 240 105 11 22
379 463 348 77 23 28
381 461 348 80 19 27
374 470 323 66 44 33
447 847 334 38 34 30
444 870 328 89 71 63
374 467 332 67 41 36
380 466 323 70 49 43
264 689 322 162 113 89
377 468 323 67 45 35
377 467 327 70 46 42
304 485 403 61 31 27
384 464 328 76 55 55
265 564 378 85 18 31
334 837 255 160 115 92
369 958 347 53 49 49
349 845 321 127 102 77
245 523 368 91 21 37
371 466 338 66 37 31
374 465 338 67 34 31
351 921 251 82 74 74
370 466 348 72 33 29
374 465 348 74 30 29
438 659 268 110 87 61
286 836 305 192 138 113
374 465 353 76 29 28
349 479 393 51 34 24
354 470 358 61 41 28
359 470 358 65 39 28
354 471 362 59 41 28
359 471 363 64 39 28
357 472 365 59 40 28
364 469 358 70 36 28
405 663 267 54 35 35
349 488 468 120 24 46
364 470 363 69 35 28
369 469 363 74 31 28
235 539 243 168 11 44
406 694 238 62 43 42
369 471 367 72 30 27
364 472 369 64 36 27
430 724 222 63 48 39
279 819 263 173 120 93
354 474 373 55 39 26
359 474 373 56 39 26
314 699 339 144 12 45
354 476 382 52 36 24
354 477 384 52 36 24
479 793 293 72 59 47
359 476 382 54 36 24
239 524 228 88 31 38
364 473 373 62 36 26
345 894 238 86 76 75
369 473 373 67 29 25
386 527 386 77 30 40
364 476 382 57 33 25
364 477 384 57 33 25
382 462 354 81 19 27
354 539 189 164 2 34
466 744 260 56 42 30
383 462 358 80 17 28
375 466 357 78 26 28
379 469 368 78 16 26
384 464 363 84 8 28
387 833 219 85 65 49
384 468 368 81 7 27
242 534 223 67 33 38
415 549 258 76 28 36
378 508 412 157 16 50
447 694 296 165 109 80
374 475 378 68 22 25
380 471 371 75 15 25
384 470 372 76 11 26
374 499 448 95 26 38
269 689 278 45 34 38
379 472 374 74 16 25
379 477 383 67 20 26
434 500 343 88 25 31
384 475 378 71 14 26
259 784 262 148 102 65
384 476 381 69 16 26
384 478 383 69 17 26
388 569 219 141 14 40
289 479 388 46 34 27
271 511 397 108 13 34
374 505 418 161 16 55
284 489 388 44 28 30
285 484 388 56 29 33
355 575 339 166 12 51
285 489 393 43 29 30
432 509 423 43 27 21
242 555 299 107 10 38
287 487 394 77 28 35
290 485 397 63 23 29
459 704 233 70 55 43
288 488 399 93 19 35
281 495 387 77 32 35
282 492 385 50 18 26
309 754 338 70 33 39
281 506 402 120 3 39
380 519 196 49 35 38
282 494 388 81 28 36
283 494 393 41 27 30
285 494 398 85 23 34
286 495 402 123 10 40
288 494 404 119 8 39
401 926 291 77 67 65
279 499 388 35 28 30
276 501 386 31 33 32
280 500 392 37 27 29
456 704 278 140 97 64
273 507 389 105 16 34
273 508 393 105 14 33
279 505 398 114 7 37
487 834 318 101 80 65
420 546 305 64 26 40
276 506 396 111 9 33
309 814 247 83 65 58
276 607 230 203 12 52
278 507 399 114 5 36
254 558 210 151 17 39
379 686 220 70 59 50
283 503 398 118 5 36
275 510 401 111 7 36
287 694 246 80 32 39
242 638 340 164 116 90
279 509 403 116 3 36
285 504 408 118 8 37
286 501 406 120 8 37
259 724 325 178 124 100
283 508 408 120 5 37
278 539 448 82 21 35
259 574 388 182 127 107
284 509 413 112 11 36
288 504 418 67 17 28
389 463 327 86 68 70
287 507 420 71 19 31
382 582 331 182 11 56
286 510 422 54 23 27
509 864 328 88 70 57
294 480 392 55 35 27
299 476 387 59 33 30
299 480 393 64 43 31
304 476 387 60 31 30
304 477 389 62 36 31
459 799 297 145 102 79
304 480 393 65 44 32
401 422 278 98 22 34
395 840 213 103 80 69
309 476 387 62 38 31
354 629 327 97 30 44
309 477 389 62 38 31
309 479 393 64 45 31
363 906 241 80 70 70
314 476 386 60 38 29
309 889 298 159 118 90
272 679 272 106 26 40
414 558 367 196 128 105
414 709 318 36 31 34
314 477 389 60 38 29
319 476 386 58 39 28
387 854 296 46 39 34
290 481 391 53 35 27
432 506 300 151 22 45
412 734 321 101 26 42
293 482 394 55 31 29
294 485 398 54 29 27
299 483 398 59 35 29
304 483 398 61 39 28
294 489 403 54 28 24
296 486 401 56 26 30
398 529 219 110 18 34
373 860 316 124 100 81
295 491 407 68 23 25
299 495 463 130 10 42
303 487 405 66 28 28
246 543 214 173 4 45
299 490 408 70 29 26
358 869 222 90 73 65
253 580 432 187 115 100
298 492 410 74 31 23
250 592 316 75 20 33
256 578 424 184 118 100
300 491 411 72 27 28
293 497 414 65 17 26
310 481 397 61 42 28
407 870 234 65 59 61
309 482 399 60 38 28
309 484 403 62 30 27
270 559 209 176 9 42
304 929 298 57 53 54
442 504 380 74 38 39
310 486 407 62 29 26
309 488 409 62 29 26
314 484 403 59 32 24
319 483 403 59 33 24
313 487 410 62 26 26
400 635 294 134 13 42
272 567 452 83 22 32
316 486 411 61 26 24
318 868 345 96 60 63
320 510 413 186 12 59
380 601 320 193 11 63
290 500 417 75 14 31
300 501 438 75 12 26
294 499 418 85 11 29
292 502 420 87 11 27
294 503 423 87 2 30
294 505 428 84 12 30
291 506 426 81 17 29
291 510 431 80 6 24
292 508 429 81 13 29
329 519 393 179 13 56
299 498 419 82 12 31
254 548 444 51 36 35
299 500 423 78 3 27
237 531 236 42 37 36
379 614 229 116 30 43
425 529 377 141 92 66
396 771 320 81 63 57
304 498 423 83 12 31
314 764 332 81 67 61
298 502 425 77 1 25
324 630 231 63 30 36
299 503 428 81 12 30
247 546 217 173 4 43
301 501 428 80 14 28
359 489 468 146 22 49
304 500 428 79 12 29
374 769 203 72 55 47
300 501 433 75 11 27
302 502 428 77 13 28
291 511 440 89 9 37
293 509 438 90 5 29
276 812 260 184 128 95
296 506 438 88 12 27
367 542 361 78 39 44
291 511 448 96 26 42
479 724 248 90 69 50
296 506 443 84 1 27
295 510 448 45 22 28
298 503 438 82 13 28
304 499 448 186 14 58
384 497 433 98 15 35
305 510 434 184 18 58
386 464 315 67 45 41
304 509 438 184 17 57
385 374 283 133 103 69
395 420 313 88 19 32
299 509 443 144 18 48
298 508 447 101 18 37
303 508 442 182 17 54
509 808 310 91 74 59
309 495 422 78 15 27
314 490 418 62 25 27
314 493 423 71 16 26
334 745 231 85 30 35
334 714 340 172 13 55
439 744 304 168 119 86
314 495 428 72 15 24
319 495 433 68 19 26
315 496 433 73 20 23
319 495 438 118 30 49
471 801 276 83 64 57
442 636 290 120 93 61
315 495 443 57 22 30
399 729 192 68 54 45
299 764 332 74 62 56
319 490 448 122 16 43
241 630 337 150 109 76
319 493 443 137 17 49
308 497 424 81 13 29
311 496 426 77 15 27
257 809 320 181 130 104
384 504 413 144 15 45
306 511 429 181 18 57
308 509 432 183 15 57
310 505 434 135 16 47
311 506 430 155 16 57
319 503 423 94 22 38
369 871 221 82 70 67
319 500 428 112 23 42
240 569 292 155 6 47
315 505 424 45 26 28
320 505 419 115 17 40
324 764 332 81 65 58
313 507 428 74 20 31
309 504 438 144 17 49
311 496 435 84 16 31
294 519 189 151 2 33
313 534 397 146 7 45
309 499 443 125 19 40
309 497 447 149 17 49
269 818 321 190 146 121
313 502 437 52 19 28
317 502 432 33 28 26
264 759 322 181 129 102
313 498 442 95 19 39
384 928 367 60 54 52
312 497 446 67 25 33
432 618 321 187 124 98
284 534 433 170 9 54
290 510 454 156 18 52
288 509 458 117 20 43
412 485 354 66 21 29
252 536 402 74 22 35
401 610 246 121 30 43
406 467 343 76 33 37
285 505 464 159 16 49
288 508 463 68 15 28
289 504 468 169 18 53
284 505 468 152 16 46
284 504 473 147 14 46
286 501 470 140 15 43
474 779 273 70 56 46
309 551 398 66 25 34
289 504 473 174 17 54
345 829 243 62 53 51
433 842 308 38 33 30
369 498 443 99 25 40
285 504 477 146 16 48
286 501 477 151 16 50
284 509 468 128 16 43
288 724 334 168 14 53
459 869 368 79 62 46
288 507 468 155 15 47
283 509 477 126 16 42
442 533 399 189 126 105
281 508 473 121 11 46
290 508 473 172 18 56
300 495 460 179 15 57
295 496 468 134 11 44
389 629 308 163 14 52
295 491 474 133 19 45
300 490 469 142 21 42
267 669 316 162 109 91
299 494 468 149 17 49
449 793 240 69 51 45
304 494 468 183 14 58
302 494 471 185 13 61
354 930 374 47 43 42
294 499 463 138 9 44
268 634 348 181 123 100
424 527 337 106 27 43
294 505 458 182 15 57
409 529 348 134 20 45
395 841 226 104 77 71
302 502 452 183 12 56
375 503 428 168 17 54
299 499 463 176 17 55
296 499 460 107 23 32
299 503 458 182 16 56
298 502 462 182 16 57
304 499 458 184 16 57
344 671 331 88 20 37
461 753 284 147 101 66
237 744 298 168 113 88
303 498 462 182 17 57
296 506 450 37 26 33
344 490 453 68 27 35
241 688 316 181 124 99
293 499 472 181 17 58
407 872 243 61 55 55
294 503 468 182 15 58
293 504 472 181 13 57
281 674 254 131 11 39
419 794 306 47 39 37
349 593 215 158 15 42
298 497 471 183 14 59
306 496 453 186 8 58
415 520 366 95 31 33
311 491 454 183 16 59
307 494 458 187 11 61
310 491 458 184 15 61
310 491 463 184 15 57
411 560 294 91 26 42
315 491 453 167 19 56
308 586 350 165 17 54
377 871 316 58 50 43
347 869 258 47 42 43
313 492 452 179 19 59
253 619 263 107 28 42
243 599 278 78 30 40
386 507 438 94 24 36
314 490 458 143 17 49
355 774 223 54 46 44
439 804 303 158 111 85
314 489 463 156 15 52
307 497 458 184 12 56
309 489 468 181 16 58
308 487 471 166 26 58
398 695 332 113 13 38
414 534 408 169 110 106
311 486 470 171 18 54
313 488 467 171 16 57
255 573 468 113 29 46
242 584 288 156 7 46
313 485 471 172 19 54
369 779 323 77 62 55
237 749 288 163 111 84
319 486 468 170 18 56
359 744 227 103 25 31
319 485 471 167 18 53
461 729 269 119 86 51
324 477 388 57 39 26
365 874 328 96 78 61
326 477 385 57 40 26
329 477 385 55 39 25
409 529 343 119 21 43
329 479 393 56 37 24
414 508 418 67 17 26
328 549 373 44 27 31
334 477 385 54 39 24
334 479 393 55 37 24
339 477 384 54 38 24
339 478 388 53 38 23
388 690 209 56 43 39
349 783 215 70 56 50
344 477 384 52 37 24
344 478 388 52 36 23
329 480 398 57 35 25
414 839 243 60 51 52
330 501 415 91 20 37
317 512 412 186 12 60
334 480 398 56 35 26
324 482 403 59 33 25
326 481 401 58 35 26
415 474 263 100 22 33
329 481 401 58 33 25
329 482 404 59 32 26
254 704 280 120 89 55
382 535 358 67 22 31
329 483 408 60 29 26
254 702 281 120 88 54
329 484 413 60 27 26
247 810 292 191 130 101
334 483 408 60 28 26
334 484 413 61 25 26
330 511 400 174 15 55
386 384 284 131 102 68
414 704 204 69 52 39
324 509 408 178 14 57
325 511 404 187 8 58
329 509 403 184 12 58
323 508 412 179 17 58
321 511 410 188 9 59
330 505 409 169 17 55
334 504 408 118 18 44
275 550 458 129 12 42
334 501 414 80 22 35
336 501 410 51 22 36
334 508 402 182 15 57
241 592 268 58 19 28
339 482 404 59 29 26
339 483 408 60 26 27
344 482 404 57 29 26
409 539 343 82 19 31
344 483 408 58 26 27
339 484 413 60 24 28
344 484 413 57 24 28
438 669 264 111 88 62
349 481 401 55 31 25
339 509 398 128 18 45
341 506 400 179 16 58
344 505 399 167 21 57
341 511 395 57 27 30
344 510 394 62 24 32
346 511 390 107 32 52
350 510 389 126 25 47
330 947 270 81 74 75
339 503 408 121 21 44
344 504 403 175 16 57
344 502 407 170 19 56
258 830 293 226 152 122
299 909 333 95 79 70
339 500 413 64 25 32
340 501 410 146 27 52
320 793 240 78 61 53
338 502 412 89 26 41
344 501 409 153 21 54
257 547 353 134 5 38
284 518 438 76 0 25
324 644 328 166 19 54
338 507 401 178 16 53
241 547 301 166 12 52
349 501 409 115 17 43
349 502 408 150 17 49
349 500 413 51 27 29
323 487 419 61 19 32
324 488 423 60 21 26
329 487 424 63 20 30
324 490 427 68 20 28
329 494 433 118 23 45
246 558 230 165 12 45
334 485 418 61 23 27
318 550 187 89 36 43
487 714 247 103 81 62
449 839 318 58 50 43
245 559 233 155 18 42
334 486 423 64 21 29
330 491 431 83 28 39
330 496 424 130 32 53
334 495 428 86 26 37
392 574 225 107 19 36
468 802 294 79 70 62
236 514 234 139 6 37
329 493 438 43 24 28
324 490 448 86 23 35
387 501 444 86 11 29
324 491 445 87 28 38
324 493 443 39 23 28
328 492 443 32 28 27
293 804 251 79 62 56
330 491 443 35 27 27
334 491 443 43 26 29
385 502 468 82 28 36
334 489 448 55 27 34
323 503 418 141 20 49
284 714 328 144 14 46
394 560 324 78 23 34
323 502 421 138 22 55
475 774 257 104 75 59
329 499 422 125 24 49
398 728 336 143 18 50
439 500 408 54 23 27
317 512 416 183 17 61
370 950 354 61 56 55
320 884 357 138 102 84
334 850 267 166 111 84
329 500 418 87 24 36
474 854 357 84 66 52
387 457 337 68 20 29
329 502 417 85 21 34
324 499 428 96 25 42
323 497 433 34 25 27
323 502 426 117 21 39
328 498 427 81 27 36
333 498 422 96 26 39
333 502 416 135 35 57
339 485 418 59 23 28
407 871 230 65 60 63
344 484 418 56 23 28
398 515 409 159 11 50
339 719 339 158 19 54
477 784 268 103 77 63
344 486 426 60 21 26
344 495 428 54 27 30
339 489 433 71 15 30
344 488 433 82 15 31
344 495 423 86 23 40
339 494 428 52 27 29
339 493 433 82 23 34
344 493 433 104 18 41
349 485 418 53 24 25
349 486 423 52 24 25
445 790 237 72 53 46
348 486 426 55 20 25
349 487 428 75 19 30
313 540 407 86 16 34
402 564 329 73 27 36
349 488 433 73 16 26
349 496 423 124 21 47
349 495 428 73 23 32
399 874 244 63 55 56
349 494 433 130 21 48
344 489 438 107 17 39
339 489 448 95 27 41
340 490 438 58 16 26
339 492 438 69 24 33
289 519 190 145 3 34
344 493 438 157 21 53
336 492 441 39 24 24
349 494 438 155 18 50
348 490 447 84 19 36
263 514 202 72 23 31
338 880 361 155 120 93
339 498 418 88 25 37
237 554 247 44 31 34
336 496 420 78 20 28
242 679 292 144 101 70
338 497 422 81 30 42
346 497 426 67 22 25
456 724 284 159 105 72
349 497 428 67 17 33
422 549 279 115 8 30
374 479 388 62 25 26
384 480 388 68 19 26
339 844 318 78 61 40
354 481 398 53 32 24
369 481 393 62 29 26
364 481 396 66 31 27
304 544 193 138 15 39
324 719 343 162 0 51
364 482 398 72 31 28
369 483 398 71 29 28
414 693 228 87 56 40
354 482 403 58 30 26
416 484 378 120 9 36
368 936 267 82 77 80
302 904 307 165 119 98
354 483 408 59 28 25
417 534 254 52 36 37
359 483 403 69 30 28
359 484 408 66 29 26
359 485 413 59 30 24
248 814 308 192 134 109
364 484 403 78 30 29
249 529 408 73 26 34
364 485 408 75 31 28
369 488 413 73 32 29
356 511 385 51 19 28
359 509 388 50 26 29
359 507 393 37 26 28
425 502 411 50 19 23
354 507 396 30 27 30
360 506 395 77 31 40
253 824 293 208 142 113
358 507 396 32 25 25
364 511 385 60 28 30
364 510 388 49 28 29
360 495 437 153 18 50
369 510 388 40 27 30
260 567 487 194 21 65
416 736 204 46 40 40
306 744 235 119 25 37
308 854 333 168 123 102
369 508 393 87 29 38
250 625 319 95 75 52
364 506 395 53 29 31
262 589 338 82 20 36
409 874 363 46 42 41
364 505 398 47 24 27
247 569 313 96 22 36
367 506 395 31 27 24
369 506 398 41 23 28
366 507 397 32 24 25
369 508 398 53 26 30
354 503 403 131 20 47
280 602 225 188 7 41
354 502 406 168 16 54
359 503 403 122 19 42
418 557 291 80 28 38
259 538 429 66 23 27
364 504 408 157 16 50
359 501 408 160 16 51
442 704 301 165 111 80
304 649 325 166 16 51
364 503 403 93 18 35
453 838 323 46 38 33
248 804 283 186 125 97
369 504 403 99 19 38
399 884 253 63 56 57
360 502 415 161 16 54
374 481 392 62 26 26
379 481 392 64 23 26
384 481 391 66 19 26
261 556 491 70 0 24
279 699 315 46 24 26
379 482 394 63 23 26
421 648 301 173 119 102
379 484 398 64 23 26
395 534 217 44 34 39
384 483 393 65 19 25
391 522 397 117 23 44
384 485 398 64 20 25
374 485 403 74 27 29
373 486 406 79 30 29
379 684 213 72 55 46
378 486 402 70 24 28
248 553 363 41 29 30
271 646 325 161 107 90
241 524 219 58 35 37
379 489 408 76 26 29
296 685 326 39 27 29
425 517 437 84 5 28
384 490 408 72 25 28
317 560 196 93 28 33
374 507 398 35 25 25
384 694 205 66 51 39
382 511 394 126 17 45
240 669 298 154 107 78
384 510 398 151 14 49
370 508 402 41 25 27
374 508 403 78 18 34
375 508 408 155 16 48
379 499 414 130 19 43
349 514 178 165 4 35
255 604 372 175 122 98
379 505 403 152 16 50
415 474 303 88 25 36
379 507 402 140 14 46
378 508 409 156 16 49
385 509 402 158 14 51
452 764 301 155 113 78
384 506 404 157 15 52
377 528 195 45 37 42
355 487 424 56 29 25
265 639 263 131 15 45
359 487 423 53 31 25
255 630 304 56 39 31
389 491 406 57 24 26
354 487 428 66 24 27
426 870 282 61 50 53
269 833 283 227 156 126
359 489 428 52 30 23
413 813 230 65 53 48
280 592 220 166 0 30
369 569 343 92 27 39
359 490 432 58 26 27
364 488 418 56 32 24
244 564 238 54 33 35
364 489 423 54 32 24
464 769 233 90 69 52
260 594 323 84 27 39
251 641 295 78 59 44
252 552 357 30 30 32
368 491 423 53 32 24
344 709 227 118 16 31
416 583 302 73 31 36
388 888 249 62 54 57
318 961 296 79 77 80
364 494 428 111 21 40
239 584 268 175 0 46
293 841 294 44 37 38
438 643 307 194 129 99
367 491 426 56 30 23
369 609 324 110 30 43
369 494 428 70 27 28
354 494 444 173 16 54
354 494 448 179 16 58
355 849 243 58 51 51
359 494 444 164 16 52
359 494 448 167 17 53
364 494 438 109 21 40
369 495 438 74 31 28
364 495 444 132 16 44
364 494 448 155 17 50
369 496 442 80 21 33
339 594 214 190 7 41
354 498 423 71 21 32
354 497 428 82 26 41
284 654 314 110 16 38
389 669 318 142 4 44
358 496 425 75 24 35
415 534 358 129 89 67
360 502 416 164 16 53
364 502 418 160 16 53
369 499 423 166 17 54
369 505 418 159 16 53
370 503 423 166 17 53
386 507 406 160 16 55
369 499 433 111 16 40
442 709 239 86 65 46
361 497 443 179 19 56
247 605 262 72 27 37
409 451 372 102 15 32
364 498 443 154 19 52
371 492 420 58 32 26
314 634 233 100 27 37
405 874 333 37 34 32
374 494 418 80 28 31
374 494 423 61 31 28
374 495 428 65 30 29
377 496 416 154 20 51
374 495 438 70 32 24
405 854 238 58 52 54
374 500 423 155 17 50
384 714 342 134 20 49
374 500 428 165 16 55
373 504 423 169 17 56
376 507 422 167 17 57
473 846 347 50 42 36
409 479 389 57 18 21
379 499 423 109 17 38
384 498 418 79 21 29
409 508 428 93 16 32
384 498 423 74 21 31
385 569 217 160 10 38
380 505 418 121 15 43
384 505 418 105 16 39
294 614 328 34 26 26
404 678 248 54 41 48
232 549 278 175 0 49
379 496 433 82 24 32
384 498 428 83 19 33
382 496 432 91 18 32
237 754 288 167 113 87
384 504 433 153 19 52
384 507 418 157 16 50
441 688 300 166 113 82
384 505 423 105 21 42
262 530 206 136 1 29
357 589 336 114 22 42
374 500 438 126 19 46
314 869 343 126 103 103
375 502 437 145 20 52
377 655 240 74 34 29
379 499 438 97 19 36
439 509 348 175 20 51
379 500 443 107 17 37
384 504 443 114 19 43
329 487 458 87 18 32
325 486 464 163 18 56
329 486 463 88 21 36
329 489 453 47 26 28
334 488 453 57 25 32
334 487 458 92 20 35
333 486 459 117 24 45
284 838 303 192 138 113
421 866 345 35 32 32
334 486 463 137 22 49
327 882 291 112 83 58
321 486 465 180 21 64
354 764 229 87 47 46
434 834 298 34 29 27
329 485 468 110 22 40
344 489 458 111 24 44
349 489 454 53 29 33
414 844 287 28 26 27
344 485 464 74 26 34
379 942 363 67 58 54
410 449 293 82 23 31
349 489 458 78 26 36
350 492 453 43 25 30
254 549 358 53 23 28
339 485 467 139 19 49
340 487 466 72 20 30
398 410 283 117 25 40
416 876 261 79 65 61
345 486 471 66 29 36
458 739 283 154 104 70
474 781 276 66 53 43
350 487 471 154 25 55
354 493 453 127 19 46
417 474 298 88 24 35
259 699 281 113 81 51
359 494 453 177 17 58
355 492 457 87 18 36
411 453 298 51 29 33
359 493 458 175 17 56
394 468 322 78 56 56
363 491 454 134 21 44
444 499 396 69 23 27
363 491 458 115 25 37
364 494 458 176 16 58
329 892 282 103 75 46
374 904 243 69 61 62
367 491 464 94 23 29
369 494 458 150 17 47
369 494 463 159 14 53
264 584 393 178 120 99
354 488 468 165 21 55
300 710 342 72 27 36
296 923 332 183 140 119
404 819 299 57 45 42
445 664 283 134 98 63
359 490 471 156 18 50
364 490 468 112 23 39
330 968 298 95 91 92
259 582 429 194 122 106
361 492 467 170 19 58
394 885 252 64 57 59
368 491 468 92 21 28
365 492 471 158 21 52
389 507 418 164 16 51
369 498 453 173 20 57
366 497 456 187 19 63
289 764 329 53 44 43
389 495 413 59 27 27
373 496 449 83 27 33
374 495 458 116 19 35
378 496 463 91 19 27
338 923 375 45 41 40
374 495 468 119 22 39
374 498 453 140 18 49
370 497 462 190 16 61
259 779 263 124 88 53
374 498 458 183 16 60
334 580 349 191 7 59
378 496 453 84 29 30
378 496 458 110 26 34
259 659 288 109 75 47
384 499 458 89 21 30
384 919 263 70 62 63
379 499 468 145 24 49
383 500 467 104 21 38
387 257 265 142 102 68
433 518 346 112 15 39
386 261 266 142 102 68
387 263 269 140 102 67
431 503 303 94 26 37
388 264 273 133 97 64
439 512 426 135 89 81
245 604 273 156 20 48
389 259 273 133 99 63
484 834 328 87 72 58
329 709 228 101 27 35
386 270 272 134 97 64
390 259 283 131 96 65
389 264 283 132 96 65
387 375 269 127 101 71
383 859 303 52 44 38
388 264 288 131 97 67
388 269 283 135 98 66
241 519 218 41 31 33
387 273 283 135 96 65
386 275 283 136 96 66
309 799 244 82 65 56
377 827 306 153 119 98
334 973 328 72 68 67
386 274 288 139 99 70
386 270 289 136 99 68
386 369 273 127 100 69
314 729 347 182 7 58
415 821 295 50 42 39
386 379 262 126 100 70
386 382 261 125 99 70
412 588 262 38 32 35
246 527 332 75 26 36
387 379 273 128 101 70
440 825 297 40 32 28
388 384 273 128 101 69
399 488 399 58 16 25
387 379 278 131 102 69
412 550 334 38 29 29
386 377 280 132 102 68
394 565 318 60 25 30
387 384 278 130 102 70
429 500 318 92 25 31
413 538 322 67 25 35
386 379 283 133 104 70
385 379 288 132 103 69
295 570 364 55 26 31
387 380 281 132 103 68
398 521 405 171 14 55
387 384 282 131 102 69
386 384 288 129 101 68
395 746 330 66 49 48
387 385 260 125 100 72
387 389 260 123 99 72
388 394 258 118 96 72
389 394 263 124 100 72
414 870 348 35 33 34
390 398 263 117 96 72
389 394 273 127 101 70
390 399 268 121 97 71
388 389 278 129 101 69
387 389 283 128 101 69
386 387 285 129 101 69
386 389 289 126 99 68
441 747 226 50 42 38
388 394 278 127 101 69
388 394 283 126 99 69
419 543 378 185 122 94
406 875 338 36 32 31
388 399 288 119 95 67
392 401 258 99 84 68
442 519 389 135 99 73
396 408 258 50 35 36
396 408 263 74 35 40
394 404 268 95 64 49
394 405 273 86 66 50
396 407 268 102 33 41
397 410 263 90 29 37
324 966 338 63 58 57
398 414 258 65 31 35
399 414 273 51 33 33
452 523 413 176 122 110
391 403 278 113 90 66
290 604 338 70 25 35
390 404 288 108 87 65
391 407 289 92 72 56
319 739 231 81 33 39
394 503 433 72 23 28
393 405 278 87 66 50
392 406 282 89 69 54
394 408 283 86 45 39
394 410 288 87 42 39
243 559 433 146 94 82
398 410 288 113 26 39
245 804 298 190 132 104
425 878 366 72 59 50
400 414 283 115 17 36
384 780 319 75 59 54
386 389 293 125 99 68
386 393 294 123 97 67
362 890 346 72 58 42
387 395 292 123 97 68
387 400 297 121 96 66
389 404 293 110 87 63
335 904 263 62 51 50
396 430 328 95 6 31
422 892 339 67 58 56
418 744 316 68 40 40
391 408 293 89 69 53
414 509 423 83 13 31
404 509 432 108 18 38
409 869 323 33 30 30
388 404 298 112 89 63
243 719 282 131 96 64
390 409 298 85 68 50
399 415 303 74 25 33
379 829 217 75 60 52
464 819 278 83 66 58
389 414 307 80 49 35
395 415 307 106 18 38
400 424 258 56 33 33
231 519 244 133 6 36
400 419 268 100 25 37
398 459 318 63 20 28
400 419 273 100 21 36
242 707 286 136 99 70
263 804 267 180 123 89
401 428 258 69 36 39
402 430 258 63 34 33
346 768 230 71 54 49
395 844 205 79 63 60
414 464 268 127 13 37
402 426 269 51 35 39
463 739 247 90 80 72
403 429 268 42 34 35
402 425 273 63 31 33
401 419 283 123 11 34
401 419 288 122 12 36
412 701 316 85 19 40
401 422 283 111 19 36
403 429 288 121 14 36
453 514 403 160 116 96
245 519 203 145 7 37
404 434 263 69 32 33
321 920 270 78 65 60
404 434 273 85 24 34
406 439 273 130 14 38
412 868 244 58 52 56
406 444 258 72 33 36
375 813 215 69 58 56
389 493 409 57 26 27
344 879 357 159 124 97
407 445 263 48 31 33
261 536 432 98 12 34
406 447 256 64 36 37
407 449 258 93 31 39
419 538 407 202 137 121
374 854 313 128 103 82
382 872 314 40 35 31
409 449 273 122 15 35
403 510 466 191 35 71
406 439 278 118 10 33
406 439 283 116 8 31
407 441 274 122 7 36
384 699 208 72 54 43
448 684 268 113 89 63
300 914 308 162 127 101
407 441 278 112 8 29
408 444 278 118 10 32
414 588 342 199 135 112
407 441 283 120 8 35
407 444 288 120 8 34
389 418 309 88 31 32
365 935 267 82 77 80
269 759 322 180 126 99
388 420 312 86 28 32
389 424 314 92 20 31
388 428 315 91 21 30
389 429 318 96 15 30
261 556 479 86 23 26
389 483 393 66 16 26
390 426 316 98 16 32
309 567 366 175 16 58
400 418 308 119 15 37
454 870 372 85 68 52
427 510 284 65 30 31
399 419 313 109 18 38
458 837 305 78 62 53
399 420 318 75 23 31
396 420 316 78 18 30
389 439 313 90 9 29
386 433 316 87 26 28
248 638 303 86 70 51
389 434 318 99 11 30
389 441 310 85 20 31
389 444 308 77 15 28
386 447 310 67 28 27
389 448 309 69 21 26
392 434 320 101 4 31
394 444 313 94 9 32
485 805 301 91 69 55
393 448 309 75 19 27
395 444 318 102 12 37
396 448 318 93 28 40
283 664 252 143 1 36
402 420 294 123 13 38
402 424 293 94 25 36
401 418 298 103 19 36
324 521 390 185 7 59
401 424 314 89 21 35
402 424 303 72 29 34
296 801 320 49 42 41
404 429 303 80 21 33
402 424 308 97 23 37
420 534 263 41 32 35
410 454 268 116 14 34
402 421 318 93 23 38
403 429 308 120 20 40
320 532 175 50 35 40
401 428 315 42 31 31
404 434 293 125 9 34
398 700 336 63 22 31
294 557 387 51 28 32
404 434 298 133 12 38
405 434 303 134 11 36
406 438 298 128 9 34
407 440 298 130 9 36
407 440 303 132 9 40
408 444 298 121 11 37
243 624 343 151 109 79
344 639 232 76 33 35
242 785 304 177 124 95
410 449 298 61 27 31
406 439 308 119 10 36
241 699 313 173 117 93
405 439 313 125 15 41
418 479 298 129 16 40
404 439 318 52 27 31
241 694 316 178 119 96
407 441 307 134 11 38
408 444 308 124 10 36
406 444 318 40 31 32
408 449 313 108 19 37
400 421 322 92 22 34
397 428 328 82 14 30
392 953 318 58 53 53
398 429 333 86 13 30
396 431 331 97 4 24
309 774 328 74 63 57
364 524 187 60 33 39
393 434 323 97 4 31
290 695 327 75 25 35
394 439 323 101 0 31
394 444 328 98 0 32
394 449 328 89 0 27
385 894 244 65 56 57
254 624 317 83 65 42
392 449 333 80 7 29
457 832 313 58 50 43
394 444 338 76 14 33
243 574 298 36 28 32
392 447 343 101 7 30
429 739 219 51 43 38
431 531 325 201 18 62
399 442 340 119 14 35
226 522 267 52 23 28
331 924 255 77 68 68
395 444 348 107 1 34
393 448 348 102 3 30
274 764 321 164 113 88
259 614 368 187 127 105
393 449 353 100 0 30
400 440 353 81 10 30
402 421 321 78 23 38
402 429 323 46 28 33
241 704 312 172 117 93
389 454 353 92 6 28
397 458 370 78 1 30
242 555 438 66 35 32
244 629 348 165 115 90
403 429 328 103 22 37
404 459 343 71 29 35
259 645 344 189 129 103
401 426 336 75 21 32
418 759 208 64 51 46
254 568 353 58 23 34
402 426 337 100 18 33
403 439 323 65 30 34
403 439 328 56 26 31
330 942 371 64 58 57
404 434 333 90 23 37
403 439 333 59 29 34
353 608 336 36 28 32
405 449 323 120 17 40
359 794 218 56 46 43
405 449 328 140 12 42
404 434 343 91 19 33
364 849 318 143 112 88
405 434 338 98 21 37
384 739 335 116 28 47
404 435 352 95 17 38
440 634 309 185 125 99
403 438 353 86 12 33
407 436 349 60 24 33
407 439 353 54 26 31
404 444 343 112 19 37
404 449 338 147 17 43
405 444 348 69 29 32
407 442 350 92 24 37
406 445 352 129 21 44
369 744 334 76 61 56
398 444 358 100 4 33
326 868 290 160 112 82
448 853 313 81 65 59
400 441 362 92 11 28
369 577 336 188 17 62
263 584 348 131 6 42
262 577 459 89 23 38
397 448 364 102 2 34
290 578 210 174 22 50
407 440 356 52 30 33
353 512 386 117 21 43
406 444 359 51 29 32
259 520 403 35 27 28
402 441 362 98 12 31
404 444 363 96 13 35
404 448 368 104 9 33
390 673 319 140 4 43
411 453 273 93 17 29
316 537 395 152 1 44
419 529 413 157 99 96
334 951 365 79 73 71
411 458 263 121 17 37
416 487 372 104 10 33
411 463 257 96 28 37
412 465 259 77 27 32
399 509 463 138 24 47
304 768 331 75 63 57
412 461 260 115 21 31
314 549 398 169 17 55
412 456 273 91 22 29
250 614 293 170 1 48
413 459 273 110 17 32
296 910 328 101 88 78
309 884 299 154 116 87
411 453 283 93 25 35
385 774 204 76 57 47
411 453 288 60 25 29
414 459 283 88 28 37
413 459 288 104 23 37
415 464 283 91 23 35
415 469 268 106 20 32
416 469 273 87 25 35
272 542 460 119 15 39
250 560 333 34 30 33
420 875 284 54 44 50
389 454 313 60 29 31
389 459 312 62 38 36
391 459 310 64 43 40
344 544 187 57 34 39
242 594 278 156 14 47
391 463 310 67 50 45
278 659 256 161 0 41
394 454 312 62 19 27
398 454 313 72 22 30
248 784 272 179 119 88
397 450 318 89 25 37
445 851 357 40 35 32
397 454 318 79 22 31
393 459 310 65 46 42
270 625 354 183 121 101
396 459 312 66 48 46
397 464 314 71 55 51
389 469 314 70 51 46
386 468 318 71 53 49
397 468 315 72 53 50
398 469 318 75 54 52
427 527 284 147 28 49
394 471 319 78 59 57
339 754 332 78 62 54
394 473 318 74 55 51
412 455 293 57 29 32
412 455 298 48 30 30
413 459 298 56 31 33
414 464 298 35 31 33
407 557 240 156 17 42
279 614 234 194 10 46
414 464 303 65 29 36
411 454 308 84 24 35
411 457 310 63 28 34
414 538 407 194 133 123
412 459 308 61 28 32
413 464 308 74 26 35
413 469 308 78 25 35
411 469 314 112 25 44
410 469 318 91 25 37
373 902 357 35 31 33
412 474 312 82 28 35
410 614 318 170 111 98
416 479 304 104 22 36
470 855 342 92 76 60
369 809 217 63 51 44
414 479 308 80 27 36
412 479 313 75 23 33
411 474 315 116 20 39
410 474 318 102 26 38
411 479 315 99 24 39
414 484 308 117 22 42
378 743 201 47 38 37
434 498 397 61 26 25
412 484 313 110 20 38
384 824 302 146 111 91
415 488 308 106 14 31
411 482 318 76 31 37
412 485 318 88 23 33
414 489 318 100 18 31
415 560 365 193 126 104
289 834 308 192 146 120
417 480 264 78 25 34
368 744 213 53 43 38
436 502 342 121 19 39
416 472 272 38 34 37
417 474 273 37 33 36
417 475 269 34 32 36
416 477 266 29 35 36
363 517 376 98 28 45
418 479 273 102 19 36
417 470 278 74 27 33
399 554 363 171 117 105
416 468 283 94 28 37
394 504 428 102 23 39
416 468 288 92 25 35
417 470 288 97 28 38
265 575 444 137 74 72
284 664 314 63 23 32
417 479 283 143 16 39
416 468 293 69 28 32
396 697 335 67 19 29
417 470 293 115 26 43
416 473 299 57 24 29
417 476 301 107 24 39
417 485 260 119 16 35
406 690 237 60 43 42
416 489 257 101 19 35
417 489 259 104 21 33
436 637 276 129 99 67
418 484 268 144 16 40
241 558 240 149 23 43
418 484 273 145 15 42
418 494 263 73 29 37
375 873 319 63 54 46
416 482 281 150 14 43
418 489 288 150 15 40
418 499 258 72 34 38
419 504 258 73 26 34
428 664 259 86 72 58
419 504 263 70 28 36
419 499 268 115 24 42
347 840 251 88 66 57
415 589 293 68 26 33
420 504 273 59 31 31
420 509 263 43 32 35
423 509 273 47 33 33
452 695 269 121 93 60
422 510 269 41 35 35
420 498 283 46 32 33
422 501 280 47 30 31
261 578 392 175 118 96
422 506 274 47 36 33
414 748 205 61 47 40
426 503 287 47 32 31
426 508 282 59 32 33
404 845 287 29 27 27
231 533 291 157 1 41
427 505 288 63 31 29
429 509 288 90 24 31
442 852 348 39 34 30
285 704 248 77 28 36
418 484 293 76 26 34
247 517 385 85 22 32
418 484 298 92 24 35
406 786 310 67 54 47
417 484 301 75 24 35
420 494 298 73 25 35
420 493 303 94 19 33
309 960 308 82 77 77
423 495 303 69 19 24
336 566 196 86 29 34
413 529 243 59 33 39
417 491 313 81 23 33
401 527 391 52 19 23
419 493 313 71 21 29
344 534 182 175 4 36
419 493 318 80 22 27
422 496 318 79 25 27
409 517 449 130 20 46
307 867 312 151 114 85
422 496 290 107 13 31
424 499 293 82 20 26
426 502 291 63 22 26
428 500 303 73 26 29
473 832 305 100 76 62
430 504 298 97 17 27
453 833 298 80 64 57
425 497 313 68 29 26
454 829 303 77 65 59
432 509 299 165 20 47
432 505 303 131 19 41
444 532 421 176 96 101
432 505 308 106 23 38
433 504 318 135 17 41
478 798 278 80 63 54
433 509 313 160 15 47
391 455 330 75 3 28
390 459 329 64 23 32
388 458 333 64 17 26
393 454 328 77 6 29
392 452 331 79 0 34
318 615 226 104 22 34
427 494 394 65 21 24
394 464 324 73 42 46
391 450 338 86 12 30
254 545 378 68 23 28
391 451 352 97 2 30
386 456 343 84 14 30
387 457 350 83 17 29
249 549 383 125 11 38
386 467 322 73 55 53
389 468 322 78 60 58
354 729 228 83 28 34
398 469 322 76 50 51
419 554 358 152 104 73
339 951 271 84 79 83
407 450 321 108 17 41
406 457 325 138 9 42
407 464 326 78 22 31
405 459 333 44 28 31
407 465 333 35 30 32
339 709 340 59 28 34
419 681 244 80 63 47
403 454 338 113 26 41
273 634 338 169 114 96
404 454 348 40 29 32
319 769 234 79 61 53
405 454 353 52 30 33
405 459 338 41 28 32
239 579 258 76 27 37
407 465 337 36 30 32
301 949 308 70 66 66
411 594 268 140 20 43
264 764 263 130 96 61
431 510 421 45 25 19
489 829 318 99 80 65
405 464 343 93 30 39
404 459 348 53 28 33
404 459 353 52 29 31
339 584 347 185 15 58
312 547 407 187 11 60
404 464 353 74 28 32
408 469 323 84 25 36
290 539 424 78 25 37
406 467 331 30 28 33
455 749 293 152 107 71
444 509 423 120 95 74
408 469 333 34 29 30
409 474 323 91 27 37
409 474 328 75 27 34
362 870 332 116 91 70
399 764 204 65 52 47
260 639 278 67 33 36
410 479 328 96 21 36
407 469 338 36 29 31
406 468 348 75 31 37
405 468 353 69 28 32
407 470 348 57 30 33
416 881 291 67 59 61
408 474 343 56 29 33
409 479 343 51 26 30
409 474 348 44 31 33
447 842 297 78 64 58
409 479 353 64 28 31
386 461 361 88 0 28
389 464 368 84 2 27
392 452 354 95 0 30
435 524 433 92 23 38
225 514 273 67 30 35
272 627 351 184 123 104
392 453 358 92 1 28
269 704 273 111 15 34
395 455 367 92 1 30
259 549 211 48 32 34
241 784 303 177 123 95
396 451 366 101 0 30
398 454 369 86 4 30
394 459 368 85 4 28
253 825 308 207 144 117
395 464 372 79 4 26
399 464 374 78 3 27
478 733 248 92 71 50
243 539 308 107 30 44
369 600 221 78 33 37
396 836 216 86 67 59
389 469 372 77 8 25
348 785 217 70 56 50
389 472 374 72 10 25
389 475 378 71 13 26
390 477 380 69 13 26
394 469 373 80 5 27
394 473 375 74 12 27
244 529 208 58 34 37
399 479 373 84 12 32
406 454 358 71 29 32
408 454 363 54 30 34
406 456 361 44 29 31
303 878 323 116 86 69
403 464 358 74 29 35
334 889 364 176 129 107
404 459 358 63 30 33
279 664 308 50 26 30
395 844 226 73 60 57
405 464 362 77 31 39
410 709 324 79 26 37
444 759 228 62 49 41
410 454 368 75 23 32
444 654 293 159 109 76
408 464 364 91 28 37
240 744 307 172 116 91
415 480 397 57 18 24
394 889 242 68 59 58
401 451 371 68 4 22
404 513 418 151 12 47
349 966 345 67 63 62
403 458 374 80 9 28
255 618 258 113 24 44
241 580 309 41 31 34
403 464 375 79 0 25
265 744 268 54 38 38
405 464 377 79 2 28
274 559 468 39 23 30
410 455 377 66 21 28
413 455 378 63 25 30
252 571 421 170 114 96
411 460 371 135 16 44
411 464 372 133 16 43
413 459 373 108 16 37
241 589 263 178 1 47
413 463 374 125 13 38
304 544 418 80 20 33
294 558 200 90 31 42
410 464 383 78 14 29
414 459 382 79 25 32
407 470 358 92 29 38
410 469 368 95 22 33
410 474 367 141 17 37
269 584 398 187 124 105
390 955 298 77 69 68
244 689 288 132 95 63
261 638 274 52 33 37
409 479 363 67 26 32
410 479 368 126 15 38
437 514 333 176 14 52
249 558 373 152 19 50
267 548 454 84 13 34
404 469 374 88 7 28
275 689 314 83 58 50
406 470 377 83 4 27
403 474 374 94 8 31
512 873 331 85 67 47
403 479 373 99 13 35
404 474 378 72 1 25
393 629 249 97 31 42
409 644 293 110 70 61
404 475 383 69 3 24
259 749 322 178 126 101
345 879 243 54 50 50
436 876 348 86 71 58
316 516 404 185 5 58
387 844 296 97 75 60
399 509 453 92 24 34
407 472 383 70 3 25
246 628 352 170 118 94
411 476 372 144 15 41
297 919 339 168 132 110
253 604 368 171 119 95
278 623 337 114 72 66
411 478 372 139 13 41
412 473 369 146 17 40
413 479 373 136 12 37
318 946 277 76 71 72
416 479 382 111 13 34
411 483 328 106 18 35
412 485 323 83 19 31
393 847 225 88 71 64
341 889 258 46 42 43
415 489 323 100 18 31
412 485 328 109 11 36
415 488 328 101 13 30
354 524 184 83 27 37
415 489 333 88 17 29
411 482 338 60 29 34
410 483 343 64 23 30
412 485 338 40 25 30
368 968 284 79 75 76
328 846 342 137 111 84
415 488 338 77 23 31
339 939 373 72 66 64
412 485 343 80 22 30
415 488 343 86 20 30
410 483 353 61 23 30
415 493 353 74 22 27
400 484 377 72 10 29
411 484 358 42 28 28
410 483 363 39 25 30
411 483 367 94 19 33
412 485 364 34 25 31
390 630 247 98 27 37
413 489 363 53 24 29
415 489 368 70 23 30
293 529 423 40 24 28
415 492 358 72 22 26
415 492 363 71 21 28
404 484 373 101 11 34
241 630 328 138 103 69
402 487 374 98 10 32
401 487 376 93 12 32
416 469 382 88 15 29
449 725 239 101 76 52
417 466 384 69 29 38
417 469 384 89 24 34
417 479 384 74 23 31
425 850 297 35 31 28
419 493 323 85 22 27
334 664 233 66 34 37
420 493 328 85 23 27
424 495 328 77 26 25
277 617 347 157 108 92
417 491 333 86 19 27
414 840 286 26 25 26
419 493 333 76 22 26
424 495 333 77 24 26
265 759 263 127 96 61
417 491 342 74 20 27
424 495 338 71 24 25
236 548 292 164 1 46
419 494 348 71 24 26
429 859 273 64 54 54
419 494 353 70 22 28
381 891 368 44 39 37
424 496 353 70 23 26
425 497 323 82 27 26
437 527 385 166 107 88
231 547 259 48 33 38
426 497 328 75 25 25
498 813 310 90 69 54
425 819 248 74 58 53
429 499 328 85 23 28
276 645 310 106 25 39
429 498 333 85 24 28
428 819 253 69 57 54
288 514 453 85 22 36
429 498 338 77 26 26
426 497 338 72 27 23
428 496 348 72 23 25
377 947 351 61 57 56
404 804 306 73 58 52
432 501 324 105 18 30
256 578 224 140 32 48
380 965 298 81 75 77
433 504 323 135 17 39
432 501 328 109 25 35
435 503 333 135 15 40
411 871 314 43 38 34
436 509 328 161 15 47
281 531 448 181 17 55
298 894 333 175 124 109
433 500 338 97 25 30
253 554 328 38 29 32
436 502 338 125 17 36
438 504 343 108 20 38
354 879 229 83 69 67
423 480 401 66 23 24
434 500 348 48 27 27
436 502 349 38 31 32
246 557 372 77 18 33
435 503 353 38 29 30
319 804 318 65 55 51
437 501 346 43 36 26
438 505 353 43 30 31
274 804 324 188 142 115
419 494 358 69 25 25
419 494 363 69 23 26
245 524 338 58 24 34
420 493 368 76 19 31
489 794 298 104 81 64
424 495 363 70 24 29
424 494 368 71 22 30
230 544 268 108 15 39
416 482 381 113 11 33
469 764 253 84 63 47
417 485 379 107 12 33
298 698 335 78 26 35
419 489 378 99 10 28
419 489 383 86 13 28
421 492 372 95 19 30
424 493 373 83 23 28
424 492 378 86 20 29
393 866 306 28 26 27
270 521 411 60 22 27
429 495 373 74 27 31
429 494 383 84 22 30
397 634 259 56 29 33
428 496 358 71 25 22
430 497 358 61 31 25
430 497 363 68 29 24
431 497 366 70 25 28
254 533 388 107 18 38
241 592 265 138 15 44
242 514 217 80 21 31
431 511 364 137 36 52
459 704 241 88 71 55
430 511 373 96 27 39
431 511 376 72 12 24
428 595 304 107 87 64
433 496 383 89 30 36
418 568 357 189 125 102
247 757 271 134 100 64
434 498 368 61 31 28
227 520 257 90 27 40
329 829 253 82 64 58
436 502 362 41 31 29
438 505 358 43 30 34
439 504 368 52 34 35
394 819 302 103 77 64
438 509 363 135 27 47
239 774 288 182 125 98
438 508 368 99 33 43
436 511 360 97 35 46
424 634 313 184 126 101
432 496 369 71 28 31
432 496 373 71 26 31
247 550 222 98 14 33
432 848 264 68 56 53
402 556 334 66 23 32
438 500 373 58 30 31
439 504 373 44 31 34
439 499 383 86 21 32
382 543 205 82 37 39
299 644 239 83 29 36
473 842 314 102 82 65
440 504 377 47 35 33
437 507 373 53 32 41
294 609 227 187 6 43
439 509 378 57 42 37
438 679 302 166 112 81
441 502 382 88 20 33
253 613 327 84 64 40
442 508 380 52 44 36
254 564 468 90 24 36
404 894 368 50 41 35
399 589 233 78 31 40
443 509 383 153 110 91
414 466 387 55 23 26
414 470 392 59 17 23
394 793 210 85 64 53
411 474 391 57 14 23
414 474 393 57 17 22
414 479 393 55 19 22
389 485 397 64 16 26
389 487 400 62 14 26
384 889 358 35 31 34
282 699 251 101 27 40
394 483 393 65 7 26
276 569 440 155 99 91
399 939 323 58 51 48
243 589 308 147 15 49
240 534 228 51 36 37
254 724 323 178 124 100
399 484 393 65 7 25
284 744 244 141 6 35
262 559 388 70 39 36
394 486 397 63 8 23
394 487 399 61 15 25
389 489 403 60 20 25
241 654 298 152 107 79
394 490 403 58 19 26
394 494 408 60 24 27
395 492 405 58 21 25
399 495 408 64 22 27
393 496 411 56 26 26
390 497 415 67 27 29
388 509 404 160 14 52
403 619 258 112 33 45
389 505 408 157 14 50
390 509 408 163 14 53
429 849 313 33 29 29
460 804 294 117 79 63
390 569 222 75 22 37
334 624 332 64 29 34
251 547 321 85 27 27
389 505 413 154 15 49
394 498 414 61 26 27
393 506 413 158 12 50
374 694 337 142 14 44
394 509 413 167 13 53
289 734 242 112 20 36
404 483 389 63 13 26
404 485 393 58 17 24
387 518 200 122 32 46
464 799 253 71 56 50
409 484 393 53 18 23
459 794 244 87 66 57
404 488 399 54 16 25
256 532 373 164 0 43
410 486 396 52 18 24
412 482 394 55 18 21
344 958 357 73 70 72
404 870 307 29 27 29
414 484 398 59 17 23
414 489 399 56 22 23
404 491 402 56 14 27
240 519 333 172 1 49
411 915 313 57 51 50
404 495 407 57 21 25
339 599 217 75 30 39
437 713 228 81 58 47
409 496 406 51 21 24
415 491 401 56 20 25
404 498 409 58 22 26
408 501 412 53 23 24
334 530 379 68 26 33
465 809 268 63 49 47
414 496 406 47 20 23
389 498 418 77 24 29
389 499 428 88 15 32
262 587 351 88 21 25
255 624 293 59 31 35
389 499 433 87 12 30
389 506 428 130 20 50
248 549 313 55 25 30
389 506 423 115 19 43
341 884 263 46 41 43
385 507 428 98 15 38
279 684 258 88 28 38
257 627 306 49 34 30
364 539 363 53 26 32
389 508 428 82 21 33
388 506 433 135 17 43
349 654 328 82 25 38
313 565 201 132 18 36
386 507 433 172 22 58
304 654 238 149 1 34
404 739 199 78 58 44
408 883 259 74 63 61
376 863 315 106 87 72
392 501 422 99 19 34
354 555 354 89 26 39
399 501 417 59 24 24
400 502 419 57 22 25
399 510 418 169 12 54
324 814 316 94 72 63
394 508 428 115 23 45
456 758 295 154 108 76
399 504 428 78 21 30
399 505 433 76 23 31
393 883 353 35 33 34
389 504 439 71 24 32
389 504 448 82 20 32
389 507 443 44 28 30
386 507 448 56 23 32
389 508 448 56 28 31
488 800 311 74 58 44
363 834 228 62 53 52
394 508 438 55 26 31
399 509 438 104 26 44
260 590 348 92 30 31
393 506 448 78 13 30
399 509 443 89 26 34
402 501 416 50 27 21
404 503 418 62 21 24
409 505 418 81 17 30
404 505 428 80 15 30
403 506 432 77 23 28
297 934 333 185 139 119
442 625 303 136 101 64
407 506 427 82 13 31
411 507 420 94 11 31
410 507 423 86 5 29
287 612 342 37 28 32
478 789 274 93 70 59
412 506 417 58 18 24
403 510 438 91 21 33
449 699 293 162 107 77
403 510 443 65 24 32
417 466 387 44 29 33
245 570 318 41 28 29
418 470 393 58 22 27
419 471 396 55 25 25
469 869 358 90 74 62
417 474 385 84 19 32
420 473 392 40 28 30
274 739 322 151 82 74
421 479 391 50 31 33
305 898 351 180 132 116
416 474 396 51 19 25
372 532 356 40 24 23
421 484 391 87 17 34
423 484 393 87 17 27
424 489 393 79 15 26
421 492 385 84 17 28
474 799 298 65 55 45
246 523 343 91 16 36
457 704 257 81 66 49
424 494 388 76 17 24
426 494 392 70 19 25
429 496 386 80 11 31
427 491 399 67 16 25
417 484 400 59 20 22
419 484 402 63 19 22
418 494 404 55 22 25
421 491 406 58 21 27
424 491 407 69 17 25
423 493 409 55 21 23
427 491 403 87 12 27
429 492 408 93 8 30
429 499 388 68 22 26
429 499 393 63 23 25
429 502 391 62 23 25
430 502 390 62 23 25
430 497 396 61 21 26
419 504 409 51 20 22
422 499 410 57 22 22
424 509 408 55 17 26
408 658 271 67 64 66
417 506 411 52 21 23
429 499 414 52 21 24
433 495 408 56 25 28
389 789 209 87 65 53
285 818 259 68 55 55
433 495 412 53 31 27
417 609 280 66 53 40
369 654 323 108 23 41
432 496 386 79 27 30
351 878 230 91 76 70
435 502 393 64 25 26
439 499 398 66 25 26
439 502 394 60 29 29
444 498 393 80 38 36
424 714 304 119 60 51
449 499 388 119 93 71
446 496 390 109 73 59
305 685 332 114 16 39
447 501 385 98 77 61
289 578 393 117 47 56
447 504 385 121 92 69
258 599 313 131 22 47
440 504 398 55 25 27
294 779 327 56 49 46
443 504 398 63 27 31
400 649 293 114 26 43
450 499 393 155 105 95
299 534 413 80 20 33
240 518 338 188 0 51
300 929 343 176 134 114
449 498 396 105 59 56
445 509 388 191 130 120
249 513 378 68 32 29
446 506 390 171 116 106
441 507 397 65 25 34
444 509 398 56 25 31
448 511 400 100 80 58
435 498 403 58 23 24
304 799 319 65 55 51
435 498 408 50 26 27
439 499 413 58 34 30
444 503 408 59 38 27
270 548 204 157 18 43
443 501 413 76 61 45
375 965 329 61 55 54
445 503 413 106 89 70
242 594 273 140 16 45
445 508 402 57 38 32
417 511 427 73 5 25
431 506 417 52 16 24
364 834 312 152 118 93
434 500 417 56 40 32
327 860 287 186 133 99
313 545 191 147 12 37
439 500 417 122 108 97
371 731 340 39 27 32
434 506 423 49 30 27
407 574 244 152 16 41
244 569 328 97 24 36
440 507 423 114 97 80
376 796 221 65 53 47
442 501 416 135 121 110
447 511 422 137 107 82
448 734 297 161 111 79
388 501 453 89 12 29
388 501 458 76 21 25
389 504 463 76 26 35
389 508 453 101 24 40
390 508 458 107 24 43
269 719 323 165 112 93
433 600 304 118 95 67
391 508 462 82 26 35
394 505 453 75 19 25
394 504 458 79 16 26
374 699 223 58 39 34
250 679 284 126 94 57
397 506 455 68 26 21
398 549 363 153 103 94
398 506 458 73 18 26
399 506 463 83 10 31
388 501 466 77 17 25
377 834 306 138 111 89
399 509 467 126 25 48
254 542 433 36 29 26
374 714 342 42 30 32
404 510 454 85 24 33
409 510 458 74 21 27
455 739 288 156 106 73
452 495 394 160 119 105
246 568 429 188 125 110
452 510 404 127 102 76
452 510 408 149 115 89
249 514 203 137 9 35
459 844 313 85 64 56
247 513 206 83 20 28
246 515 204 141 7 43
249 518 201 129 9 34
249 524 200 129 11 38
319 814 245 82 65 56
249 524 201 108 16 33
256 627 268 50 32 35
245 529 204 59 34 40
254 519 208 99 13 34
255 524 207 116 7 31
253 529 203 119 4 28
288 719 334 160 14 50
386 564 324 75 18 29
429 789 307 172 131 102
