ply
format ascii 1.0
comment Created by Open3D
element vertex 2199
property double x
property double y
property double z
property uchar red
property uchar green
property uchar blue
end_header
457 921 240 94 78 62
443 736 210 66 50 42
443 731 221 65 48 42
442 728 222 71 48 42
444 730 224 60 44 39
444 735 219 68 55 50
448 731 225 68 53 42
347 887 288 137 110 83
446 733 222 61 48 42
447 736 221 66 52 44
419 707 228 66 40 35
328 820 196 71 55 48
420 709 228 62 40 36
423 706 229 64 44 37
430 706 233 63 50 38
430 710 233 61 48 38
378 850 180 81 68 58
427 713 226 65 40 39
439 546 261 111 32 42
430 714 228 64 44 39
433 716 230 66 47 40
363 861 175 94 76 65
438 705 232 73 54 36
438 707 234 73 56 39
439 710 236 74 55 40
526 912 217 97 82 68
417 586 287 157 113 86
438 711 239 79 59 45
435 719 228 67 43 40
438 721 230 67 49 41
352 893 298 161 123 98
435 715 238 76 56 43
438 716 240 72 55 42
436 718 232 73 55 45
443 711 236 87 66 47
442 712 238 79 58 40
446 706 236 91 67 48
448 711 236 100 74 55
292 860 307 170 133 113
443 721 240 95 72 49
448 716 237 101 75 53
358 856 156 104 82 70
448 719 237 102 76 54
443 706 254 66 51 40
435 803 224 82 64 58
443 711 255 65 50 41
448 706 250 74 59 46
445 704 252 68 54 42
448 711 254 73 57 45
448 716 254 75 60 47
441 723 232 62 47 37
324 823 263 143 112 87
440 724 228 64 45 37
448 728 230 88 69 50
441 723 235 66 48 39
443 726 235 79 62 46
448 727 240 127 101 78
446 728 226 57 42 40
449 729 229 90 70 50
500 884 211 69 57 46
296 778 262 69 57 53
444 727 243 150 131 111
446 727 243 154 137 121
448 731 255 65 49 38
332 636 267 35 28 30
447 736 255 66 49 37
406 795 191 55 45 42
429 752 194 75 56 44
431 750 192 77 57 45
416 759 192 62 48 42
418 760 195 60 47 41
423 756 195 74 56 45
421 759 197 65 50 43
423 761 200 70 55 46
417 766 197 59 46 40
280 794 182 131 97 79
424 762 204 60 47 40
328 596 271 53 28 30
424 766 205 64 49 41
429 757 204 59 46 39
283 876 265 144 112 84
426 759 202 64 50 43
426 765 207 57 46 41
440 742 199 79 61 48
437 746 196 81 61 48
378 596 272 48 26 31
438 750 205 68 53 43
288 791 258 63 55 51
440 747 205 70 54 44
389 782 164 88 64 48
453 921 245 81 65 50
441 740 201 76 57 45
444 741 215 63 48 45
444 746 214 67 52 45
397 670 276 142 103 84
443 751 215 64 50 43
446 746 216 66 49 44
446 749 216 65 49 43
444 752 220 62 50 42
444 752 225 75 57 47
385 573 272 144 41 58
449 747 224 79 60 47
438 756 215 58 46 40
440 753 214 61 47 41
440 757 219 60 47 40
435 762 213 51 41 36
439 761 225 69 51 44
439 766 220 70 54 45
363 687 284 116 1 36
437 766 224 63 46 41
441 755 220 62 48 41
363 601 272 185 9 58
413 865 225 68 55 49
288 857 290 98 81 63
448 741 251 66 52 40
447 746 254 72 54 41
447 751 255 84 61 45
435 763 226 62 44 40
442 761 231 67 52 45
445 752 228 82 63 52
448 756 235 79 60 48
445 757 233 80 63 53
445 761 234 78 60 50
446 761 236 78 60 49
303 871 310 174 140 113
446 766 236 76 60 50
298 806 261 63 48 43
447 756 255 86 60 45
449 756 250 71 52 41
447 761 250 67 51 41
448 761 245 58 45 36
460 702 252 95 69 47
298 833 203 99 77 67
326 807 262 171 113 94
462 699 253 104 78 55
464 697 251 110 82 59
463 698 253 109 80 57
403 541 270 46 25 27
448 726 256 68 53 42
448 726 209 62 50 39
450 710 239 87 68 54
452 712 240 101 80 59
451 712 237 81 63 47
458 712 237 98 71 51
298 921 220 67 62 64
458 716 237 104 73 49
460 720 240 84 63 46
452 536 258 165 3 51
463 716 236 98 72 52
463 716 239 84 62 46
462 722 236 91 66 47
453 712 245 93 76 61
453 712 249 81 68 55
455 708 250 87 70 55
308 833 203 88 68 58
453 715 245 101 88 76
453 721 250 72 59 47
450 719 252 82 72 65
359 967 276 67 60 58
365 874 203 58 57 60
454 713 253 80 61 43
458 711 245 98 74 52
403 892 299 53 45 40
462 707 246 96 73 52
403 766 295 169 126 97
457 887 250 51 44 40
338 531 281 68 28 34
462 710 246 96 73 52
459 707 250 99 75 53
458 711 250 94 71 49
388 741 289 79 25 35
462 705 249 102 76 52
464 712 241 77 58 43
456 713 253 79 59 40
462 714 253 99 75 51
453 726 231 114 82 53
455 723 232 124 89 58
452 732 227 82 60 42
453 730 229 95 67 46
453 736 226 77 58 44
393 797 172 65 51 46
455 736 228 78 58 43
448 729 238 120 93 67
333 913 199 79 73 74
457 723 232 112 80 53
408 531 267 47 21 24
456 736 231 78 57 45
460 731 240 79 58 44
452 726 254 64 49 36
328 556 269 158 16 52
454 726 251 62 48 34
451 730 253 61 47 37
453 731 251 58 45 33
450 733 252 60 47 36
459 731 245 82 62 46
458 736 245 80 60 45
457 731 249 75 57 42
456 735 248 75 57 43
426 646 267 133 90 62
466 714 244 87 66 48
453 741 225 78 59 46
350 772 176 66 48 44
428 915 230 90 75 63
455 741 230 81 59 47
455 742 234 81 59 46
338 851 280 161 131 101
455 743 239 80 56 44
452 745 226 85 64 51
450 748 229 87 67 55
318 850 281 141 116 92
453 746 235 79 56 45
452 751 240 80 60 46
454 746 240 79 58 45
353 522 286 48 25 30
455 742 246 75 57 42
440 720 266 136 94 61
452 741 249 60 46 35
452 751 245 79 58 45
338 952 317 64 59 57
452 746 249 68 53 40
316 778 267 67 57 52
456 744 244 83 62 45
450 756 240 80 61 47
451 755 241 80 62 49
304 576 259 129 6 37
313 556 260 126 5 38
314 552 259 127 5 37
306 858 303 120 100 79
320 547 264 118 5 37
318 551 265 120 5 36
294 950 236 72 68 70
313 561 264 132 7 39
320 552 268 135 10 40
373 949 299 57 50 46
308 571 261 132 7 39
308 576 261 164 11 50
310 568 263 140 10 43
313 571 263 174 11 54
314 575 263 174 11 54
353 849 170 69 57 55
313 577 262 174 12 54
323 906 316 164 116 94
318 566 266 176 11 55
398 897 239 63 55 54
308 896 225 72 51 43
298 857 285 91 74 55
318 576 264 157 11 48
300 582 258 132 7 38
297 591 257 33 27 30
303 586 260 176 13 55
333 706 286 41 26 31
298 596 257 79 28 38
300 594 258 113 27 44
301 597 257 121 29 47
314 881 230 54 48 44
303 601 258 36 28 32
302 606 257 100 21 39
304 606 258 89 30 41
308 581 261 176 12 55
378 586 274 91 27 38
332 531 270 48 25 29
312 581 262 159 12 47
383 891 219 66 58 59
308 591 261 133 16 42
312 586 262 147 13 43
311 590 262 150 17 47
314 581 263 150 12 45
318 586 265 133 12 41
308 601 261 35 30 33
312 601 262 34 28 31
308 606 260 66 30 37
527 905 224 90 74 59
312 606 262 73 34 41
318 596 266 77 32 39
318 601 265 62 29 33
318 606 265 44 27 30
302 611 257 90 27 39
304 611 258 102 27 43
305 615 258 51 26 31
312 611 261 63 22 31
306 618 257 121 29 41
422 831 250 45 37 34
308 621 259 89 27 37
315 611 263 102 28 40
314 616 263 75 20 33
318 611 265 106 26 41
318 616 265 94 29 41
315 621 263 72 28 34
318 621 264 90 29 40
308 626 259 50 27 31
306 630 257 104 32 45
313 631 261 60 30 34
308 636 259 80 27 38
306 640 257 130 29 49
308 641 259 101 26 41
437 721 275 153 103 70
315 624 263 63 18 28
316 629 262 35 24 29
408 851 130 96 81 68
318 631 264 59 29 34
318 636 264 80 28 37
418 831 255 56 42 38
333 521 260 135 7 41
335 517 263 138 9 42
335 521 264 127 8 39
331 524 257 132 9 37
356 524 283 86 29 40
316 875 234 81 64 51
341 784 178 58 47 43
332 526 260 82 17 33
334 526 265 48 24 31
334 526 270 31 28 32
366 899 205 55 51 53
335 527 275 33 29 32
329 531 259 123 7 38
322 540 257 119 7 37
325 538 258 122 10 41
320 886 191 75 67 62
436 703 259 112 81 54
328 536 265 41 28 30
326 539 261 48 22 28
326 540 265 32 28 30
325 542 270 84 14 32
331 530 261 121 12 40
332 530 265 80 25 36
318 974 280 71 69 71
330 533 265 49 20 28
429 812 224 78 62 56
330 533 269 48 28 34
328 541 274 107 18 37
329 536 274 75 23 33
331 535 276 84 21 35
273 791 184 187 129 95
335 528 278 35 27 34
264 790 187 169 116 83
334 539 278 135 40 57
269 736 260 52 29 34
336 514 262 139 8 41
337 516 265 138 8 41
336 521 266 124 9 39
336 524 270 30 26 32
340 513 273 132 6 39
323 786 270 57 48 46
380 801 283 70 58 53
342 516 280 91 15 33
340 518 278 118 6 36
336 525 275 31 29 32
338 526 280 69 23 32
423 870 226 68 59 56
340 522 283 66 21 30
340 526 283 83 24 33
348 526 284 91 29 40
353 525 284 79 28 36
480 959 210 108 88 65
353 527 281 74 23 33
442 886 280 54 44 37
343 535 279 135 27 50
343 532 281 98 28 42
340 538 277 76 24 32
387 855 136 97 74 53
348 531 280 116 23 43
288 829 248 64 52 52
346 534 278 131 21 47
284 921 304 175 138 120
349 532 277 52 21 27
422 839 120 105 86 67
453 871 210 78 61 53
353 536 274 54 24 28
346 529 283 110 23 44
347 539 273 50 24 28
349 519 288 99 24 39
358 686 285 118 6 36
459 871 206 81 64 53
353 516 289 58 26 31
353 519 288 51 25 28
322 544 261 84 11 30
511 945 223 92 75 59
322 545 265 96 9 30
323 551 270 154 13 47
324 697 278 37 29 30
323 560 268 173 10 54
333 548 272 35 26 28
368 756 289 78 65 58
332 554 268 112 18 39
328 561 266 137 14 45
338 940 216 77 73 76
325 544 273 133 11 40
328 546 274 129 21 45
365 856 257 68 46 38
328 566 265 129 12 41
321 591 267 67 30 35
512 938 222 103 83 65
323 576 266 140 11 42
333 571 267 121 6 36
329 577 268 125 7 37
334 572 268 122 5 37
343 551 268 88 20 33
338 556 267 45 25 27
341 556 267 59 22 28
348 551 270 61 24 30
346 560 272 91 15 32
353 546 275 87 18 33
378 726 292 159 14 51
351 551 275 54 25 31
349 556 275 67 23 31
351 555 281 50 29 27
353 556 285 58 27 30
340 562 268 87 18 32
342 565 271 122 6 37
338 571 270 124 5 37
344 566 275 112 10 37
340 572 274 126 4 38
347 566 280 69 25 32
372 955 255 64 59 60
353 566 286 113 22 42
358 526 280 42 23 26
358 523 282 52 24 27
363 516 286 58 25 30
364 526 285 69 22 32
368 523 282 80 20 35
367 526 281 74 21 32
313 841 206 62 52 50
367 525 283 88 21 36
358 531 276 85 20 34
359 529 278 68 24 32
358 536 275 88 19 34
354 541 275 77 19 33
355 542 279 70 21 30
357 540 276 65 21 31
353 882 183 71 61 60
357 540 280 69 22 31
420 772 203 64 49 42
359 537 280 51 25 30
358 541 285 46 26 30
362 532 276 88 20 34
363 531 280 70 21 31
362 535 280 47 23 29
362 531 285 58 24 28
366 529 280 70 12 33
363 514 288 60 25 31
293 956 244 77 73 74
368 516 290 47 24 28
285 877 261 135 104 77
422 819 289 188 120 96
365 523 288 62 19 30
360 541 289 71 24 33
365 528 293 77 20 33
365 531 293 102 24 39
368 531 294 136 21 47
360 538 288 34 28 30
363 541 291 74 24 35
370 516 294 68 22 30
373 516 296 82 27 37
373 521 296 74 26 35
412 883 240 54 46 40
383 521 295 75 24 33
378 517 297 73 28 35
383 516 296 60 26 30
378 526 294 105 24 41
378 837 262 50 41 40
344 894 297 132 101 73
383 525 293 94 30 42
456 930 239 87 70 54
383 527 292 103 25 41
373 531 294 169 15 54
372 535 293 175 12 55
373 541 291 175 8 56
378 531 292 166 15 53
383 536 289 114 25 44
354 546 280 70 21 31
354 551 285 50 26 31
384 837 151 107 76 55
356 544 282 75 23 32
356 545 286 85 20 34
392 696 277 80 39 39
304 949 227 76 72 73
365 557 287 177 4 56
369 552 287 180 2 56
358 566 286 175 10 56
405 607 278 160 114 94
408 904 282 74 63 53
358 571 284 153 14 51
414 526 275 53 23 26
369 562 282 185 2 57
358 866 184 66 56 55
373 811 278 65 54 50
368 566 281 184 3 58
366 564 283 182 2 60
363 576 279 176 5 55
340 729 288 171 21 55
363 571 281 179 6 56
361 569 283 179 7 59
373 551 286 181 2 56
283 966 280 82 79 83
374 547 287 181 2 57
373 560 283 182 3 56
298 970 275 65 60 60
388 781 289 92 70 57
378 551 286 178 4 55
383 546 287 172 5 53
378 556 285 177 5 54
378 561 283 175 7 54
383 556 284 164 12 53
372 562 282 183 3 57
373 566 281 181 5 57
378 563 282 173 10 54
403 771 170 68 51 44
378 571 279 135 15 46
358 816 174 60 50 47
377 575 278 160 11 51
342 906 303 121 93 74
380 572 277 56 25 30
286 948 296 194 143 120
381 570 278 74 33 37
274 741 264 73 29 37
382 576 274 98 23 39
358 551 289 134 16 45
331 590 272 42 28 31
355 560 288 106 20 41
358 556 289 163 13 51
363 546 291 169 12 53
368 546 290 176 8 56
323 581 266 138 11 42
325 582 268 135 12 40
324 586 268 93 19 35
332 586 272 42 27 30
333 591 274 60 27 33
334 586 274 49 27 31
346 934 217 75 71 74
322 596 267 53 26 30
415 849 228 64 54 53
398 868 268 40 35 33
327 601 271 108 25 40
321 606 267 56 28 32
274 896 270 174 127 104
323 606 269 46 26 30
333 607 272 83 34 42
330 604 273 39 27 32
333 604 273 87 30 39
336 580 272 125 6 39
372 955 270 64 56 52
343 581 280 155 11 48
340 582 278 144 10 43
339 591 278 167 14 53
343 591 279 185 11 58
280 909 300 181 129 114
349 580 283 180 11 58
353 581 281 181 7 57
348 586 280 184 8 59
319 755 268 63 53 46
374 946 245 81 73 72
338 607 272 77 34 39
338 796 271 190 138 118
353 606 271 168 17 55
338 596 277 81 25 37
435 898 266 64 48 38
343 596 276 179 12 58
321 875 194 51 46 45
342 594 278 184 11 58
338 605 273 90 26 38
343 604 273 89 28 38
348 596 275 185 9 58
268 812 194 189 130 98
353 601 273 180 9 56
321 611 267 81 31 36
323 616 267 65 28 35
328 616 268 34 29 31
443 889 230 61 52 44
323 621 266 117 29 45
399 846 137 104 84 68
333 611 270 44 28 31
333 616 269 55 28 32
330 620 268 39 30 31
388 776 159 73 53 39
323 626 265 95 25 39
323 636 265 122 30 48
323 641 265 92 29 40
328 641 267 49 27 31
333 626 267 136 25 49
334 624 268 119 30 47
334 633 268 40 29 33
310 859 297 104 83 59
393 890 232 63 56 54
338 616 269 156 23 53
343 616 269 118 28 46
338 621 268 161 21 54
348 616 269 77 29 35
353 611 269 71 23 32
353 616 269 75 27 36
353 621 268 108 27 42
334 862 176 82 67 58
338 625 268 142 21 49
373 871 205 57 52 54
342 625 268 160 20 53
303 791 180 86 66 56
343 636 268 79 30 38
343 641 268 34 28 31
280 951 280 112 91 82
348 626 267 72 29 36
348 624 268 115 26 46
348 632 268 52 28 31
352 624 268 40 26 24
394 661 270 139 94 82
348 636 268 63 31 34
348 641 268 60 31 36
352 633 268 94 30 36
353 641 268 89 28 40
360 583 277 177 6 57
368 581 278 182 6 56
366 583 277 174 8 52
307 881 312 153 119 94
363 591 275 181 7 56
368 584 278 179 9 58
368 591 275 144 22 51
358 602 272 186 9 58
363 606 270 173 11 55
368 606 270 183 11 57
358 596 275 183 4 56
363 596 274 186 8 58
368 595 273 154 13 51
383 591 271 45 28 28
374 582 277 119 15 43
373 591 274 71 27 35
384 577 272 131 19 45
384 581 272 98 25 39
377 591 273 106 28 44
381 585 273 143 39 59
383 596 270 40 28 29
376 594 273 144 36 59
358 611 269 120 28 45
358 616 268 87 23 39
358 622 267 61 29 34
363 611 269 86 20 35
363 616 268 164 18 54
368 616 268 182 12 57
487 926 244 97 77 57
431 550 288 174 119 92
363 621 267 88 23 39
364 618 267 178 14 58
408 536 269 28 24 24
358 631 266 121 27 43
356 637 268 125 28 47
358 641 267 147 16 47
363 631 266 129 19 45
368 631 265 172 11 54
363 641 266 150 13 47
368 636 264 99 19 37
333 946 321 54 48 45
368 641 265 163 10 52
421 702 288 167 109 79
373 611 269 145 17 50
424 919 279 75 63 55
373 617 267 182 9 57
373 621 266 181 8 56
378 611 268 132 16 45
378 616 267 184 6 57
380 613 267 184 10 56
406 834 207 61 50 47
433 861 225 57 47 42
377 614 268 185 10 58
376 881 212 59 57 58
384 612 267 178 12 56
382 610 268 165 17 55
313 761 266 64 55 50
383 616 266 179 9 55
378 621 265 184 4 57
383 621 265 178 9 56
373 631 264 178 8 55
375 638 262 155 12 42
378 631 263 178 7 55
384 631 262 167 13 53
377 635 263 178 9 58
303 846 245 171 124 99
349 692 288 119 7 35
378 641 262 163 12 50
274 702 259 38 27 30
396 775 166 73 57 46
275 698 258 32 27 29
324 864 296 116 93 69
280 703 263 127 6 39
281 694 257 111 0 33
288 695 261 113 2 33
340 886 296 138 105 76
282 700 262 125 6 39
329 862 190 45 41 42
288 701 265 124 6 39
305 646 258 62 26 33
306 644 257 52 17 28
308 646 259 85 25 37
305 651 258 35 28 30
308 651 260 40 27 30
308 656 260 108 22 43
312 651 262 60 27 33
418 886 235 48 39 34
435 581 275 158 109 77
318 651 264 38 29 31
305 661 258 150 12 45
305 666 258 163 10 51
312 666 262 145 11 45
311 671 262 166 11 54
318 661 264 128 19 45
314 666 264 138 10 42
318 671 266 79 21 35
293 687 259 116 5 35
302 680 257 37 25 28
296 684 257 109 2 30
303 685 261 73 18 30
290 688 258 115 5 34
293 691 261 126 8 39
292 694 262 123 6 37
323 846 209 96 67 56
293 696 264 129 8 39
293 701 266 132 11 42
300 688 263 113 15 38
298 696 265 141 14 45
302 696 267 146 18 49
304 696 268 129 17 42
298 701 267 125 13 40
303 701 268 93 23 38
288 891 310 142 107 89
312 680 262 52 24 29
308 686 265 38 27 29
314 681 264 70 24 31
318 681 266 85 24 36
314 688 268 58 26 32
384 781 161 81 59 44
317 685 267 65 25 30
307 689 267 43 29 30
308 692 269 29 27 30
318 690 271 38 28 30
314 696 273 106 25 43
318 692 274 57 28 30
314 701 273 121 26 48
272 711 261 131 11 42
271 715 262 153 13 48
269 731 260 34 26 30
271 736 262 119 22 43
277 705 262 111 10 36
278 706 264 131 8 40
278 711 266 141 12 44
401 790 177 59 48 45
277 715 267 146 14 47
367 886 190 57 51 54
276 719 267 142 16 47
334 974 242 75 69 69
278 721 269 158 13 49
319 881 195 57 50 49
288 706 267 132 7 41
286 710 267 141 12 45
263 811 255 171 131 99
284 712 268 149 13 47
283 721 271 165 10 52
288 721 271 176 9 56
275 730 268 76 16 31
278 731 269 148 15 48
276 736 267 35 27 28
288 736 271 49 26 32
271 741 262 105 26 42
270 750 258 47 30 34
273 751 261 105 37 49
274 756 259 72 58 53
279 741 269 138 21 49
278 751 265 65 38 41
277 746 266 69 28 34
398 840 168 62 46 31
283 741 270 168 11 52
283 746 269 138 18 48
283 749 268 83 36 43
288 746 270 118 31 48
275 761 258 72 59 52
278 756 261 77 63 56
392 576 268 58 28 30
278 766 258 69 57 51
283 755 263 76 63 57
288 756 264 73 60 55
286 758 262 79 65 59
289 761 263 79 66 58
292 704 267 138 11 44
389 845 165 87 72 59
289 708 268 140 12 44
293 707 268 145 8 45
293 721 272 175 5 55
298 971 295 64 59 58
298 704 267 138 12 42
298 706 268 141 10 43
368 716 295 55 32 35
298 716 271 161 3 49
298 721 272 171 5 54
303 716 270 155 8 48
423 771 205 67 51 44
303 731 271 102 26 42
433 741 285 161 109 76
303 736 271 44 30 33
293 726 272 174 7 53
293 731 272 131 17 47
298 726 272 172 8 54
293 802 184 89 70 61
308 706 270 82 25 38
426 883 252 47 40 38
308 711 269 156 14 49
308 716 270 143 13 46
364 819 273 102 76 66
318 716 272 56 25 32
318 706 275 84 27 38
316 711 272 58 22 32
318 711 274 98 28 41
320 715 273 133 19 47
313 726 270 141 17 47
523 904 212 100 85 72
308 731 271 44 25 30
313 801 263 177 132 110
308 736 270 45 39 38
313 731 271 87 31 40
313 736 270 57 47 43
318 731 271 71 34 38
318 736 271 57 47 42
293 751 266 72 58 53
292 749 268 70 56 51
343 961 231 82 79 83
302 751 267 73 60 54
304 751 268 72 60 53
418 756 294 161 117 80
290 766 263 78 64 57
318 804 263 185 138 117
293 881 307 173 154 145
293 766 264 74 61 55
298 756 267 73 60 54
413 676 286 164 116 85
301 756 267 72 59 53
303 761 267 69 58 53
308 746 269 70 59 53
330 818 263 150 111 90
425 651 264 141 98 68
308 751 268 69 59 52
313 746 268 64 54 50
450 910 230 86 70 62
314 750 268 63 55 50
318 746 269 60 51 46
318 752 267 61 53 47
310 756 267 66 56 51
308 766 267 67 56 53
313 766 267 65 55 52
318 761 267 66 55 48
323 646 266 42 28 31
328 646 267 88 28 40
458 883 266 76 63 53
384 842 142 123 91 74
323 656 266 132 25 50
331 646 267 27 26 30
302 911 220 63 50 49
331 650 267 93 9 31
333 651 268 103 22 40
394 671 270 130 88 76
330 652 268 104 16 37
328 661 267 129 23 46
323 665 266 108 10 34
396 798 172 65 52 47
323 668 268 117 14 37
328 667 269 68 19 29
430 823 250 56 42 37
330 659 268 69 39 44
333 661 268 124 20 45
331 664 267 157 21 49
333 666 269 135 13 43
441 717 259 95 67 47
338 646 268 35 28 30
343 646 268 48 29 31
338 651 268 92 21 36
343 651 268 99 25 38
353 646 268 70 23 32
343 661 269 155 13 49
338 670 271 77 15 30
293 847 220 55 51 55
343 670 271 69 20 32
353 666 269 159 10 51
338 672 274 33 29 32
321 676 267 82 28 38
327 685 272 59 24 31
330 678 273 86 29 37
330 681 273 63 30 36
416 566 282 155 108 88
333 681 274 71 26 35
323 691 275 69 26 33
322 695 277 36 29 30
329 693 278 46 30 30
326 694 277 57 34 37
321 701 277 34 28 29
327 701 281 55 31 34
332 690 277 37 27 27
333 695 281 68 26 32
335 688 278 37 24 25
333 701 285 93 23 38
337 681 277 102 18 38
343 681 280 89 26 36
343 686 281 59 26 30
348 673 274 73 17 28
348 675 276 91 19 36
303 856 300 103 84 64
353 678 279 102 14 35
348 681 281 53 28 31
366 850 156 100 78 63
345 687 283 78 24 36
347 684 282 43 27 29
348 686 284 69 24 34
353 875 175 84 71 66
353 683 283 89 20 34
353 686 285 111 16 38
304 956 313 46 43 44
338 691 281 87 21 35
338 696 285 109 8 34
343 691 284 120 7 36
337 700 287 123 10 40
377 931 240 82 71 69
346 694 287 115 5 35
352 689 287 131 11 40
339 702 288 126 11 40
288 842 236 43 33 35
344 697 288 124 6 39
348 696 289 124 6 38
353 692 289 125 7 38
442 914 279 76 63 56
413 851 225 62 53 51
353 696 291 128 7 40
349 702 293 140 12 44
352 699 292 133 8 43
353 701 294 138 12 43
356 646 268 89 25 37
298 951 309 87 64 60
357 651 268 136 17 45
358 656 268 120 14 40
303 916 215 62 57 59
368 646 265 160 10 49
363 656 266 155 11 48
368 656 265 73 18 32
353 711 296 167 10 53
358 661 268 140 13 45
358 671 270 135 8 41
363 661 267 158 11 49
398 676 280 143 106 86
388 931 280 72 64 60
368 661 266 143 17 46
428 870 226 74 63 53
364 665 267 153 7 47
363 671 269 143 4 42
368 672 268 146 7 44
298 816 258 148 109 91
373 646 263 145 14 47
378 646 262 123 22 45
376 648 263 96 35 47
379 651 262 89 26 37
376 651 263 89 26 37
377 656 263 43 27 30
274 916 275 131 108 89
414 546 279 117 77 67
379 655 262 37 26 29
383 651 261 59 26 30
378 661 263 94 21 36
383 661 262 102 24 39
463 891 260 70 56 48
382 666 263 107 20 38
363 675 272 133 2 42
424 567 288 169 114 87
368 676 271 132 4 40
285 901 256 156 115 89
360 674 272 128 5 40
356 678 278 95 10 28
358 681 280 107 5 33
359 684 282 111 2 33
367 678 273 126 2 36
448 521 261 139 12 44
363 682 279 119 2 37
366 683 278 123 2 40
378 846 255 72 50 41
359 689 287 117 4 33
363 690 286 119 3 36
366 688 283 118 2 38
372 673 268 148 15 47
430 627 275 145 98 64
373 676 269 131 9 40
373 681 271 138 11 44
375 674 267 127 28 47
383 676 265 58 25 29
382 682 268 63 23 30
379 685 271 120 6 36
384 684 267 50 19 25
383 686 270 92 11 29
372 682 274 131 4 41
372 687 279 112 1 33
395 778 168 63 50 44
363 806 278 54 48 47
374 690 281 116 5 35
369 689 282 116 1 36
372 692 284 119 7 37
369 694 287 127 6 38
378 692 279 80 13 31
381 688 273 107 1 30
381 693 278 92 19 34
383 696 279 103 14 36
378 697 284 35 26 27
378 701 286 39 26 28
378 896 216 65 59 60
384 700 281 120 14 40
382 702 284 55 24 30
358 692 289 123 6 37
408 726 290 171 125 95
358 695 292 122 10 38
514 966 212 90 74 57
358 697 293 126 11 40
362 692 289 120 6 37
363 696 291 77 17 32
366 693 288 124 6 37
368 696 290 122 10 39
363 701 294 63 27 33
367 702 293 92 24 35
417 899 249 79 62 51
372 697 288 108 16 37
321 707 277 38 26 28
324 710 279 47 27 32
328 711 281 74 30 38
329 706 283 68 30 35
333 711 286 105 29 44
349 745 289 75 61 56
432 811 285 190 127 101
333 716 285 100 23 39
326 726 277 151 15 46
328 726 280 157 13 49
459 868 206 79 68 58
321 737 272 60 49 44
390 561 272 52 27 30
326 737 276 64 52 47
328 736 279 71 45 45
278 832 246 60 51 48
328 876 182 79 66 62
332 736 281 100 39 49
336 722 287 44 28 30
338 731 286 107 21 42
342 736 286 179 14 58
335 712 288 55 26 29
431 810 289 194 129 106
335 716 288 89 28 38
338 706 289 43 26 32
343 706 291 110 19 41
438 891 280 73 57 44
338 716 289 72 29 37
338 721 289 76 26 37
345 711 293 87 21 38
345 719 293 157 23 61
348 721 293 183 14 59
353 716 296 174 11 55
339 726 288 110 22 44
347 726 292 186 14 59
349 725 293 183 13 58
348 731 291 179 12 56
351 732 292 169 11 51
365 809 278 57 48 46
351 736 292 74 17 32
323 751 269 66 55 48
327 747 272 69 57 50
327 751 271 69 57 49
329 746 274 70 58 50
329 751 274 71 58 50
334 745 278 74 60 52
323 756 269 67 55 48
330 756 273 73 59 52
333 756 276 74 60 52
282 861 290 164 128 104
413 881 285 38 35 35
330 761 273 72 60 52
384 806 177 72 56 50
333 761 276 72 60 53
334 866 176 88 71 61
338 751 280 75 61 54
340 745 283 76 60 55
368 841 261 154 115 88
341 748 282 75 61 55
342 752 282 74 61 54
351 905 202 67 61 64
344 751 283 74 61 54
347 747 286 75 60 54
343 756 281 72 59 54
336 766 277 72 60 53
339 766 278 72 60 53
406 584 267 102 64 58
343 766 280 70 58 53
413 861 260 48 43 40
345 754 283 72 59 55
347 762 282 68 58 55
349 761 283 68 58 55
353 756 285 70 59 54
348 766 282 67 58 55
358 796 168 55 46 39
350 765 283 68 58 55
353 766 283 68 58 54
345 740 288 115 40 49
348 741 290 54 32 37
353 750 289 78 63 57
383 706 285 75 23 34
384 711 286 36 27 29
293 906 311 188 137 121
357 711 297 163 10 52
358 711 298 155 13 50
358 708 298 160 13 50
357 716 297 166 9 52
411 777 192 49 41 39
363 706 296 72 28 35
368 706 294 85 28 38
368 711 295 48 30 33
364 711 297 42 28 30
361 712 298 67 23 29
406 816 204 60 51 49
362 716 298 53 27 29
364 716 297 31 29 30
363 721 298 56 27 31
368 721 296 46 30 31
357 726 297 169 11 54
392 636 261 117 52 52
358 731 297 169 12 54
361 786 166 57 47 42
358 736 296 170 14 55
365 726 297 81 39 43
363 736 296 79 27 35
368 736 296 46 29 32
318 801 263 179 131 110
371 707 293 40 27 28
362 748 292 79 66 61
359 825 177 61 51 49
372 711 293 54 31 33
373 716 293 84 33 40
311 889 228 58 49 47
373 721 294 63 27 35
375 720 292 131 23 49
312 841 266 160 125 102
378 706 289 92 25 37
381 712 288 35 29 31
296 864 268 112 91 67
378 721 291 147 16 50
383 721 289 153 14 48
425 912 231 69 56 54
373 731 294 95 26 39
401 865 206 66 58 53
383 726 290 158 9 49
384 922 306 59 50 43
376 737 293 62 28 33
346 964 298 70 63 60
373 911 226 62 55 56
383 736 291 110 21 42
353 886 185 66 58 57
358 761 285 73 61 56
362 757 287 79 65 58
363 761 287 77 64 58
367 762 287 78 64 59
405 781 298 175 132 103
354 741 294 149 20 51
355 745 293 122 46 61
357 748 292 78 65 59
358 751 290 80 64 60
558 910 217 127 100 69
363 741 296 73 26 34
298 845 211 60 50 51
363 746 294 64 41 43
434 913 265 56 44 32
363 751 291 81 66 60
368 746 294 89 41 47
359 755 288 78 64 58
363 756 289 80 65 59
365 759 288 78 64 57
282 881 264 151 115 87
373 741 294 73 27 34
373 746 293 119 38 52
431 682 265 130 92 59
373 749 293 68 59 55
378 741 293 106 27 41
379 740 292 80 24 33
378 751 292 69 57 52
381 745 293 67 25 30
383 751 290 70 57 50
373 756 290 74 62 56
374 766 288 70 59 54
378 756 290 69 58 54
408 766 296 169 128 96
428 786 210 63 48 45
378 761 290 68 58 53
322 793 267 184 139 121
383 756 289 66 55 50
378 766 288 66 57 52
383 766 289 58 52 50
292 936 225 75 68 70
389 542 287 168 10 51
393 541 285 127 16 43
397 536 280 136 16 44
400 532 276 151 14 49
395 533 287 78 21 26
398 531 285 94 21 37
395 543 276 45 28 29
397 541 275 48 26 30
407 526 270 96 4 30
409 516 270 91 9 31
388 524 293 105 34 45
412 518 267 48 18 23
410 518 267 72 10 26
415 521 270 52 17 25
406 515 278 149 12 47
392 631 261 114 43 45
407 521 274 128 13 41
405 522 276 150 13 47
403 516 285 147 12 47
405 528 272 111 10 33
406 524 273 113 10 38
401 525 283 162 11 53
415 513 273 29 24 23
418 521 280 78 47 44
411 528 280 71 31 30
404 531 271 67 22 30
408 530 268 55 21 27
408 541 266 28 24 24
411 534 267 38 24 28
285 844 230 59 50 52
412 536 270 43 23 26
412 541 270 35 24 25
402 530 274 135 16 45
401 529 278 154 10 47
400 537 272 63 27 34
414 536 278 83 50 46
388 516 295 66 24 30
388 521 294 127 27 47
307 836 255 165 124 101
393 516 295 111 29 45
318 787 178 82 63 55
396 862 197 59 52 50
388 527 292 48 27 30
397 516 294 91 27 38
398 521 290 130 21 47
390 802 172 66 52 44
388 540 288 155 16 51
400 512 292 159 20 50
393 556 270 65 27 33
397 556 268 98 29 40
396 560 268 73 22 32
391 545 284 148 14 49
363 956 290 62 56 53
387 556 280 73 27 35
288 811 189 90 71 62
387 561 275 103 27 41
320 854 216 95 69 58
386 560 278 81 28 38
391 555 273 49 24 29
389 566 271 47 27 30
281 956 280 63 55 55
392 566 269 76 24 35
388 571 271 100 29 42
395 562 267 100 26 42
395 566 267 106 27 43
386 570 273 94 29 41
402 546 269 83 23 34
398 801 175 63 51 46
403 551 266 63 24 29
401 549 268 82 22 32
408 556 262 37 24 25
283 921 255 115 94 76
404 562 262 32 24 25
412 551 270 72 49 45
410 561 264 43 25 26
411 561 266 53 33 33
334 800 268 194 140 119
412 556 270 87 57 50
483 915 230 66 53 43
414 551 279 126 85 73
413 556 275 121 81 70
415 556 279 144 98 84
402 571 263 46 22 24
406 570 262 88 17 31
408 571 265 72 36 37
405 576 263 78 19 29
407 576 265 81 38 39
410 567 269 98 65 57
396 646 272 148 109 93
388 871 201 63 55 52
411 566 270 108 73 65
410 571 270 112 75 66
412 566 275 137 95 81
378 872 268 39 36 35
414 566 279 152 105 87
410 572 274 138 97 82
413 576 280 152 107 87
414 571 280 153 107 88
363 841 180 55 47 46
420 521 284 130 86 76
427 671 279 165 111 81
418 526 280 92 59 54
420 526 284 140 93 81
280 950 265 78 72 71
417 531 280 106 68 60
524 960 206 106 88 69
417 536 280 118 76 67
420 531 284 143 97 82
419 536 284 146 101 84
421 536 286 156 108 90
416 541 281 125 83 71
421 541 287 158 111 90
442 521 270 174 117 95
442 526 265 116 34 42
369 842 161 125 100 83
438 521 285 170 116 87
445 526 262 137 16 44
438 516 285 168 116 84
440 526 275 176 117 90
439 526 280 170 115 86
437 526 285 169 116 85
442 516 275 166 111 84
488 925 219 94 81 73
441 515 279 174 117 89
441 520 274 176 118 91
441 524 273 182 123 95
440 536 266 138 51 53
404 601 275 157 111 93
438 541 270 168 109 84
309 910 318 162 117 101
444 531 261 145 14 45
428 671 275 154 103 72
442 531 264 130 33 44
429 671 270 136 94 62
441 535 264 137 32 47
443 536 261 149 12 46
433 781 211 62 47 42
448 531 260 157 4 48
448 536 259 162 2 50
353 936 321 59 54 52
440 532 266 130 45 47
443 541 260 153 16 48
437 536 280 168 115 84
435 532 287 171 117 89
435 536 287 173 118 92
436 536 284 170 116 87
409 840 140 113 90 68
434 541 286 172 119 92
423 516 290 165 120 100
428 516 291 163 118 89
424 531 289 171 121 98
424 536 289 171 120 96
429 756 292 155 107 73
428 541 289 173 121 93
439 906 241 79 66 53
432 541 288 173 119 92
436 526 288 169 117 88
416 546 281 140 95 80
437 711 265 129 89 56
419 546 284 153 107 88
419 551 284 156 110 89
421 551 287 167 118 93
421 556 287 164 115 91
422 561 287 165 115 89
434 546 285 172 118 91
433 556 285 172 119 91
429 561 287 174 117 90
404 902 270 67 51 42
432 561 284 171 118 89
423 566 287 167 114 88
418 576 286 158 112 87
432 566 284 171 119 87
503 886 220 68 55 44
428 571 286 172 119 88
428 576 286 170 118 86
439 551 260 59 33 35
437 556 260 84 36 41
437 561 260 122 46 49
440 557 257 145 25 49
443 546 259 144 20 48
442 551 258 96 28 39
445 548 257 111 29 45
447 545 258 162 13 52
437 546 275 165 113 82
436 551 275 163 115 83
327 921 313 153 117 89
436 551 279 165 115 85
436 545 283 169 115 86
435 556 280 168 118 86
435 561 280 166 115 84
435 568 257 67 30 35
436 565 260 126 62 56
436 566 270 157 108 77
433 571 260 130 85 66
435 568 263 147 101 75
433 576 260 141 94 71
436 571 270 157 109 78
435 576 276 159 109 77
436 571 275 161 111 79
424 546 288 171 121 95
424 551 288 171 119 93
424 556 288 170 118 89
424 561 288 172 118 90
424 569 288 170 115 87
388 581 270 75 27 34
392 581 268 90 24 35
388 586 269 72 27 36
391 586 268 86 26 35
393 591 266 84 22 34
391 591 268 64 27 34
387 601 268 60 27 30
393 596 266 112 24 41
390 597 267 81 25 35
388 606 267 147 25 51
393 606 265 124 28 43
398 596 265 101 28 37
398 606 266 98 45 45
400 577 262 39 25 23
406 581 266 85 50 47
407 581 270 125 86 76
427 731 288 164 109 77
404 586 264 69 40 38
406 586 270 132 92 80
406 589 272 143 101 86
409 581 275 146 102 87
405 592 273 150 107 91
411 586 281 152 109 87
411 591 282 152 109 87
413 591 285 154 111 85
414 586 285 152 109 84
402 596 266 102 52 49
402 606 270 150 103 90
304 851 255 176 131 107
404 606 275 158 111 94
428 896 285 56 45 36
410 596 283 153 110 88
410 601 283 155 112 89
412 601 286 156 113 88
410 606 284 159 115 91
412 606 286 158 115 89
415 601 288 157 114 87
388 616 264 160 16 50
463 867 219 45 38 31
388 621 263 154 20 50
393 621 263 110 38 43
389 623 262 131 26 44
399 621 270 156 107 92
392 626 262 110 40 44
388 641 258 97 29 36
392 641 261 112 58 56
395 626 264 120 63 57
398 626 270 156 108 93
396 630 267 150 101 88
397 631 270 156 110 93
400 626 274 165 118 100
311 835 262 160 124 99
399 636 274 162 120 101
400 612 269 149 100 89
401 611 271 154 107 92
340 874 177 76 62 59
401 615 272 156 109 93
403 611 275 161 114 96
402 616 275 164 117 98
482 957 215 126 105 83
405 611 278 164 117 97
405 616 278 170 123 101
400 621 273 164 116 99
404 621 279 172 123 103
279 906 300 187 137 118
407 621 281 173 125 103
273 832 246 43 34 37
409 611 284 166 121 96
411 790 192 56 46 41
411 611 286 165 122 94
409 616 284 169 124 99
409 621 284 173 127 102
404 626 279 172 125 104
407 631 281 174 128 106
402 636 277 170 125 106
404 636 279 172 128 108
404 641 279 173 131 109
409 626 284 175 128 104
412 626 286 176 131 103
409 631 284 175 130 106
421 824 275 159 96 72
410 641 283 175 135 111
414 621 288 172 127 99
432 581 260 144 98 73
346 778 277 65 57 53
430 591 258 141 96 72
428 586 286 167 116 84
430 596 258 144 100 72
294 945 230 76 71 71
432 596 261 151 106 77
430 601 258 148 104 74
432 601 260 153 108 77
428 596 286 166 116 84
429 606 286 167 116 86
435 586 265 158 112 81
434 591 265 161 114 82
357 871 270 110 84 68
435 591 270 157 110 77
434 581 280 162 109 79
435 591 275 157 108 76
434 591 280 163 112 81
434 596 265 158 111 79
433 601 265 160 113 80
434 596 275 155 107 73
433 601 280 163 112 81
292 842 214 86 65 59
433 606 280 165 113 81
419 591 288 162 118 88
423 586 288 165 116 84
431 629 278 147 102 67
423 596 288 166 116 83
292 921 230 62 57 59
423 601 289 167 116 83
418 606 289 164 120 90
426 596 288 167 115 84
426 606 288 166 114 85
430 612 258 143 101 72
431 611 260 148 104 73
429 616 260 147 106 74
432 611 265 159 112 79
431 615 262 158 113 79
431 616 265 162 114 80
432 616 270 154 105 70
431 621 270 154 105 71
489 920 224 90 73 59
430 623 269 157 109 74
429 616 286 167 116 84
431 616 284 166 114 81
431 621 283 165 115 81
426 624 257 134 97 66
493 946 211 113 86 62
430 626 270 154 105 71
431 624 272 152 103 68
429 631 270 154 105 72
424 641 260 162 116 84
409 831 209 61 51 48
425 642 264 168 115 87
428 636 270 151 102 74
430 631 275 136 94 60
430 631 280 155 107 73
428 631 285 175 120 92
430 627 281 160 109 77
430 636 275 129 90 56
497 877 211 73 60 49
430 641 275 131 92 59
433 611 270 153 106 71
418 616 290 170 124 94
440 714 257 74 51 38
434 791 244 63 45 37
423 616 289 170 117 86
426 611 288 165 116 84
426 621 288 170 120 89
456 937 237 90 80 73
418 631 289 185 133 103
423 626 289 180 125 93
336 906 308 146 108 85
423 631 289 183 125 96
418 636 288 187 134 106
423 636 288 186 127 99
422 640 288 189 131 102
345 909 302 114 92 74
453 521 260 154 2 47
458 516 259 153 1 47
303 967 260 86 80 83
458 521 258 157 0 47
462 519 258 158 4 50
459 526 257 159 0 50
450 543 257 167 13 52
339 922 210 73 69 72
456 531 258 159 2 47
388 651 260 65 34 33
388 656 260 66 32 33
391 656 261 64 43 39
393 651 265 126 85 75
394 651 270 143 98 86
394 656 270 143 98 85
399 646 274 158 116 98
328 866 295 122 98 72
396 656 272 147 104 89
406 872 268 47 43 41
398 656 275 151 110 92
393 661 265 106 70 62
348 771 179 75 37 38
388 666 262 45 27 28
389 671 262 56 29 28
387 672 263 48 23 26
392 666 265 90 59 53
394 666 270 134 90 79
413 861 220 74 62 54
395 662 273 143 102 86
374 848 169 132 104 76
398 661 275 146 108 89
408 832 265 98 61 47
397 666 276 143 105 86
402 646 276 165 122 103
404 646 278 162 121 100
402 651 277 163 122 101
404 651 279 157 118 97
407 651 281 157 124 100
348 876 175 88 74 73
407 656 281 155 119 96
413 646 285 177 136 112
284 820 253 64 54 51
410 652 283 165 128 105
413 651 285 174 131 107
409 656 283 163 126 101
413 656 285 174 130 105
401 659 277 153 114 92
400 662 278 149 113 91
406 660 281 154 118 93
408 661 284 161 124 97
403 666 280 148 113 88
402 671 281 147 113 86
405 666 283 151 115 89
404 672 283 150 115 88
413 666 285 167 123 92
388 676 263 42 27 27
388 681 264 33 25 26
388 686 266 52 21 25
388 688 268 65 18 24
392 686 270 91 54 49
393 676 270 124 82 72
393 681 270 113 75 66
363 917 314 41 37 36
394 681 275 137 93 82
396 675 277 141 100 84
369 900 291 32 29 31
396 681 277 142 100 85
396 684 277 142 100 85
388 690 271 74 21 28
388 696 276 93 23 33
393 691 275 106 65 58
387 698 278 112 18 35
394 696 278 114 73 63
395 692 278 140 97 82
397 691 281 145 104 87
401 680 282 148 109 88
408 676 286 155 116 87
308 776 266 64 56 52
403 686 284 155 116 91
407 686 287 161 120 92
348 916 306 43 40 40
413 681 287 166 118 85
400 688 283 151 113 90
336 832 193 54 47 47
403 691 285 156 115 90
313 831 200 82 63 55
406 700 287 163 119 94
410 683 288 167 122 92
389 836 184 71 57 52
409 686 288 167 123 92
409 691 288 167 122 94
405 703 288 164 121 94
413 696 289 170 119 87
344 857 165 94 81 70
283 840 235 49 40 38
413 701 289 170 117 86
443 896 219 76 63 59
423 651 260 141 100 70
424 656 260 138 98 70
428 646 270 118 82 54
425 655 263 141 98 69
426 651 266 117 83 54
491 928 217 98 83 73
428 651 270 111 79 48
426 656 265 127 90 60
428 656 270 117 82 51
423 651 285 185 128 100
423 656 284 182 124 95
363 846 160 125 98 76
399 911 280 67 56 49
429 646 275 136 95 62
429 646 280 169 116 86
427 646 284 181 124 97
429 656 275 154 105 73
423 901 290 62 55 52
426 650 283 180 123 96
425 660 259 134 97 66
426 658 262 141 99 70
426 661 261 139 100 68
328 856 284 142 114 85
428 661 270 123 87 55
283 829 248 66 54 49
425 666 258 128 93 63
427 666 260 135 96 66
428 666 265 133 94 62
427 671 260 129 93 62
425 662 282 178 119 92
428 666 275 156 105 73
268 801 254 142 111 85
429 676 260 123 89 57
430 676 265 130 92 59
429 676 270 138 95 62
430 681 270 140 96 63
431 683 262 124 88 56
430 685 259 108 82 53
431 683 269 137 96 59
431 686 270 139 96 61
430 684 272 146 100 65
422 676 284 165 110 79
419 686 287 167 113 81
313 968 306 71 64 62
423 686 285 163 109 77
427 681 280 160 107 75
432 691 270 141 97 63
423 691 285 163 109 78
298 972 290 56 53 51
423 696 286 164 109 78
428 691 280 157 106 74
430 690 277 153 104 70
431 696 278 156 105 72
431 701 279 157 107 73
427 701 284 161 106 74
432 691 265 131 92 58
433 696 260 116 83 53
433 696 265 131 91 59
435 701 260 117 84 55
434 701 270 140 95 62
418 696 288 168 113 81
393 706 280 86 40 39
388 706 281 97 18 34
389 710 282 78 23 34
385 896 225 62 57 57
388 716 285 124 18 41
396 711 282 137 90 77
399 711 284 148 104 85
398 721 284 146 95 80
389 726 286 145 11 43
389 731 286 142 13 44
402 726 287 156 111 89
388 736 289 129 17 42
405 706 288 165 120 94
408 706 289 168 121 94
408 711 289 168 122 94
404 716 288 167 122 96
408 716 289 170 123 95
408 721 290 170 124 94
413 716 290 171 118 86
413 721 291 171 119 87
404 726 288 167 121 95
408 736 291 173 126 98
413 726 291 171 120 88
303 965 245 86 82 85
413 736 292 171 121 88
390 744 287 114 16 40
398 741 286 133 88 72
398 746 286 137 93 75
394 755 287 134 98 71
396 755 287 115 74 54
401 740 287 156 111 88
388 751 289 43 37 37
391 748 288 60 28 34
475 925 220 131 115 111
400 746 288 153 110 87
388 756 289 46 40 39
393 761 289 143 104 76
388 766 290 77 61 51
400 767 293 164 124 95
472 906 245 63 48 36
406 750 292 174 129 100
282 884 285 90 37 45
412 741 293 171 123 89
423 883 255 43 37 35
413 746 293 169 123 89
413 751 294 168 124 88
415 744 292 166 119 83
402 756 291 168 124 96
404 756 293 173 128 99
405 753 293 174 129 100
408 761 295 170 127 96
401 764 292 162 120 92
413 756 295 167 123 89
424 706 286 164 108 78
424 711 287 164 108 76
430 710 282 159 106 75
431 712 283 159 107 75
433 716 280 157 105 73
339 826 186 58 51 50
431 721 283 161 106 75
440 798 233 68 51 47
428 726 286 162 107 74
326 968 243 93 90 93
429 731 286 163 107 76
432 731 284 162 108 76
429 736 287 162 109 77
435 704 261 125 88 56
435 705 265 128 89 56
435 706 270 138 93 61
436 711 270 138 94 61
439 716 260 117 83 54
439 716 265 131 90 58
402 791 180 57 47 44
439 721 270 144 98 65
442 721 260 103 73 51
441 722 264 131 90 59
433 706 275 149 100 67
435 715 276 152 103 70
434 721 280 159 106 73
436 712 273 146 98 64
440 726 270 149 101 67
444 726 260 104 74 52
440 724 267 141 97 65
443 736 265 147 102 69
446 731 258 78 58 43
441 731 269 151 103 69
440 731 271 154 106 70
436 722 278 157 106 70
437 731 279 162 109 75
437 736 280 163 109 77
434 731 281 162 109 76
418 706 289 168 112 80
418 711 289 170 114 80
422 711 288 166 110 77
423 716 288 165 110 78
352 929 217 69 65 68
423 721 288 166 110 78
418 726 290 169 115 83
308 941 314 138 106 90
418 731 290 170 117 84
423 731 289 167 112 81
299 960 308 54 51 52
423 736 290 166 113 78
433 746 285 159 108 75
443 741 265 151 105 74
408 826 210 54 45 45
445 741 256 94 67 45
442 741 270 160 109 76
428 901 230 77 64 58
445 746 256 109 77 55
445 746 260 141 101 69
445 750 257 120 85 58
445 751 260 148 106 73
442 746 270 162 111 78
443 751 270 166 115 81
438 741 280 164 112 79
440 750 277 165 113 79
446 753 258 130 91 62
412 893 233 55 47 46
446 756 259 147 104 72
443 756 270 170 120 84
446 764 260 155 106 74
308 891 235 86 65 45
445 766 265 165 114 79
435 755 287 157 107 74
440 756 281 163 110 77
274 892 288 131 95 76
437 756 285 161 110 76
440 761 281 165 112 77
440 766 281 166 114 80
438 766 285 165 112 78
441 753 278 165 111 78
358 911 216 67 62 65
441 756 279 165 112 79
442 761 275 167 114 80
442 766 275 167 113 79
418 741 292 166 116 81
423 741 291 162 112 77
418 746 292 163 116 81
418 751 293 161 118 81
379 849 159 124 93 64
423 746 291 160 112 77
428 741 289 161 109 76
432 751 289 155 107 72
531 459 219 102 12 36
418 766 297 163 119 82
427 756 293 156 110 74
428 761 294 157 111 75
436 762 288 161 109 76
286 884 258 149 112 84
436 767 288 164 113 79
263 771 185 147 105 70
361 854 263 139 107 82
260 781 187 154 107 73
263 781 186 155 108 73
267 781 183 158 110 75
407 856 215 61 50 47
258 786 190 159 110 75
262 787 188 161 110 77
258 796 192 169 115 81
259 800 192 172 118 84
268 786 184 167 115 81
293 965 265 85 81 83
267 797 188 180 123 90
268 801 189 186 128 95
273 796 186 188 130 96
270 799 187 187 128 95
463 874 210 73 59 47
273 801 187 188 130 96
279 771 176 129 94 61
283 771 174 88 50 44
421 911 275 69 58 48
276 771 178 134 100 64
282 782 178 117 89 72
286 783 178 56 49 52
274 789 182 185 127 95
278 796 184 154 112 86
278 801 186 131 97 78
283 786 179 85 68 62
378 837 160 96 68 49
283 797 183 58 50 52
288 796 182 86 67 59
283 801 185 66 56 55
288 801 184 87 68 60
276 803 188 174 127 97
278 815 192 62 54 55
317 921 318 152 120 97
283 806 186 75 61 57
282 808 188 70 59 56
283 811 189 84 66 60
288 816 191 91 70 63
293 776 174 82 64 56
281 889 263 157 117 90
294 770 172 40 35 37
293 781 176 85 66 57
300 768 173 144 16 32
303 776 173 81 59 52
289 785 177 83 64 56
298 785 177 86 66 55
298 787 178 87 68 57
303 785 176 83 64 54
297 799 182 89 69 59
298 801 184 89 69 60
523 466 225 121 16 41
303 796 181 87 67 58
304 798 183 87 67 58
308 776 174 84 59 53
313 771 173 117 32 43
313 776 175 87 63 54
408 806 200 64 52 48
308 781 175 82 61 53
313 781 175 83 63 54
318 776 176 87 65 56
312 820 192 87 68 58
308 787 179 83 64 55
308 791 180 84 65 55
308 795 181 84 66 56
308 798 183 85 67 58
308 801 184 87 68 58
313 795 182 83 65 55
313 801 185 84 66 56
478 922 249 89 73 59
318 785 177 83 64 55
318 791 181 82 64 55
318 795 182 80 63 53
318 801 184 80 63 55
293 806 186 91 71 62
293 816 190 92 71 62
303 806 186 89 70 60
299 809 187 91 71 62
298 811 188 92 71 62
298 867 260 105 83 58
303 816 190 92 72 62
293 820 192 91 71 62
310 808 188 91 71 60
313 816 191 88 68 59
318 811 191 81 64 55
258 771 250 142 106 76
258 776 251 151 115 81
266 771 251 100 78 61
266 776 252 114 86 59
273 781 256 49 41 37
258 786 253 163 123 88
263 786 253 158 117 84
318 967 240 85 82 85
273 791 254 46 39 36
263 791 254 163 122 88
298 862 270 109 90 72
258 801 255 168 130 96
318 940 216 75 68 70
263 796 254 167 127 93
404 774 188 45 40 39
268 786 254 103 81 62
268 791 254 112 87 68
273 786 255 47 40 36
273 796 254 45 38 37
278 791 256 57 47 40
262 807 193 180 125 91
258 816 200 198 137 106
260 813 198 198 139 105
263 811 195 189 131 99
479 951 215 97 79 62
263 816 199 199 139 109
264 814 197 195 136 104
273 816 194 159 115 91
256 818 203 196 134 101
263 821 201 202 140 110
258 825 206 208 144 114
263 826 205 211 147 119
264 829 207 215 152 124
267 818 198 196 136 105
268 821 199 196 137 107
270 819 197 193 134 104
268 825 201 190 136 107
268 830 206 176 126 103
257 827 208 213 147 117
258 831 211 219 150 121
261 828 208 214 148 119
388 926 301 57 50 46
282 931 255 69 63 62
278 817 193 66 53 54
279 824 197 82 66 60
278 829 202 92 73 66
278 831 205 94 75 68
498 926 220 96 79 66
283 821 194 90 70 63
286 818 193 90 69 63
288 821 193 90 70 62
288 826 196 92 72 64
287 828 198 94 74 65
288 830 201 96 74 66
288 832 204 98 75 67
358 812 173 63 51 47
388 806 184 56 45 43
258 806 255 171 130 96
263 806 255 161 124 92
258 811 255 177 137 105
498 881 210 76 62 49
258 816 254 189 143 114
263 816 254 182 136 107
268 806 254 141 114 88
268 816 253 166 127 100
273 811 253 45 40 40
258 819 253 190 139 111
263 831 246 207 156 132
448 887 218 83 70 58
264 829 248 201 153 128
268 821 252 170 129 101
268 819 253 174 132 102
270 818 252 124 101 83
274 817 252 45 39 39
291 924 233 59 55 57
273 829 248 45 36 37
278 806 253 56 47 41
278 811 253 59 50 43
283 811 254 60 51 47
282 817 252 58 49 46
288 816 255 61 51 47
278 821 251 53 46 43
278 826 250 57 50 48
278 829 248 57 49 46
282 821 252 61 54 52
286 823 252 61 54 52
283 832 246 62 48 45
288 832 246 60 49 47
303 823 193 94 73 63
303 831 200 95 74 64
314 817 193 85 67 57
318 816 193 80 63 55
328 921 206 80 74 75
313 821 194 85 66 56
308 828 198 88 70 60
308 830 200 88 69 59
359 957 300 71 62 60
318 821 195 80 63 55
378 851 171 97 77 59
293 831 245 64 47 41
529 906 221 92 77 62
293 826 250 62 45 43
290 824 253 60 54 54
303 820 254 150 98 83
413 899 250 82 66 56
303 823 252 132 93 78
298 828 247 100 72 55
298 830 244 93 65 50
304 856 260 153 116 92
403 851 259 44 39 36
298 832 241 94 64 48
301 828 247 126 91 74
303 826 250 146 108 89
305 831 250 170 127 106
308 821 255 176 127 106
285 965 290 55 52 53
306 826 252 170 125 105
363 796 279 69 59 56
408 781 299 175 133 101
308 826 255 167 124 102
306 831 252 167 124 102
263 836 215 225 152 119
257 838 224 221 148 119
323 806 262 175 120 100
261 838 223 220 148 116
263 839 225 206 141 115
301 905 230 151 104 87
264 839 221 217 147 117
273 836 210 75 61 63
273 838 215 76 63 63
268 840 225 108 78 67
270 839 217 80 50 53
333 980 255 63 59 60
272 839 217 70 58 59
273 839 220 73 59 58
273 840 225 69 57 54
285 834 207 98 75 68
288 834 206 100 76 67
278 838 220 89 69 63
281 833 208 99 76 68
283 836 210 97 74 65
288 837 209 97 73 66
494 923 221 101 86 73
283 841 220 85 67 61
375 848 174 94 78 63
288 846 225 59 51 54
263 840 230 194 137 110
258 839 234 206 144 117
257 838 236 210 149 124
258 836 240 207 145 121
517 939 210 112 92 72
263 839 235 202 147 121
418 884 249 45 37 36
282 926 301 176 137 117
263 837 240 201 144 118
273 838 237 51 38 38
421 826 227 62 52 50
263 834 243 204 149 125
277 839 234 55 46 47
278 837 240 57 46 43
283 841 230 56 46 47
281 838 236 54 45 41
283 837 240 56 43 40
284 839 238 50 40 37
285 844 226 70 56 59
289 844 233 43 30 37
283 834 244 57 44 41
288 835 244 56 45 44
373 816 276 68 56 52
288 891 255 148 112 81
303 833 203 95 73 63
300 839 207 93 70 63
442 902 230 59 50 46
303 840 206 85 64 57
293 841 211 92 69 61
295 844 212 81 63 59
358 771 283 69 58 54
290 844 217 81 63 59
292 848 225 63 57 57
302 848 213 163 117 91
294 849 221 153 121 99
341 964 303 77 71 68
294 849 225 184 138 108
374 797 169 62 50 46
299 849 216 175 127 98
383 891 280 32 31 31
308 836 204 85 65 56
308 841 206 64 53 52
313 836 203 79 61 54
317 834 202 81 62 55
318 836 204 70 55 51
358 942 223 72 66 68
312 843 208 109 88 70
313 846 210 153 104 78
308 848 213 167 112 82
456 888 255 50 40 38
308 850 216 164 108 81
313 848 213 156 102 78
313 850 215 151 99 75
306 853 223 168 110 84
313 852 219 147 96 74
313 856 225 150 99 76
368 956 245 85 78 76
503 941 226 90 74 59
316 848 213 147 97 72
318 851 215 119 81 63
316 853 218 122 82 63
293 839 238 79 54 44
316 780 267 70 58 52
293 836 240 65 42 34
293 847 230 132 101 82
296 848 231 182 128 100
300 845 238 164 112 86
302 841 241 169 118 93
295 833 242 84 55 39
304 841 245 167 120 98
295 849 228 191 137 106
302 852 230 189 128 97
302 851 235 181 124 95
303 851 240 176 121 93
303 851 245 180 131 104
304 856 240 180 126 96
303 851 250 178 134 108
305 841 250 168 126 102
306 840 252 167 126 102
379 881 214 61 55 57
308 856 230 178 119 90
309 860 236 168 112 83
393 843 171 89 76 69
307 861 239 175 123 94
314 860 231 149 100 74
418 866 240 60 51 46
313 861 234 157 106 79
316 863 233 142 99 74
305 860 241 183 130 101
320 871 205 43 39 41
320 876 196 49 44 43
298 866 309 186 147 122
319 876 200 44 40 40
320 872 201 46 42 43
319 871 210 39 36 38
320 871 215 44 40 40
317 881 210 38 36 36
286 906 254 155 116 91
320 872 219 44 39 40
319 876 225 51 45 43
442 907 240 79 63 47
317 881 225 49 46 45
315 887 206 48 43 43
316 886 204 47 42 42
314 896 200 60 55 53
316 896 195 74 66 63
