ply
format ascii 1.0
comment Created by Open3D
element vertex 2220
property double x
property double y
property double z
property uchar red
property uchar green
property uchar blue
end_header
413 504 214 139 5 36
244 409 263 134 101 72
378 484 413 153 5 49
255 409 213 102 88 75
252 60 220 78 44 21
432 759 293 149 100 71
338 286 226 84 73 62
256 144 238 117 96 73
368 289 230 111 88 61
374 558 184 109 31 41
243 444 188 138 5 37
249 69 223 123 30 44
233 474 243 143 10 43
265 160 230 124 97 63
265 80 206 136 24 44
253 62 217 81 38 23
253 464 156 138 3 36
335 284 226 87 75 63
275 19 303 148 105 88
233 469 233 66 30 35
275 194 273 116 93 66
234 449 223 73 34 36
408 421 206 138 7 42
256 244 229 130 98 60
260 59 268 105 37 41
380 944 327 84 72 61
350 949 253 68 62 64
256 34 253 82 28 31
232 532 225 131 31 49
424 694 248 82 62 45
252 94 228 121 25 40
299 375 215 99 86 72
252 56 238 94 35 34
292 44 257 93 54 44
247 199 239 122 98 71
350 599 199 76 33 38
315 39 264 107 5 36
320 734 342 144 17 49
254 89 222 137 15 45
381 890 273 58 54 53
257 16 286 87 63 55
244 474 259 81 30 38
360 489 309 98 8 31
370 784 219 64 53 51
354 503 134 53 36 38
380 635 313 148 90 74
386 897 281 65 56 59
280 39 243 84 60 46
409 454 268 56 29 31
254 39 253 105 35 43
280 109 248 112 79 55
256 469 148 142 4 35
275 909 316 184 136 115
388 396 258 133 105 73
255 44 248 105 41 42
270 634 293 62 27 33
394 442 145 82 31 38
258 134 237 116 95 72
248 392 236 115 93 67
293 219 253 112 87 58
374 659 298 84 26 36
335 54 258 119 62 59
284 459 283 63 24 30
350 29 258 119 43 49
350 863 209 61 57 60
409 509 333 132 9 40
257 45 244 95 37 34
295 514 274 118 4 38
470 879 287 78 63 48
254 459 153 142 4 36
315 589 178 196 9 42
346 807 207 51 52 55
339 831 300 110 79 75
310 374 258 95 64 49
327 314 231 83 73 63
265 759 183 120 88 56
351 105 223 107 79 58
253 54 248 111 53 51
236 469 208 69 33 36
275 684 212 64 29 35
370 634 243 86 28 37
387 601 236 39 31 38
251 74 233 99 62 56
351 422 141 93 77 59
271 89 212 147 11 38
373 269 229 117 90 57
351 644 227 80 29 35
370 515 414 141 21 50
330 709 193 65 49 45
253 57 228 82 47 30
351 59 203 97 43 31
250 379 238 119 95 68
396 864 256 79 71 64
369 324 234 109 88 64
359 779 215 59 51 50
255 49 243 98 35 38
260 559 298 110 75 62
308 673 320 129 11 42
290 359 289 136 95 75
247 420 169 48 40 42
401 569 228 131 26 45
386 591 315 70 23 33
251 59 233 103 34 41
418 501 265 139 6 35
273 557 276 39 30 31
254 49 248 115 26 40
325 659 212 112 19 27
253 59 253 112 48 52
340 13 268 108 65 61
265 574 174 101 30 40
295 234 243 108 84 53
251 454 272 75 28 36
276 32 246 105 89 72
269 99 214 145 16 40
417 906 306 50 43 38
388 484 366 54 23 30
366 505 409 39 26 27
244 394 253 127 99 69
412 478 226 36 32 34
233 464 233 60 29 33
381 633 317 172 110 90
248 179 243 120 98 73
409 499 333 133 8 39
305 985 258 75 72 73
252 62 237 105 75 62
331 50 203 123 72 41
336 159 252 102 78 59
290 59 253 112 36 43
285 429 133 150 2 32
304 421 142 124 63 41
256 40 249 86 45 31
237 580 287 157 122 94
400 429 253 87 25 34
253 44 253 89 63 45
290 254 268 121 95 65
405 459 298 101 13 34
285 194 238 108 85 57
290 30 289 139 28 55
252 385 230 115 93 68
352 106 209 128 28 46
296 951 316 40 38 40
367 459 138 105 26 36
340 428 113 90 72 54
255 814 244 54 45 43
249 184 238 118 95 70
254 389 279 138 103 78
285 635 201 149 6 36
417 727 233 67 51 41
330 554 338 177 124 100
221 719 202 157 108 82
398 587 306 171 11 55
271 603 185 52 31 34
394 514 318 61 23 28
254 53 238 89 32 36
363 194 220 124 98 66
256 124 239 113 91 67
265 544 162 70 24 34
251 59 228 97 36 36
265 189 275 119 96 71
281 814 272 179 128 109
395 417 228 92 20 30
357 735 206 50 41 39
241 414 233 103 84 64
245 394 263 133 101 71
319 740 173 79 57 45
254 369 278 135 102 75
284 99 243 105 32 35
266 452 135 149 17 46
310 914 307 151 115 92
249 64 228 109 35 41
251 64 233 96 59 51
223 736 176 174 114 85
255 830 218 195 131 97
308 349 253 96 68 53
417 480 182 77 32 39
344 87 190 144 22 43
275 945 310 183 141 120
261 334 288 132 95 70
251 174 238 116 94 70
262 164 230 125 98 64
251 349 248 129 100 68
320 407 178 99 84 68
280 74 213 142 15 38
233 494 221 139 2 36
263 666 221 113 25 33
329 839 187 70 60 58
327 189 243 109 86 63
415 454 158 169 16 42
400 441 146 118 26 35
346 943 268 60 51 53
256 129 263 113 94 74
327 124 238 115 86 64
410 748 320 161 112 78
232 509 228 51 31 36
251 59 238 110 32 43
420 464 278 95 16 29
250 84 243 97 54 48
369 854 163 92 79 72
300 439 134 86 33 36
237 509 194 102 32 40
361 896 239 58 55 57
408 852 282 59 51 45
336 800 192 48 40 39
315 412 273 64 48 34
252 56 234 101 28 40
251 639 238 154 25 51
339 64 252 116 85 67
334 427 117 83 69 58
495 864 272 110 90 72
336 421 296 91 70 53
254 354 238 116 93 67
281 199 269 117 93 66
247 244 268 121 96 70
255 413 178 64 45 39
307 354 238 74 64 54
254 74 212 134 13 41
249 184 263 121 99 75
375 417 173 90 74 54
253 64 234 106 75 64
324 735 166 60 46 36
240 729 166 166 111 80
235 729 166 172 114 82
394 416 230 84 26 28
382 547 361 152 14 49
361 679 315 70 24 34
253 64 238 106 76 67
318 94 226 113 28 37
240 419 198 133 24 38
455 944 307 90 77 67
235 754 172 178 117 83
261 344 287 141 102 75
246 209 238 121 96 67
335 49 193 115 34 18
330 395 204 87 72 59
235 429 243 103 21 37
412 672 306 163 112 90
424 729 240 76 52 41
265 39 278 120 43 53
320 309 238 72 62 53
354 616 320 139 43 49
295 929 312 160 124 97
378 381 281 120 95 65
248 490 166 40 34 40
261 264 230 128 94 59
251 74 248 104 34 41
237 469 204 49 33 35
249 544 318 108 76 59
254 54 243 99 32 38
365 410 301 104 83 59
474 893 283 87 70 62
349 99 199 130 25 38
336 439 103 79 41 42
237 420 208 105 25 39
286 84 258 122 11 43
253 54 253 111 81 66
327 249 252 112 87 64
394 844 278 49 42 39
355 324 282 127 91 60
389 416 217 64 41 32
270 464 273 33 26 28
252 56 242 110 37 43
243 464 183 100 17 32
240 569 308 165 117 96
230 684 199 126 89 66
318 100 233 121 22 39
234 444 228 71 31 35
409 813 264 68 55 46
295 485 285 77 15 30
265 489 268 51 26 30
385 445 146 157 10 34
252 59 243 118 21 41
256 84 262 96 42 42
246 434 173 112 23 40
369 355 230 98 85 71
320 417 152 88 72 55
233 484 238 141 3 40
251 94 233 131 26 46
320 834 291 184 147 122
325 12 263 118 69 63
300 710 200 78 30 36
259 899 304 166 124 106
309 438 296 100 13 34
252 98 234 102 69 58
345 124 249 115 92 66
326 433 296 124 5 38
376 284 248 126 96 61
252 449 159 138 6 39
260 189 229 125 98 64
397 829 274 55 46 42
252 62 246 122 15 39
281 587 175 134 31 50
260 394 218 101 85 70
255 415 163 71 41 36
340 419 148 89 74 59
246 254 239 134 100 66
314 734 183 57 44 38
371 284 259 124 96 62
253 57 245 121 23 44
245 239 258 121 96 67
358 695 321 143 5 42
322 299 258 104 82 58
377 249 243 122 95 64
372 353 275 125 98 68
373 279 256 125 95 61
320 577 170 198 14 44
406 849 282 63 56 50
246 419 173 46 39 41
407 530 201 162 15 43
323 293 259 90 71 50
253 58 249 117 44 50
258 106 221 127 12 38
269 44 213 127 34 21
285 354 223 91 80 70
405 539 203 190 17 48
387 676 261 57 45 33
415 889 293 49 41 36
398 504 348 138 17 46
253 64 243 103 42 47
277 931 225 63 58 59
259 934 251 151 118 91
393 411 248 101 80 63
253 64 248 112 27 41
255 254 278 127 99 74
393 411 255 98 83 67
253 821 240 44 34 39
254 64 253 108 50 50
232 499 223 147 0 40
310 762 196 87 41 45
367 494 414 113 14 37
417 499 248 147 7 41
364 879 169 96 84 73
321 389 233 106 86 77
309 755 324 85 68 62
254 239 231 128 97 60
320 894 294 150 119 96
254 324 274 135 99 72
252 69 214 124 31 41
221 674 159 158 106 75
351 114 223 100 79 56
396 875 261 68 61 58
320 11 293 143 46 61
280 379 213 95 84 72
335 808 311 76 63 59
285 365 219 93 82 72
346 818 197 62 55 54
254 219 275 118 96 73
323 365 225 76 64 53
286 174 253 108 86 60
352 324 285 129 93 65
266 46 225 99 80 57
425 945 318 93 73 56
305 354 273 113 77 59
248 250 236 132 100 63
248 744 170 161 109 79
253 314 247 107 86 62
230 630 183 107 91 75
248 454 172 131 5 34
335 39 223 116 91 66
430 904 283 82 68 58
353 89 223 118 37 48
490 871 277 98 80 67
254 69 212 117 32 40
256 84 213 144 7 44
353 40 235 84 42 38
235 669 194 87 57 44
246 416 183 53 34 34
381 404 231 92 79 65
380 504 368 75 21 31
355 507 323 51 20 27
250 69 218 127 29 42
280 164 238 113 87 54
237 571 242 129 9 40
254 474 153 143 7 38
354 644 229 72 30 31
253 602 286 163 108 95
270 899 247 132 102 69
326 914 202 83 72 73
360 194 217 128 100 66
252 74 214 136 12 45
398 460 366 36 31 34
250 154 258 114 93 71
350 39 253 122 14 42
256 74 209 131 12 34
252 379 234 119 95 68
256 20 264 107 37 40
365 474 423 62 25 32
256 344 238 109 88 66
253 209 231 124 97 64
308 356 234 76 66 55
287 80 253 121 47 52
238 499 245 157 1 49
248 674 174 116 81 66
405 484 164 94 26 40
365 825 173 75 62 54
331 204 253 108 86 63
338 256 221 124 97 65
252 77 214 140 4 41
335 479 118 112 29 41
366 279 226 112 88 59
364 801 220 57 50 52
276 80 212 146 10 39
245 631 239 83 39 40
270 129 232 121 89 50
377 506 388 62 23 28
255 59 258 113 17 39
373 269 256 128 95 63
263 343 231 101 86 70
378 565 344 78 28 36
447 700 288 177 119 90
363 175 224 113 93 71
345 798 198 51 47 51
268 944 236 67 63 66
413 485 219 128 13 37
249 74 223 133 17 45
246 209 243 121 97 69
341 779 206 55 50 51
399 475 328 101 8 36
418 504 248 145 6 41
259 114 237 110 86 57
355 410 183 93 78 62
280 564 164 68 32 37
251 79 218 141 7 46
381 359 253 126 99 68
252 494 159 82 32 39
283 254 230 116 89 58
414 464 163 73 32 39
317 397 244 61 54 49
378 405 291 119 94 63
250 79 223 133 10 43
360 865 168 102 83 78
253 80 217 144 7 45
256 419 277 139 102 80
217 684 191 154 106 80
265 134 269 118 94 69
496 874 257 107 87 71
242 419 253 119 92 64
390 469 348 65 24 32
265 284 287 107 85 63
247 224 266 119 95 69
252 83 220 140 9 45
233 509 213 150 2 39
355 418 158 93 77 60
348 16 268 99 46 45
245 389 243 119 95 67
390 449 378 75 24 32
272 47 226 112 94 74
315 84 233 113 24 38
251 84 223 135 8 44
329 552 155 74 34 41
375 334 243 111 90 66
243 234 248 122 98 70
257 670 276 106 16 41
344 64 189 99 44 25
410 484 208 139 5 40
252 103 243 127 22 45
300 395 199 103 88 72
359 716 210 54 41 40
254 417 157 75 38 42
319 374 263 96 67 52
233 489 223 139 6 40
273 831 240 52 45 47
385 419 292 108 37 41
290 219 237 112 86 53
331 124 223 121 91 61
264 161 271 116 93 69
350 426 123 92 74 56
254 84 218 141 7 45
256 49 263 122 37 51
247 229 267 120 96 70
254 159 238 111 92 72
314 559 318 149 103 84
353 488 125 118 32 44
329 19 197 117 31 13
317 844 204 61 53 51
329 973 239 71 68 73
255 89 218 135 7 43
236 444 218 65 33 37
346 879 212 63 60 64
257 405 215 97 84 71
233 449 228 60 33 35
280 934 314 172 135 113
306 422 146 113 66 42
326 194 238 110 89 65
406 658 289 147 103 89
375 449 388 109 2 35
283 271 281 118 93 64
275 59 213 87 35 21
250 924 263 126 103 85
405 438 145 158 17 37
253 86 221 137 4 40
323 76 208 138 5 39
253 39 258 115 29 41
308 821 202 57 47 41
254 94 223 133 18 45
421 439 288 70 27 35
404 539 198 192 18 48
254 444 275 74 29 36
366 412 187 94 78 61
250 269 273 130 99 73
368 204 224 114 93 68
256 94 218 135 12 44
261 823 242 67 56 51
357 158 249 115 93 69
247 479 168 72 33 36
335 13 263 105 71 62
240 714 283 118 12 41
353 99 213 98 55 45
288 349 291 132 92 72
249 69 228 114 29 43
371 324 237 117 93 66
345 869 209 69 65 69
250 164 243 114 94 73
340 834 183 107 84 69
408 490 329 63 20 32
259 514 157 147 8 38
270 424 131 143 7 34
251 69 233 112 25 42
355 149 248 116 94 69
260 109 219 123 44 46
278 741 305 81 48 50
329 869 287 155 117 93
252 70 238 117 17 39
295 374 283 125 90 70
347 59 243 113 51 55
244 244 243 130 101 67
259 104 218 122 26 38
321 29 239 69 36 29
404 503 174 45 34 38
351 724 202 61 40 39
270 11 278 83 52 46
261 134 234 122 98 70
255 624 208 84 31 39
387 484 368 56 25 29
253 349 242 121 96 67
279 204 272 118 93 65
315 24 248 86 27 27
313 33 247 95 29 25
265 11 278 86 44 40
267 787 271 77 62 56
336 744 193 57 47 43
250 149 253 114 93 71
429 764 278 84 60 46
230 744 213 156 110 85
280 478 140 43 36 38
341 944 253 75 69 71
275 624 293 84 23 36
243 409 258 132 101 70
345 209 265 116 94 69
284 832 210 86 69 63
393 476 381 80 31 37
237 459 257 145 18 47
253 67 235 106 38 42
330 149 223 115 89 59
287 208 265 117 94 67
305 869 292 175 139 109
249 754 274 136 36 54
250 179 238 117 95 70
253 67 238 112 22 42
333 918 210 76 69 70
280 26 295 146 25 56
254 359 238 119 95 68
337 748 188 64 51 45
305 449 295 30 25 27
296 883 305 139 109 78
249 74 228 123 25 44
211 649 188 130 98 62
250 79 228 120 22 43
308 966 231 91 87 91
237 434 213 55 34 35
335 549 338 166 114 90
351 799 173 75 57 46
370 809 218 52 48 49
285 400 193 102 88 73
254 434 275 113 84 64
283 254 277 120 95 67
368 196 225 115 93 68
290 952 220 91 84 87
370 939 303 92 76 67
448 656 291 140 104 74
254 299 278 135 99 74
308 359 233 77 66 55
418 912 285 69 54 49
356 500 312 41 23 24
238 439 208 44 37 36
375 582 327 134 19 48
346 842 291 160 126 103
251 79 233 107 44 47
340 324 288 126 91 66
345 109 199 131 58 56
290 819 203 79 61 54
325 269 238 92 75 57
420 444 283 50 33 32
423 499 274 77 25 32
413 466 258 79 34 36
250 219 233 122 95 63
245 417 209 102 55 51
251 74 238 92 57 50
368 824 205 57 53 56
246 209 248 119 96 70
242 410 238 118 95 68
390 724 306 64 37 34
270 619 283 128 14 43
361 364 227 89 78 68
304 677 206 44 34 36
370 359 282 121 95 65
250 889 298 158 52 83
265 224 226 124 96 62
251 169 238 114 93 70
253 230 231 127 98 62
366 299 269 128 96 63
251 79 238 117 27 43
361 159 238 114 92 69
247 474 169 64 33 35
318 773 181 67 49 41
323 405 267 101 71 56
253 74 234 102 80 72
249 284 268 130 97 71
366 259 264 123 96 62
253 641 255 143 27 48
235 439 248 51 30 32
270 609 283 89 23 38
400 754 227 88 60 43
250 429 272 127 95 74
365 769 222 65 54 49
336 35 265 121 32 48
240 434 198 96 26 39
265 709 302 130 12 43
253 132 253 115 95 73
331 194 252 107 85 62
345 164 257 114 92 67
329 349 230 73 63 52
265 39 238 113 79 51
255 94 263 110 43 46
355 599 203 146 28 45
255 179 232 124 98 67
290 394 203 101 87 74
250 284 243 143 102 74
408 489 337 87 24 33
238 441 265 107 27 44
284 976 305 69 64 63
414 674 298 113 72 55
252 70 243 114 15 37
353 94 204 135 32 48
252 98 257 113 21 41
327 896 196 68 60 59
246 729 233 64 35 40
320 379 248 88 65 52
254 394 223 110 90 69
256 219 277 119 97 73
474 893 288 89 75 67
254 184 232 124 99 68
236 779 232 153 116 83
409 660 287 145 101 89
249 164 248 114 93 70
251 429 158 66 36 38
336 364 291 136 100 76
385 810 335 191 141 113
245 638 228 115 71 65
348 134 215 126 99 66
400 929 313 68 54 46
315 794 183 60 48 43
230 633 178 107 91 74
255 229 277 118 96 73
325 264 233 92 75 55
390 449 363 128 5 40
248 417 176 47 39 41
253 354 274 124 95 65
310 406 180 101 86 70
252 70 247 106 25 38
345 734 338 182 8 57
379 500 311 40 28 29
244 394 243 119 95 68
280 754 297 80 65 58
265 414 163 82 57 50
250 414 273 140 106 80
298 473 141 65 33 36
248 284 263 130 97 70
296 417 152 100 85 68
248 179 253 116 94 71
340 169 257 113 91 66
391 739 230 53 43 38
345 398 202 93 79 65
262 972 291 48 43 44
237 504 194 126 19 39
286 388 212 100 88 77
253 68 243 112 13 40
304 341 235 75 63 52
380 418 173 87 70 50
270 835 228 57 49 50
374 219 238 118 95 70
322 660 211 111 20 25
453 660 283 151 110 80
317 98 238 115 13 40
402 737 225 67 51 38
256 339 278 128 95 68
376 533 378 52 23 33
253 69 248 106 35 40
330 559 337 174 123 99
362 402 211 93 79 66
450 893 265 94 74 60
250 234 233 127 97 62
390 444 304 114 5 37
298 329 277 115 80 56
256 29 258 92 39 38
339 159 216 131 101 63
286 219 268 122 98 71
280 189 268 112 89 62
335 484 293 131 1 40
274 36 285 127 17 43
285 474 294 51 22 28
254 69 253 104 86 68
335 514 134 178 7 38
335 114 250 117 93 67
380 759 203 75 57 52
335 254 263 114 91 66
369 314 233 113 90 64
295 444 298 64 23 29
254 99 228 126 25 46
365 524 388 154 21 54
284 794 284 49 41 43
325 259 248 106 84 61
412 663 284 147 100 89
400 430 148 98 25 30
442 647 282 95 79 62
250 434 273 106 69 54
421 780 257 67 53 45
250 74 243 95 46 43
400 931 322 49 41 37
286 38 251 91 32 18
250 79 243 112 27 41
325 962 322 74 65 62
364 169 233 120 99 76
274 574 285 61 18 22
250 79 248 105 35 41
274 50 218 117 100 83
372 260 226 117 90 58
239 489 249 109 15 42
375 434 139 97 32 40
355 224 267 122 97 70
255 304 278 136 98 74
253 138 260 112 92 72
370 939 323 63 55 50
252 79 252 99 35 38
391 626 287 61 44 36
295 279 268 113 87 58
340 21 240 96 84 72
247 224 235 120 95 65
393 504 392 147 9 48
370 676 216 73 52 45
253 72 250 98 45 45
320 304 238 76 66 56
375 289 238 122 93 61
251 344 263 131 101 69
248 664 182 105 72 57
254 74 253 100 81 64
308 567 300 113 0 35
296 934 205 83 73 71
330 69 253 116 63 59
239 464 198 122 14 35
258 653 270 155 2 47
252 84 256 100 31 40
327 82 208 134 4 42
251 484 158 87 28 38
275 401 285 130 94 74
330 402 191 93 78 63
365 174 233 120 99 75
241 638 188 101 79 58
322 411 276 75 57 46
252 75 251 93 42 35
256 349 278 125 96 66
238 447 211 59 24 28
268 146 230 128 99 64
300 829 212 73 56 50
254 39 263 119 35 47
335 23 237 110 78 58
356 214 265 121 97 70
278 114 262 124 95 69
395 779 332 159 119 83
346 739 173 63 48 40
253 164 237 111 92 70
240 418 213 114 27 42
365 334 274 123 95 62
250 169 243 114 94 71
265 89 271 108 56 51
408 844 279 64 54 47
314 49 238 90 37 33
369 780 173 91 70 53
241 409 243 124 98 68
353 102 223 116 63 57
236 514 198 66 29 36
355 424 303 106 82 57
266 973 297 51 46 47
253 910 256 160 116 92
354 769 179 60 52 47
404 544 298 37 32 35
403 451 341 127 18 38
253 78 254 97 77 60
257 23 282 119 18 41
320 719 345 118 20 42
283 339 296 129 87 70
344 904 218 62 56 60
247 384 267 133 101 72
238 681 196 91 61 45
250 99 248 124 33 46
437 724 273 103 73 55
394 828 298 143 92 68
251 374 238 121 96 68
247 205 261 118 94 68
380 814 229 66 53 52
315 419 148 92 77 61
238 479 198 130 16 36
241 414 248 126 98 68
247 408 271 139 104 77
247 546 320 135 105 79
384 767 325 154 118 86
250 84 228 124 21 42
268 746 190 82 61 39
253 105 253 124 97 72
274 16 260 92 79 66
335 423 128 87 73 57
320 693 334 125 5 37
252 139 248 114 93 71
390 494 163 128 21 38
366 184 238 116 94 69
249 374 243 118 94 67
247 540 309 118 91 71
445 897 273 90 74 61
333 282 270 104 82 58
253 105 248 127 99 73
335 372 230 87 73 60
288 74 263 127 91 74
301 329 274 116 79 59
309 464 136 105 29 37
223 720 171 164 106 78
349 34 234 93 48 36
380 530 388 187 13 58
325 319 229 79 69 59
330 738 169 62 47 37
290 504 277 59 22 30
262 963 254 92 81 77
413 682 281 104 79 68
256 269 234 130 96 61
258 54 264 116 86 73
326 184 238 108 87 63
380 932 295 69 56 50
247 259 240 135 101 65
356 794 213 57 47 50
295 489 141 68 32 37
385 698 219 70 53 46
261 634 278 49 29 32
250 84 233 119 41 49
250 464 268 126 22 45
297 972 239 84 82 86
307 344 248 75 60 47
265 586 310 196 133 123
345 224 214 130 99 62
234 509 203 43 35 38
270 114 228 129 86 61
247 230 235 123 96 64
246 550 313 116 83 66
231 779 227 153 119 88
337 901 206 67 59 61
335 715 173 78 57 47
223 733 205 159 112 85
251 89 228 117 37 46
256 719 209 106 51 41
250 509 252 70 30 36
250 639 248 145 16 46
252 174 235 114 92 68
276 957 229 75 70 71
239 479 193 136 6 36
233 484 218 134 8 38
248 751 275 124 35 51
257 119 239 112 90 65
269 530 156 53 36 38
377 879 242 63 57 57
262 334 235 100 84 66
339 229 264 113 90 65
410 454 291 89 21 35
251 84 253 104 24 39
315 565 162 185 15 44
299 34 273 123 41 53
286 84 253 116 25 43
212 645 193 129 97 62
365 399 218 94 80 67
285 964 314 55 51 51
258 500 260 55 27 30
309 613 190 189 7 43
386 844 153 109 90 74
251 89 233 90 58 48
265 614 278 43 27 30
316 564 318 154 106 86
366 622 322 182 109 93
417 460 167 44 32 37
246 204 243 121 97 71
468 948 315 96 82 69
336 443 104 114 26 39
372 506 420 158 22 54
358 205 261 122 98 72
366 680 218 72 48 43
370 852 160 94 81 73
345 964 253 79 72 74
422 462 281 107 14 28
250 84 238 107 56 53
340 59 189 95 39 21
329 381 228 88 72 53
346 28 236 107 91 74
295 454 296 61 24 30
360 659 238 108 20 29
247 430 271 116 90 69
367 188 239 117 94 69
331 149 247 107 84 61
253 129 248 118 96 74
257 330 240 102 84 64
247 404 229 112 91 69
258 87 265 96 20 35
251 99 243 117 47 50
413 809 286 56 44 38
429 635 298 119 94 64
230 669 155 151 106 75
250 89 238 113 41 46
320 914 305 120 80 70
323 495 131 87 31 38
319 513 322 98 53 50
257 82 210 146 8 44
234 598 238 86 72 57
253 95 227 132 25 45
275 629 298 99 26 40
334 354 290 137 99 77
345 214 214 128 99 62
308 532 290 65 43 37
250 84 248 102 35 40
299 284 258 103 80 56
416 494 188 84 34 40
366 189 243 116 94 68
255 574 278 92 46 44
248 179 248 118 96 71
391 687 273 48 40 35
270 224 226 124 96 62
319 64 254 113 69 61
317 870 194 53 46 47
275 968 243 84 78 78
247 449 174 136 5 36
340 214 263 114 91 67
250 89 243 120 24 42
364 396 219 94 80 64
315 22 281 151 113 91
355 329 231 90 77 64
390 829 253 72 61 53
222 628 232 174 121 94
394 494 388 148 1 46
243 428 265 113 84 62
420 908 278 73 62 58
333 510 290 49 24 24
253 449 157 141 6 39
341 713 202 52 45 41
304 489 141 63 35 36
256 129 239 115 95 74
270 244 226 124 94 58
330 15 289 152 63 75
275 373 291 147 104 84
287 279 279 116 90 62
240 479 253 57 29 34
218 726 190 169 113 86
340 244 218 133 102 63
335 139 218 125 96 63
320 514 334 96 52 46
354 824 160 104 78 56
249 89 248 110 49 50
338 517 301 86 1 23
325 24 238 86 62 43
290 708 201 103 18 30
375 824 328 199 148 125
256 89 263 104 81 64
270 789 187 156 106 70
340 314 287 119 88 64
363 189 252 119 95 69
348 464 305 56 25 28
368 249 261 124 97 64
308 334 258 103 70 56
253 129 253 113 94 73
345 400 198 93 79 65
250 89 253 105 24 39
251 704 223 55 33 38
352 635 226 100 28 40
243 254 253 126 98 68
300 324 239 82 70 58
326 55 203 112 92 61
382 924 296 62 52 47
370 412 193 92 77 60
250 94 243 113 82 64
261 783 267 79 62 56
417 484 183 79 31 39
285 719 317 63 30 36
250 354 248 128 100 67
372 464 400 93 15 35
346 210 266 118 95 70
234 429 228 87 29 36
325 54 208 101 85 65
357 664 315 52 27 28
226 794 223 161 120 92
238 510 240 156 1 49
356 383 221 92 79 65
250 94 248 116 94 71
319 865 221 46 44 47
404 818 313 179 115 85
261 25 254 93 81 70
377 891 251 63 60 62
256 369 229 112 92 69
400 584 243 86 35 42
256 99 223 129 16 41
263 417 142 111 60 54
342 474 301 63 28 34
253 474 156 139 8 39
256 493 261 101 24 41
380 504 313 40 25 28
246 274 253 141 102 74
398 420 247 124 9 36
409 870 272 86 77 71
313 49 243 94 23 29
434 945 311 95 78 64
252 140 261 111 91 70
295 10 303 133 56 70
392 821 330 198 135 109
336 55 190 110 34 20
471 896 282 90 73 63
253 100 232 94 50 42
330 539 336 156 106 91
390 759 323 157 119 88
234 449 238 75 29 35
419 784 288 110 75 55
353 94 208 126 27 46
415 799 318 185 122 94
285 9 288 137 88 90
315 539 333 174 120 105
304 346 230 77 66 56
238 625 194 102 84 63
295 639 309 114 31 47
359 294 276 129 96 63
249 169 248 115 93 70
340 744 173 72 55 44
269 46 218 109 73 47
257 792 256 69 57 52
333 199 255 108 86 62
242 409 248 128 99 69
376 677 232 79 51 47
413 466 269 40 32 33
245 419 178 44 39 40
355 64 208 114 37 43
221 789 213 172 126 95
245 602 286 199 136 119
289 880 306 145 116 84
254 424 148 83 34 39
254 709 183 90 72 53
382 746 231 52 43 40
510 865 268 98 79 64
255 104 228 124 15 40
340 414 163 87 73 57
255 104 233 127 31 44
314 394 223 85 70 51
234 424 228 123 17 39
244 449 183 135 4 35
365 919 249 61 54 55
269 77 205 135 20 37
320 319 233 70 62 54
320 459 128 79 33 38
314 490 280 62 24 31
252 99 238 96 54 45
407 453 233 117 20 37
250 416 208 108 82 68
253 101 236 112 39 46
321 778 180 75 55 44
363 244 266 121 95 63
260 209 228 122 96 64
254 289 242 130 97 66
350 129 247 112 90 66
241 704 258 114 20 39
285 404 283 108 78 60
354 129 243 111 91 68
345 605 328 196 133 114
323 859 291 171 133 106
252 102 238 135 16 41
352 128 245 111 91 68
350 254 217 110 88 61
285 534 153 67 33 35
237 426 252 61 31 32
249 634 238 111 30 43
265 674 218 93 22 33
383 546 364 88 19 34
390 698 288 39 27 29
256 319 278 130 95 66
396 569 328 148 14 45
367 427 136 91 75 58
268 339 295 136 94 75
399 424 243 116 19 38
255 104 238 129 42 53
295 21 304 171 120 105
335 410 173 92 77 61
305 664 317 143 16 47
240 574 283 112 91 71
370 584 323 81 22 34
269 19 212 123 55 40
252 103 248 126 64 60
282 63 217 98 33 24
386 766 216 65 50 46
360 409 193 94 78 62
305 429 298 107 17 37
355 254 218 108 85 58
359 435 103 98 52 48
254 109 243 119 94 67
281 154 258 111 88 61
228 789 224 159 122 91
256 15 273 87 42 37
354 659 316 110 25 44
342 417 156 88 73 58
275 384 213 95 83 72
246 264 263 129 97 69
256 964 273 78 62 60
316 37 266 115 2 39
249 169 258 117 95 71
265 309 294 118 89 64
325 38 266 132 11 49
390 883 290 51 45 41
381 636 298 89 56 51
267 14 213 123 55 41
280 408 183 103 87 71
390 699 263 51 43 37
253 105 243 120 74 63
295 714 328 61 26 34
336 426 119 88 73 58
256 119 262 113 93 74
371 620 232 71 32 38
241 414 238 111 89 65
287 70 270 121 28 46
248 412 217 103 82 68
290 434 134 143 5 32
281 99 233 82 52 34
270 299 232 93 78 61
359 944 263 68 61 65
240 689 159 154 109 76
356 545 166 78 28 36
251 99 253 119 28 46
376 538 372 81 24 36
355 79 218 115 23 41
262 55 210 99 33 21
246 234 238 127 99 65
275 564 313 87 50 44
345 124 213 128 96 61
275 774 187 140 98 60
252 102 253 125 89 71
412 706 311 147 106 76
347 65 240 90 52 43
232 489 232 137 1 37
289 189 243 108 86 59
348 144 215 128 99 62
380 831 320 193 127 100
375 444 143 151 10 36
311 853 219 68 53 49
312 44 258 99 69 58
297 36 279 124 30 48
349 834 188 63 54 48
335 74 186 138 33 44
234 444 233 72 28 33
256 109 240 112 84 59
278 119 253 114 84 58
262 381 220 102 86 70
251 289 273 128 96 71
240 610 274 189 129 111
309 369 268 113 73 59
376 679 298 63 27 33
287 49 242 87 33 29
331 493 125 94 33 42
287 850 281 135 109 86
317 737 170 87 61 47
280 779 288 80 65 58
334 129 250 113 88 63
325 274 253 98 77 54
373 466 416 67 21 29
243 698 253 56 32 36
247 181 244 121 98 73
373 243 225 119 94 64
251 309 249 112 89 62
214 669 168 166 114 84
253 109 248 124 100 73
360 914 307 37 34 34
433 749 298 170 111 80
423 949 326 78 62 48
243 430 186 56 25 28
247 262 271 129 97 71
215 704 183 163 110 82
254 109 253 121 98 74
235 429 218 136 10 39
255 114 243 117 94 67
365 629 312 140 29 47
254 684 228 93 25 42
269 495 270 84 23 35
426 659 270 117 89 61
252 131 254 114 94 74
270 784 187 151 101 67
368 842 182 101 82 63
248 378 242 117 94 67
215 669 193 174 119 89
374 488 437 175 7 57
249 469 163 95 25 36
343 781 196 45 41 43
255 204 274 116 95 72
270 369 219 95 84 72
340 564 338 174 121 94
319 814 187 72 58 51
264 314 236 114 90 64
323 617 315 33 28 28
278 124 243 108 84 54
384 874 287 49 43 39
371 511 343 65 20 28
254 114 248 122 100 75
253 554 334 165 113 102
440 645 288 109 89 68
240 719 248 141 8 42
246 534 251 61 28 32
242 415 256 129 99 68
255 119 243 115 93 68
307 363 226 79 68 58
360 504 318 59 19 27
256 104 262 117 96 74
248 449 172 137 5 37
450 894 284 76 64 52
238 589 290 177 127 105
409 804 249 74 59 52
330 543 149 197 10 41
250 479 263 67 28 34
428 828 276 114 87 74
250 209 233 121 96 66
293 750 314 82 65 59
249 174 243 118 96 73
308 351 240 73 62 52
308 360 229 78 67 57
359 189 257 117 94 69
401 454 323 123 9 39
319 334 258 80 60 42
315 14 253 112 52 41
335 454 297 104 16 38
255 119 248 119 98 75
355 699 324 148 2 45
293 224 243 108 84 55
340 469 299 52 25 29
254 114 253 118 96 74
312 388 248 60 50 39
255 124 243 116 94 70
265 919 248 148 113 85
256 199 230 126 100 67
345 405 188 92 78 64
402 721 231 63 50 43
279 975 304 63 57 56
376 324 253 124 97 64
394 864 280 73 66 61
405 494 313 146 10 42
350 409 299 111 85 61
362 343 280 114 89 57
331 34 196 114 40 17
253 124 248 118 97 75
249 409 223 102 85 68
254 124 253 113 93 72
251 659 253 37 29 34
290 269 273 117 92 62
265 84 208 147 19 47
394 822 238 71 58 53
253 417 206 106 87 73
242 474 183 87 23 36
380 454 378 89 8 29
256 139 238 117 96 72
321 798 311 73 61 57
350 880 189 75 64 60
367 213 255 119 96 70
292 486 285 93 15 36
254 134 243 116 95 73
285 519 148 52 32 35
453 669 287 165 112 83
371 419 300 77 57 39
376 279 243 127 95 60
242 509 184 61 37 37
305 499 142 138 8 34
398 479 333 92 11 33
296 254 248 107 83 56
259 765 275 81 66 59
236 420 228 132 24 39
273 177 230 125 97 63
326 269 233 88 73 55
340 869 177 126 107 98
256 134 239 115 95 72
249 189 238 118 95 70
324 279 243 92 77 60
325 724 168 62 48 41
242 556 312 131 101 80
295 359 224 90 79 67
247 748 277 70 35 40
347 55 244 133 109 91
275 354 223 94 83 73
424 479 283 147 9 42
268 330 295 142 97 80
253 134 248 116 95 73
293 229 262 116 90 60
374 498 160 159 1 36
284 859 283 133 109 85
245 439 183 147 5 40
252 134 253 113 93 72
222 779 217 161 121 91
252 135 249 115 95 72
235 714 163 162 110 80
351 124 244 112 91 67
280 659 213 135 5 31
324 804 182 64 54 50
385 839 293 52 40 35
253 139 243 117 96 73
315 689 182 70 48 37
355 234 214 129 98 60
322 73 203 134 4 43
332 674 212 95 26 28
267 19 213 123 55 40
306 329 243 70 60 49
255 413 183 71 56 49
290 69 258 104 68 58
367 489 414 124 1 37
265 184 229 125 97 63
244 259 258 127 98 68
305 919 198 90 82 81
362 506 414 68 15 33
415 534 243 34 29 35
350 449 104 171 2 34
332 601 191 187 14 55
393 822 243 68 57 54
406 479 293 137 12 43
245 214 248 120 96 70
287 798 286 175 138 121
365 274 224 111 87 59
315 960 226 89 85 88
325 570 167 187 14 45
231 665 199 94 60 43
326 390 214 90 73 58
265 539 347 140 84 80
254 234 231 128 97 60
253 138 246 116 94 71
342 800 177 95 69 46
366 259 222 112 86 57
245 269 258 136 101 71
249 569 324 167 112 95
253 153 241 115 94 72
253 144 242 118 97 74
289 416 148 100 84 67
440 680 266 150 110 79
235 454 248 139 9 39
374 631 314 137 73 64
252 563 331 148 100 85
252 140 245 116 95 72
388 399 253 124 100 72
273 574 304 81 51 36
246 279 253 146 105 77
247 424 168 71 38 41
374 374 229 103 86 69
379 699 298 82 25 36
252 144 244 117 96 74
301 359 279 121 82 64
349 50 218 100 56 44
246 439 178 148 5 40
257 277 235 125 92 60
368 499 412 65 21 33
300 474 288 83 16 31
340 79 187 129 26 38
364 556 330 139 7 45
243 470 260 119 23 43
341 74 186 133 34 43
216 689 191 155 107 79
253 338 246 124 98 68
372 234 254 120 95 65
291 329 288 112 77 54
270 815 197 182 123 90
251 144 248 113 93 71
411 679 288 88 65 47
251 139 253 112 92 72
253 300 275 138 102 76
331 79 189 143 18 43
325 418 148 83 69 54
384 404 283 113 90 64
345 384 219 93 79 65
340 64 188 95 45 26
245 234 258 121 96 68
229 800 197 188 125 93
406 427 296 74 23 32
259 414 280 139 102 79
255 149 238 114 94 72
308 349 268 118 77 60
254 418 153 82 40 42
359 910 306 37 34 32
340 384 223 93 80 66
449 864 278 57 45 35
248 194 238 118 96 70
284 869 253 127 99 73
350 339 226 88 77 66
359 899 229 56 51 53
255 609 198 96 27 36
400 524 338 78 22 36
251 254 234 130 98 60
332 219 256 112 89 65
348 164 215 129 99 61
250 264 238 135 100 64
385 538 378 92 28 42
315 59 233 96 27 29
375 664 263 89 27 35
459 853 258 117 89 59
405 429 294 80 23 33
254 154 238 112 92 71
256 159 234 117 95 70
252 149 244 117 96 73
236 784 184 180 119 85
246 234 263 121 97 70
236 594 253 107 86 62
265 525 275 132 8 42
310 983 249 60 56 57
349 944 319 42 39 39
319 79 249 107 35 47
247 439 173 143 8 41
286 17 261 85 67 47
253 148 242 117 96 73
260 79 207 137 17 40
248 469 167 42 33 36
247 401 230 113 92 67
256 879 301 184 140 118
255 264 233 132 96 61
253 944 262 184 141 118
352 678 320 127 33 50
265 279 232 108 84 57
252 227 230 127 98 62
338 759 176 70 55 45
252 154 243 115 94 71
340 779 197 47 42 45
252 503 256 86 28 36
253 204 231 126 99 67
277 85 217 144 11 39
245 415 198 112 42 43
313 875 226 52 48 50
250 154 248 115 93 70
359 815 167 98 76 58
234 820 212 219 148 115
290 822 205 82 63 57
274 214 276 120 95 68
277 200 231 117 92 63
251 159 243 114 94 72
242 493 251 160 2 49
255 159 268 113 93 72
320 927 195 92 84 85
305 609 312 80 32 39
246 244 238 130 100 64
319 369 253 82 60 44
382 636 288 79 25 31
239 564 298 164 121 100
324 244 243 107 85 62
290 908 227 118 81 62
260 704 298 130 3 41
255 279 238 130 95 62
230 635 174 106 91 74
262 38 276 128 20 47
376 694 303 53 28 33
348 915 311 41 37 35
367 481 415 129 0 37
241 584 223 71 29 36
250 159 248 114 93 70
248 184 242 120 98 73
292 249 236 109 85 57
254 249 231 130 98 60
345 164 215 129 99 61
287 194 241 107 84 55
348 70 241 116 34 45
255 694 288 124 2 38
243 479 178 37 33 36
315 15 249 121 49 38
400 434 293 79 24 35
371 364 284 120 95 64
250 154 253 115 93 70
281 869 258 95 77 57
247 180 252 115 94 70
300 416 155 100 84 68
386 489 305 43 25 27
266 45 210 131 25 18
264 866 294 96 79 59
319 359 233 65 57 50
330 364 225 76 65 53
378 375 277 124 97 65
314 39 243 89 29 31
278 78 214 145 9 38
247 199 257 116 94 69
414 449 202 153 9 46
298 682 206 33 32 38
249 159 253 114 93 70
361 880 168 90 77 67
253 153 265 114 94 72
356 890 296 39 36 36
340 19 243 97 83 71
347 868 184 80 67 60
252 164 239 114 94 73
330 189 223 124 97 64
241 414 243 121 96 68
324 454 122 110 25 37
256 99 263 114 71 62
383 735 225 63 49 45
220 729 178 178 115 87
330 108 218 130 74 60
256 164 234 118 95 69
320 401 198 93 78 64
339 49 257 120 50 56
431 724 309 174 116 89
335 25 235 116 76 48
353 80 227 101 25 35
373 648 301 116 17 41
234 504 238 152 1 47
266 15 258 91 74 61
301 880 240 84 68 51
243 394 248 124 98 68
280 480 141 83 34 42
237 633 186 95 78 59
279 774 289 79 65 58
352 52 221 60 31 19
308 354 243 75 63 52
315 549 332 163 108 94
296 798 292 196 143 124
257 535 268 117 19 39
241 504 247 157 4 49
255 169 233 119 96 68
305 985 263 58 55 55
275 244 227 124 95 60
256 234 230 128 97 59
383 868 244 66 57 53
414 474 258 81 25 35
319 344 268 99 66 50
270 234 226 122 94 60
255 820 202 208 141 114
360 309 227 94 78 61
365 904 248 64 58 62
249 189 263 119 97 73
336 354 291 136 99 76
268 820 254 64 54 53
253 168 236 112 91 69
405 439 213 141 4 44
260 199 229 123 97 64
261 603 189 146 18 41
325 954 324 55 52 52
252 171 235 112 92 69
259 809 249 63 53 49
365 379 225 94 80 67
386 874 252 63 56 56
354 64 203 115 38 42
410 668 307 166 113 90
330 444 113 143 7 37
378 695 297 54 29 34
247 695 244 80 29 39
367 936 292 81 72 70
378 478 155 148 9 37
242 411 234 111 91 67
288 219 235 112 86 53
233 459 238 95 27 37
341 771 198 46 42 43
315 34 267 118 82 71
236 573 226 29 26 31
243 408 237 116 94 68
255 174 233 121 97 67
328 99 216 97 68 47
261 14 293 109 78 66
408 572 281 167 5 51
291 379 285 130 92 74
275 569 168 48 35 38
284 834 258 175 130 105
252 259 235 132 98 62
388 557 194 162 19 44
256 184 230 127 100 67
305 624 197 176 4 39
298 914 311 166 121 96
322 379 224 92 72 58
361 174 248 117 95 71
327 331 231 75 65 56
476 884 291 87 73 60
349 713 144 80 63 48
380 949 323 89 78 68
255 664 268 69 21 35
254 319 247 110 89 65
372 656 261 91 21 31
328 580 330 181 135 111
275 239 226 124 96 61
249 164 253 115 94 71
278 867 267 94 77 60
239 418 203 108 31 35
340 434 99 122 53 46
376 389 288 119 93 64
277 695 306 35 28 31
310 820 198 57 47 45
253 434 153 74 32 37
324 42 226 72 38 21
306 874 238 74 59 49
250 459 269 70 29 35
368 190 229 118 96 71
307 752 326 85 69 64
249 169 253 116 94 70
327 40 224 90 71 54
366 344 231 97 84 70
242 409 253 129 100 69
334 239 222 133 102 64
371 204 238 118 96 70
237 678 195 92 61 44
372 318 265 127 100 67
274 54 214 95 66 42
378 374 234 105 87 67
288 648 305 119 32 46
440 741 265 88 63 49
247 189 243 119 96 70
254 34 268 113 36 44
370 923 258 60 54 57
246 569 189 147 4 35
406 529 329 55 29 32
336 269 267 110 87 63
256 544 338 133 100 82
257 439 139 156 4 41
318 59 223 100 40 35
247 376 266 131 100 69
416 769 247 67 52 44
395 434 144 98 32 36
349 69 238 105 42 45
393 448 347 99 0 31
250 319 268 137 103 76
248 174 253 116 95 71
327 119 238 116 85 64
370 854 292 48 43 40
281 269 231 94 77 58
280 27 292 144 77 74
252 179 234 117 94 68
251 154 263 115 94 72
363 710 322 137 0 42
253 439 275 91 27 37
252 686 277 79 28 35
412 506 285 85 24 36
271 543 160 173 6 40
393 793 230 64 51 46
375 424 148 93 76 56
328 159 226 113 88 58
384 472 155 90 19 28
250 354 253 123 96 65
405 804 243 76 60 53
252 184 234 116 94 68
250 561 255 148 4 45
258 95 216 142 10 42
252 666 240 73 33 42
333 160 221 121 92 56
260 499 263 71 24 33
294 913 221 70 54 47
270 38 237 116 90 58
278 74 210 142 11 34
254 189 232 124 98 66
405 444 292 72 24 32
256 189 230 126 99 66
246 224 258 117 94 68
290 604 298 76 20 33
243 429 183 88 26 38
260 414 193 100 86 74
336 625 211 96 46 52
381 495 161 131 14 34
253 149 264 114 94 73
345 209 214 126 98 63
311 402 191 100 86 71
325 978 243 83 81 83
291 214 238 112 86 53
242 469 184 106 19 35
400 789 333 173 124 89
353 39 243 115 31 43
434 694 264 118 86 60
252 278 240 139 101 68
378 486 416 155 3 43
321 394 223 103 83 68
382 446 146 167 5 35
448 854 268 69 56 45
251 189 234 116 93 67
280 10 268 75 65 57
300 969 314 82 76 76
234 630 183 108 90 71
321 404 263 94 67 55
320 794 312 77 63 58
294 19 264 113 24 24
353 42 242 110 76 58
247 184 244 120 98 73
439 694 302 168 113 84
256 144 267 113 93 72
310 423 138 170 41 30
418 523 281 52 26 30
302 790 190 64 51 44
247 180 249 117 95 71
240 524 238 76 25 38
402 429 233 105 14 34
263 566 295 114 76 63
300 764 312 85 67 60
241 449 267 51 25 31
352 90 201 136 20 42
254 574 254 48 28 31
279 584 290 55 21 26
331 134 247 108 83 61
237 492 246 157 0 48
350 494 127 72 34 38
265 554 328 116 68 64
282 654 302 46 28 31
270 609 189 67 33 37
298 33 282 140 26 54
250 749 283 109 24 45
247 176 250 116 94 70
286 854 282 133 109 85
370 349 233 101 86 70
271 749 191 89 68 42
424 434 168 82 30 39
270 400 285 137 99 78
438 733 297 176 115 87
256 69 258 96 52 47
330 11 288 143 36 61
389 613 254 74 34 40
365 449 128 61 32 37
247 176 252 117 95 71
343 57 251 92 71 48
244 244 253 123 97 68
365 947 321 75 64 56
253 189 270 116 95 74
247 189 248 118 96 71
341 949 237 68 63 66
480 879 243 107 87 70
328 154 233 106 85 62
251 529 169 69 29 36
250 419 163 58 38 39
300 639 204 157 1 35
265 434 279 121 90 67
307 422 139 151 47 32
247 189 253 115 93 69
249 494 163 62 34 39
377 900 256 63 60 62
270 54 209 111 26 21
403 799 240 75 59 52
279 469 288 54 26 31
275 164 233 121 93 58
248 184 255 116 94 70
352 836 197 47 39 42
381 509 409 126 21 44
253 359 275 126 96 67
354 848 187 79 65 55
387 704 260 52 44 36
263 48 213 101 51 37
393 619 284 61 33 34
262 46 230 95 72 52
331 159 247 104 82 59
252 165 266 118 97 75
261 99 214 113 57 50
278 452 135 52 36 33
264 173 231 125 96 61
245 649 198 116 77 61
248 189 241 119 97 71
259 899 252 141 108 78
247 195 240 122 98 72
354 326 231 89 77 65
247 204 239 122 97 68
372 218 227 115 92 66
406 554 284 113 27 44
375 924 278 64 57 57
253 414 275 140 105 80
285 209 268 118 94 67
298 919 311 154 114 90
305 939 315 45 43 43
254 104 258 120 96 72
389 924 292 64 53 47
253 44 258 113 34 42
254 194 231 125 99 67
270 194 229 120 95 64
364 449 123 108 21 36
259 831 229 52 39 45
420 949 328 78 63 50
258 786 260 73 60 55
256 194 230 127 100 66
370 444 138 82 33 39
236 494 198 55 35 38
254 139 263 112 92 72
315 424 138 167 40 26
340 369 227 89 76 64
253 198 231 126 99 66
251 194 234 120 96 69
245 509 248 104 27 43
315 407 177 100 85 69
232 573 222 100 23 39
242 429 188 60 30 37
400 429 258 57 29 31
348 92 195 141 10 40
267 511 278 68 29 35
251 199 234 121 97 70
350 179 216 130 100 62
339 884 188 74 61 56
383 394 277 118 94 65
344 669 220 65 34 32
250 389 233 117 94 69
295 619 192 52 32 37
244 234 253 120 96 68
255 429 143 52 33 36
394 697 266 52 44 37
250 204 233 122 98 69
431 729 309 178 120 95
367 487 441 92 17 33
308 25 257 107 50 41
260 69 207 119 31 30
255 204 229 125 99 66
324 229 233 111 87 59
281 400 285 124 89 70
410 459 208 144 1 44
352 97 214 99 73 56
390 578 333 108 28 44
383 686 225 63 48 46
315 14 294 133 72 69
237 732 268 192 1 57
302 959 321 55 51 51
270 204 228 118 94 66
255 209 229 125 98 65
317 707 189 56 38 33
279 25 254 96 81 66
365 474 428 67 25 33
365 489 418 128 1 38
345 870 175 96 79 68
248 204 236 120 96 66
361 709 324 139 0 42
333 466 116 76 32 30
300 294 248 90 74 55
370 224 223 118 93 64
315 21 284 173 118 100
248 209 236 121 96 66
400 484 358 131 12 39
295 319 237 84 73 62
247 194 243 121 97 71
237 726 268 174 0 50
248 650 175 108 81 61
247 239 268 120 95 69
370 415 178 93 77 59
312 393 263 61 47 33
331 54 194 106 25 23
325 407 178 97 82 67
265 909 248 144 108 80
247 194 248 119 96 72
371 804 221 61 51 50
377 239 238 122 97 67
246 199 243 121 97 71
390 444 146 125 25 36
350 564 173 91 33 41
314 739 183 59 44 37
246 224 263 119 95 69
316 564 323 155 104 88
369 269 263 127 97 62
344 174 216 130 100 63
247 194 253 116 94 69
330 744 172 71 53 41
251 699 224 72 29 37
404 509 293 115 16 40
247 199 253 116 94 69
410 554 238 52 33 36
235 632 241 149 97 78
374 409 297 118 93 67
285 174 243 108 85 57
275 514 278 113 10 37
359 514 153 122 25 42
270 79 207 147 18 41
245 244 258 121 95 66
378 644 296 64 17 26
246 204 248 118 96 71
325 94 250 108 46 49
253 382 231 115 93 68
345 941 283 65 52 62
246 204 253 115 93 68
280 559 323 89 50 42
273 108 220 126 9 28
250 364 268 124 96 66
313 391 252 59 49 39
419 424 293 80 25 36
242 489 184 126 11 36
244 417 213 105 58 53
246 209 253 116 93 68
236 434 218 91 24 36
266 170 231 124 96 61
248 192 241 121 98 72
231 569 218 83 25 35
246 214 239 122 96 66
246 644 188 113 82 63
352 292 280 125 97 64
250 159 258 115 94 71
260 529 273 122 16 41
252 204 271 116 94 72
264 374 222 100 85 71
260 44 272 116 58 59
290 976 257 77 73 73
318 24 246 87 35 33
345 889 213 62 59 61
246 219 238 122 97 66
405 854 268 131 126 128
260 64 207 105 39 27
261 420 133 142 39 35
345 369 225 89 78 67
285 339 229 88 78 67
246 224 238 121 96 66
332 516 310 74 29 33
391 439 358 101 16 34
251 214 233 122 96 65
251 354 268 122 95 65
240 684 158 156 111 77
400 504 343 65 21 32
390 730 226 58 45 38
265 774 183 140 98 60
365 444 123 83 31 39
348 422 300 110 86 62
252 344 268 128 99 68
253 214 231 125 97 64
400 614 298 91 74 55
251 544 252 69 22 32
325 66 255 112 28 42
256 214 230 124 97 63
265 54 208 116 26 21
248 214 236 121 95 65
265 434 132 152 0 33
251 184 268 120 99 77
373 592 210 193 16 49
249 429 163 88 34 39
279 50 228 105 85 64
255 114 258 115 94 73
394 469 333 115 0 38
358 169 251 115 93 69
249 294 253 135 100 73
224 784 193 177 119 84
390 830 303 153 95 70
287 611 306 62 22 30
252 249 276 126 100 74
344 244 270 119 95 68
328 116 245 113 86 65
244 637 231 128 85 83
375 489 428 162 3 53
235 638 232 137 89 72
329 16 196 117 31 13
301 299 248 88 73 57
283 194 266 115 92 66
264 59 274 108 82 65
243 424 182 41 37 40
272 526 270 106 15 38
271 516 280 101 19 35
258 59 264 106 47 50
256 19 283 102 37 45
330 824 183 68 54 48
253 219 231 126 98 62
403 687 261 74 67 62
342 947 248 78 73 75
320 384 253 94 68 53
406 424 209 143 10 44
235 474 248 45 26 32
404 683 263 72 60 49
255 219 229 126 97 62
286 643 205 166 8 42
368 375 291 121 95 63
309 401 190 101 86 71
389 715 225 54 44 38
352 89 234 107 53 51
248 464 167 40 32 35
258 128 265 114 94 74
403 467 321 125 22 38
382 479 399 154 9 50
245 454 268 70 26 35
252 224 230 127 98 63
243 403 242 119 95 67
330 20 285 143 99 79
285 980 278 57 54 54
250 224 233 122 95 63
388 455 381 62 22 29
347 550 161 167 26 44
353 878 290 40 36 35
374 294 238 118 92 61
354 765 180 55 47 43
419 429 283 92 25 32
277 114 264 127 97 70
265 870 268 128 98 59
384 384 268 126 99 67
412 504 212 142 6 38
402 437 226 71 21 24
319 369 248 76 58 46
253 357 241 125 99 68
311 780 185 59 48 44
232 499 228 142 0 38
255 224 229 128 98 62
332 808 175 90 69 56
282 159 259 110 87 61
412 449 204 146 5 44
248 218 236 120 95 64
359 149 233 115 94 71
326 434 114 140 16 39
256 304 243 115 91 65
245 644 213 106 68 54
245 214 243 123 98 69
315 474 134 85 31 35
330 599 188 184 10 43
240 529 193 159 8 41
289 64 272 128 94 74
251 159 263 115 94 72
314 54 238 87 49 38
449 689 278 170 118 90
420 784 263 65 52 42
264 809 254 68 57 53
246 214 253 116 94 68
435 689 265 126 92 64
247 389 268 133 100 73
396 555 359 188 10 60
366 194 248 116 93 68
245 219 243 122 97 68
275 369 291 149 105 85
290 459 139 113 18 35
411 831 278 77 60 49
239 800 191 189 126 94
244 219 248 120 96 70
243 509 181 57 37 38
242 414 253 127 99 68
402 821 307 165 103 77
330 34 193 114 38 15
247 546 322 142 104 84
321 350 229 69 60 50
252 264 276 126 98 74
245 224 243 121 96 67
353 44 233 85 32 33
237 657 156 121 94 61
305 449 135 100 28 36
396 464 373 78 29 38
249 254 273 126 98 72
320 464 288 102 15 35
275 14 262 86 74 62
283 102 256 134 90 75
255 415 198 100 82 70
443 714 283 167 112 83
310 659 208 115 16 27
362 951 312 88 79 73
244 743 220 91 65 50
373 309 239 128 99 67
275 364 292 148 102 83
244 224 248 119 96 69
390 438 308 116 6 36
359 573 185 164 19 44
248 202 260 119 95 69
410 880 282 58 48 41
264 494 147 161 4 37
400 819 253 73 60 53
312 34 253 98 26 29
363 384 225 92 80 68
441 710 277 150 102 78
233 469 238 75 30 35
369 533 169 173 6 37
252 649 252 105 20 41
267 45 216 90 61 46
418 799 273 56 44 34
222 623 236 172 120 94
267 507 150 162 2 37
377 669 278 66 25 32
277 149 237 110 84 50
248 761 265 84 67 63
265 164 230 125 98 63
296 803 287 200 145 127
245 219 253 115 93 67
327 51 210 119 101 80
265 364 223 100 87 73
238 729 258 169 0 49
387 498 400 51 26 31
295 414 288 70 53 37
256 329 278 130 96 68
356 934 247 68 60 61
245 224 253 117 94 68
330 74 252 118 94 71
392 616 273 102 25 42
406 815 303 160 102 74
253 134 258 111 91 71
259 334 237 101 84 66
350 404 299 115 88 63
244 454 183 137 5 36
326 940 217 73 68 70
246 229 238 123 96 64
325 254 233 104 82 56
246 219 258 116 93 68
264 30 284 131 38 55
335 959 313 76 63 58
340 944 233 64 60 63
262 544 347 120 72 66
328 144 233 105 84 61
229 754 214 155 112 82
247 234 235 126 97 62
305 424 299 96 19 36
245 559 318 143 103 83
252 94 257 106 26 40
275 904 316 172 131 108
339 154 216 132 101 62
312 868 225 54 48 50
246 239 238 128 99 65
285 234 232 116 90 58
250 415 178 48 33 33
340 474 298 96 16 37
242 416 198 116 34 39
281 144 253 107 84 57
252 244 276 122 97 72
235 439 243 106 21 37
279 239 277 120 96 68
247 689 167 121 94 66
339 588 185 198 10 44
249 304 258 132 101 72
328 74 191 136 7 40
295 604 184 182 4 37
258 435 136 113 13 35
250 229 233 124 96 62
280 689 209 49 31 33
399 499 378 163 0 52
247 399 233 113 92 68
242 655 200 109 79 65
363 227 215 128 99 62
284 854 258 172 131 105
364 449 118 139 7 36
333 394 290 125 91 69
255 229 229 127 97 60
269 34 213 123 50 35
285 895 238 95 77 57
265 444 278 33 28 28
338 893 205 64 59 61
247 214 262 117 93 67
232 463 237 79 29 37
311 549 312 112 68 60
291 352 226 90 80 70
258 52 226 66 55 41
371 754 324 152 117 86
313 49 247 108 20 35
403 439 228 47 30 31
257 38 271 129 17 48
237 578 242 66 25 35
409 454 248 43 33 33
320 509 333 94 55 49
235 734 214 142 102 79
250 239 234 128 98 62
425 904 307 63 50 40
318 85 245 107 77 64
248 240 236 127 98 63
254 384 228 113 92 68
301 299 268 114 88 60
419 459 173 117 22 39
351 169 216 129 100 63
296 12 271 114 48 26
352 679 227 67 36 39
357 712 216 58 43 44
244 229 248 120 96 69
383 775 215 60 50 45
261 319 239 111 88 63
249 209 268 119 96 70
405 682 268 68 53 43
396 789 233 69 53 48
234 593 262 142 111 82
314 859 223 55 47 45
335 294 279 108 85 60
240 469 193 122 11 33
235 694 159 161 111 77
248 279 268 132 98 72
341 889 208 64 60 62
244 229 243 122 97 68
350 299 226 84 75 66
248 458 171 128 9 34
254 949 263 176 135 114
400 749 321 162 119 86
252 728 210 78 61 58
244 229 253 119 95 68
393 470 342 85 18 34
367 866 226 61 56 54
368 220 256 120 96 69
244 499 178 55 33 39
396 489 318 101 7 32
252 439 158 63 35 37
230 664 203 128 87 68
304 299 263 104 82 56
238 466 255 42 28 30
364 339 229 96 82 67
237 474 203 76 32 38
369 594 208 193 16 48
369 449 306 103 2 33
270 149 231 123 95 61
274 45 229 113 95 77
343 99 246 114 92 68
334 778 177 79 60 49
265 104 269 120 98 75
342 697 216 82 40 36
325 254 243 104 84 61
244 234 243 126 100 70
230 794 193 182 121 86
255 19 273 98 33 37
246 269 243 142 103 71
347 113 245 114 93 70
243 239 243 128 100 67
340 789 324 71 62 59
372 490 405 88 11 34
348 139 215 127 100 65
252 721 171 141 103 73
266 339 230 101 85 69
232 499 233 137 3 38
253 158 265 114 94 73
351 630 315 169 2 50
234 449 243 94 20 34
315 28 272 126 26 52
430 669 269 122 88 63
406 504 339 168 12 51
378 246 241 122 96 65
330 609 317 142 16 46
254 826 234 94 71 64
275 29 248 103 88 72
319 976 241 89 85 89
345 114 247 115 93 68
243 239 248 124 98 69
242 416 207 100 38 44
262 11 286 86 39 36
368 782 176 96 76 59
250 414 188 68 46 41
270 709 204 93 25 30
244 239 253 122 97 68
251 214 272 117 95 71
336 189 257 109 87 62
404 694 288 69 54 42
246 249 239 134 101 65
253 392 226 112 91 67
