ply
format ascii 1.0
comment Created by Open3D
element vertex 2199
property double x
property double y
property double z
property uchar red
property uchar green
property uchar blue
end_header
284 84 304 126 20 45
284 88 304 115 36 48
368 426 187 96 75 62
330 474 317 58 25 29
364 862 176 79 65 58
259 99 267 129 23 36
261 99 270 108 34 33
262 104 269 126 26 35
400 634 190 108 89 68
355 574 146 154 14 38
261 109 269 123 30 36
265 109 272 103 47 37
314 473 330 103 28 42
324 405 329 139 104 74
267 96 274 128 19 30
267 98 274 126 29 31
380 843 256 62 52 45
270 104 274 104 41 33
399 833 234 83 66 60
357 612 273 29 26 26
269 109 273 118 31 32
271 109 274 117 39 36
258 112 268 132 18 35
283 412 204 97 83 68
369 589 167 167 18 44
312 338 238 123 96 72
260 119 270 134 16 35
265 114 271 114 39 37
233 524 184 65 32 36
288 889 190 86 75 71
265 119 272 114 36 35
295 109 286 105 80 55
329 937 320 70 60 56
269 114 273 115 62 47
385 444 286 120 28 46
371 599 176 124 20 40
271 114 274 100 70 45
282 566 323 134 22 46
364 309 222 97 82 68
335 59 261 114 65 59
336 539 141 157 4 41
269 120 273 104 50 36
379 559 166 111 24 40
385 431 181 66 15 26
270 119 274 104 49 35
365 864 186 86 69 61
360 430 111 128 63 51
271 125 274 118 52 42
320 604 306 52 32 33
268 127 273 134 40 45
348 439 78 149 32 41
270 128 277 123 77 52
275 99 275 112 39 34
267 411 218 88 75 64
260 709 336 149 107 83
275 104 275 117 37 34
328 230 282 99 82 62
280 99 276 118 24 28
354 426 121 113 73 59
315 359 216 97 83 69
315 404 328 131 102 75
300 489 150 65 30 37
371 779 261 86 66 59
257 823 262 79 64 59
428 811 117 95 80 66
280 104 274 113 37 32
285 99 277 92 53 32
415 729 191 152 103 72
324 358 209 95 84 74
365 749 141 59 48 41
285 104 276 109 45 36
275 119 274 121 35 36
274 615 200 147 11 44
355 863 171 81 65 57
368 322 244 130 96 65
330 911 310 60 47 39
277 115 273 114 50 38
295 94 296 111 23 40
228 569 266 99 27 41
280 114 273 114 37 33
252 779 334 165 115 87
279 113 274 101 62 42
293 830 229 80 63 59
303 408 204 97 84 71
268 631 229 43 34 37
333 947 299 51 46 43
280 117 273 125 27 28
271 494 167 48 38 38
340 339 211 92 81 72
388 595 203 85 57 43
275 124 276 121 73 50
317 272 273 93 71 42
353 914 276 72 66 66
340 404 182 101 87 72
378 434 113 110 27 43
408 704 209 168 116 87
274 127 278 125 86 53
368 304 232 122 97 66
275 129 279 121 86 51
312 364 236 113 91 69
395 844 177 113 81 64
257 924 233 71 65 66
363 597 163 146 15 48
279 123 278 128 88 59
248 939 302 83 65 59
394 749 256 172 21 57
299 484 150 44 37 42
325 49 265 104 76 57
277 126 279 122 84 50
284 118 277 136 91 68
368 310 250 123 91 58
310 499 142 134 9 37
399 709 246 100 26 41
285 129 281 121 90 55
281 674 217 83 29 34
262 118 304 117 88 68
258 105 303 105 69 58
275 134 306 116 94 70
373 479 277 146 91 83
418 427 156 93 28 35
257 99 304 110 20 41
260 99 305 106 24 40
325 914 315 40 37 37
379 394 236 122 96 65
257 881 324 166 134 115
260 104 305 109 33 44
265 99 307 105 48 48
415 425 132 91 35 35
397 551 184 22 28 42
265 104 307 108 23 40
307 429 142 121 13 29
260 109 305 117 30 47
390 819 161 66 49 39
265 109 307 111 32 45
289 124 282 127 93 60
406 804 137 70 52 42
270 99 307 106 27 42
268 504 328 87 28 39
380 843 266 52 42 35
270 104 308 105 78 60
330 362 204 94 84 74
370 426 156 82 55 48
260 119 301 118 78 68
340 354 206 92 83 74
257 127 294 137 24 53
325 11 291 151 41 67
350 294 322 123 95 63
260 129 296 126 47 56
405 860 269 68 55 44
258 120 298 119 86 71
338 685 304 137 9 42
414 433 133 86 30 37
261 124 300 130 27 50
261 113 304 119 77 64
229 544 189 149 1 34
265 114 306 114 79 63
373 360 245 122 97 67
265 119 305 123 37 51
252 720 321 152 111 83
369 289 241 121 95 62
381 409 231 122 96 66
270 119 306 119 46 53
300 909 325 148 111 86
260 824 332 193 135 111
358 690 289 98 30 41
320 659 191 126 10 31
267 127 304 125 98 73
325 949 241 80 74 75
270 129 305 123 98 72
275 104 307 105 83 63
322 269 222 140 107 73
360 354 271 141 90 75
280 99 306 100 47 45
371 384 220 103 87 71
369 344 292 118 88 62
285 104 305 115 29 44
414 804 191 173 119 89
275 114 308 112 35 47
299 403 216 96 83 70
275 119 306 122 91 69
247 953 301 66 62 64
280 114 307 115 78 62
345 890 206 87 73 69
280 119 307 123 98 70
257 721 294 140 9 50
445 444 216 179 12 57
366 625 185 154 12 38
275 124 306 124 99 71
381 869 230 64 55 54
280 129 307 120 98 74
216 529 241 136 14 43
289 229 280 133 102 66
304 379 317 123 97 71
219 514 195 118 8 27
248 585 307 147 25 50
300 411 197 97 84 70
285 119 306 124 101 75
245 554 180 65 36 40
282 614 334 145 110 86
306 218 274 119 90 56
390 424 236 76 64 51
402 466 144 92 35 28
285 129 306 118 97 74
251 824 306 203 139 111
409 734 177 131 94 63
295 249 281 122 95 63
290 69 282 106 48 39
397 824 156 98 74 58
292 69 285 94 75 54
385 684 181 102 84 64
335 12 281 149 93 97
329 289 262 105 82 62
306 638 193 106 29 41
285 589 321 87 47 46
293 70 287 106 80 59
285 444 327 36 28 30
290 74 281 120 30 40
404 841 264 79 64 52
253 728 332 157 110 86
290 79 281 102 58 49
380 514 141 142 13 40
369 284 246 125 97 63
237 588 247 185 7 49
217 552 210 114 16 37
293 74 287 99 73 53
295 209 319 120 96 70
309 329 291 110 87 61
300 740 322 120 47 47
292 79 284 100 11 36
239 579 201 144 30 50
293 79 286 102 19 35
302 629 338 163 115 81
290 84 281 107 54 45
294 84 286 104 17 37
368 264 250 131 100 67
378 843 127 103 83 66
293 86 283 107 10 37
293 89 283 106 61 57
294 89 286 101 67 53
272 654 308 109 78 61
357 439 91 88 24 37
288 91 278 129 21 28
230 559 226 184 1 48
300 555 319 135 22 47
296 224 273 130 100 64
315 359 320 127 99 72
374 364 241 117 94 67
288 94 278 117 32 33
291 94 280 112 35 33
293 69 291 115 89 66
242 582 220 216 1 60
293 69 296 114 61 54
290 69 301 118 25 43
293 69 299 123 16 42
290 954 327 82 77 76
261 669 256 99 26 41
266 479 173 106 27 35
293 74 296 119 19 44
385 449 120 157 1 36
325 379 195 95 84 73
293 79 291 104 27 41
290 74 301 116 27 44
318 713 184 125 11 30
253 749 260 45 33 38
345 749 173 68 33 35
293 72 299 122 10 41
300 218 274 125 96 62
292 76 298 109 39 43
316 349 221 102 86 69
304 533 325 59 28 31
367 329 246 122 93 60
346 804 148 54 47 45
380 429 131 114 39 33
294 84 291 99 41 40
340 14 281 150 107 109
288 412 318 98 77 60
294 84 295 106 85 62
301 284 296 133 94 69
269 615 205 133 28 45
350 459 86 111 29 39
363 583 158 178 14 39
295 89 291 104 26 40
345 348 209 93 83 74
341 870 175 90 74 65
258 791 249 75 63 58
359 426 127 113 68 59
294 89 296 105 68 53
398 492 153 183 15 45
306 424 146 125 24 23
221 549 241 162 11 45
276 967 295 70 66 67
290 89 301 109 53 50
345 319 325 141 103 71
283 801 229 81 64 56
325 229 320 116 94 69
273 966 292 60 54 53
382 842 144 98 80 71
395 649 180 111 91 69
290 94 301 106 40 45
397 843 166 96 69 54
333 437 90 96 59 50
290 899 191 79 66 64
293 91 299 104 73 51
307 339 287 105 86 64
294 94 299 116 25 43
280 494 162 119 13 26
367 304 229 114 91 64
400 814 145 78 56 43
312 856 182 44 42 43
304 518 323 46 25 26
262 425 314 102 27 42
290 99 279 97 56 44
275 406 231 73 62 53
366 462 263 64 21 31
244 584 221 196 0 54
364 603 168 51 32 34
430 826 238 86 66 53
288 101 278 77 62 42
268 408 286 74 65 56
370 427 111 124 51 43
333 932 324 60 52 48
306 284 320 149 106 85
219 544 261 189 1 53
296 99 286 95 62 46
290 109 277 124 29 35
286 938 334 63 61 62
296 104 286 108 39 45
289 113 277 134 80 67
253 752 298 152 114 82
350 578 148 195 10 40
348 609 284 107 28 43
291 114 281 124 89 65
376 399 221 115 94 72
275 484 167 116 18 30
336 464 121 102 23 38
292 119 284 113 88 58
390 433 161 53 28 26
294 739 331 178 122 94
293 112 283 116 88 64
360 429 306 77 26 35
294 114 286 110 86 60
292 116 284 115 88 62
386 426 130 134 32 26
421 455 150 98 36 44
294 119 287 107 85 59
291 129 285 118 91 59
295 104 296 106 79 57
350 890 304 37 35 34
294 99 300 111 24 41
348 507 309 171 111 99
228 561 234 176 16 58
410 826 107 99 78 60
294 109 296 110 88 64
375 874 216 78 63 60
336 852 153 82 65 57
290 109 302 111 90 66
306 534 148 40 37 40
267 469 173 65 36 35
328 485 319 98 29 43
237 549 304 165 0 50
292 555 318 107 4 35
293 110 299 111 90 68
351 919 276 65 59 60
404 609 221 150 109 74
288 101 304 112 40 43
220 539 271 157 2 44
364 339 221 110 90 69
305 649 336 164 118 85
403 604 216 134 104 68
288 109 304 108 85 63
280 764 217 85 30 40
348 409 188 102 89 75
295 114 291 107 85 59
355 254 260 111 86 57
371 885 266 62 56 57
296 119 291 106 85 59
291 114 302 115 93 70
257 709 261 138 10 43
413 759 187 160 111 77
418 467 153 69 21 24
266 474 173 45 36 40
294 114 299 110 89 66
294 119 300 110 88 65
364 524 127 118 22 39
356 432 105 107 77 58
259 759 246 112 25 42
296 124 291 109 86 59
296 129 291 108 86 59
206 514 206 126 22 46
250 949 281 74 68 69
367 427 134 146 66 55
297 124 296 110 88 63
246 909 286 149 119 96
297 128 296 112 89 64
290 124 305 118 96 72
285 474 161 131 4 31
290 129 305 115 93 70
293 126 304 115 93 69
313 200 283 111 91 69
300 509 150 121 11 29
382 525 150 103 21 38
347 925 291 58 51 49
334 459 96 67 32 37
335 264 210 130 99 62
357 379 268 133 86 68
325 13 261 122 61 57
278 771 224 78 60 53
353 541 263 126 65 62
325 13 266 126 63 60
340 514 315 177 134 114
325 13 271 130 66 65
435 429 220 72 23 29
406 794 217 160 116 85
330 13 266 130 78 73
364 329 222 104 87 67
435 429 166 98 34 42
330 13 271 136 79 77
335 13 266 129 89 83
350 473 302 67 16 25
362 500 302 168 113 100
361 479 106 147 1 36
407 754 174 130 92 64
325 13 276 136 67 71
395 774 112 83 63 45
360 426 131 126 69 58
304 260 279 109 85 56
361 418 291 54 36 31
325 11 286 150 53 73
252 744 290 149 112 79
330 12 276 139 76 78
387 495 233 75 25 34
335 12 276 144 94 93
330 11 286 152 58 79
325 29 271 122 79 65
285 394 246 82 68 55
390 514 236 67 23 31
262 491 173 93 32 42
354 493 103 123 25 41
285 184 278 131 101 66
265 569 175 126 26 43
330 29 271 127 72 63
327 228 284 103 86 68
325 389 328 137 105 75
323 220 282 96 80 64
350 219 256 104 83 60
336 31 267 124 57 58
320 479 321 83 28 37
367 838 283 53 46 41
396 734 256 172 17 55
311 379 207 92 81 70
297 360 287 103 85 66
324 21 283 139 95 80
257 719 252 106 28 44
326 22 284 150 102 81
370 729 167 72 55 52
361 269 215 112 89 60
396 749 226 106 27 42
325 26 277 135 44 58
337 430 106 115 38 40
325 27 275 132 83 73
330 24 281 129 87 69
363 424 296 98 24 39
374 464 285 143 96 91
331 21 283 132 94 71
340 309 326 140 103 73
335 18 285 148 104 92
336 20 283 144 103 81
340 14 261 112 78 70
345 15 261 104 63 58
410 440 181 55 23 24
340 14 266 123 87 81
264 840 281 77 61 58
409 804 215 145 105 78
266 684 291 38 30 34
345 14 266 111 70 67
290 569 162 122 27 42
350 15 266 102 56 53
349 15 271 114 76 72
340 13 276 145 106 104
351 866 174 83 68 61
385 424 276 69 30 34
266 875 320 128 93 75
330 417 159 98 84 69
345 15 280 143 107 108
293 464 333 100 18 34
348 16 276 129 97 91
365 428 126 148 57 47
382 871 238 59 52 51
328 284 257 118 90 67
344 27 271 126 75 67
222 542 279 31 27 39
349 16 257 104 58 53
352 18 267 103 36 43
261 828 261 89 69 60
351 24 266 131 36 54
373 877 214 76 61 61
349 24 271 134 30 53
352 26 262 140 105 93
349 28 265 137 38 58
310 789 310 69 55 48
344 23 279 126 69 63
273 780 235 77 62 54
291 239 281 133 101 66
430 449 224 66 26 31
365 324 266 139 91 70
296 724 331 177 117 91
338 17 284 140 97 83
383 492 133 144 23 42
319 899 310 137 106 80
345 19 280 119 68 65
340 27 275 147 18 54
302 411 192 97 84 71
262 558 324 93 26 37
340 26 277 138 37 57
286 389 305 112 90 66
386 704 181 98 82 64
327 242 279 93 77 59
354 399 311 160 113 89
382 857 214 82 65 57
345 24 276 139 25 54
347 20 278 117 27 45
332 956 288 65 58 55
320 413 171 101 85 67
338 449 119 100 18 36
366 674 267 89 22 36
310 434 337 78 25 34
349 19 276 120 83 76
357 277 263 105 80 53
348 23 275 126 40 50
324 11 294 149 36 63
337 247 290 104 86 66
330 11 290 152 48 73
327 310 267 81 62 43
334 799 160 66 55 51
283 683 214 84 28 35
330 13 290 150 51 70
315 494 140 135 12 37
323 17 289 173 112 103
280 412 205 95 81 67
318 191 305 109 90 68
367 305 252 123 89 59
261 598 197 75 32 38
320 289 274 88 66 38
403 701 173 115 89 60
325 34 269 114 22 42
340 249 301 109 90 69
331 35 268 125 16 46
408 674 209 177 121 93
281 679 217 63 31 34
338 487 121 118 8 33
330 39 267 118 37 49
378 862 197 82 66 58
272 411 213 90 76 63
356 384 267 130 84 66
335 34 267 119 37 49
335 39 265 117 31 48
335 49 263 113 39 47
330 44 265 124 96 71
260 769 341 166 117 89
368 334 236 127 99 67
330 49 264 118 92 67
324 55 263 105 14 39
266 639 321 142 113 85
322 52 264 98 8 38
314 184 301 108 89 69
322 58 260 111 82 63
354 428 308 45 25 25
272 179 291 132 99 67
337 956 266 70 66 66
325 59 261 108 52 52
275 149 280 127 97 60
421 426 151 95 26 35
323 60 258 113 84 65
275 944 235 75 69 70
303 668 331 171 121 90
324 64 257 99 68 52
335 54 262 113 19 42
286 613 187 40 33 39
323 264 219 138 107 71
325 964 286 69 63 60
330 54 263 111 65 53
362 540 134 67 26 26
365 709 285 55 29 35
412 490 165 179 18 42
395 839 176 111 75 60
334 64 260 116 32 47
280 614 331 148 115 90
340 39 262 127 21 48
249 749 286 149 109 78
357 398 285 95 70 49
380 434 290 97 18 34
283 437 323 68 28 31
247 809 291 177 125 93
340 279 212 106 84 57
362 269 258 126 95 63
342 36 263 126 17 44
339 38 264 133 18 47
373 309 311 117 91 63
371 789 257 74 56 49
350 428 111 102 74 57
341 820 142 67 58 56
344 33 264 139 26 54
290 962 247 89 87 90
360 339 216 100 86 71
395 841 264 80 67 56
267 734 228 121 15 44
400 474 221 37 25 24
337 41 263 102 23 38
340 44 261 111 40 47
369 354 256 127 94 62
280 454 327 36 28 30
343 42 259 121 97 73
342 45 258 115 96 72
342 50 258 117 21 45
307 479 143 92 27 33
339 54 260 114 58 56
390 428 141 99 31 33
338 58 259 120 95 71
407 766 140 77 60 46
398 533 224 180 16 56
370 427 136 138 65 54
355 549 132 93 26 39
317 197 290 101 84 65
337 61 258 117 97 73
320 607 168 139 44 57
371 866 201 85 69 60
352 17 261 99 49 47
324 299 225 100 83 65
302 259 324 130 100 73
354 19 261 104 37 45
355 529 122 164 9 38
283 454 164 123 8 28
304 349 306 115 92 65
384 669 181 114 90 66
295 199 275 124 97 66
353 23 265 120 24 43
310 689 192 73 33 36
301 633 192 111 24 38
345 500 104 188 6 42
353 27 260 127 33 49
353 403 310 158 111 89
330 70 258 104 71 57
321 364 324 129 100 72
260 134 276 147 48 54
266 130 275 127 56 48
251 894 301 94 70 63
276 804 236 84 67 58
290 199 317 120 96 70
281 826 333 196 136 107
398 857 182 101 78 65
260 135 286 126 80 65
373 396 218 115 98 79
280 954 240 83 78 81
356 379 205 94 83 71
265 139 280 143 99 68
300 484 335 144 20 50
438 426 177 88 45 51
366 804 258 47 38 33
263 140 286 141 102 77
271 130 279 126 87 53
268 132 278 130 90 55
393 553 177 182 22 53
270 134 279 126 88 52
316 484 138 65 36 39
300 454 147 102 21 35
270 144 280 128 95 58
266 149 286 141 102 72
300 848 287 74 57 42
270 154 282 132 99 64
268 155 285 138 101 69
271 159 282 131 99 65
390 489 231 67 21 31
292 154 284 114 92 66
363 786 134 75 58 48
269 159 286 137 101 69
280 134 280 118 90 56
365 889 236 75 64 63
325 375 197 97 86 74
288 873 245 118 93 69
280 189 281 133 103 66
335 629 182 96 32 39
339 484 126 114 18 37
275 144 280 127 97 61
384 554 231 74 32 29
312 309 288 101 80 57
398 522 229 176 10 58
280 144 280 121 93 60
334 302 271 87 70 51
301 370 261 75 64 53
285 134 281 118 90 55
280 859 266 102 70 42
280 149 280 123 95 62
337 267 323 122 95 64
310 563 153 53 35 38
368 359 293 136 95 70
294 629 195 79 33 39
280 154 279 123 96 62
367 499 119 53 29 34
384 699 266 128 8 40
275 154 280 126 97 61
349 833 283 44 35 28
311 926 219 83 79 81
270 754 226 94 27 39
285 159 279 119 93 62
238 549 184 135 13 37
413 744 183 156 107 75
334 454 96 83 27 36
409 794 136 68 52 40
259 130 292 123 48 54
308 166 302 108 88 67
319 259 231 133 105 73
315 749 320 132 25 49
257 132 289 138 32 57
253 626 282 71 27 33
375 614 256 79 28 37
282 229 309 134 101 74
287 381 277 97 81 63
261 133 291 124 80 65
344 279 281 90 74 56
279 674 220 91 25 35
264 134 296 122 92 68
310 209 276 120 93 57
262 137 289 129 95 71
266 134 300 122 96 70
269 134 302 123 99 73
267 139 299 121 97 71
263 863 280 132 108 82
260 654 266 168 0 48
374 499 127 156 4 36
267 144 299 121 97 72
270 144 301 121 99 75
280 914 201 86 77 73
411 659 206 138 101 64
357 249 258 115 90 60
271 134 304 122 98 73
272 139 304 121 98 73
350 379 321 154 110 83
335 554 150 62 29 37
266 149 291 129 100 71
398 881 294 73 60 50
282 224 310 134 104 75
268 150 298 123 99 74
365 274 256 129 92 64
267 153 291 131 100 71
405 815 102 106 79 57
359 439 96 147 5 36
446 806 93 84 70 55
371 414 257 105 78 61
267 153 295 126 98 70
268 156 291 131 99 69
288 571 164 177 6 46
360 469 101 146 3 38
268 159 291 131 99 67
268 159 296 126 99 72
270 154 301 124 100 75
272 179 287 134 101 67
270 159 301 125 100 74
280 134 307 116 95 73
349 416 176 102 88 73
409 741 133 76 60 45
301 729 193 132 12 37
275 139 306 116 94 71
275 144 306 118 96 72
280 139 308 114 93 71
323 673 189 45 36 36
279 144 308 114 93 70
294 393 235 70 60 51
334 229 311 111 91 69
308 296 313 146 102 80
368 334 231 128 101 71
220 534 271 156 1 43
281 144 309 114 93 71
387 806 123 53 44 40
285 144 309 114 94 72
285 894 331 192 143 127
273 154 303 122 99 75
311 444 339 96 28 41
273 159 303 124 101 76
420 888 286 121 111 102
307 371 232 112 92 70
355 424 308 56 28 29
358 329 276 112 73 55
414 770 124 76 62 49
275 149 306 118 95 71
281 149 309 114 93 70
321 238 323 124 99 71
275 154 305 119 96 73
360 669 191 48 34 37
276 159 305 120 98 73
278 154 308 115 93 69
302 825 302 75 61 55
332 518 138 151 6 39
285 149 310 112 91 70
285 154 311 111 91 69
248 620 266 62 31 37
415 489 226 155 21 51
270 164 286 137 102 71
423 432 203 55 23 22
272 168 283 130 98 65
295 976 276 58 55 55
360 309 271 118 81 58
324 407 179 98 84 70
272 174 286 135 102 68
360 423 181 103 88 72
296 168 284 114 92 67
280 164 279 126 98 65
364 815 279 58 45 37
257 714 252 97 33 44
275 169 281 130 100 64
395 874 291 47 40 35
276 744 343 174 117 90
314 408 201 98 84 71
300 684 326 148 101 76
345 309 213 92 78 63
297 406 208 96 83 71
280 174 279 131 100 63
273 175 284 132 100 65
285 169 278 125 97 63
345 219 256 100 81 59
272 910 212 75 68 67
396 434 256 116 24 43
255 564 317 72 22 34
367 906 300 86 70 68
260 410 251 67 59 53
286 168 279 124 97 63
310 404 201 98 85 71
363 528 128 78 32 39
281 170 278 127 98 61
355 249 259 111 87 58
278 623 333 145 112 84
284 174 278 128 99 64
398 719 255 149 21 49
350 499 105 182 6 35
378 826 129 93 66 55
285 174 279 127 99 64
378 548 157 154 13 39
408 836 259 66 51 32
259 835 291 58 48 51
409 524 181 84 31 41
276 179 282 131 101 64
274 179 285 133 100 66
276 184 282 133 101 65
275 189 286 136 101 67
444 434 191 161 19 42
378 779 124 77 61 48
375 417 266 60 48 34
278 191 284 136 104 67
296 847 306 111 90 69
285 179 278 129 100 64
403 847 196 94 71 60
276 469 168 96 24 32
358 599 269 131 12 41
283 184 279 134 104 67
393 445 184 82 22 29
325 399 185 97 85 72
362 461 104 144 0 37
284 189 279 133 103 66
270 169 296 127 98 69
271 164 301 125 100 74
271 169 300 122 98 71
411 785 121 72 51 41
271 174 291 132 100 68
421 504 191 186 16 51
405 441 134 178 16 42
296 859 237 126 94 71
271 174 301 121 96 69
305 229 273 125 95 59
271 179 296 127 97 67
313 329 313 118 93 67
272 179 300 122 97 69
425 434 141 112 28 42
370 869 206 80 65 60
370 504 256 35 24 26
273 174 303 119 97 71
248 884 291 177 128 111
276 164 305 121 99 75
283 659 214 83 28 37
276 169 305 120 97 72
315 249 272 97 74 45
260 903 256 60 54 52
278 164 308 118 95 70
278 169 308 119 96 70
395 859 257 105 76 86
261 814 251 81 63 55
437 461 195 184 17 53
281 164 310 117 94 70
330 392 189 97 85 72
285 169 312 117 94 70
390 677 213 92 65 57
315 374 206 94 83 73
284 174 312 118 95 69
271 583 178 181 4 41
413 809 209 158 113 81
256 884 276 139 108 80
346 577 148 191 10 38
347 886 199 91 77 71
287 170 314 117 94 70
272 183 288 135 101 67
290 634 201 52 33 36
295 659 339 157 110 79
272 183 291 134 101 67
273 185 291 135 101 67
350 734 296 117 24 46
272 184 296 130 99 66
273 179 303 121 97 71
320 669 190 52 32 35
310 644 192 118 28 41
273 186 296 130 99 67
349 350 208 94 84 74
314 344 241 122 94 72
273 189 301 127 98 69
276 179 305 117 95 71
278 183 308 115 94 70
392 822 166 71 55 42
281 184 310 115 93 69
252 937 247 76 71 72
399 797 119 55 43 40
340 875 180 79 68 65
281 189 310 118 95 70
300 879 325 159 124 96
409 639 211 147 104 69
293 146 309 112 91 69
284 184 312 117 94 70
369 484 266 96 58 55
403 846 174 102 75 60
400 778 117 72 58 47
287 179 314 118 95 70
287 184 314 118 95 70
291 134 285 120 93 61
323 259 219 135 105 69
289 139 283 118 92 60
389 538 168 89 25 37
291 139 285 118 92 61
229 569 206 49 32 37
376 886 279 68 55 49
289 144 283 116 91 62
375 726 168 77 62 55
292 144 284 115 91 62
272 400 262 82 73 65
333 431 330 89 65 48
294 139 287 112 89 62
408 639 216 153 108 74
295 144 287 113 90 62
309 942 329 56 51 50
289 149 283 116 92 63
362 381 296 137 95 70
401 843 186 103 75 59
355 424 131 132 74 59
292 149 284 115 92 65
364 569 255 100 14 33
352 401 313 162 113 91
305 439 141 55 35 37
295 149 286 113 91 65
290 154 282 114 91 62
362 308 268 127 89 63
290 159 282 116 92 62
330 654 301 146 8 46
292 158 284 114 91 64
432 429 155 141 34 47
295 159 285 113 92 70
299 154 288 109 88 66
421 451 224 67 22 26
299 364 276 94 80 65
299 159 287 110 91 69
296 139 290 105 84 60
326 909 306 89 67 54
370 849 282 61 49 39
295 908 197 85 75 73
295 239 277 130 100 64
298 130 296 112 90 66
298 134 296 111 89 65
260 416 206 83 44 36
380 479 126 81 31 38
298 136 293 107 87 64
330 319 325 140 103 82
297 143 289 103 84 61
299 144 292 104 83 59
330 309 217 105 86 67
316 369 207 94 83 73
384 842 145 97 78 66
300 144 296 110 88 64
310 524 145 101 27 39
339 480 95 143 13 40
223 514 283 150 5 44
259 794 250 75 63 57
299 139 301 110 89 66
422 481 223 50 27 30
297 138 303 109 89 66
290 134 306 114 93 70
375 429 110 149 29 40
290 139 308 115 95 73
310 839 216 52 45 48
244 774 281 163 117 84
375 884 307 52 45 40
291 143 308 115 95 73
273 482 169 117 21 33
290 194 317 119 95 70
295 139 306 111 90 67
360 349 215 99 85 72
389 683 214 74 48 43
408 640 196 134 104 69
295 144 307 111 90 68
298 140 304 109 88 63
365 349 221 111 92 71
299 144 305 110 89 65
344 804 150 55 47 45
402 471 220 37 26 24
288 474 159 130 1 29
300 149 291 105 85 62
414 804 206 160 110 80
313 599 334 162 114 84
261 411 231 67 51 46
315 284 276 99 74 45
218 524 267 52 31 34
258 884 274 136 107 79
369 279 246 128 98 64
247 938 262 63 60 60
301 149 296 110 89 65
264 649 286 152 9 50
303 151 302 111 89 65
301 154 291 103 84 62
314 364 256 63 52 40
302 153 295 108 88 65
210 519 197 60 30 33
278 524 159 97 27 37
262 837 291 63 54 54
440 834 91 102 84 69
355 269 212 106 83 55
303 155 297 110 89 67
233 565 194 58 31 34
301 159 290 100 82 63
304 159 296 107 87 64
355 349 211 96 85 74
330 568 153 163 0 36
302 152 301 112 90 66
303 154 301 111 89 66
295 149 309 112 91 70
290 154 311 113 92 71
295 154 310 112 92 70
275 754 221 59 35 40
280 574 169 178 4 40
338 533 297 150 93 73
295 159 312 115 94 73
340 299 325 136 104 71
300 149 306 110 90 67
355 474 96 72 32 39
348 487 313 104 69 61
301 154 307 111 90 68
365 829 282 52 43 36
369 426 141 111 72 60
386 804 246 64 49 40
300 159 310 110 90 69
302 158 308 110 90 67
407 501 228 176 14 58
295 624 191 67 34 39
287 481 158 126 8 30
305 159 301 109 88 66
385 679 181 104 85 63
293 161 283 112 91 66
378 567 254 174 118 92
372 363 235 113 92 70
232 564 294 105 20 38
353 822 264 50 40 31
294 169 282 115 91 62
290 176 278 123 96 62
375 849 232 54 44 44
298 454 149 133 9 33
398 467 208 43 24 25
298 175 283 113 91 64
345 491 99 170 10 44
297 172 284 111 89 64
309 624 335 165 117 87
303 170 288 107 89 70
290 179 278 123 97 63
360 294 317 115 89 62
398 448 133 170 10 35
313 629 330 163 113 84
290 184 277 125 98 63
296 179 280 116 91 59
254 774 337 166 116 88
350 484 96 163 6 38
290 189 277 127 99 64
297 182 279 117 92 60
392 769 238 70 55 45
300 184 281 116 91 60
388 488 138 108 20 33
409 794 182 155 105 75
305 179 286 110 91 70
303 181 283 114 92 67
329 429 125 73 34 34
305 628 187 65 32 35
304 184 283 116 93 67
333 259 278 92 75 57
303 348 302 112 90 66
299 185 278 119 93 60
257 710 334 155 112 86
305 189 281 115 92 64
365 425 151 92 71 60
306 183 284 112 93 73
262 690 285 81 28 38
308 180 288 99 83 66
361 724 177 68 33 35
340 479 121 99 17 35
309 184 287 104 87 69
372 862 166 83 69 62
359 384 207 104 90 76
310 959 241 87 83 85
334 554 286 41 28 32
307 187 284 114 95 73
308 190 283 112 92 70
324 319 270 78 61 40
302 163 289 100 83 65
407 505 169 185 14 46
305 169 291 101 84 65
290 163 313 116 94 70
291 165 314 116 94 71
288 167 313 117 94 70
290 169 314 116 93 69
319 269 231 135 106 74
295 164 313 116 95 72
339 539 311 163 111 89
257 411 238 62 45 42
294 166 314 117 96 73
382 450 119 155 1 30
295 169 314 117 96 73
357 848 288 67 54 44
296 167 313 117 96 74
366 694 282 87 30 40
415 474 229 71 24 31
249 899 296 107 90 77
290 174 315 116 94 69
402 451 194 40 26 26
295 174 315 117 96 73
300 164 311 111 91 70
300 769 196 113 26 43
303 161 309 109 89 68
320 939 326 58 51 47
300 174 314 118 96 74
307 375 221 111 92 72
311 884 317 162 123 99
305 174 312 111 91 70
380 614 197 96 67 52
290 179 315 117 94 70
266 449 177 106 22 30
290 184 316 119 95 70
344 525 278 91 54 46
292 690 203 115 24 36
375 369 241 120 95 66
305 970 296 69 63 62
295 184 317 118 96 71
302 389 216 103 86 68
266 659 335 152 103 82
395 754 125 75 55 40
290 189 316 121 97 71
265 434 316 41 28 29
300 184 316 122 100 77
330 834 277 143 110 85
390 695 215 103 31 42
373 430 192 73 38 37
313 195 287 106 88 70
310 384 322 127 100 72
270 818 339 188 131 105
305 179 314 115 95 73
357 324 323 135 99 66
405 839 261 75 61 47
305 189 317 122 100 78
306 164 296 106 87 66
375 419 276 49 38 28
330 534 281 48 28 33
307 167 300 108 88 66
284 239 296 137 101 70
360 689 286 91 24 36
357 677 189 104 19 28
286 659 212 69 30 35
309 169 301 108 89 67
307 173 290 100 83 65
348 299 324 133 99 67
340 789 156 66 54 50
283 646 214 136 13 34
308 175 292 99 82 64
309 174 296 102 85 66
358 507 304 171 118 101
310 174 301 108 89 69
415 808 121 76 63 56
247 924 296 171 129 107
310 174 306 110 90 67
353 584 274 149 7 45
309 175 310 110 90 67
318 231 273 104 82 55
307 177 289 98 82 65
315 524 144 141 13 35
316 329 277 93 75 55
309 179 291 100 84 66
399 774 136 72 53 40
311 179 296 102 85 67
346 292 213 90 77 65
290 849 315 162 126 98
409 809 116 82 67 54
311 184 291 101 84 66
370 259 231 121 95 64
284 508 334 119 22 45
339 410 177 102 87 71
312 188 290 103 86 68
256 879 277 134 106 78
313 185 297 103 85 66
315 189 296 101 84 65
282 223 288 133 100 66
310 179 311 110 90 68
306 178 313 110 90 69
380 439 196 67 20 28
361 811 132 52 48 47
309 804 200 87 68 60
284 199 280 131 101 64
296 578 163 164 9 43
306 814 302 69 54 47
308 181 314 111 92 72
328 264 214 134 103 66
312 188 313 109 89 66
297 622 188 80 47 49
300 664 337 174 120 92
414 433 156 75 23 29
290 489 156 116 15 31
306 384 320 125 98 70
315 184 306 109 90 68
393 433 123 119 29 41
299 620 185 47 35 37
313 184 310 110 90 68
321 750 318 46 29 34
252 721 280 129 12 41
336 464 111 76 29 36
316 189 306 110 90 69
322 879 298 134 101 77
335 289 215 114 90 64
315 189 311 111 91 70
418 453 223 41 26 26
276 194 286 139 103 68
312 454 138 64 36 37
228 566 245 61 31 36
280 209 286 135 101 66
265 489 172 66 36 35
342 434 318 118 88 71
284 194 279 131 101 65
287 204 278 129 100 65
281 204 283 132 102 65
310 294 286 104 79 54
332 253 279 91 74 55
242 608 266 196 2 53
345 539 126 191 6 42
282 208 283 133 103 67
400 823 151 101 75 59
336 735 318 181 17 58
285 214 281 130 100 65
287 214 278 128 100 65
286 219 281 131 101 65
380 424 116 157 35 34
339 949 281 57 49 46
320 244 272 98 77 54
317 339 319 129 98 72
231 529 300 148 7 45
377 451 279 133 34 47
377 520 267 178 125 103
382 670 213 51 37 35
274 601 189 189 7 44
283 220 284 133 101 66
360 499 111 157 4 39
284 224 285 133 101 66
286 224 282 132 102 66
330 819 271 140 96 78
274 194 296 135 101 68
256 914 320 174 137 118
354 918 301 79 68 66
309 369 221 108 90 70
414 489 166 182 19 48
275 199 296 138 102 71
274 194 301 129 100 70
254 914 317 173 136 116
303 586 164 38 37 43
275 199 301 132 100 71
410 504 171 187 15 48
282 386 294 115 92 67
275 798 344 187 139 109
277 202 288 139 103 68
401 836 176 98 71 58
262 669 247 112 17 38
277 208 296 138 103 70
340 374 326 144 105 74
358 404 294 115 81 58
305 794 201 82 65 57
276 204 301 136 103 73
383 696 264 124 15 41
339 416 163 99 84 68
277 209 301 137 103 72
260 774 341 163 115 87
296 411 197 98 84 72
290 219 277 130 100 64
278 194 308 121 96 71
330 494 316 69 26 34
357 465 94 134 15 39
280 194 310 120 96 71
370 494 250 84 27 39
374 493 249 108 26 43
278 199 308 127 101 74
331 870 169 115 93 73
277 209 305 131 100 72
345 579 150 184 7 41
247 607 242 195 2 53
278 210 307 130 101 73
345 423 126 113 74 57
362 264 214 113 89 61
238 586 244 187 0 50
280 209 310 125 99 73
314 349 318 127 98 72
396 763 126 89 64 47
284 194 313 120 97 72
311 494 322 68 23 31
208 525 200 67 31 36
319 289 246 117 94 70
286 194 314 120 96 71
284 639 210 91 29 40
364 334 287 101 80 56
286 199 314 120 96 71
271 440 319 56 28 31
321 569 328 163 118 88
283 209 313 121 97 72
367 707 189 59 30 33
278 654 219 153 4 40
278 210 295 139 103 70
324 434 130 106 25 35
279 214 291 135 100 68
302 380 237 81 68 55
278 214 301 139 104 73
372 427 144 96 66 56
256 578 183 124 24 45
261 573 178 61 30 34
280 219 291 132 99 66
279 219 301 139 104 73
434 468 216 155 28 53
282 224 291 131 99 65
281 224 296 135 101 68
315 839 282 141 108 80
390 484 141 93 26 39
278 214 306 134 103 74
410 859 261 174 160 160
265 624 306 96 29 41
325 769 176 96 31 37
280 214 310 129 103 75
295 254 320 133 101 76
337 936 308 59 52 49
279 219 306 136 104 74
272 705 223 139 3 36
361 294 220 100 82 62
286 214 315 121 97 71
222 537 228 162 0 43
260 819 335 188 134 110
335 644 296 156 4 49
384 684 241 134 11 43
305 369 261 79 67 54
252 724 276 142 4 44
336 799 157 71 58 53
280 224 306 135 103 74
370 428 126 155 48 42
283 219 313 125 99 72
279 402 240 79 65 55
286 224 315 124 97 70
284 229 286 135 102 68
286 228 282 134 103 67
295 199 318 120 96 71
287 232 283 136 104 68
335 304 215 104 86 67
286 234 286 136 102 68
308 373 318 126 100 72
259 412 262 68 59 53
393 458 245 151 18 50
284 744 340 173 116 87
283 226 289 133 100 68
358 918 319 66 55 47
365 704 285 34 27 30
269 412 215 88 74 62
423 487 219 27 26 31
415 825 98 96 77 58
317 294 241 119 97 72
294 759 326 168 113 85
283 230 290 133 99 67
282 228 292 133 99 67
300 414 325 114 87 63
282 229 296 136 100 68
284 234 291 135 100 68
390 464 221 50 25 29
282 233 297 136 100 68
285 239 291 136 99 68
282 233 301 137 100 70
328 867 161 71 58 52
283 239 301 139 102 71
250 549 315 161 12 50
284 229 312 132 101 74
331 489 133 51 35 40
286 229 315 127 99 71
409 449 201 39 27 25
371 324 295 104 79 53
282 233 306 136 100 71
300 975 261 68 64 64
339 529 315 166 124 101
283 235 306 136 100 72
284 234 311 134 100 74
305 544 150 63 36 41
368 324 231 125 99 70
291 540 329 91 21 34
359 445 289 78 15 30
284 239 306 139 102 73
259 754 246 90 30 41
340 474 121 93 19 35
345 274 321 119 94 64
326 820 276 147 99 79
287 234 314 130 100 74
408 512 224 177 11 55
287 244 291 135 99 68
402 462 173 75 22 29
285 244 296 135 98 69
252 593 310 105 18 37
270 444 176 47 39 42
287 248 292 130 97 66
286 249 301 139 100 71
326 409 328 143 106 74
392 428 287 104 25 38
407 811 121 76 60 45
287 253 301 139 100 70
285 244 306 140 101 73
355 478 311 101 69 57
376 384 246 133 98 67
275 962 315 70 65 63
265 963 296 60 53 52
260 834 311 199 132 103
286 249 306 141 101 74
317 329 250 133 100 80
300 439 331 105 20 38
381 629 232 120 24 39
340 224 257 97 78 58
287 248 310 140 102 77
287 243 314 134 102 76
264 739 343 164 114 88
247 759 329 175 121 95
287 253 306 141 100 74
337 881 184 76 67 68
373 487 123 133 36 58
290 194 277 129 100 64
295 194 276 124 98 66
392 426 139 40 28 20
340 289 214 98 81 61
224 550 213 79 22 35
290 204 276 127 99 64
290 209 276 127 98 63
357 342 214 98 86 75
365 284 221 111 87 61
295 204 275 122 96 64
342 910 224 81 71 69
300 199 275 122 95 63
335 699 316 108 16 38
304 195 277 119 92 57
307 860 206 43 40 43
285 416 186 97 80 67
239 584 297 102 16 39
265 469 325 127 16 40
300 204 275 119 93 62
309 344 311 118 93 66
317 734 183 114 25 39
291 559 158 77 34 39
305 204 275 121 93 58
290 409 317 117 94 70
256 624 246 187 6 49
336 454 111 44 33 36
295 214 275 125 97 63
405 449 167 75 25 29
388 421 230 100 82 61
292 927 328 103 79 67
288 220 279 130 100 64
291 224 277 130 100 64
324 958 248 86 79 79
296 221 273 130 100 65
300 220 273 125 96 61
362 551 139 43 30 36
362 391 263 135 92 70
374 848 234 59 47 47
300 224 273 127 97 61
329 234 320 114 92 69
305 219 273 120 91 55
351 269 306 114 93 71
254 619 296 41 30 32
246 953 291 71 67 69
305 224 273 122 93 57
361 309 220 96 81 65
330 399 328 149 110 78
300 764 196 144 2 39
307 198 279 118 92 59
310 199 281 117 93 65
358 315 276 107 77 54
373 578 168 144 24 42
311 194 285 109 91 70
311 203 280 118 93 63
383 808 259 59 47 37
312 197 284 112 93 71
373 380 223 103 86 69
323 226 278 94 79 63
232 562 193 96 26 35
312 207 279 116 91 60
323 288 253 116 91 68
388 852 204 73 56 49
314 339 276 88 72 54
319 204 287 103 85 67
329 889 181 88 79 76
329 869 167 92 73 60
308 224 273 119 90 55
364 489 256 53 25 30
351 664 282 151 12 47
314 214 278 116 92 61
316 213 279 111 89 65
296 380 251 73 63 53
350 624 286 68 24 30
361 770 127 80 63 50
337 426 112 109 52 48
323 278 247 123 96 72
315 224 276 113 88 56
263 678 282 47 28 31
250 924 256 50 48 49
275 574 326 47 26 29
345 420 151 100 85 68
318 216 278 103 85 65
350 359 206 92 82 72
408 640 219 156 109 76
300 674 200 65 30 36
319 219 278 102 84 65
295 194 318 120 97 72
219 554 201 121 28 46
350 888 206 87 73 68
290 204 317 119 96 70
369 634 266 82 28 37
300 229 273 130 99 63
290 209 317 119 96 70
351 368 204 95 84 74
294 203 318 119 95 70
367 419 282 44 31 29
367 579 160 177 17 42
296 204 319 120 96 70
360 354 281 105 74 51
405 754 166 84 65 52
300 194 318 123 100 76
300 195 319 123 100 75
225 554 212 108 19 41
375 624 256 122 23 44
297 196 319 121 98 72
300 199 319 124 100 75
316 619 326 164 111 83
345 432 96 103 86 68
305 194 318 124 102 78
253 739 292 108 72 59
379 848 162 86 71 61
385 699 181 98 82 64
382 580 184 123 45 56
320 420 136 172 27 32
317 300 237 121 98 73
280 419 319 125 17 42
248 559 179 41 38 42
302 197 318 125 102 78
298 438 149 129 9 29
306 198 318 122 100 76
304 200 319 123 100 75
336 474 101 114 11 33
375 624 251 109 28 42
365 444 106 118 19 37
308 347 279 96 80 62
320 264 226 137 106 72
300 204 319 123 99 73
375 868 286 58 49 42
305 204 320 124 100 74
310 972 257 90 86 89
321 304 227 105 87 68
290 214 317 119 95 70
345 399 321 156 110 87
288 560 159 93 35 42
295 214 319 119 95 70
403 658 219 176 116 95
292 215 319 119 96 71
390 704 261 131 3 40
356 469 95 77 27 35
290 219 317 119 95 70
403 467 217 38 26 24
274 479 169 111 20 35
285 429 165 102 32 31
289 224 317 121 96 69
297 876 233 49 46 46
385 430 161 59 28 26
299 499 329 125 23 46
364 769 269 89 66 56
292 224 319 119 96 69
370 359 231 115 94 71
292 219 319 117 94 69
244 589 231 171 0 45
295 219 320 116 93 68
335 444 77 82 38 38
295 224 320 116 93 68
294 789 211 83 65 58
375 428 176 73 36 34
315 194 291 102 85 67
289 444 328 42 27 30
370 349 236 121 98 71
317 193 295 99 82 64
373 389 250 138 100 72
318 196 293 96 80 63
315 469 137 128 19 36
364 439 102 129 11 36
319 195 296 101 84 65
378 512 138 36 28 36
423 478 224 126 34 48
319 199 291 99 82 64
320 199 296 101 84 65
336 479 128 66 31 34
326 284 221 128 99 69
340 529 275 76 38 38
318 200 288 104 86 66
333 685 309 132 10 40
325 384 195 93 82 72
250 779 261 75 62 58
321 204 291 102 84 65
411 824 206 181 127 100
402 535 218 125 21 45
355 714 183 96 21 25
310 194 316 115 95 73
222 534 280 153 8 46
311 203 318 119 97 72
389 434 290 163 21 54
270 774 344 167 120 90
401 435 129 69 28 34
310 209 320 122 98 72
319 194 306 110 90 68
236 539 183 103 28 40
318 195 310 110 90 69
320 199 311 111 91 70
293 254 318 136 103 78
297 779 322 152 111 76
314 194 315 112 92 71
399 529 172 180 18 44
221 529 215 164 4 50
367 731 168 69 51 50
332 436 92 101 55 47
254 749 306 102 76 48
315 199 316 112 92 71
317 198 313 110 91 70
315 204 317 114 93 70
374 821 119 61 51 45
316 208 318 115 94 71
314 210 319 118 96 71
335 299 326 133 105 72
356 404 301 137 94 73
248 805 317 176 122 92
318 201 314 111 92 73
325 834 161 59 52 50
321 204 312 112 93 72
373 416 265 59 49 36
319 215 319 114 93 71
333 942 304 48 43 41
291 229 277 130 101 65
290 234 281 133 101 65
331 449 127 91 33 39
295 234 276 129 99 63
395 434 236 141 19 45
297 227 273 130 100 65
249 519 175 129 4 28
301 655 310 54 31 33
298 230 274 131 100 66
299 234 274 130 99 63
380 864 251 62 53 55
260 624 301 79 33 40
225 529 190 108 24 35
305 239 274 125 96 61
401 835 226 81 60 55
305 819 211 86 68 60
314 734 184 115 21 35
295 409 206 95 82 71
294 244 280 127 98 63
325 594 160 175 9 39
385 444 206 82 22 30
313 382 323 127 99 72
327 652 188 134 10 37
331 259 255 105 86 64
291 248 286 128 97 64
373 430 108 117 36 43
342 709 312 138 0 42
292 247 283 128 98 64
293 250 285 125 96 62
301 249 277 119 92 61
247 603 237 201 3 54
299 250 280 118 92 62
305 249 275 114 88 58
305 254 277 109 84 55
294 879 211 37 35 37
309 230 273 119 90 55
311 228 274 118 89 52
310 234 273 118 89 56
284 403 231 71 61 52
308 373 237 107 87 66
308 240 274 118 90 57
376 739 277 181 21 60
315 228 274 111 86 53
325 939 321 64 55 52
320 229 275 99 81 62
340 429 101 101 63 53
308 783 314 44 38 38
314 237 274 105 81 48
388 447 259 56 30 33
324 584 325 173 122 95
413 757 150 85 60 41
397 440 129 103 28 39
321 234 275 96 80 61
319 240 273 98 78 53
220 529 271 124 14 41
390 434 166 54 28 26
321 239 274 96 79 60
375 469 261 98 22 35
360 804 260 92 66 53
369 519 280 183 124 102
310 249 273 103 79 50
361 749 156 62 54 49
308 249 274 108 83 53
278 519 159 66 33 38
369 344 241 121 96 66
367 309 230 116 93 66
374 439 266 127 16 42
310 254 275 103 80 51
342 568 283 50 22 26
315 244 272 100 76 45
345 264 210 105 82 55
338 485 99 121 14 40
326 809 166 58 51 48
290 229 317 125 99 71
360 624 182 89 32 41
292 229 319 121 96 69
337 468 115 76 25 33
354 774 141 63 54 50
374 478 266 135 77 77
295 229 320 119 95 68
341 688 184 78 33 36
289 234 317 126 98 71
334 949 295 61 53 50
295 829 226 82 64 58
290 239 317 126 98 72
389 444 122 80 28 35
216 524 241 53 31 33
395 421 126 165 28 27
295 239 321 122 97 70
277 606 319 105 65 57
288 246 289 133 100 67
369 274 241 127 97 61
270 459 325 95 19 35
268 698 305 73 42 39
289 249 291 128 95 64
397 714 230 45 32 36
288 251 295 129 93 65
313 367 250 73 62 52
260 694 251 51 36 38
237 597 260 189 0 50
384 824 260 59 46 37
288 799 339 175 129 98
359 704 290 131 22 46
288 255 301 138 99 71
257 504 173 89 29 31
305 759 318 61 42 39
288 246 313 137 102 75
290 249 316 136 103 77
312 338 239 124 96 73
295 244 321 125 99 72
375 429 126 150 44 38
330 406 178 99 85 70
384 463 255 64 28 31
295 249 321 130 101 74
338 484 117 108 11 36
291 254 315 139 104 79
293 251 318 135 104 79
339 444 111 93 31 41
340 509 315 174 134 115
352 476 94 153 33 51
305 214 321 125 100 74
300 219 320 118 94 68
302 264 324 133 101 75
260 499 172 58 37 38
305 219 321 123 99 73
374 539 147 47 34 38
310 214 321 123 100 73
310 224 322 123 99 73
315 219 321 121 97 71
319 274 231 132 104 73
315 224 322 123 98 70
366 299 261 125 94 61
335 421 131 125 62 46
300 410 201 96 84 72
345 363 204 93 83 72
300 229 321 115 92 67
261 416 202 83 38 33
305 229 322 118 94 68
371 654 200 69 34 38
300 234 322 116 93 67
305 234 323 118 95 68
255 634 266 189 5 52
300 244 323 121 97 70
299 254 323 131 101 74
355 404 196 103 90 76
310 974 271 75 70 70
360 598 162 100 28 40
358 421 174 103 88 74
235 514 182 127 11 29
250 924 311 174 131 111
355 723 179 83 27 28
302 250 324 124 98 70
373 468 118 108 25 37
305 249 324 122 97 69
275 400 256 80 69 59
302 254 324 127 98 71
288 759 209 150 0 40
370 416 266 67 52 37
249 614 251 195 1 53
395 849 191 102 74 60
335 339 212 93 82 72
307 240 324 119 95 68
331 961 261 81 77 81
309 233 323 121 97 71
324 348 214 96 85 74
308 237 323 120 96 70
405 799 146 70 51 40
310 239 324 123 98 71
260 415 211 83 55 46
320 229 322 120 96 69
366 915 311 77 65 62
297 666 338 169 117 87
316 233 323 125 100 73
318 313 229 109 90 69
405 849 255 168 147 140
330 694 183 50 34 36
315 235 324 125 101 74
313 344 231 118 95 71
258 820 333 188 132 106
320 234 323 122 98 71
310 249 325 123 98 69
283 457 164 127 9 30
310 254 325 123 97 68
243 605 255 193 1 51
320 244 324 125 99 70
320 249 324 126 100 70
368 259 222 117 92 63
315 254 326 127 101 71
331 428 328 126 93 69
322 223 279 94 79 63
425 830 231 91 66 52
260 514 325 109 25 43
327 223 285 104 87 69
328 225 287 107 89 70
345 224 256 102 81 59
240 514 311 82 27 35
337 474 96 136 2 37
292 849 237 146 103 80
321 199 301 107 89 68
394 469 210 38 26 26
299 874 231 48 44 46
310 420 146 141 28 31
322 207 290 102 85 66
345 629 292 58 27 31
324 239 276 93 77 61
324 209 291 102 84 66
219 544 256 160 7 47
254 872 291 121 98 74
322 207 294 100 83 64
252 729 271 151 2 44
323 205 297 104 86 67
368 349 256 122 90 59
322 202 307 109 90 70
220 549 212 70 25 34
323 205 310 111 91 71
356 510 302 184 120 109
396 883 297 68 56 49
325 209 311 111 92 71
326 874 292 141 110 84
326 209 306 108 89 68
258 644 271 174 1 48
322 208 313 114 94 72
223 530 217 159 4 48
325 214 291 103 85 66
331 960 281 65 59 56
326 214 296 105 87 67
328 220 292 105 87 67
252 729 266 121 18 43
330 224 291 106 87 67
380 404 231 119 95 66
336 449 121 118 18 39
331 224 301 108 89 68
244 599 241 190 0 51
340 574 151 179 5 41
405 484 230 37 28 27
356 886 304 37 33 32
374 319 297 112 87 59
345 494 314 139 106 89
290 859 318 166 130 102
327 212 306 108 89 68
323 210 314 113 93 71
415 474 156 129 26 43
325 214 315 111 91 69
324 224 320 115 93 69
238 581 240 172 13 53
368 304 236 122 95 63
316 404 196 96 84 71
326 223 318 114 93 70
325 619 176 51 36 40
370 754 271 89 68 57
281 659 217 110 18 40
344 259 301 111 91 70
405 863 272 75 61 50
332 223 306 110 91 70
255 529 172 141 3 31
328 220 315 113 92 70
394 876 294 54 47 43
329 224 316 114 93 70
323 230 278 94 79 62
270 404 286 92 77 62
318 522 313 68 18 26
326 229 281 96 80 62
306 399 324 123 97 71
326 234 280 93 77 59
281 794 343 178 127 94
310 369 251 70 60 50
329 229 286 106 88 69
329 234 282 97 79 60
406 437 148 74 22 29
333 240 287 105 86 65
325 244 276 93 77 60
314 289 280 98 74 47
378 539 260 165 119 90
330 244 281 93 77 58
396 842 248 115 101 93
386 651 218 67 18 22
430 454 224 56 27 30
334 244 286 103 85 64
350 444 81 149 13 40
334 249 282 94 77 59
294 878 191 53 49 52
435 424 216 59 26 27
324 897 167 106 93 86
358 294 218 98 81 62
336 249 286 102 84 63
319 319 226 105 87 68
375 872 293 45 39 35
370 559 258 151 89 71
330 254 276 92 76 58
340 234 258 99 80 59
399 503 158 125 18 39
350 526 119 191 7 34
340 234 259 98 80 60
338 239 258 102 85 66
265 729 342 157 109 84
345 239 259 102 82 60
317 836 195 49 44 43
324 419 329 134 101 69
334 449 91 99 25 38
301 834 222 61 51 51
338 244 258 104 86 67
340 244 259 101 84 65
281 729 343 171 114 83
349 421 146 101 85 68
340 249 260 101 85 68
359 359 212 94 83 72
349 498 103 186 5 38
344 242 258 101 82 62
290 854 317 171 133 106
350 241 259 103 82 56
249 744 271 156 3 46
350 249 260 104 82 54
416 454 221 38 23 26
339 479 126 74 31 36
253 733 288 63 33 40
338 255 283 98 81 62
337 252 284 99 81 62
339 254 286 101 83 63
414 444 206 37 26 24
372 782 128 80 62 48
375 427 141 95 59 50
315 344 226 112 92 70
374 594 256 160 21 51
280 444 167 110 21 31
333 229 296 106 87 68
332 227 300 108 89 68
275 418 186 90 78 66
334 229 301 109 89 68
397 429 257 159 25 52
293 759 330 169 116 86
266 593 188 189 8 47
333 234 292 105 86 66
334 234 296 105 87 67
377 669 247 149 15 44
244 609 281 131 29 48
335 234 301 109 90 69
311 560 325 133 107 84
300 564 322 69 39 37
333 225 307 110 91 70
387 824 252 58 46 37
414 519 201 64 30 33
317 304 233 118 97 74
333 225 310 111 91 69
302 268 283 114 87 57
247 920 273 61 57 56
387 574 216 45 32 29
330 229 316 114 93 70
353 927 256 58 51 49
333 230 314 113 92 69
310 364 265 80 67 54
325 549 325 156 123 100
336 234 306 109 89 68
302 634 338 164 113 80
336 234 311 111 91 69
331 233 318 114 93 69
374 653 204 136 45 47
330 239 321 114 92 67
378 465 279 134 72 68
334 234 315 113 92 68
405 425 136 67 29 26
345 484 310 74 40 37
335 239 316 115 93 69
362 285 219 105 84 58
332 237 318 114 92 69
396 429 241 58 37 36
362 746 151 58 48 40
330 574 154 156 0 34
336 244 291 105 87 67
336 244 317 115 93 69
395 426 140 59 21 21
360 569 146 141 18 39
405 826 106 104 77 57
284 889 196 75 67 66
280 394 261 79 69 59
335 249 321 118 95 68
372 617 246 41 30 34
337 239 301 109 90 69
374 484 277 115 75 65
338 240 302 109 90 69
337 237 306 109 90 69
296 444 151 133 8 33
338 239 306 109 89 68
327 279 254 121 93 69
337 237 312 111 91 68
240 579 221 149 19 49
247 750 281 143 86 67
349 739 296 60 31 37
339 249 291 105 86 67
244 784 311 185 128 97
271 905 325 115 90 70
338 246 293 105 87 67
244 784 286 172 120 89
338 245 296 107 88 69
379 649 236 155 13 48
339 249 296 107 89 69
337 243 300 109 90 69
340 254 291 104 86 66
368 452 108 149 0 35
359 264 212 112 88 60
330 829 151 65 56 52
340 254 296 108 89 68
448 429 197 144 30 46
320 970 271 71 66 70
341 254 301 109 90 69
374 899 314 79 65 55
343 255 302 110 91 69
330 397 184 98 85 72
340 244 306 109 89 67
340 244 311 113 92 69
338 241 314 116 94 70
409 814 216 161 117 88
334 938 237 76 68 68
364 354 217 104 87 70
225 539 221 153 2 44
247 784 267 71 58 53
339 244 315 117 95 71
322 805 293 58 48 46
333 788 169 56 48 44
337 247 318 117 94 70
325 504 317 85 25 36
307 898 178 91 75 68
343 250 307 111 91 69
312 961 308 80 74 70
252 739 262 162 10 47
343 250 310 114 92 68
279 734 344 173 115 87
338 250 319 116 94 68
339 254 320 117 94 68
384 842 156 98 73 60
341 254 317 116 94 68
400 443 177 67 26 31
343 255 315 116 93 67
355 234 258 112 89 63
305 379 221 111 91 70
355 239 258 112 88 60
365 893 251 72 63 63
299 434 150 122 13 29
354 244 259 110 86 57
300 609 177 61 35 38
266 909 325 90 77 68
392 429 280 109 26 42
331 421 132 173 14 22
323 402 184 96 83 69
354 241 259 110 86 58
310 529 146 103 28 39
324 579 306 101 56 48
342 446 79 70 40 38
246 784 271 57 50 49
380 829 261 62 50 42
356 243 258 114 90 61
325 234 322 118 96 70
325 239 323 120 96 70
325 354 210 96 86 75
319 412 174 101 86 71
331 889 176 85 75 69
412 664 201 135 98 61
326 244 323 120 96 67
271 957 320 69 63 62
363 257 213 112 89 61
410 664 191 140 97 68
325 254 324 125 99 67
330 244 322 116 93 66
392 819 242 69 54 42
364 892 241 71 61 60
395 729 126 107 80 52
299 729 195 112 18 38
330 249 323 120 95 66
239 594 291 59 29 34
305 709 320 89 19 34
328 250 324 123 97 66
252 628 271 69 32 40
327 279 218 137 104 71
335 254 322 120 96 67
421 499 186 184 18 51
272 400 286 107 87 65
319 259 226 136 106 71
319 264 231 134 105 74
391 469 221 59 23 29
320 259 241 131 100 75
319 264 236 131 102 74
331 444 86 93 27 38
320 269 226 139 107 74
350 554 266 144 8 43
319 269 236 131 102 74
320 269 241 128 99 74
390 873 292 45 39 35
320 274 226 139 106 73
238 555 303 167 3 52
344 882 187 82 71 68
426 756 118 84 72 61
268 659 235 163 8 46
321 274 241 126 98 73
340 319 213 87 75 63
319 279 236 128 102 74
320 279 241 125 99 73
330 764 175 84 31 36
319 284 236 125 100 74
310 829 211 82 65 59
319 289 236 122 98 73
320 284 246 120 95 70
300 939 231 85 81 84
318 292 240 120 97 72
319 299 231 110 91 70
347 724 303 172 1 56
260 603 202 117 28 43
409 879 282 119 106 97
319 304 230 112 92 72
394 842 226 79 61 54
373 427 283 82 17 28
318 298 235 120 98 74
316 299 241 121 98 73
320 529 145 69 30 37
260 413 221 78 61 52
315 304 241 123 99 73
216 529 261 54 29 33
390 439 121 84 33 37
317 295 245 116 93 69
316 299 246 118 95 70
280 654 217 140 7 37
315 304 246 121 97 72
374 494 127 149 10 39
372 494 125 154 12 39
376 435 290 53 21 26
253 956 308 61 55 55
319 299 252 121 96 72
288 882 203 36 34 36
316 304 250 122 96 73
392 450 253 65 27 30
326 264 217 136 106 69
321 304 255 125 95 75
280 876 324 151 120 95
286 444 162 125 10 32
378 502 133 164 4 35
318 309 230 111 91 71
290 966 303 65 61 61
317 309 232 116 94 70
343 444 314 54 25 31
290 927 218 88 80 81
245 754 321 166 118 90
299 719 326 160 98 77
