ply
format ascii 1.0
comment Created by Open3D
element vertex 2196
property double x
property double y
property double z
property uchar red
property uchar green
property uchar blue
end_header
284 261 287 134 97 66
286 269 289 132 96 66
239 600 238 189 0 51
322 570 302 91 48 43
322 760 175 77 31 33
351 375 293 116 85 60
281 260 293 137 98 68
277 258 304 144 103 75
334 489 298 39 28 28
262 730 230 155 8 44
278 260 303 144 102 75
280 265 303 144 102 75
372 481 267 101 60 57
331 530 128 58 36 38
344 605 283 96 25 40
282 264 294 138 98 70
283 272 301 144 99 74
353 405 268 103 69 53
277 258 307 144 103 77
306 525 313 107 22 38
293 379 258 71 60 48
346 562 136 119 34 41
278 260 308 144 103 77
345 520 119 176 2 34
281 265 313 146 105 81
282 264 317 145 106 82
254 615 223 140 32 52
284 265 319 143 105 81
285 380 313 118 95 69
249 541 162 136 14 39
316 946 232 78 72 73
390 764 133 66 53 45
282 270 308 146 102 78
283 271 314 147 105 82
380 705 268 129 16 44
284 275 303 144 100 75
340 620 174 162 23 45
287 283 300 140 98 71
243 940 268 61 58 59
284 275 308 148 102 79
249 805 328 180 126 98
283 272 309 147 102 79
262 628 225 38 26 38
286 280 308 150 104 80
287 278 316 149 107 84
287 283 312 150 105 83
291 260 280 126 95 62
289 261 282 128 97 64
276 564 155 180 17 46
292 263 280 124 95 63
291 268 284 125 93 62
310 570 329 151 118 90
294 266 281 121 91 60
320 545 139 56 34 38
295 270 283 118 89 59
229 580 268 108 25 40
352 427 299 79 26 41
270 400 298 106 85 64
293 272 286 122 91 62
303 615 336 162 115 83
305 260 278 109 82 50
242 761 278 145 105 74
300 269 279 110 83 54
275 825 242 85 65 59
294 275 287 120 89 60
296 275 284 114 86 56
294 776 201 83 64 58
273 725 216 147 0 39
300 275 282 110 83 53
227 568 234 165 28 54
297 278 285 112 85 56
221 559 195 57 31 37
299 281 286 111 83 54
305 275 280 101 75 44
334 600 292 140 20 47
303 276 281 101 77 47
350 526 279 146 93 83
304 280 282 99 74 45
317 286 331 133 104 69
290 964 308 55 50 49
295 285 289 114 86 58
413 780 198 153 108 73
304 285 282 98 73 45
310 265 279 102 77 47
315 260 278 96 77 54
315 265 278 96 76 53
319 260 280 92 75 57
243 800 303 179 127 96
319 265 279 92 75 57
287 925 179 82 71 67
287 372 279 99 84 68
310 275 280 96 72 42
397 589 218 130 103 72
310 285 279 88 67 41
330 805 148 54 47 46
330 275 327 121 95 64
315 275 279 91 72 51
315 280 278 90 72 50
345 592 156 202 10 45
320 275 278 91 76 61
250 825 288 113 80 69
395 861 247 96 80 72
259 745 238 135 21 45
351 310 298 102 83 63
320 280 279 91 75 56
315 285 278 87 69 47
370 481 263 75 18 29
279 962 309 55 51 49
320 285 278 89 72 53
282 371 293 110 88 63
302 491 325 80 20 30
288 272 291 131 95 68
320 287 331 130 101 66
349 722 175 94 23 24
291 275 289 125 91 63
393 848 214 96 73 66
292 279 290 122 89 63
290 280 293 128 92 67
221 545 212 161 0 48
290 963 312 51 46 45
385 890 298 69 57 49
288 281 297 134 94 70
289 285 298 135 96 70
359 412 283 50 38 29
275 914 331 139 123 112
288 286 303 143 100 76
341 770 163 53 41 39
289 280 318 149 107 84
289 285 313 151 106 83
241 594 297 76 27 39
393 754 152 61 48 37
288 286 308 148 103 81
246 610 233 207 6 57
305 295 283 93 70 45
303 292 286 98 75 48
220 525 182 108 22 36
301 300 289 102 79 54
304 300 287 95 72 47
268 398 288 110 88 64
321 295 257 115 87 65
320 300 257 117 88 68
271 640 308 119 82 63
317 302 256 121 91 70
312 851 208 38 34 36
317 306 256 124 93 73
244 755 323 170 118 93
312 305 280 89 69 47
315 290 279 85 65 42
248 765 257 72 55 53
295 859 315 157 124 90
315 300 279 85 67 45
320 300 278 85 67 45
319 315 259 125 90 73
257 544 321 60 24 28
319 320 259 124 88 72
305 310 289 92 72 48
390 880 288 56 47 42
324 860 287 140 111 83
369 695 189 45 31 34
308 311 286 84 66 43
306 315 289 93 74 51
350 405 283 76 61 50
376 515 234 141 13 45
306 320 289 94 75 53
295 900 182 97 88 85
311 315 283 90 73 53
308 315 286 86 68 45
308 320 286 92 73 52
365 415 263 79 61 43
295 275 327 136 101 76
315 310 278 89 72 52
315 315 278 89 72 53
315 320 278 88 71 51
319 315 276 87 69 49
291 366 279 96 81 66
329 944 240 74 67 68
320 320 274 82 64 42
390 675 211 91 60 47
318 318 276 87 69 48
360 315 308 110 88 62
308 648 331 177 128 100
313 320 281 90 73 53
292 289 294 131 94 69
296 289 289 111 84 58
258 622 227 62 37 39
291 290 298 134 96 71
274 571 162 190 7 45
290 290 303 142 99 75
271 396 273 102 83 64
292 294 303 142 99 76
293 292 296 130 94 70
252 730 332 155 110 85
334 749 311 167 23 58
213 525 192 59 27 31
395 755 123 62 50 42
249 780 257 73 62 57
292 293 299 134 95 71
382 631 190 115 88 60
293 296 302 141 98 75
394 825 159 107 78 60
294 300 303 142 99 76
226 570 268 43 31 36
365 565 158 150 7 38
358 841 230 37 31 29
296 305 303 140 99 76
334 525 317 163 127 104
298 296 291 112 85 59
294 489 331 174 16 54
300 305 293 114 86 61
310 355 268 72 59 44
242 785 283 175 121 91
302 304 290 103 80 55
297 304 298 132 94 70
291 290 313 150 105 83
292 294 308 148 102 81
292 293 312 149 103 82
350 515 119 157 5 36
269 650 294 146 8 47
293 296 308 148 102 80
294 296 313 149 103 81
292 289 317 150 106 84
294 290 319 150 105 85
395 780 232 72 55 43
293 292 315 148 106 83
295 300 308 146 101 79
405 705 174 122 93 60
296 300 313 146 101 81
297 305 308 144 100 79
297 304 312 144 100 81
298 296 320 149 105 85
299 306 314 144 99 81
399 525 217 178 4 57
301 310 293 110 84 58
303 311 291 101 80 57
355 595 159 143 16 41
298 306 297 128 92 68
260 935 323 145 108 93
299 310 298 124 90 66
409 800 183 161 111 79
298 310 303 133 95 72
303 320 292 103 82 58
299 315 298 124 91 67
233 552 186 174 2 44
298 310 308 135 98 75
399 795 169 140 94 66
301 310 318 135 97 78
369 496 259 32 28 27
371 860 188 87 68 59
299 315 308 135 96 74
328 533 290 100 67 58
300 370 323 125 98 71
299 320 308 132 94 71
353 365 294 118 86 59
298 780 316 146 104 71
300 320 313 127 92 71
302 315 317 126 94 72
380 425 291 156 19 50
303 315 320 127 95 73
257 685 263 81 21 36
302 320 317 121 93 68
303 320 320 124 94 71
382 600 196 92 50 37
287 269 321 143 105 82
288 260 325 129 100 74
355 425 293 69 24 32
291 260 326 127 99 70
327 816 144 61 53 52
360 595 163 106 21 38
289 265 324 134 102 75
285 905 329 131 106 87
358 547 254 129 75 64
291 265 326 131 100 73
377 495 273 123 88 69
334 370 331 149 107 76
361 725 279 140 24 51
295 265 327 127 98 70
404 825 228 86 66 57
289 270 323 140 105 80
316 394 257 86 81 77
343 552 271 142 22 46
292 270 326 136 103 76
271 750 219 90 29 41
295 270 327 132 100 73
300 480 332 138 26 51
300 260 328 126 99 70
369 779 257 88 67 58
343 903 225 80 69 68
395 625 189 112 93 71
305 260 329 127 101 71
305 270 330 131 102 70
291 275 323 142 105 82
293 276 325 140 103 79
332 259 320 114 90 63
296 280 327 140 105 81
295 285 323 149 107 86
295 455 338 95 27 39
294 695 197 103 23 31
300 280 328 138 102 77
305 280 329 139 105 76
300 285 327 142 103 80
292 377 265 86 73 60
298 286 325 147 105 85
305 285 329 138 102 75
345 495 314 150 117 100
300 581 331 148 117 89
330 560 142 76 27 36
310 260 329 127 100 68
348 686 292 50 25 30
310 265 330 128 100 66
310 270 330 130 101 68
320 260 328 123 97 68
320 265 328 124 97 65
320 270 329 126 98 66
314 600 308 115 74 57
310 275 330 134 103 70
295 975 263 64 60 61
310 280 330 138 103 71
315 275 330 132 101 68
312 835 187 48 44 41
320 275 329 130 101 66
320 280 330 130 100 66
280 535 326 62 27 33
362 370 260 137 99 73
315 285 330 135 104 71
320 285 330 130 101 66
375 860 184 80 62 54
301 290 327 147 105 84
265 890 258 106 88 68
305 290 328 141 104 78
220 550 268 167 10 48
302 294 326 149 106 86
288 841 298 44 37 36
305 295 327 144 105 83
246 614 243 199 5 53
301 299 322 150 106 86
303 297 325 151 108 87
242 948 298 57 54 57
302 304 321 146 103 84
305 305 323 143 102 83
370 450 259 136 12 44
295 540 323 73 30 36
310 295 329 136 103 75
314 290 330 136 106 73
315 295 330 135 106 75
317 295 331 135 106 75
406 805 182 156 106 77
276 795 229 81 64 55
343 513 311 181 124 105
320 295 331 135 105 73
315 300 330 131 103 75
230 575 223 122 16 41
314 305 330 136 102 77
317 300 331 130 103 75
259 868 295 98 74 55
320 800 293 75 57 50
320 305 332 133 103 75
332 912 316 37 35 35
339 400 322 162 114 91
245 540 313 172 11 53
336 911 317 37 35 35
406 665 183 145 99 74
308 307 325 140 101 81
306 315 322 132 97 75
308 311 325 139 101 80
350 630 283 93 31 41
310 310 327 141 102 80
390 745 148 56 46 37
309 315 325 136 100 77
311 315 327 140 102 81
309 320 324 134 101 76
309 354 272 80 66 50
320 310 332 141 106 79
355 640 273 96 31 42
315 320 329 139 104 82
341 456 298 132 10 44
317 315 331 142 105 83
320 315 332 143 107 82
317 320 331 139 103 80
285 380 273 96 82 68
298 695 323 151 100 75
279 384 277 100 82 63
281 380 278 100 83 64
279 380 283 104 85 64
278 383 282 104 85 64
275 385 288 110 89 65
305 954 322 76 69 67
286 376 274 97 83 69
407 669 187 137 96 68
285 375 278 100 84 68
281 375 288 108 87 63
399 545 193 53 32 36
285 370 288 106 86 64
250 535 158 170 4 41
319 934 225 63 59 62
283 624 335 158 118 90
340 440 317 117 13 38
282 376 284 105 86 65
270 915 329 168 136 117
315 895 183 90 86 88
283 378 277 100 84 68
280 385 273 98 83 67
291 789 210 83 65 58
282 377 280 102 84 66
286 365 293 108 87 64
305 780 313 60 50 45
287 362 294 108 87 64
285 365 298 111 89 64
287 362 302 112 90 65
369 852 171 80 61 53
396 535 177 173 17 44
280 375 293 111 89 63
384 585 241 169 113 88
277 381 293 113 90 65
281 375 298 113 90 63
254 831 303 205 138 108
382 882 266 92 73 63
348 924 245 80 72 70
279 380 298 113 90 65
265 650 313 138 105 81
280 380 303 116 92 66
306 423 334 89 71 52
278 385 303 115 92 66
283 369 293 108 87 63
282 371 297 112 89 64
254 605 308 160 16 48
363 555 150 110 33 43
317 780 180 74 58 49
284 370 303 115 92 66
339 385 327 155 108 85
334 300 269 100 82 63
299 920 173 84 78 76
358 301 314 109 90 70
282 376 302 115 91 65
283 374 304 116 92 66
286 370 308 118 94 67
260 609 204 166 13 48
298 715 191 138 4 36
282 381 307 117 93 66
283 380 309 118 94 67
284 385 313 116 93 68
287 381 316 117 94 69
303 335 287 99 81 61
304 340 283 96 79 60
301 340 288 102 83 63
303 338 286 99 81 61
303 344 282 94 78 60
325 355 331 137 105 70
351 259 260 114 87 57
302 341 285 99 81 61
251 790 333 170 120 91
425 883 275 118 103 93
250 625 253 189 0 51
343 935 283 62 57 55
330 919 224 74 66 68
296 350 288 103 85 65
297 352 285 100 83 65
254 895 308 135 100 88
305 345 278 90 74 57
388 808 147 80 59 46
371 455 288 128 29 47
301 755 189 120 14 38
318 325 259 120 86 70
321 325 263 89 66 48
389 695 233 130 13 42
317 330 257 122 88 72
317 335 257 116 86 67
275 845 253 182 125 99
320 335 268 69 54 36
332 806 145 61 52 49
306 325 288 97 78 56
312 326 280 90 73 53
311 330 279 89 73 54
290 385 319 120 96 70
310 335 278 88 72 53
236 590 213 201 1 53
378 844 163 91 73 63
304 330 288 101 81 60
298 782 201 83 66 57
309 330 282 94 76 56
367 670 260 150 14 47
308 334 281 93 76 57
401 781 104 117 83 54
315 325 277 87 70 50
270 838 313 171 108 82
317 325 275 84 66 45
320 325 274 79 62 43
326 515 134 116 7 29
320 330 273 73 57 37
310 925 333 44 41 41
365 780 103 103 77 55
373 505 277 150 105 86
395 785 234 71 55 44
310 350 273 80 65 49
310 850 183 45 42 41
337 535 308 171 119 95
318 340 258 102 78 59
400 851 262 71 59 47
317 340 263 79 61 43
311 962 246 84 79 82
317 345 258 97 74 54
322 947 310 50 45 44
318 343 259 90 70 52
316 345 263 74 58 41
318 344 261 80 62 44
295 360 317 124 97 70
305 460 338 103 22 39
315 340 272 77 61 42
330 680 183 103 19 28
314 345 272 75 60 43
310 680 311 46 28 30
317 340 268 68 53 36
370 461 268 99 25 40
268 573 326 45 27 28
318 338 268 69 54 36
273 612 196 194 8 48
271 730 219 144 0 39
315 345 268 66 52 36
284 775 213 83 65 57
310 345 274 82 67 49
313 349 268 66 52 38
313 348 271 76 61 44
311 340 274 83 67 48
295 575 154 55 37 40
412 715 183 151 106 75
341 409 276 83 66 58
309 340 277 86 70 53
269 854 309 131 78 68
307 337 280 92 75 57
307 346 275 86 71 54
306 351 274 86 71 55
350 375 269 129 84 65
373 681 257 38 30 31
303 325 292 106 84 58
290 535 139 58 37 40
302 325 294 112 87 59
299 325 298 118 89 63
299 325 303 124 92 65
390 625 189 113 92 69
260 600 198 84 34 41
301 330 294 109 87 61
302 335 289 103 84 63
264 410 268 94 79 63
327 566 313 164 110 85
300 325 313 118 89 66
302 325 317 121 93 67
352 430 298 113 22 40
334 954 278 63 56 53
316 930 221 75 68 70
299 330 308 117 92 66
300 330 313 113 90 64
298 335 308 111 88 63
299 335 313 114 90 64
327 286 261 104 84 64
244 755 288 149 108 77
302 330 317 123 95 69
385 770 243 79 64 57
303 330 320 126 96 70
267 759 225 33 37 44
296 340 298 112 90 65
243 785 318 179 121 94
296 340 303 112 89 64
294 345 303 111 89 64
369 444 262 153 15 49
296 345 293 109 88 66
294 350 293 109 89 66
320 625 179 99 34 40
292 351 294 112 91 67
340 539 125 178 0 35
413 847 251 92 73 61
293 348 298 111 90 66
293 349 303 112 90 66
279 581 166 191 7 44
375 820 243 45 35 31
298 344 291 105 86 64
280 596 177 176 11 47
297 337 303 114 90 64
376 864 279 45 39 35
296 345 313 118 94 66
292 351 307 113 90 64
297 337 306 112 89 64
297 340 308 109 87 62
297 341 312 114 91 65
298 338 310 109 87 62
385 530 171 166 14 37
298 340 314 117 92 66
254 940 314 87 62 55
365 845 163 75 59 50
300 340 318 124 95 68
256 940 318 72 56 51
310 700 317 130 15 41
300 345 318 124 96 69
373 753 266 90 68 60
297 346 316 121 96 68
296 365 274 94 80 65
271 625 323 141 113 86
390 705 171 97 81 64
239 571 191 66 31 38
297 367 270 92 79 65
219 520 182 140 7 37
299 364 272 92 78 62
258 738 300 92 57 50
306 361 268 81 67 51
262 725 230 156 9 45
296 360 278 95 80 64
293 358 287 101 84 65
286 886 228 50 48 49
320 720 320 177 12 56
266 405 288 93 78 62
294 364 278 95 81 66
325 705 318 72 31 37
290 365 283 98 83 66
264 841 273 75 60 57
338 755 298 95 73 62
289 364 288 103 85 65
293 363 281 96 81 66
423 786 216 117 86 67
300 355 278 95 79 63
302 356 275 92 77 61
272 568 160 192 7 45
328 926 331 50 45 42
305 355 273 86 72 57
396 614 196 116 95 71
303 354 276 91 76 61
248 547 166 104 30 43
380 540 253 166 121 94
297 362 275 94 80 65
313 908 195 77 71 71
290 375 272 95 81 67
337 786 280 86 65 56
296 371 269 90 76 62
294 374 268 89 76 62
292 381 258 70 59 48
354 406 296 96 70 47
289 385 258 73 62 50
381 820 143 97 70 53
325 676 307 79 25 34
289 384 263 88 74 61
258 612 211 136 25 43
390 844 193 143 94 76
291 380 263 84 71 57
293 378 262 79 66 53
290 380 268 92 79 65
335 270 262 100 83 65
299 373 257 71 60 47
334 934 308 59 52 48
300 371 263 82 68 53
383 438 286 185 18 59
298 373 261 75 64 51
305 370 258 70 58 45
303 373 256 68 58 45
299 369 267 87 73 58
243 576 305 169 12 53
399 685 212 145 96 72
291 371 274 95 81 66
288 373 276 96 82 68
388 561 229 116 94 71
288 369 282 100 83 66
312 356 259 76 62 51
368 813 241 38 32 30
400 759 103 83 63 49
308 359 267 74 61 47
307 367 258 66 55 47
309 365 263 66 54 42
307 362 265 72 60 48
216 520 213 135 10 43
400 830 102 97 77 61
313 353 261 76 60 43
420 785 89 78 64 52
291 355 293 111 90 67
292 356 289 105 87 66
253 880 318 142 108 86
293 354 291 109 89 66
387 726 265 154 25 58
290 355 298 112 90 67
256 949 254 71 67 68
290 355 303 111 89 65
288 359 298 109 88 65
352 431 294 56 23 29
288 360 303 111 90 66
375 455 260 128 10 40
324 933 326 56 49 45
291 355 308 115 92 66
292 360 312 120 96 69
293 354 310 119 94 67
294 355 313 121 96 69
292 356 311 120 95 68
296 355 317 123 96 70
293 359 314 122 96 69
288 363 305 114 91 66
293 364 315 123 97 70
395 435 258 152 20 50
410 820 193 164 113 88
287 685 205 89 35 40
340 295 328 119 92 61
292 366 316 123 96 70
289 374 314 120 95 69
353 588 155 177 7 39
294 375 319 123 97 72
295 815 318 170 129 97
412 740 193 160 107 75
288 378 315 119 95 70
313 735 181 121 14 33
290 380 318 120 96 70
375 825 243 49 39 31
257 649 267 177 0 52
303 335 320 127 97 71
408 806 230 90 68 54
280 565 154 87 26 37
303 339 320 127 96 71
284 842 311 139 104 80
305 340 322 130 98 73
257 942 321 50 42 41
302 342 321 128 97 72
305 350 323 128 98 73
306 325 322 129 99 72
328 484 307 84 25 34
263 710 303 89 43 42
309 325 324 134 102 75
311 325 326 137 103 78
306 330 322 129 98 73
306 335 322 131 99 74
413 720 184 154 108 76
305 670 192 131 6 32
311 330 327 136 103 77
262 963 291 67 61 60
317 325 331 140 104 82
320 325 331 144 107 83
375 445 260 87 17 35
389 674 210 80 51 41
315 335 329 139 105 79
307 482 325 30 24 27
320 330 331 147 109 85
348 823 129 73 57 50
377 524 242 60 15 23
319 331 330 144 107 84
320 335 330 144 110 82
393 747 153 60 50 42
308 340 325 132 100 74
311 340 326 133 102 74
307 856 203 43 40 42
310 345 327 132 101 74
275 830 328 197 135 109
339 924 234 74 67 67
326 531 321 153 123 104
310 350 327 132 100 74
390 832 167 111 74 56
320 345 330 139 107 77
418 776 97 80 65 51
315 350 329 135 103 76
305 355 324 128 99 73
301 360 322 125 99 72
305 360 324 127 99 72
231 580 238 95 22 39
334 530 318 160 123 100
304 365 324 126 98 72
296 380 322 125 98 71
297 370 321 123 97 71
331 800 149 55 47 44
349 549 130 45 36 42
298 368 320 123 97 71
269 874 261 122 98 72
299 380 324 127 100 72
243 940 294 61 54 53
334 949 292 57 49 44
302 376 326 127 100 72
365 809 120 95 68 54
301 385 327 129 100 73
349 330 277 115 72 56
307 357 326 129 100 73
307 360 326 129 99 72
325 695 315 105 27 40
310 355 327 131 101 73
310 360 328 129 99 72
306 365 326 127 99 72
257 828 260 90 70 60
392 762 135 71 58 44
263 718 231 164 10 44
315 360 330 130 99 71
303 858 213 50 45 44
406 670 209 178 124 95
315 675 187 110 22 33
319 358 330 132 101 72
316 365 331 131 101 72
264 720 228 159 8 45
317 361 331 131 101 71
320 365 331 134 103 72
310 370 329 129 100 72
345 360 327 150 102 78
309 379 330 131 101 72
308 383 330 132 102 74
249 950 309 51 48 49
315 370 331 130 100 72
321 505 310 59 23 28
315 375 331 133 102 74
357 355 265 144 101 76
315 380 332 136 105 76
320 380 332 143 108 77
212 535 203 148 6 43
320 385 332 145 108 77
327 267 256 105 86 65
331 260 257 101 84 67
335 260 260 98 81 63
336 265 261 98 81 63
244 611 248 197 3 53
321 265 281 92 75 56
360 345 263 133 93 66
270 600 188 189 11 48
323 271 280 91 75 59
322 268 281 91 75 57
326 275 257 109 87 64
237 598 245 157 21 48
366 710 279 36 28 30
354 603 165 51 34 38
326 280 258 111 88 65
327 282 261 103 84 64
328 279 260 102 85 68
330 280 262 105 87 70
360 740 278 74 55 49
335 275 263 101 84 66
317 796 295 85 67 56
335 280 264 101 84 66
319 444 336 100 26 41
336 285 266 100 83 65
324 275 280 90 75 58
281 456 331 84 25 35
392 807 162 93 65 54
310 730 321 176 12 55
300 630 189 145 21 41
327 279 281 90 74 57
325 285 279 89 74 58
330 280 283 90 75 58
373 454 284 113 26 43
334 275 288 93 77 60
262 472 326 49 22 27
333 281 285 91 75 59
335 280 288 91 76 60
271 401 303 106 86 65
328 282 280 91 76 61
330 740 173 68 32 34
254 635 273 80 25 38
353 790 266 65 50 45
329 285 280 89 76 62
317 811 290 50 44 41
351 299 307 98 82 66
331 285 282 89 75 61
334 285 284 91 76 61
343 277 308 115 94 69
335 540 128 159 6 39
340 259 260 100 80 58
405 809 113 61 46 33
291 915 173 77 66 62
340 260 261 99 80 58
292 586 331 137 109 84
383 552 230 86 57 39
341 257 261 100 81 58
335 290 267 100 84 67
345 259 260 104 81 53
350 395 268 111 72 57
247 895 293 86 66 63
345 265 261 101 79 52
325 465 319 79 21 32
375 904 288 111 95 88
340 270 263 97 78 58
236 600 253 191 0 51
275 910 198 89 81 78
296 619 184 52 34 37
345 270 263 99 78 51
322 486 320 119 28 45
350 265 261 109 82 52
370 530 268 182 122 98
408 642 200 145 106 69
340 279 265 97 78 58
345 279 265 100 78 54
290 885 218 43 42 44
244 615 278 86 31 38
338 948 255 69 64 68
303 698 315 104 26 41
337 282 266 97 80 61
345 281 266 98 78 55
363 883 219 76 65 65
395 645 222 154 101 75
345 285 266 96 77 55
350 280 264 101 77 50
348 282 266 98 77 51
330 260 293 103 84 63
328 262 289 98 80 59
333 262 295 105 87 67
301 604 335 154 115 81
333 261 298 109 90 69
333 257 300 111 91 69
334 260 303 111 91 69
408 514 211 132 27 47
350 435 303 152 15 48
335 265 298 108 89 68
340 520 283 154 100 86
336 265 303 110 90 69
332 269 291 95 78 60
334 270 294 97 80 62
349 910 248 59 52 52
335 260 313 114 92 68
370 831 143 84 63 50
227 571 216 109 26 46
382 726 270 35 30 33
334 260 318 113 91 64
359 320 303 102 79 53
336 265 313 115 93 69
336 265 318 115 92 66
335 275 293 96 80 62
337 279 292 94 79 63
335 309 276 92 76 60
266 838 308 166 109 82
338 271 300 108 90 71
337 265 308 112 92 70
283 389 314 115 93 69
353 773 271 87 65 55
338 266 309 113 92 69
338 267 313 115 93 69
349 750 283 90 68 57
337 269 319 117 94 67
355 883 300 38 35 34
338 276 295 102 86 69
242 930 288 96 79 71
234 541 182 162 8 41
355 900 314 52 46 42
339 280 294 100 84 66
399 801 241 63 49 40
326 569 140 153 0 33
337 274 297 102 85 67
313 641 306 131 34 44
339 275 298 106 89 70
314 830 173 47 43 41
341 275 303 109 90 70
325 560 323 174 125 101
342 278 302 109 90 70
343 280 303 108 88 67
341 275 308 113 92 70
344 280 308 113 92 69
343 277 312 116 94 69
344 280 313 112 92 69
348 287 313 98 82 65
324 290 258 113 87 64
366 620 183 106 22 33
335 485 293 34 26 26
322 291 256 114 88 66
324 295 259 113 86 64
326 290 262 103 82 62
326 295 262 106 83 61
323 299 260 116 85 65
223 565 258 106 31 43
325 300 263 108 82 61
324 305 263 108 80 60
327 302 266 93 74 54
310 765 314 77 61 54
363 586 256 130 9 41
328 563 309 156 103 80
246 580 307 164 14 52
385 879 263 86 69 61
328 294 264 97 80 64
331 295 267 97 81 65
332 291 266 100 84 69
357 796 260 50 38 38
333 288 265 103 86 70
364 315 313 121 94 65
335 295 269 100 83 67
359 280 258 126 95 65
328 298 265 95 76 57
344 676 292 134 14 44
333 303 270 99 80 61
336 300 271 99 82 64
335 305 272 102 83 64
325 295 278 89 72 53
325 300 278 87 70 52
325 305 277 86 69 49
376 747 148 62 54 47
330 290 280 89 76 62
330 295 279 90 77 64
256 800 337 179 128 101
272 695 220 131 5 35
334 296 280 92 80 68
335 300 279 92 79 67
324 310 263 106 76 58
346 375 283 101 71 51
324 310 268 86 66 45
370 712 185 65 31 34
322 309 270 86 67 46
333 551 136 130 4 30
321 320 262 104 73 58
374 435 269 113 20 38
323 320 264 90 64 47
348 374 321 161 112 90
246 619 278 117 33 45
334 750 171 39 35 40
324 315 268 83 63 43
324 320 268 80 60 42
325 310 276 85 69 49
340 290 268 91 76 61
243 944 299 44 41 42
345 294 270 99 77 53
309 800 302 81 66 55
401 847 232 73 58 53
345 296 271 101 78 53
340 300 272 94 77 57
333 262 321 113 89 61
340 305 273 93 74 54
350 290 267 103 79 54
350 295 270 107 79 54
349 297 271 107 78 54
350 300 272 105 77 51
343 370 326 155 107 83
350 305 272 108 76 52
337 288 287 92 77 62
348 778 141 58 48 45
339 290 288 93 78 62
341 295 288 94 78 62
347 355 279 102 63 49
339 305 279 91 78 66
392 760 233 72 56 51
340 300 283 93 79 65
210 525 253 67 27 32
338 302 280 93 82 71
351 330 274 128 81 64
341 305 282 93 78 63
305 675 192 127 11 34
342 299 287 94 78 61
344 300 288 98 80 62
343 302 285 93 78 62
343 305 284 95 78 61
234 595 273 176 9 49
315 940 323 57 51 49
257 614 306 180 16 58
343 304 270 99 74 52
340 309 275 90 72 54
341 310 278 91 74 58
253 714 279 106 16 38
242 603 292 81 26 38
345 310 274 104 74 50
344 311 277 96 73 53
342 308 281 90 75 59
350 310 273 113 76 54
346 314 275 109 76 51
346 320 278 102 70 52
350 315 274 116 78 55
327 791 290 75 55 49
351 320 274 123 81 60
333 928 322 65 55 52
348 317 276 114 77 55
347 315 287 106 85 60
256 575 322 87 26 36
347 319 283 100 77 53
347 319 286 107 84 59
371 831 276 51 41 31
317 573 145 146 20 49
349 320 288 107 84 57
341 290 292 99 82 64
342 294 291 99 81 62
373 604 256 113 25 46
345 295 293 104 85 65
344 300 293 102 84 64
360 415 288 53 35 32
330 495 303 49 20 23
346 290 298 108 89 68
362 350 259 129 93 63
347 290 303 108 89 69
342 831 254 96 76 60
268 643 330 139 108 77
255 520 323 53 25 30
347 295 298 107 88 67
275 730 342 171 115 88
347 295 303 108 88 67
283 388 266 92 80 68
346 305 293 103 85 65
347 303 296 106 86 65
265 960 313 67 62 62
350 300 303 102 84 66
386 770 133 67 55 44
350 305 298 104 85 64
336 910 218 72 65 66
359 385 262 138 97 74
330 912 216 72 66 65
352 304 302 100 83 64
347 289 306 107 89 70
292 834 225 47 43 46
273 635 307 119 53 49
350 295 308 99 83 67
348 306 295 105 87 66
348 312 290 108 87 65
349 310 294 107 87 65
348 315 289 110 88 63
350 315 293 107 86 63
372 525 167 60 30 34
312 872 150 131 119 112
387 576 193 86 31 40
351 320 293 105 84 60
352 314 296 100 82 61
355 265 259 124 93 61
352 264 260 114 85 54
358 260 256 129 99 69
275 455 328 67 28 34
358 530 134 83 34 40
356 270 259 125 93 62
336 395 273 94 80 75
353 270 261 120 92 61
359 270 257 131 98 66
359 275 257 128 91 63
357 279 260 121 93 64
316 890 308 141 107 79
363 682 271 32 29 32
310 440 342 37 28 29
353 287 266 109 82 57
356 290 264 118 90 64
419 776 112 66 52 38
313 844 167 52 48 47
361 290 258 121 94 61
261 785 239 75 60 54
359 290 262 121 94 65
397 847 232 68 54 53
359 295 263 125 96 63
215 520 263 40 29 32
354 290 267 112 85 59
317 428 334 92 71 54
410 844 233 88 67 56
355 295 268 119 89 62
360 626 181 150 19 41
360 305 263 134 96 65
356 842 277 40 34 29
358 300 266 130 98 67
335 545 318 190 131 113
362 295 258 121 93 59
255 750 248 81 32 39
213 520 258 102 24 38
362 300 258 123 92 59
363 298 256 123 92 58
362 305 258 125 89 60
256 900 317 162 125 105
380 465 278 135 86 79
353 306 271 116 81 59
358 310 267 122 90 60
301 670 328 170 120 91
356 315 269 122 86 60
274 967 290 66 61 60
354 320 272 130 86 67
301 820 209 86 68 60
361 310 258 122 89 59
361 315 258 118 88 55
260 675 318 146 108 78
361 320 263 122 88 59
353 296 310 96 82 67
256 921 233 61 57 59
291 715 334 175 122 95
353 292 314 102 87 71
353 292 318 106 88 70
310 580 331 150 113 81
355 295 318 107 88 69
356 300 312 104 87 69
381 778 99 92 69 50
245 745 323 163 116 88
244 941 283 76 69 66
354 305 304 96 80 63
283 394 257 87 75 62
292 406 326 126 99 72
264 951 324 48 44 45
356 305 308 95 80 65
377 644 230 123 16 44
355 411 278 49 37 27
355 885 208 82 68 64
357 304 311 101 84 66
359 300 318 111 91 70
243 769 276 156 113 79
291 914 169 74 63 61
360 305 313 109 89 68
258 785 340 168 119 91
353 311 299 98 79 58
292 725 195 76 28 35
352 308 301 99 81 62
305 957 319 79 73 73
403 758 104 68 52 36
353 320 295 101 81 57
354 315 298 97 78 57
355 320 298 99 79 55
376 561 176 52 32 33
358 316 304 100 80 57
358 306 310 97 82 67
361 310 312 111 90 67
363 310 314 115 91 64
369 490 293 134 89 74
289 967 300 79 72 70
266 905 233 55 45 46
363 310 318 116 91 64
294 826 222 84 66 59
362 314 311 118 94 66
224 556 192 97 30 39
352 516 121 120 17 37
362 320 307 113 86 58
365 320 313 131 97 68
364 315 318 121 93 64
380 889 278 87 70 58
328 266 326 118 93 64
247 911 274 124 101 79
329 270 327 120 95 64
325 275 329 127 99 67
237 594 223 191 3 52
325 280 329 127 98 65
335 275 324 115 91 63
339 400 274 96 81 76
352 532 126 165 1 32
332 273 325 118 93 65
339 835 258 89 72 57
333 276 326 116 92 64
334 280 327 117 92 63
286 525 140 87 27 30
258 689 257 133 23 46
335 285 327 123 96 65
304 676 311 40 27 27
345 590 154 202 11 43
339 276 322 110 88 62
340 280 323 110 88 64
222 548 211 161 3 51
339 286 326 123 96 67
345 285 323 102 82 61
295 928 214 95 89 91
324 291 331 129 100 67
280 575 320 61 29 33
335 295 329 123 95 62
274 900 223 49 46 46
330 300 331 135 102 69
332 299 330 132 100 69
242 789 283 179 125 94
320 450 333 55 28 32
335 300 330 129 96 64
372 882 246 75 66 66
333 302 331 134 98 67
340 450 317 79 28 36
270 665 228 146 1 40
334 305 331 135 97 68
336 305 330 134 96 67
381 430 260 131 16 44
325 310 332 140 104 74
325 315 332 143 108 77
252 745 254 40 35 39
259 930 228 84 74 72
325 320 332 146 109 78
335 311 331 136 98 67
340 680 182 46 36 36
335 315 331 135 100 68
316 483 320 30 25 26
234 535 304 159 1 48
356 340 324 149 100 77
342 288 325 119 92 64
345 295 327 121 93 64
345 305 329 131 95 66
349 291 322 106 86 65
350 300 327 125 96 63
340 310 330 131 95 63
340 312 331 131 96 63
352 360 270 135 90 70
340 315 331 129 97 62
282 812 335 181 128 100
363 829 244 35 31 29
340 320 331 132 99 66
305 785 193 79 62 55
344 312 331 125 93 61
244 760 268 70 34 41
350 310 329 121 95 65
381 665 209 52 34 33
314 469 327 55 28 32
346 321 330 137 100 68
259 454 320 68 26 32
338 424 316 146 104 83
353 296 322 110 88 63
356 305 324 114 90 61
404 854 244 90 71 61
357 308 325 122 94 66
358 311 326 121 92 61
359 320 327 146 100 77
272 636 331 145 111 81
355 320 329 149 100 76
363 320 321 133 95 68
292 882 179 55 52 52
323 323 265 83 61 44
319 504 312 95 23 35
323 325 272 69 51 34
322 330 267 73 57 39
323 329 271 69 54 36
347 323 279 104 70 48
351 325 274 130 84 65
284 889 204 35 33 34
349 325 278 114 74 55
348 321 283 102 77 53
350 325 288 102 80 54
330 485 298 56 30 32
347 335 278 104 65 49
361 873 174 78 63 54
347 331 282 95 66 47
346 335 283 95 67 47
365 882 302 39 35 34
345 595 158 201 10 42
350 330 288 98 76 52
350 335 288 98 76 50
341 405 277 88 69 62
263 858 283 135 109 82
348 345 284 96 67 45
346 350 279 100 64 47
353 454 290 58 19 26
348 350 276 112 71 53
347 350 283 93 64 44
367 693 275 43 25 28
347 351 286 101 75 49
348 350 288 103 77 50
352 330 291 100 79 54
407 770 178 155 108 76
413 730 197 163 108 77
352 334 291 101 79 53
350 355 273 128 81 64
250 515 153 134 4 28
321 950 308 59 54 54
258 510 325 45 30 33
355 410 288 79 71 67
348 355 276 112 69 54
348 360 276 112 68 54
296 490 329 167 18 54
385 860 243 70 58 56
347 355 287 103 75 53
216 550 194 152 11 43
274 675 222 138 6 38
219 530 209 162 0 48
291 750 199 145 7 42
346 360 283 96 68 46
325 880 173 81 74 73
311 850 173 46 42 41
387 737 122 84 63 48
348 355 289 104 77 54
349 360 289 105 77 54
347 365 278 102 63 48
346 365 283 99 71 50
335 450 319 61 25 29
261 902 249 78 66 55
349 369 272 126 79 63
346 385 273 105 65 51
320 599 164 91 35 42
350 385 267 123 80 63
353 676 281 141 13 45
347 370 274 116 70 57
345 370 278 99 62 47
347 370 286 107 77 54
411 800 213 137 98 72
347 375 287 110 79 56
280 405 317 117 94 69
349 375 289 111 81 57
282 760 210 149 3 41
345 380 278 96 60 47
345 385 278 89 58 42
346 380 283 97 69 49
340 891 301 42 38 37
347 380 287 109 79 56
411 690 193 145 103 69
346 385 288 107 77 56
255 956 273 81 76 75
403 713 211 160 109 81
351 365 292 112 82 58
351 380 293 117 85 61
361 375 259 138 99 74
294 935 173 88 78 75
348 384 290 113 80 59
352 380 298 126 90 64
258 552 161 93 32 40
414 785 203 112 84 65
345 925 243 75 67 67
351 385 298 124 88 65
352 380 303 136 95 70
351 385 303 137 95 70
327 451 324 45 27 30
351 370 319 158 109 87
351 380 308 146 100 77
351 380 313 153 105 83
350 385 308 147 100 78
348 385 317 159 112 90
325 450 328 69 28 34
354 325 272 140 91 74
366 506 289 172 113 98
360 330 263 132 90 64
237 534 169 53 32 38
355 610 269 30 27 27
377 640 233 56 26 32
360 335 263 130 89 63
354 330 272 138 92 71
279 560 152 168 9 42
356 335 268 135 92 67
391 842 187 144 97 77
242 603 224 211 6 60
331 670 299 140 10 43
354 335 272 135 91 69
276 619 199 187 11 49
342 679 295 98 15 34
353 340 271 138 94 73
348 899 229 73 63 62
358 340 266 135 94 67
359 350 263 136 95 69
324 445 332 116 25 44
251 915 317 176 138 118
353 350 271 137 90 72
337 820 265 138 97 74
302 867 203 40 39 40
245 555 173 58 34 39
362 345 258 127 92 62
359 774 127 46 42 40
363 346 256 124 92 62
363 350 256 126 92 61
355 325 298 101 80 57
357 325 301 102 80 55
354 330 294 102 81 57
280 775 218 81 63 55
355 335 293 104 82 55
271 906 218 52 49 50
305 525 136 58 32 34
356 330 298 104 83 59
359 330 303 109 85 57
357 334 296 106 84 58
356 426 289 122 20 42
362 330 306 115 86 58
338 394 326 159 113 89
263 695 233 139 19 43
362 335 306 117 88 59
391 770 143 65 49 39
364 335 313 134 92 68
355 340 293 105 82 55
353 343 290 103 80 54
358 340 299 114 88 59
361 340 303 118 88 61
356 345 297 116 88 59
285 430 328 109 20 38
353 349 295 114 86 57
363 340 313 137 93 71
363 344 312 139 91 72
362 336 320 149 100 79
285 785 337 172 123 93
361 340 319 150 99 79
246 885 288 176 127 109
362 346 314 147 97 76
286 886 198 37 35 36
361 350 308 142 96 71
413 790 198 158 110 77
372 607 245 163 17 50
359 355 263 140 99 72
355 355 268 142 97 77
353 355 271 137 89 72
344 894 213 89 75 71
354 365 268 137 93 72
357 365 265 140 96 74
374 748 148 63 55 48
363 355 256 130 95 64
362 360 259 135 98 69
272 598 185 192 8 48
297 680 312 72 28 40
363 360 257 132 97 66
282 714 205 138 13 39
354 370 267 135 90 71
354 375 267 133 89 69
268 434 320 116 16 40
356 375 264 135 93 72
356 380 264 134 92 70
364 485 308 178 132 127
375 515 167 113 17 34
359 380 262 139 98 72
323 419 331 141 101 74
356 385 264 134 90 70
354 385 266 130 87 66
364 370 257 135 98 70
364 375 257 136 99 72
361 380 259 140 100 74
364 380 257 139 99 73
361 385 259 140 99 75
364 385 257 139 99 74
353 355 295 115 86 60
355 355 298 123 88 64
246 755 309 135 102 70
354 360 298 126 90 65
330 470 319 76 29 34
391 731 165 94 78 61
359 355 303 140 97 71
353 365 298 126 90 66
320 470 319 61 25 31
355 365 303 136 94 72
360 355 308 146 98 74
350 550 132 44 35 40
355 360 318 161 110 89
348 439 303 152 7 47
358 354 317 162 105 86
357 361 308 147 99 76
348 438 312 160 12 51
261 640 238 81 29 40
320 660 188 128 11 30
320 655 188 126 14 33
379 425 262 133 19 45
404 775 122 57 42 31
353 365 317 155 103 84
352 362 320 161 109 91
355 660 273 71 23 35
352 365 320 158 108 88
296 780 319 147 105 70
354 370 303 132 92 69
353 375 303 133 92 67
352 376 298 125 89 65
340 560 134 60 35 38
352 376 303 134 92 69
286 820 229 85 66 59
354 370 313 152 104 81
353 374 308 142 97 74
353 374 312 151 103 81
270 939 229 78 70 70
352 376 308 144 97 76
325 325 332 146 108 79
325 330 331 150 111 81
253 918 246 51 48 49
322 334 331 149 112 84
335 325 331 138 101 70
384 696 257 101 18 37
335 335 331 147 107 73
323 336 330 146 110 80
323 340 330 143 108 78
325 340 331 143 108 76
361 858 182 76 63 58
322 466 320 70 22 30
325 345 331 141 109 74
405 625 213 151 107 72
223 530 289 114 15 39
397 790 166 132 90 64
411 777 104 105 85 64
324 350 330 139 106 75
316 678 310 43 28 30
319 570 326 165 118 90
330 340 331 142 106 73
380 855 213 80 62 57
329 345 331 139 106 73
261 569 169 154 23 46
335 340 330 142 105 73
335 345 330 139 103 70
211 520 228 135 18 43
335 350 330 142 105 73
289 528 325 37 24 26
340 325 331 138 102 69
345 325 330 137 98 68
261 624 223 86 36 42
340 335 330 147 104 75
341 330 330 145 104 72
233 530 305 154 1 46
266 650 333 134 92 72
345 330 330 143 101 71
298 526 326 52 26 29
345 345 329 146 103 74
269 705 222 130 8 38
345 350 328 146 102 73
262 954 250 77 73 75
249 725 318 150 111 82
318 600 314 145 97 71
350 340 328 148 102 73
398 728 241 102 45 55
350 345 327 150 104 75
323 354 330 137 105 73
322 357 331 136 104 73
325 360 331 136 104 70
351 430 303 139 22 47
349 440 293 134 13 43
335 355 331 143 104 73
336 354 330 143 104 74
335 360 331 143 103 73
395 745 228 160 20 50
243 759 278 141 103 73
330 365 331 142 105 71
333 365 331 145 105 74
256 760 337 172 119 95
325 370 332 140 105 72
327 937 231 77 70 71
325 375 332 144 106 75
263 684 236 106 24 40
325 380 332 148 108 77
249 820 278 78 63 58
283 680 211 60 36 37
362 452 264 163 17 49
330 370 331 144 104 74
333 374 331 150 106 76
338 794 142 62 52 47
335 375 330 151 107 78
334 535 298 148 95 74
332 380 330 151 107 78
406 852 247 116 98 92
335 380 329 154 108 82
288 465 335 86 21 35
340 355 330 146 104 74
340 360 329 148 104 75
280 770 214 93 57 55
345 355 328 148 101 76
330 908 209 72 65 66
344 365 326 152 104 80
246 800 273 58 51 50
350 355 324 159 108 84
348 355 326 152 105 79
253 800 256 77 64 60
348 358 326 153 105 80
321 936 324 64 56 53
343 374 326 155 109 83
357 683 280 71 16 27
340 380 327 156 110 84
254 601 202 122 34 49
247 585 307 145 15 45
273 720 216 126 14 38
342 377 325 157 111 84
259 655 268 175 0 51
215 520 208 133 12 42
342 381 325 157 110 89
345 380 323 159 110 91
344 385 322 160 112 90
341 385 324 157 110 89
347 380 320 161 110 91
266 594 184 191 9 47
355 330 327 152 100 78
383 903 292 82 68 61
357 332 325 148 97 77
360 330 323 152 101 83
253 725 312 124 94 65
360 335 323 148 98 80
260 959 268 78 74 74
357 336 325 145 97 75
363 325 321 147 100 79
290 415 328 114 66 53
308 790 192 80 64 55
353 344 326 152 103 75
359 908 304 81 68 69
355 345 324 157 106 82
358 345 321 159 109 87
354 720 288 108 23 42
355 350 322 163 110 89
357 351 320 164 107 90
358 348 321 165 112 93
354 355 322 167 114 92
353 358 321 166 117 94
390 520 170 169 14 37
270 400 268 96 81 65
265 710 339 158 111 86
272 391 288 110 89 64
270 395 278 105 86 64
274 601 186 192 8 46
272 391 279 105 85 63
268 398 278 105 86 64
277 760 340 167 115 82
267 401 283 109 88 65
364 908 308 68 55 53
280 929 330 92 71 63
262 655 318 161 119 92
260 415 258 74 61 50
263 413 257 78 67 57
262 412 260 81 70 60
355 390 264 131 88 67
259 414 273 83 72 61
262 412 269 91 75 61
320 590 318 161 108 80
267 406 264 92 78 64
307 833 210 75 61 55
270 405 258 93 81 69
269 404 263 91 78 65
372 498 261 50 32 28
375 500 263 58 35 36
305 900 163 79 65 62
356 543 257 126 74 66
271 401 263 94 80 66
268 403 271 97 80 62
273 710 216 102 23 38
257 416 273 66 57 48
396 545 182 179 19 46
260 411 283 77 67 58
260 411 288 71 64 58
264 409 288 72 64 55
362 645 264 67 31 36
320 530 318 133 97 86
305 405 332 134 104 78
314 849 213 51 43 42
267 402 274 102 84 64
213 527 232 52 27 36
265 405 278 102 83 64
265 405 283 100 83 64
388 594 236 172 119 88
251 725 328 158 112 87
345 885 299 40 36 36
280 390 268 97 83 69
263 760 231 62 35 39
276 390 273 100 83 66
262 838 278 76 62 58
279 400 258 97 84 71
300 930 217 93 89 91
278 399 261 103 89 74
247 925 311 174 132 112
278 393 267 99 85 70
282 391 264 95 81 68
378 690 191 81 67 54
251 740 309 119 92 62
286 386 264 91 78 65
283 393 262 90 77 65
228 570 218 88 23 36
409 757 216 135 91 66
361 636 187 41 36 38
276 386 278 103 84 63
326 795 289 73 55 49
273 388 283 108 87 64
275 404 257 99 86 73
288 430 330 82 24 32
271 395 293 110 89 64
365 871 203 64 51 51
264 409 293 69 62 54
242 793 306 181 125 95
260 410 298 69 63 48
334 480 292 37 23 24
260 410 303 70 60 39
305 600 167 89 34 41
265 409 298 68 62 56
342 776 280 92 69 60
266 405 293 85 72 60
375 670 197 69 49 50
268 404 299 85 73 60
252 958 302 66 60 58
393 888 291 72 60 52
270 405 303 84 71 58
268 408 304 68 61 55
394 705 248 92 17 35
260 410 308 71 62 48
325 750 174 62 35 38
265 410 308 66 61 55
260 695 333 153 110 83
260 411 318 96 39 38
270 409 313 72 63 54
333 533 295 140 91 72
270 411 318 68 57 45
292 832 304 42 32 36
257 638 282 61 25 29
274 390 293 113 90 65
272 392 292 111 89 64
335 540 308 168 114 91
394 750 158 78 64 51
273 393 295 112 90 65
350 400 298 121 85 62
333 565 141 89 20 30
273 394 299 112 90 66
274 395 303 112 90 66
250 825 303 205 140 111
410 725 178 142 101 70
273 398 304 111 90 67
279 390 308 112 90 66
336 471 294 88 20 33
281 390 312 113 91 67
276 395 307 111 90 66
335 700 313 129 12 42
274 400 308 111 89 66
419 781 99 74 60 47
278 394 309 112 89 65
264 735 228 119 19 42
277 397 311 112 88 65
276 401 312 112 90 67
279 400 314 113 91 68
281 400 317 114 92 68
253 709 323 152 111 83
308 914 195 100 97 99
375 615 194 74 50 42
272 402 307 109 87 66
241 579 194 126 20 41
275 410 318 86 71 56
334 774 292 90 67 57
327 400 330 155 109 82
280 409 319 114 92 69
283 409 320 118 94 69
257 417 258 71 55 47
392 581 235 171 124 97
258 418 263 69 57 50
318 793 296 87 67 57
260 425 319 88 25 38
265 425 320 139 17 47
260 430 318 74 28 35
383 755 106 83 65 53
265 430 319 113 21 41
268 635 222 117 28 43
260 440 318 63 27 31
265 435 319 99 25 39
264 440 320 71 28 34
396 730 233 147 22 49
260 445 318 103 24 38
288 388 261 85 73 62
288 394 320 122 97 71
265 415 321 146 18 49
270 412 321 119 26 37
244 595 299 92 32 43
361 864 177 77 66 60
275 415 322 135 22 43
287 401 321 122 96 71
286 405 321 121 96 71
310 610 172 63 35 39
375 800 242 61 47 42
285 410 322 118 95 70
305 960 313 79 73 71
395 755 148 70 53 38
285 414 324 91 67 50
373 734 276 157 20 52
260 420 320 125 22 45
260 418 321 123 24 47
265 420 320 152 18 48
270 420 321 105 20 38
404 820 248 72 55 42
271 425 321 112 19 40
268 430 320 138 20 47
354 590 268 153 7 47
271 430 321 126 18 41
291 850 234 142 101 79
325 745 316 83 35 43
266 445 322 44 28 31
267 436 321 109 18 38
223 540 285 56 26 32
395 760 133 69 54 43
267 440 321 64 25 31
270 440 323 80 24 33
335 840 143 93 74 61
270 445 324 79 28 35
275 420 323 87 25 36
359 395 261 134 93 69
377 442 290 82 23 33
275 425 323 115 20 40
361 500 304 174 119 106
284 924 198 91 84 87
279 425 325 115 19 41
279 430 325 47 25 28
282 420 326 91 28 39
344 510 312 184 126 109
282 416 326 82 27 35
285 420 328 101 24 39
255 720 288 142 1 42
384 878 260 90 73 65
285 425 328 64 24 30
407 679 182 136 99 68
320 390 333 147 108 79
310 805 193 86 67 59
277 436 326 57 28 30
375 860 223 69 56 54
369 495 293 166 117 101
273 922 207 87 77 73
402 630 220 164 115 84
276 440 326 50 30 32
273 444 325 35 28 30
300 805 308 62 50 46
275 445 327 41 28 30
339 854 275 44 37 30
412 779 199 155 110 76
388 777 99 87 65 49
280 445 329 43 28 31
329 430 328 116 84 66
413 848 250 94 74 64
386 590 202 66 46 37
285 435 329 115 16 39
284 440 329 109 18 36
284 445 330 59 29 30
246 815 298 191 134 105
286 445 331 63 21 28
291 390 322 125 99 73
245 565 183 115 26 42
373 836 145 85 69 57
290 395 322 124 99 72
290 400 323 123 98 71
296 400 327 126 98 72
300 390 327 129 100 72
297 392 326 127 99 71
297 395 326 126 99 73
358 900 278 72 63 62
300 400 329 129 100 74
296 750 194 63 33 36
303 399 330 130 102 74
290 405 324 124 98 71
299 405 330 128 99 73
302 402 331 131 100 73
250 825 298 204 140 111
301 406 331 131 100 75
305 800 198 84 66 59
298 409 330 130 100 74
406 795 229 93 67 51
301 410 331 132 101 76
287 475 336 103 28 39
296 416 331 110 81 60
300 415 332 128 97 74
305 410 332 136 105 78
262 755 341 169 116 90
305 415 333 136 104 79
350 804 119 90 69 56
307 386 331 132 100 73
255 705 278 89 23 38
391 805 133 83 61 46
310 395 332 137 104 77
354 549 134 71 33 39
310 400 332 137 105 77
215 540 208 150 5 46
315 390 333 141 106 77
329 499 309 48 23 24
275 962 313 57 52 51
221 545 223 46 29 35
315 400 333 146 109 78
350 880 298 41 38 37
310 405 332 138 105 76
249 820 318 193 132 107
310 415 332 140 107 78
380 580 182 54 32 36
315 405 332 143 106 75
398 728 235 98 24 37
320 405 332 151 108 79
315 410 332 144 107 76
291 420 331 132 16 43
295 425 334 84 21 32
291 430 332 54 27 29
400 800 98 83 64 51
285 560 149 126 18 39
372 555 171 73 31 35
300 420 334 81 55 42
305 420 333 105 81 60
229 580 273 74 27 38
257 595 316 114 21 39
297 430 336 116 16 39
273 847 274 74 61 56
320 695 316 54 30 33
300 430 338 93 24 37
380 455 259 104 23 41
376 650 193 96 73 54
305 430 342 68 27 34
233 585 228 172 0 46
361 795 110 68 54 43
348 666 281 142 11 44
288 434 330 74 18 29
290 435 332 66 25 31
294 440 335 119 15 38
290 926 212 93 87 88
395 662 215 137 83 64
290 445 333 129 14 40
293 445 335 136 17 43
296 440 336 98 18 35
300 435 338 66 25 31
312 892 174 96 89 87
300 440 339 109 24 40
212 534 257 49 26 32
305 435 342 61 28 32
214 540 248 194 2 53
287 865 244 146 111 81
302 436 341 43 26 31
305 440 342 79 27 37
331 520 123 56 35 35
302 444 341 82 31 39
303 447 340 66 25 31
310 424 334 101 77 56
315 420 332 129 96 67
315 425 333 106 81 61
320 420 331 135 97 70
320 425 331 122 91 67
310 426 341 40 29 29
336 415 319 166 120 96
310 665 308 40 26 29
315 427 338 69 54 40
310 445 341 103 27 42
311 446 340 133 29 51
314 440 341 49 29 32
405 630 198 124 98 65
360 565 253 129 10 40
320 435 339 87 26 36
317 437 340 48 25 27
263 653 325 157 115 87
246 905 278 146 117 92
359 800 257 61 48 43
316 441 340 98 30 41
256 829 323 198 132 108
304 949 326 57 50 46
265 876 322 135 100 84
315 445 338 88 28 40
374 450 261 128 9 39
256 564 170 96 24 36
313 443 341 45 21 26
260 450 319 65 27 32
320 475 319 64 24 31
387 740 260 179 14 57
316 476 320 92 26 39
376 419 263 126 30 47
319 479 320 49 24 27
265 765 228 93 44 49
316 505 318 155 20 50
318 503 317 146 23 49
317 506 313 114 19 39
319 509 310 60 20 25
321 510 312 60 18 25
290 554 315 91 2 27
300 525 137 59 34 37
314 510 318 148 21 48
263 448 320 58 24 26
325 710 178 89 22 30
265 450 322 33 29 29
269 952 325 51 47 47
278 852 257 178 120 94
265 455 323 48 29 30
406 838 91 94 81 71
258 458 320 108 13 37
257 461 321 83 19 31
260 465 323 102 22 37
361 410 259 118 83 66
264 465 325 120 18 39
269 450 324 44 28 31
272 450 326 54 25 31
295 555 317 128 16 43
269 455 325 38 28 31
271 455 326 40 28 29
281 619 194 48 34 37
293 626 191 83 44 45
355 860 288 47 39 35
267 461 326 112 11 37
246 760 263 62 32 39
266 466 326 105 17 35
243 935 295 96 81 73
270 465 327 111 22 40
265 470 326 98 25 39
260 475 325 137 15 44
391 887 276 82 71 64
255 880 273 135 107 79
265 475 327 56 23 31
265 480 327 145 19 49
270 475 328 100 24 40
270 480 328 110 18 39
280 450 329 87 27 39
311 855 168 56 51 50
279 455 330 81 28 37
275 460 329 61 27 31
245 560 178 97 33 44
262 755 233 86 33 41
281 465 331 100 21 36
285 455 333 91 24 36
285 460 333 103 21 38
276 480 331 139 15 43
280 475 332 138 15 43
285 470 334 110 18 38
250 740 258 160 12 48
285 475 334 135 22 46
384 884 269 85 67 59
326 875 289 141 111 85
284 480 335 148 20 48
287 480 336 123 21 44
265 485 327 152 17 47
259 495 325 157 16 50
295 919 198 108 101 102
276 615 328 150 116 92
261 490 326 154 16 48
398 590 226 155 113 78
265 490 327 155 17 49
254 606 207 90 32 40
383 704 181 101 83 64
261 495 326 158 17 50
265 495 327 144 16 46
294 912 173 83 71 64
270 485 329 144 16 45
270 490 329 145 16 46
269 495 329 120 15 38
389 715 263 151 16 48
271 495 331 108 19 37
259 505 325 110 19 40
265 505 328 40 26 29
261 510 326 36 27 30
265 510 328 53 31 33
337 535 313 154 106 83
269 500 330 45 27 29
269 510 330 39 28 30
275 485 332 136 14 42
280 485 334 149 18 47
273 488 330 135 14 44
275 490 332 142 16 44
272 492 331 135 14 41
280 490 334 159 17 51
280 495 333 169 16 54
285 490 334 175 15 55
253 600 308 162 16 48
285 495 333 176 11 55
265 929 219 87 76 73
275 505 332 110 24 41
362 716 280 127 48 65
217 533 224 167 1 42
334 949 249 80 72 74
280 500 333 172 15 54
285 500 332 175 11 56
284 505 331 172 14 55
369 864 184 87 70 62
286 506 330 169 13 54
253 890 308 167 122 107
283 509 331 169 15 54
263 908 236 55 46 42
289 455 335 116 14 38
293 448 335 128 19 41
288 459 335 125 18 41
295 450 338 89 22 34
292 451 336 105 14 37
300 455 339 108 29 43
305 450 340 38 28 31
300 465 337 108 32 45
304 464 337 129 27 48
288 469 335 37 26 28
253 710 268 97 25 39
295 480 334 135 25 49
306 466 334 73 25 35
335 880 178 75 66 65
345 619 174 121 31 41
243 935 298 104 85 76
301 471 335 60 26 30
356 482 312 119 84 70
305 928 215 89 85 87
297 476 335 131 38 54
300 475 334 67 28 33
252 890 275 154 115 92
375 705 273 45 27 30
290 470 337 40 29 31
350 870 183 77 62 55
387 432 282 167 20 51
295 470 337 63 30 34
294 851 312 154 120 89
272 622 315 134 104 83
290 475 336 42 29 31
259 555 162 112 32 43
295 475 336 64 29 36
288 548 326 159 19 54
294 478 336 74 24 34
299 470 336 65 27 32
298 473 336 61 28 31
311 460 334 150 21 50
297 623 185 53 35 35
316 967 257 77 71 76
310 465 332 112 27 43
315 455 334 101 26 41
277 915 194 99 89 86
363 761 132 64 49 43
319 460 327 88 27 38
310 450 339 40 27 31
261 825 253 86 66 57
310 455 337 69 27 34
309 459 336 140 26 52
249 735 263 150 8 46
308 469 331 54 26 31
398 765 117 72 55 39
320 730 177 127 12 31
310 475 327 113 24 44
308 479 326 113 22 41
264 631 227 41 35 39
312 476 325 91 25 37
306 475 329 166 20 53
270 545 147 183 5 42
405 530 188 171 18 50
307 472 330 53 28 30
319 469 322 55 26 31
315 475 323 60 26 31
311 800 189 86 67 57
313 473 326 44 23 26
335 500 314 114 83 73
286 831 314 172 116 91
291 482 335 97 20 38
295 485 333 173 17 56
290 490 333 176 14 56
304 485 327 59 30 34
298 484 331 153 16 47
302 481 330 88 25 37
398 605 226 164 114 85
299 495 327 130 26 47
366 870 213 65 54 54
305 490 324 66 27 33
303 488 326 47 24 30
413 802 211 135 96 72
305 495 322 85 24 35
301 495 324 78 24 33
295 500 327 101 32 43
290 500 329 143 23 50
290 505 328 159 18 52
294 504 326 102 19 39
296 501 325 109 30 44
398 600 226 165 118 84
288 499 331 174 14 56
291 511 325 119 15 40
336 560 283 73 25 33
300 500 323 52 28 31
250 725 268 152 1 45
379 675 233 143 7 44
305 505 322 93 18 33
310 490 321 45 24 27
315 485 321 37 25 27
338 798 276 168 116 97
320 485 321 75 28 35
319 490 321 97 22 38
319 495 321 138 22 47
377 500 273 176 127 107
289 920 192 95 85 81
310 510 322 82 23 36
313 508 321 161 22 55
326 603 165 104 33 40
312 511 319 136 24 47
371 468 285 106 47 48
413 785 189 159 111 78
325 396 263 101 97 96
217 548 261 192 0 53
332 389 271 102 98 97
