ply
format ascii 1.0
comment Created by Open3D
element vertex 2207
property double x
property double y
property double z
property uchar red
property uchar green
property uchar blue
end_header
330 122 177 155 111 81
389 801 239 35 30 33
260 350 306 89 74 57
330 123 181 140 107 75
329 128 181 144 108 75
386 750 268 73 59 54
384 427 268 111 11 36
328 123 191 125 98 69
342 103 161 120 72 67
343 109 166 136 69 73
379 875 281 33 30 30
287 203 180 128 101 67
341 111 170 138 53 55
343 110 171 133 32 50
367 509 371 188 126 102
342 108 176 117 39 49
366 874 116 104 85 68
346 103 171 129 20 47
345 107 171 127 22 42
362 488 401 148 101 89
284 342 252 121 91 68
374 515 328 107 12 29
345 106 175 124 19 44
237 613 202 113 80 51
342 98 186 115 84 66
367 508 336 119 83 64
277 440 351 181 17 57
340 98 191 114 80 60
349 405 279 65 14 26
292 452 340 146 20 50
341 103 186 117 39 48
368 664 131 81 57 43
402 422 179 135 8 30
340 102 190 116 21 43
338 105 183 120 77 60
288 46 274 123 30 18
268 593 260 170 15 53
288 198 296 115 88 57
402 376 216 88 26 25
342 107 180 111 47 47
312 758 232 66 55 51
412 653 286 149 103 70
345 96 179 109 31 46
344 105 178 121 30 48
327 618 276 109 29 44
355 68 157 107 37 39
401 528 202 65 30 35
357 849 122 104 86 75
353 73 154 111 46 40
355 410 173 42 42 41
355 77 157 121 19 40
262 383 340 127 97 63
297 123 270 95 71 56
357 657 166 81 39 30
355 78 161 135 19 43
278 376 179 97 82 66
354 80 159 142 28 47
353 83 161 142 18 45
357 68 166 119 30 42
255 614 185 120 30 45
357 73 166 132 19 46
366 705 132 60 47 40
355 72 175 124 11 45
478 723 256 91 73 59
296 374 197 100 87 75
277 323 256 110 81 55
337 683 276 133 12 41
356 68 176 117 20 43
356 73 171 131 23 49
349 683 129 66 48 37
278 446 344 63 18 30
296 363 226 85 70 56
355 77 171 131 8 46
354 79 171 131 6 47
334 78 208 122 12 44
326 72 214 109 46 47
323 79 213 112 74 59
330 67 214 113 85 68
297 723 250 159 18 54
331 843 176 34 30 30
329 70 213 117 97 75
335 68 209 107 40 44
332 483 326 64 23 32
337 68 206 110 45 50
347 508 165 57 33 38
266 279 254 106 84 59
271 208 288 91 75 56
251 578 242 109 23 42
335 72 209 122 24 45
332 78 210 121 21 43
349 486 394 194 152 148
318 510 139 67 26 35
334 74 208 125 19 45
375 712 284 108 28 45
317 448 115 71 32 39
333 88 206 109 78 63
320 183 201 124 99 70
362 683 285 139 15 44
333 113 260 134 23 37
335 93 204 110 91 69
322 83 213 122 91 72
322 88 212 117 92 68
331 464 346 145 7 48
322 93 211 117 29 45
337 432 296 64 54 44
331 83 210 120 15 43
387 852 247 29 28 28
330 88 209 111 15 41
272 376 274 79 63 51
294 360 232 98 79 59
330 93 209 109 68 54
339 68 201 117 99 81
273 33 300 106 45 44
287 228 181 133 100 62
252 623 201 50 35 32
339 73 197 106 51 49
402 843 186 65 56 55
327 102 205 136 99 81
338 73 201 121 102 85
340 68 196 105 41 45
340 72 195 119 25 44
309 234 195 135 104 72
377 873 186 61 56 58
280 400 83 166 45 48
322 818 261 133 107 82
339 78 197 117 25 42
382 376 202 86 44 42
339 83 197 121 18 41
340 83 194 112 43 45
339 93 197 113 62 55
340 93 194 122 86 69
337 817 236 79 63 44
283 208 296 105 81 53
338 92 253 88 58 44
369 622 275 149 71 68
284 154 198 109 92 74
358 478 165 145 0 33
323 104 207 126 95 74
296 49 276 122 51 33
350 663 132 60 50 44
401 724 278 188 135 112
327 99 207 127 67 68
324 109 203 132 99 78
307 448 111 114 26 40
327 728 136 61 46 39
282 378 271 58 47 33
323 113 202 130 100 77
302 163 217 112 88 61
399 578 246 109 24 40
321 113 205 127 97 74
319 396 128 46 35 35
280 177 218 102 84 65
290 60 303 112 83 65
432 863 281 56 49 43
327 108 201 132 100 78
328 104 202 138 101 80
325 106 204 137 102 82
367 403 291 35 25 30
335 101 200 125 43 53
391 618 231 100 24 38
336 98 201 120 17 42
261 222 288 90 77 61
347 824 245 123 97 70
334 100 203 121 19 45
310 740 144 62 45 42
331 108 196 134 96 73
330 106 199 134 97 79
355 555 313 110 63 55
413 683 196 70 49 40
312 143 210 117 91 66
412 668 196 96 54 40
368 504 337 75 43 38
330 111 194 126 92 69
384 627 204 96 29 36
329 109 197 134 101 77
421 664 172 64 48 37
302 463 116 118 24 38
321 102 209 122 93 69
266 288 331 143 102 75
327 97 210 122 30 51
325 118 200 128 100 74
293 908 276 119 86 72
301 427 103 145 14 38
377 578 323 186 129 101
456 864 281 84 68 56
325 123 199 126 98 72
372 453 336 122 11 38
259 283 203 110 86 60
323 123 201 127 98 72
286 604 268 106 33 45
382 380 183 92 30 44
316 394 98 143 24 37
322 128 201 124 97 69
338 98 196 114 56 52
467 708 257 94 79 64
392 618 241 94 25 38
339 100 193 112 34 46
275 486 113 151 11 38
297 753 148 141 100 64
410 644 281 129 94 57
336 97 257 94 63 51
287 163 191 112 93 72
372 412 179 114 17 27
205 593 214 148 105 73
307 445 351 76 41 35
287 168 191 113 94 73
323 647 269 31 27 32
286 173 191 112 93 73
346 513 331 121 61 59
267 188 322 108 89 69
283 178 192 112 93 72
282 183 191 111 93 73
168 521 232 206 136 116
337 388 180 111 26 21
363 598 285 148 51 60
285 178 190 111 93 73
284 184 188 110 93 74
398 578 241 78 32 38
287 193 181 123 99 70
277 393 106 101 77 59
347 664 275 121 7 36
283 193 186 112 92 72
284 549 139 115 25 39
426 693 196 60 47 41
322 508 316 53 26 31
296 133 190 104 88 71
347 867 156 79 69 63
257 683 224 154 113 97
353 423 316 63 8 23
286 35 301 110 43 49
366 448 351 101 12 33
412 378 246 62 30 25
292 143 191 109 91 72
378 438 286 56 24 30
302 143 182 119 98 75
385 552 299 67 15 24
449 718 256 126 91 60
307 821 181 68 58 57
287 193 226 111 88 63
197 548 247 162 110 90
445 715 264 155 109 73
301 133 185 117 95 71
342 468 160 129 6 27
299 143 183 118 97 73
302 138 182 119 97 73
317 393 151 77 31 33
275 213 189 112 93 73
257 578 167 87 27 39
293 153 186 114 94 72
296 153 184 115 95 73
283 372 286 94 78 64
287 88 272 103 35 26
320 581 163 147 5 33
375 625 292 191 134 116
358 924 282 63 58 55
297 158 182 114 95 75
288 153 192 108 90 71
330 393 163 115 11 29
279 568 269 159 12 49
292 158 186 112 93 73
295 156 184 113 95 75
345 465 375 76 7 31
298 149 183 117 96 73
330 833 156 43 39 40
298 153 182 115 95 75
365 438 353 75 12 26
456 722 204 92 68 44
354 847 268 143 110 84
302 148 181 117 97 74
302 153 180 116 96 73
413 777 274 184 138 112
287 178 222 107 86 62
275 495 273 164 5 47
260 238 200 107 89 69
313 511 309 128 26 51
407 413 178 138 9 31
302 158 180 118 96 71
379 539 189 145 8 34
378 488 371 158 111 92
325 838 215 126 96 71
307 133 180 120 98 72
309 134 178 121 98 72
352 798 129 80 64 55
347 558 175 95 26 36
328 408 160 79 29 30
309 140 178 122 98 69
323 158 196 125 99 69
309 142 178 123 98 70
480 724 228 78 59 45
227 603 205 123 91 59
317 133 176 129 102 69
317 138 177 130 100 64
375 511 178 38 33 34
317 143 178 132 102 65
332 753 135 65 52 42
299 297 221 96 80 64
378 913 211 81 74 73
312 148 178 128 100 66
317 613 276 113 32 47
267 278 307 111 79 51
286 218 306 126 97 65
312 153 178 130 101 65
385 688 144 57 48 41
317 148 178 136 104 67
263 238 196 111 92 72
282 168 196 111 93 73
376 553 187 46 36 39
333 503 156 89 18 31
316 153 178 136 104 66
218 568 213 108 29 33
315 158 178 135 103 64
318 158 180 138 105 67
293 169 183 117 95 71
403 628 291 112 84 48
297 168 181 121 97 69
455 669 208 79 61 44
270 554 263 156 14 49
292 88 304 100 60 53
183 528 227 146 102 78
289 160 188 113 93 72
337 949 251 62 59 59
465 716 220 126 92 59
370 926 213 80 73 72
289 163 188 112 93 73
312 588 161 107 15 35
349 752 134 55 47 41
296 283 236 120 96 70
317 673 156 60 40 39
402 647 260 81 69 56
293 173 181 119 97 71
342 419 295 62 39 35
302 163 179 122 98 68
312 730 143 93 42 35
409 539 235 172 14 48
302 173 178 130 101 66
289 180 183 113 93 71
299 427 328 122 94 69
376 381 251 59 20 25
292 178 181 119 97 70
294 183 178 125 99 68
438 774 184 58 46 43
294 180 178 125 99 68
274 727 230 174 16 56
262 392 131 88 74 60
290 176 184 113 94 72
296 283 206 116 89 65
292 193 178 131 103 68
311 50 301 99 37 42
469 764 249 85 62 49
297 188 178 131 102 66
365 418 300 110 13 38
302 178 178 132 102 67
355 540 338 198 138 116
302 183 178 134 103 67
248 568 172 141 11 38
302 188 178 135 103 66
304 188 179 136 104 65
272 237 238 110 88 62
306 164 179 129 101 66
307 169 178 133 103 65
312 163 178 135 103 65
307 815 169 93 70 58
257 808 181 226 158 128
312 164 179 137 104 65
330 478 152 90 15 31
312 168 179 138 104 65
307 173 178 135 104 65
387 703 131 73 57 49
437 688 261 126 96 59
277 488 301 181 11 56
312 173 180 139 104 65
325 398 111 101 19 32
315 161 178 138 105 67
372 583 321 189 134 108
373 833 155 52 48 51
319 165 184 141 105 71
222 558 240 127 6 39
392 758 156 66 53 47
307 474 328 156 8 47
413 464 189 156 14 37
319 169 185 142 107 71
244 763 176 174 117 86
318 173 186 143 108 72
399 647 221 103 27 36
401 638 262 88 72 55
395 507 188 120 22 40
367 488 171 154 0 35
308 183 179 138 104 65
312 178 181 141 106 67
267 768 213 178 136 105
312 183 182 140 105 66
362 799 136 68 59 55
307 188 180 137 104 65
307 193 180 136 104 66
336 410 284 59 27 28
300 434 330 120 92 69
381 665 134 90 75 64
311 188 182 137 104 66
310 193 183 134 102 65
315 177 183 142 107 68
300 55 272 108 26 30
235 563 179 49 34 34
315 181 183 142 107 69
382 777 157 66 54 52
324 418 127 96 18 31
314 184 184 139 105 68
441 748 275 171 117 85
376 624 296 191 134 115
474 758 259 78 59 46
286 498 123 133 22 40
319 178 190 137 106 72
394 538 292 167 18 55
319 183 191 132 103 69
380 469 343 108 6 37
296 209 229 119 94 65
350 535 326 156 103 88
362 663 271 146 11 44
272 393 336 124 96 63
313 188 184 135 103 66
313 193 185 133 103 66
437 848 251 67 56 53
206 538 220 49 32 35
318 193 191 128 101 68
348 562 305 97 24 39
287 148 196 108 91 74
372 498 351 179 124 100
314 208 217 129 104 75
264 470 104 39 40 45
301 268 221 119 94 65
286 153 196 108 91 74
267 363 186 97 84 72
212 613 235 180 129 104
272 188 216 106 89 71
393 888 287 55 47 43
288 143 205 104 87 69
287 148 206 104 87 69
284 154 206 105 88 71
288 918 246 71 67 67
282 63 273 114 30 33
474 734 236 77 59 43
286 158 195 109 91 73
267 218 330 123 99 71
282 158 206 106 89 71
288 149 209 102 84 65
275 390 334 123 95 62
284 155 209 104 87 69
286 158 212 102 83 64
288 159 214 102 82 60
275 370 264 99 75 58
311 50 305 102 41 46
367 763 252 69 58 55
272 188 206 108 90 72
324 392 179 118 33 27
258 248 235 109 87 62
203 593 216 155 110 77
271 193 206 107 90 72
291 379 182 97 82 67
282 183 317 119 94 66
241 553 175 122 12 36
378 488 356 133 96 73
271 108 291 95 28 37
279 169 202 112 95 78
277 508 121 146 15 39
278 173 201 111 94 77
284 628 173 141 6 35
296 196 178 134 104 68
325 146 182 144 105 75
279 174 198 111 93 74
327 818 166 58 48 47
277 173 206 109 93 76
294 141 273 101 29 30
453 824 270 86 70 61
287 447 345 90 28 40
444 708 262 141 100 66
277 178 286 97 81 63
285 162 194 110 92 71
426 725 172 69 55 47
282 173 196 111 92 72
284 174 193 113 93 72
330 820 260 124 99 73
367 403 180 119 12 25
279 165 209 106 89 72
357 438 341 68 19 27
279 169 210 107 90 74
273 668 182 77 30 36
277 173 211 107 90 73
282 123 276 94 33 32
302 613 168 142 1 32
321 448 117 94 35 41
284 164 214 101 83 64
261 533 257 80 21 36
360 698 289 81 30 38
391 754 268 64 52 47
287 168 217 103 83 61
268 282 198 107 82 54
280 171 213 105 87 69
352 553 174 145 5 31
437 748 277 173 118 85
281 173 217 102 84 65
334 123 276 120 27 46
284 304 204 87 74 62
421 843 206 82 64 57
270 125 298 96 76 56
288 169 219 105 84 60
276 183 201 111 92 73
477 755 259 84 66 54
278 183 197 111 92 71
427 376 206 135 11 41
352 413 171 45 39 40
279 56 294 111 89 64
479 728 225 78 59 44
342 946 260 63 57 55
275 178 206 109 92 75
292 473 327 164 9 51
274 180 207 108 91 73
273 183 206 108 91 73
396 897 261 71 63 63
316 78 300 107 33 42
275 182 204 109 92 74
333 731 255 77 61 56
347 634 273 168 18 55
268 388 338 124 95 63
342 738 132 60 48 44
275 188 200 110 92 72
297 658 167 74 31 34
276 193 196 106 88 70
274 188 202 109 91 72
296 462 113 66 36 38
295 136 208 103 83 61
281 178 195 111 92 71
280 183 195 110 91 70
312 413 102 148 0 35
459 783 236 63 50 42
343 490 361 80 56 54
280 186 194 109 90 71
428 376 216 142 11 40
314 495 134 168 0 36
363 824 144 68 63 63
287 203 296 114 87 55
277 178 216 104 87 69
408 746 133 71 57 49
329 509 144 64 28 34
273 183 211 106 89 72
292 338 211 98 83 66
307 58 309 115 23 44
292 538 140 61 34 37
401 483 261 44 23 30
323 946 255 56 52 52
276 183 217 105 87 69
278 184 220 103 85 67
461 758 221 72 55 46
287 373 186 99 85 71
275 186 218 104 87 69
277 318 255 106 79 53
273 193 220 104 86 68
377 773 156 71 57 56
317 438 111 136 8 34
282 178 220 103 83 61
276 63 281 112 29 43
281 187 223 103 83 61
282 188 224 105 84 60
447 733 266 164 112 81
284 185 224 105 85 62
286 185 224 108 87 63
236 658 200 129 91 57
389 497 307 152 3 50
390 640 203 62 34 30
287 188 224 111 89 63
277 391 121 91 76 61
352 573 296 103 24 39
292 133 196 106 89 71
392 473 177 86 24 36
291 133 201 105 87 68
342 458 159 48 34 39
277 388 331 121 95 65
294 129 204 105 87 69
354 445 354 60 19 21
287 383 261 65 53 41
296 133 207 103 84 62
291 138 196 108 91 74
292 138 206 103 85 65
287 388 141 89 69 58
278 124 278 92 53 44
293 143 210 101 82 60
382 908 281 63 54 52
342 447 352 56 32 28
297 138 210 105 83 59
298 133 209 106 84 59
407 418 249 58 22 29
287 228 234 117 92 64
302 133 211 108 85 59
302 138 212 110 87 61
290 333 244 121 91 70
195 519 224 109 24 41
258 493 146 47 33 35
289 149 193 108 90 71
291 152 213 102 81 58
299 391 266 59 49 40
406 448 249 147 12 47
297 148 213 107 84 60
365 400 312 146 15 53
292 154 214 105 83 59
290 193 301 126 98 65
277 133 305 107 89 70
298 149 214 108 86 60
471 758 247 90 66 52
297 158 216 110 87 62
303 147 213 110 87 61
297 478 326 160 10 50
302 158 215 111 87 61
323 163 196 127 100 70
298 491 319 64 33 37
317 138 206 118 93 67
317 143 206 115 92 66
167 517 227 231 159 140
442 788 266 148 94 70
295 375 241 76 65 54
321 163 186 142 108 73
307 138 211 117 90 64
312 138 210 120 92 66
420 467 197 163 15 39
374 514 179 112 34 45
398 717 279 181 124 104
314 133 208 119 92 68
261 233 201 105 87 68
276 488 296 176 9 54
307 148 213 115 88 63
392 659 191 53 42 45
305 150 214 114 89 63
278 256 188 111 84 54
306 154 214 115 90 62
308 152 213 115 89 61
270 268 330 131 99 68
372 498 175 126 7 32
311 159 214 115 91 64
277 438 97 99 30 40
315 153 209 115 91 64
361 819 115 107 77 51
316 158 210 114 90 62
292 163 217 106 84 59
307 148 270 96 26 26
290 166 218 104 83 59
237 588 201 92 22 36
292 168 219 107 85 61
352 514 361 203 140 115
297 173 220 110 87 61
470 727 250 96 73 53
301 169 219 112 89 63
370 506 371 186 124 101
333 467 346 98 20 41
292 178 222 109 86 62
297 73 305 110 24 44
402 623 286 148 100 70
297 178 221 109 85 59
325 98 282 115 98 80
297 183 222 110 86 58
407 443 248 132 10 40
415 406 249 43 32 30
288 186 223 110 87 62
238 593 201 76 30 36
276 743 160 88 71 50
308 927 216 75 70 72
262 393 342 126 96 63
232 593 207 87 56 41
297 187 223 114 90 62
302 183 222 114 89 62
452 699 245 82 56 45
271 422 88 56 38 40
302 188 223 115 90 62
312 168 215 115 90 63
421 488 231 51 28 34
304 171 218 114 90 63
417 802 250 105 75 57
378 673 126 71 55 40
271 178 290 98 83 68
308 172 218 115 91 63
291 740 243 168 25 60
443 697 247 61 26 31
306 174 219 114 90 63
263 213 221 107 89 71
314 167 213 115 91 64
290 872 257 62 46 46
267 423 342 149 110 89
354 935 273 58 54 52
319 167 208 122 98 71
337 867 152 73 62 59
317 888 186 50 47 48
441 688 226 74 43 39
317 173 211 122 97 70
319 183 208 129 103 74
319 188 195 124 99 70
327 394 261 78 40 39
337 384 172 105 28 26
277 798 209 189 144 113
319 193 196 128 101 70
425 422 183 114 20 32
446 695 241 68 35 35
398 838 222 29 27 26
319 194 207 125 100 72
307 178 219 115 91 62
390 649 197 52 37 33
288 643 250 178 13 56
362 793 111 95 76 65
309 177 218 116 91 63
313 183 217 119 94 66
310 188 219 118 93 65
355 844 123 94 74 62
362 533 342 175 117 92
312 457 340 93 18 37
319 180 208 128 102 74
284 693 168 121 15 29
318 183 211 127 101 73
312 658 262 124 10 38
374 890 194 68 62 64
318 193 211 128 102 74
383 438 272 121 10 36
276 203 191 111 93 74
381 463 295 130 8 38
376 872 268 90 68 57
257 513 131 134 15 44
278 208 187 116 94 70
409 543 251 163 9 47
295 863 263 161 117 101
282 373 281 71 57 45
287 198 180 127 100 69
284 199 183 118 95 67
280 197 189 112 94 75
420 670 194 77 45 41
281 203 185 116 94 68
423 752 170 87 62 52
281 208 185 119 96 67
317 738 242 72 58 52
403 801 244 44 37 34
278 223 183 125 97 64
273 223 187 114 92 68
382 483 175 137 10 36
276 223 185 119 95 67
368 924 272 62 58 58
272 357 263 117 86 68
280 507 123 151 17 43
352 823 242 126 100 72
283 213 182 124 97 64
212 568 241 147 96 80
303 615 169 137 0 31
280 213 184 121 96 67
287 223 180 134 101 62
402 838 221 30 28 26
448 838 276 108 94 86
347 809 234 137 106 82
270 228 190 111 91 70
272 238 187 110 88 63
270 238 189 109 88 64
331 713 266 147 20 51
294 372 236 78 66 54
267 243 191 110 89 65
287 278 198 103 80 56
267 248 191 110 87 61
272 543 133 107 29 37
272 243 187 110 87 61
258 503 147 76 24 35
271 248 190 110 86 59
267 253 192 109 87 60
337 532 305 108 14 38
385 620 208 103 21 30
272 253 190 111 86 57
286 404 330 123 96 63
338 478 346 63 21 32
278 228 183 125 97 62
316 390 103 105 37 37
276 233 184 117 92 63
303 438 328 116 89 67
277 238 184 113 89 60
287 233 182 128 97 61
286 237 183 121 93 60
324 718 140 61 43 37
254 526 254 148 26 51
281 744 232 85 37 44
288 239 184 118 90 58
449 743 194 63 50 43
387 578 316 152 109 75
273 248 188 110 87 57
290 868 241 178 129 108
277 248 186 109 84 55
282 248 186 110 84 54
267 338 197 94 83 72
287 243 185 112 86 54
262 593 251 177 11 55
288 227 233 118 93 65
287 248 187 111 84 54
282 253 187 111 84 54
334 850 189 43 38 38
327 827 181 123 82 66
349 824 144 82 68 59
284 255 189 111 84 56
288 254 189 110 84 55
292 196 178 132 103 67
372 778 158 62 52 50
315 198 215 127 102 75
321 858 161 58 52 51
292 198 179 132 103 67
449 829 260 86 67 58
354 407 174 59 35 32
297 198 179 134 103 67
234 618 233 171 123 101
297 203 179 134 103 67
292 478 118 67 29 36
297 208 179 135 103 65
292 213 179 132 101 64
258 801 173 181 122 91
312 847 220 135 103 75
295 420 329 126 97 68
297 213 180 136 103 64
297 218 181 137 104 65
302 218 182 137 103 65
357 823 241 131 104 75
302 223 182 139 104 66
312 198 185 131 101 65
341 710 278 172 26 61
307 203 181 135 102 65
307 208 182 135 103 65
244 738 172 148 103 73
192 538 224 126 90 64
386 376 189 101 47 42
442 697 205 89 60 45
374 808 233 153 118 95
312 208 186 133 103 67
304 834 260 144 69 82
290 340 208 93 80 68
245 711 179 127 95 60
295 54 268 115 29 22
316 198 187 128 99 65
217 613 206 147 105 69
365 438 305 35 26 28
267 478 286 176 6 54
307 444 109 96 30 40
302 63 308 117 69 63
418 679 204 56 34 30
412 473 247 150 4 48
337 433 159 48 36 39
372 843 124 95 75 69
314 208 189 140 106 69
260 615 233 53 23 27
309 213 184 135 103 66
305 222 183 139 104 68
401 468 256 130 13 41
308 218 185 138 105 67
307 223 186 140 105 68
312 218 191 146 110 75
193 549 248 177 122 102
368 592 315 188 135 110
407 758 276 185 138 109
310 222 188 144 108 73
197 548 221 127 93 63
401 878 226 66 58 56
317 454 346 83 26 37
313 213 190 144 109 73
315 212 192 145 111 75
301 552 283 41 28 30
292 228 182 135 102 64
290 236 183 125 94 60
297 238 186 123 93 60
387 408 178 109 16 32
330 386 217 73 58 47
299 230 184 135 99 64
410 683 170 60 46 38
303 228 185 137 103 67
352 493 386 166 112 101
394 482 287 121 9 35
302 233 186 132 99 65
327 889 294 111 87 70
227 658 206 124 91 56
302 238 187 124 94 62
292 93 304 101 72 60
290 251 188 110 84 55
292 253 190 110 84 56
312 543 147 96 21 37
293 250 189 112 85 57
301 242 188 119 91 60
302 248 191 121 93 62
289 40 309 126 93 92
406 678 178 72 51 40
357 457 367 84 14 28
359 666 273 137 8 39
308 243 211 130 100 70
297 278 206 120 92 66
306 228 187 137 104 68
295 293 239 123 99 72
310 227 192 141 108 74
402 438 251 126 13 41
292 38 301 104 57 55
262 812 196 215 152 125
421 673 281 149 104 69
222 523 255 91 23 37
269 199 207 107 90 72
270 203 200 101 85 69
270 206 199 101 85 69
323 568 294 124 19 41
267 208 206 105 89 71
267 213 201 103 86 70
341 833 130 81 68 61
472 692 246 114 90 64
268 198 211 107 89 72
269 194 211 106 89 71
269 199 220 107 89 70
378 909 288 59 52 48
267 203 211 107 89 71
312 63 277 110 92 73
264 209 216 105 88 71
266 208 221 107 89 70
269 209 198 101 86 69
265 213 206 106 89 72
268 653 187 95 30 37
260 242 200 110 91 70
326 138 281 142 4 51
268 218 196 105 88 70
440 733 182 53 44 40
414 651 265 107 86 62
307 83 304 113 61 58
265 222 200 103 87 69
404 523 262 97 19 36
356 795 125 80 66 60
264 220 203 104 87 70
265 217 204 104 87 69
354 605 184 47 32 28
267 233 235 109 86 61
345 493 356 75 39 37
264 213 211 106 89 72
261 218 216 107 89 72
261 223 211 107 90 72
302 768 149 136 98 66
260 222 222 106 88 69
265 211 210 106 89 71
252 613 191 109 27 42
265 212 222 106 88 69
277 703 247 147 14 46
275 198 195 103 86 69
310 161 282 159 105 103
272 203 226 103 84 64
311 140 264 107 15 33
297 593 161 87 21 35
329 806 152 59 50 46
263 218 225 107 88 68
269 214 229 103 84 64
266 217 227 105 87 66
296 303 213 94 80 66
282 98 275 104 34 28
187 518 228 129 73 62
341 498 366 142 105 91
293 63 304 114 43 49
379 477 341 51 29 31
186 518 229 134 82 69
205 525 216 46 31 32
268 218 230 104 85 64
323 806 162 90 70 59
392 638 211 93 25 34
402 803 182 70 57 58
390 513 311 160 0 52
264 224 229 107 87 66
287 391 116 84 68 57
378 677 137 66 55 47
276 202 228 107 86 62
281 409 334 122 95 62
275 206 228 107 86 62
289 376 297 97 79 61
479 730 231 85 65 49
347 573 177 105 19 32
372 789 242 157 117 96
284 434 99 161 20 41
282 198 227 109 87 63
282 208 230 112 90 64
287 202 228 113 90 63
331 133 266 128 34 46
287 204 229 114 90 63
276 179 319 114 93 69
228 667 220 194 136 112
295 677 164 123 22 27
302 433 327 119 91 67
287 208 230 116 92 65
455 773 212 65 51 42
277 213 231 109 87 62
277 218 233 111 89 64
273 224 234 109 87 61
296 338 216 107 87 65
287 218 232 116 92 63
315 785 223 51 41 39
317 386 186 101 63 49
295 45 283 127 43 29
394 899 246 58 52 49
263 233 197 110 91 72
259 234 207 106 88 69
376 488 395 171 117 107
259 239 202 105 87 67
404 656 245 45 33 30
297 708 253 182 1 58
426 423 196 55 28 33
258 238 206 105 87 68
394 486 288 134 8 43
312 460 338 152 15 50
372 673 131 73 52 40
266 228 196 110 92 73
359 572 310 176 122 106
372 508 332 61 26 33
362 384 251 86 19 30
327 753 240 70 57 52
265 233 194 111 93 73
197 537 224 98 66 47
337 753 242 75 60 55
320 402 134 56 33 37
454 819 260 89 70 59
265 238 194 110 91 69
295 711 154 94 24 29
421 438 226 129 11 37
238 548 251 41 27 30
422 403 236 79 25 34
256 722 169 112 87 58
269 796 163 178 120 86
258 228 216 108 90 71
258 233 211 108 89 70
257 233 216 109 90 70
304 402 312 118 95 69
331 443 158 109 12 26
283 584 154 173 3 35
260 227 210 107 89 71
259 243 202 108 89 68
290 45 278 120 39 17
332 389 241 80 43 34
258 248 201 112 91 68
312 818 251 117 95 72
262 243 196 112 92 70
299 381 233 71 65 60
362 643 180 44 37 38
260 246 199 113 92 70
257 243 206 107 88 67
259 250 198 112 91 68
361 594 287 108 42 46
422 478 236 49 31 31
264 248 193 111 89 64
466 711 225 181 122 63
262 263 196 112 88 61
375 790 243 144 110 90
387 433 177 119 13 25
258 233 226 112 91 69
252 703 176 114 89 57
385 565 298 105 83 60
307 128 301 108 42 47
377 893 297 52 47 44
263 228 230 108 88 67
327 748 241 71 58 51
259 234 229 111 90 68
258 238 230 112 91 68
319 392 154 78 34 37
261 238 232 109 88 65
266 228 232 107 86 63
265 231 233 107 86 63
268 229 234 108 86 62
287 378 281 64 51 37
264 234 234 107 86 63
260 528 136 53 28 33
272 240 239 112 89 64
257 243 231 110 89 66
321 739 243 70 57 50
260 242 233 108 87 62
468 743 231 80 59 44
317 433 321 85 70 54
292 42 291 125 46 39
362 513 356 190 127 98
352 778 146 69 55 53
333 868 288 147 108 84
272 253 243 113 90 64
277 228 236 111 89 64
320 153 204 118 95 69
233 578 202 68 32 35
277 273 248 111 86 58
277 233 237 113 90 65
322 936 275 67 62 61
277 238 238 114 91 65
287 233 235 118 94 66
433 708 195 81 62 45
353 428 321 56 13 23
320 168 187 144 110 74
287 518 277 55 27 33
292 618 265 72 28 35
362 404 320 76 18 28
266 258 335 119 94 65
356 888 182 69 64 65
239 716 209 181 122 98
405 805 177 59 50 49
302 203 226 119 94 65
236 578 196 72 28 36
292 408 327 123 97 66
443 800 222 67 53 50
279 241 238 116 92 65
282 242 238 117 93 65
389 612 226 58 31 34
309 936 223 83 79 81
382 503 181 157 7 36
455 787 226 79 62 50
281 244 239 116 92 63
273 272 248 108 83 57
282 248 240 116 92 63
317 392 261 77 52 36
288 247 238 118 93 63
319 198 201 128 102 71
382 379 246 52 21 26
349 390 254 74 27 31
272 613 172 42 33 38
361 854 260 104 82 64
318 203 206 129 102 71
408 518 206 104 32 42
380 483 336 92 20 36
308 203 223 120 94 66
422 758 166 64 51 43
308 208 223 120 95 67
315 208 215 130 104 75
317 203 211 129 103 74
409 520 209 112 7 24
347 493 381 169 117 104
307 387 211 71 63 56
276 430 344 107 74 54
316 208 211 129 102 72
295 291 208 104 83 61
274 253 328 128 99 68
279 53 273 131 36 39
305 244 224 130 102 74
367 723 282 94 30 41
314 215 194 142 108 75
242 543 171 161 4 39
366 643 182 43 38 40
408 825 224 30 27 26
316 213 206 130 102 70
300 887 220 69 62 62
314 218 196 138 106 73
271 38 290 174 124 115
315 218 201 129 99 68
314 220 201 129 99 68
314 220 206 130 101 70
302 688 157 82 30 31
314 223 206 129 101 69
262 343 266 102 72 53
309 213 223 124 99 70
310 935 268 66 62 61
311 213 220 129 104 76
308 223 222 132 105 76
432 758 280 184 128 98
279 437 359 114 34 45
311 223 220 133 104 75
306 144 269 99 20 32
315 213 211 130 103 72
262 401 84 96 78 60
395 896 251 58 53 51
274 109 299 98 82 65
378 783 159 70 57 55
314 218 211 131 103 71
305 142 299 117 82 68
297 648 256 53 27 34
313 223 211 132 103 71
292 198 227 115 91 63
303 243 226 130 103 73
448 803 266 49 39 31
377 463 326 133 10 40
292 203 228 116 91 63
351 423 296 59 24 27
291 205 229 116 91 63
292 208 229 116 92 63
302 198 225 117 92 64
176 533 246 199 133 111
347 763 245 74 59 55
328 821 262 139 111 84
299 212 228 121 97 69
350 951 238 69 66 70
300 215 229 123 98 70
307 533 143 162 1 34
303 218 227 121 95 66
300 223 229 119 94 65
306 208 224 119 94 66
357 438 170 59 38 36
292 618 169 140 9 36
306 213 225 121 96 67
306 218 225 124 99 70
297 363 211 72 63 55
334 677 141 66 54 46
304 254 200 130 99 70
271 683 185 81 36 38
311 233 201 127 98 67
310 236 202 126 97 66
311 233 206 129 100 69
311 228 216 135 104 74
310 232 216 135 103 72
361 412 321 74 17 32
349 843 142 84 69 57
308 228 222 133 103 76
415 685 209 47 30 32
332 418 162 58 31 34
310 228 220 133 103 75
267 357 190 96 85 73
275 208 324 125 98 68
302 603 275 83 33 40
309 234 217 135 103 74
323 447 343 68 54 40
310 236 214 134 104 74
324 411 114 123 4 34
327 113 259 99 40 22
368 665 140 79 55 43
291 298 246 124 100 73
277 40 283 141 52 28
481 683 262 93 74 54
306 243 196 133 102 72
327 693 140 74 46 35
299 402 318 120 96 69
305 247 197 133 101 71
307 248 206 126 97 66
305 252 202 128 98 68
306 253 206 125 96 65
307 248 211 128 99 69
318 73 280 102 85 69
325 395 116 47 32 38
288 858 251 180 129 114
427 838 252 53 47 42
308 243 216 132 102 72
305 253 216 129 100 70
262 338 264 103 72 53
305 252 220 131 103 73
462 873 281 79 64 51
292 153 307 120 95 66
304 255 218 129 102 71
297 228 231 118 93 64
245 773 196 184 131 102
280 320 254 110 81 56
294 232 233 118 93 64
392 853 251 29 28 28
407 408 177 139 9 32
297 233 232 118 93 64
239 572 178 125 14 34
399 386 179 134 10 24
295 238 234 119 94 65
412 463 247 153 6 50
303 228 227 125 99 70
190 559 229 169 118 88
452 802 267 58 47 36
300 233 229 124 98 67
352 528 345 193 132 110
480 724 261 80 62 45
300 238 229 127 101 71
462 714 203 102 77 52
329 488 146 120 2 32
337 593 289 173 12 53
288 573 275 156 12 49
297 243 232 125 99 70
389 641 299 200 146 123
295 243 234 121 96 67
379 563 323 161 114 78
299 313 221 107 87 66
295 248 234 123 97 69
292 253 236 120 95 66
231 523 175 150 6 36
381 528 187 140 13 34
298 253 232 127 100 71
382 443 281 55 29 31
295 254 234 124 97 68
390 542 198 65 23 34
300 243 229 129 101 72
300 248 229 129 102 73
296 428 331 122 93 69
303 767 224 74 60 54
288 104 273 99 34 25
303 253 226 129 101 71
305 247 224 129 102 75
337 608 175 71 30 32
306 138 300 114 57 55
326 133 178 147 106 71
282 118 305 101 84 65
326 133 191 124 98 69
429 389 207 121 20 36
261 386 160 96 81 66
325 136 178 144 105 70
324 139 179 143 104 69
400 643 257 66 56 46
438 808 255 45 37 31
327 858 151 88 74 70
395 699 283 182 130 106
325 143 182 144 105 74
352 443 346 54 23 25
326 138 191 123 98 68
272 258 244 113 89 62
345 886 298 39 36 36
326 143 186 135 104 72
320 147 178 139 105 68
403 623 276 142 101 68
342 949 225 71 67 70
324 149 185 140 107 73
314 936 218 87 83 84
325 148 187 135 105 71
324 153 186 139 105 71
324 153 191 126 99 67
297 353 216 86 73 60
275 203 324 123 97 67
389 796 244 58 47 42
322 158 186 140 106 72
322 163 191 134 104 70
328 139 276 143 9 53
321 168 191 140 108 74
370 450 327 82 23 30
320 172 188 144 109 74
285 188 314 126 96 64
340 683 278 142 12 43
320 173 191 141 109 73
322 133 201 123 97 70
402 837 182 61 54 54
366 508 173 71 33 36
382 858 185 62 56 57
325 133 195 125 99 71
385 469 294 130 3 41
303 839 231 139 111 82
322 138 201 122 97 70
324 138 198 126 101 74
325 143 195 123 98 70
303 133 267 96 20 31
179 537 241 184 124 99
343 518 336 157 105 93
322 148 201 122 97 70
266 178 295 97 84 70
322 153 201 123 98 72
324 150 193 123 98 70
247 528 161 154 0 35
324 420 115 145 1 34
320 148 204 117 93 69
320 158 205 121 97 71
417 453 245 39 28 29
263 339 198 94 83 72
315 878 205 142 99 84
322 163 201 125 100 72
322 168 201 125 100 71
402 667 186 105 53 39
321 168 206 124 99 70
298 693 254 147 16 48
267 323 201 87 77 67
302 47 291 110 50 43
330 812 218 167 120 95
452 763 261 99 66 48
321 173 196 132 102 69
320 178 201 128 102 72
462 876 283 77 63 53
320 183 196 123 98 68
366 638 183 43 38 38
320 183 205 129 103 74
314 692 264 49 23 32
410 528 254 128 14 40
320 187 197 121 97 70
295 40 301 96 52 47
348 833 146 81 69 60
320 188 201 122 98 71
320 188 205 126 101 74
320 192 205 124 99 71
268 33 295 132 89 74
272 30 297 114 54 48
267 808 171 201 137 106
277 32 296 121 43 44
338 380 190 117 49 30
272 43 286 136 74 64
303 418 322 123 96 67
277 38 286 152 46 41
275 49 280 125 29 41
440 724 183 54 45 39
304 931 274 69 63 62
262 278 340 129 99 66
278 44 277 140 52 25
257 533 156 153 3 37
273 43 282 127 44 45
295 40 309 92 57 49
274 40 283 137 68 53
282 41 281 147 35 17
307 473 122 144 15 38
420 478 211 156 12 43
280 47 274 146 38 34
287 44 276 128 34 22
425 428 186 77 19 36
388 663 290 180 131 109
345 508 335 121 63 63
461 812 261 91 73 60
287 43 281 136 34 20
426 428 191 123 18 40
282 213 296 106 82 52
357 942 261 56 52 52
287 48 272 126 36 21
259 498 135 142 4 41
282 391 116 88 74 60
281 40 283 145 36 22
286 40 287 140 35 26
315 431 108 147 0 35
308 88 303 120 45 55
412 698 181 65 42 41
282 58 272 116 42 38
384 870 278 35 31 34
287 58 271 112 29 28
343 856 136 105 90 83
277 53 276 121 26 37
276 53 281 114 68 53
276 58 286 109 64 54
246 753 170 166 113 81
353 628 180 73 34 30
280 58 274 112 82 58
320 500 318 96 30 42
268 37 296 173 124 125
328 713 131 67 47 37
276 583 267 152 12 47
331 828 156 45 40 40
459 702 218 88 67 61
434 732 278 165 112 79
269 37 292 176 124 120
273 38 300 138 103 89
292 68 271 108 33 28
286 784 154 172 119 82
277 34 292 138 46 37
322 653 266 144 20 49
274 48 291 127 36 52
383 627 305 197 142 118
320 405 290 78 69 57
275 43 298 110 85 59
387 433 266 75 21 30
317 669 158 61 40 42
277 43 301 112 88 62
396 673 171 73 46 34
275 49 297 119 38 49
350 668 123 77 53 42
400 547 208 37 35 42
397 663 181 64 48 39
282 34 296 121 39 43
287 39 291 131 42 37
329 422 160 62 30 33
317 743 241 70 58 52
445 724 269 165 114 81
282 203 291 95 74 49
288 36 301 112 55 58
343 503 341 106 43 46
279 33 304 111 30 45
277 318 201 83 73 63
333 803 142 71 58 52
282 34 305 111 39 49
282 38 306 126 94 87
286 35 305 112 51 56
282 43 305 107 85 62
286 43 308 90 66 49
322 393 106 85 31 38
312 822 181 64 56 56
286 48 308 104 49 45
274 51 289 123 14 45
266 388 339 124 95 62
274 708 244 164 17 54
278 63 291 104 16 38
280 55 297 134 105 79
232 533 257 83 28 36
356 660 158 88 49 38
285 55 303 113 47 42
334 475 164 76 19 30
281 58 296 116 82 63
262 453 97 72 35 39
283 57 300 119 61 56
299 646 259 52 27 30
293 46 280 127 41 25
354 410 294 74 2 24
289 863 242 186 133 114
287 93 303 110 92 75
296 45 287 125 45 33
459 678 211 88 72 58
384 472 298 107 17 29
319 900 299 42 40 41
301 49 286 115 58 45
357 483 165 139 0 31
295 50 272 131 30 30
276 128 280 78 67 53
380 502 334 55 27 28
180 539 241 178 119 94
297 63 270 111 28 27
329 493 150 114 0 32
220 634 209 162 109 74
336 391 179 110 23 22
301 58 272 103 28 30
270 117 297 89 37 39
299 51 279 118 63 43
222 553 186 173 3 43
301 54 276 113 70 48
377 678 149 59 48 38
301 50 282 117 63 46
303 51 285 113 67 51
306 54 282 114 79 60
307 53 286 112 70 56
306 59 277 109 85 61
454 774 210 65 51 45
415 513 226 91 21 37
308 57 280 115 87 66
307 63 275 105 75 54
322 501 319 59 25 27
270 484 277 178 2 55
305 64 273 103 37 40
312 68 305 115 50 54
311 59 281 115 90 71
309 56 284 113 79 62
313 57 286 113 82 67
312 93 271 95 80 62
458 682 210 88 71 55
292 39 296 113 54 51
289 41 289 133 40 32
334 479 353 39 24 27
297 44 291 117 47 40
335 679 141 63 51 43
297 43 296 107 49 44
302 44 301 93 43 38
274 269 323 133 96 67
262 373 181 94 81 68
235 703 206 181 122 97
312 618 169 125 9 30
292 48 311 111 22 42
298 42 306 86 43 35
364 510 354 183 121 94
302 44 306 85 41 29
284 436 348 84 58 47
302 48 310 110 36 46
291 55 308 117 59 56
297 63 307 113 35 48
298 642 259 60 27 33
301 60 308 115 84 68
327 593 287 163 19 53
454 815 250 101 79 64
307 48 306 105 41 45
306 49 292 107 53 47
261 367 184 94 82 70
305 50 288 110 61 50
386 742 147 66 51 45
308 51 290 108 59 51
267 673 191 50 41 39
309 51 294 105 49 47
312 52 296 105 48 47
316 54 296 105 52 50
327 803 216 178 127 105
313 52 301 104 47 45
317 58 291 115 83 68
319 61 290 123 102 80
317 63 301 121 21 45
247 693 224 188 134 112
282 178 286 96 78 58
307 53 309 92 36 41
323 863 156 84 73 68
282 168 285 96 79 59
312 53 306 108 38 46
352 381 211 81 37 39
304 61 309 107 71 57
309 59 308 116 15 44
315 58 304 84 33 36
282 442 351 148 20 50
431 383 211 74 22 32
443 748 185 51 43 39
278 68 277 103 40 38
278 73 277 104 48 48
413 849 201 77 62 57
286 118 275 95 80 63
276 73 286 97 17 36
289 684 249 135 11 42
275 78 286 99 18 35
422 398 241 114 11 38
283 68 273 102 31 24
287 898 246 147 117 96
457 773 260 62 46 35
282 78 275 107 89 69
287 78 272 100 30 26
310 77 304 120 27 47
287 83 272 100 40 36
260 302 318 112 76 50
267 388 146 94 80 66
279 83 277 104 45 40
473 685 258 93 75 58
365 634 183 52 38 38
407 423 179 139 11 29
278 88 277 103 30 37
295 328 217 109 89 67
277 377 176 96 81 67
274 85 283 103 59 48
286 154 280 85 63 46
337 743 247 78 62 56
274 88 286 108 88 66
425 817 196 63 51 47
274 91 286 115 94 71
377 668 127 78 56 42
275 90 284 110 90 70
275 93 286 116 95 73
262 228 289 90 75 58
281 83 275 108 67 47
284 84 273 115 27 31
281 88 275 107 21 27
322 528 146 102 27 38
404 528 262 116 16 40
295 500 308 83 15 29
283 88 273 112 22 29
285 95 274 105 91 80
322 777 230 48 39 39
278 68 291 97 13 33
276 78 291 98 62 52
298 377 222 71 62 54
296 440 346 76 52 35
282 68 296 99 18 36
467 729 200 84 62 50
282 73 296 103 84 65
388 534 194 72 22 35
285 68 298 99 20 37
287 68 300 102 16 37
287 73 300 96 31 40
427 763 281 189 137 108
281 78 297 105 85 66
472 753 246 90 65 51
283 78 299 103 54 45
275 82 292 99 23 38
311 390 136 59 32 32
275 88 292 96 46 48
377 668 142 64 52 41
342 379 191 123 43 27
297 820 176 68 53 50
375 486 173 152 10 35
274 95 294 101 15 39
353 566 305 83 24 34
401 508 276 56 25 34
281 83 298 97 50 44
384 823 227 97 74 56
283 83 300 100 13 37
251 523 252 111 20 42
280 87 298 98 21 37
273 123 282 87 43 36
197 533 224 75 40 35
367 823 126 49 42 40
281 713 165 59 32 33
264 356 321 102 82 59
272 128 282 78 56 39
420 474 221 146 13 39
306 657 164 77 26 29
388 413 261 138 6 43
275 98 281 107 43 44
276 103 280 95 52 43
278 103 278 104 76 57
267 444 337 144 19 49
357 633 272 166 15 51
364 775 154 68 54 49
275 96 286 112 94 74
360 507 168 121 30 40
273 103 286 103 29 35
278 108 278 110 82 62
278 113 278 114 30 33
283 482 320 155 13 52
312 919 205 77 71 71
276 113 280 105 28 32
270 285 199 102 80 54
284 108 273 107 18 29
337 898 180 80 71 70
448 808 236 87 67 56
321 63 296 114 40 48
286 110 274 108 82 61
232 553 180 65 34 40
279 116 278 109 23 33
278 128 277 85 59 40
282 128 275 95 32 30
410 693 181 63 43 40
263 308 263 108 73 55
387 662 181 69 48 43
408 498 253 61 17 27
288 123 273 99 30 33
215 644 221 197 140 113
291 504 292 121 25 45
270 113 291 91 56 44
375 489 352 111 80 62
347 658 271 156 12 49
282 658 175 103 25 34
307 623 271 84 33 41
273 108 296 96 71 56
422 728 170 61 48 43
411 488 249 145 2 43
269 119 292 94 79 60
281 422 92 138 22 40
270 117 291 103 88 72
416 794 262 123 85 65
374 495 354 182 124 101
422 753 146 84 64 53
269 119 296 91 44 41
334 673 274 93 24 39
273 113 300 94 42 40
296 930 266 68 62 61
361 493 168 139 6 33
462 868 291 70 58 47
268 128 291 103 64 48
377 856 256 36 33 31
269 128 296 103 82 60
269 122 299 101 59 52
262 218 288 91 76 60
272 123 301 95 65 51
270 128 298 102 83 64
260 359 334 115 90 61
276 98 297 93 51 44
376 460 375 67 30 24
393 578 216 47 30 35
273 103 291 94 35 40
276 103 297 102 86 69
359 398 291 78 13 23
278 98 299 91 35 39
282 98 301 93 38 39
399 657 205 37 31 35
286 98 303 102 81 63
283 112 303 97 63 51
377 788 160 63 53 52
287 108 304 107 22 42
275 128 303 96 80 62
404 538 211 167 18 44
429 721 179 65 51 40
278 114 304 88 47 40
351 842 153 58 50 50
274 122 304 96 44 43
262 513 260 152 12 46
332 384 206 86 59 45
444 721 268 163 114 78
277 128 306 94 69 54
287 118 305 93 64 51
281 128 308 100 38 44
292 73 270 95 35 27
341 498 361 123 93 80
297 68 270 77 51 35
347 453 161 43 39 43
359 940 262 56 51 49
276 452 103 78 27 35
292 78 270 102 32 29
297 88 270 92 37 27
292 93 271 96 35 28
449 726 204 90 68 51
302 83 270 85 38 23
430 402 195 92 20 31
337 487 341 51 21 27
462 753 258 68 52 38
302 88 270 65 40 24
298 308 236 116 92 66
199 522 197 47 36 40
308 67 274 99 69 44
307 78 272 61 41 25
321 507 138 60 28 31
355 724 277 176 18 57
315 68 278 105 88 71
316 73 278 102 86 70
319 67 284 120 94 75
384 493 327 158 9 49
259 280 254 96 76 53
318 78 280 100 83 66
272 423 341 141 104 81
316 132 294 114 26 44
307 83 272 78 40 26
302 503 132 124 19 40
307 93 270 78 40 26
346 456 363 63 24 29
316 83 277 100 86 72
390 890 107 94 87 81
317 88 276 99 85 71
315 94 273 97 82 67
262 543 257 152 14 48
291 68 303 106 18 39
292 73 303 99 31 40
280 248 315 129 97 65
353 732 270 72 57 54
295 75 303 111 93 71
307 578 285 58 29 35
346 523 331 148 97 86
266 364 330 112 89 60
370 528 178 138 3 33
293 68 304 106 10 37
157 518 236 213 142 121
293 72 304 106 19 42
302 68 307 113 28 45
302 73 306 116 15 42
332 931 284 82 78 77
289 94 304 106 89 71
277 688 176 81 30 36
317 449 376 93 25 33
302 88 304 123 14 45
313 78 302 117 30 47
314 68 303 117 23 47
317 68 301 85 34 38
302 708 152 115 17 28
395 650 203 78 36 38
252 788 201 187 135 106
316 73 300 64 47 37
319 68 298 82 42 38
250 790 198 190 135 107
318 73 298 77 33 34
274 455 104 120 38 52
307 73 306 116 39 49
311 73 304 116 18 44
307 78 305 117 14 44
312 83 302 110 71 62
312 88 302 113 46 52
362 428 175 78 33 33
374 924 262 52 47 45
307 93 303 113 44 51
292 303 210 90 78 66
395 639 250 30 30 32
357 753 140 67 52 44
316 83 300 112 15 41
318 83 298 113 18 43
319 88 297 75 42 37
375 497 339 155 16 52
306 87 304 118 45 54
292 918 281 51 48 48
292 108 271 91 72 57
292 113 271 99 62 51
392 398 177 90 21 31
258 597 240 121 20 44
297 108 269 96 35 35
243 567 240 166 16 52
342 464 390 97 26 38
273 474 109 152 13 42
296 113 269 106 28 39
402 383 179 144 13 24
355 835 254 131 98 73
323 456 345 135 18 50
302 98 269 70 37 26
301 102 269 85 37 32
453 768 206 59 47 41
238 518 166 153 0 36
327 393 161 91 27 30
320 63 299 118 30 44
303 104 268 86 31 32
307 463 117 68 30 35
187 538 225 161 114 87
277 223 296 99 77 48
299 109 268 96 34 31
345 505 373 198 139 121
404 385 178 149 6 38
389 601 274 85 68 46
332 489 323 32 28 29
298 113 268 95 32 35
391 448 265 54 22 29
302 108 267 88 38 30
307 438 327 110 87 63
300 106 269 97 34 31
302 113 267 76 55 37
290 98 274 107 24 31
388 744 150 59 47 40
380 473 322 137 7 41
290 101 274 106 26 29
277 573 146 143 14 39
277 408 336 123 95 62
342 951 236 66 63 63
282 293 202 90 75 59
292 118 270 101 31 33
296 118 269 100 39 39
292 128 272 87 45 37
312 778 149 77 60 52
297 128 271 101 28 36
299 118 268 104 27 39
382 667 161 82 47 37
302 118 267 94 48 39
299 121 268 94 38 33
307 698 257 111 23 44
347 473 395 133 11 45
300 124 269 95 76 61
300 128 269 87 63 49
322 448 361 73 34 32
307 98 269 73 44 28
428 383 226 158 14 45
307 100 268 63 41 29
312 103 267 94 77 60
312 908 186 85 76 73
291 134 274 106 28 32
310 100 268 98 82 65
307 108 266 84 37 27
235 694 212 187 127 102
302 936 240 62 59 59
432 788 272 173 117 91
293 323 242 125 94 72
372 679 280 96 15 35
311 112 264 83 29 30
314 621 274 154 27 57
435 690 269 140 101 64
338 829 136 76 65 60
313 101 269 99 84 68
343 786 229 185 130 112
295 343 221 106 86 64
318 110 263 80 45 20
276 148 286 102 82 60
415 856 213 74 61 58
319 97 274 98 85 72
390 754 153 64 51 46
265 653 194 45 39 39
380 453 173 58 27 34
382 774 252 68 57 52
308 118 262 96 28 33
312 118 261 93 32 27
306 118 264 85 54 30
260 293 339 136 98 70
341 381 197 112 50 29
392 598 241 95 25 37
304 124 263 99 28 30
308 128 262 101 23 31
312 123 261 104 30 29
292 494 125 170 1 36
287 888 261 175 135 112
312 128 260 106 27 30
317 733 145 93 41 33
436 687 188 66 45 40
305 121 264 94 35 26
402 428 178 136 8 33
292 608 166 88 23 34
306 129 264 99 19 31
317 128 260 116 22 34
302 442 346 67 46 30
303 108 303 107 47 51
327 683 270 56 26 30
302 113 302 117 89 71
377 723 282 63 28 33
276 441 98 116 34 45
292 98 305 117 29 48
287 493 122 138 12 37
297 98 304 117 19 44
297 103 304 103 66 58
292 108 304 106 75 61
287 368 191 101 87 74
292 113 304 113 17 41
300 98 304 113 28 45
419 692 215 67 37 34
249 766 204 179 131 103
274 505 119 49 36 38
301 103 304 101 29 39
301 108 304 107 21 41
296 394 315 118 94 66
322 118 292 104 58 54
300 112 304 108 47 50
408 744 136 67 53 46
423 433 236 115 10 38
371 454 356 99 8 32
375 856 139 79 68 59
266 193 290 95 81 67
302 118 301 102 80 60
371 879 115 102 88 75
372 381 241 72 18 30
399 646 226 39 33 32
302 123 303 102 34 41
277 585 154 66 27 33
304 128 303 114 23 46
282 388 327 118 93 65
402 743 275 179 129 105
327 938 216 86 82 84
240 743 186 172 116 89
292 118 305 103 22 39
292 123 306 92 58 46
292 128 307 98 78 59
297 128 306 104 56 52
307 103 301 118 12 42
323 398 106 116 17 37
228 533 178 83 23 34
307 108 300 120 81 70
251 608 186 50 33 36
400 498 271 64 28 35
306 113 299 128 106 84
311 107 299 113 39 49
278 482 315 182 16 58
280 218 319 126 99 69
309 110 298 125 103 86
308 113 298 114 88 71
284 704 163 112 16 28
382 375 196 88 47 44
319 466 334 166 6 50
312 113 297 119 32 49
317 98 297 115 51 55
314 100 298 122 104 86
322 887 293 164 130 108
314 103 298 117 54 58
254 748 163 144 103 67
502 889 252 118 95 77
342 643 272 74 28 36
317 108 297 120 15 45
307 118 300 101 46 46
312 118 297 106 28 42
313 123 297 111 50 54
382 379 236 45 24 27
310 123 299 117 36 49
307 563 152 163 0 34
346 381 202 110 43 26
271 658 222 55 23 30
302 442 341 83 63 43
243 758 196 177 125 96
266 633 186 121 17 38
310 126 299 99 24 35
238 668 197 130 96 59
312 128 297 106 27 42
292 673 167 66 33 37
317 118 295 109 20 42
318 128 293 106 63 56
320 60 292 123 103 82
290 537 138 86 29 35
390 654 293 190 136 112
320 59 296 111 63 55
392 653 295 193 138 112
321 63 291 126 106 84
442 803 258 49 38 33
375 492 352 146 98 78
316 386 202 76 66 57
330 527 157 89 34 39
320 59 299 113 33 49
321 68 286 128 105 82
320 73 283 114 88 70
427 398 211 125 16 41
177 527 255 191 133 114
321 73 286 129 106 82
283 193 317 124 97 65
373 667 143 66 53 41
320 78 282 119 91 71
293 372 195 102 88 74
224 562 188 44 31 37
322 88 281 113 96 79
321 83 282 114 92 73
277 248 306 122 92 59
322 83 286 125 106 87
458 748 204 89 67 51
320 90 278 98 83 68
320 93 278 104 88 74
387 798 241 41 34 34
323 93 281 114 97 80
468 743 227 76 56 41
324 93 286 122 104 85
325 95 283 119 102 83
321 68 296 117 31 44
153 516 237 219 143 124
322 73 291 122 91 69
453 818 251 97 75 60
320 66 299 119 18 43
321 78 295 115 17 43
352 433 167 59 34 36
323 88 291 109 36 40
321 88 295 92 36 40
321 104 272 96 79 57
277 555 139 64 31 31
322 110 263 91 57 34
299 372 206 76 67 59
322 113 261 88 34 24
275 253 325 131 101 68
327 109 261 103 74 50
322 108 266 96 67 47
331 473 156 99 10 32
351 823 131 108 87 69
323 107 271 99 76 54
265 282 308 112 80 51
327 109 266 106 73 54
424 685 193 70 39 41
332 103 261 103 59 46
358 493 391 93 47 46
383 558 301 90 68 49
299 296 231 109 88 66
335 102 258 107 57 45
452 723 256 97 71 48
260 381 274 88 62 49
336 103 261 111 53 44
333 104 264 104 54 45
335 104 264 110 50 40
332 108 266 110 54 45
392 783 165 77 60 56
330 110 270 101 71 47
333 113 271 103 51 37
368 638 184 42 37 37
193 573 231 185 129 103
334 113 266 122 23 39
358 433 316 63 27 33
321 98 277 105 90 77
323 98 280 115 94 76
323 103 276 99 86 71
324 102 279 112 89 74
371 393 281 123 13 41
325 104 277 104 89 76
293 390 117 76 48 45
324 97 287 108 74 56
244 714 178 126 94 59
306 644 263 54 29 33
373 472 387 118 98 79
354 466 164 125 16 27
325 98 286 110 88 70
326 103 286 107 70 57
366 642 269 51 23 29
330 110 276 100 85 63
332 113 281 102 43 39
329 112 288 115 33 46
342 398 266 66 24 29
312 148 291 133 14 49
331 113 286 112 32 43
326 118 258 115 24 30
320 123 259 109 31 31
322 128 259 122 18 38
384 479 365 150 109 90
323 126 258 116 22 30
383 888 108 92 84 77
387 380 256 42 18 23
326 123 258 124 29 38
287 138 275 88 61 43
386 428 266 114 11 35
327 128 260 122 26 39
328 463 156 99 13 28
291 278 240 118 94 67
295 171 299 126 97 68
332 118 261 136 25 39
436 818 221 73 62 57
406 468 250 124 7 37
376 380 183 47 41 44
444 802 224 69 54 51
331 123 262 129 25 39
389 887 114 90 83 77
333 123 266 122 25 40
334 123 271 117 30 43
472 698 236 146 114 79
305 658 258 148 12 46
429 806 249 43 32 26
333 128 266 120 34 44
302 815 169 83 65 59
334 128 271 125 32 47
334 118 276 107 22 38
333 118 281 115 33 44
273 268 326 134 99 69
331 118 286 122 29 46
328 488 141 125 2 30
401 523 276 156 15 47
333 123 281 127 30 50
374 495 391 175 118 103
328 128 287 137 15 52
457 748 257 63 46 33
467 713 221 148 103 59
406 493 192 38 35 38
338 767 239 59 48 47
417 679 227 98 50 40
412 518 216 164 18 48
321 98 295 117 20 42
323 103 291 80 44 39
258 199 324 104 87 70
325 104 289 101 42 47
323 108 292 98 26 37
326 108 290 98 32 40
253 803 181 209 145 118
363 573 320 189 133 111
371 808 234 157 121 95
327 113 290 112 30 44
320 119 294 114 10 42
327 118 290 117 26 46
327 578 294 177 14 55
280 198 319 124 98 67
267 673 220 43 26 28
322 123 293 107 21 38
357 947 236 82 77 79
322 128 292 112 36 48
445 803 226 69 55 51
327 123 290 128 23 49
372 863 265 49 40 35
307 398 301 108 88 65
326 128 290 137 16 52
317 517 305 151 29 54
329 116 288 122 25 50
377 738 150 56 46 42
302 471 329 157 8 49
440 768 183 57 45 41
262 578 261 145 17 48
374 426 283 79 11 33
329 123 288 132 28 51
267 528 126 173 2 34
271 133 286 107 61 51
281 354 192 94 82 70
278 133 277 96 33 34
408 548 256 170 13 49
276 134 280 97 36 35
273 132 282 96 35 34
279 138 278 96 29 29
278 142 282 102 68 52
277 263 191 111 84 55
275 139 284 106 75 53
297 318 236 116 88 64
276 143 285 105 82 58
274 142 288 111 89 65
395 587 236 82 30 37
282 138 276 89 53 39
362 938 261 57 53 52
281 144 280 100 55 47
267 583 161 66 31 36
279 147 283 99 78 54
480 687 265 81 64 46
277 153 286 98 80 60
277 158 286 99 81 61
262 398 342 130 98 67
282 148 281 93 68 47
284 146 278 103 28 41
297 603 165 152 2 34
335 403 177 117 16 20
412 853 297 56 49 45
285 149 279 100 58 55
357 838 121 95 77 68
282 153 282 91 71 47
283 157 283 93 75 53
393 493 296 65 23 32
472 727 220 95 73 51
281 158 284 97 79 59
269 131 288 104 69 50
269 133 291 109 86 62
270 134 290 110 88 63
341 415 289 62 25 27
387 838 225 28 26 26
270 132 298 108 90 71
393 811 174 68 58 61
297 388 306 111 90 66
272 133 301 107 90 72
269 138 292 109 89 66
326 528 302 70 29 35
269 143 293 108 89 69
267 816 191 213 147 119
268 143 296 109 90 70
