ply
format ascii 1.0
comment Created by Open3D
element vertex 2217
property double x
property double y
property double z
property uchar red
property uchar green
property uchar blue
end_header
339 756 205 48 39 41
293 545 350 66 42 32
222 465 227 64 32 30
251 49 222 97 52 42
235 419 250 95 79 61
339 530 219 130 14 30
251 65 209 117 31 28
190 430 281 117 8 32
218 485 360 116 23 42
196 665 352 161 116 90
238 141 270 107 89 71
443 488 254 68 33 34
178 510 311 95 22 38
219 618 353 119 93 66
391 710 222 142 97 62
248 32 262 109 33 40
357 140 272 123 96 64
253 185 284 111 89 65
242 100 227 130 11 42
361 885 252 81 68 64
301 929 254 97 86 87
267 392 264 82 68 53
190 435 239 122 9 39
326 810 207 55 50 49
251 63 210 109 32 20
413 467 260 75 6 22
315 15 292 166 105 109
245 409 241 78 65 52
263 288 289 82 67 52
172 500 252 138 13 41
250 409 237 79 67 54
401 532 282 104 15 32
231 434 343 98 28 34
287 310 352 115 84 59
257 64 211 114 30 29
187 534 247 155 12 44
235 425 247 88 74 59
222 205 267 110 90 68
256 819 268 83 63 55
374 850 223 66 57 54
456 505 257 50 28 33
220 235 282 112 90 66
385 584 262 102 25 37
325 968 316 70 66 65
428 452 255 122 0 35
329 968 302 79 70 74
264 135 252 128 96 68
266 15 262 95 82 69
289 860 281 160 109 80
347 460 312 148 107 82
251 45 237 104 60 44
385 422 236 96 4 31
377 80 232 97 37 33
198 477 335 133 11 42
221 625 322 89 33 42
379 710 262 140 16 44
180 460 287 54 32 34
253 246 245 140 108 71
321 566 362 139 30 42
220 200 252 118 96 71
289 852 276 185 129 97
270 75 222 141 20 46
240 59 227 85 42 34
276 957 332 66 60 59
356 55 281 120 56 58
352 635 297 140 21 48
211 650 321 125 84 60
369 44 275 104 89 72
346 931 352 59 52 51
358 538 273 66 46 33
230 630 276 184 12 49
346 450 232 78 56 56
248 119 234 132 98 61
383 735 279 69 32 41
256 340 317 91 66 45
219 774 295 157 106 77
244 114 241 108 87 65
294 894 252 47 45 46
265 316 306 63 53 42
468 850 269 86 68 51
236 265 298 107 85 61
243 466 350 96 44 40
202 600 297 86 27 38
288 291 318 104 85 65
193 693 314 144 107 73
430 550 351 177 10 55
280 855 344 150 54 80
237 145 247 106 89 71
257 250 288 89 73 56
183 445 292 118 4 34
186 525 232 166 7 45
296 420 333 135 95 80
353 474 256 102 67 49
278 12 305 131 85 69
235 645 282 147 4 40
453 557 278 68 30 28
324 305 351 128 94 63
255 47 228 110 78 56
470 491 246 120 11 38
429 452 255 122 0 36
329 780 210 69 56 50
199 409 282 115 92 67
239 726 336 106 69 56
251 75 209 130 26 38
301 540 381 56 16 31
241 435 222 72 59 50
255 628 361 182 117 97
336 420 332 145 103 77
345 240 327 124 98 66
264 145 253 120 93 66
286 465 313 98 62 47
282 65 273 115 72 65
237 65 227 109 35 40
246 830 297 73 58 57
352 539 284 63 46 34
206 695 351 170 117 91
238 62 228 96 39 36
212 410 322 126 99 71
268 861 308 148 114 86
240 184 240 129 99 61
332 245 339 118 94 67
242 95 222 138 9 42
252 46 233 106 60 48
302 414 207 162 11 34
411 546 327 125 7 41
341 630 312 70 28 37
188 713 326 179 124 101
411 725 192 67 52 37
254 320 315 88 66 45
283 385 336 127 92 74
251 410 232 77 67 57
312 876 213 97 78 65
238 62 224 93 42 34
355 210 297 125 98 67
404 847 247 63 53 50
236 65 232 108 36 40
344 132 295 110 90 68
328 105 267 117 29 39
335 669 230 92 24 33
232 175 243 122 96 64
255 38 246 115 93 64
238 80 235 112 22 40
291 540 327 86 65 48
291 515 403 167 18 55
319 348 355 145 103 75
253 20 282 104 21 40
338 449 232 82 59 60
243 105 261 112 91 69
227 799 292 171 116 83
342 770 192 54 46 42
220 669 352 164 108 85
456 555 317 89 9 27
251 185 241 127 99 64
420 875 267 72 60 54
187 530 242 159 8 43
337 886 211 77 72 73
331 480 316 129 89 70
313 202 306 108 87 65
361 850 281 29 27 27
217 335 296 125 98 68
240 60 237 96 40 39
270 530 349 133 0 41
291 921 246 84 74 70
301 510 201 49 36 40
239 65 238 99 63 54
243 468 351 97 48 41
401 524 242 163 24 50
449 598 294 63 43 39
199 692 349 172 117 94
236 305 253 121 92 59
330 165 276 125 93 54
246 170 239 133 102 65
286 12 264 129 70 57
256 245 246 135 104 69
386 730 152 77 60 49
279 70 244 116 89 73
176 475 282 94 24 35
278 70 242 130 56 53
209 364 276 115 92 66
229 184 245 121 96 67
253 16 281 91 38 41
246 320 314 111 80 59
354 923 352 59 52 53
218 661 325 144 96 80
264 195 249 123 98 69
214 454 339 126 9 39
176 525 282 101 30 40
296 953 356 60 55 53
305 670 340 164 8 52
235 140 257 108 90 72
216 555 223 63 33 38
270 355 311 67 55 42
219 468 230 75 33 25
364 31 259 118 99 80
406 610 252 169 112 98
317 185 292 105 86 65
415 481 254 41 32 32
264 94 224 129 20 38
191 725 332 181 124 99
256 43 236 118 88 61
286 530 346 97 52 48
250 420 197 62 33 34
307 256 341 110 90 70
237 410 250 94 77 59
387 569 392 104 16 39
430 437 241 96 10 32
248 47 242 95 37 42
316 760 328 86 67 56
224 209 274 108 88 66
266 225 262 114 90 63
406 848 193 92 80 73
322 938 264 82 74 76
416 760 202 81 63 46
391 875 354 77 62 50
255 413 221 79 67 55
310 259 344 107 88 68
328 927 369 46 41 39
243 438 344 112 81 60
185 465 267 62 29 33
262 200 277 101 82 60
196 575 272 103 33 42
381 480 250 78 17 31
261 515 199 139 3 29
284 73 262 119 86 66
299 432 329 129 92 75
240 75 242 96 61 54
256 430 188 122 14 33
246 255 243 141 107 69
247 46 247 98 18 42
479 897 216 99 84 69
277 360 317 93 70 52
353 215 308 120 95 67
511 894 227 111 88 71
248 386 260 98 83 68
273 486 313 140 88 77
420 867 267 72 59 59
321 720 341 169 8 54
279 370 333 124 91 71
202 400 292 122 97 69
287 306 314 110 91 70
193 735 322 181 123 99
247 66 209 114 35 31
510 565 262 148 112 93
278 509 400 70 21 33
231 415 248 93 77 59
246 446 352 92 24 33
438 557 344 185 6 60
340 380 307 116 94 69
187 435 220 83 31 33
178 484 224 73 33 38
250 170 239 136 105 66
206 445 232 112 12 26
269 858 317 162 120 93
420 744 192 85 65 47
372 533 295 64 37 34
247 45 252 107 30 41
246 480 382 96 20 36
356 650 292 140 15 45
311 365 277 99 85 71
173 479 229 54 34 32
274 51 238 89 38 28
263 168 255 109 87 62
191 530 223 119 18 35
475 496 244 93 19 33
411 881 332 70 58 52
324 335 350 138 102 70
205 765 312 170 114 86
252 20 267 102 36 44
230 385 328 121 95 68
334 392 279 106 88 67
391 615 246 135 86 78
221 395 253 116 92 63
244 73 254 93 28 31
301 962 333 69 64 63
356 120 282 121 97 69
363 664 251 45 30 31
247 40 257 100 47 43
261 185 246 130 103 72
213 330 282 120 93 63
273 847 318 139 106 82
275 365 297 78 63 50
355 69 236 118 101 84
332 105 259 124 41 38
248 41 253 100 45 46
491 555 270 125 10 39
291 20 263 124 26 32
376 695 236 129 78 64
210 445 234 101 20 28
276 511 377 48 26 30
272 385 287 74 59 45
231 355 317 110 89 65
246 45 257 105 56 49
496 904 161 84 84 84
390 710 212 124 86 55
306 284 358 106 86 66
249 418 222 77 66 59
333 830 294 147 117 93
349 260 317 133 98 68
189 449 309 103 13 33
251 40 247 102 54 43
304 563 368 35 25 29
395 499 243 86 20 31
329 270 345 125 96 62
395 883 323 60 50 50
236 435 232 67 57 49
376 705 312 155 10 48
440 839 291 76 55 51
201 540 333 169 11 52
310 215 312 110 90 68
364 589 239 39 30 33
354 225 307 124 98 66
224 184 250 112 92 70
331 155 272 121 93 59
301 500 303 134 23 55
360 475 233 70 32 36
324 168 299 105 85 62
328 290 349 133 101 68
256 36 248 117 101 84
269 326 278 75 63 51
341 505 216 73 31 35
362 561 329 123 14 40
354 215 302 123 97 67
345 415 287 116 93 67
270 470 322 133 92 72
257 21 258 107 93 81
210 795 332 196 134 105
275 95 267 118 35 50
246 270 298 85 69 51
250 35 256 87 39 31
278 568 214 184 4 44
252 35 252 94 61 47
300 396 243 105 88 71
247 420 222 78 65 58
354 210 288 138 104 65
311 490 312 116 73 60
281 490 302 138 34 50
241 95 232 130 23 48
221 440 241 54 35 34
250 39 252 92 36 41
226 385 326 120 95 69
296 885 267 60 54 52
391 834 248 41 34 30
357 18 276 97 60 54
388 848 259 41 36 33
226 345 258 119 94 65
286 619 343 37 25 30
273 81 236 133 36 46
255 34 251 114 99 82
311 584 219 103 25 37
350 569 229 128 8 30
186 650 337 127 95 68
400 809 168 98 81 67
420 461 256 121 14 34
331 90 282 99 25 40
217 455 237 84 28 28
271 614 346 78 28 35
291 875 358 145 107 87
289 49 276 114 13 42
287 335 356 135 98 77
300 415 203 157 1 36
231 235 241 129 98 59
279 350 333 121 90 69
378 727 159 62 51 40
461 860 282 88 72 61
275 395 262 77 64 54
206 545 336 153 13 47
301 355 357 158 111 92
246 235 241 135 104 67
253 32 254 98 81 66
325 563 358 129 27 43
188 452 310 125 4 35
246 265 246 142 105 70
213 453 235 99 23 22
238 70 218 121 28 43
195 545 237 146 13 45
245 225 239 134 103 66
365 670 257 53 31 36
253 37 249 110 77 58
349 220 315 118 94 66
183 510 321 75 32 36
347 265 322 133 99 67
338 365 327 125 99 67
329 107 274 116 88 65
361 750 182 54 45 40
266 85 222 150 13 44
250 44 242 101 54 42
249 44 246 96 26 38
197 495 341 162 12 49
271 873 353 116 87 69
191 435 277 116 6 31
264 265 263 116 92 65
246 215 239 132 103 67
256 75 209 141 6 32
327 105 272 114 48 49
269 310 272 98 81 63
252 41 243 108 71 44
400 810 232 101 60 48
265 440 321 125 86 64
400 634 222 176 116 88
226 450 343 88 21 35
313 871 222 51 48 48
242 56 227 74 52 33
180 490 312 91 25 37
402 795 183 81 64 55
261 940 322 81 73 70
241 165 239 128 99 63
398 724 153 79 56 44
241 264 244 140 102 67
241 290 307 97 78 57
273 70 226 119 32 36
234 699 302 104 12 34
372 906 317 64 56 54
252 440 189 137 1 30
241 185 286 111 92 72
400 846 202 83 68 53
288 315 357 127 91 67
246 195 289 113 92 71
399 803 250 160 110 87
240 480 378 96 16 36
276 511 358 87 29 40
386 491 248 88 16 30
411 594 292 104 8 32
185 555 287 159 12 45
245 65 252 107 24 40
242 56 232 80 40 31
425 586 305 44 23 26
192 540 237 170 8 49
178 487 257 76 27 34
337 445 237 78 44 46
222 498 350 163 11 52
321 550 387 74 14 26
223 232 285 112 92 70
227 356 315 110 89 66
247 51 227 79 64 57
199 430 248 116 20 36
247 51 232 90 74 70
344 12 284 107 57 64
212 605 327 170 13 53
249 418 209 71 25 27
283 34 255 80 43 28
211 549 219 101 30 41
204 399 298 121 95 68
266 405 197 97 48 37
348 450 314 147 107 79
351 140 262 149 102 73
176 450 222 135 2 33
280 515 377 100 22 40
222 565 345 57 24 31
219 379 319 120 95 68
260 255 252 129 101 69
251 260 246 140 106 71
356 170 292 122 96 65
383 729 267 94 28 41
257 290 255 125 98 69
306 937 260 95 87 87
227 170 252 113 94 73
204 561 329 160 10 49
276 760 241 74 57 51
244 54 227 70 61 50
252 126 275 111 91 68
332 186 274 133 99 60
210 775 344 177 124 95
326 405 341 147 102 77
244 86 215 144 19 46
332 80 281 103 85 64
244 53 232 73 66 57
272 360 277 82 66 51
439 550 345 157 14 48
361 900 366 52 43 38
269 947 295 71 67 69
242 55 242 92 29 38
455 574 265 105 80 45
194 434 313 66 30 34
496 590 253 189 125 109
195 649 348 133 99 70
241 363 324 121 94 66
196 720 343 171 118 93
330 80 261 124 60 51
217 770 298 146 100 71
318 12 292 146 75 81
264 74 214 143 13 41
499 590 280 141 9 46
280 352 289 85 68 53
361 539 338 65 40 33
346 430 222 74 35 33
232 190 281 110 91 70
342 670 212 129 92 74
434 507 249 74 30 25
229 478 205 76 34 34
351 19 267 100 87 78
312 589 406 184 122 106
244 55 252 108 44 46
336 120 291 106 87 66
206 428 240 72 47 37
245 135 274 105 87 69
416 575 306 81 23 36
220 670 328 141 97 80
246 50 237 80 50 42
282 850 292 182 126 97
251 552 210 59 34 37
241 315 311 116 86 62
240 120 252 106 88 69
313 627 334 100 32 41
350 547 355 79 18 22
251 465 191 59 38 40
330 202 325 113 94 74
496 570 251 155 106 83
208 416 320 120 96 70
244 53 237 66 36 31
243 116 243 103 84 63
346 775 177 61 49 43
351 790 168 71 57 50
301 550 347 66 41 34
351 205 282 138 102 64
251 49 227 99 63 50
198 584 278 58 33 36
272 390 302 87 71 64
215 495 217 80 24 29
239 134 268 105 87 69
280 506 363 95 31 42
340 451 232 80 60 60
386 601 232 102 80 58
393 642 223 177 118 90
340 884 212 74 70 72
223 352 310 111 89 64
315 215 322 109 90 70
288 322 304 88 73 58
209 469 339 129 8 39
326 391 272 111 92 70
233 222 239 129 99 62
315 401 248 129 63 38
195 515 333 62 31 35
290 315 362 136 99 77
297 494 397 79 20 29
351 555 362 81 19 26
250 48 232 99 66 57
231 770 277 59 49 48
314 200 286 117 94 68
336 760 206 62 52 48
321 325 303 102 85 68
219 394 324 121 95 68
266 45 237 116 100 83
218 270 285 120 91 65
326 170 278 119 91 57
250 274 249 143 106 72
321 942 363 57 51 48
213 235 262 117 93 66
249 48 236 95 57 48
264 507 354 109 28 41
229 507 349 141 18 47
243 431 207 86 23 30
388 557 260 66 24 31
205 440 328 108 14 35
286 391 252 91 77 62
216 235 272 114 92 67
233 150 257 109 91 72
331 426 236 76 32 33
256 559 214 72 33 36
325 914 248 73 67 67
191 475 327 62 27 33
356 50 282 121 94 75
246 176 285 112 91 69
243 55 247 99 33 38
371 415 230 85 13 28
233 371 325 119 95 67
474 853 276 88 67 53
216 680 348 151 100 78
251 549 209 55 36 39
241 120 247 103 85 67
329 23 260 97 40 34
251 270 297 78 64 49
324 325 351 142 102 73
293 286 346 111 90 66
230 608 347 83 65 47
397 845 248 58 49 40
379 89 251 132 27 53
250 191 239 116 93 65
286 540 362 79 4 29
247 346 320 122 90 64
211 424 247 90 77 63
217 275 258 132 96 62
321 535 327 73 56 45
259 195 244 121 96 66
321 15 298 146 82 78
269 815 260 79 61 54
251 410 332 128 93 65
262 514 324 153 20 63
187 705 332 180 124 99
271 15 302 140 103 96
381 523 243 71 13 20
301 860 266 136 102 75
466 551 276 119 6 35
244 53 243 92 32 41
261 24 256 104 89 75
340 95 251 112 47 42
422 737 195 113 88 68
359 536 263 68 42 32
223 200 267 110 90 69
353 141 265 141 102 71
321 525 209 49 36 40
220 621 282 67 29 39
243 56 250 118 25 42
243 145 239 126 98 64
308 426 210 75 38 43
328 577 375 69 18 33
344 127 257 124 86 58
346 610 237 45 31 37
281 565 212 180 1 38
216 545 218 94 32 40
246 430 202 97 19 31
172 495 272 136 8 38
237 75 227 131 13 45
246 50 257 113 44 51
236 268 244 140 101 67
247 181 240 132 101 64
341 663 230 51 35 38
251 538 204 77 32 34
240 515 200 121 18 36
328 85 267 116 28 41
256 111 232 142 97 72
354 675 229 96 73 63
202 516 224 46 33 33
227 210 282 111 91 69
248 426 199 98 16 31
208 780 341 184 126 97
416 750 182 84 60 49
280 355 337 128 93 73
246 55 257 112 86 73
182 665 323 159 111 83
241 60 242 106 48 48
386 590 316 65 27 34
274 925 266 73 65 65
214 340 289 122 95 66
264 235 257 120 94 64
242 60 247 107 35 45
258 97 220 146 11 41
230 505 206 98 22 33
230 642 324 141 75 71
331 29 287 138 65 65
225 275 251 130 97 61
258 285 255 127 100 69
440 486 255 95 26 31
312 200 297 107 88 66
260 155 247 117 93 64
214 282 274 130 97 67
229 164 251 111 93 74
231 480 203 60 37 39
244 424 226 75 64 55
304 235 295 120 94 63
256 490 337 135 93 77
241 65 242 107 71 63
236 180 240 130 99 61
199 459 329 129 6 39
276 599 375 188 131 111
264 935 286 74 69 69
231 305 253 126 97 65
243 65 247 102 59 56
355 445 287 131 102 70
376 498 250 117 12 39
383 657 212 154 101 73
325 734 335 33 28 31
243 60 250 117 17 41
356 865 302 31 29 28
241 160 239 127 99 63
281 510 402 38 27 29
339 953 284 83 76 76
288 300 347 115 90 63
244 107 237 125 53 58
321 463 325 116 80 57
229 224 289 111 91 71
286 435 201 154 0 35
272 400 312 95 68 58
366 650 191 133 95 57
239 194 240 124 98 66
301 404 232 122 56 36
307 431 210 64 35 38
243 65 250 110 15 38
334 738 210 37 36 42
448 857 282 92 77 67
340 14 300 137 44 64
436 445 242 124 18 40
257 411 222 82 69 58
352 620 298 146 30 55
244 60 253 116 15 40
183 476 315 109 15 35
341 850 202 94 75 63
269 814 335 158 126 99
358 465 287 134 98 70
233 324 254 127 96 64
426 835 318 61 49 37
381 532 327 62 45 36
246 60 257 108 19 40
244 64 249 106 28 39
261 399 247 94 78 60
266 365 317 70 51 33
238 75 222 134 11 45
247 65 257 103 76 61
221 579 238 205 11 46
238 66 219 104 40 42
207 445 331 127 10 39
276 871 351 131 98 81
252 519 350 119 9 38
255 255 291 86 71 53
250 55 262 108 20 39
282 710 234 80 26 33
254 240 290 88 72 54
183 519 242 149 14 45
251 140 277 112 91 69
281 350 342 132 97 75
240 70 216 118 29 41
280 541 337 85 57 43
223 476 213 84 25 26
410 830 232 67 55 51
239 562 220 128 13 40
262 265 282 93 76 56
251 310 312 87 69 48
229 458 216 50 34 26
362 606 245 76 30 35
345 259 297 155 108 75
179 465 282 45 33 35
241 170 239 130 99 62
238 170 239 127 98 61
472 514 253 107 16 32
286 629 346 95 29 41
221 295 292 117 93 68
173 472 230 98 15 29
506 575 251 127 97 72
286 360 347 139 102 82
213 466 235 101 20 26
212 255 262 126 97 62
255 114 234 147 100 72
237 70 222 125 26 45
235 596 245 202 14 53
260 350 316 76 54 34
242 310 311 107 83 56
239 656 280 140 3 40
246 90 216 138 23 43
370 443 224 160 32 42
174 494 252 47 30 33
248 70 261 102 80 66
180 465 302 129 0 39
341 135 262 127 94 57
240 75 216 131 10 40
412 842 299 72 62 61
238 75 219 134 8 43
339 121 257 131 84 60
231 535 213 154 5 35
218 255 253 128 95 59
318 602 334 140 16 46
301 880 362 177 130 108
206 715 312 128 96 64
193 670 350 161 115 89
273 381 302 75 66 61
260 180 277 108 85 62
237 425 242 83 71 58
361 800 173 83 63 50
260 500 357 137 31 48
335 310 322 109 86 60
292 360 283 87 74 60
231 210 286 110 90 69
215 250 256 124 95 59
240 80 217 139 5 44
332 400 271 95 81 66
461 849 286 83 66 54
177 480 223 73 34 36
446 592 286 75 21 34
256 16 267 96 62 57
338 796 299 161 111 90
246 110 232 134 58 57
311 365 354 157 107 86
238 78 219 137 1 43
335 475 218 153 8 36
210 538 214 179 4 38
332 547 350 92 3 32
240 160 278 108 90 72
316 570 343 44 26 29
325 330 303 105 88 70
352 665 226 122 100 88
249 434 195 116 10 36
337 475 220 143 10 32
238 80 222 138 8 46
230 160 252 111 94 76
281 402 202 165 38 20
306 854 344 144 117 87
218 689 320 113 72 55
446 491 255 48 31 31
256 105 222 140 18 38
406 574 397 161 23 50
256 235 287 92 75 56
438 556 324 119 19 41
232 155 252 110 93 76
334 232 335 118 94 68
284 73 254 141 26 45
286 576 349 79 19 33
301 440 328 102 74 55
466 861 252 88 76 67
246 190 239 120 95 66
333 567 370 149 23 54
216 427 244 85 72 59
399 750 217 115 81 48
441 490 265 119 2 36
271 420 187 96 33 41
201 640 328 99 81 61
342 410 282 114 93 69
471 539 254 45 35 35
365 869 317 48 43 39
261 450 327 129 90 67
182 427 235 133 11 40
237 665 297 119 10 40
256 15 272 95 51 49
196 695 314 137 103 68
192 545 247 96 21 39
239 81 221 140 7 46
256 85 213 148 7 39
326 855 207 68 58 55
227 366 320 116 93 68
346 20 297 115 57 60
235 210 289 109 89 68
289 32 259 110 46 31
272 65 227 107 48 42
223 200 249 116 93 67
491 535 252 134 21 39
453 518 270 93 3 32
358 735 199 138 105 76
240 85 222 137 7 46
276 485 373 97 11 36
483 884 228 107 89 74
368 107 230 166 22 53
288 635 239 68 33 36
186 460 219 114 19 30
208 609 306 107 34 43
241 275 247 145 105 72
273 906 355 162 131 111
375 100 252 132 17 49
290 570 354 111 22 40
212 345 287 120 93 65
240 90 237 113 38 47
331 565 218 148 5 36
393 820 203 88 70 57
173 490 237 80 29 37
373 107 237 164 17 58
291 840 261 178 123 97
316 565 214 125 18 34
306 650 234 99 21 30
242 70 212 119 26 33
336 20 296 131 95 76
396 481 256 80 18 29
399 612 249 149 101 89
244 70 210 124 29 30
489 536 265 140 10 45
250 180 285 113 91 67
406 595 313 94 22 37
371 864 322 34 32 32
251 75 267 116 23 43
365 80 267 114 78 68
439 854 310 59 48 35
330 280 346 127 98 64
291 966 312 71 66 66
256 185 243 130 101 67
216 320 292 125 97 70
242 75 213 125 14 35
220 700 319 113 77 55
231 400 251 107 87 65
201 490 222 56 35 34
229 592 245 170 11 46
501 595 262 164 108 105
208 422 252 93 79 66
271 515 200 123 11 30
243 93 219 141 14 46
291 839 327 85 68 49
193 457 252 63 28 33
179 428 225 129 17 36
239 80 242 116 21 41
245 75 211 128 27 38
241 200 239 120 95 67
400 532 268 107 20 30
213 412 325 124 98 70
359 129 268 122 88 62
255 380 263 94 79 63
306 402 204 186 11 22
252 604 243 67 30 35
247 75 209 127 39 47
246 80 211 138 22 44
371 805 178 102 76 54
429 878 290 77 65 58
262 486 195 52 36 39
366 550 228 73 28 35
196 525 222 61 30 32
371 503 243 101 23 35
175 480 287 108 13 34
451 560 336 179 5 57
273 375 312 83 65 56
251 70 208 126 28 33
372 586 296 105 32 45
234 646 286 144 2 39
227 310 254 133 100 66
184 670 320 154 110 83
378 693 234 137 86 67
243 456 194 44 37 38
361 916 357 66 59 56
381 895 352 65 55 48
245 602 245 98 41 49
240 670 324 73 19 27
255 66 209 115 27 24
272 345 277 75 65 55
330 105 282 107 86 64
399 548 322 121 6 37
293 853 269 180 128 98
234 300 304 126 90 66
275 780 340 48 41 41
220 620 322 93 26 41
367 760 293 94 73 65
214 570 339 88 21 37
257 155 242 124 96 63
196 660 316 121 89 58
251 79 209 140 26 45
223 381 254 118 94 65
381 465 248 130 13 32
356 24 262 115 98 81
257 140 241 125 96 60
252 407 234 81 70 59
222 690 343 134 89 66
217 310 263 136 98 68
315 875 351 149 114 91
336 445 326 143 101 76
232 160 267 109 90 70
446 552 307 70 15 27
241 115 257 111 92 73
251 567 353 107 1 33
218 789 303 175 117 87
248 618 254 97 28 34
341 821 191 64 53 46
248 36 258 109 35 42
306 970 297 68 65 66
306 580 343 126 21 47
232 616 365 132 100 71
260 280 257 124 97 68
359 533 309 61 44 32
292 794 239 78 61 54
310 795 226 81 63 54
294 22 264 127 29 31
247 680 262 122 18 40
224 215 278 109 89 67
229 304 299 117 89 63
243 406 248 93 78 63
352 105 237 145 15 44
283 344 350 136 98 77
251 81 210 145 20 43
270 450 316 126 88 65
334 779 310 76 57 51
216 480 222 70 31 29
281 790 334 91 73 61
255 205 286 106 85 61
253 330 255 111 88 66
266 505 363 131 20 47
210 440 333 89 21 36
332 429 237 72 32 33
219 621 318 50 32 37
261 440 327 127 88 64
198 431 316 76 30 36
276 403 207 149 46 36
256 80 211 151 9 41
251 325 315 96 72 51
272 355 282 76 64 52
237 210 291 112 91 70
276 549 371 138 14 46
242 85 217 141 8 46
264 230 275 97 79 58
241 100 252 117 34 46
293 42 273 124 54 53
238 421 244 89 75 59
243 84 214 143 14 42
328 12 272 116 54 51
448 578 294 16 27 26
307 220 297 106 87 68
236 430 242 80 68 56
251 115 272 110 90 71
431 555 347 182 12 56
369 600 249 83 22 33
268 650 340 166 20 52
356 471 247 89 26 31
231 255 296 112 89 65
326 405 257 91 65 54
256 155 277 111 88 63
450 456 241 83 22 31
221 195 252 117 95 72
336 370 302 121 96 67
316 395 345 153 107 83
256 435 188 139 7 32
333 766 314 81 61 52
252 200 240 127 99 66
266 485 367 118 12 41
241 380 329 124 96 67
309 209 297 108 89 68
193 660 350 154 109 84
386 554 353 89 16 31
233 588 239 177 6 46
340 400 331 146 108 80
206 500 223 66 33 37
416 863 272 74 59 62
247 89 214 152 20 44
311 335 361 143 97 72
251 370 257 92 79 65
270 415 316 83 53 42
199 439 252 119 6 36
258 652 254 131 0 29
240 272 300 99 79 56
336 510 213 116 14 30
251 95 218 142 51 55
400 840 196 86 70 55
262 91 221 135 11 36
244 770 265 70 56 50
201 400 282 123 97 68
393 790 190 91 68 52
251 490 193 90 30 40
237 155 276 107 89 71
356 895 256 82 70 66
183 471 240 82 22 33
363 843 269 30 29 29
435 548 336 112 18 35
291 905 364 125 107 98
241 520 349 126 15 42
316 190 297 104 85 63
256 19 261 101 79 68
237 339 254 125 97 65
242 89 218 138 8 41
326 625 235 108 30 41
216 700 351 162 110 82
235 470 202 53 38 39
282 395 331 128 89 73
356 860 287 29 27 26
249 33 260 75 18 24
244 79 259 102 33 40
204 418 265 105 85 63
406 556 386 126 10 42
362 650 272 82 27 37
230 409 250 100 81 61
306 525 203 58 38 41
238 130 252 107 90 73
202 445 230 113 15 26
238 628 269 173 5 44
222 500 209 111 19 31
241 90 222 133 6 40
273 96 268 119 84 67
321 415 213 75 35 38
331 11 292 143 43 72
218 623 311 58 31 35
244 96 220 133 24 43
262 225 278 96 78 58
358 625 251 107 11 37
470 885 241 100 84 71
360 407 227 100 25 36
241 110 252 112 91 68
471 520 271 127 0 41
304 509 405 173 17 57
316 973 307 59 56 55
411 511 238 151 17 32
251 85 212 151 16 46
251 89 214 156 16 49
303 232 311 110 89 67
222 220 277 110 89 67
388 552 256 42 28 28
492 540 262 112 15 36
336 105 256 111 73 50
215 310 287 123 97 69
251 91 215 154 20 47
210 405 261 108 88 65
247 608 249 123 20 36
316 430 336 150 107 85
384 603 232 100 77 56
251 200 287 109 88 65
355 939 287 72 65 66
246 510 353 149 7 46
263 754 244 133 27 44
240 179 284 112 93 73
410 737 149 110 66 48
209 776 310 174 116 86
201 545 222 86 29 39
220 215 251 115 91 64
380 745 287 93 66 63
399 840 218 73 60 56
219 473 225 73 29 25
368 80 264 127 31 51
238 833 327 189 122 96
429 879 288 76 64 57
255 89 214 148 9 39
405 597 315 95 23 38
458 867 254 91 77 66
530 884 203 119 97 77
253 552 346 33 27 29
256 90 217 150 11 42
264 255 280 97 78 58
332 414 256 64 49 45
173 490 233 97 35 42
271 34 250 80 60 42
280 780 246 77 60 51
240 90 232 125 18 43
217 460 236 83 31 27
324 588 374 159 98 91
404 785 246 149 112 80
228 823 314 207 137 107
320 804 306 153 102 84
274 398 267 74 62 51
256 95 219 149 14 41
291 765 338 85 68 58
317 19 287 153 97 86
196 570 267 76 35 40
342 184 314 115 94 71
227 275 248 133 98 63
426 735 167 91 70 52
238 833 318 202 134 103
276 390 277 70 59 49
231 165 247 108 89 69
233 701 298 98 13 34
270 320 292 68 57 45
244 453 195 60 41 34
236 350 316 109 87 63
441 470 263 105 3 32
299 29 277 135 34 51
264 344 264 86 73 60
448 553 304 69 14 27
246 375 255 95 80 64
272 510 392 94 23 37
377 538 255 86 25 36
386 536 335 65 49 39
351 255 312 135 100 68
301 386 258 105 90 73
236 70 227 125 23 45
244 633 365 181 120 94
455 496 266 122 2 38
241 305 308 117 88 62
248 420 203 79 24 34
178 462 289 32 34 37
223 603 340 33 29 29
357 42 284 119 16 40
321 235 283 135 100 63
236 70 232 117 24 41
248 240 294 102 82 60
506 580 271 85 39 40
319 793 315 142 104 83
444 587 300 98 27 40
251 130 276 111 90 68
258 890 317 182 130 110
205 510 225 70 32 33
213 345 273 113 91 65
331 40 258 118 38 37
202 435 231 93 30 29
426 855 283 69 57 51
237 70 237 109 27 41
430 480 270 137 133 134
301 25 277 139 29 49
265 500 387 75 25 34
366 445 232 121 9 36
239 70 238 108 29 42
362 610 282 184 9 58
386 453 239 100 26 43
460 505 256 76 23 32
245 85 262 99 72 58
428 566 329 149 30 51
358 517 248 86 45 37
287 25 260 93 42 34
192 460 252 54 28 30
237 75 232 125 17 42
426 471 270 142 125 119
189 454 313 124 2 36
272 340 287 73 63 53
331 300 312 115 91 65
395 841 202 102 85 75
226 250 291 113 91 66
229 179 245 116 93 66
228 376 254 117 93 65
396 602 305 48 30 32
216 620 342 102 78 52
203 410 269 111 88 63
331 538 338 66 52 40
397 864 252 63 54 49
255 215 286 104 83 60
186 545 262 168 6 45
238 80 227 133 8 45
427 444 243 120 16 37
313 231 331 110 91 70
375 739 159 57 46 42
291 835 307 152 108 87
254 155 239 131 100 62
282 502 199 44 36 39
238 80 232 123 14 42
216 265 257 133 97 62
356 40 253 108 92 76
245 120 268 106 89 73
238 74 235 106 33 42
290 715 230 62 33 37
331 12 287 136 50 71
221 530 214 170 0 35
331 274 298 132 94 64
179 455 234 83 20 34
403 822 193 94 77 66
221 215 272 108 88 66
238 127 257 108 90 71
344 392 320 130 101 67
285 386 338 128 94 76
230 475 206 56 35 38
240 75 237 99 68 60
504 548 254 146 104 89
191 450 267 102 13 30
456 850 292 91 73 60
343 690 217 73 52 43
296 961 291 77 75 78
275 424 189 69 31 37
343 203 319 120 96 68
222 225 248 121 94 60
386 705 197 81 59 50
256 135 276 114 91 65
418 747 188 71 52 37
236 655 312 67 28 35
359 485 277 129 93 68
243 104 228 127 14 40
251 475 192 66 35 38
325 50 272 106 64 55
424 590 269 114 79 72
208 365 277 117 93 66
325 409 340 148 102 80
373 709 243 68 37 37
311 250 341 110 91 70
239 80 237 113 25 42
179 431 234 130 10 42
269 448 194 151 1 33
248 85 265 105 89 72
415 765 202 82 62 47
336 125 266 126 93 59
243 108 231 138 13 44
331 75 258 121 34 37
311 555 363 74 18 30
326 945 268 82 75 76
226 265 247 130 97 60
323 39 271 107 12 35
331 930 366 50 45 44
291 15 307 146 70 77
228 171 249 110 91 70
302 403 236 124 61 36
264 285 272 101 82 61
240 70 242 108 26 41
181 430 221 113 31 31
256 831 327 180 126 102
218 296 290 118 93 66
466 505 252 75 28 29
240 80 247 104 33 43
348 105 244 118 50 40
191 465 322 94 17 35
213 240 259 124 98 66
361 867 310 32 29 30
243 95 242 107 76 60
361 705 192 132 96 62
353 617 299 48 33 35
237 619 263 180 10 48
311 380 266 105 89 72
349 97 285 104 27 39
236 235 295 111 90 67
349 463 310 146 106 80
238 83 227 133 6 45
345 395 312 124 98 67
221 290 257 128 96 60
336 830 197 80 61 52
346 125 291 112 91 69
260 235 248 131 102 67
407 827 235 78 66 55
348 164 304 115 92 66
235 290 303 110 88 62
426 600 242 132 97 60
450 591 300 83 24 40
306 450 328 101 73 52
257 500 347 103 64 54
251 110 271 111 92 74
267 359 270 81 70 57
239 85 227 134 9 45
273 355 290 73 59 47
217 250 282 113 90 64
331 415 218 92 33 37
350 32 289 123 60 58
219 230 250 119 93 61
247 420 207 77 23 29
238 83 232 127 13 41
425 542 306 64 18 27
242 100 237 105 43 44
231 165 267 109 89 68
306 370 353 157 110 87
280 385 327 122 86 68
286 30 287 133 80 72
351 70 283 119 38 50
277 530 341 108 57 55
251 515 352 139 6 42
239 85 232 128 20 45
265 670 245 96 22 34
311 865 257 47 44 46
336 360 312 121 96 67
285 826 255 138 105 86
232 609 258 198 11 52
256 534 345 86 16 32
443 867 277 105 88 75
256 40 276 121 42 52
335 380 337 140 103 75
350 544 224 155 4 34
356 420 227 82 29 32
221 340 263 120 93 63
292 290 313 110 91 72
341 495 218 114 17 28
309 733 350 67 21 29
226 440 343 98 21 37
340 268 298 150 103 72
365 920 317 54 48 48
240 85 237 107 59 56
236 645 327 110 26 45
402 598 299 76 19 31
240 85 242 106 72 61
271 505 397 127 24 45
273 509 396 139 18 46
343 385 312 119 95 69
216 345 297 121 95 65
342 424 261 86 68 50
238 150 243 106 88 67
307 630 234 58 30 36
204 389 276 123 97 67
336 931 363 64 56 53
246 110 227 146 36 54
389 648 213 175 114 84
231 365 321 115 92 67
331 710 218 50 37 38
240 85 247 105 54 50
411 860 336 63 50 39
226 190 247 117 94 68
242 70 247 103 20 37
243 70 251 99 19 34
289 283 327 107 87 66
376 460 242 145 15 37
346 30 292 132 52 61
228 231 290 112 91 70
223 471 218 70 28 26
330 744 210 47 35 38
355 925 337 53 45 46
262 280 261 118 94 67
244 69 253 99 31 38
231 240 241 132 99 58
275 436 314 45 32 25
439 516 259 89 0 27
425 546 311 53 21 23
372 716 314 182 9 59
358 77 229 85 16 21
246 70 257 98 72 59
246 572 349 115 5 35
347 785 172 69 56 51
351 875 222 77 75 78
316 399 252 110 83 58
241 75 247 94 45 44
355 195 301 121 96 66
331 595 226 111 28 39
273 598 355 89 48 47
238 710 274 68 34 37
420 814 167 116 85 61
326 200 323 106 89 70
281 635 344 101 29 42
220 250 251 127 96 57
211 350 287 120 93 64
405 561 390 135 14 40
242 75 252 98 28 38
260 89 219 147 12 43
243 76 256 99 26 38
214 355 298 121 94 66
286 839 327 84 67 50
221 430 338 102 26 35
376 535 252 84 21 31
347 875 197 83 75 75
247 456 360 94 19 34
364 614 249 120 15 41
327 12 283 134 61 69
381 800 187 91 70 58
242 155 239 127 99 63
409 773 199 62 38 30
210 415 322 125 99 71
246 330 253 127 98 67
404 820 217 56 46 42
256 550 352 56 22 29
187 460 241 50 25 30
326 421 231 100 26 31
376 805 179 117 91 68
353 882 245 72 64 63
178 481 268 48 36 36
336 745 207 88 30 32
344 275 322 138 98 70
191 445 242 96 20 35
259 596 235 151 19 33
239 124 257 109 90 71
276 470 202 141 4 32
337 501 304 131 90 74
377 451 241 133 24 48
261 685 247 126 8 32
340 375 317 121 97 69
276 40 283 115 65 59
241 80 252 93 48 43
351 645 243 76 27 38
181 490 222 73 34 38
247 45 262 114 30 43
207 390 301 122 96 67
277 12 264 114 89 77
314 330 360 141 96 73
470 886 234 111 90 72
266 460 372 61 25 28
182 450 288 110 10 31
253 164 240 135 103 65
489 597 287 92 34 44
184 454 281 77 27 34
316 520 392 85 19 30
173 499 286 146 0 39
245 75 257 90 56 46
282 45 251 131 35 39
286 445 203 149 0 35
253 412 210 80 42 34
247 274 299 79 65 49
240 90 227 133 15 47
348 128 249 147 88 71
332 951 276 82 76 78
233 171 244 120 95 64
338 380 333 137 103 72
347 565 381 128 15 42
356 485 242 82 5 28
231 420 338 127 98 70
229 389 329 122 96 69
303 251 331 111 91 70
352 440 277 119 93 64
241 95 227 132 15 45
347 591 329 173 0 54
241 95 237 116 37 44
182 480 252 66 27 33
386 819 246 92 56 45
237 140 247 108 91 72
341 15 298 133 65 74
341 465 317 144 102 81
334 411 263 81 68 56
226 465 217 69 32 27
234 646 316 64 26 31
284 330 353 130 96 71
470 580 297 103 12 35
406 835 307 55 44 42
240 85 252 107 28 41
366 105 267 125 57 58
321 840 246 69 52 49
291 345 357 145 103 84
242 85 257 101 26 37
290 526 364 42 25 28
217 240 253 122 94 61
226 370 321 118 95 69
421 535 272 101 25 35
199 445 324 113 15 38
385 680 222 146 100 67
290 33 285 138 20 56
269 400 320 98 62 48
180 479 243 56 27 33
333 349 306 121 97 68
256 105 273 115 94 73
286 506 310 151 21 55
237 829 308 215 143 113
382 553 354 91 17 32
190 644 332 94 75 54
235 556 220 116 31 43
347 521 289 104 78 75
242 120 242 109 90 69
187 427 236 124 16 36
201 675 354 176 121 98
217 476 223 73 27 29
270 865 301 133 102 73
329 448 330 134 94 69
277 391 262 77 63 52
265 290 267 103 85 64
212 365 297 122 95 65
241 95 247 98 67 54
261 735 343 161 19 52
221 430 243 76 49 43
219 332 265 123 94 61
214 643 325 117 81 56
251 630 362 182 119 96
195 431 228 99 32 34
331 12 282 129 61 70
322 175 302 106 86 64
267 880 302 165 123 95
386 532 322 61 41 34
209 601 323 66 30 36
241 90 252 105 73 58
235 563 352 49 22 27
296 825 309 140 102 82
291 655 342 164 15 51
263 920 297 53 50 51
256 401 242 94 78 59
233 151 265 108 89 69
320 396 258 109 92 73
505 549 257 172 114 105
220 240 282 112 90 66
192 470 221 112 19 29
240 130 247 108 90 73
177 470 292 124 8 34
201 685 315 122 90 59
360 67 234 122 104 86
370 590 292 98 24 46
355 900 258 80 68 66
404 799 246 173 122 97
254 70 269 97 72 57
381 429 228 75 19 30
299 578 359 104 53 51
223 185 257 111 92 72
217 245 253 123 95 60
221 190 257 112 93 72
351 816 186 81 65 52
217 230 253 120 94 62
346 60 247 103 35 28
304 482 314 111 70 57
291 470 206 81 28 32
179 468 280 79 31 37
213 236 259 121 96 66
217 215 262 111 90 67
441 555 322 100 19 35
242 90 257 101 54 49
259 291 300 71 60 47
214 340 271 113 90 64
238 146 244 105 87 68
240 95 252 107 67 56
268 582 350 64 21 30
311 410 232 119 52 34
341 197 275 143 105 64
354 748 310 88 68 59
329 88 279 88 16 30
243 122 239 112 92 71
348 415 312 134 102 68
213 240 267 116 92 66
324 411 248 80 44 36
260 540 344 71 19 30
456 586 266 175 114 82
191 485 220 86 29 33
436 601 262 203 136 112
192 646 342 122 95 66
239 135 246 109 91 72
258 838 301 63 53 53
485 851 268 86 72 62
194 462 224 114 13 27
370 853 218 70 60 57
241 95 257 109 33 44
262 695 340 61 27 32
239 164 279 109 91 72
247 99 219 100 90 81
261 530 347 127 1 40
317 833 309 146 113 87
222 345 306 115 91 65
221 445 240 59 35 30
456 480 252 136 15 44
219 395 255 115 92 64
246 100 221 121 39 48
376 560 237 105 19 36
401 504 246 104 16 35
226 360 257 116 93 67
363 106 274 123 100 76
424 501 264 88 0 29
257 790 258 72 57 51
286 495 303 144 29 52
288 523 374 102 13 33
179 460 234 95 19 37
329 145 292 105 84 61
279 400 319 123 85 68
246 105 222 116 46 53
292 12 310 157 41 68
328 80 264 120 95 69
247 185 240 128 99 64
401 571 387 169 20 41
229 194 278 112 92 70
303 241 321 113 92 69
196 460 327 128 4 38
331 525 297 110 36 51
195 427 233 117 27 33
247 109 223 120 61 63
402 739 161 92 66 49
416 565 272 40 33 37
386 830 242 41 36 32
404 795 223 126 85 62
243 474 194 47 37 38
246 165 283 110 90 68
251 105 221 118 75 67
239 443 349 118 17 45
230 455 217 53 35 28
300 511 378 92 33 33
264 270 272 103 82 58
358 535 262 68 40 33
301 940 263 96 86 86
257 294 304 73 60 45
328 166 305 102 84 65
270 614 357 157 97 81
252 190 241 119 94 64
385 532 313 62 39 32
236 160 242 116 92 65
358 120 279 121 97 69
216 715 351 171 119 94
401 575 267 112 26 34
216 685 348 146 97 73
256 110 273 116 95 73
225 175 257 111 93 73
184 654 338 143 103 77
183 457 278 61 36 32
246 125 272 107 89 72
259 126 275 112 90 65
201 400 287 123 97 68
174 455 227 104 19 38
386 425 232 68 23 32
255 415 191 54 38 41
403 823 194 84 69 60
255 98 219 149 11 36
302 656 234 117 14 29
250 195 239 119 95 66
261 470 383 81 25 35
247 445 193 88 29 33
238 127 254 106 88 70
286 402 217 128 47 40
256 100 221 147 13 41
354 215 306 122 97 68
229 619 364 131 99 72
212 400 317 122 96 68
353 785 294 70 54 48
238 595 345 95 17 36
234 690 312 45 28 29
357 126 262 136 93 72
377 891 281 69 59 57
255 660 256 136 1 35
241 395 333 128 99 68
305 603 340 159 12 51
378 78 241 90 44 22
250 334 254 119 93 66
276 395 252 74 62 52
253 188 284 110 88 64
220 459 236 75 35 29
246 130 273 106 88 70
326 30 282 119 42 51
326 235 338 115 94 72
406 721 190 72 59 47
329 629 325 63 30 32
344 402 225 111 20 37
293 860 274 171 123 89
221 380 256 117 93 65
376 775 277 80 64 57
279 818 325 60 48 41
251 109 223 152 101 99
231 645 363 180 121 95
372 731 172 57 47 40
506 570 273 120 96 81
256 30 282 125 36 52
366 115 237 129 67 64
180 475 220 84 34 38
281 505 312 150 19 54
204 602 297 92 26 41
257 455 190 87 31 41
335 310 327 119 93 61
246 325 253 128 99 67
306 445 211 110 23 31
205 475 338 129 9 39
256 109 223 152 25 44
344 883 224 71 66 66
225 557 225 134 30 44
220 435 339 98 19 35
194 436 224 99 30 35
265 13 266 96 79 67
501 580 272 112 15 38
233 722 279 122 1 31
251 245 244 139 106 69
239 125 252 105 89 72
196 429 242 123 9 36
300 396 344 141 101 81
254 243 244 138 106 69
220 355 308 116 93 66
233 510 204 110 31 41
267 490 323 141 94 79
253 170 240 137 105 68
178 486 246 58 30 31
254 690 334 130 19 43
410 852 201 90 78 67
242 100 232 125 15 43
286 402 227 90 70 52
400 790 197 69 53 49
191 445 222 125 7 27
369 534 249 55 20 21
224 469 216 76 26 26
516 894 213 117 94 78
243 105 232 128 13 42
328 94 264 115 38 44
263 481 329 136 96 76
218 488 360 57 21 30
244 106 226 130 19 40
391 785 187 79 60 47
381 510 232 50 33 38
336 16 298 153 90 100
242 105 237 126 21 42
217 420 331 118 94 68
387 522 246 65 12 24
212 385 307 121 95 65
176 460 232 78 26 36
282 75 267 119 11 42
492 902 194 100 87 77
200 435 322 41 29 31
231 435 242 64 50 44
393 733 218 129 89 56
276 12 267 109 89 77
241 735 337 123 79 63
251 495 194 146 4 34
372 586 292 110 32 50
416 854 332 71 57 43
245 110 237 117 80 60
371 55 257 100 68 55
357 140 277 121 95 65
358 125 278 117 94 68
322 695 339 72 25 37
466 595 292 107 28 41
178 530 277 63 32 35
251 111 227 148 88 76
197 470 331 93 14 33
336 11 297 144 48 74
336 705 333 83 29 40
370 485 242 110 12 29
243 734 334 62 29 32
254 403 240 95 78 60
196 500 221 96 29 32
414 726 178 67 51 43
251 112 230 143 101 80
324 298 304 99 81 62
239 129 263 107 89 70
216 505 212 103 17 26
346 820 282 151 116 97
189 515 329 97 29 41
214 468 235 105 19 22
299 249 312 108 87 63
302 394 246 107 89 71
176 450 232 108 16 39
250 210 239 132 102 66
254 145 239 130 99 63
225 210 277 109 88 66
472 584 259 151 101 69
256 111 227 144 81 67
246 405 247 90 76 60
426 541 302 80 14 30
359 640 253 62 26 34
262 260 257 123 96 66
256 394 261 97 80 62
341 695 222 71 26 29
348 484 225 43 32 29
353 663 240 100 13 35
216 400 256 116 92 64
296 934 258 94 85 84
326 455 328 125 87 64
242 100 242 117 36 44
478 524 254 99 12 34
411 456 256 149 16 38
352 835 263 32 28 27
188 543 254 175 12 45
186 427 223 149 18 24
421 490 268 85 22 33
506 570 251 133 92 74
241 100 247 124 20 42
373 726 309 191 10 61
253 161 240 133 101 62
260 140 244 123 95 62
226 615 267 199 13 52
206 785 327 196 134 106
376 85 228 104 36 32
243 104 242 122 39 47
243 141 275 106 88 70
194 418 291 66 59 49
208 371 291 124 96 67
350 440 312 143 103 75
262 140 247 125 97 66
231 829 332 206 137 111
258 884 314 180 133 108
354 214 289 138 104 66
251 375 326 126 93 63
242 105 247 104 68 55
231 255 242 136 100 63
250 403 247 85 71 55
356 794 168 81 62 52
241 115 252 108 89 69
251 563 365 115 16 39
310 352 284 97 83 69
324 474 209 78 31 36
280 535 353 119 0 36
249 35 268 107 54 52
329 738 330 86 65 58
254 18 266 99 55 53
326 720 216 97 22 29
353 220 291 138 105 68
241 100 257 110 56 52
238 135 248 109 91 73
285 574 379 120 94 74
341 450 240 82 44 47
356 80 279 110 59 55
388 602 241 102 62 53
434 849 315 59 47 36
232 165 272 111 91 70
307 510 404 136 14 44
391 440 240 96 32 41
263 140 251 124 94 66
231 530 212 129 12 36
241 105 252 112 89 66
219 218 269 111 90 68
241 325 313 112 85 59
296 710 358 141 20 47
252 455 338 129 91 68
383 734 261 133 76 67
239 460 200 65 40 37
291 403 226 96 65 44
291 800 243 78 60 54
352 475 302 144 104 80
241 105 257 114 93 70
219 344 265 115 92 64
243 110 247 102 82 59
264 170 267 112 88 64
357 445 221 107 31 39
341 50 252 109 28 30
220 626 292 52 35 39
242 160 280 110 90 71
383 709 271 134 15 42
244 436 340 114 86 58
189 425 298 49 29 33
315 271 295 114 85 56
225 200 246 120 96 67
351 680 193 145 104 69
223 235 286 114 92 70
264 325 310 60 49 37
376 800 268 59 48 44
231 355 256 117 94 67
244 106 242 102 70 54
215 300 272 124 92 66
236 200 287 109 90 70
174 510 282 152 0 40
226 255 292 114 91 65
255 310 254 116 95 71
260 544 344 77 19 31
201 670 316 129 88 62
421 435 246 118 16 42
322 245 284 139 101 66
188 708 335 182 126 102
356 760 167 72 55 44
244 107 245 99 76 54
268 320 267 95 79 62
246 115 237 118 94 66
291 841 312 74 49 38
206 440 232 111 15 27
461 850 297 90 71 55
253 399 329 129 91 66
202 445 327 122 12 38
244 110 242 101 80 55
268 305 277 94 77 60
251 220 240 134 103 66
244 109 245 96 75 51
308 352 284 97 84 70
340 196 320 113 92 70
456 535 262 143 16 40
256 160 242 127 99 64
219 616 328 178 5 52
391 537 335 66 53 43
173 505 257 146 11 43
241 110 257 113 93 73
247 475 342 130 86 71
188 499 330 60 28 35
230 609 357 116 91 65
319 404 209 181 18 30
343 655 203 148 109 80
418 582 260 110 82 48
182 520 317 45 28 31
315 934 259 89 82 83
221 735 350 176 125 98
246 120 237 120 95 66
451 490 252 57 29 31
240 445 201 91 26 31
271 725 351 174 21 56
243 125 239 111 91 67
283 325 347 123 93 66
328 155 274 114 90 61
242 670 272 69 34 38
182 450 236 75 25 32
248 690 259 98 25 38
251 115 233 144 102 71
265 895 338 108 84 78
282 335 307 135 102 75
327 170 306 105 86 67
397 440 243 72 18 32
347 480 226 62 30 35
215 255 256 128 96 59
250 119 234 141 101 65
281 846 308 97 74 53
469 571 307 95 1 30
241 435 342 111 83 57
258 361 261 86 75 64
251 120 235 142 103 68
203 548 224 163 30 53
331 635 237 66 32 35
341 535 293 63 47 35
296 954 352 53 49 48
183 456 301 126 0 38
280 870 290 145 115 83
276 56 279 116 23 41
256 115 237 143 101 72
213 386 311 122 96 66
353 742 314 84 67 60
311 865 351 149 118 86
196 518 225 76 29 32
292 844 263 177 120 95
280 54 280 116 91 70
396 894 277 60 49 42
338 860 303 119 97 77
335 390 336 145 106 78
236 145 267 108 89 70
302 545 356 73 33 34
396 532 322 64 41 33
253 117 235 145 101 69
202 505 340 121 27 45
199 413 293 103 83 64
207 585 332 99 14 35
320 370 350 150 104 80
396 520 247 68 6 24
436 505 267 112 1 37
246 165 238 131 101 64
292 394 340 133 96 80
346 44 285 124 16 46
348 428 282 119 94 66
356 586 402 46 27 32
245 100 263 111 86 65
198 441 252 100 15 36
324 179 309 106 87 66
201 426 242 99 34 29
412 755 182 74 57 47
256 785 257 69 56 50
256 120 237 138 101 69
322 13 300 130 26 49
406 425 238 80 15 26
222 215 248 116 92 64
320 272 350 115 90 61
331 15 297 154 76 89
356 543 347 79 20 26
189 466 219 115 17 29
239 428 236 72 62 52
472 837 269 108 82 56
362 635 231 155 127 118
466 894 231 101 81 63
291 325 301 83 70 55
223 225 281 112 91 68
301 475 206 110 19 26
251 125 236 140 102 65
274 78 234 112 43 38
202 755 313 164 111 83
265 880 342 161 115 97
254 445 335 129 94 67
344 474 310 147 107 86
298 255 304 100 82 63
388 699 228 152 105 73
254 140 239 129 98 62
320 185 307 105 85 64
337 941 271 81 72 72
234 148 257 109 91 72
251 449 357 84 26 34
476 580 322 166 9 52
275 370 307 92 68 55
207 400 307 121 95 66
356 840 267 29 28 27
255 125 238 134 99 65
196 445 262 87 24 35
242 115 247 102 83 63
251 70 267 109 41 47
246 225 294 111 90 67
231 325 255 127 96 63
246 330 316 108 83 58
265 484 394 47 28 32
278 345 327 107 82 61
261 475 193 87 34 38
262 285 292 80 68 54
239 165 240 128 99 63
331 960 287 81 76 78
279 329 327 110 85 62
297 560 377 39 24 29
418 582 258 110 85 50
367 55 273 107 64 53
356 625 207 100 82 62
244 118 240 111 91 69
295 406 198 158 8 31
216 585 247 200 13 50
200 405 277 121 96 67
281 55 279 114 29 45
282 831 308 122 85 71
240 120 257 109 91 72
397 806 248 155 105 81
286 516 316 154 18 61
233 320 305 114 87 58
242 125 242 109 91 71
346 55 284 114 22 43
326 895 209 100 90 90
410 820 184 102 81 69
420 537 296 78 17 28
386 454 242 67 28 33
283 327 350 127 95 69
270 90 232 114 33 39
378 582 286 64 24 39
386 584 272 100 20 38
332 404 270 93 79 64
240 125 247 106 89 73
219 340 265 118 93 64
266 465 382 61 27 32
305 525 372 102 49 45
467 569 307 106 2 32
219 228 274 111 90 68
310 320 366 148 99 78
223 181 256 111 92 72
183 440 292 118 5 35
351 488 232 84 84 84
223 185 253 114 94 73
217 295 287 119 94 66
414 879 300 64 55 52
256 675 337 54 27 32
236 165 242 121 96 64
213 245 259 126 98 63
430 562 304 36 25 24
349 660 310 153 15 48
212 485 356 122 22 42
356 475 297 139 102 75
199 439 257 108 8 34
357 66 238 120 103 85
222 190 252 115 95 73
249 129 274 110 91 70
256 425 188 110 26 34
223 191 249 116 94 71
250 95 268 106 54 52
253 95 270 106 63 56
267 505 200 127 8 27
329 351 298 108 89 68
241 295 308 106 84 59
270 88 275 120 13 43
293 340 360 145 103 83
236 434 342 105 75 52
217 300 287 121 95 67
321 575 371 72 15 35
246 180 239 131 101 63
336 194 274 138 103 64
421 576 283 118 25 29
212 594 341 139 25 51
203 395 291 124 97 68
271 843 295 166 127 98
238 427 239 80 69 57
258 12 286 88 43 40
345 734 325 101 43 49
266 40 242 115 98 82
272 100 267 126 93 72
239 129 251 106 89 72
341 665 228 46 37 39
173 496 252 92 26 35
401 855 232 78 64 57
264 129 270 120 92 69
236 190 241 127 98 61
333 741 209 40 34 39
216 550 220 92 33 41
244 124 269 106 89 73
416 510 239 139 25 40
207 510 223 60 31 31
227 220 243 124 97 63
237 130 257 107 89 70
251 375 257 94 80 65
412 505 247 94 14 26
213 275 277 127 96 69
311 260 346 106 87 66
376 709 191 90 69 50
216 385 317 121 96 68
237 135 252 109 92 74
277 821 323 61 50 43
348 890 242 67 62 63
215 240 272 115 92 67
242 150 239 127 99 65
382 857 246 57 42 35
390 887 270 54 46 46
251 40 272 115 44 52
237 135 257 106 89 70
240 140 242 111 90 67
290 521 353 101 39 44
341 40 285 114 22 43
263 786 339 163 117 88
388 705 207 114 83 54
294 870 275 153 117 87
224 305 255 128 97 63
363 70 274 119 29 47
291 871 355 124 96 74
236 215 291 111 91 69
383 750 278 90 73 63
331 455 212 66 35 35
411 465 256 96 22 31
234 274 299 109 86 61
261 525 200 154 1 34
241 135 242 110 90 67
381 85 242 121 43 48
354 160 273 131 100 65
274 938 354 48 43 41
256 475 192 85 34 39
329 646 325 34 30 30
278 843 274 186 129 100
368 771 288 87 70 62
254 192 285 109 87 64
411 464 253 95 25 31
468 544 265 97 16 35
362 901 272 75 63 62
331 415 336 147 102 77
335 789 306 150 112 90
201 499 341 76 29 37
271 360 312 74 58 44
354 161 295 119 95 68
227 235 243 124 95 58
246 270 247 143 105 72
301 881 247 44 42 44
320 681 335 38 28 30
239 139 245 109 90 69
231 545 217 140 19 38
321 775 212 71 57 51
327 410 339 147 101 77
210 400 312 121 95 66
211 780 307 167 112 80
245 415 237 69 59 49
217 215 257 116 93 68
301 510 405 180 18 61
248 115 270 106 89 72
309 214 290 115 94 70
329 163 304 101 83 64
258 895 322 159 116 96
355 475 247 91 31 34
186 455 238 78 24 35
240 145 242 112 91 66
336 415 232 105 23 35
402 824 229 54 45 37
213 366 300 121 95 65
278 392 257 74 61 49
301 685 229 77 34 37
260 260 286 90 74 56
236 140 252 110 93 76
251 335 255 109 87 64
275 395 257 75 63 52
279 350 315 84 65 49
324 840 211 67 59 57
184 454 303 124 1 37
309 412 223 128 40 34
351 680 232 48 32 37
203 599 312 47 31 37
296 515 311 153 18 60
353 105 284 109 34 46
241 235 295 112 90 67
401 774 182 84 63 49
366 542 345 80 20 25
251 320 315 99 72 52
235 145 252 110 93 75
348 622 245 91 35 37
358 667 230 101 78 67
336 450 238 80 48 50
321 650 233 110 16 27
245 558 357 52 21 26
346 115 288 113 91 68
222 235 248 125 96 60
185 454 219 129 4 27
235 750 346 164 112 84
311 340 361 146 97 76
237 190 285 109 90 70
259 282 295 76 64 52
362 25 287 106 37 45
189 480 219 98 30 36
414 722 194 72 56 41
200 591 317 153 13 47
222 220 248 119 94 63
351 85 281 114 26 45
351 566 402 36 23 26
251 130 237 136 101 62
251 317 315 96 71 49
364 470 245 105 13 33
251 85 268 95 51 45
227 558 224 72 35 37
446 570 267 113 87 51
242 420 237 68 59 49
234 145 257 109 91 73
261 470 193 121 23 37
301 545 369 35 26 25
251 396 252 97 81 64
334 406 268 91 77 63
311 845 254 114 80 65
236 440 347 116 18 39
230 160 257 107 90 72
492 904 173 85 84 84
251 160 281 111 90 66
326 25 261 131 28 39
352 160 298 119 95 67
286 55 277 117 41 52
366 470 238 114 19 33
236 150 247 103 87 70
250 440 191 119 14 31
302 240 297 117 93 65
452 886 243 125 105 90
258 179 279 107 85 62
406 881 337 69 56 48
286 403 222 103 60 45
206 415 317 119 95 68
227 255 244 131 97 58
261 420 186 50 40 41
234 159 245 105 87 68
246 390 330 128 98 66
342 621 241 108 27 38
240 150 241 115 93 65
177 475 277 72 32 34
213 245 271 115 92 65
264 411 320 129 82 63
246 310 312 99 78 53
288 292 341 117 93 67
361 831 184 95 71 56
220 450 240 65 36 28
202 475 225 85 23 27
197 580 277 71 33 40
306 675 340 154 13 49
352 737 319 120 42 57
371 500 243 85 25 31
206 480 342 87 19 33
240 430 232 65 57 49
