ply
format ascii 1.0
comment Created by Open3D
element vertex 2223
property double x
property double y
property double z
property uchar red
property uchar green
property uchar blue
end_header
334 959 248 81 77 79
223 410 282 127 97 74
390 500 378 146 10 46
342 260 340 137 99 72
249 520 401 170 115 97
337 196 319 118 98 75
297 459 359 104 75 57
357 460 206 76 24 34
220 415 257 118 20 40
222 415 255 114 20 37
383 894 288 70 60 59
230 300 262 128 101 69
350 631 334 124 22 44
196 427 197 60 33 35
219 465 337 76 30 36
198 478 190 98 78 54
304 80 182 118 38 39
323 900 192 82 69 65
398 834 291 27 25 25
199 426 197 66 36 37
373 725 192 47 39 35
482 909 393 88 81 74
249 400 222 102 89 78
399 700 236 65 47 38
251 278 294 89 74 57
199 428 195 78 34 27
308 842 295 122 92 66
196 427 200 52 28 31
304 96 230 114 21 44
381 572 275 41 30 38
306 460 134 145 14 30
311 65 323 117 42 48
384 720 193 66 50 37
234 505 406 173 124 111
342 269 327 126 98 65
214 481 184 110 91 71
355 54 342 87 78 69
234 515 386 93 39 32
326 867 211 47 42 46
287 269 248 137 100 75
376 566 348 123 10 42
199 426 202 57 30 32
214 470 214 120 13 41
349 820 307 52 42 41
246 705 197 165 113 86
216 421 216 127 4 38
222 477 360 76 7 27
199 430 203 68 23 29
409 915 338 67 59 55
319 35 231 116 77 67
331 78 199 104 75 60
245 431 336 85 21 29
340 455 184 92 26 31
389 740 337 152 114 78
194 465 197 126 96 74
284 480 352 80 53 41
329 235 357 130 97 62
209 422 204 67 34 37
292 255 247 144 106 76
254 530 346 93 19 36
359 740 181 57 45 39
417 458 303 33 34 38
232 285 262 117 93 67
210 422 206 80 30 38
254 535 342 68 26 34
249 396 228 103 90 78
386 832 299 36 26 26
226 345 268 116 92 65
359 695 197 60 40 36
383 539 361 56 29 32
204 426 198 73 34 39
261 785 210 160 119 90
294 398 222 103 84 63
196 503 206 176 126 107
351 393 323 97 79 58
208 427 199 77 29 32
273 470 302 37 26 29
294 220 337 116 94 70
328 387 264 100 87 75
334 380 343 128 98 72
225 411 232 111 19 35
374 670 237 83 55 50
359 675 322 55 30 32
195 480 205 75 56 52
215 463 196 76 64 50
276 575 322 154 6 44
355 80 336 128 59 56
244 500 187 159 0 34
437 848 307 80 61 52
338 377 294 107 94 82
209 450 213 85 12 32
255 481 392 90 1 28
299 365 277 81 69 55
259 495 167 166 2 42
340 515 189 129 7 29
346 808 315 103 81 69
287 403 175 96 76 57
209 430 197 80 23 28
201 431 205 60 18 25
314 115 218 135 95 74
355 410 241 47 31 29
194 435 202 88 20 32
324 845 283 113 88 62
294 40 192 106 71 56
291 606 190 58 36 42
213 430 213 121 3 38
319 287 299 102 87 71
258 695 232 47 33 37
219 508 184 191 131 113
219 460 217 68 19 29
313 21 198 113 95 75
284 195 211 156 113 78
214 505 183 179 123 98
244 465 326 76 17 35
276 574 325 146 12 46
299 895 236 104 72 48
202 428 204 54 16 36
239 480 278 50 29 33
318 302 294 101 87 72
305 240 351 118 93 66
204 430 206 36 27 29
207 430 209 39 25 29
443 830 282 144 129 119
231 335 259 121 96 67
355 490 222 87 13 30
304 25 302 124 45 47
274 195 256 92 78 63
295 124 199 136 105 70
227 409 221 91 56 50
334 75 318 135 65 58
371 76 357 126 10 44
299 15 248 127 75 66
264 680 257 142 4 44
273 565 181 75 30 34
335 105 177 159 17 49
198 495 212 142 103 81
220 575 193 150 105 71
227 325 292 130 94 65
229 495 352 79 27 36
289 755 268 75 59 53
193 440 203 102 5 33
282 300 267 87 74 61
396 928 390 63 50 38
222 503 399 114 91 65
363 685 342 137 102 68
430 869 323 73 59 51
215 459 201 52 35 37
221 464 256 44 31 31
195 440 205 115 1 29
198 434 204 108 12 34
419 435 372 130 16 44
312 355 279 81 70 60
266 564 364 181 123 98
305 450 138 89 29 28
302 190 241 126 101 72
195 443 194 123 7 41
404 715 267 56 43 34
199 446 197 201 3 47
194 445 206 115 2 33
262 293 244 119 88 59
351 818 316 167 122 98
234 405 293 134 98 78
289 580 352 110 65 52
319 300 346 128 94 67
199 445 208 113 4 33
253 785 172 161 109 73
338 850 182 77 66 59
222 420 228 143 2 46
293 210 256 116 93 67
360 845 202 66 60 60
280 276 246 123 92 66
293 600 192 63 34 37
425 816 276 76 64 52
204 440 208 120 1 37
324 50 356 107 24 41
204 443 194 200 5 42
378 560 257 167 17 45
208 443 194 171 0 59
374 486 388 129 21 44
216 498 179 188 129 111
411 882 315 82 68 61
209 444 198 160 3 39
276 629 295 133 34 52
234 430 211 70 30 25
354 426 407 118 23 41
207 439 209 123 6 39
289 408 167 105 54 30
222 417 214 42 51 51
209 440 211 99 13 34
344 689 181 63 52 42
319 127 187 163 108 97
379 725 317 137 9 43
399 495 372 135 16 48
203 445 209 116 2 34
271 435 159 141 7 32
312 450 359 86 69 51
205 445 210 115 4 34
214 425 203 101 21 22
337 31 318 59 51 42
289 125 231 107 86 63
244 292 305 107 84 59
343 476 383 122 21 45
206 442 210 118 0 36
327 492 375 158 6 48
306 749 320 185 6 59
285 720 172 111 89 65
204 460 211 147 22 54
274 550 322 61 29 34
284 140 207 123 98 69
361 577 235 43 27 26
234 355 301 133 95 75
294 800 242 56 45 43
401 787 323 155 106 72
209 445 212 93 16 34
263 403 206 100 87 73
214 421 207 86 27 37
212 422 204 74 31 37
314 126 192 146 99 76
438 410 317 158 12 45
215 423 206 114 14 21
371 600 261 101 36 46
235 455 192 42 37 37
214 430 201 96 20 30
314 125 207 131 96 70
387 528 365 157 15 53
319 745 172 95 56 42
364 870 282 37 32 31
357 423 381 62 26 26
254 285 297 86 71 55
304 440 187 42 27 33
334 954 341 66 61 58
211 477 362 82 25 29
259 340 242 93 82 70
335 265 347 141 100 74
350 755 176 66 53 50
409 810 247 73 58 52
223 422 209 107 10 21
471 836 297 85 85 85
339 424 349 73 52 39
267 337 244 95 82 70
224 425 207 110 19 27
273 655 184 125 94 61
262 670 242 40 33 35
294 370 344 123 95 67
356 410 198 111 15 40
250 407 208 101 89 77
285 770 251 72 57 51
278 940 318 48 45 46
244 491 367 74 18 34
299 875 321 162 119 99
287 240 265 104 85 63
409 785 262 48 42 39
277 626 298 84 32 39
218 426 204 91 24 27
261 629 266 160 25 57
227 495 227 140 0 41
411 776 255 46 40 38
403 785 312 140 97 65
253 626 218 96 60 58
224 430 207 78 20 32
343 135 333 118 96 71
228 540 189 128 98 69
371 730 190 46 38 33
224 510 187 176 127 112
290 235 263 111 89 64
249 655 188 106 76 40
263 526 353 143 11 42
339 760 168 67 51 43
209 485 182 101 84 66
313 454 362 72 59 44
237 347 304 133 94 75
277 919 245 69 62 64
225 500 252 99 21 39
329 454 401 163 16 52
291 588 330 173 9 56
223 380 262 117 92 63
304 755 302 78 62 57
215 421 212 117 11 37
347 430 217 110 2 28
384 435 400 164 14 52
204 495 183 184 125 103
341 38 170 112 73 58
198 489 208 91 65 54
294 225 327 105 86 65
334 70 177 115 61 47
213 425 212 139 1 42
224 475 342 54 20 21
254 485 347 62 8 24
210 426 211 131 4 41
262 686 218 87 51 47
245 490 337 108 4 32
210 430 211 93 12 35
230 335 262 121 96 67
256 192 234 111 92 72
283 675 192 75 58 45
204 469 190 106 86 64
229 494 382 91 37 37
339 415 346 82 67 52
254 520 377 125 82 72
354 111 342 126 65 59
332 433 402 101 8 38
198 491 186 186 125 97
249 325 308 116 84 63
282 341 254 92 80 68
299 65 227 108 17 39
356 435 199 140 7 44
301 205 324 96 79 62
287 621 313 101 24 41
267 926 304 185 135 113
264 450 299 108 13 38
278 400 332 126 94 68
217 420 218 136 2 41
269 580 191 89 23 32
343 375 336 120 94 65
220 417 213 84 33 39
353 725 177 58 45 39
318 180 354 116 92 67
354 458 400 158 11 50
263 770 212 135 92 67
214 485 183 103 85 65
343 140 333 117 95 71
294 510 362 101 7 33
314 395 348 123 96 68
343 466 394 113 27 44
209 455 213 129 5 39
224 495 242 91 22 37
224 420 212 94 14 30
368 925 292 64 56 52
222 480 247 64 25 33
401 482 374 173 13 60
218 430 218 109 17 40
369 413 349 66 44 38
298 163 204 151 110 75
254 390 302 102 72 54
223 450 247 130 9 38
221 465 220 108 7 36
289 545 167 119 3 28
221 430 221 96 22 38
280 619 306 36 30 33
195 465 193 117 92 66
255 455 163 62 38 40
346 230 327 124 97 66
310 804 256 166 114 96
266 475 159 143 0 36
381 806 215 65 53 51
226 475 232 133 2 39
222 435 223 85 24 36
222 426 224 85 23 33
319 580 197 127 12 36
302 180 343 115 94 72
418 465 357 161 14 47
222 430 224 65 23 31
254 500 355 47 28 27
346 155 337 121 96 65
214 505 217 91 60 55
343 145 333 116 94 70
251 712 239 81 35 40
236 558 190 121 94 63
334 80 167 127 19 23
362 604 341 136 18 47
290 946 252 64 59 61
289 40 202 124 32 44
332 252 309 116 94 69
211 435 196 86 29 36
221 375 268 124 97 66
274 171 245 99 83 66
304 680 193 48 32 34
323 666 199 67 35 33
374 465 396 162 9 52
249 509 405 184 130 113
302 567 366 132 96 74
304 350 343 130 101 74
211 441 196 125 19 39
311 86 174 135 26 40
249 511 388 100 67 62
307 100 181 111 76 61
283 905 242 90 71 57
225 484 342 97 4 31
384 575 292 83 31 40
334 906 202 80 69 65
224 360 287 137 100 75
253 492 363 122 13 50
214 435 198 96 29 34
324 195 357 119 95 70
395 525 357 177 0 56
224 495 212 74 22 35
213 440 198 106 20 34
309 620 200 94 23 36
212 443 199 110 11 31
316 900 199 76 69 70
363 90 347 144 13 45
333 825 167 108 80 65
299 10 232 115 39 50
227 512 241 154 0 42
379 401 272 149 21 27
378 540 247 138 19 41
263 523 395 191 132 112
309 20 197 108 92 74
334 521 370 154 10 49
414 408 347 62 35 33
304 265 307 97 81 63
313 95 226 107 39 48
295 45 222 98 72 54
299 670 196 58 34 36
309 17 299 146 75 63
323 130 324 119 93 64
379 871 122 111 88 68
200 505 193 183 123 99
323 45 197 110 93 74
278 915 242 67 62 62
266 278 289 75 64 52
254 375 304 101 71 53
408 919 338 77 66 62
267 874 271 142 111 83
244 435 297 105 12 36
382 494 385 31 27 30
322 45 226 120 23 46
216 445 205 58 31 24
352 886 196 55 42 39
222 447 219 92 31 33
347 140 345 128 97 67
407 464 273 166 14 38
229 465 337 57 13 22
345 404 333 80 67 53
329 155 353 117 94 69
339 450 402 57 27 30
346 429 179 138 9 27
220 435 206 80 19 37
337 310 327 118 92 62
349 90 366 136 11 50
233 445 197 60 36 25
473 809 286 85 68 52
219 440 207 62 30 28
287 140 205 129 102 71
293 485 140 110 22 34
219 445 207 54 31 28
256 697 233 47 33 37
312 96 175 144 13 45
213 435 213 99 18 38
282 349 329 119 90 63
340 45 175 114 72 56
233 455 197 42 35 33
297 946 240 71 66 68
355 445 232 95 10 31
215 440 216 44 26 28
250 491 387 153 11 51
335 715 351 184 127 103
224 435 211 116 12 29
301 145 229 115 91 64
215 550 210 154 105 87
299 324 291 77 65 54
239 270 287 89 75 60
223 445 247 58 27 32
402 762 229 74 57 50
218 435 218 103 19 39
314 50 230 117 90 71
319 360 283 85 75 65
261 191 250 101 86 71
299 26 238 125 37 51
220 435 221 90 19 35
428 813 263 76 60 52
338 865 286 140 104 82
311 75 328 109 39 43
322 79 349 94 67 54
274 770 157 152 107 72
226 365 291 138 100 77
386 708 298 113 12 37
228 611 191 152 103 70
287 722 174 107 87 65
286 266 264 113 91 68
295 610 195 93 34 39
440 812 309 97 75 62
204 495 218 146 103 93
202 470 209 94 42 42
333 929 217 88 80 77
395 440 393 96 21 38
218 440 218 58 27 32
439 816 302 93 72 57
314 440 131 147 13 33
309 950 337 65 59 56
224 445 209 58 27 33
293 85 197 87 70 51
347 392 335 111 89 66
395 925 386 59 46 36
329 560 365 42 25 30
368 397 287 80 67 56
295 485 139 86 23 32
307 115 185 123 29 38
221 444 220 109 24 36
279 720 166 115 91 62
229 455 335 61 13 24
279 700 292 89 25 37
224 445 222 62 22 33
249 500 333 81 9 25
333 968 280 67 65 66
344 950 346 67 59 55
249 495 381 108 2 36
230 490 196 87 37 37
289 838 286 95 76 56
436 408 324 64 0 26
221 420 226 140 2 42
236 488 275 42 32 33
221 420 254 129 11 40
299 355 278 78 66 55
312 76 326 97 57 45
221 424 225 139 8 48
264 263 229 163 107 78
274 432 340 96 52 45
259 239 274 91 76 60
245 695 197 165 113 85
287 666 294 115 25 48
347 953 254 85 78 79
229 305 302 124 90 68
223 430 227 74 26 35
294 15 297 137 61 63
292 235 260 122 95 67
350 936 307 61 53 54
259 560 192 117 10 29
237 474 181 59 34 37
369 941 331 75 68 67
299 230 242 135 102 70
266 453 344 107 7 33
224 420 247 127 14 38
282 124 222 105 89 72
271 935 306 115 81 69
406 481 286 175 15 47
394 410 267 95 22 32
222 420 252 129 11 39
367 52 354 76 46 35
374 810 211 64 53 50
364 836 292 41 34 29
290 12 218 135 93 95
235 360 301 135 96 76
395 845 236 69 57 56
347 816 308 53 45 44
377 823 335 183 125 100
350 398 262 96 81 67
336 25 317 105 28 39
221 420 257 130 12 40
234 340 303 135 94 73
321 18 216 106 54 49
279 430 157 119 15 34
277 319 300 78 62 46
221 440 253 43 29 32
291 434 175 57 18 32
221 425 254 120 18 38
224 430 247 116 15 37
269 480 331 39 32 28
306 461 159 82 2 29
229 555 187 140 105 71
290 510 167 75 15 35
223 480 242 116 14 38
231 559 225 132 0 37
285 12 242 130 36 55
319 855 228 144 105 82
255 465 164 119 18 32
221 430 254 129 12 40
338 90 168 135 25 39
252 488 351 65 7 24
306 287 305 93 79 64
262 736 259 180 4 59
294 473 380 43 28 31
382 681 286 43 28 29
364 90 352 138 10 45
204 490 182 147 105 77
220 430 257 107 19 37
334 555 367 120 18 41
373 919 267 65 57 55
241 412 209 102 86 69
226 506 186 158 116 104
224 435 227 78 24 35
320 875 207 51 47 47
318 106 175 152 13 43
377 844 213 81 67 64
224 435 247 126 15 41
403 455 268 74 27 30
244 496 406 113 90 67
357 565 222 162 13 46
299 11 222 115 66 65
254 480 167 148 14 36
338 930 194 73 66 62
319 30 350 92 27 35
312 910 206 82 75 74
230 490 267 76 27 37
345 389 276 101 87 73
346 210 342 121 95 62
247 715 197 168 114 88
290 375 282 80 65 52
254 510 403 159 111 95
314 371 273 85 74 64
222 435 251 130 11 38
315 895 319 139 101 78
225 495 237 143 7 44
393 464 385 118 24 43
209 465 191 111 91 70
286 267 245 144 102 78
318 125 325 118 92 62
222 440 251 48 29 32
328 36 351 92 74 59
300 161 205 157 114 80
314 24 298 140 42 46
221 445 253 36 30 32
230 330 262 124 98 69
244 300 308 114 87 63
428 911 367 78 64 49
220 445 257 68 26 37
230 325 301 129 90 70
309 435 356 98 77 55
349 475 183 87 27 33
231 345 300 137 97 75
277 190 210 134 104 67
414 460 297 90 31 39
234 345 303 134 95 75
367 692 334 122 96 64
231 285 287 111 88 61
257 408 200 102 90 78
230 407 219 88 70 60
308 68 230 118 92 71
478 780 231 82 69 58
334 398 247 87 69 58
359 422 382 64 30 28
376 713 344 148 107 76
302 180 332 108 89 69
347 923 229 79 72 73
275 315 302 77 62 46
226 445 237 90 26 36
293 610 351 172 119 95
379 595 297 92 25 40
316 946 340 49 46 45
419 404 312 68 29 34
229 410 218 84 67 59
279 445 156 69 36 35
400 867 300 39 34 35
399 930 377 87 70 56
459 806 287 81 64 49
364 770 354 177 126 96
229 415 217 70 57 48
326 44 207 89 24 29
292 98 224 104 87 69
312 223 354 112 91 66
344 440 181 112 12 29
322 363 289 89 78 68
234 405 222 94 80 70
309 610 370 167 118 89
237 376 299 137 98 77
349 490 373 150 13 49
281 15 231 175 131 139
232 407 219 90 75 64
239 425 207 70 39 29
382 727 345 155 112 81
224 464 202 53 34 46
307 895 226 55 49 50
338 381 277 102 89 76
326 876 193 57 53 55
315 160 323 106 87 66
298 678 195 40 33 33
283 480 348 85 46 38
278 645 192 114 90 63
314 640 202 122 11 29
346 804 320 162 120 95
270 954 302 68 62 62
239 475 336 56 19 23
369 400 272 125 48 40
315 885 318 150 108 86
365 631 312 124 23 45
327 16 336 89 77 65
238 415 212 96 82 67
299 230 237 139 105 73
354 410 336 65 52 43
277 471 316 81 16 35
390 397 272 132 26 38
343 40 327 90 29 33
237 413 216 95 81 66
244 420 300 124 5 38
235 416 214 85 72 58
361 679 337 127 96 65
426 836 278 82 60 52
249 450 168 69 38 39
246 402 219 103 88 74
266 633 275 107 48 58
221 508 400 175 119 111
249 475 286 35 29 32
247 496 180 150 0 38
347 440 180 140 10 31
296 236 235 156 115 83
234 460 192 50 34 34
348 385 332 116 91 65
233 411 219 91 77 64
291 740 292 173 16 56
385 871 292 34 31 33
389 905 317 75 67 72
292 80 218 101 25 37
277 355 243 97 85 74
238 410 221 98 85 72
381 820 216 61 52 52
383 705 301 138 9 41
314 20 238 110 79 65
224 495 182 135 85 74
273 405 317 120 81 59
293 22 238 125 86 64
247 408 210 104 91 78
386 575 312 176 14 51
305 160 342 112 91 69
254 400 222 103 89 76
337 48 166 125 54 40
369 745 192 55 46 39
307 454 135 130 21 27
226 306 284 123 93 61
241 438 295 61 24 30
392 544 346 149 31 54
302 185 218 151 113 79
361 892 315 36 34 35
245 411 208 96 85 74
319 470 383 61 28 34
344 35 164 108 77 63
310 35 312 126 14 43
245 416 203 74 65 57
339 190 352 124 95 61
194 475 202 95 63 59
356 430 237 93 18 30
219 465 348 79 7 28
286 814 220 67 55 51
420 410 280 110 16 33
325 912 201 87 76 72
352 588 355 76 17 28
242 466 284 157 2 47
252 413 195 57 50 50
252 483 391 89 1 33
249 415 197 43 39 37
278 957 287 66 62 64
236 437 198 54 36 32
318 595 362 142 102 75
230 290 267 119 94 65
314 660 199 89 26 30
254 410 197 84 72 62
393 845 233 69 57 58
267 890 271 173 123 101
220 380 277 135 100 72
219 495 377 120 15 41
254 484 362 60 19 25
380 495 246 127 3 32
278 925 319 180 139 120
384 825 327 142 88 66
235 436 202 65 32 22
221 380 281 138 101 75
358 510 218 128 2 34
462 769 229 85 70 56
306 186 324 98 82 65
409 825 287 31 28 26
383 505 248 138 10 35
331 49 166 115 65 54
254 409 202 99 85 72
259 260 228 160 107 76
260 210 223 116 97 75
199 460 208 134 5 43
254 535 187 38 36 39
284 585 372 177 124 100
249 406 212 103 90 78
246 407 213 103 90 77
282 657 289 36 30 32
308 494 156 32 30 31
295 460 164 86 0 29
248 404 216 103 91 79
291 12 321 93 36 40
233 485 187 78 34 39
400 418 388 62 18 24
225 390 257 118 94 65
319 56 311 137 79 61
247 449 170 50 38 41
339 901 311 40 36 37
232 317 304 125 89 69
343 255 322 125 99 70
277 470 331 59 25 27
318 21 203 112 94 75
328 455 191 39 33 31
254 404 211 104 90 77
249 495 177 148 2 38
329 100 320 135 90 68
328 856 291 131 95 70
275 218 264 91 77 62
261 753 219 142 28 46
255 505 173 48 36 39
230 395 248 112 90 64
363 885 157 81 75 69
252 403 215 105 92 80
406 754 241 66 54 43
315 505 369 159 6 49
255 402 213 103 90 79
371 435 255 68 30 35
239 489 347 79 6 26
199 461 194 103 82 55
254 290 298 87 71 53
244 489 387 68 27 29
237 566 233 159 0 46
420 465 337 111 32 42
369 925 267 60 53 52
240 396 238 103 87 70
227 325 272 122 97 66
322 75 220 114 24 42
241 415 300 107 20 39
228 390 252 113 90 64
340 952 246 81 75 76
230 511 388 101 48 48
361 505 226 76 17 29
399 860 247 72 60 59
352 876 180 75 61 48
227 389 255 116 92 64
226 392 254 117 92 65
277 279 243 121 89 64
251 765 195 167 121 91
303 650 313 113 32 48
324 970 282 62 57 56
226 500 237 130 10 42
292 15 324 110 77 73
242 476 175 67 30 37
312 133 207 134 101 73
231 386 249 111 89 65
229 476 188 47 40 38
216 508 184 187 130 108
420 420 282 121 19 38
316 54 345 108 65 57
230 515 256 113 7 36
247 460 170 91 23 35
329 762 324 73 59 53
270 695 276 87 26 39
415 460 302 63 31 37
293 316 289 77 65 52
307 911 325 147 116 93
408 825 253 63 55 54
229 400 247 111 89 64
209 475 188 94 79 63
224 400 257 118 93 64
336 372 295 102 90 79
243 399 232 98 87 76
312 488 148 24 30 25
224 486 183 116 88 68
294 785 252 70 55 50
226 400 253 115 91 63
268 310 248 89 74 58
339 399 237 66 36 35
243 675 202 166 116 94
336 330 306 107 88 68
233 390 246 109 89 65
292 50 197 118 79 65
340 410 182 126 14 35
235 390 244 108 88 67
299 240 347 118 93 66
221 475 338 104 22 39
334 130 352 118 94 65
379 465 393 168 6 51
370 841 210 66 57 59
233 395 246 111 89 65
252 795 199 172 128 101
336 338 305 103 86 68
226 468 270 55 27 31
339 195 352 125 96 61
309 40 232 116 18 42
280 185 208 134 104 69
307 154 344 113 93 70
269 380 301 90 58 42
306 437 159 83 0 26
232 398 245 111 89 65
304 290 302 91 77 62
309 30 188 125 104 81
302 215 237 130 102 69
397 741 297 106 18 39
231 407 237 81 65 53
303 375 275 81 69 57
307 456 160 81 0 27
299 775 163 139 100 63
288 166 205 128 100 66
204 475 212 118 85 68
295 230 342 119 96 71
234 455 336 67 10 26
228 409 232 79 59 50
229 425 211 105 24 29
249 510 332 76 13 25
235 525 261 51 28 32
229 435 287 54 27 32
325 784 301 74 58 52
227 295 292 102 83 61
383 580 297 127 26 48
228 409 237 79 61 48
219 545 211 132 85 73
404 399 277 90 34 43
274 325 302 68 54 39
192 474 197 136 101 81
362 878 284 31 29 30
259 510 172 119 20 37
275 570 322 147 12 42
308 140 337 111 91 68
350 765 175 52 44 40
224 415 237 137 5 38
340 85 365 108 21 41
266 618 190 122 91 60
335 625 352 144 102 72
289 297 298 85 71 56
193 491 191 187 124 105
239 403 227 102 88 76
425 901 366 76 61 44
306 170 329 102 84 65
275 355 317 130 89 68
240 401 232 97 86 74
403 470 376 155 13 47
295 12 327 86 36 34
234 405 237 87 73 59
339 540 194 149 9 36
327 438 386 75 24 29
227 310 298 135 90 71
314 805 171 90 66 52
231 402 244 107 88 67
241 277 295 98 82 65
284 430 156 114 24 30
328 34 304 125 44 45
395 760 337 166 118 83
226 406 249 104 84 64
276 361 320 131 92 69
225 411 242 95 39 34
322 20 230 101 55 50
289 683 195 79 32 33
389 830 298 34 25 25
295 90 226 102 14 36
279 535 362 101 23 40
363 501 374 168 11 53
319 285 300 103 87 70
228 409 242 77 63 51
224 415 242 129 12 39
285 530 177 87 15 37
338 230 314 118 96 71
294 660 199 44 36 36
360 880 163 94 79 67
328 420 128 59 33 35
220 430 272 147 4 43
290 340 283 69 58 47
364 423 402 67 15 24
379 825 332 171 114 90
232 404 241 97 82 65
316 105 324 116 92 64
341 754 170 59 47 45
241 387 239 105 87 69
254 345 308 112 80 60
244 390 237 101 86 71
335 640 358 164 118 88
224 570 212 144 92 77
344 574 203 166 13 39
264 460 296 118 4 42
294 105 192 124 89 64
322 873 218 44 38 42
226 489 232 149 1 45
240 426 202 52 37 30
270 339 245 94 82 70
269 502 367 66 25 34
249 390 236 99 86 73
351 420 225 114 10 31
209 500 218 120 84 76
251 744 200 175 122 97
310 870 238 134 105 80
244 400 227 103 90 76
278 485 151 151 0 34
246 397 229 100 89 78
372 615 307 65 29 35
234 475 327 53 29 29
249 395 232 101 87 74
243 395 236 100 86 71
269 565 372 184 127 104
333 99 169 149 20 42
297 200 337 115 94 72
275 625 296 107 33 46
319 270 354 139 100 70
249 429 300 117 4 37
361 520 226 123 4 33
242 398 235 98 85 72
303 30 337 115 31 44
254 390 233 98 86 74
407 724 239 75 56 41
403 810 232 66 53 51
225 475 237 138 4 40
344 105 332 129 82 63
252 388 235 96 84 73
290 730 306 76 29 38
196 456 199 55 33 26
252 733 175 143 100 65
318 952 339 70 62 57
235 431 208 61 34 26
374 837 298 28 27 28
214 500 181 179 121 101
376 685 214 42 30 28
378 720 347 153 108 77
213 507 185 181 124 98
299 605 197 70 33 36
238 430 202 54 38 27
241 590 242 88 33 39
370 630 302 103 29 42
227 497 214 127 12 40
280 585 326 152 7 47
249 484 367 55 23 23
276 565 322 114 22 41
222 405 279 139 104 78
299 360 277 79 68 57
244 437 329 101 6 30
225 430 242 54 29 34
354 423 382 72 20 27
259 225 269 94 79 64
318 79 170 111 36 24
304 23 299 121 74 58
344 755 342 180 127 101
289 11 232 130 65 70
229 420 212 86 36 31
271 385 307 102 66 49
230 417 214 72 61 47
344 845 173 107 84 69
352 919 233 75 68 70
244 510 273 162 0 49
419 403 307 61 25 30
280 675 287 106 14 39
326 105 199 111 41 45
227 428 209 62 30 38
226 431 210 127 4 27
354 705 183 61 48 38
393 790 341 182 123 96
214 480 213 70 23 30
286 852 264 103 84 62
369 831 322 144 93 73
296 370 274 81 68 55
309 12 312 125 61 61
319 105 212 123 93 71
234 420 213 80 54 35
241 292 305 109 86 62
414 403 312 60 30 33
244 455 327 93 7 23
289 175 245 111 91 71
306 605 337 74 28 36
282 312 264 85 72 59
303 220 348 117 94 69
310 435 158 82 5 26
236 418 215 92 68 50
270 270 284 77 65 53
249 415 301 120 12 40
238 420 212 93 57 40
241 420 208 83 49 45
315 40 308 119 43 46
263 505 288 145 0 43
279 871 311 102 73 58
302 116 190 146 33 48
401 516 301 34 30 33
280 943 243 78 73 75
302 219 237 134 102 70
375 746 195 49 39 37
355 422 362 67 50 40
279 755 257 75 60 54
226 300 292 112 88 61
286 460 175 95 7 39
318 25 236 128 30 52
309 14 343 83 41 40
264 210 263 94 79 65
299 700 188 97 19 25
310 785 277 72 56 52
285 275 327 114 83 57
238 425 211 72 44 29
295 624 321 67 28 36
449 805 267 57 43 34
195 465 206 72 28 33
296 315 340 126 97 70
231 442 204 67 26 25
344 250 337 132 97 65
257 750 237 63 33 38
402 765 307 151 104 73
194 490 206 118 90 71
384 418 387 58 15 24
336 624 349 131 92 66
284 475 352 92 66 54
282 899 250 105 85 67
231 445 203 66 27 26
230 465 329 59 23 32
217 478 350 52 34 35
295 55 222 103 19 38
360 699 192 66 42 37
259 380 231 98 85 73
392 739 214 65 53 44
463 913 378 97 82 68
287 548 168 131 1 20
319 355 283 82 72 63
271 277 240 143 101 74
238 435 197 44 35 35
287 21 233 124 91 64
268 880 297 151 110 92
355 395 307 72 62 52
324 915 202 94 81 78
237 438 195 37 34 33
232 439 206 65 34 22
211 489 353 147 10 41
315 664 357 198 138 112
237 434 201 54 35 27
225 473 190 58 49 44
393 397 276 118 28 37
326 703 340 170 120 97
233 511 383 118 62 62
305 273 305 97 81 63
353 460 227 68 27 27
276 580 321 163 2 49
334 935 228 84 80 82
221 370 269 124 97 65
360 405 246 96 23 28
236 432 204 65 38 23
228 439 211 67 34 30
218 465 217 102 8 34
232 498 404 109 91 71
272 555 180 78 23 31
409 815 252 69 60 57
205 470 211 120 85 71
231 437 209 72 21 42
296 793 250 45 39 38
354 785 348 180 132 104
229 485 357 74 2 25
383 885 252 66 58 56
197 493 209 103 71 48
245 420 197 41 37 35
258 710 214 134 85 74
284 795 161 170 117 82
244 420 202 58 46 42
315 60 229 111 75 62
262 511 170 98 20 35
299 250 313 98 82 65
313 570 194 69 28 35
406 841 256 60 51 50
309 825 242 171 127 102
238 660 192 183 124 94
225 425 242 69 24 32
355 510 212 150 9 41
376 856 225 68 62 67
242 419 206 84 63 54
369 425 406 75 24 30
298 360 271 78 67 56
242 424 201 44 37 33
258 715 214 141 80 69
225 420 237 136 7 43
294 510 183 46 28 35
268 935 302 106 78 67
337 450 185 73 31 33
356 520 197 103 26 41
225 425 237 120 16 40
335 819 281 116 82 64
226 369 290 137 99 78
225 330 282 121 94 63
259 500 408 164 118 105
283 670 193 86 66 48
295 235 232 157 115 83
385 745 348 168 119 85
225 430 237 66 27 33
329 830 172 91 76 65
242 567 258 70 34 36
238 580 237 96 29 41
225 420 242 131 12 41
225 435 232 124 15 41
299 645 312 67 31 36
259 795 207 166 126 98
308 139 199 161 113 82
226 490 186 111 59 59
367 89 357 136 6 48
274 225 216 153 109 72
340 905 211 78 68 67
309 11 322 94 46 44
395 809 218 65 52 49
356 500 209 150 8 44
276 911 249 65 59 60
226 440 232 63 25 32
320 456 137 180 16 43
327 20 299 141 26 47
225 435 242 78 25 33
230 525 392 197 139 124
276 598 188 126 1 35
255 460 164 92 30 37
232 470 191 56 35 34
304 460 161 82 2 31
219 469 191 100 83 63
394 435 267 130 4 28
225 440 242 87 27 36
320 130 324 119 93 63
305 80 230 109 16 39
325 819 164 97 73 55
224 445 242 78 30 35
330 75 207 115 24 44
199 470 191 116 93 70
364 605 247 127 27 44
194 475 192 126 98 70
306 254 309 99 82 64
329 70 357 108 17 38
353 686 207 67 39 36
319 255 356 136 100 70
402 479 375 162 9 47
336 50 162 107 72 52
356 475 185 48 34 36
224 485 217 121 9 41
222 508 184 183 128 109
239 514 386 93 52 54
278 285 282 78 67 55
348 399 243 83 53 42
194 480 191 111 88 63
358 589 351 184 15 60
199 480 187 106 87 65
248 470 170 141 8 33
338 955 322 61 53 53
324 155 353 116 93 66
271 580 310 149 0 44
204 465 192 98 79 59
412 479 313 117 20 43
255 560 282 146 0 43
251 294 299 97 76 53
214 530 191 142 103 72
314 960 327 65 59 57
205 471 189 114 93 71
374 605 282 119 20 41
204 475 188 112 92 70
246 605 247 163 9 49
272 335 313 111 74 54
374 895 252 70 61 57
202 473 190 107 88 66
224 480 187 94 78 61
215 490 213 50 21 24
295 20 307 132 91 70
312 905 205 75 68 68
287 372 239 105 91 78
257 631 248 150 25 51
225 400 286 142 104 80
204 480 186 107 88 67
285 540 158 170 0 41
400 800 231 61 49 46
279 281 267 95 77 58
403 771 191 64 54 46
387 525 259 56 29 35
209 480 186 94 81 67
322 660 331 151 98 85
251 433 300 110 10 32
398 883 298 70 59 58
426 942 415 93 76 60
291 375 279 80 66 54
313 119 216 128 93 70
339 175 353 121 94 61
215 472 189 94 79 63
344 80 327 123 51 48
319 310 345 125 93 65
254 470 347 111 0 35
214 475 187 102 85 66
229 385 292 140 102 79
252 502 279 54 27 33
320 40 196 111 95 78
214 479 185 110 91 71
266 940 296 51 45 45
270 330 307 71 53 36
326 778 310 78 63 55
221 455 257 101 14 38
233 270 267 112 90 66
364 421 382 61 26 27
244 510 349 88 10 32
219 471 189 110 89 65
369 830 327 156 101 79
269 550 361 143 84 71
229 490 332 134 7 36
243 450 177 45 35 40
286 12 303 145 36 61
420 455 312 142 23 47
222 385 283 140 103 78
319 502 369 173 2 55
280 939 238 78 71 73
289 125 202 126 101 72
286 538 180 64 33 28
329 710 177 58 42 34
270 335 307 73 53 36
343 50 323 116 26 37
232 437 289 60 27 32
378 680 212 64 49 37
259 565 193 78 27 33
268 470 298 46 23 31
290 862 254 110 86 57
224 470 192 70 57 46
289 831 187 200 130 98
222 472 189 112 90 70
242 630 185 154 106 67
296 235 254 134 102 72
314 814 173 69 56 53
255 735 207 173 118 98
294 365 277 80 68 56
306 34 322 111 27 40
378 939 333 67 60 60
219 480 186 93 75 60
304 11 227 103 48 47
300 480 181 101 8 26
200 486 184 125 96 59
422 871 330 83 69 61
343 360 331 116 93 66
248 685 186 142 96 65
319 205 356 117 94 68
284 465 387 160 21 53
265 417 334 98 20 33
194 495 192 185 122 99
248 491 176 121 12 36
199 495 187 187 127 101
333 625 357 151 109 76
314 785 282 73 56 52
254 506 404 138 70 71
296 122 229 117 91 64
315 759 321 89 43 47
340 911 216 77 71 72
378 475 248 55 36 43
269 210 263 92 77 63
314 780 167 137 97 62
262 640 258 152 9 47
239 500 351 43 25 34
205 482 184 107 90 72
234 570 226 141 0 40
209 482 184 98 84 70
279 900 252 101 82 70
219 420 272 128 17 42
245 475 173 99 23 35
361 630 245 58 29 32
209 495 181 189 128 108
354 90 367 143 6 53
393 454 390 168 17 55
217 467 360 61 11 24
314 287 299 99 85 69
414 406 337 51 37 33
201 493 184 193 131 105
202 496 185 182 120 97
345 725 355 177 120 95
229 484 352 75 1 25
272 395 312 111 73 54
304 11 332 83 37 37
197 497 190 178 122 96
370 925 272 55 48 47
404 460 268 117 13 32
376 714 348 150 106 74
196 498 193 191 130 106
302 201 245 125 99 70
198 500 192 182 123 99
286 328 270 75 65 56
223 480 252 62 28 35
284 530 360 36 26 25
200 499 188 184 125 100
246 700 189 159 107 77
360 450 192 86 18 32
260 508 405 201 143 129
361 47 360 79 57 43
355 670 327 65 43 37
205 498 184 174 119 94
270 655 272 117 16 42
209 500 183 178 120 98
229 475 332 69 16 26
311 186 319 104 86 68
366 407 330 68 54 46
219 430 267 141 6 40
345 180 342 125 97 62
205 505 188 172 117 94
325 42 355 82 36 36
291 743 281 76 59 55
228 605 208 159 114 89
245 665 206 164 122 104
203 506 191 180 119 94
237 491 274 34 29 29
335 879 293 121 87 70
290 811 170 184 127 95
334 394 212 78 47 37
254 460 291 147 1 44
394 685 262 52 41 31
299 180 212 154 111 78
337 850 192 56 49 48
364 901 326 40 36 36
398 440 268 88 18 27
254 590 282 151 2 46
367 446 248 56 36 35
372 574 249 173 20 44
204 510 192 178 121 94
415 475 357 172 10 51
207 512 190 174 119 93
294 454 401 114 25 43
404 715 239 75 59 45
288 260 332 118 92 63
361 96 351 132 10 44
414 455 292 113 21 39
324 60 187 120 102 85
234 350 302 133 94 75
268 740 263 105 22 42
239 310 309 125 88 69
329 675 360 184 128 103
394 869 302 37 32 32
210 494 179 189 131 113
324 761 323 78 58 55
244 475 326 94 6 33
411 775 242 54 46 41
227 345 266 115 92 64
285 335 288 66 55 45
309 25 302 140 34 48
214 491 179 118 92 63
389 407 332 70 45 41
364 950 342 77 70 68
291 44 194 141 36 46
339 225 352 127 97 61
249 409 299 89 66 51
310 130 341 111 91 70
288 95 207 93 60 43
214 488 180 100 83 62
304 690 317 101 12 34
384 500 382 181 15 59
311 145 345 112 91 70
249 500 406 138 84 77
245 570 271 78 27 38
328 895 311 114 84 67
213 496 180 181 122 102
219 485 184 89 75 61
298 200 332 111 91 71
217 482 184 92 76 59
229 380 292 138 101 78
220 483 185 88 75 64
242 452 289 49 29 30
225 484 185 120 86 66
278 505 322 100 11 33
255 481 400 84 32 35
298 365 267 79 66 54
197 502 209 163 119 98
297 523 149 96 18 26
342 249 345 135 98 70
230 493 355 87 30 43
377 530 244 65 36 36
346 205 337 120 95 65
353 831 287 43 36 35
219 495 178 153 106 88
226 374 290 139 101 77
298 215 223 147 110 74
252 727 204 175 120 98
349 920 326 41 37 35
314 330 345 134 102 70
329 920 208 90 78 77
224 490 182 129 89 69
343 509 369 71 20 31
339 75 321 134 58 57
319 110 212 113 37 44
222 496 179 151 103 88
291 660 300 82 24 39
266 945 301 50 48 50
288 95 212 105 28 39
215 470 352 82 27 34
372 599 263 74 30 38
210 504 184 177 123 95
299 90 229 101 35 41
214 510 186 185 129 105
276 302 255 96 79 60
274 765 157 146 103 68
310 905 208 70 64 64
337 98 190 135 0 48
254 265 287 90 75 59
408 485 302 179 14 49
219 501 180 191 131 115
270 350 307 81 54 35
292 70 217 106 60 54
227 335 271 119 94 66
357 397 308 70 61 52
228 493 392 94 79 62
392 539 351 36 31 34
334 185 355 124 96 61
284 240 268 94 78 61
272 552 379 176 124 97
263 253 224 158 108 74
219 505 182 192 133 113
372 67 354 102 33 37
324 416 137 83 22 35
222 498 179 173 116 106
222 375 266 120 95 65
322 883 195 65 61 63
229 350 297 134 95 75
224 475 337 61 22 28
351 952 336 81 73 69
283 25 212 134 26 47
269 265 232 163 109 80
224 500 182 165 114 103
248 615 227 69 30 36
425 450 332 65 32 35
259 477 400 81 0 29
325 125 325 121 94 64
306 837 255 151 116 92
237 472 279 160 0 50
240 450 182 53 36 34
329 30 346 100 86 72
326 518 195 135 1 37
305 450 159 82 0 26
356 112 345 128 67 63
234 630 208 164 119 95
238 450 187 54 35 35
369 831 317 133 87 68
260 430 306 92 5 28
349 955 262 86 81 82
228 500 187 95 52 47
369 400 267 118 31 31
249 496 377 98 17 33
255 800 173 160 110 74
236 450 192 43 38 37
386 705 209 50 43 37
237 449 190 49 38 40
220 475 217 153 4 46
365 70 341 127 21 37
304 15 197 89 75 63
315 956 317 82 75 71
237 455 186 51 29 31
287 113 224 104 87 69
236 455 188 44 36 36
236 452 189 48 39 36
379 480 391 115 16 42
222 390 283 141 103 79
334 40 351 102 89 76
263 610 188 123 90 62
304 775 164 137 99 63
302 37 229 115 17 44
230 509 342 44 29 32
260 615 186 131 98 63
226 454 232 110 17 37
312 12 309 135 70 63
236 460 188 50 38 37
330 60 202 99 28 35
319 360 345 136 104 72
334 15 312 104 45 44
324 710 181 83 33 29
220 500 214 30 27 27
235 465 188 56 37 32
233 465 192 66 35 31
362 820 202 54 49 52
227 495 187 64 31 35
277 294 254 98 78 58
348 826 288 50 40 39
360 839 281 105 78 59
352 445 212 127 1 35
376 605 292 46 30 33
227 320 272 126 98 66
401 798 293 121 82 55
364 75 371 117 18 43
237 460 186 40 36 36
455 798 242 75 54 43
405 815 277 42 36 35
279 565 376 178 128 100
227 485 263 66 28 34
237 465 185 47 39 37
318 465 142 115 11 35
375 585 262 156 21 49
389 805 342 178 123 98
229 480 187 86 63 51
394 750 312 146 106 72
221 460 257 43 31 33
266 526 295 60 23 33
317 80 344 104 15 39
320 446 378 62 42 32
330 615 357 148 106 75
299 55 187 110 42 41
300 440 148 72 33 34
229 470 193 48 37 35
272 508 298 127 0 39
296 26 189 120 38 29
240 470 178 45 36 36
230 530 252 97 28 40
354 445 403 128 17 43
302 927 215 89 79 76
227 465 273 69 29 35
300 24 302 127 88 67
334 625 212 139 7 35
301 634 349 182 128 101
238 470 182 46 37 39
291 35 194 127 29 44
397 730 219 66 51 42
235 476 183 57 31 36
358 860 178 84 71 62
284 944 242 77 71 73
325 460 194 68 26 28
311 421 154 72 24 29
269 399 212 102 88 72
258 195 231 115 94 71
380 689 213 42 34 32
309 685 191 71 33 31
235 480 183 89 29 30
234 480 327 71 19 29
367 57 365 95 24 35
399 480 377 143 12 48
240 475 178 76 30 33
330 229 310 111 92 70
275 515 307 109 2 33
238 481 181 92 24 33
224 490 252 90 28 38
234 475 187 56 34 36
332 720 171 57 45 36
232 480 185 71 31 34
240 309 310 125 88 69
300 851 258 91 74 57
243 455 176 72 32 32
226 478 265 74 31 38
459 805 277 80 62 46
228 500 257 98 29 44
228 340 297 139 97 74
245 450 173 47 37 42
401 491 276 115 17 34
232 537 252 80 34 40
245 455 173 110 25 34
312 890 320 146 104 82
387 724 203 58 47 37
231 345 259 113 91 67
370 535 236 65 31 33
389 403 314 66 50 45
336 315 322 111 88 62
226 503 383 172 101 98
247 455 170 124 21 39
243 460 176 75 30 35
402 518 304 49 29 27
349 422 393 76 19 26
425 415 287 151 11 38
398 715 271 54 36 30
221 400 277 141 104 77
265 515 291 139 0 41
242 465 175 81 36 38
239 491 397 102 86 69
370 911 256 71 62 61
388 770 204 66 52 43
308 150 212 129 100 69
349 396 202 63 20 28
245 465 173 53 38 37
384 670 247 51 39 31
326 743 175 89 34 32
314 510 370 159 10 50
399 413 367 58 22 24
300 13 301 133 61 70
336 734 341 186 128 104
249 265 288 99 82 64
435 851 317 80 61 50
358 939 297 63 56 56
274 407 167 92 67 50
254 450 163 75 38 39
333 79 319 130 21 37
314 30 303 137 55 58
244 480 281 83 29 39
245 509 188 147 3 31
284 155 239 107 87 65
350 440 178 146 11 29
250 460 168 93 27 34
394 915 342 46 40 40
243 496 186 160 0 34
259 300 245 112 86 59
224 510 216 33 27 27
266 528 174 50 32 29
269 180 248 97 82 66
368 480 238 117 12 33
317 70 226 119 22 43
334 690 357 178 122 97
347 398 335 96 79 59
335 180 321 115 94 70
253 460 165 109 23 35
277 485 309 107 1 37
253 465 165 133 6 37
344 109 361 123 26 49
242 450 180 46 37 35
299 50 187 120 42 40
326 690 179 64 51 40
340 75 187 93 63 44
280 231 220 155 110 75
310 973 272 60 57 57
244 494 377 120 19 38
287 130 205 118 95 70
359 525 222 83 17 32
261 545 290 100 19 39
254 680 212 152 112 95
262 178 239 108 92 76
229 290 292 107 86 62
243 480 176 57 34 37
329 130 352 116 92 65
329 385 345 132 101 75
313 100 176 149 11 45
258 750 242 88 34 44
244 493 372 118 12 40
319 215 357 117 94 69
248 475 171 144 11 37
245 480 173 68 34 34
310 65 327 113 80 63
317 564 194 102 23 35
300 210 345 117 95 72
333 335 335 116 91 61
309 411 152 72 28 22
374 835 210 73 58 53
379 725 198 64 48 37
235 411 296 83 53 40
319 90 168 148 20 43
256 469 164 157 3 37
319 545 193 91 25 36
271 550 329 59 27 36
296 624 357 187 133 106
289 291 303 92 77 61
290 500 181 56 26 33
259 490 166 165 0 41
291 188 249 113 92 69
254 475 166 154 2 36
220 430 262 105 21 37
224 590 192 150 106 71
262 286 295 76 64 51
250 475 169 133 4 35
334 969 277 68 65 67
305 440 142 52 36 35
228 485 188 129 80 73
374 840 282 24 23 23
404 405 271 67 40 37
301 510 185 52 29 33
239 370 302 136 97 78
320 399 251 92 80 68
268 746 259 50 28 32
230 486 192 115 67 66
329 595 353 37 27 27
332 85 200 115 30 46
227 490 188 68 39 40
356 487 226 116 10 31
309 816 175 111 77 60
226 494 185 97 45 46
299 735 176 104 83 58
244 489 397 74 35 32
374 418 377 58 20 24
431 422 354 126 16 43
272 631 288 65 34 40
299 55 227 101 66 54
232 486 191 88 51 45
303 505 147 70 30 36
268 288 244 115 87 61
233 495 191 133 16 28
337 103 182 146 9 50
275 560 317 85 27 37
285 440 154 46 37 36
304 45 185 95 30 27
236 260 267 111 90 67
424 870 328 87 71 62
235 494 189 159 4 36
348 584 208 133 15 41
324 755 326 143 23 50
299 640 313 60 29 33
236 488 184 83 33 20
213 485 352 99 11 31
239 491 186 153 3 39
280 553 169 176 0 38
314 35 307 121 28 42
277 385 328 132 95 70
283 264 238 157 108 81
344 770 173 63 50 46
226 500 185 135 87 69
454 905 376 93 79 65
359 430 182 147 12 36
228 505 188 124 81 71
252 436 298 117 6 36
325 664 200 46 34 35
376 597 324 28 29 31
303 684 313 118 4 36
280 193 254 101 84 67
221 540 189 158 111 81
230 500 191 57 21 28
362 594 239 53 33 28
395 710 273 64 33 31
344 845 278 152 113 88
227 509 189 152 107 95
324 950 242 90 85 89
299 790 257 54 45 43
343 230 318 121 97 69
283 345 328 120 90 63
324 330 342 120 92 61
376 557 354 37 26 26
229 510 192 104 69 62
320 70 223 115 29 46
234 500 191 122 9 32
338 45 317 82 65 51
391 510 261 161 13 40
201 458 210 153 0 50
319 305 346 125 92 66
354 850 182 65 54 49
234 505 192 102 13 30
250 765 182 156 109 77
229 345 262 115 92 65
354 545 367 122 18 44
264 245 222 158 109 76
239 498 189 171 0 36
294 11 222 130 83 84
252 691 209 162 117 96
239 500 190 168 0 38
291 196 215 154 111 75
211 480 214 93 47 47
328 832 195 53 45 47
235 260 262 113 91 66
354 474 392 118 24 45
307 27 189 126 105 81
367 701 350 143 100 69
244 470 338 64 15 23
239 505 190 163 0 37
234 510 193 96 13 28
239 510 191 170 0 38
239 490 357 89 18 32
281 281 251 115 88 65
324 833 193 69 56 53
299 11 212 100 69 63
226 315 292 130 94 65
373 665 252 49 36 32
239 495 403 107 89 71
246 485 174 80 30 36
354 423 392 65 22 24
312 130 343 112 92 71
291 231 225 157 111 79
249 485 171 101 27 39
257 483 348 73 1 26
401 912 343 52 45 42
272 163 239 100 83 66
249 490 173 144 5 40
280 175 208 123 98 69
245 490 178 57 33 33
288 204 214 152 110 74
254 485 168 140 11 37
328 896 185 94 75 67
424 814 273 56 45 36
258 483 353 66 3 26
331 67 315 123 44 35
251 484 169 98 25 31
385 891 277 65 55 53
251 495 174 136 3 38
309 205 317 102 85 68
222 446 268 155 2 45
329 95 356 111 82 67
273 385 296 84 56 44
239 505 348 91 23 38
255 490 169 163 1 37
302 693 190 99 19 28
349 426 367 70 43 37
406 694 247 59 48 37
302 55 185 79 51 38
253 490 171 158 1 36
303 205 237 125 99 71
374 843 280 27 25 25
304 275 304 96 80 63
352 934 238 75 68 68
282 22 218 128 20 42
346 819 301 66 53 49
241 670 192 183 123 96
324 240 308 106 87 65
323 973 272 56 53 52
256 494 169 153 7 40
328 620 361 155 110 80
264 195 222 117 95 71
224 355 287 135 98 72
289 25 232 118 85 63
278 390 332 130 96 71
280 590 362 187 126 101
279 715 168 112 89 62
244 490 182 85 19 34
387 711 198 52 44 38
313 69 175 86 41 32
354 555 365 151 18 50
228 520 237 58 24 33
242 492 185 156 0 37
282 705 299 38 28 31
358 413 343 64 48 40
254 385 302 102 71 54
249 405 298 108 77 60
295 933 224 89 79 77
400 805 231 64 51 49
254 500 172 47 33 36
304 200 347 116 94 70
372 620 287 60 32 34
253 505 176 56 33 38
282 550 380 183 131 105
315 114 179 151 15 45
296 18 335 98 44 47
304 605 197 95 28 33
358 925 242 66 59 61
295 18 297 163 113 98
254 510 177 78 29 36
444 820 267 92 71 57
284 155 207 128 102 72
242 501 190 174 0 36
332 70 359 101 19 36
342 55 177 124 56 49
302 219 232 139 106 73
242 504 190 174 0 36
290 100 197 114 36 39
229 500 377 139 76 74
244 486 377 62 25 25
246 504 184 146 0 35
352 727 174 60 48 40
247 507 185 110 5 20
323 25 207 113 86 64
247 511 186 87 21 30
251 508 179 67 35 43
263 408 172 57 41 30
354 525 370 82 23 36
338 920 217 85 79 82
373 849 213 75 64 63
296 56 225 100 31 37
254 490 332 95 0 29
269 469 401 106 27 41
399 530 312 63 32 38
228 320 267 130 101 69
256 482 388 89 3 33
363 690 205 55 38 37
310 45 317 115 90 64
265 535 351 155 13 50
285 24 227 124 84 65
252 511 180 42 32 41
222 460 247 137 3 39
348 700 178 61 52 46
368 670 311 135 16 44
196 448 199 177 1 52
359 65 337 104 47 40
336 290 317 124 95 68
199 455 198 65 31 27
194 450 201 117 13 34
258 393 230 101 88 75
476 826 300 91 78 71
194 450 207 113 8 32
291 80 216 104 29 40
262 626 273 141 32 52
204 490 219 121 85 72
329 969 282 78 75 75
298 405 182 99 38 36
193 455 201 54 31 30
194 455 207 84 17 33
249 525 273 52 29 34
291 70 203 111 37 41
329 80 357 101 29 39
262 689 254 138 2 42
387 696 277 122 22 42
199 450 200 105 10 33
198 453 200 67 29 29
294 646 200 64 26 32
309 445 157 85 0 31
199 459 196 82 59 37
271 510 163 46 33 38
199 465 192 117 94 70
331 112 180 155 25 44
193 460 202 51 32 31
241 487 372 122 18 32
194 460 206 78 24 37
361 688 326 87 51 43
194 465 202 83 43 45
279 249 274 84 70 57
314 505 189 60 26 34
209 480 215 110 67 59
314 110 342 113 93 73
273 233 219 156 108 72
204 455 198 65 37 28
267 586 195 43 34 35
208 450 199 71 20 29
279 505 327 76 22 28
235 395 296 134 97 78
323 460 195 58 29 31
236 282 295 98 80 62
334 695 356 179 123 97
396 877 325 41 37 34
209 455 198 68 43 31
323 290 299 107 90 73
202 450 200 100 25 28
253 535 277 79 26 36
314 446 404 89 28 40
373 655 292 143 11 45
274 465 153 132 13 34
339 60 173 118 59 57
376 420 260 123 3 32
263 821 198 189 136 111
335 61 170 122 54 39
396 735 287 48 26 31
374 871 117 103 83 68
204 461 194 89 71 49
274 320 317 124 82 65
209 459 196 72 56 36
256 633 237 48 28 33
347 797 328 181 133 103
381 586 300 41 30 30
291 70 207 121 30 45
199 450 209 110 4 32
254 430 332 88 21 24
254 495 397 97 27 40
328 115 196 132 8 49
198 455 209 131 3 41
200 455 210 129 0 42
291 70 212 116 36 45
201 451 210 111 0 33
393 870 248 67 58 56
347 211 332 124 98 67
319 560 364 161 18 53
308 45 327 109 64 53
417 473 346 186 19 53
294 15 250 122 87 65
269 225 216 144 105 67
360 415 192 146 8 44
226 360 263 112 90 65
288 384 286 77 58 46
365 835 206 49 45 48
237 546 246 125 18 43
202 448 209 111 3 28
228 420 292 120 16 42
202 462 209 152 3 51
289 15 207 106 65 60
392 444 395 51 23 29
288 930 226 82 72 70
314 407 194 100 24 27
299 925 328 51 43 43
209 460 213 135 28 52
313 60 230 116 81 65
192 470 197 135 100 78
226 325 287 127 95 63
310 150 346 112 91 70
345 49 353 90 81 71
194 470 193 122 93 65
332 859 205 46 40 44
293 699 190 85 24 28
398 829 238 57 49 46
244 500 352 36 29 30
354 399 262 96 73 60
339 530 193 93 18 31
209 470 214 113 74 63
384 455 258 60 35 38
294 120 197 139 106 75
241 493 373 145 17 52
309 963 326 54 49 46
304 190 227 130 101 69
401 470 265 39 36 38
194 470 202 99 55 56
304 70 229 107 32 43
294 155 236 113 91 65
193 480 203 94 68 58
264 330 305 69 54 34
275 948 258 75 71 72
290 245 332 114 91 65
258 724 170 117 88 52
375 915 324 74 65 60
354 430 202 111 9 34
199 480 207 59 35 35
239 365 303 136 97 78
369 430 253 95 23 30
244 330 308 123 87 69
320 320 344 124 93 65
225 490 257 94 24 37
407 834 289 35 30 27
298 206 251 122 98 71
299 380 272 80 68 55
375 536 369 93 21 39
202 475 209 89 54 48
249 345 308 127 90 72
294 846 268 104 80 53
224 535 221 74 22 33
202 480 209 82 48 41
291 384 236 108 93 78
203 480 212 118 87 66
406 471 374 144 16 49
394 700 270 58 40 34
344 390 337 115 91 66
291 40 216 122 17 44
344 100 327 129 28 40
282 259 234 161 110 80
326 708 179 71 40 31
231 488 329 92 37 13
320 600 362 144 104 75
209 474 214 114 69 61
329 395 347 124 96 71
384 400 277 124 33 40
208 476 215 118 75 65
205 480 215 122 91 70
304 386 252 84 71 57
294 340 277 69 59 49
218 485 342 149 6 37
371 862 220 72 64 66
376 718 326 118 56 48
411 477 364 173 15 54
296 223 254 127 100 68
210 450 200 59 24 31
414 815 256 60 52 52
299 965 287 73 68 67
254 495 377 73 14 30
391 530 271 173 17 46
377 600 317 88 33 42
296 388 240 104 91 79
307 195 349 116 94 69
409 845 292 52 46 42
290 340 336 124 95 67
227 381 289 139 102 77
465 775 235 87 72 59
368 50 361 98 27 38
250 471 345 89 0 26
319 170 354 116 93 67
254 635 183 143 103 66
211 454 200 64 47 33
304 495 377 178 10 56
319 446 194 62 29 34
338 905 207 74 66 64
225 505 247 160 2 46
265 655 257 168 0 49
213 450 203 56 30 27
279 775 158 157 109 74
217 484 345 118 13 34
216 450 205 60 33 23
426 421 295 172 18 46
354 56 366 82 60 48
339 396 257 97 83 69
331 834 177 83 72 65
312 792 274 151 113 96
312 73 175 110 40 30
294 530 167 89 12 31
214 455 203 59 36 33
329 105 172 163 18 46
317 108 220 120 4 44
214 475 214 121 14 43
350 595 217 119 24 42
305 119 188 140 35 49
431 868 317 84 64 55
214 461 197 78 61 47
254 483 367 54 25 24
221 361 273 123 96 63
387 534 263 109 30 43
367 933 278 61 52 51
215 555 193 148 104 72
230 325 263 126 99 69
394 916 347 44 38 36
214 465 193 83 68 52
452 796 245 81 57 46
308 459 367 66 53 38
404 402 307 56 40 37
342 761 334 173 123 98
333 340 336 116 91 62
219 450 207 50 32 29
311 763 306 75 60 56
222 454 250 137 9 40
222 404 260 120 94 63
291 50 207 118 97 77
323 12 327 85 69 58
337 30 322 75 41 36
268 220 215 138 104 65
395 510 368 169 8 53
277 617 304 39 31 33
279 880 257 156 117 86
219 454 206 55 33 26
395 886 330 59 50 44
244 585 186 126 96 63
297 220 343 117 95 70
218 456 204 56 30 30
233 370 298 135 98 77
282 296 285 74 65 57
305 45 231 94 66 51
346 393 270 98 86 75
355 570 217 165 15 45
391 732 215 55 40 38
224 455 207 40 31 33
217 462 199 79 67 54
350 868 121 87 82 78
195 485 205 90 67 57
279 255 276 83 69 55
409 465 282 175 16 46
252 441 339 123 0 38
389 671 242 85 64 47
220 460 205 43 37 37
299 690 191 100 23 27
271 939 253 77 72 73
415 480 327 135 23 45
369 790 352 190 137 111
250 493 360 123 48 71
220 463 201 63 52 41
256 692 238 41 35 36
378 585 331 175 14 54
223 460 206 45 33 37
218 524 190 132 104 71
316 475 147 38 31 31
364 422 392 67 26 23
319 972 262 60 56 56
222 463 205 54 37 45
221 360 277 127 98 66
274 460 322 59 23 29
319 320 294 91 79 67
281 126 221 105 89 73
321 175 355 115 92 67
214 450 215 79 19 33
471 787 303 84 77 71
254 491 379 96 1 26
312 55 339 102 17 37
269 216 265 92 77 62
326 18 339 92 80 68
227 305 298 131 93 68
215 455 215 111 16 40
214 460 214 121 10 40
314 457 393 67 26 32
329 440 377 65 37 33
290 605 353 175 121 97
291 385 345 125 96 68
262 183 244 104 88 73
279 830 197 187 129 104
221 395 277 141 104 76
216 498 385 59 26 31
214 465 214 114 9 36
434 870 297 85 66 61
338 398 233 66 30 35
224 450 208 39 31 35
309 50 322 120 13 41
384 735 198 72 53 43
280 140 231 103 85 66
219 455 217 96 17 34
371 720 354 155 106 74
347 432 180 140 9 27
254 430 301 108 5 35
222 450 219 90 23 33
309 25 192 120 100 76
249 445 337 123 0 38
298 12 303 131 52 64
343 42 345 95 79 63
224 466 197 52 36 42
240 604 227 77 30 39
315 315 295 92 79 66
224 450 222 45 25 28
222 455 219 61 22 29
216 466 215 108 9 34
288 385 343 124 96 67
286 512 180 38 34 35
356 400 314 71 60 49
336 529 194 132 13 38
232 501 263 118 22 44
342 77 182 98 31 32
369 945 350 60 53 48
239 305 309 120 88 66
352 745 174 69 54 48
243 366 304 133 95 75
338 386 273 101 87 74
262 408 299 74 56 37
379 585 282 87 29 41
285 958 277 75 68 69
222 458 219 40 28 29
221 462 220 80 19 32
343 150 332 115 93 68
