ply
format ascii 1.0
comment Created by Open3D
element vertex 2237
property double x
property double y
property double z
property uchar red
property uchar green
property uchar blue
end_header
315 850 214 50 45 46
373 758 279 87 67 58
375 760 277 87 68 59
369 768 277 87 67 56
373 768 275 87 67 59
378 758 276 88 68 61
328 888 300 109 88 71
380 755 277 87 71 63
382 757 274 91 71 63
421 792 196 155 107 72
377 763 274 89 68 59
358 743 291 76 59 52
358 748 289 79 59 52
378 912 200 92 81 74
363 738 291 131 27 48
363 743 291 71 51 46
368 738 290 151 17 48
398 813 237 161 121 93
368 743 290 104 38 47
373 738 289 159 18 51
344 949 255 66 59 62
373 743 289 168 22 57
376 742 288 184 30 68
323 713 326 113 25 44
328 708 324 97 19 37
323 718 327 150 17 50
330 706 322 134 13 42
332 713 324 143 11 45
323 723 327 151 16 49
323 728 327 182 15 59
328 728 326 160 16 53
333 723 325 164 10 52
333 728 324 173 7 55
332 733 324 177 11 56
328 738 324 134 18 48
328 743 323 127 20 46
323 749 322 46 29 32
328 748 321 157 20 53
331 741 323 180 15 59
386 540 264 142 116 86
420 785 193 147 103 71
388 543 260 116 74 53
386 544 268 153 120 90
390 546 260 119 73 51
392 548 260 129 92 66
387 548 269 154 115 85
388 553 269 166 120 90
392 553 265 171 126 97
388 558 269 178 126 99
390 559 267 183 130 104
392 558 265 189 135 110
283 873 259 99 79 55
394 558 260 170 126 96
387 563 269 180 128 100
389 563 266 177 124 99
386 567 268 179 127 99
393 573 260 176 125 99
390 575 262 178 122 97
385 570 267 179 124 97
394 563 260 178 129 102
396 571 258 173 128 95
386 685 263 129 12 48
387 689 264 103 16 36
392 693 260 129 7 40
387 694 269 52 27 30
389 697 270 90 13 33
393 698 265 120 2 36
303 968 245 89 86 89
396 699 260 129 11 41
396 700 263 127 9 39
353 843 149 94 71 57
397 703 265 126 10 40
396 704 268 131 11 41
387 699 274 120 9 37
384 701 277 124 6 38
390 701 272 126 2 38
392 704 273 129 3 41
373 808 255 74 57 51
400 707 261 114 18 41
399 708 265 80 18 33
397 708 270 136 11 42
400 712 266 119 17 42
399 718 270 152 12 47
392 708 275 134 5 41
390 707 277 133 6 41
386 714 283 133 21 47
395 718 277 157 12 50
397 718 274 155 8 49
399 723 270 163 13 52
399 728 270 168 14 54
387 723 283 48 29 34
388 728 281 142 21 51
388 733 280 190 10 60
386 732 283 189 16 63
385 734 282 195 11 60
395 723 277 172 9 55
397 723 274 170 6 54
396 731 273 182 7 57
400 706 257 137 12 42
402 713 260 106 23 39
401 713 264 59 24 31
395 776 141 69 53 45
402 718 260 100 26 42
423 803 170 114 81 59
401 719 268 142 17 49
402 723 260 56 31 37
400 724 267 102 17 37
361 901 240 58 47 45
400 728 267 87 25 38
402 733 260 56 33 35
313 945 228 88 84 87
401 733 264 49 31 35
400 738 265 60 30 37
398 738 270 172 14 56
337 823 159 57 49 48
396 753 260 64 34 38
393 753 270 182 20 61
387 867 235 67 52 41
387 738 279 189 6 60
388 743 276 183 12 58
289 828 236 84 64 56
389 739 277 188 6 61
392 743 274 182 11 57
388 748 275 100 24 42
395 738 272 183 7 59
382 867 250 56 43 35
388 758 270 91 68 64
367 895 318 76 63 56
390 754 272 95 30 42
389 760 266 92 74 68
315 885 177 64 58 59
393 758 265 71 49 50
388 763 265 95 75 68
386 767 264 94 74 65
388 768 260 82 65 58
391 761 263 86 71 63
334 959 255 76 70 71
391 767 258 81 66 61
394 758 260 88 50 52
395 760 256 94 65 65
401 737 260 45 32 37
400 739 260 54 33 38
369 774 121 64 53 48
369 779 116 78 62 56
366 782 118 78 62 53
362 782 124 59 49 43
365 780 121 60 49 46
302 798 314 47 42 41
364 788 121 77 63 53
369 787 116 85 64 54
340 783 162 51 44 41
367 789 119 81 62 51
368 792 121 84 63 51
363 793 125 73 57 49
364 791 122 73 57 48
375 770 107 78 62 54
375 777 111 86 67 54
378 773 105 96 72 57
291 850 306 93 77 61
383 772 101 101 76 57
383 774 105 100 75 57
377 775 108 91 69 56
383 777 111 106 80 62
322 913 195 91 83 83
370 775 117 66 53 48
319 824 291 151 102 81
372 773 115 70 58 50
373 778 114 88 68 58
376 780 113 94 70 52
378 781 112 103 77 62
373 792 121 86 65 54
382 793 125 95 72 58
302 832 299 72 56 51
378 797 126 98 73 57
381 796 126 100 76 55
419 828 269 95 75 61
371 801 127 80 62 52
346 912 227 76 65 63
319 783 191 67 54 49
304 808 216 83 65 56
320 788 191 66 53 48
400 792 237 154 113 79
320 794 190 60 51 47
320 799 186 52 46 44
319 808 185 58 50 47
319 813 185 56 50 47
320 823 185 59 51 49
304 773 206 89 54 51
319 828 190 62 55 52
324 823 175 58 51 49
288 773 220 79 61 53
289 778 221 80 62 53
287 779 224 81 62 53
266 769 239 74 54 51
272 773 234 74 59 52
268 778 240 70 57 52
273 778 235 74 59 50
268 783 240 71 58 52
257 778 250 72 60 54
258 783 250 74 61 55
265 778 242 69 57 51
278 823 242 87 67 56
268 788 239 73 59 51
268 793 239 75 59 50
271 784 238 73 59 50
260 788 247 75 61 54
256 788 253 77 63 59
261 790 248 75 61 55
261 793 248 76 61 55
263 798 245 76 61 53
261 798 248 76 61 55
265 788 242 72 58 51
265 793 242 74 60 51
332 906 201 79 71 72
274 773 231 77 61 52
279 773 226 78 61 53
275 777 232 78 61 52
276 780 233 76 59 52
281 780 228 81 63 53
287 783 224 82 64 55
279 788 231 77 60 52
356 873 182 73 65 66
277 793 234 79 61 52
326 791 178 67 55 49
284 788 226 80 62 53
282 789 229 79 61 52
283 793 230 79 62 52
288 788 224 82 64 55
368 917 315 78 66 63
288 793 225 80 63 54
283 798 230 80 62 53
286 798 228 80 63 54
264 803 246 79 62 53
259 808 251 79 64 59
257 808 255 79 65 61
262 808 249 79 63 56
264 813 246 80 62 53
388 773 105 107 81 61
267 803 244 81 63 51
273 808 240 83 64 54
268 813 244 83 64 53
271 815 243 84 65 54
368 855 153 78 64 61
259 818 255 75 63 59
262 818 250 80 63 56
261 823 254 80 64 58
259 823 256 77 64 59
264 828 251 84 65 54
401 854 286 97 78 75
262 828 254 82 65 57
265 818 247 81 62 52
268 818 244 83 64 53
269 822 246 83 64 54
272 818 243 83 65 54
273 823 244 85 65 54
373 861 286 43 37 34
270 826 247 84 64 55
389 835 263 63 51 40
332 947 304 47 43 42
273 828 246 85 65 55
268 828 250 85 65 55
267 834 254 86 65 55
390 813 159 71 57 52
272 833 249 85 64 56
276 809 238 84 65 55
323 928 330 41 38 39
278 813 239 85 65 55
284 808 232 83 64 56
288 808 229 81 63 54
283 813 235 85 65 55
286 814 233 85 65 56
326 971 262 83 80 83
283 818 236 85 66 56
283 823 240 85 66 56
285 821 237 85 66 55
286 824 238 85 65 56
283 828 241 85 64 57
275 821 242 86 65 55
277 824 243 87 66 56
281 829 243 85 65 56
284 833 241 81 62 56
282 833 244 83 63 58
290 771 217 79 57 52
294 778 216 82 63 54
292 778 219 81 63 54
289 783 222 83 64 55
295 782 217 81 64 53
298 773 210 84 58 52
296 774 213 80 62 53
299 778 211 81 63 54
297 783 214 80 63 53
303 778 209 82 63 54
290 787 222 83 64 55
293 788 220 81 63 54
291 790 223 80 62 54
422 803 175 92 67 53
293 793 220 80 62 54
295 788 217 79 62 53
292 798 224 80 62 54
299 792 216 81 63 54
303 788 209 82 64 55
304 792 210 81 64 53
297 793 218 81 63 54
303 798 215 82 64 55
296 863 243 142 105 75
299 797 217 81 64 55
339 898 313 40 37 35
305 784 207 83 65 55
308 783 206 83 65 55
268 883 320 140 103 85
318 773 194 94 44 46
315 778 197 75 59 51
318 778 195 74 58 52
343 883 301 35 31 30
317 783 195 71 57 50
311 788 203 78 61 52
313 793 200 77 60 53
312 798 204 79 63 55
309 798 206 81 64 56
334 928 225 59 52 54
317 788 195 72 58 51
314 798 201 78 62 54
306 790 208 80 62 54
397 882 209 71 57 50
307 794 209 81 63 55
305 798 212 82 65 55
307 798 209 81 64 55
294 802 222 82 63 55
293 808 225 80 63 54
406 792 151 79 63 50
303 803 215 83 65 56
298 803 220 83 64 56
346 811 273 157 108 85
301 803 218 82 64 55
302 813 218 84 66 57
304 813 217 84 66 57
300 817 222 83 65 55
303 818 220 84 66 56
299 822 226 84 64 56
304 822 222 84 66 56
303 824 224 85 66 57
317 803 195 63 52 48
325 900 192 81 74 70
316 808 195 57 50 46
316 808 200 71 58 51
316 813 199 62 53 49
332 962 256 80 74 76
315 810 201 74 61 53
315 813 201 70 58 51
314 813 205 78 63 55
308 803 210 82 64 55
307 808 214 83 65 56
312 804 209 81 64 55
337 891 160 97 83 74
342 833 155 61 52 50
308 813 214 84 66 56
310 813 211 84 65 57
315 817 206 78 63 55
318 828 195 62 54 51
318 828 200 60 53 51
318 833 200 60 52 50
318 828 205 60 53 51
308 818 215 84 66 57
311 819 213 84 66 57
309 822 216 84 66 56
306 820 218 84 66 56
308 823 220 84 66 56
309 828 221 85 66 58
308 943 330 66 60 58
311 825 218 84 66 57
368 833 150 84 62 50
312 828 219 85 66 58
310 831 222 84 65 57
314 823 210 80 65 56
315 826 211 80 64 56
319 832 211 65 55 51
317 829 215 80 65 58
284 848 285 47 42 41
315 833 217 79 64 56
290 803 226 80 63 54
308 903 183 86 71 68
294 812 226 82 64 55
290 818 232 85 66 57
295 827 232 83 65 56
292 828 234 83 64 56
290 833 237 78 61 55
293 833 234 70 55 52
298 833 230 70 55 51
301 830 228 83 65 56
320 848 190 55 50 49
319 858 190 54 50 51
318 863 190 56 51 54
319 868 185 57 52 53
318 873 185 52 47 50
314 879 185 53 49 53
318 878 180 53 49 51
316 877 184 52 49 52
315 875 187 53 49 53
313 878 190 51 48 50
426 807 172 111 78 59
314 888 176 86 73 66
317 887 174 89 75 66
414 834 264 101 79 63
320 884 172 77 67 59
319 892 170 105 90 82
318 894 174 105 92 86
312 882 185 55 52 54
312 888 179 72 64 62
309 889 181 72 64 63
310 884 186 53 51 53
309 884 190 49 47 50
340 839 152 66 60 61
311 881 189 49 46 49
307 893 185 84 73 72
305 889 191 56 53 55
316 882 179 58 54 56
274 838 251 77 60 54
299 940 223 90 83 86
277 838 248 60 50 49
275 842 251 51 42 48
278 843 250 130 97 77
279 847 251 175 120 94
278 848 255 184 128 100
282 838 244 53 46 47
285 841 242 163 116 90
287 844 243 162 111 86
288 848 245 163 112 86
281 845 248 165 114 88
282 849 250 170 116 89
279 851 256 189 131 105
284 852 251 177 121 94
287 858 255 180 122 92
269 894 257 96 79 60
288 868 255 120 94 66
287 873 254 118 93 65
391 796 141 97 74 59
289 873 250 113 89 65
261 898 264 138 107 81
288 878 250 105 86 65
346 926 311 75 65 63
414 823 226 188 133 105
284 878 256 100 79 57
286 877 254 124 100 75
278 893 240 147 103 75
283 892 239 85 63 40
284 894 236 81 60 43
288 891 240 79 68 58
288 928 210 87 77 76
278 888 245 151 116 86
335 789 292 81 62 53
274 888 255 103 87 70
278 883 255 100 82 63
276 886 253 87 73 61
279 889 241 129 97 65
274 893 250 137 103 80
394 803 160 86 64 51
283 888 245 85 69 51
262 873 310 146 102 102
283 882 254 95 77 56
265 864 309 148 52 76
283 884 251 95 77 59
316 870 303 133 105 76
287 886 248 90 77 65
289 889 241 83 72 62
422 804 178 79 55 53
415 790 178 97 67 45
318 838 200 57 51 50
320 838 205 60 54 53
319 843 195 53 48 48
318 843 200 50 46 46
319 848 195 52 48 48
318 848 200 49 46 46
314 838 220 57 48 48
311 839 223 59 51 51
312 843 224 130 97 76
318 838 215 61 52 50
319 844 210 56 51 51
317 848 210 52 48 48
315 848 221 76 58 48
317 847 219 67 52 47
312 863 205 47 44 45
318 853 195 51 47 48
408 813 180 153 93 68
329 900 194 79 72 71
317 853 200 50 47 48
315 854 206 49 45 46
315 859 201 51 47 48
368 888 230 77 63 56
314 863 200 51 48 48
316 857 199 50 47 48
316 863 194 54 50 52
314 858 205 50 45 47
312 853 225 63 49 44
311 857 215 48 44 44
310 859 216 48 45 44
263 843 310 180 117 90
311 863 210 46 43 44
309 863 215 48 44 46
390 871 213 74 60 51
310 864 211 46 43 46
314 853 210 49 45 45
315 850 211 48 45 45
314 853 215 48 44 44
316 851 208 49 45 45
393 813 239 149 114 88
290 838 237 84 71 67
295 836 232 46 45 47
293 848 240 164 114 88
295 846 237 164 115 88
298 838 231 93 77 69
304 838 227 66 57 56
389 839 231 118 79 63
304 848 231 152 108 84
298 848 236 162 113 88
302 849 234 156 110 85
296 849 238 163 114 88
297 853 239 156 109 83
302 853 234 139 99 76
291 850 243 163 112 86
292 854 244 165 112 86
290 856 247 168 113 87
295 856 242 157 110 83
294 863 245 146 107 76
291 859 249 165 114 83
296 859 243 150 106 78
309 843 226 149 109 85
308 853 230 118 86 67
311 853 228 95 69 56
272 853 279 90 71 68
308 858 230 82 62 52
311 856 228 72 54 47
306 858 233 113 84 64
299 893 200 49 47 48
304 888 195 48 46 48
303 888 200 42 39 42
303 888 205 39 37 39
301 891 205 39 37 40
295 895 221 44 42 47
294 894 226 51 48 51
304 883 215 49 47 50
298 888 225 54 51 54
303 883 220 55 52 56
365 890 228 80 67 60
301 882 224 55 52 54
331 773 175 64 50 43
302 888 220 50 48 51
300 889 222 53 50 54
298 894 210 36 35 38
304 888 210 41 40 43
298 893 220 46 44 47
311 867 204 49 47 47
310 869 206 49 46 46
310 873 205 47 44 46
310 880 200 44 42 43
310 878 205 43 41 44
327 828 278 152 108 85
313 873 195 49 45 48
316 867 193 57 52 54
309 868 210 47 44 46
311 866 208 45 43 44
414 829 276 96 77 60
308 868 215 46 43 46
308 873 210 48 45 46
346 824 149 61 50 47
307 868 220 50 46 47
306 873 220 47 43 46
307 878 215 49 46 50
308 878 210 46 43 46
305 875 220 48 45 48
305 875 225 50 45 49
306 877 218 51 48 49
338 887 301 39 36 35
308 883 200 43 40 44
306 886 200 42 39 44
308 883 205 44 41 45
271 960 248 76 71 75
371 876 212 82 69 65
306 882 214 49 46 50
306 886 210 41 40 43
305 884 212 45 44 47
305 880 217 51 49 53
298 868 240 119 93 66
298 873 240 116 91 66
321 971 283 67 64 63
265 915 323 65 55 52
261 835 264 86 68 61
303 868 236 93 72 57
301 868 238 115 89 64
303 873 236 71 60 51
274 966 260 96 89 89
303 878 230 48 45 46
297 878 240 92 75 59
294 868 245 139 106 76
291 868 249 136 98 71
291 872 248 125 99 72
290 879 247 98 81 63
295 874 242 114 87 59
294 889 230 50 48 49
293 883 240 69 61 55
293 888 235 51 47 48
292 888 240 69 61 56
289 894 231 54 51 51
321 900 178 78 65 57
292 893 230 51 48 50
295 890 227 52 50 53
296 886 229 51 48 49
301 881 229 45 43 45
297 882 235 48 45 45
291 882 243 81 70 60
307 868 230 57 51 50
307 873 230 52 48 49
306 872 234 53 48 47
334 798 160 64 54 51
339 773 161 56 44 39
342 773 159 63 50 43
294 823 315 163 123 94
344 773 156 64 51 46
268 831 333 202 144 119
344 783 155 55 47 45
342 783 160 51 45 43
268 868 270 117 96 73
288 828 325 181 130 103
348 773 154 64 51 46
352 783 145 66 54 49
347 778 155 56 45 46
346 781 153 54 45 45
342 798 145 62 53 50
421 796 197 159 109 77
352 788 135 64 54 49
349 793 136 58 50 48
347 793 140 63 53 49
344 793 145 65 55 52
348 788 145 62 52 49
346 791 144 66 55 52
353 783 140 61 50 45
350 789 137 68 57 51
345 794 142 64 53 50
342 793 149 63 55 52
339 793 155 58 51 48
337 793 160 55 49 48
341 787 155 53 48 46
300 918 322 147 112 84
341 786 159 52 46 45
340 794 152 64 56 52
341 797 148 63 53 50
345 790 146 62 53 51
345 784 152 57 48 44
335 777 167 62 50 44
331 778 175 62 50 43
264 863 305 137 59 70
332 783 174 65 53 47
333 778 170 61 49 45
328 773 185 92 34 39
327 777 184 68 46 43
324 783 185 62 51 46
328 783 180 68 54 48
361 902 285 61 53 51
326 776 188 86 50 52
381 801 137 95 67 51
330 778 177 66 51 46
327 793 174 61 51 46
353 893 214 84 71 66
327 798 170 56 48 43
325 800 172 65 56 51
335 789 167 48 43 43
333 793 165 57 49 47
258 964 285 75 69 69
331 787 173 60 50 45
329 788 176 66 53 48
350 904 224 88 75 70
334 788 170 48 41 41
380 847 145 84 65 52
335 794 161 59 51 49
323 849 288 150 119 91
324 793 180 61 52 48
322 793 185 57 49 45
327 787 179 68 56 49
321 788 189 61 51 47
321 792 189 58 49 47
322 798 180 58 50 46
321 797 184 55 49 46
340 777 162 53 42 41
338 778 165 52 42 40
338 783 165 48 42 40
336 780 168 56 46 44
336 783 168 50 42 41
336 961 261 71 67 70
336 786 168 46 40 41
313 903 315 143 109 87
335 803 156 67 56 53
333 803 160 66 56 52
335 807 157 69 58 54
333 813 160 67 57 53
293 968 310 59 54 53
335 812 157 70 59 54
343 803 145 68 57 53
345 806 142 63 53 48
353 808 136 81 64 55
347 813 144 67 55 50
280 840 317 168 112 86
351 810 138 76 59 51
353 813 138 81 63 54
341 804 148 71 59 53
341 809 148 65 53 49
337 803 154 67 56 54
340 812 152 62 52 48
336 815 158 64 54 51
328 967 280 62 57 56
347 818 144 71 57 52
353 818 140 80 62 51
349 818 141 77 62 54
350 822 142 77 60 51
353 823 141 84 64 50
352 829 144 82 64 54
336 818 158 65 55 51
380 886 307 77 60 47
342 823 154 60 50 49
340 828 157 54 46 48
345 818 147 69 55 51
333 890 303 49 42 38
347 833 149 65 53 48
350 833 147 69 55 50
353 833 145 87 67 56
329 803 165 60 50 47
323 803 175 59 50 47
325 803 171 58 49 44
326 808 168 60 51 47
325 813 171 67 57 53
330 805 162 64 53 50
331 810 163 64 53 51
321 803 179 57 49 46
323 818 175 61 52 49
327 818 169 62 53 50
317 966 299 64 56 53
327 823 170 60 51 50
325 821 172 58 50 50
326 824 173 58 51 50
328 828 170 61 53 52
329 818 166 63 54 51
335 828 162 58 50 50
321 819 179 57 50 46
321 828 184 60 54 51
320 833 187 59 53 51
354 784 136 57 49 45
358 783 130 56 47 43
354 779 142 71 58 50
359 870 294 47 39 34
360 774 137 60 49 42
362 778 130 59 49 41
358 793 129 61 50 46
339 783 291 85 65 56
358 798 130 66 53 46
383 854 275 68 55 45
361 798 128 81 62 54
374 800 129 77 59 46
348 783 285 86 65 55
382 797 131 88 65 49
267 848 300 119 82 70
380 800 134 98 71 56
408 829 284 99 79 61
383 798 135 88 65 50
356 800 133 63 52 43
356 804 133 79 63 52
359 807 132 84 63 49
358 815 138 78 60 49
363 804 128 86 65 51
368 804 129 83 64 53
367 806 131 81 63 52
328 928 330 45 41 39
368 808 135 75 59 50
378 854 181 81 66 60
364 810 134 73 56 49
363 812 136 72 57 49
368 813 139 80 62 53
358 818 139 77 61 49
358 823 140 73 57 48
308 823 300 75 60 53
358 828 141 72 55 47
358 833 144 83 63 50
359 830 143 75 55 48
363 823 141 71 55 45
368 818 141 80 59 46
364 824 143 91 66 48
369 819 143 98 73 52
363 833 145 121 91 70
367 832 146 100 74 58
419 830 267 95 76 61
373 802 130 80 61 51
373 807 135 84 64 50
363 848 160 79 59 49
377 801 132 99 75 60
341 866 282 40 34 32
378 808 140 99 72 53
384 799 139 90 65 53
378 813 143 97 73 58
380 810 143 90 68 50
382 813 145 86 65 55
381 815 142 92 70 55
374 818 142 103 75 60
373 818 143 108 80 63
373 823 144 109 80 64
375 823 141 107 78 63
373 833 132 124 94 67
278 947 328 57 54 54
375 829 131 127 99 70
374 829 136 118 91 67
375 828 140 148 121 105
380 820 145 93 73 58
381 817 142 89 68 52
382 818 145 79 62 53
377 828 136 112 87 65
376 830 130 136 106 73
378 828 140 117 98 83
378 828 145 136 113 94
378 833 145 104 84 69
370 830 148 82 62 54
283 858 317 176 137 114
373 833 150 140 110 88
378 823 148 93 73 61
377 828 149 143 115 94
378 833 149 112 91 78
383 828 150 78 62 55
381 833 151 77 63 58
320 773 192 98 46 44
288 873 321 153 121 92
379 794 256 77 61 56
384 794 251 83 65 57
380 800 252 81 62 56
358 833 254 72 53 45
363 828 256 80 57 49
363 833 256 35 29 27
383 808 246 72 55 48
377 803 254 76 60 52
382 803 249 78 60 51
381 807 248 75 58 50
383 813 245 64 50 44
369 818 256 58 48 45
368 823 256 52 43 40
371 822 253 62 50 45
374 823 250 65 52 47
375 828 247 50 40 37
375 832 247 42 35 34
290 909 327 155 120 98
372 834 255 31 29 30
383 818 244 56 45 40
382 823 244 58 46 41
376 822 248 69 55 49
412 823 229 185 132 105
378 828 245 61 48 43
295 900 202 55 52 53
382 828 243 59 47 42
384 823 242 49 39 38
384 828 241 57 44 40
382 834 244 59 46 41
334 843 160 61 56 57
335 844 157 67 60 61
335 854 157 76 65 61
335 856 157 84 70 65
287 837 315 163 114 89
333 863 160 87 74 69
339 838 155 58 51 54
337 838 160 54 49 51
340 914 223 66 58 58
341 836 154 60 52 49
343 843 151 76 61 57
340 842 152 68 60 60
336 841 158 56 51 53
348 847 152 91 72 62
353 848 151 96 73 58
338 853 155 86 71 65
264 933 230 74 67 66
336 850 158 69 60 60
336 852 158 71 61 60
338 858 156 86 69 64
336 864 158 83 69 64
344 864 158 119 104 98
409 836 161 101 81 67
352 852 151 109 85 68
350 854 151 100 81 68
348 853 155 94 73 62
346 858 151 102 84 81
348 858 156 104 84 69
348 863 160 106 89 75
373 913 200 94 87 84
325 838 176 63 56 56
326 838 174 62 55 55
344 889 309 37 33 33
329 838 170 61 54 55
343 878 175 89 74 69
327 848 175 58 53 52
335 839 162 55 51 53
261 840 274 81 64 59
331 834 168 63 55 56
330 844 167 57 53 54
329 843 170 57 51 52
331 841 168 58 53 53
343 878 170 98 80 69
328 848 170 59 55 55
323 838 180 60 53 53
321 838 185 58 52 51
326 845 178 54 49 48
373 872 311 43 37 33
320 842 187 58 52 51
327 858 175 59 54 55
329 858 170 63 58 58
326 863 174 59 53 55
331 853 164 66 59 59
332 858 164 70 60 60
398 801 161 89 65 52
331 862 164 77 66 64
330 863 166 70 62 61
322 853 185 55 50 51
324 858 180 56 50 51
321 875 298 150 117 92
325 860 177 58 53 54
325 864 176 58 52 55
321 857 188 56 51 52
320 860 187 55 49 51
336 838 163 56 50 51
333 878 161 122 103 90
328 888 160 128 104 89
378 872 276 66 50 52
333 883 146 114 92 80
330 884 147 115 95 86
335 868 286 128 99 81
330 887 147 112 94 84
329 884 150 117 98 87
330 884 161 134 109 91
331 888 158 121 99 87
334 884 156 126 102 92
303 913 190 88 78 77
333 893 160 105 88 79
341 869 151 81 63 54
338 873 150 87 74 66
338 868 159 100 84 79
338 869 155 89 72 63
338 873 156 109 92 82
338 873 160 141 124 115
342 868 154 102 83 76
343 868 160 137 125 120
342 873 155 110 91 82
339 874 147 86 74 65
337 878 146 97 78 67
339 878 151 99 77 69
341 876 146 95 76 64
392 872 300 79 61 53
341 879 155 102 88 82
341 878 161 106 94 87
336 886 144 98 76 61
342 882 152 106 90 79
336 881 158 129 112 104
342 883 156 103 89 82
265 956 252 72 69 71
342 886 157 101 85 76
342 887 160 95 82 74
327 868 170 61 54 54
327 873 170 64 56 54
326 871 173 59 52 52
329 878 166 82 69 61
331 868 163 87 75 73
331 874 163 81 68 62
321 867 183 57 52 53
320 869 182 57 52 53
324 888 165 124 100 85
328 883 165 116 95 78
325 885 167 111 90 75
321 881 173 66 58 59
322 887 169 109 89 74
324 893 161 116 97 87
321 895 173 115 106 100
294 862 317 165 128 96
335 895 176 103 92 84
334 894 180 96 86 81
353 866 165 102 82 69
345 875 171 97 81 69
353 873 180 76 69 69
349 874 179 80 70 69
348 878 180 80 71 72
349 880 185 77 68 67
353 878 190 77 67 65
340 883 166 98 84 73
341 883 164 101 88 77
339 883 175 89 73 70
279 869 262 108 86 60
338 888 170 93 79 69
341 881 168 98 80 66
340 880 173 101 81 75
342 882 176 83 72 72
337 892 165 96 82 71
343 883 180 80 74 76
392 888 220 92 78 65
340 885 179 78 70 72
342 887 182 79 74 75
344 884 184 81 76 77
288 936 217 88 80 82
343 888 185 80 74 76
338 892 180 83 74 72
340 890 184 81 76 77
343 892 190 79 73 73
347 883 185 77 69 70
345 882 188 75 67 68
346 886 186 78 72 75
347 888 190 77 70 69
341 937 299 48 42 40
346 891 192 79 72 73
367 848 145 108 85 72
369 846 141 113 89 72
356 840 148 92 69 60
358 848 150 124 93 68
330 918 214 84 76 76
362 838 147 117 89 73
365 835 148 93 72 56
367 838 152 94 69 61
362 842 147 121 93 72
418 793 190 132 89 63
362 848 150 115 86 67
367 842 155 105 79 64
368 844 159 85 65 52
365 845 158 96 73 54
357 852 156 117 90 70
364 851 146 106 82 64
268 848 275 76 63 65
418 793 185 107 75 51
364 849 146 106 82 64
362 852 149 110 85 66
368 851 146 89 69 60
368 852 149 77 61 54
360 850 158 87 66 57
365 855 153 86 67 68
361 856 158 139 128 123
369 841 137 138 106 73
373 841 137 121 94 70
373 843 140 100 78 63
374 842 145 116 96 83
373 846 141 80 66 61
373 847 145 86 70 60
377 837 136 98 76 56
381 834 136 86 71 61
382 834 140 81 70 60
382 838 141 88 76 67
380 837 146 82 71 66
366 891 232 81 67 61
378 843 145 93 76 63
380 842 137 74 60 52
383 843 144 83 71 62
373 838 150 144 120 103
390 874 222 79 63 52
371 839 154 122 96 81
374 843 150 117 95 79
373 848 150 83 67 54
371 844 158 75 59 44
373 847 160 75 60 52
381 838 150 73 64 63
382 838 155 74 62 58
282 944 229 78 71 74
378 847 150 87 68 54
379 847 155 80 65 54
378 847 160 79 65 59
382 843 155 76 64 57
381 847 160 72 63 61
371 851 152 69 59 54
371 852 154 78 65 60
374 859 151 80 72 70
368 842 276 51 41 32
372 861 152 81 74 71
368 861 154 82 74 71
373 861 154 80 72 69
384 852 150 78 64 59
380 854 152 79 61 54
378 851 160 76 58 50
382 856 149 84 67 65
376 857 153 77 70 67
263 878 315 138 88 82
354 860 164 105 83 70
358 858 165 93 75 64
356 861 162 102 83 71
357 863 164 94 76 65
358 863 170 83 68 63
397 793 239 161 114 82
362 851 161 83 65 57
379 879 294 77 61 53
363 853 165 111 98 92
400 773 237 164 120 89
364 850 163 83 68 58
369 850 163 83 70 64
368 852 166 82 67 61
287 923 328 172 132 107
395 860 214 75 61 54
365 855 168 76 63 59
362 856 166 86 73 69
363 858 169 76 63 57
362 861 171 75 61 55
363 863 175 77 63 58
369 859 173 73 61 57
293 828 315 169 125 97
368 863 180 69 58 54
367 863 185 64 52 52
417 818 200 159 110 81
367 862 190 73 58 56
400 864 290 79 59 46
374 849 165 69 57 52
378 847 165 77 65 59
382 846 165 76 67 63
378 849 170 79 70 65
383 848 175 82 69 64
352 942 265 59 53 50
373 851 166 74 58 55
375 854 174 81 68 63
373 858 175 74 61 57
377 851 164 77 62 55
376 851 171 84 73 70
374 855 182 79 66 60
369 859 182 66 54 51
369 859 185 74 60 58
373 858 180 72 60 56
373 857 185 82 67 62
270 890 323 142 108 87
372 862 179 69 58 55
369 860 190 79 64 60
382 853 180 84 69 62
291 841 298 47 37 35
383 852 185 76 62 58
384 850 184 77 64 60
383 853 190 70 57 53
367 902 315 73 60 52
377 856 179 78 64 59
377 857 191 79 63 58
355 865 173 81 70 68
349 870 293 37 33 32
358 867 176 76 64 63
357 872 189 70 58 56
359 870 191 71 59 56
356 876 182 74 64 67
356 876 184 74 64 65
354 875 187 73 62 62
364 865 179 77 64 60
365 865 189 64 53 53
321 838 207 58 53 53
388 803 244 58 47 42
287 923 209 80 70 67
321 834 210 60 53 51
325 896 162 107 88 81
320 837 211 59 53 52
321 842 210 58 52 52
321 842 214 54 50 51
353 847 252 38 33 29
353 847 255 33 29 28
345 895 199 79 70 70
350 889 194 80 72 70
348 893 200 80 72 71
350 890 198 81 73 72
352 888 200 81 73 71
351 891 200 83 75 73
312 904 183 85 71 68
345 895 204 80 71 72
266 887 263 125 99 71
271 856 278 90 77 64
348 893 205 81 73 72
351 891 203 79 72 72
350 890 206 82 72 68
349 894 214 83 71 66
350 890 208 76 65 62
384 855 195 66 54 50
379 859 195 74 59 53
379 860 200 75 59 53
328 848 286 157 125 97
377 861 196 74 59 53
383 858 200 70 57 52
378 863 204 72 59 53
380 860 203 74 61 54
358 838 252 32 28 26
355 845 253 23 22 22
357 842 252 26 25 25
358 843 255 25 24 25
356 846 256 27 27 27
362 838 255 26 24 26
361 841 256 24 23 25
374 836 256 31 28 28
378 836 251 32 29 28
383 838 250 51 41 36
359 870 194 71 59 57
355 878 194 77 67 64
357 878 200 80 69 66
359 879 204 83 69 63
363 868 195 74 61 57
363 873 201 75 64 61
368 868 200 76 63 57
364 874 203 77 66 63
355 920 314 79 65 62
363 878 204 81 69 64
369 878 210 78 66 61
260 937 318 183 141 122
355 884 204 78 67 64
358 883 204 80 68 62
308 903 319 152 111 88
358 888 205 77 65 61
363 883 205 84 70 64
362 888 205 82 71 68
362 893 200 81 71 69
361 889 201 88 78 76
358 892 210 80 67 62
358 893 215 82 70 63
369 875 209 80 69 65
359 894 220 79 67 62
363 888 210 84 72 68
365 884 208 81 67 60
368 883 210 81 68 63
327 936 328 64 55 53
366 886 211 85 72 66
364 889 215 76 64 58
368 887 225 76 62 55
370 865 199 77 62 55
371 871 202 76 62 57
373 872 205 77 63 55
377 867 201 74 62 55
378 869 204 73 60 52
388 873 290 68 52 46
343 813 274 159 110 87
378 872 206 72 58 50
383 878 207 72 61 52
373 874 210 79 64 58
373 878 215 81 66 58
374 879 220 71 57 51
374 880 224 66 53 49
377 879 215 78 65 57
378 878 225 63 51 45
383 878 221 71 56 44
372 892 207 73 62 57
380 887 196 77 65 55
381 886 196 76 65 55
383 885 200 77 66 59
384 886 200 76 66 60
379 884 206 74 64 57
381 886 207 72 61 58
371 882 216 80 66 58
379 883 210 76 64 56
379 888 209 76 64 58
380 886 214 73 58 49
379 882 219 70 57 49
377 881 223 68 54 48
383 882 219 71 58 47
363 893 230 72 60 55
351 928 275 50 44 41
364 894 235 74 61 57
369 893 250 66 57 54
368 893 255 64 55 51
382 872 230 62 49 42
381 871 235 58 45 39
403 823 179 130 82 61
383 869 235 60 47 43
383 868 240 60 47 40
325 904 307 88 52 43
383 874 225 69 54 45
387 872 309 70 57 47
337 927 328 52 46 43
380 875 227 60 48 42
379 873 240 56 45 40
381 867 245 55 44 32
384 864 242 70 54 42
379 869 250 48 39 30
377 873 250 53 42 36
377 873 255 51 42 37
379 870 255 50 39 39
377 878 255 66 52 45
375 880 230 56 44 40
372 887 235 67 56 49
375 880 235 52 42 38
374 883 240 58 49 41
375 880 240 56 46 39
372 888 240 67 57 52
370 890 238 71 61 55
375 880 245 57 47 41
373 888 245 70 60 55
371 887 254 67 54 48
375 880 248 54 45 40
318 924 205 85 80 80
372 888 250 64 53 48
371 891 249 64 54 51
376 881 255 68 52 43
372 900 207 78 64 55
299 904 191 91 82 80
312 826 294 46 39 40
302 898 190 85 75 74
305 898 186 92 79 77
301 902 189 94 83 81
303 908 186 91 79 76
301 906 188 93 81 80
309 897 182 88 74 70
313 898 181 92 77 72
313 908 185 88 77 76
308 911 186 94 82 82
318 899 180 92 78 73
309 788 311 68 53 47
318 902 182 80 67 63
317 908 185 81 72 71
316 911 187 86 76 73
305 920 191 88 76 76
420 788 193 144 99 69
313 918 189 82 71 68
308 924 190 80 70 66
313 923 190 84 74 70
312 926 192 81 71 70
319 919 186 89 80 78
318 918 190 89 80 79
302 836 289 40 34 33
319 922 186 91 81 78
405 782 232 154 111 79
273 928 220 74 67 66
268 928 225 70 64 64
270 929 222 75 67 67
271 926 223 71 64 64
277 912 224 56 52 53
288 903 220 48 45 46
338 823 275 151 108 86
283 913 215 66 61 62
289 903 215 51 48 50
286 912 209 70 65 66
285 909 216 57 53 55
283 908 220 53 49 51
281 912 219 59 56 57
285 905 222 50 46 47
284 903 226 59 53 51
289 922 206 81 72 68
278 918 220 66 62 63
276 917 223 66 61 62
293 833 310 115 84 68
279 928 216 79 69 67
333 933 225 59 53 55
282 918 214 71 64 64
404 829 165 104 80 63
282 923 214 69 60 59
273 903 240 115 88 69
272 908 235 119 86 64
271 912 233 73 56 49
264 909 246 61 56 57
263 908 250 62 57 57
262 908 255 62 57 56
261 912 249 59 55 56
261 911 254 53 50 52
274 898 245 91 66 54
268 898 255 95 79 64
270 905 242 93 77 63
266 906 249 65 57 54
264 923 235 68 63 66
261 927 239 62 58 60
270 915 232 56 52 55
267 918 234 63 58 58
265 919 236 64 59 60
266 916 238 60 55 56
267 923 230 65 60 62
264 928 231 69 63 64
266 927 229 69 63 64
260 919 246 58 55 57
259 918 250 55 52 55
257 918 255 53 51 53
261 916 248 58 55 57
260 924 242 56 54 56
256 922 254 54 51 53
256 927 249 52 49 51
278 899 236 114 71 53
276 911 228 55 49 50
288 899 225 51 48 49
283 898 235 79 56 45
283 902 234 70 54 48
286 897 233 61 54 50
281 906 228 59 53 52
291 976 262 64 60 59
276 896 243 120 74 62
270 932 222 83 72 70
269 937 226 79 70 70
275 931 217 95 83 78
278 936 221 77 68 68
353 853 280 42 36 32
278 939 224 74 67 67
282 935 218 86 77 78
283 938 220 86 79 79
316 879 308 144 112 85
282 940 224 85 77 78
283 942 226 81 74 76
288 941 222 90 82 84
288 943 224 89 82 84
258 933 240 73 67 69
260 933 236 75 68 69
312 883 314 160 126 99
261 933 234 73 67 67
264 938 230 78 70 70
260 937 236 76 67 68
262 938 234 77 70 69
353 923 270 46 40 38
263 943 235 74 68 69
266 933 228 74 66 66
406 772 162 87 64 48
267 939 228 78 70 69
273 941 227 73 66 67
256 938 244 79 73 74
258 943 245 71 66 67
265 946 236 69 63 66
266 945 234 72 66 68
323 969 285 66 60 58
268 947 235 72 66 68
264 947 241 67 62 64
267 949 240 68 63 66
299 877 322 164 127 94
269 952 241 70 65 67
378 864 300 46 40 36
274 952 237 74 69 72
378 863 295 46 39 35
273 954 240 71 66 69
259 947 246 69 65 67
256 945 248 69 65 67
257 950 254 74 69 70
258 952 255 75 70 71
407 793 160 86 64 50
260 951 252 68 64 65
262 950 249 66 63 64
264 958 255 77 73 75
266 950 244 67 63 64
270 957 246 73 70 72
347 897 317 46 41 39
266 960 254 81 77 79
278 942 226 83 76 78
279 947 232 88 81 83
277 949 233 82 77 78
278 953 236 75 70 72
276 955 238 71 67 69
336 802 288 150 110 92
283 948 230 80 74 76
285 946 227 83 76 77
308 838 285 117 89 69
288 947 227 90 83 86
288 952 231 85 78 81
281 950 233 79 73 76
256 882 305 153 110 94
287 954 233 83 77 80
275 957 242 72 68 70
294 903 200 60 56 58
291 907 204 64 60 61
290 914 202 80 72 70
355 773 282 86 65 54
299 898 195 64 60 62
297 898 200 55 52 54
287 913 328 157 127 102
297 903 195 79 72 73
301 896 194 65 61 62
300 899 192 78 71 71
292 902 209 51 49 50
290 904 211 54 51 53
293 898 215 41 40 42
291 901 215 47 46 47
293 898 220 43 42 45
292 897 225 47 46 49
290 900 221 43 43 45
296 896 218 41 39 43
294 918 196 88 79 75
386 813 243 47 39 38
293 922 201 85 75 72
360 875 308 37 32 31
298 917 195 80 70 67
298 920 198 86 76 73
303 918 194 90 79 78
298 922 201 84 76 72
304 922 195 98 88 87
303 923 200 89 82 80
298 924 204 82 75 74
303 925 204 88 81 80
303 926 206 87 81 80
298 928 210 84 78 79
308 925 204 94 86 85
313 926 206 93 87 87
313 929 210 98 93 94
318 928 210 91 87 88
291 896 228 53 51 53
292 931 212 87 79 81
293 933 215 84 77 78
294 935 218 89 82 84
291 936 217 88 81 83
293 938 220 92 83 86
293 943 224 93 85 89
297 930 213 84 78 79
298 932 215 86 80 80
301 888 323 167 126 101
300 931 212 88 82 83
303 937 221 90 84 87
303 940 223 89 83 85
312 930 213 97 93 94
308 939 224 87 81 83
313 943 225 90 86 88
293 950 228 87 80 82
415 808 193 142 96 69
298 949 228 85 79 82
256 912 264 99 84 70
298 953 231 85 78 82
298 958 235 84 80 84
308 943 226 84 78 80
307 946 227 83 75 78
308 953 231 93 87 91
310 945 228 82 78 79
398 859 304 85 69 58
308 958 235 93 88 93
313 955 233 92 86 89
313 958 235 90 85 89
318 945 228 88 82 85
318 953 231 86 79 82
273 963 250 82 78 81
283 963 241 84 80 84
286 960 238 89 86 88
394 823 170 85 60 46
288 963 240 87 83 87
279 962 242 80 76 78
278 968 255 92 86 87
329 896 161 110 92 82
282 965 243 85 82 85
285 966 242 86 83 86
288 967 245 80 78 81
288 968 250 76 73 75
293 964 240 88 86 90
303 961 237 94 90 95
303 963 240 91 87 92
292 966 246 79 77 79
293 971 256 80 74 77
298 965 245 86 83 87
299 967 246 86 82 86
300 971 247 82 79 82
299 973 250 83 79 82
296 970 253 83 78 80
298 973 255 83 79 81
299 976 256 74 70 70
308 961 237 92 87 93
313 961 237 86 82 86
317 961 237 86 81 83
318 963 240 86 81 83
308 968 245 87 84 88
313 967 245 85 81 84
307 971 247 86 84 87
308 973 250 86 83 85
314 965 243 87 82 85
319 964 244 86 81 83
318 972 255 87 81 84
308 976 256 77 73 75
324 897 165 112 100 95
328 900 170 82 68 63
328 901 171 78 65 61
327 901 175 80 69 65
375 885 280 100 77 63
423 778 215 163 116 81
332 896 161 111 95 89
332 897 165 99 85 78
323 903 185 82 74 72
324 903 190 83 76 73
326 901 190 84 76 73
322 907 191 79 72 70
332 897 180 96 88 83
331 896 185 92 84 82
333 897 191 79 72 72
321 921 186 96 88 87
371 914 186 87 77 67
370 915 186 87 77 67
370 915 188 87 77 67
370 917 190 89 77 67
320 913 193 89 78 76
326 906 196 78 72 71
408 796 165 105 77 54
324 913 200 88 83 83
328 908 205 81 73 72
326 911 202 82 75 75
316 976 265 79 76 76
326 913 206 83 77 76
412 844 175 98 78 65
331 901 197 74 67 67
350 900 219 89 77 72
329 910 209 77 69 68
328 913 210 80 74 74
331 911 212 85 77 76
368 873 310 40 35 32
332 912 215 85 77 75
335 905 208 84 76 76
320 919 194 95 89 89
321 918 195 94 89 89
353 802 274 160 114 92
323 918 200 89 84 85
324 918 205 88 82 82
388 893 219 77 63 53
409 838 180 92 71 59
325 914 204 87 81 81
409 794 169 117 83 59
326 917 207 86 80 80
325 920 208 86 79 78
327 918 210 80 73 73
323 923 210 82 76 76
323 926 212 81 75 75
301 782 318 86 66 51
327 922 211 75 67 67
348 948 265 57 51 48
328 923 215 79 71 71
331 918 216 87 79 78
334 918 220 82 74 74
353 888 314 44 39 37
335 920 224 75 68 68
331 922 216 86 78 77
348 948 270 58 51 49
330 925 218 81 73 75
332 927 222 73 65 67
338 897 195 76 69 68
336 902 206 75 70 70
343 898 205 76 70 69
410 798 157 78 57 46
346 896 207 78 71 69
338 903 210 75 69 69
340 900 209 72 66 66
339 903 214 72 66 66
420 778 193 151 106 74
343 898 210 74 66 65
346 896 210 79 70 67
347 902 216 81 70 66
353 897 215 88 75 70
349 903 220 85 73 70
389 863 231 69 54 45
354 899 225 86 74 70
351 902 222 90 79 75
352 902 225 88 76 71
345 905 218 76 66 65
337 917 221 80 73 72
338 918 225 75 67 66
349 908 230 79 68 64
350 905 228 87 75 71
351 906 231 76 65 62
351 911 237 71 61 58
338 923 229 67 58 59
343 923 231 69 60 57
342 928 231 79 67 64
345 915 229 69 59 57
362 897 235 68 57 54
346 916 232 73 62 59
345 919 233 69 58 57
345 924 233 75 65 63
352 923 246 80 70 68
351 928 246 80 69 66
327 933 221 75 68 69
285 846 298 43 36 35
323 939 224 83 77 79
326 936 222 76 67 69
418 803 180 84 57 49
328 938 225 69 62 64
323 943 226 79 72 74
328 943 226 76 68 68
333 938 226 74 67 67
331 941 227 78 68 69
335 940 229 80 72 72
334 944 235 82 74 74
324 946 227 78 72 72
323 948 229 81 74 74
367 813 259 49 40 39
326 946 227 77 70 69
327 952 235 83 76 77
329 949 235 81 74 75
322 957 236 83 78 78
323 958 240 83 78 80
330 950 238 80 72 74
331 951 241 79 72 73
335 945 238 80 73 73
324 960 244 84 78 79
326 956 242 83 77 79
328 958 245 82 76 78
333 953 245 81 73 74
332 958 250 82 74 75
334 954 249 83 75 75
338 933 229 79 71 70
342 932 231 83 73 70
336 937 227 79 71 71
338 938 230 82 74 74
336 941 232 82 75 74
337 942 236 81 73 72
343 938 240 76 67 67
346 932 241 77 67 66
343 943 245 85 76 74
351 931 247 81 69 67
354 928 250 76 67 67
350 934 249 80 69 66
345 939 244 85 75 74
349 938 250 77 67 66
351 937 251 73 63 64
350 940 253 68 61 63
336 951 247 83 75 74
339 949 249 83 73 71
362 896 202 81 72 72
362 896 204 84 73 72
356 896 221 82 71 66
363 919 210 89 80 77
367 917 210 85 76 73
374 904 206 84 68 60
373 913 204 90 81 78
378 910 196 86 75 70
377 906 206 89 73 65
373 900 209 75 59 53
373 902 210 78 61 53
370 907 208 84 72 60
374 913 210 93 79 71
378 903 210 76 59 52
377 912 210 95 77 65
378 910 213 92 75 69
376 912 213 96 78 65
371 916 200 91 81 76
372 916 204 88 74 71
372 916 210 91 78 73
355 900 228 83 72 67
359 899 230 75 65 60
357 901 231 75 64 60
354 904 234 74 62 58
358 903 240 59 50 47
406 848 200 96 75 66
361 896 230 71 61 58
359 903 250 53 45 42
356 908 245 47 40 37
356 912 247 46 39 36
355 910 248 45 38 34
378 878 280 62 48 47
355 913 251 44 39 37
356 908 250 49 42 39
288 843 300 42 35 33
357 908 255 47 40 38
356 913 250 47 41 39
364 899 250 69 60 55
415 792 178 98 68 49
361 901 254 61 53 49
369 840 273 47 38 30
366 896 250 68 60 58
356 918 251 55 47 45
356 918 255 48 42 39
354 923 250 73 64 65
388 869 275 74 56 55
357 923 255 55 48 47
356 928 255 60 53 51
356 931 256 61 55 53
323 962 245 85 80 82
326 961 247 82 75 77
324 964 249 82 76 77
320 965 248 85 79 80
328 962 250 83 76 77
388 769 99 106 79 62
388 771 101 107 81 62
300 914 322 153 112 86
390 770 103 110 86 66
389 775 109 106 80 59
391 772 106 106 79 58
286 816 333 173 128 102
393 773 115 97 73 57
333 833 279 153 116 92
394 775 119 102 76 58
388 778 115 101 76 58
389 779 120 98 73 55
387 782 121 92 70 56
392 777 121 100 76 57
394 779 124 99 75 62
392 782 126 97 73 59
395 770 113 96 74 55
386 786 122 92 67 58
352 822 264 147 107 86
387 787 126 84 64 51
401 773 122 92 69 57
353 938 270 62 56 55
402 777 126 84 65 53
390 772 142 56 49 41
393 773 140 59 44 40
394 773 136 81 61 50
397 774 134 94 71 55
398 778 135 92 70 57
397 782 130 87 64 52
398 783 135 85 64 51
394 777 145 56 44 39
397 778 140 85 64 54
399 783 140 84 64 51
396 897 230 86 86 86
390 773 150 67 55 46
391 772 150 67 53 43
390 774 154 66 51 45
368 867 295 46 39 35
393 779 150 59 49 43
390 777 151 55 41 39
389 778 155 64 47 43
393 782 155 68 57 50
393 782 159 69 56 50
394 770 154 59 49 44
398 784 155 68 57 51
398 783 160 61 51 45
389 789 129 85 65 51
283 913 328 147 120 97
387 792 131 85 63 49
392 787 131 91 71 57
422 843 178 93 76 67
405 828 154 100 73 58
390 790 133 96 74 60
393 788 135 82 63 52
387 796 137 92 69 51
393 793 140 79 59 50
396 786 136 74 57 47
398 788 140 75 58 47
398 793 145 72 55 46
395 795 148 63 49 42
398 795 150 64 50 43
397 796 151 63 49 43
394 799 154 70 54 44
398 798 155 75 57 46
402 777 130 95 73 59
401 784 141 90 70 53
416 831 207 155 101 80
402 784 145 77 60 50
403 773 161 68 53 47
401 787 142 88 66 47
402 785 150 76 59 49
402 792 146 71 56 46
406 789 150 76 59 51
401 785 153 67 51 42
400 786 156 68 59 53
403 787 155 68 54 46
402 784 161 71 56 48
404 787 160 76 57 49
406 790 154 81 62 51
404 795 155 85 64 51
404 779 163 82 62 46
407 778 165 90 66 51
407 783 166 84 64 48
410 770 168 106 75 60
410 773 169 103 73 54
415 775 173 113 83 59
409 778 169 102 73 56
413 778 171 109 79 58
274 971 285 65 60 58
410 782 168 100 72 52
413 783 170 104 74 56
415 783 173 115 82 61
405 786 163 84 62 52
408 788 165 84 62 49
307 869 314 145 117 86
407 793 165 87 64 50
404 798 165 105 75 56
407 797 170 125 85 58
405 800 175 119 77 52
408 798 175 125 82 53
414 793 175 114 80 56
414 798 165 109 78 57
426 808 164 130 90 67
410 795 174 131 89 59
407 800 178 122 77 53
305 955 322 61 56 54
385 809 148 74 56 48
391 801 152 73 55 47
392 802 156 71 55 46
389 808 155 70 55 47
389 808 159 68 54 48
386 818 152 78 61 54
396 849 235 75 59 52
424 808 163 125 88 67
386 822 152 73 57 53
408 830 277 97 77 60
388 823 155 73 58 51
391 818 161 73 61 57
391 822 161 83 67 62
410 801 158 81 57 48
415 804 159 110 80 62
408 809 161 95 70 58
398 837 229 147 98 77
409 813 160 86 65 54
416 828 220 191 133 105
412 808 158 104 76 60
405 818 159 94 70 57
408 823 160 88 67 57
409 833 160 100 78 64
413 818 155 98 79 66
412 817 158 92 73 58
413 823 155 94 78 67
409 823 156 98 77 64
413 828 158 96 78 65
413 834 159 103 83 69
392 813 161 76 59 54
393 808 165 92 69 57
392 813 165 78 61 58
395 805 163 97 72 56
398 803 165 99 74 57
399 804 170 112 79 56
394 813 175 108 75 54
395 810 175 110 76 47
395 813 178 100 64 43
390 825 163 84 66 58
391 827 166 81 60 57
392 828 170 88 61 56
391 832 171 87 67 59
395 817 175 108 72 51
399 818 172 115 75 50
396 819 175 103 69 50
396 822 176 110 75 55
399 830 167 127 83 62
399 831 166 125 82 59
393 833 175 98 68 54
397 818 181 118 76 51
399 817 183 130 86 57
397 829 177 122 82 58
401 801 166 101 75 55
278 788 339 170 122 88
409 809 164 109 81 64
405 815 167 105 75 60
404 815 168 109 77 60
412 803 175 150 102 69
399 879 219 69 54 46
414 803 170 132 93 68
410 809 169 124 87 63
341 843 269 124 98 79
413 813 170 126 85 65
410 813 176 158 97 74
404 800 178 107 65 38
424 788 210 164 113 78
407 803 179 141 93 66
407 808 180 168 106 76
403 813 184 142 92 60
414 804 186 114 81 59
413 808 185 115 81 62
414 813 190 108 75 55
405 818 167 97 69 55
404 819 173 116 80 59
404 824 176 121 79 61
408 818 176 116 81 63
408 823 170 96 73 58
408 823 175 100 71 58
406 827 165 89 73 58
402 832 170 96 76 64
402 833 175 97 73 60
319 975 270 74 71 75
407 827 170 97 75 61
407 827 175 96 70 56
411 817 166 94 70 56
413 817 169 109 81 65
413 818 176 109 78 62
413 823 169 109 81 65
413 833 170 107 82 69
414 828 169 107 82 69
403 818 180 142 89 61
402 833 180 108 74 58
406 831 182 80 62 52
407 832 185 81 63 53
409 829 185 76 57 49
413 820 178 109 78 62
415 818 190 95 68 50
414 823 190 91 67 51
418 798 159 101 74 55
421 795 158 106 76 54
421 797 157 97 68 52
421 798 159 105 75 54
418 783 180 123 86 61
419 783 185 125 90 63
421 782 191 143 100 69
418 792 172 111 76 58
422 799 173 90 65 54
418 788 180 116 83 59
418 793 180 106 74 52
419 788 190 136 95 65
417 798 180 92 63 49
418 798 190 128 87 60
416 806 157 116 84 63
421 811 158 97 75 61
417 817 152 98 81 69
418 818 155 97 81 69
418 823 154 95 79 69
416 829 158 99 81 66
421 828 156 104 82 70
422 808 170 113 79 63
343 943 290 59 52 49
416 811 167 113 82 62
417 813 170 116 82 64
423 813 169 117 82 64
325 814 291 152 111 90
421 812 176 104 74 57
427 804 172 105 74 54
425 813 167 121 84 66
426 813 167 121 83 64
426 812 169 120 84 64
420 801 177 86 59 48
416 802 184 115 75 54
422 808 179 94 69 52
420 813 181 107 81 61
421 812 179 109 80 60
374 773 271 87 66 57
423 823 169 103 75 61
423 828 165 104 78 66
423 828 162 118 85 72
421 830 168 101 79 68
422 831 170 101 77 64
399 773 240 112 86 68
398 783 240 154 111 85
391 772 254 92 75 67
390 774 256 91 75 67
392 778 250 86 69 61
354 918 310 72 58 60
306 806 308 59 44 39
391 776 253 89 72 64
391 782 249 84 68 59
396 773 244 51 44 42
393 783 245 54 46 44
393 798 241 130 95 73
399 799 237 163 121 89
390 789 247 76 62 54
313 818 299 66 53 47
392 793 244 45 38 38
388 788 250 85 67 59
386 787 254 88 70 63
387 792 249 82 64 56
386 796 248 80 60 52
333 893 305 44 37 35
417 808 225 174 127 95
395 789 242 113 85 67
394 793 242 132 97 75
402 778 234 147 102 72
405 778 232 150 108 76
406 784 233 157 115 82
411 778 228 166 119 85
414 783 226 166 121 86
407 788 233 164 121 89
409 788 232 167 122 88
408 793 234 168 123 92
403 798 236 166 124 91
408 798 234 170 126 94
413 793 230 170 123 91
410 791 232 168 123 91
411 796 233 172 126 93
410 799 232 172 127 94
415 813 193 127 86 60
415 818 194 107 74 53
415 820 198 128 85 60
415 824 199 109 69 55
413 828 195 101 74 58
261 871 305 147 126 117
414 833 205 108 71 63
414 833 215 190 131 103
388 813 241 77 61 53
393 803 240 138 103 78
397 803 238 156 117 87
399 803 237 163 122 91
399 808 237 161 121 92
395 814 237 156 117 90
396 812 238 157 117 92
390 804 242 60 48 44
389 808 242 67 53 47
388 818 240 95 76 62
392 822 238 148 110 86
393 823 237 151 110 87
388 833 235 126 89 72
386 832 238 101 74 61
393 828 236 149 107 86
398 818 237 162 120 94
396 818 238 157 118 92
398 828 234 165 117 94
403 803 235 172 128 96
407 803 234 174 128 95
407 808 234 172 127 96
403 813 235 168 124 96
413 803 230 173 126 95
410 808 232 170 125 95
412 808 229 171 126 95
415 804 227 172 124 95
413 813 229 172 126 95
410 813 232 170 125 95
407 818 234 174 127 99
407 822 233 176 126 100
404 829 231 177 124 100
410 818 232 175 129 101
413 818 229 179 132 103
415 819 226 183 132 103
371 835 258 35 31 28
347 793 284 58 46 45
401 861 231 68 50 43
411 826 228 190 132 106
410 830 227 192 133 106
423 773 200 148 104 67
424 778 200 153 106 72
424 783 200 153 106 71
313 925 323 34 32 33
424 773 205 153 107 70
371 845 278 48 40 32
424 778 205 156 109 71
416 770 223 164 120 84
417 773 223 164 119 86
419 773 221 165 119 86
421 770 218 166 118 83
421 773 219 166 120 83
424 778 210 160 111 75
417 778 224 165 119 87
420 778 221 167 119 86
417 783 224 167 120 87
421 778 219 167 121 86
421 783 219 168 119 87
422 788 195 153 107 75
308 813 304 76 61 52
420 800 198 162 111 78
424 793 205 160 110 75
423 798 205 162 110 72
422 788 215 169 119 85
424 793 210 168 114 80
422 793 215 174 121 88
420 788 221 172 124 90
420 793 221 174 126 94
262 907 317 125 95 77
423 798 210 169 115 82
420 798 221 177 126 94
418 798 225 174 125 94
421 798 219 177 124 93
416 798 228 171 123 93
417 808 196 154 104 75
418 808 200 168 114 86
421 802 201 166 112 81
420 809 203 171 116 85
422 808 205 167 113 79
420 813 205 171 117 86
422 803 215 175 121 88
421 803 219 176 123 91
421 813 215 172 117 86
416 823 200 143 96 73
419 818 205 171 116 88
418 823 205 170 115 87
417 828 205 162 109 85
419 823 210 173 118 86
420 819 215 175 121 90
419 823 215 179 123 92
421 817 215 173 118 87
388 863 305 60 51 44
418 823 220 186 131 102
416 823 224 189 134 106
418 828 210 176 118 89
416 831 215 189 130 102
385 839 163 76 69 65
389 838 169 82 69 64
268 873 315 163 133 128
385 845 173 82 70 65
388 844 175 80 67 63
388 844 180 79 65 59
389 848 190 68 55 49
393 844 190 92 69 57
392 846 192 90 67 56
398 837 181 111 78 60
399 839 189 113 77 59
396 841 186 104 74 58
386 851 187 70 58 54
408 838 165 105 83 68
400 837 171 102 82 67
409 838 175 108 83 66
408 843 170 100 79 63
409 844 175 96 77 64
412 839 164 107 83 67
263 898 319 174 126 110
409 834 175 105 80 64
411 835 173 110 83 70
413 842 166 106 82 67
346 938 288 61 55 53
409 848 171 94 76 64
409 847 174 92 75 62
412 847 170 99 79 66
404 834 184 90 65 54
402 838 180 91 68 55
402 838 185 97 70 56
405 835 189 85 65 56
401 841 186 98 70 58
402 841 190 101 73 59
410 837 184 86 67 57
410 844 179 96 76 62
411 846 179 96 76 62
409 852 167 98 80 67
420 834 167 104 83 73
418 834 170 110 85 72
419 838 170 105 82 69
288 868 319 165 132 103
423 839 169 107 83 70
420 841 172 103 80 68
426 840 170 107 83 69
393 848 195 95 68 56
399 844 194 110 77 61
398 847 196 107 78 63
399 844 221 87 60 50
397 847 220 74 56 47
313 854 294 132 106 82
396 848 225 76 60 50
388 855 199 72 58 50
391 851 197 81 59 51
388 858 205 75 62 52
392 856 202 80 65 56
393 857 205 81 63 53
398 850 198 94 68 56
398 856 206 81 62 52
392 862 212 81 69 66
298 970 302 66 61 60
399 853 216 80 62 51
395 849 221 76 58 48
395 848 225 76 58 50
395 851 224 76 57 49
396 853 225 76 58 49
394 863 215 78 64 58
398 857 210 81 61 53
398 858 215 74 58 50
404 840 194 90 66 56
408 838 195 94 68 56
403 843 195 97 70 60
407 847 195 99 75 67
407 848 192 101 79 68
341 796 288 45 40 42
405 846 204 92 69 60
406 848 205 92 70 62
404 840 221 147 96 75
402 847 214 88 70 63
323 933 332 49 44 42
404 848 211 87 66 61
322 879 298 144 114 89
405 845 212 90 63 55
412 837 215 159 106 84
402 852 201 93 70 59
403 853 205 81 62 55
406 851 208 91 73 70
402 856 210 90 74 69
401 856 213 80 61 56
385 838 236 73 51 46
386 838 240 59 42 41
388 843 235 70 52 46
391 845 234 78 60 52
391 845 239 72 55 49
394 847 235 74 56 49
392 848 239 73 56 50
398 839 226 141 93 72
386 839 245 59 46 42
271 858 312 164 117 99
387 840 250 58 45 38
391 838 252 56 45 35
388 843 245 61 47 43
390 847 242 64 49 42
299 867 317 155 124 93
389 847 244 63 47 43
389 841 250 65 49 40
392 844 255 72 53 42
394 848 249 72 53 45
293 958 324 82 77 76
396 845 252 72 52 37
396 848 254 81 60 48
393 863 229 72 57 46
