ply
format ascii 1.0
comment Created by Open3D
element vertex 2200
property double x
property double y
property double z
property uchar red
property uchar green
property uchar blue
end_header
365 402 324 78 44 38
404 404 237 124 17 42
405 409 237 99 14 35
280 624 349 39 29 31
406 404 235 82 23 32
407 408 235 35 29 30
401 414 240 140 6 45
331 404 343 106 83 60
405 414 237 137 8 41
425 752 245 89 67 54
414 409 232 95 20 38
328 770 227 86 68 59
323 345 304 90 76 60
420 680 288 63 44 34
415 414 232 131 14 41
410 414 234 140 12 44
244 936 330 66 61 59
408 414 236 136 10 40
265 849 274 116 97 78
396 689 263 78 31 35
390 419 222 51 34 36
390 429 222 81 34 37
400 419 219 117 24 38
397 422 220 71 26 26
395 434 223 50 34 35
409 419 337 152 4 47
261 620 296 129 84 61
400 439 223 107 27 36
271 405 352 115 93 70
416 419 204 94 30 36
411 419 209 58 33 36
276 803 304 57 50 47
334 754 216 44 41 44
413 420 207 53 35 35
415 424 208 63 30 33
237 904 318 172 129 105
306 539 208 63 28 35
401 428 220 36 34 40
360 774 187 135 102 61
385 398 318 60 27 27
328 912 260 64 58 60
405 429 219 109 30 38
399 454 253 57 23 31
327 895 358 51 47 46
403 430 221 48 33 36
310 484 393 132 18 43
395 794 213 163 114 84
341 728 211 116 18 29
409 419 212 60 31 36
305 935 261 92 85 89
279 776 286 76 59 54
412 423 210 49 32 32
408 425 216 79 32 35
322 289 311 111 93 73
259 479 368 128 11 41
256 589 333 90 17 36
411 429 214 93 28 35
287 749 270 78 61 53
409 429 217 131 28 39
340 384 258 79 71 63
270 554 364 110 19 42
404 435 221 57 33 34
405 439 222 114 28 39
340 499 396 180 14 57
407 437 220 115 39 45
282 832 332 43 37 36
276 754 279 87 67 59
405 444 224 108 25 37
238 683 325 158 106 78
406 449 224 114 27 40
412 434 215 88 31 37
414 434 213 134 24 41
330 535 385 102 22 36
412 437 215 56 28 36
415 439 213 132 22 36
409 434 217 71 31 36
408 440 221 121 24 35
413 440 216 64 30 31
399 554 308 103 24 41
416 444 214 146 20 38
231 549 259 184 121 93
251 927 270 66 61 63
416 449 215 105 24 36
411 444 219 85 30 37
393 543 321 67 24 30
408 444 222 90 31 37
413 444 216 88 31 36
426 404 313 82 30 39
396 419 248 150 11 46
252 744 308 92 46 46
237 904 313 170 129 105
330 809 238 64 55 55
400 429 243 138 13 42
387 494 368 169 17 48
398 429 247 123 16 42
239 789 348 176 123 96
430 694 299 73 59 46
397 429 249 84 27 40
389 441 226 120 22 37
405 756 326 59 47 37
390 444 227 101 24 35
321 304 334 128 95 68
390 449 229 111 23 35
212 517 225 211 128 118
340 724 349 121 21 43
395 442 225 146 15 39
325 639 234 121 9 28
395 444 226 134 12 35
302 729 234 56 36 39
395 449 228 110 27 39
399 445 226 138 19 38
280 699 346 130 41 49
401 434 244 110 19 39
398 439 248 42 26 32
334 804 231 67 57 55
295 724 359 145 15 45
397 433 250 79 25 37
218 521 238 210 141 112
250 799 319 150 111 77
397 434 253 51 27 33
424 424 231 57 23 29
235 624 293 166 112 78
375 791 343 45 39 36
397 438 254 116 29 44
271 484 381 40 28 28
435 754 303 95 70 53
331 524 172 101 32 39
398 439 253 84 26 38
341 656 225 90 24 30
384 494 382 72 23 34
399 444 248 83 22 36
305 609 243 116 25 42
398 444 253 94 25 39
237 899 299 175 134 112
335 549 377 102 29 43
428 427 205 170 17 38
354 463 390 100 7 30
396 404 268 143 15 43
400 449 248 148 16 45
399 449 253 107 23 40
406 429 239 137 8 42
252 911 265 64 61 64
433 449 227 50 26 32
356 885 282 76 66 65
414 729 316 80 59 44
411 419 235 135 8 43
415 424 234 132 6 41
241 864 293 161 118 96
303 335 285 74 59 44
400 703 258 73 46 43
410 429 237 136 5 42
415 429 234 133 2 43
402 422 240 138 7 43
403 425 241 138 9 41
403 429 241 139 10 42
406 434 239 133 12 43
290 286 295 87 72 56
406 439 240 60 19 31
379 828 238 104 80 65
402 447 225 117 21 36
314 294 300 97 80 62
296 459 390 69 27 33
406 448 240 135 7 42
410 439 237 125 10 40
407 419 376 44 32 33
285 914 248 84 75 75
410 444 238 133 8 42
327 368 263 87 75 64
415 449 237 133 7 41
355 634 329 114 25 42
403 434 241 123 14 40
358 562 180 141 103 66
226 529 268 150 109 80
420 400 208 51 34 42
260 749 298 70 58 54
420 398 213 59 32 40
309 329 346 125 97 65
425 400 208 57 34 42
420 397 218 64 27 36
253 849 298 130 71 76
425 399 218 69 27 35
273 852 330 106 78 57
265 527 244 73 34 37
350 403 323 52 44 37
425 399 223 69 30 37
285 942 336 63 58 58
420 405 199 129 30 34
425 405 199 170 18 36
425 409 198 163 18 40
420 402 202 101 33 39
417 406 200 48 34 31
424 401 204 58 35 39
425 403 202 118 26 26
256 539 260 171 14 41
425 414 199 104 22 36
429 405 199 163 21 39
430 404 203 123 24 33
429 401 209 65 32 38
431 402 208 81 31 36
431 414 202 102 28 38
357 710 335 80 18 32
430 401 213 61 30 36
432 402 211 65 30 35
268 364 334 126 98 68
430 404 224 41 29 31
295 319 348 125 97 71
435 404 208 75 34 36
434 409 203 43 37 38
434 414 204 37 34 39
277 279 328 123 96 65
243 692 345 148 105 77
436 414 208 81 27 38
436 403 213 70 34 39
283 363 350 124 98 70
438 406 212 44 37 34
438 409 213 47 33 34
437 408 215 43 32 33
435 409 223 76 26 36
437 416 212 142 17 39
420 399 227 73 25 33
378 605 216 151 110 82
280 519 228 83 31 38
420 404 228 95 25 37
422 435 307 53 28 32
373 848 336 64 51 45
424 400 226 47 26 28
256 694 284 129 9 38
425 409 227 56 28 29
247 519 348 96 25 39
417 412 230 122 15 42
400 754 324 62 47 38
420 414 230 57 22 30
408 438 336 149 9 43
419 415 231 61 19 30
354 874 268 61 54 56
275 639 333 72 21 30
425 414 228 70 27 33
390 709 238 93 27 36
426 403 225 38 30 34
429 414 227 52 28 32
432 414 225 54 27 29
343 807 376 60 50 42
261 685 284 105 15 31
339 568 366 143 21 51
417 422 205 108 21 34
290 319 283 76 61 44
425 419 201 146 23 44
425 424 203 167 16 39
418 425 206 161 16 47
420 429 207 166 15 40
430 419 203 157 18 38
395 803 364 77 62 49
367 599 186 139 103 65
276 279 323 118 92 62
370 796 352 42 36 32
429 424 204 167 17 39
420 434 208 163 15 38
250 855 323 88 65 49
425 434 207 171 17 37
419 440 211 166 15 41
425 439 209 175 17 40
420 444 212 165 15 38
274 319 333 128 101 71
422 442 210 171 16 41
425 442 210 171 17 38
401 539 288 84 26 37
297 688 240 127 14 38
432 434 212 162 16 37
412 478 225 88 27 33
401 489 263 131 17 44
431 439 212 168 17 39
316 559 213 132 19 44
428 442 210 171 17 38
430 444 213 166 17 38
434 424 209 163 16 42
437 419 213 159 17 45
409 794 313 70 56 55
437 419 218 123 25 44
435 429 213 163 16 42
432 430 211 162 16 40
413 429 331 154 1 47
436 429 218 163 14 48
382 476 390 36 30 33
436 429 223 152 10 46
398 458 341 60 27 32
399 790 359 79 65 52
355 519 207 39 30 33
433 439 214 165 17 40
280 954 279 91 86 89
435 434 223 156 10 47
312 866 239 54 52 53
434 439 218 168 17 45
357 527 195 105 83 59
433 449 219 145 18 43
422 418 230 39 27 30
275 634 293 96 25 39
425 419 229 58 26 30
332 739 210 131 20 39
423 420 231 41 27 28
428 445 231 67 19 29
420 429 233 134 7 42
370 854 333 57 48 43
255 919 258 80 72 70
374 728 317 119 16 41
424 429 231 131 13 41
430 419 227 45 29 31
241 894 328 165 127 106
365 589 338 91 27 41
240 874 303 169 118 103
426 429 230 134 13 42
362 446 381 76 20 30
420 434 233 134 3 43
314 928 259 84 76 79
364 569 184 131 100 64
420 439 234 133 1 41
327 387 303 58 49 39
424 434 231 136 7 42
249 564 339 80 24 33
425 439 232 138 8 43
420 444 235 132 3 41
322 349 339 120 95 65
417 444 235 130 2 38
418 446 236 131 3 39
344 589 198 139 96 71
419 449 236 132 7 41
425 444 233 128 9 40
390 754 321 51 40 33
300 359 355 124 98 70
425 449 233 130 12 41
427 434 230 140 10 44
427 437 230 143 10 43
219 521 233 218 143 117
403 428 285 54 27 26
347 600 345 65 33 36
246 514 348 72 29 35
430 434 228 145 11 44
270 930 262 78 73 74
429 449 231 52 26 29
382 574 319 161 22 51
431 449 230 30 28 30
432 418 225 38 29 28
265 779 369 179 128 101
433 424 226 116 27 47
335 640 230 122 8 28
433 429 226 146 10 44
433 434 226 146 10 45
433 439 226 149 13 45
395 424 263 146 13 45
443 717 289 70 53 39
409 454 223 82 31 39
392 459 345 132 15 42
335 699 352 149 17 48
411 454 220 100 33 41
392 610 263 39 31 35
415 454 218 110 25 37
401 544 298 162 18 48
410 459 223 102 30 40
365 510 385 190 0 61
415 459 219 153 17 38
413 460 221 126 23 38
365 784 323 34 30 29
416 464 219 153 16 37
410 799 363 76 60 48
313 828 341 33 30 31
413 464 221 142 16 35
250 660 306 140 100 71
240 619 288 171 117 84
255 944 303 76 71 72
411 469 224 83 25 35
414 469 222 144 20 37
236 513 299 151 0 41
315 514 163 105 30 40
416 468 220 156 16 36
387 454 231 98 24 34
365 803 363 54 45 37
390 454 230 72 27 34
341 397 310 64 55 45
374 804 391 74 59 47
327 896 354 50 45 45
415 514 232 163 17 37
387 459 231 119 12 30
359 864 254 71 62 60
390 464 232 134 3 30
373 538 366 59 27 33
395 454 229 110 21 36
265 604 284 124 24 40
398 464 231 149 7 36
390 469 231 131 0 27
347 817 220 155 113 94
389 475 230 114 14 32
391 474 231 128 3 28
391 479 231 105 17 29
383 428 384 86 17 31
402 445 383 124 23 44
352 739 200 146 105 71
284 314 344 127 97 71
395 469 232 141 4 29
235 649 308 187 128 100
395 474 232 140 5 29
395 479 232 134 9 31
400 474 232 145 10 35
340 808 388 68 53 41
405 459 227 138 12 36
372 644 198 124 89 56
405 464 228 145 12 37
410 454 240 134 6 41
415 459 239 99 14 35
305 824 368 59 46 36
402 454 245 147 12 44
415 804 363 92 76 62
402 458 245 147 10 46
401 459 248 141 13 43
308 336 259 105 87 66
401 464 249 149 11 46
403 465 247 148 7 45
400 464 253 151 15 46
315 764 363 65 51 44
409 455 241 135 5 44
350 439 368 107 7 32
404 504 273 53 29 31
410 464 242 98 12 35
381 519 368 72 30 38
414 464 241 100 14 35
285 519 387 131 19 45
403 746 210 162 116 87
416 464 240 118 14 38
282 562 371 175 18 55
406 474 230 103 29 36
403 474 231 129 20 38
404 479 232 83 28 36
407 479 230 82 29 36
218 515 254 170 119 94
408 465 226 128 18 37
385 729 192 128 95 57
412 474 225 72 32 35
255 859 327 101 72 53
283 489 390 133 15 43
236 525 276 97 47 45
410 479 228 106 28 36
406 468 245 141 12 42
392 439 362 155 13 46
306 449 380 40 27 28
402 468 249 150 8 47
266 874 270 144 113 80
405 474 247 148 7 45
242 660 331 139 96 67
255 844 293 153 121 93
377 649 237 65 43 41
301 454 384 49 27 28
242 601 316 135 101 72
405 479 248 148 7 46
255 734 308 114 35 45
403 474 251 152 5 46
410 469 243 103 15 37
414 469 241 58 26 32
353 790 191 147 110 73
416 469 240 40 24 30
310 579 229 158 1 36
410 474 244 123 13 40
280 359 348 125 98 71
394 800 345 81 64 48
409 480 246 141 11 43
415 474 242 64 23 31
260 935 338 54 51 50
391 484 231 85 29 36
391 489 231 48 37 38
392 494 231 53 38 39
408 429 290 43 29 30
395 484 233 116 17 29
400 484 234 96 24 34
400 494 234 130 17 33
380 395 293 87 51 46
387 504 226 97 30 35
390 504 229 67 34 38
393 802 358 86 73 60
328 551 191 166 0 43
395 504 233 84 28 36
315 584 229 150 1 35
400 499 234 139 12 32
315 264 308 102 84 65
408 797 279 67 51 46
395 509 233 49 33 37
258 847 281 128 107 87
400 509 236 114 21 35
320 504 397 89 23 37
274 750 366 151 110 79
378 634 226 163 119 92
405 489 233 84 25 33
270 384 343 127 100 71
262 826 303 124 102 78
383 522 360 44 28 28
405 494 233 123 24 36
410 484 228 116 27 38
413 485 226 102 26 35
315 624 239 135 7 37
414 489 227 86 31 36
411 494 229 57 32 34
415 494 227 63 32 35
405 484 249 150 7 46
250 639 334 144 104 79
388 823 279 59 48 46
269 649 303 80 37 35
402 484 250 152 6 46
270 924 253 90 82 85
418 532 243 97 25 36
355 759 193 132 102 64
402 484 253 155 6 47
320 808 393 62 50 39
405 489 249 150 9 45
344 593 351 179 22 59
245 549 313 119 6 36
364 848 218 88 78 70
389 730 228 87 64 52
402 488 250 153 10 47
378 604 204 145 109 75
401 489 253 155 13 46
405 494 248 143 13 45
320 809 388 64 51 41
403 490 251 154 13 45
420 709 244 79 55 44
403 494 251 113 17 41
370 839 238 100 81 67
300 724 361 147 17 47
401 494 253 77 18 35
409 484 247 140 10 42
409 489 246 139 11 41
249 719 313 148 96 70
304 330 263 102 83 63
415 484 243 53 22 30
420 474 220 156 17 38
261 619 333 125 44 47
411 494 245 124 11 38
415 494 244 114 16 39
405 499 234 99 21 32
405 504 234 143 14 36
405 509 234 148 15 34
315 910 247 73 66 66
409 499 232 96 26 35
400 459 339 56 29 33
361 850 212 87 77 68
412 498 230 90 34 38
410 504 232 130 20 36
331 389 328 91 75 57
412 502 230 121 24 36
359 448 379 102 9 32
401 779 217 173 118 88
363 858 255 66 58 58
410 509 232 132 17 36
416 508 230 129 23 41
405 499 248 135 15 42
405 504 248 102 17 37
295 404 373 87 71 54
324 613 356 149 33 54
401 499 253 37 27 29
330 835 323 26 24 26
403 498 251 47 30 29
259 545 261 154 23 41
402 509 253 55 23 33
410 499 246 127 11 40
340 853 238 55 47 46
382 649 248 42 32 35
412 498 245 133 13 38
416 504 245 115 14 40
410 509 247 131 8 40
414 509 246 135 9 42
416 509 245 138 12 41
417 452 215 138 18 46
312 442 375 97 32 40
425 454 214 171 17 38
322 275 345 145 106 81
280 844 274 110 92 73
309 868 248 51 49 51
425 458 215 171 18 38
429 453 215 156 19 40
431 454 218 71 29 37
295 583 371 170 23 59
430 459 218 56 30 37
431 459 223 51 31 37
313 344 346 117 93 64
295 864 377 48 44 43
251 889 353 43 40 40
429 464 219 77 24 36
250 889 337 136 110 92
293 847 356 31 29 28
430 464 223 41 30 35
254 714 293 78 34 40
420 469 219 162 16 36
425 469 219 169 18 38
290 269 272 134 96 73
418 475 221 138 23 38
421 478 220 121 31 43
259 369 318 122 95 65
316 419 369 103 17 35
269 668 297 96 20 34
286 604 259 94 29 39
425 479 223 91 29 39
258 573 305 41 27 27
432 455 223 64 31 36
433 452 220 165 22 49
433 453 223 84 28 39
319 309 338 127 95 68
285 394 358 124 98 72
300 929 258 91 85 88
301 839 353 30 29 29
376 684 314 135 11 43
420 454 236 126 10 38
310 619 243 84 25 35
422 453 235 132 10 41
425 454 234 118 15 39
343 744 346 145 24 49
425 459 234 102 21 38
354 492 396 188 8 61
429 454 232 69 26 32
352 814 343 36 33 32
309 839 261 116 96 77
280 614 353 70 28 37
432 454 228 57 28 32
431 459 228 106 30 42
431 464 228 87 29 38
401 459 263 39 27 31
267 414 356 56 28 30
429 464 232 62 27 33
325 699 212 112 18 31
324 385 298 67 56 44
256 840 312 145 51 75
324 904 249 70 62 62
372 604 191 139 102 68
420 469 239 88 25 36
347 803 209 190 142 113
424 469 237 51 26 30
406 519 235 152 15 36
430 469 228 70 31 37
429 469 233 49 30 33
286 499 391 154 16 48
427 468 235 41 27 28
427 480 228 41 30 35
428 474 233 33 29 32
428 478 225 45 30 34
342 566 365 172 13 54
382 605 236 94 33 40
428 478 228 46 31 35
238 611 286 173 117 81
427 474 235 32 29 31
427 480 234 36 30 33
248 729 316 154 105 72
418 474 241 68 23 34
419 479 241 64 22 30
344 815 223 56 50 52
420 484 222 50 33 35
252 578 336 95 24 35
425 484 238 57 25 33
355 809 342 37 33 32
368 669 321 121 18 41
417 492 225 66 31 33
425 489 228 119 28 44
426 484 228 79 32 39
270 825 343 120 75 55
350 649 218 117 89 70
426 489 233 85 28 39
425 494 238 34 28 33
330 374 273 83 71 60
420 484 241 64 23 32
422 489 240 122 21 44
420 494 242 67 24 33
420 499 227 110 28 40
284 935 261 78 72 75
423 502 230 111 30 48
423 508 234 97 26 39
392 425 392 102 1 29
300 589 243 83 27 37
403 454 289 77 32 37
392 550 319 163 26 55
423 508 238 50 30 33
230 514 223 203 135 116
296 564 238 144 0 34
422 510 238 50 27 34
283 530 243 94 19 35
420 499 243 71 28 37
385 764 189 146 102 65
424 499 241 47 30 33
420 509 243 105 21 39
397 810 247 99 74 57
391 484 339 145 21 50
423 508 241 53 29 32
298 962 302 50 48 49
305 884 373 61 55 53
273 736 271 102 50 50
375 398 313 71 50 44
257 261 261 110 91 70
258 263 264 111 91 69
286 324 346 126 97 69
265 259 268 110 90 68
260 264 267 109 89 68
292 774 274 73 59 55
264 264 269 109 89 67
283 269 344 125 96 66
263 268 270 107 87 65
305 539 384 109 31 45
265 269 272 106 86 64
325 324 328 120 95 67
267 260 271 110 90 68
267 705 265 40 37 42
332 506 395 171 26 58
316 629 239 140 1 33
270 269 273 104 84 62
258 273 270 108 88 67
260 274 271 107 88 67
319 571 226 149 6 39
234 569 294 139 106 77
260 279 272 108 88 66
307 322 296 83 69 54
265 274 273 105 85 64
385 449 395 60 30 35
265 279 274 104 84 64
260 284 274 108 88 66
338 857 371 67 56 49
259 288 275 109 89 67
357 816 375 57 44 38
264 283 275 104 85 64
263 931 266 70 65 67
323 344 333 117 92 63
410 544 238 160 16 39
265 285 276 103 84 64
277 304 337 127 99 70
270 274 273 102 82 61
270 279 274 99 80 60
305 894 234 81 71 69
270 283 275 98 80 61
281 504 387 128 19 44
304 330 258 103 85 65
372 870 298 60 51 48
270 285 276 97 80 61
247 523 343 73 27 35
275 259 273 109 87 63
267 400 346 121 96 69
275 264 274 106 85 61
275 269 273 103 83 60
235 594 308 141 105 76
360 854 248 66 56 54
285 279 273 114 86 64
287 289 270 106 78 61
284 289 273 98 78 58
237 522 308 159 0 45
250 699 354 143 104 78
280 835 279 102 87 73
275 279 273 97 79 60
280 274 273 104 83 61
287 542 234 161 0 42
275 283 275 93 77 59
420 409 323 158 12 49
275 289 277 91 76 62
249 529 343 86 26 39
280 284 275 102 82 62
317 319 340 128 97 68
290 859 374 49 42 38
246 855 318 84 66 49
285 926 256 85 79 81
438 729 298 67 50 39
280 285 276 102 83 64
279 289 276 101 83 64
282 289 275 101 82 62
392 712 220 127 95 71
280 264 318 114 88 57
374 629 308 80 22 34
279 269 313 109 86 59
352 801 325 27 26 26
240 604 282 170 115 82
281 269 309 96 78 58
281 264 313 104 81 53
277 271 315 114 89 61
352 698 340 153 18 48
283 256 316 107 84 58
330 874 233 64 54 54
282 266 310 97 77 52
386 559 228 71 29 36
287 266 305 87 72 55
288 696 251 142 20 47
362 530 211 68 24 28
280 279 303 87 70 52
394 454 392 108 26 42
434 694 259 84 62 47
281 284 299 84 69 51
277 285 304 100 80 57
396 785 351 82 68 55
246 808 329 189 135 107
277 290 300 89 70 48
360 395 258 78 69 61
237 886 307 136 116 99
278 287 301 90 72 53
236 654 318 163 116 88
320 559 203 176 5 46
285 274 302 88 73 57
283 278 301 86 71 55
286 276 300 90 75 57
285 289 294 84 69 52
340 855 223 89 72 62
390 405 353 60 20 24
285 287 296 85 70 53
279 274 308 100 81 61
277 280 308 106 85 62
278 278 308 101 82 60
278 278 311 111 89 66
345 884 263 61 55 56
294 713 355 133 14 42
276 274 318 117 91 60
275 279 318 114 89 61
274 284 313 116 92 63
350 634 333 123 23 44
278 354 345 126 98 70
274 289 308 116 90 59
273 289 313 122 93 61
263 397 294 101 72 50
280 424 373 116 18 40
277 280 305 98 79 58
250 614 324 124 92 67
257 291 276 111 91 69
260 299 279 109 88 66
260 304 280 112 90 66
251 894 358 49 45 45
264 303 280 104 83 60
270 294 279 93 77 60
265 304 281 103 81 60
265 339 283 118 85 67
270 300 281 91 75 58
259 309 280 118 92 70
252 712 288 38 37 39
383 832 273 65 52 50
261 309 281 114 88 66
261 314 281 119 90 68
258 561 299 58 28 32
258 319 280 121 92 70
261 319 281 120 90 69
242 802 330 179 127 97
265 319 283 109 79 61
270 319 284 97 71 54
284 294 273 88 71 53
243 936 311 63 59 60
287 294 270 98 74 54
281 509 386 43 24 29
287 299 269 97 77 54
286 299 273 87 71 53
430 694 258 90 65 49
286 304 274 84 70 54
401 509 258 43 26 30
275 294 279 90 77 63
280 304 279 90 75 61
429 759 318 79 62 46
274 300 281 87 73 58
274 304 281 86 71 54
240 904 293 157 123 98
274 554 262 64 24 35
282 292 275 100 81 61
238 524 278 79 16 32
283 295 276 96 78 61
312 940 267 77 72 74
283 300 276 89 72 56
284 304 277 88 71 55
304 274 258 141 99 75
285 304 287 80 65 48
275 309 281 84 69 51
366 554 193 133 103 71
277 307 280 82 67 53
260 469 368 128 8 40
280 309 280 87 71 57
240 539 303 145 1 41
275 314 283 84 66 49
400 464 258 67 21 33
276 314 288 86 64 43
274 319 288 87 65 45
280 314 283 81 64 48
280 319 284 83 65 49
434 714 263 85 63 48
285 310 285 78 61 42
395 474 339 118 19 40
346 914 298 56 48 45
286 313 280 82 67 53
414 724 316 91 67 51
282 312 280 85 71 57
272 300 303 114 86 59
270 304 303 110 84 56
289 464 396 57 26 28
271 304 308 119 87 59
325 304 313 118 96 73
301 794 274 168 114 88
271 309 298 112 77 55
271 314 298 118 79 58
301 318 292 77 64 49
270 319 303 122 86 60
272 304 313 122 90 61
390 394 288 111 16 31
272 309 313 124 90 61
271 314 308 124 90 62
327 309 318 120 97 71
271 314 313 125 92 61
302 713 225 172 9 47
271 319 313 123 92 59
271 319 318 121 90 60
277 296 295 80 61 38
290 869 262 103 89 76
276 294 298 91 71 47
278 293 296 82 65 45
276 299 294 81 62 39
328 782 351 73 57 48
275 304 293 83 63 40
276 305 290 79 62 43
245 549 329 72 22 32
364 801 356 43 37 33
281 300 290 76 61 43
251 514 253 121 10 30
229 549 268 163 115 84
348 598 346 46 30 31
314 445 376 68 27 31
278 302 291 77 61 42
286 740 361 145 108 80
273 298 302 113 85 56
272 300 300 102 79 52
370 794 333 37 33 30
249 931 340 64 59 59
285 294 292 81 65 46
355 849 372 65 53 47
285 297 291 80 64 45
370 403 328 70 36 31
272 291 312 125 94 61
345 393 288 75 66 56
247 731 361 157 114 86
273 293 307 121 91 60
254 764 316 131 95 63
272 294 312 129 94 63
252 698 304 78 59 50
242 729 356 161 112 86
273 294 314 131 95 66
233 614 309 151 107 78
273 294 318 128 92 64
272 296 305 124 90 60
272 299 313 126 92 64
356 397 305 73 62 51
395 704 293 49 26 27
273 298 315 128 93 63
408 429 336 152 1 47
238 548 285 121 92 68
273 299 318 125 91 61
272 300 316 124 91 62
274 309 293 92 65 42
310 419 373 120 15 40
273 314 293 102 69 49
303 790 271 176 119 95
272 314 295 110 74 54
336 520 390 46 29 33
273 319 292 102 70 47
272 319 294 105 72 48
295 259 272 136 96 71
262 380 331 124 97 67
294 264 272 137 95 72
296 264 270 139 95 75
297 260 270 139 95 73
324 334 323 108 86 62
270 631 306 109 43 36
303 259 266 143 103 82
335 415 348 70 58 46
303 262 266 142 101 81
301 269 264 143 101 82
299 268 267 141 99 80
302 265 265 141 99 79
311 814 392 69 55 44
290 259 274 133 98 74
410 439 293 87 25 34
288 279 271 126 90 69
420 404 293 133 15 39
395 398 328 58 22 23
265 659 339 144 103 79
290 279 269 133 92 72
397 815 303 76 60 52
295 274 268 141 98 79
293 272 271 137 96 74
405 509 293 129 19 42
295 284 263 134 91 75
264 665 341 142 104 75
294 289 262 133 90 74
400 469 258 151 16 46
290 284 268 129 89 71
288 282 271 120 87 65
260 604 338 125 14 38
300 334 273 110 85 58
252 684 305 118 80 56
292 285 265 131 89 73
309 724 217 150 14 45
293 282 266 137 93 78
241 885 318 86 70 56
291 597 366 116 27 42
275 559 262 146 1 36
303 273 261 140 98 76
354 807 362 38 34 32
302 276 260 142 102 79
301 279 258 141 99 76
255 849 318 120 63 69
303 277 257 141 99 77
297 275 265 143 100 83
335 389 298 70 60 50
325 659 349 54 26 34
227 524 267 144 109 80
285 730 262 80 60 54
298 283 262 137 95 77
307 260 260 142 99 80
307 264 259 141 99 77
308 264 257 140 98 76
345 519 172 144 105 71
306 269 258 140 96 74
271 324 323 124 96 64
409 469 299 138 15 41
292 582 371 178 17 56
307 424 375 82 18 30
326 808 239 52 45 51
290 269 302 93 77 60
277 522 234 71 24 36
304 354 282 99 76 54
357 734 195 143 104 65
300 264 303 97 80 61
394 730 234 80 64 51
305 264 303 97 79 57
382 664 299 78 21 32
395 404 263 150 14 45
379 699 194 126 92 55
300 269 302 96 78 57
305 269 302 97 78 56
303 808 272 141 109 84
288 263 306 90 74 58
241 627 290 170 116 80
295 257 306 97 81 64
295 260 305 97 81 65
411 499 318 100 25 42
300 257 306 96 80 61
305 258 306 97 79 58
290 275 300 91 75 59
295 274 300 91 75 57
290 289 294 87 71 53
269 898 252 131 100 75
264 544 364 78 28 35
295 289 294 88 72 52
290 284 296 89 73 57
350 524 173 145 105 72
295 284 297 91 75 56
323 258 351 146 106 80
296 287 296 89 73 54
380 569 224 102 24 36
300 273 301 92 74 53
305 273 301 95 77 55
367 836 220 105 86 73
349 629 198 179 128 101
305 276 300 92 74 52
441 724 283 63 49 36
305 279 300 90 72 51
300 284 298 90 73 54
310 259 306 99 81 59
346 729 208 118 53 41
308 265 305 99 80 59
300 903 240 86 76 74
311 264 306 100 82 62
255 934 273 71 66 68
324 908 347 64 58 57
313 260 305 101 83 62
310 269 355 147 100 74
320 259 313 105 87 67
272 314 323 123 94 63
345 759 343 78 58 50
320 264 313 108 89 68
290 900 365 64 57 55
356 561 360 154 20 53
318 265 310 104 86 67
260 399 263 147 104 89
287 517 220 179 20 51
391 449 348 160 6 49
318 269 310 106 88 69
286 660 264 78 28 35
310 274 302 99 81 61
309 279 299 95 78 58
311 279 302 99 82 62
374 564 219 61 30 32
311 284 301 97 80 61
412 420 291 74 23 28
309 289 300 94 77 57
311 288 301 96 80 61
270 429 363 40 30 31
315 289 303 100 84 66
316 279 307 104 87 69
333 534 175 153 32 44
319 274 309 106 88 70
316 284 307 103 87 69
320 289 308 106 90 73
295 294 258 129 92 71
370 795 186 152 107 70
289 294 267 113 80 62
237 778 330 170 122 88
340 479 394 110 11 34
349 859 194 108 86 72
290 299 263 114 82 59
386 724 228 79 51 48
294 304 258 116 85 58
244 874 318 154 110 94
292 301 260 118 85 59
336 784 344 62 48 40
356 539 208 64 27 35
288 299 267 106 78 56
280 913 361 69 62 60
288 626 350 143 31 50
289 304 268 103 80 53
294 309 263 105 81 52
327 399 349 119 93 66
259 434 283 132 17 43
266 846 275 112 94 76
292 308 264 106 82 53
264 494 375 150 9 46
407 444 335 146 17 48
291 309 268 106 82 55
304 952 275 78 74 76
271 644 298 115 31 37
258 373 318 123 97 66
289 619 263 96 33 41
288 306 272 95 75 51
289 309 273 95 75 53
385 825 253 82 61 49
296 314 263 102 79 50
258 438 287 103 13 34
324 339 328 114 91 64
373 827 224 116 82 72
265 684 349 142 108 78
295 319 268 107 83 57
257 612 331 60 26 29
291 319 273 104 79 56
297 319 263 101 80 56
406 775 345 72 59 50
237 927 336 56 52 55
233 619 310 152 108 78
441 750 298 93 69 55
289 310 278 86 69 51
257 876 350 44 41 41
291 308 286 78 62 43
320 879 373 69 60 55
273 813 311 49 43 43
294 314 285 70 56 40
296 314 286 70 57 42
359 874 274 60 53 53
290 294 292 84 67 48
342 896 266 72 61 60
299 294 294 86 70 51
395 464 383 67 30 36
275 955 313 62 58 58
301 294 296 87 71 52
402 430 340 150 7 46
305 294 297 90 73 54
300 299 293 85 69 52
252 914 264 73 67 70
301 304 292 83 68 52
303 301 295 84 69 52
341 600 350 62 29 34
302 298 296 85 70 52
295 724 253 71 48 48
299 309 289 76 62 46
295 914 358 62 55 52
300 314 293 75 62 47
304 320 294 82 68 53
306 319 297 83 69 54
310 299 299 91 75 57
310 304 299 88 72 55
236 894 308 171 137 117
340 784 213 167 125 92
304 344 285 74 60 43
319 294 304 104 88 71
314 298 300 96 80 62
312 305 301 90 75 59
265 554 264 70 33 37
345 594 198 144 100 74
315 304 303 94 79 64
337 802 225 67 60 58
319 299 304 102 86 70
342 914 282 70 62 62
318 290 305 103 88 71
240 714 348 156 107 80
306 309 297 82 67 49
309 309 299 85 70 53
309 314 300 83 69 54
310 319 299 84 71 57
335 499 397 178 11 57
339 503 396 180 18 57
402 489 267 50 23 32
315 314 303 88 75 62
321 814 254 160 120 97
315 319 303 87 74 62
316 936 330 60 56 56
318 309 305 96 81 66
243 689 311 152 105 70
257 484 366 147 2 44
317 314 306 92 79 65
318 320 305 91 77 63
278 259 323 118 93 61
277 455 381 104 19 36
405 769 333 65 52 41
407 751 227 134 97 69
278 259 328 121 94 63
278 264 322 119 92 59
279 259 333 122 95 63
400 784 352 81 67 57
397 444 371 107 18 35
250 784 362 176 124 98
277 269 327 123 94 62
280 264 338 124 94 64
360 439 373 81 21 30
282 259 343 124 95 63
290 364 354 123 97 69
283 259 345 123 95 64
241 548 314 158 1 43
283 264 345 125 95 66
380 774 187 147 102 63
287 259 351 125 97 67
255 579 313 81 17 34
285 269 348 129 98 69
277 274 328 122 95 64
267 414 275 134 96 80
395 419 258 151 10 48
278 273 330 124 95 63
278 274 333 125 96 64
277 276 331 123 96 64
277 280 332 123 97 66
285 799 365 164 116 89
302 583 235 117 18 34
275 284 323 121 94 63
295 489 396 151 16 47
320 889 369 71 61 57
275 289 323 125 94 63
360 624 185 150 103 66
276 284 328 126 99 67
296 957 316 65 61 62
278 284 334 123 95 63
419 414 323 153 6 47
279 279 338 121 95 64
336 689 350 49 27 29
279 284 338 122 95 65
326 939 313 63 60 61
285 274 348 131 98 71
303 816 355 38 33 34
284 289 344 128 98 70
272 319 323 124 95 64
276 294 328 125 95 64
277 294 333 124 95 65
333 634 346 91 24 40
314 319 342 131 97 70
275 299 328 125 97 65
274 304 328 123 97 66
276 299 333 126 97 66
276 304 333 127 99 69
277 294 336 125 96 65
277 299 336 127 98 67
287 294 346 129 97 73
285 299 344 126 96 71
281 304 342 125 97 71
385 395 268 118 23 37
273 308 320 120 90 58
282 424 382 94 17 34
397 571 274 138 20 48
272 569 265 136 5 34
274 309 328 124 96 66
275 309 333 128 100 70
261 419 283 60 46 33
402 474 278 153 17 43
385 395 273 122 19 40
345 589 352 160 19 54
273 314 324 123 95 65
273 319 328 127 98 69
272 320 326 127 97 68
300 609 362 113 26 44
279 309 339 127 100 72
278 319 340 127 98 71
281 319 342 126 98 71
285 879 373 56 51 50
284 309 344 126 97 70
288 270 350 135 100 74
288 275 350 136 99 74
290 284 349 136 99 75
414 489 309 124 22 42
292 282 351 138 98 75
280 734 267 80 61 55
295 284 351 138 99 76
242 695 346 148 104 77
348 883 332 50 44 43
295 286 350 136 99 76
400 454 258 63 30 36
300 279 352 143 100 75
300 284 351 142 101 75
300 286 350 141 101 74
305 283 351 144 100 74
257 594 333 85 21 34
306 285 350 143 100 73
305 289 350 138 102 72
310 779 362 61 49 42
319 264 352 147 105 78
315 269 353 147 103 77
325 829 379 75 61 54
315 719 360 48 29 31
238 512 230 129 84 71
363 872 316 60 54 51
320 704 212 130 11 33
309 283 351 147 103 77
310 284 350 147 105 77
412 781 267 69 54 47
265 826 299 105 88 69
310 289 348 141 103 74
374 604 194 138 103 67
315 274 352 149 104 77
256 444 288 101 11 34
313 278 351 150 104 77
317 275 350 150 106 79
351 639 218 135 95 79
319 278 347 147 108 83
255 604 287 136 88 66
334 629 231 140 3 34
315 284 348 148 108 80
314 289 347 143 105 78
245 613 285 164 113 82
321 279 344 145 104 80
294 519 390 159 18 51
318 282 346 146 109 84
374 843 338 67 55 47
328 649 346 152 19 49
317 285 345 145 108 82
316 289 344 143 106 81
390 438 395 138 18 44
371 589 218 90 63 54
290 259 354 127 96 69
292 258 356 129 96 70
295 259 357 136 99 73
227 519 266 151 117 90
372 683 320 130 12 43
295 264 356 140 101 74
405 569 244 150 18 42
295 269 354 141 102 76
320 844 380 62 55 50
375 594 198 142 108 73
305 264 356 147 102 74
387 614 284 172 4 54
300 269 355 147 104 76
243 587 275 169 109 80
310 264 356 147 101 73
350 874 253 80 70 68
317 260 355 147 103 76
297 841 372 54 44 37
388 664 288 51 28 31
299 505 395 170 15 55
315 264 354 146 103 76
310 344 272 107 86 61
313 263 356 147 101 75
257 449 273 117 10 39
385 829 278 63 52 49
320 259 353 149 105 78
290 299 348 126 95 72
391 429 353 111 24 43
290 304 348 126 95 71
300 294 349 129 98 68
305 294 349 131 99 67
253 852 297 88 45 48
336 890 256 67 59 58
300 299 349 131 101 71
322 346 309 92 78 62
291 674 248 69 34 35
305 299 349 134 100 69
240 599 313 137 103 75
310 826 340 40 35 35
305 304 349 140 103 75
367 558 192 132 102 68
290 309 347 125 96 71
290 314 347 124 95 70
251 894 279 129 105 83
290 319 347 125 96 70
325 739 213 70 37 42
295 314 348 128 98 73
434 690 277 71 55 39
305 309 349 142 104 75
238 522 235 213 141 128
300 314 348 137 104 76
305 314 348 138 102 74
375 504 383 190 5 60
345 564 364 178 11 56
305 319 347 134 100 71
297 429 390 118 14 39
321 289 338 134 96 74
316 294 344 137 102 77
269 564 267 142 0 35
315 304 343 140 104 77
319 299 338 126 95 65
318 299 341 134 103 72
319 304 338 130 97 68
318 303 341 136 102 74
247 795 320 152 113 79
324 364 263 90 77 64
249 524 257 106 18 35
313 299 346 136 100 70
271 653 335 109 74 65
313 304 346 141 104 77
309 314 347 138 100 73
312 314 345 135 99 72
346 909 288 59 52 51
309 319 346 135 97 69
270 549 368 136 23 49
315 309 343 135 99 74
317 309 340 128 97 71
314 314 343 132 97 72
319 314 337 126 95 66
258 324 280 121 91 70
233 559 290 139 106 79
305 514 394 105 22 41
365 539 212 74 22 32
260 329 281 120 90 71
418 463 309 61 35 37
265 324 283 111 81 64
398 808 273 71 56 49
265 329 283 113 82 65
246 856 326 99 79 61
258 330 280 122 90 71
258 334 280 123 90 70
260 334 281 120 89 69
265 334 283 113 82 65
271 330 287 91 63 45
356 689 194 138 99 60
269 334 284 101 70 54
258 339 280 123 91 70
403 480 274 145 18 41
398 563 302 182 10 55
261 344 281 124 89 71
310 919 348 57 53 52
265 344 283 116 82 65
342 751 345 148 12 46
259 349 279 125 89 70
310 659 351 126 22 46
265 349 282 119 82 67
269 339 284 104 73 56
268 344 285 107 74 56
256 562 295 80 15 38
268 349 284 108 72 59
269 349 288 105 68 55
403 514 251 154 15 47
275 323 284 90 67 48
249 853 303 110 75 64
272 321 287 88 66 43
273 324 288 90 66 45
338 724 351 104 16 38
394 418 389 97 6 27
285 324 284 81 64 48
271 329 293 105 73 47
271 324 298 112 80 53
270 324 303 119 85 58
324 384 303 59 48 37
256 839 308 121 52 60
270 329 298 115 83 56
269 329 303 120 88 60
400 589 253 81 30 39
268 334 303 121 89 61
270 324 308 123 90 60
337 871 236 68 60 60
270 324 313 121 90 59
270 329 308 124 92 62
269 334 308 120 91 61
386 401 332 58 20 22
270 826 338 119 73 53
350 529 174 147 106 72
269 334 313 119 92 61
327 585 365 73 23 35
269 339 293 104 70 48
247 916 270 62 59 60
270 344 293 107 71 50
270 394 347 124 98 70
267 339 303 120 90 61
267 340 300 120 87 60
445 708 313 96 69 53
267 344 299 119 87 58
266 449 367 116 14 38
266 344 303 118 88 59
268 338 303 120 90 61
405 439 337 148 7 45
395 394 293 114 15 32
268 344 297 117 83 57
267 349 299 114 82 54
258 432 265 105 18 34
285 464 394 113 20 40
265 349 303 114 87 56
284 499 390 139 15 44
264 349 308 112 87 59
291 743 264 69 56 51
265 349 318 115 91 64
415 409 333 161 15 49
267 340 308 114 88 58
267 340 313 111 88 60
265 344 308 113 87 58
266 344 313 112 88 61
268 338 308 116 89 59
304 335 267 108 86 62
234 634 297 174 119 85
313 556 221 127 22 49
273 324 293 100 69 45
260 849 278 123 103 84
272 325 294 106 74 48
354 813 341 35 33 33
273 327 291 95 67 41
281 410 373 98 18 37
260 354 279 127 92 73
257 358 276 133 96 78
365 764 187 129 96 56
260 359 278 131 93 75
242 860 302 126 97 76
277 713 350 113 61 53
265 404 278 128 87 72
263 354 280 127 91 73
265 354 282 123 85 70
387 667 256 67 29 34
347 563 180 165 108 74
265 359 282 124 84 69
264 404 283 93 60 46
262 358 281 129 91 75
326 812 401 89 70 55
259 369 274 138 100 82
390 813 343 79 61 51
260 394 298 103 77 51
263 361 280 129 90 75
267 360 287 109 70 55
299 734 248 72 59 54
268 354 284 111 75 62
378 493 386 165 17 53
268 354 288 107 69 55
268 359 289 107 70 52
267 362 286 107 69 53
269 370 283 115 77 61
267 409 275 139 97 83
260 379 273 142 100 85
259 375 274 140 99 83
238 759 348 166 115 85
261 374 276 136 95 79
270 825 333 125 78 59
265 384 278 135 92 78
239 694 318 165 113 82
374 833 243 98 74 60
268 374 280 133 91 76
269 374 283 115 76 62
323 385 351 120 94 64
270 374 288 104 67 51
349 868 211 97 85 78
330 414 353 87 70 51
264 384 288 107 70 53
268 379 280 131 88 74
269 384 281 123 84 71
264 354 303 112 85 55
239 619 318 146 107 78
410 714 314 53 40 28
263 364 302 109 82 51
263 369 301 108 81 51
300 394 363 131 102 73
269 354 293 105 69 50
247 904 348 48 43 44
266 354 299 109 78 53
242 619 321 142 107 76
310 694 218 114 15 34
266 359 298 105 76 50
406 765 242 156 107 79
255 844 313 143 91 101
268 354 296 108 76 50
330 838 322 26 25 25
270 894 253 115 90 71
268 358 296 105 74 48
267 360 295 102 70 48
423 414 299 148 16 40
237 576 301 130 101 72
267 364 295 101 72 45
264 679 293 105 5 35
267 369 295 101 72 42
352 533 206 47 26 30
255 864 329 131 98 80
362 789 185 137 101 60
269 364 293 101 70 47
330 759 354 80 57 49
265 364 298 103 76 48
263 353 307 114 89 59
375 396 298 74 59 50
262 354 309 116 91 61
262 354 313 116 92 64
258 392 306 111 85 54
263 357 306 114 88 56
262 360 305 113 86 56
263 352 314 117 93 65
260 364 308 116 90 60
414 747 228 123 89 65
259 364 313 119 93 63
258 369 313 122 95 63
412 461 301 66 24 30
363 826 221 164 112 100
260 364 318 121 95 65
315 789 357 60 47 40
261 374 303 111 84 54
375 554 353 86 30 40
264 379 298 104 78 50
300 494 397 157 15 49
261 379 303 110 84 54
319 334 338 123 96 67
261 384 303 110 83 53
267 380 294 101 71 47
415 756 326 60 48 37
265 384 293 103 72 51
250 571 301 66 39 38
269 378 293 101 68 46
386 589 237 157 16 41
259 374 308 119 91 59
434 734 263 75 56 44
258 373 312 123 94 63
245 729 358 158 113 85
260 659 341 145 105 78
257 375 314 123 94 63
275 699 348 127 86 71
276 410 362 84 27 34
259 384 307 114 88 55
257 380 310 120 92 60
281 464 392 131 19 42
292 825 274 106 90 74
256 379 318 123 95 65
275 879 259 120 95 68
285 908 240 95 82 80
300 324 263 101 81 58
246 864 326 147 108 91
302 328 258 101 83 63
265 354 323 121 96 66
252 851 288 142 114 85
302 328 263 102 82 60
239 669 313 170 115 85
317 921 256 80 74 77
297 322 265 103 81 54
239 529 298 88 17 34
297 327 270 113 85 58
350 464 388 109 3 32
316 324 302 88 75 62
299 330 272 111 85 58
302 332 265 107 86 61
295 329 278 89 70 56
298 321 285 76 63 48
312 644 240 128 4 32
301 324 287 75 61 46
250 593 323 99 46 45
299 329 284 76 61 45
301 328 286 74 60 44
299 335 277 104 78 55
398 695 262 71 35 34
300 334 284 76 61 46
338 922 280 82 75 74
305 334 287 77 64 50
305 338 268 108 86 62
332 556 375 42 33 30
305 339 273 109 86 59
294 337 282 74 59 45
369 828 367 76 59 50
299 339 278 95 71 51
369 868 313 60 52 48
420 685 278 106 92 79
300 344 279 101 77 55
302 338 274 109 84 58
303 341 276 110 84 60
304 344 277 108 83 56
300 339 283 72 57 41
355 845 371 68 55 48
304 340 285 77 62 46
315 384 357 123 96 64
305 349 278 104 81 56
305 349 287 83 64 45
303 351 281 100 77 55
255 654 339 141 101 75
302 350 286 90 70 48
306 334 258 104 85 64
344 912 317 56 49 46
308 336 262 106 86 64
283 868 266 119 99 80
310 339 263 105 85 64
402 440 377 85 26 36
253 592 280 127 79 62
250 804 323 160 114 85
390 429 392 111 5 33
340 664 223 55 35 35
303 595 241 138 25 46
312 342 262 102 84 65
337 915 324 48 44 43
308 341 271 108 87 62
312 343 270 106 86 63
272 937 265 74 68 73
313 341 265 104 85 65
265 428 263 81 42 40
270 939 267 75 70 74
313 341 266 104 85 64
294 784 366 171 118 90
314 344 268 104 85 64
294 874 375 61 54 52
313 345 259 102 85 66
316 349 258 100 84 66
317 348 262 102 83 64
313 346 271 107 86 61
376 544 358 50 28 32
311 349 273 105 84 61
313 349 271 105 84 61
306 344 286 77 64 48
310 339 289 82 69 54
309 351 276 104 83 59
215 517 225 211 137 118
310 349 289 83 66 50
392 805 237 149 100 75
269 479 380 91 20 36
294 858 375 43 38 36
306 324 293 82 69 54
421 763 330 62 49 39
307 328 291 82 68 54
310 324 298 85 72 59
309 335 290 81 68 54
314 325 300 86 74 61
315 329 298 87 74 62
319 324 304 90 77 64
322 886 370 69 60 56
319 329 303 90 76 63
313 331 295 86 74 61
314 335 294 85 73 60
245 784 322 154 113 78
295 958 283 78 73 76
316 334 297 88 75 62
318 335 299 88 76 62
259 394 303 108 83 53
352 679 199 135 98 65
320 334 303 90 76 62
321 324 307 96 81 65
315 339 293 85 72 59
316 344 293 84 72 59
442 740 286 87 69 55
293 637 261 37 35 37
318 341 295 86 73 60
365 544 193 134 103 75
318 344 295 84 72 59
258 709 276 156 2 45
349 532 381 189 11 61
317 338 296 87 75 61
344 594 203 131 89 70
317 342 296 86 71 56
320 344 298 85 73 60
401 409 345 60 29 33
319 349 295 86 71 56
302 354 286 94 73 51
305 359 283 96 74 52
302 357 286 95 72 52
317 353 263 100 84 66
311 768 244 75 62 60
319 355 263 99 83 66
320 359 258 93 80 67
321 359 263 97 82 66
266 359 328 122 96 67
320 359 273 99 80 61
439 702 300 80 62 45
378 629 302 66 24 31
311 358 280 101 79 55
310 360 282 97 76 53
306 362 285 94 72 49
215 519 233 213 141 117
310 363 284 94 73 50
405 469 334 46 29 31
312 352 275 105 83 59
315 359 278 100 80 57
306 896 236 85 74 72
365 754 323 109 26 43
331 574 203 55 33 37
319 360 277 98 79 58
365 569 352 198 4 63
315 365 288 93 74 53
317 367 284 91 73 53
317 368 287 90 72 51
407 460 296 69 32 40
319 369 288 88 71 52
321 373 288 86 69 51
310 354 290 87 64 47
324 364 258 91 79 67
309 358 290 88 68 49
292 640 260 42 34 41
310 359 291 90 70 51
315 354 292 88 67 51
315 359 292 101 80 63
246 714 356 149 108 79
290 794 365 166 117 90
319 354 294 104 84 68
319 359 294 111 89 71
409 424 337 152 0 47
316 363 292 104 84 66
319 364 294 101 81 63
318 366 290 93 75 55
271 329 323 124 96 64
329 812 378 60 47 40
272 329 328 128 100 70
270 334 323 123 96 65
305 779 363 156 111 84
267 345 322 118 93 65
383 504 353 114 28 45
269 339 323 121 95 65
267 350 326 123 98 68
268 347 325 123 97 69
270 349 333 127 101 71
274 324 333 129 101 73
418 412 326 152 5 48
272 329 331 129 100 71
397 781 344 72 59 48
296 519 391 153 19 47
273 329 333 129 102 73
396 689 268 74 43 39
399 579 263 149 16 46
273 328 330 130 101 71
334 899 259 63 56 56
433 708 255 96 71 53
273 334 334 130 102 72
275 329 338 130 102 74
285 534 383 170 17 54
420 726 252 69 49 36
325 714 210 139 8 35
278 324 340 127 99 72
280 324 342 126 98 70
370 396 298 72 61 52
280 329 343 126 98 71
277 330 341 128 99 72
277 334 341 128 101 72
280 334 343 126 98 71
357 471 396 120 15 35
284 324 345 125 97 69
284 329 345 126 98 71
286 329 346 125 98 70
283 334 345 124 96 70
285 334 347 125 97 70
249 894 282 146 116 88
273 342 335 127 101 73
274 339 338 128 101 73
274 344 338 127 101 73
277 339 341 128 101 73
431 688 263 84 65 45
279 344 344 124 97 71
222 522 256 172 119 90
395 814 268 73 58 52
272 345 336 128 101 72
330 629 347 85 28 40
273 349 339 128 102 73
276 349 342 127 100 72
365 724 191 137 96 58
241 909 328 171 128 108
279 349 345 124 97 70
285 339 347 123 96 69
404 489 273 81 29 35
281 345 346 123 96 69
285 344 348 122 96 69
344 779 338 68 52 44
281 349 347 124 97 70
332 910 335 52 47 45
285 349 349 123 96 69
242 797 325 157 115 81
287 351 351 123 96 68
263 358 320 117 93 64
395 744 319 53 41 33
261 364 322 121 94 65
263 363 324 120 94 65
261 369 323 122 95 66
422 397 301 123 30 46
264 369 328 123 97 68
267 360 331 123 95 67
268 354 329 124 98 69
379 704 312 137 14 44
268 358 330 124 97 68
375 549 218 107 18 30
282 410 377 142 16 46
269 359 333 126 98 69
267 364 332 124 97 68
266 369 333 124 97 67
415 529 248 45 29 30
271 359 338 128 101 71
276 594 358 46 27 31
270 369 338 126 99 69
291 395 361 126 99 72
259 374 323 123 96 67
262 370 326 123 97 68
265 374 333 123 96 66
257 376 321 123 96 65
257 380 322 123 96 66
259 379 324 123 95 66
349 654 336 52 23 31
258 382 325 123 95 65
257 947 310 60 56 56
259 384 328 123 96 66
263 377 330 123 96 65
359 804 348 41 36 33
264 379 333 124 98 67
400 699 273 64 40 38
271 374 342 127 100 71
249 583 310 97 72 56
363 634 322 151 13 48
246 754 362 172 126 95
272 699 260 59 31 38
268 379 339 126 99 69
272 681 270 80 42 47
319 324 337 124 95 66
268 383 340 127 99 70
273 354 340 128 101 72
273 359 340 128 101 72
401 789 339 45 37 32
281 354 347 125 97 70
277 360 346 126 98 71
296 714 356 139 15 44
278 357 345 126 98 71
274 459 379 40 26 29
273 364 340 127 99 71
274 364 343 127 100 72
236 924 303 73 65 61
370 826 218 165 117 89
320 769 359 81 62 53
274 369 344 127 100 72
280 364 348 126 98 72
277 543 376 46 29 31
284 354 349 124 97 69
286 355 351 124 96 68
286 359 352 123 96 69
285 364 352 123 97 70
276 742 274 80 62 55
275 529 379 94 20 38
282 370 351 125 98 70
276 374 347 127 100 72
279 374 350 126 98 71
238 658 325 149 105 78
290 853 338 48 41 37
273 378 345 128 101 72
275 379 348 127 100 72
272 384 346 127 100 71
275 384 349 126 100 72
278 378 350 126 99 72
280 379 352 126 99 72
280 384 352 126 100 72
285 374 354 125 98 70
284 379 354 126 99 71
392 546 320 161 36 68
287 379 356 126 98 70
243 523 240 181 116 108
250 684 348 136 101 72
324 914 342 53 48 48
330 469 384 58 29 31
410 399 338 49 32 32
286 384 356 128 99 72
290 324 348 124 96 69
307 624 245 86 21 32
290 329 348 124 97 69
268 428 360 42 31 31
295 324 348 124 97 70
290 334 349 124 97 69
300 329 348 127 100 67
280 749 362 133 95 70
305 329 348 126 97 67
282 661 270 91 28 36
300 334 349 126 99 68
258 525 365 131 11 42
295 339 350 122 96 68
281 439 383 44 26 30
269 499 379 55 29 31
291 345 351 122 96 69
241 664 332 139 99 69
293 342 350 121 96 68
271 864 342 107 77 67
295 344 351 121 96 69
322 437 370 34 27 30
290 349 351 123 97 68
400 789 248 105 75 66
300 339 350 125 98 68
318 826 362 51 41 34
375 694 193 127 92 53
299 341 351 124 98 70
310 879 228 84 72 68
351 694 199 142 100 68
302 342 350 124 97 65
329 938 289 88 80 79
305 344 350 122 95 65
305 349 352 124 98 67
290 405 378 96 53 42
320 949 303 58 54 52
309 324 346 132 98 69
311 329 344 126 96 66
309 334 347 122 95 64
312 334 345 122 96 65
314 329 342 125 97 67
400 564 240 156 15 36
405 474 333 58 28 32
317 329 340 123 96 66
319 329 337 124 96 65
360 694 192 137 97 59
362 511 385 193 4 60
315 334 342 121 95 66
317 334 340 120 94 65
321 413 364 118 18 36
310 339 347 119 94 65
295 629 258 70 33 38
307 347 350 120 94 63
382 506 352 80 24 26
311 349 349 116 92 66
369 833 222 110 86 70
278 648 286 61 27 34
309 350 351 119 94 66
327 372 274 86 74 61
320 339 338 120 95 66
318 339 341 118 93 64
321 344 338 119 94 65
339 868 228 64 54 53
341 784 208 167 129 95
376 654 202 113 83 50
319 344 342 118 93 65
398 411 368 67 33 33
312 338 345 119 94 65
301 925 350 64 59 59
267 592 275 91 14 24
367 558 216 46 33 33
313 340 346 119 94 66
415 484 313 160 17 46
314 349 347 117 93 65
295 349 352 123 97 70
402 806 287 76 59 51
300 349 353 126 99 70
290 354 352 124 97 68
295 619 356 63 33 37
312 353 350 117 93 66
250 629 293 156 105 78
251 744 315 135 90 65
315 354 348 117 93 66
400 719 243 77 34 39
240 744 353 168 116 89
313 356 351 117 92 64
310 359 353 121 95 64
259 404 302 102 79 51
291 614 258 85 28 36
316 359 349 118 93 64
314 359 351 118 93 63
317 363 350 119 94 64
315 369 353 121 94 63
270 579 359 155 13 48
317 367 350 118 93 63
318 370 351 120 94 63
319 374 352 120 94 63
284 852 357 44 40 41
321 374 349 120 95 65
289 369 355 126 99 71
374 428 374 52 27 30
288 373 355 125 98 70
291 370 356 126 99 70
376 789 186 149 103 64
405 704 253 73 48 43
295 364 356 123 97 68
295 369 357 125 98 68
295 864 261 101 86 72
262 386 280 131 89 72
300 354 354 126 100 71
353 897 294 59 51 48
305 354 353 125 99 68
305 359 355 125 98 67
300 369 357 126 99 70
305 369 357 126 99 68
290 374 357 126 99 70
325 899 358 52 46 44
405 429 392 169 12 53
295 374 358 128 99 70
295 379 359 128 100 71
295 384 360 128 100 72
300 374 358 129 100 70
305 379 359 129 100 67
300 604 364 158 26 55
300 383 360 129 101 71
305 383 360 129 101 68
415 680 288 61 42 34
306 362 355 125 98 66
310 369 356 126 98 66
310 374 357 126 99 66
313 375 356 124 97 65
316 379 354 121 95 64
325 429 367 113 11 35
259 940 329 51 47 47
260 884 272 128 100 73
314 379 356 123 97 65
320 379 352 120 94 64
317 383 355 122 95 64
375 519 219 64 37 40
323 259 315 109 89 68
323 264 315 110 91 70
323 269 315 112 92 71
321 274 312 111 92 71
321 279 312 109 91 71
323 273 315 114 94 72
325 274 318 121 98 73
324 280 314 115 95 73
324 289 313 116 96 74
326 824 255 129 101 77
325 284 318 123 100 75
323 294 310 113 94 74
324 294 313 118 97 75
321 299 307 107 90 72
335 934 298 62 57 56
323 299 310 113 94 73
251 690 351 137 100 73
323 304 310 112 93 73
266 822 329 137 90 70
325 299 313 119 98 75
326 304 318 123 100 74
323 308 310 110 91 70
250 769 318 142 104 69
325 309 313 115 93 70
258 400 260 141 99 84
324 319 313 109 89 67
326 314 318 119 96 71
325 319 318 114 92 68
327 269 323 128 102 73
296 619 254 43 33 34
369 493 391 181 17 60
327 266 335 138 103 73
327 269 333 138 102 75
323 346 336 119 93 64
362 555 211 72 12 30
389 484 343 133 19 46
329 259 323 127 102 73
328 264 324 127 101 72
315 714 213 148 5 38
328 264 328 129 101 71
389 799 383 74 59 47
328 264 333 136 103 73
307 593 235 47 33 35
327 259 344 143 106 77
325 259 348 145 107 78
394 794 208 178 123 91
340 729 210 120 16 31
321 264 349 147 107 81
322 260 350 149 108 81
327 256 345 140 106 75
362 539 187 136 104 70
326 269 338 141 104 78
375 801 357 61 53 45
354 517 386 98 19 39
325 269 343 145 105 78
326 274 323 128 102 72
281 559 372 185 16 59
326 274 328 133 102 72
325 279 328 135 102 74
325 279 333 140 102 77
325 284 328 135 103 77
358 882 280 76 66 64
395 397 323 58 24 24
325 289 323 125 100 72
315 684 353 126 25 47
307 737 225 144 25 42
323 289 332 134 98 75
322 286 334 141 101 80
322 289 334 137 98 76
324 274 343 142 103 78
270 689 348 143 107 82
295 569 373 177 16 55
323 283 337 139 101 77
292 562 376 190 16 61
323 294 331 131 100 70
321 294 334 130 97 69
326 299 323 126 100 72
355 396 303 72 63 53
325 299 328 128 100 71
325 304 328 129 102 72
321 299 334 128 97 68
323 304 331 130 99 72
327 309 323 122 97 69
364 528 376 174 24 59
325 309 328 127 101 72
323 309 331 129 101 72
327 314 323 120 96 68
326 314 328 124 97 69
326 319 323 115 91 65
279 474 389 133 22 46
300 879 233 69 64 64
325 319 328 122 96 67
322 314 334 128 99 68
227 534 258 174 118 88
322 319 334 127 97 67
324 324 313 106 87 66
400 704 283 69 53 47
323 329 310 97 81 64
385 504 368 72 28 37
245 548 289 73 38 35
325 329 318 105 85 62
357 456 386 104 7 30
323 335 309 94 78 61
252 749 366 170 125 96
324 334 318 102 83 62
385 504 343 154 15 49
419 793 324 89 70 59
321 339 302 89 74 60
315 544 382 110 29 44
391 729 224 121 90 69
364 549 188 133 103 70
324 349 303 106 88 71
322 338 306 92 76 61
323 339 308 93 77 62
323 339 313 95 78 61
323 340 305 89 76 63
303 837 344 32 29 30
328 389 318 76 65 54
323 344 308 92 78 62
238 704 338 158 108 80
324 344 313 94 78 61
