ply
format ascii 1.0
comment Created by Open3D
element vertex 2238
property double x
property double y
property double z
property uchar red
property uchar green
property uchar blue
end_header
327 534 267 46 27 31
403 893 287 36 34 34
258 764 244 138 101 77
419 854 237 57 48 46
260 763 245 112 79 57
258 770 245 144 106 79
436 807 273 166 108 79
263 764 245 99 70 51
262 769 244 101 66 45
268 754 252 69 42 44
266 756 249 56 46 46
267 759 248 50 41 40
382 618 265 177 8 54
413 695 169 58 45 37
270 752 255 50 32 35
273 754 256 81 51 51
273 759 253 70 56 50
264 769 245 122 89 63
269 764 250 49 40 37
269 769 250 42 36 35
278 759 256 78 64 57
396 847 189 66 56 53
276 761 254 73 60 52
298 744 266 70 55 51
279 764 255 75 62 54
323 644 157 133 12 35
323 649 159 139 16 40
368 758 159 70 54 46
328 644 158 66 36 39
335 646 160 49 37 38
323 659 162 155 1 36
323 669 163 133 2 31
294 924 222 63 59 60
328 669 164 134 3 32
333 659 163 146 1 35
334 661 165 140 0 32
332 669 164 134 3 31
339 645 160 81 32 38
430 907 224 60 52 49
343 644 162 109 30 41
288 855 297 108 91 73
338 654 163 148 3 34
343 654 166 144 3 35
348 643 163 97 28 39
346 647 164 41 27 34
351 642 164 172 12 49
353 644 167 126 17 38
348 654 168 140 3 33
351 653 169 139 4 34
433 574 282 168 116 82
422 874 235 51 43 38
408 849 255 44 39 38
353 654 170 136 4 32
378 659 262 68 23 32
337 658 164 145 2 32
338 664 166 138 0 34
348 659 168 135 7 35
350 659 170 121 14 36
353 659 171 87 22 33
397 783 168 68 55 47
350 664 170 127 8 34
353 664 171 115 16 32
347 669 169 125 10 34
323 679 163 50 35 38
441 572 238 49 29 33
328 674 163 105 15 32
328 679 163 71 33 35
416 913 275 57 49 42
323 684 163 57 36 39
388 799 286 105 85 69
323 689 162 66 32 35
328 689 163 114 16 32
335 674 165 132 1 29
335 679 165 130 6 30
323 854 212 87 64 55
332 684 164 129 10 32
333 689 164 126 11 32
474 524 237 181 10 55
335 684 165 128 7 29
323 699 162 99 25 32
433 695 234 84 68 52
341 800 180 63 53 50
443 739 262 141 98 67
328 699 162 107 21 34
328 704 162 116 19 34
452 539 256 169 8 52
318 843 203 131 93 72
333 694 163 58 32 37
333 699 163 52 34 37
338 674 166 131 3 31
338 679 166 130 5 31
338 684 166 128 6 31
378 809 278 63 53 48
343 689 167 127 10 31
399 610 181 84 34 42
347 674 169 111 22 34
349 679 170 86 29 33
347 689 169 125 11 29
349 684 170 82 25 32
353 684 172 73 29 33
313 879 232 93 75 59
337 694 164 45 37 43
348 754 174 74 29 34
343 694 167 122 12 31
338 704 164 121 13 33
318 589 266 72 26 34
340 703 165 120 12 32
343 699 166 119 15 30
343 704 166 125 12 31
348 694 169 116 13 28
350 693 170 120 12 31
353 694 171 111 16 28
348 699 168 115 14 28
348 704 167 121 11 30
351 696 169 116 19 28
352 699 169 110 17 28
353 704 169 95 23 31
385 630 185 138 34 53
387 878 212 68 59 54
357 643 168 159 17 44
400 526 284 165 6 52
354 649 170 133 11 33
355 646 170 154 26 48
332 584 273 83 22 37
358 654 172 114 17 35
360 641 170 31 32 32
363 644 173 128 27 44
368 644 176 81 31 38
318 913 187 81 69 66
368 649 177 105 26 38
362 654 174 110 23 34
364 654 175 96 28 34
368 654 177 80 29 36
358 669 174 59 31 34
360 669 175 52 32 38
361 658 174 102 22 34
332 847 208 59 48 48
363 669 176 60 32 35
368 659 178 59 32 35
258 819 197 199 137 106
367 664 179 102 23 32
368 669 178 74 31 34
372 649 179 47 32 37
374 644 180 111 23 38
313 843 203 109 85 70
374 649 181 38 35 41
373 654 181 37 34 39
378 644 183 117 17 35
383 644 187 93 27 37
380 649 185 79 37 43
323 644 264 70 29 35
383 649 187 72 30 36
379 654 185 52 32 37
285 967 273 83 76 77
370 664 180 112 20 30
269 784 179 163 113 78
370 669 180 77 31 35
373 669 181 66 29 31
378 664 184 105 18 28
476 697 253 116 87 64
430 535 131 120 31 45
379 659 185 76 26 32
380 664 185 100 18 28
383 659 188 78 25 29
358 729 295 122 17 43
413 794 299 171 127 94
383 664 187 90 24 28
383 669 186 88 27 29
420 605 237 176 12 51
360 674 175 61 34 35
357 679 174 51 35 36
318 609 263 92 28 38
358 684 174 56 35 36
393 854 157 95 77 60
363 674 177 56 36 36
518 913 218 87 75 64
360 679 175 46 34 36
328 845 275 158 127 101
395 862 146 94 77 63
340 819 184 63 53 52
346 780 274 66 57 54
363 679 176 50 35 37
360 684 175 54 34 33
363 684 176 63 34 34
326 932 204 82 75 77
368 674 178 50 33 34
368 679 178 48 35 36
368 689 178 74 28 31
354 699 170 109 17 30
355 703 170 76 30 34
358 699 172 100 21 27
361 691 174 110 18 32
362 694 174 108 19 27
362 699 174 105 21 26
440 525 146 55 32 36
364 699 175 105 17 26
365 704 175 97 20 28
408 918 287 65 56 49
368 704 176 97 19 27
415 865 246 53 46 47
370 674 180 47 35 37
370 678 180 47 33 33
373 679 181 50 34 35
370 684 180 47 35 37
378 679 183 63 33 33
417 920 276 61 50 43
383 674 186 86 36 31
359 960 283 63 57 56
383 680 183 65 42 37
384 678 185 71 42 36
378 684 183 49 35 35
378 689 181 47 37 38
384 684 177 63 48 38
382 684 182 61 44 38
383 688 177 60 46 40
379 690 178 54 42 39
382 694 172 57 44 38
294 952 234 75 71 73
433 894 257 52 44 39
384 699 162 55 40 37
383 704 161 57 42 38
380 704 167 53 39 36
378 704 177 65 42 37
381 699 172 57 44 37
383 903 292 33 32 32
373 694 179 86 26 31
428 896 234 69 63 63
333 804 182 70 56 49
374 693 180 66 31 31
369 740 154 74 54 46
374 700 180 81 24 28
377 700 180 63 32 31
377 702 180 70 32 30
520 896 204 80 64 54
323 714 161 65 37 39
398 754 287 149 107 83
328 719 162 116 22 33
323 604 267 81 24 36
333 714 162 95 31 37
417 609 242 158 15 48
408 524 267 93 5 30
328 729 164 150 0 37
323 734 163 147 3 37
333 734 166 145 4 35
338 709 164 103 20 35
340 709 165 135 10 37
343 709 165 129 9 32
340 714 165 132 13 34
403 845 142 118 93 69
343 719 166 128 11 35
353 709 168 116 16 33
363 814 172 59 49 47
348 714 167 100 24 34
348 719 167 97 27 34
353 714 168 121 17 33
488 897 225 73 61 49
353 719 168 118 24 37
337 724 164 147 2 36
497 963 230 93 73 53
339 724 165 148 1 37
336 727 164 148 0 37
338 729 166 146 1 35
333 654 266 40 24 30
343 729 168 145 3 34
343 734 168 144 8 35
348 729 169 141 8 34
427 739 182 59 46 39
349 730 170 137 14 36
353 734 172 119 15 33
323 739 164 145 11 37
425 694 284 161 107 76
275 915 268 153 124 99
338 939 318 59 55 54
323 744 165 93 31 39
328 739 165 145 9 38
328 744 166 64 31 35
323 749 166 114 23 39
328 749 167 137 20 41
333 744 166 115 30 41
333 749 167 82 32 38
439 793 244 60 46 35
328 754 168 106 24 37
323 763 169 130 26 42
320 766 170 120 24 37
323 765 170 94 30 36
328 769 171 109 35 42
333 754 168 74 35 39
449 555 248 157 18 51
332 758 169 45 38 41
330 761 170 59 45 41
338 739 167 130 17 38
342 744 169 95 33 40
427 674 277 158 106 75
338 749 168 77 35 40
341 748 169 90 29 34
527 909 221 90 79 70
343 749 171 109 27 38
440 776 256 154 103 70
413 864 257 52 46 42
340 751 170 103 28 43
346 737 169 138 17 36
411 582 163 203 15 48
348 739 171 132 13 32
348 744 172 114 15 32
353 739 173 127 8 30
348 749 173 99 24 32
339 754 170 106 31 39
343 754 172 91 30 38
343 759 173 58 36 39
273 784 251 48 40 37
338 764 172 86 31 38
343 764 173 74 36 38
342 768 174 74 32 36
318 904 316 183 129 106
306 856 235 175 119 90
343 769 175 105 37 42
349 759 175 74 31 36
288 919 242 57 53 53
352 759 175 90 29 34
346 763 174 44 36 39
345 766 175 102 37 39
352 764 176 65 31 35
380 716 159 56 43 37
403 848 162 78 60 43
355 882 274 114 89 71
382 718 156 59 43 42
375 725 158 55 45 38
372 733 157 58 44 40
375 730 154 64 47 42
379 724 152 72 55 47
378 729 152 68 51 43
381 723 150 74 56 48
344 879 283 139 110 79
383 724 149 70 52 43
383 729 151 75 57 48
356 714 169 104 28 37
438 919 243 90 73 56
356 718 169 85 29 34
315 556 265 135 8 40
390 581 130 185 47 65
358 719 171 90 27 33
318 964 308 73 68 67
363 709 173 71 29 32
368 709 176 102 17 28
366 711 174 107 20 31
362 719 173 119 17 31
365 714 175 105 18 28
365 719 175 112 15 31
401 627 204 86 20 35
355 721 170 111 36 46
358 724 172 88 27 35
358 729 173 115 18 34
494 963 231 94 75 57
391 659 198 113 18 33
362 724 174 72 28 34
364 724 175 77 26 33
363 729 173 61 31 37
368 728 172 47 36 40
369 726 173 52 37 40
368 730 168 47 38 39
308 969 257 87 82 85
368 735 162 47 41 40
363 734 172 48 37 38
361 735 175 58 36 37
388 829 267 55 45 42
365 731 169 48 39 42
283 864 277 156 124 97
375 711 174 57 36 32
420 717 212 47 33 33
373 714 177 83 28 30
373 719 172 54 38 36
372 719 176 68 32 34
378 709 167 55 40 36
377 709 172 59 40 38
459 723 248 80 62 45
376 708 176 69 40 38
379 714 162 57 43 39
377 714 167 54 41 38
445 754 257 127 90 62
377 719 162 54 42 39
456 717 242 127 104 80
376 718 166 56 43 37
328 977 267 66 64 65
381 712 160 54 40 36
375 724 162 53 43 38
373 729 162 52 43 39
372 729 166 52 42 41
371 723 176 56 36 35
419 678 241 76 59 45
372 724 172 50 38 38
441 537 164 40 30 36
371 732 162 50 42 39
289 885 305 126 38 61
436 543 157 103 23 38
371 732 165 51 43 38
376 722 161 53 44 38
348 639 267 60 30 34
364 744 157 67 50 43
392 552 99 51 29 33
367 738 156 58 46 40
327 859 212 56 48 46
368 749 157 55 41 39
365 753 159 56 45 41
373 745 155 61 47 40
373 749 156 62 49 43
378 739 154 68 52 45
383 739 156 57 45 40
383 744 157 57 45 37
378 749 157 59 47 40
382 748 158 58 47 40
373 758 158 64 51 43
390 546 95 176 30 51
377 754 158 67 52 44
376 758 159 77 60 51
444 524 263 128 21 43
343 834 269 157 127 96
355 744 175 108 20 31
359 740 173 69 31 35
390 611 170 100 30 39
358 739 175 96 25 34
563 908 214 115 91 65
357 743 175 87 28 32
360 745 167 48 37 39
360 749 163 62 47 42
439 768 230 65 48 42
357 749 172 52 33 34
431 578 259 136 92 68
364 739 162 48 40 38
363 739 167 45 38 39
393 745 285 115 47 47
362 744 162 52 40 38
429 692 235 80 63 47
426 909 286 61 53 48
361 743 166 45 37 39
523 900 213 91 65 51
366 738 161 47 40 40
362 738 172 53 36 37
361 737 175 62 35 38
361 749 161 61 45 40
360 754 164 57 42 40
312 914 197 87 77 74
358 754 167 63 47 43
360 759 164 61 48 46
355 755 173 73 31 32
531 938 226 110 90 72
357 754 172 59 37 37
459 922 224 82 73 68
356 757 170 63 44 38
355 764 168 63 51 48
363 794 276 67 59 56
356 764 166 67 54 50
359 764 164 70 54 49
358 769 166 70 55 48
434 816 242 74 53 48
363 754 161 53 43 40
362 763 164 68 54 48
363 764 167 67 52 45
361 767 164 71 56 49
368 762 164 66 52 43
368 763 167 65 51 44
368 765 171 59 47 40
373 762 163 60 47 40
451 704 242 72 56 43
398 820 283 169 123 99
373 764 167 59 46 39
347 849 186 47 43 44
373 769 172 70 52 41
443 914 267 68 57 47
383 755 166 70 52 44
383 759 168 75 55 47
378 764 167 79 59 49
382 769 167 67 51 42
369 784 280 70 59 56
388 513 68 135 20 38
398 759 162 77 57 43
388 515 71 175 13 44
393 512 69 172 12 41
414 761 190 59 49 45
303 849 212 175 119 92
393 515 71 163 12 41
388 518 73 173 11 41
388 520 75 104 19 37
393 518 73 176 11 41
393 524 78 61 33 40
398 512 69 81 32 37
398 518 73 93 30 41
363 593 275 183 9 57
398 521 75 70 33 36
408 739 161 80 60 47
388 526 80 171 18 49
399 526 80 48 37 40
398 529 82 46 35 40
384 531 85 192 11 49
386 531 85 203 13 46
388 534 86 180 13 40
393 532 84 167 21 46
393 535 86 184 23 48
513 960 223 87 70 53
393 537 89 183 19 45
360 966 246 89 83 86
393 540 91 93 21 36
433 886 274 40 36 34
393 543 93 106 31 43
397 532 84 57 40 43
398 534 87 59 33 38
398 544 97 181 15 42
303 819 187 92 71 62
409 891 285 37 35 34
403 518 73 57 33 39
403 520 76 104 35 44
408 517 74 65 33 38
400 619 275 168 121 102
403 523 78 77 35 41
407 724 289 171 125 96
407 523 78 97 31 39
412 578 158 46 32 38
414 516 76 110 36 45
335 937 209 73 66 68
288 830 197 96 75 66
403 526 80 53 35 38
403 528 83 47 34 38
408 525 82 45 33 37
318 852 279 136 111 86
407 527 83 49 34 36
426 542 129 135 32 37
414 520 81 48 31 35
398 604 172 77 36 42
412 523 83 85 37 44
408 529 87 128 29 46
286 909 251 150 111 88
410 526 85 52 36 39
494 945 248 73 60 47
448 699 250 68 54 42
414 525 86 56 32 37
404 531 86 59 33 37
463 529 251 149 15 50
403 533 88 64 29 36
407 532 89 198 23 51
408 534 92 205 19 48
400 536 90 38 32 36
408 539 97 204 18 48
441 757 228 73 56 50
409 536 96 201 18 47
413 534 97 205 19 50
415 531 95 181 18 48
280 876 268 160 126 94
406 542 99 202 19 46
454 924 242 97 84 74
409 540 101 202 19 48
407 543 102 205 18 49
444 564 247 62 30 34
339 910 195 73 66 67
428 865 227 55 44 38
411 537 99 204 19 47
414 539 107 193 17 46
391 676 169 75 53 41
435 520 126 186 14 45
412 543 108 193 17 43
415 540 111 189 16 44
393 739 283 84 32 35
461 538 246 167 20 55
413 544 112 198 18 47
386 547 94 107 22 27
388 549 96 86 30 39
398 859 260 44 39 36
393 545 95 150 20 44
328 764 268 71 58 51
498 943 237 84 70 57
388 552 99 59 33 39
387 558 104 94 37 43
393 554 102 87 31 41
388 560 106 122 32 42
394 556 105 86 24 35
275 903 286 196 140 123
394 551 100 144 18 45
422 588 197 183 16 49
438 910 227 71 62 57
397 548 98 197 16 46
398 549 102 195 16 44
397 552 104 179 16 44
363 614 268 168 16 55
394 560 111 88 28 40
388 574 121 121 29 44
398 554 107 173 17 45
400 556 110 197 16 43
387 568 113 53 34 40
388 570 116 85 34 43
391 567 114 88 44 45
396 562 114 53 33 36
398 564 117 112 31 44
399 561 116 62 25 32
396 567 119 157 30 55
394 575 126 135 23 44
404 550 107 202 17 48
405 546 105 204 18 41
407 548 108 204 18 49
402 553 108 199 17 45
373 774 172 72 53 45
410 546 110 203 18 46
411 547 113 202 18 49
449 695 250 68 53 42
386 775 160 71 53 42
403 559 117 180 17 46
405 556 116 203 17 48
407 552 113 204 18 48
406 557 119 197 14 40
414 550 121 194 18 46
415 551 125 199 17 44
483 904 212 85 69 59
411 552 119 198 17 51
402 613 188 71 34 39
412 553 122 199 17 49
409 560 126 179 17 46
390 649 260 70 42 42
313 664 261 127 9 38
414 554 126 200 18 48
403 564 122 60 31 37
338 969 236 86 81 85
401 567 124 110 25 27
402 568 128 106 27 40
319 845 275 138 114 89
406 562 124 129 56 65
407 563 127 113 23 42
418 514 77 88 32 41
416 517 79 46 30 39
418 518 82 63 34 38
505 906 225 83 69 56
304 968 257 86 80 82
424 515 87 66 34 38
421 517 84 65 30 38
422 518 88 132 32 48
423 519 92 85 32 40
419 524 92 76 33 40
420 526 96 74 35 38
421 523 93 56 33 38
423 524 97 53 32 37
427 513 87 119 28 42
423 898 242 50 40 37
428 584 286 167 116 85
428 514 92 108 33 44
425 516 90 87 28 43
425 520 96 100 37 44
426 517 93 114 29 39
427 519 97 96 34 44
429 515 97 50 31 36
391 557 270 41 23 25
431 512 94 79 23 29
421 527 98 125 47 56
301 753 264 72 60 54
422 527 102 201 22 56
424 525 107 204 14 53
423 529 112 191 13 47
430 516 106 201 14 52
428 519 107 189 16 51
429 520 112 196 13 48
431 517 108 201 13 52
428 524 117 187 14 45
425 585 202 188 13 48
323 839 272 139 115 91
434 519 122 187 14 46
478 878 216 66 50 40
430 525 121 185 16 45
416 532 98 212 20 56
420 531 106 206 16 52
419 535 112 188 16 45
423 534 117 125 20 40
408 854 256 43 38 37
419 539 117 188 17 46
416 542 114 195 18 43
405 911 282 64 56 48
417 543 118 162 14 42
421 538 118 178 18 46
431 745 184 59 46 36
423 539 122 93 26 39
458 889 231 78 65 54
425 535 121 42 30 36
420 541 120 183 15 52
453 924 247 93 77 65
423 544 127 61 31 36
427 533 123 47 31 35
428 534 127 87 29 39
425 540 126 66 35 42
435 516 120 193 14 50
437 514 122 192 15 49
436 517 124 194 15 49
441 512 128 188 14 46
420 546 125 58 25 31
421 548 128 39 32 38
430 616 265 162 115 80
388 579 127 148 19 44
400 571 130 193 19 48
288 809 183 89 70 62
398 574 132 200 18 50
269 784 250 44 39 38
444 744 257 109 78 53
400 576 136 206 18 51
415 556 130 201 18 51
403 569 132 104 30 43
401 572 133 198 27 56
406 572 139 203 24 56
307 854 262 125 97 76
407 573 143 159 25 50
455 521 215 67 25 33
373 619 266 183 6 57
388 629 261 117 35 43
410 566 136 148 15 42
413 564 137 201 17 50
413 569 147 95 35 42
410 576 151 142 27 46
413 574 152 72 31 39
377 939 242 79 70 68
415 570 151 157 31 52
405 809 190 49 42 43
433 529 132 153 20 42
431 532 129 181 17 52
428 539 132 114 31 42
427 543 133 135 31 45
431 537 134 96 21 30
406 758 165 86 65 51
430 540 136 79 33 40
423 659 282 181 122 93
428 544 137 77 33 39
431 543 143 54 37 39
438 519 132 191 15 48
440 515 131 189 15 50
435 525 131 176 16 47
393 724 146 78 58 44
436 522 129 184 12 42
436 523 133 161 14 44
427 574 187 189 14 49
438 524 137 145 16 42
443 514 137 184 13 46
336 577 274 149 10 48
441 522 143 119 24 42
443 519 147 170 13 46
446 512 144 180 12 42
446 513 148 179 12 46
446 514 152 176 12 46
446 518 157 171 10 46
442 524 152 173 15 47
441 527 148 139 39 51
444 524 157 176 11 45
288 714 266 157 9 50
442 529 157 174 12 46
434 535 142 88 31 42
437 534 147 88 32 39
439 534 152 118 30 44
434 539 147 51 33 38
435 536 145 118 42 50
432 544 147 40 34 39
434 544 152 38 34 38
275 909 272 176 128 109
435 541 151 40 31 36
436 538 148 77 31 37
437 539 152 121 30 45
438 539 157 108 27 42
436 542 154 53 28 28
448 514 162 165 10 44
328 559 264 107 16 38
387 639 192 63 31 37
488 939 242 83 68 55
448 514 167 166 10 45
344 904 299 134 102 77
446 519 162 169 10 44
450 884 219 95 80 66
449 514 172 162 10 41
375 940 240 89 80 76
443 529 162 176 11 46
445 521 161 173 11 46
445 524 162 174 10 45
298 849 227 184 128 99
446 523 167 169 10 45
446 524 172 164 11 42
448 524 177 64 27 36
445 529 172 175 11 45
483 875 202 78 62 52
446 528 173 168 10 45
446 529 177 144 17 43
398 675 197 158 47 40
440 540 167 151 22 47
441 534 162 86 23 36
423 690 227 47 38 36
442 534 167 145 23 47
443 534 172 161 15 45
442 539 172 164 13 45
347 554 272 72 22 31
441 543 178 148 17 46
343 554 268 81 19 33
448 529 182 98 29 40
446 532 179 169 13 45
445 535 181 174 10 44
446 533 182 126 19 41
447 534 187 131 18 43
448 534 192 174 11 47
444 539 182 180 12 46
442 544 182 181 13 47
443 544 187 179 12 46
445 540 187 185 12 49
446 538 188 182 11 48
350 861 154 140 121 114
444 544 192 135 15 43
423 549 132 38 32 38
418 554 132 192 19 49
416 558 133 203 18 49
421 552 134 125 19 39
482 924 246 80 62 46
422 554 137 188 20 49
416 843 232 48 42 41
427 699 222 59 44 40
285 939 238 64 60 62
396 827 179 59 49 50
419 560 142 196 17 50
448 709 236 80 61 41
421 558 143 194 16 49
273 724 262 158 10 48
426 548 138 52 30 37
427 549 142 89 35 42
368 854 252 47 34 30
426 552 144 40 34 30
425 555 146 111 30 45
431 547 149 42 36 38
431 548 152 43 33 39
433 549 157 71 37 41
427 553 147 45 32 35
385 911 230 65 58 59
476 898 224 73 59 44
428 554 152 89 36 46
390 906 235 62 57 55
424 560 152 61 31 37
426 558 153 93 29 36
429 555 157 147 28 50
416 562 138 202 17 51
418 564 147 118 32 46
403 889 226 62 53 50
416 567 148 81 27 35
416 910 275 64 55 45
417 568 152 142 29 48
327 558 265 153 14 49
419 565 151 55 32 34
422 563 152 53 34 37
420 566 155 65 24 35
419 569 157 167 24 50
421 567 158 112 35 45
303 855 297 102 84 64
426 562 159 65 26 36
432 554 162 79 34 41
302 914 217 60 49 48
430 556 161 80 32 39
428 559 162 100 35 43
429 560 167 106 32 44
318 894 192 61 55 53
433 554 167 115 31 46
422 568 162 87 34 42
384 849 153 119 90 67
308 789 176 84 65 55
424 565 162 73 36 40
426 852 173 104 84 61
423 569 167 73 33 39
420 570 162 89 33 41
418 574 162 64 30 36
421 572 168 51 29 33
420 575 171 81 23 34
424 570 172 181 25 53
423 574 177 201 18 53
426 563 162 91 32 39
320 894 314 171 130 104
297 909 308 155 112 99
427 564 167 87 30 41
295 962 300 53 49 51
426 568 172 103 29 44
427 568 177 105 23 40
429 564 177 156 20 47
432 559 177 129 24 43
425 571 176 197 22 56
343 899 187 74 67 69
428 569 182 190 16 50
430 565 182 193 17 49
431 568 188 190 14 50
443 749 217 67 53 47
425 571 180 201 16 50
426 573 183 191 14 47
425 576 186 189 14 47
434 549 162 50 33 37
436 548 168 38 32 38
435 551 171 97 35 46
437 549 172 56 31 38
438 549 177 70 28 38
435 555 177 56 33 37
436 552 174 75 30 44
354 877 169 87 74 70
434 559 182 175 19 50
456 512 197 70 23 29
437 554 182 40 31 36
435 560 187 183 14 49
439 554 192 145 21 44
436 558 188 179 15 48
437 559 192 107 21 39
440 546 181 182 14 46
441 547 184 184 14 48
441 548 187 180 15 46
442 549 192 178 15 47
435 561 190 145 11 38
434 564 192 185 14 48
449 525 211 153 11 40
447 528 212 154 9 39
373 609 268 86 22 36
448 534 202 170 8 48
446 543 197 54 27 36
447 539 202 65 23 35
446 543 202 53 30 36
445 544 207 55 26 34
444 535 216 56 24 33
488 899 222 71 59 47
445 531 209 158 7 42
448 534 217 75 24 36
444 544 216 61 29 34
449 540 220 39 31 34
449 544 221 34 32 33
433 569 197 187 12 49
429 575 197 187 13 49
431 572 194 186 14 48
432 574 202 185 11 49
425 659 262 139 99 68
439 559 197 73 28 38
439 559 202 133 22 45
443 549 197 128 24 43
444 549 202 88 30 39
358 888 193 50 46 47
442 553 197 70 30 38
442 554 202 68 30 37
442 554 207 119 28 44
311 874 235 133 103 78
441 557 202 70 28 35
441 557 207 111 28 44
440 559 212 122 23 43
439 913 229 72 61 56
398 814 287 174 127 103
443 549 212 74 27 35
444 549 217 44 31 33
447 549 222 36 30 33
445 550 221 39 29 35
365 956 240 81 75 75
353 829 181 67 55 51
441 553 212 107 27 41
441 553 217 82 30 36
353 925 311 36 34 35
428 744 182 59 47 38
443 554 222 85 27 36
440 556 220 129 26 54
435 566 196 187 12 48
279 744 265 125 19 44
437 564 202 190 12 51
328 849 277 156 125 99
436 567 202 190 13 51
436 568 207 185 12 51
435 570 207 185 11 50
458 939 247 91 74 59
433 574 207 182 11 50
438 564 212 118 19 39
436 568 212 175 12 50
408 759 164 73 54 42
435 571 217 186 12 49
433 574 212 183 11 49
437 774 212 50 40 36
434 574 217 191 13 51
436 572 224 194 13 50
433 574 253 154 21 53
268 824 246 170 128 102
449 550 226 79 27 34
423 549 289 170 120 95
368 894 277 39 36 35
444 554 225 96 23 35
353 814 268 203 150 124
444 559 226 87 24 33
447 558 228 104 20 36
438 559 257 130 26 45
447 549 255 68 29 37
443 549 257 105 25 42
448 559 247 103 27 44
443 554 256 137 22 46
395 790 170 65 50 45
539 974 209 130 112 97
443 559 252 72 28 36
353 684 282 115 14 38
410 831 258 88 56 44
448 554 252 97 26 39
310 880 310 161 129 98
446 552 255 127 20 46
438 569 227 157 13 43
440 565 226 139 23 44
435 576 230 187 13 49
393 709 280 103 59 53
440 570 231 159 14 42
413 639 287 184 136 111
441 562 224 85 20 31
441 567 228 147 20 34
444 565 231 142 18 38
442 568 232 153 16 39
443 569 237 131 20 42
437 564 256 121 25 42
438 569 252 134 25 49
439 574 242 57 30 36
440 570 248 163 19 53
498 909 217 64 53 42
446 562 246 69 30 34
445 565 243 144 28 53
441 567 250 101 35 34
393 579 132 108 29 43
338 644 266 36 29 31
391 582 133 52 30 34
389 590 142 200 17 48
395 526 289 85 22 36
363 953 301 60 55 53
394 585 141 209 19 52
395 576 130 142 27 45
435 727 208 50 38 36
535 949 209 98 82 67
398 579 137 207 17 51
390 591 145 203 15 49
405 736 290 174 126 99
395 586 145 205 17 49
400 585 151 200 17 48
398 589 152 194 15 48
399 591 156 128 23 43
288 832 199 98 76 68
386 597 149 200 15 48
388 599 152 175 16 46
408 769 182 43 35 37
389 596 151 194 12 46
393 594 152 174 19 48
389 850 164 92 74 55
391 598 154 68 25 35
393 599 157 48 34 38
388 604 157 105 28 44
403 669 221 50 32 35
394 596 156 62 31 37
396 597 159 68 36 38
400 581 145 208 16 51
401 582 148 206 18 53
421 593 203 184 17 50
467 533 242 46 28 30
311 557 259 125 3 39
403 584 152 200 17 49
408 594 177 119 37 49
345 966 293 73 68 66
404 585 156 201 17 50
401 587 154 197 16 50
411 577 154 134 36 49
388 608 162 164 21 47
389 605 161 39 30 38
348 829 266 158 126 98
376 778 170 68 52 46
392 604 162 44 32 38
394 605 166 46 34 40
392 608 168 55 35 38
293 874 252 123 93 61
398 600 167 54 32 37
284 929 301 187 144 125
395 606 170 44 35 40
396 607 173 91 39 47
409 584 162 195 16 51
407 588 163 134 31 48
387 853 189 56 47 44
405 591 165 42 33 38
414 580 167 202 16 51
410 591 176 51 30 31
414 590 182 48 32 36
402 593 162 69 36 41
403 594 167 58 36 41
404 858 101 91 84 79
385 584 269 67 26 34
400 596 165 44 32 33
277 718 264 156 12 49
401 597 168 43 34 37
343 889 183 72 64 63
403 599 172 54 33 37
420 712 195 43 36 33
404 595 171 40 33 39
423 639 287 186 126 100
404 600 177 120 29 45
407 593 172 41 33 37
406 598 178 121 31 44
342 957 224 83 79 84
402 603 177 101 34 43
408 599 182 96 35 44
402 608 183 67 36 42
408 604 187 99 30 41
313 674 261 160 12 53
380 825 180 62 51 47
388 839 177 74 59 54
405 606 185 76 33 37
404 609 187 85 33 41
406 608 188 113 32 44
411 592 178 92 35 44
412 593 182 112 36 46
501 936 246 95 76 56
415 595 191 152 25 47
413 599 192 76 31 38
373 699 286 63 23 29
392 612 173 149 31 49
318 565 264 174 10 55
393 614 177 92 30 41
390 616 176 144 34 48
387 618 173 59 31 37
385 621 175 50 35 40
394 610 176 52 31 35
393 619 182 100 30 43
389 625 186 74 37 43
391 622 184 141 23 51
396 612 179 83 25 27
411 812 209 65 52 47
397 614 183 113 32 42
394 620 187 165 27 50
394 624 192 142 31 47
396 617 184 175 23 41
397 618 187 148 25 49
388 629 187 80 34 40
390 630 191 63 32 36
392 629 193 103 37 44
445 764 257 147 100 71
386 633 189 55 35 38
313 954 313 53 50 50
385 639 190 108 34 47
401 617 193 41 33 37
416 577 164 164 31 57
293 885 306 131 51 67
417 579 172 190 15 51
420 576 175 182 13 47
387 847 184 56 46 41
420 580 181 168 14 46
421 578 178 198 15 51
422 579 182 183 14 46
419 585 187 114 21 41
421 582 184 81 18 36
421 583 188 173 19 48
424 580 192 191 15 50
417 589 187 157 23 48
419 589 192 183 15 48
417 594 193 174 23 47
415 600 197 161 33 52
409 609 197 77 34 41
410 606 196 40 31 35
340 873 284 143 111 82
414 604 202 93 35 43
415 601 200 163 30 57
412 608 207 70 29 36
380 804 280 68 57 51
415 606 211 90 32 35
420 657 255 117 88 58
413 609 212 107 35 48
388 634 259 110 39 42
414 610 217 89 33 41
400 620 196 70 26 33
394 629 196 61 34 38
395 631 200 59 25 32
395 634 201 70 33 39
448 879 231 60 51 42
425 740 180 53 42 37
394 639 202 43 30 35
396 634 203 102 32 43
398 634 207 96 25 37
396 637 204 79 20 32
397 639 207 100 32 44
398 639 212 58 30 36
400 639 217 62 35 38
405 615 196 40 30 37
365 697 289 124 15 45
406 612 194 139 36 49
408 614 207 118 24 42
403 619 197 99 36 45
401 622 199 169 35 62
404 619 202 110 27 41
402 623 202 140 34 51
404 624 207 85 32 39
513 964 222 90 74 60
405 620 206 92 36 44
328 934 313 44 39 39
409 610 202 160 37 56
410 611 206 184 31 57
407 619 212 78 31 39
407 624 222 91 31 42
411 612 213 163 33 57
276 889 266 155 117 89
412 613 217 110 35 47
439 814 247 70 57 49
413 614 222 73 32 39
538 890 203 90 71 60
408 827 276 157 100 73
415 611 221 158 39 59
410 616 220 82 37 41
403 629 212 125 30 44
404 629 217 55 31 35
385 874 204 55 48 47
405 626 220 108 46 54
401 633 213 104 28 39
380 728 289 165 6 52
402 634 217 71 31 37
403 634 222 112 28 42
400 640 221 43 27 32
416 704 188 48 35 35
399 860 207 65 58 55
466 959 231 90 75 62
407 624 227 100 31 41
503 880 204 86 70 61
414 614 227 64 29 37
415 615 232 81 22 34
415 615 237 166 23 55
410 621 231 129 38 50
415 611 242 148 16 43
414 614 242 115 26 42
415 615 246 73 41 41
414 619 246 88 51 43
406 627 227 100 30 39
405 630 232 55 30 35
407 629 237 47 32 34
403 634 227 122 28 44
404 634 232 105 24 40
404 634 237 101 21 37
402 639 237 122 12 37
406 632 237 43 29 34
405 631 242 65 37 33
407 629 242 59 35 33
404 634 242 90 24 36
280 748 265 62 18 27
406 634 244 95 40 36
409 634 245 100 57 43
421 715 188 41 33 34
409 639 245 101 64 45
358 912 298 76 53 42
410 626 245 73 44 35
409 629 245 85 50 39
413 629 247 106 73 53
413 634 248 115 85 59
410 574 276 147 103 86
421 587 194 192 15 50
425 581 196 189 13 49
426 583 202 188 12 48
431 577 204 184 12 49
429 580 207 186 12 50
431 577 207 182 11 49
426 587 208 190 13 50
430 580 212 186 12 50
431 578 217 191 13 52
430 580 217 187 12 50
428 584 212 185 12 51
428 584 217 185 12 51
428 584 222 191 13 52
538 905 217 93 79 64
322 917 194 80 70 71
426 588 212 188 12 48
427 589 217 184 14 50
425 590 211 191 13 49
419 594 197 62 27 35
416 597 194 78 17 26
478 915 222 88 72 58
418 714 182 45 37 34
306 883 309 128 96 76
419 595 202 109 23 43
410 918 283 56 48 42
422 594 207 193 15 50
384 925 247 80 72 69
422 599 217 41 30 36
424 595 217 45 28 36
305 900 224 120 80 60
423 599 222 75 31 40
417 604 212 88 35 43
287 950 293 192 141 119
417 608 218 73 37 41
420 601 216 30 32 38
421 603 222 146 32 54
426 592 214 174 16 54
425 596 222 71 34 42
429 584 227 197 14 53
429 585 231 190 14 52
431 582 229 193 14 54
373 839 257 158 121 92
431 583 232 183 13 49
281 887 260 158 119 93
427 589 232 193 14 53
433 584 237 165 19 50
430 586 235 187 15 51
412 709 222 76 31 35
432 579 251 80 28 39
430 579 257 117 77 61
434 579 247 103 28 41
435 738 209 45 35 34
429 584 257 128 85 65
427 589 247 162 12 47
431 587 242 166 26 56
431 587 245 92 20 32
423 599 227 55 31 34
423 599 232 40 29 34
423 599 237 49 28 34
418 609 227 143 26 48
420 606 227 139 34 49
420 605 232 148 21 50
418 609 237 178 10 50
421 602 237 136 19 45
410 714 290 171 121 90
521 917 221 91 78 65
426 593 227 182 22 57
426 592 232 193 13 53
423 599 242 162 17 50
392 634 262 130 73 67
297 950 231 72 68 71
420 605 247 136 33 44
421 602 242 178 12 51
421 607 249 123 62 52
427 593 242 192 14 55
429 594 257 137 94 68
428 599 257 139 97 69
419 729 217 49 32 35
426 602 254 133 90 65
425 606 255 133 93 64
428 609 257 140 101 72
437 578 237 158 20 47
436 577 246 151 27 53
288 788 255 66 57 52
435 576 249 170 22 51
416 613 237 181 14 50
416 612 242 130 25 46
420 614 250 122 84 60
420 610 250 118 72 57
419 624 251 123 90 63
422 619 253 125 90 62
283 774 256 70 59 53
396 847 190 57 49 46
424 619 256 129 95 64
421 624 253 124 91 62
425 610 255 133 96 67
395 656 210 112 27 39
456 921 226 62 52 50
416 629 249 124 92 64
419 629 251 126 94 65
298 953 233 71 66 69
421 629 254 123 91 62
437 714 267 133 91 58
416 634 249 124 94 65
416 637 249 111 81 57
421 633 254 123 93 63
423 634 257 143 104 73
422 639 257 148 108 75
363 789 167 54 45 41
450 514 176 160 11 41
379 934 242 81 71 69
451 514 178 143 12 39
494 964 227 97 80 64
453 514 182 108 24 40
364 910 221 68 62 63
450 520 180 106 22 35
453 519 187 69 31 36
451 527 188 37 30 36
451 528 192 117 23 42
328 855 280 143 114 86
456 512 192 56 29 35
450 530 191 128 20 42
452 519 202 146 16 44
452 524 197 122 23 42
450 525 204 165 9 45
318 855 217 113 74 61
451 528 201 174 8 49
449 529 203 172 8 49
318 930 206 82 75 77
457 514 207 125 13 38
455 519 212 83 22 36
452 523 212 144 12 39
457 514 212 75 25 32
459 515 216 70 27 33
503 875 212 71 61 52
458 519 217 106 21 35
463 514 217 55 28 33
478 519 232 198 13 54
490 915 225 78 65 54
458 524 218 52 29 31
457 528 218 49 31 37
463 521 220 147 11 38
450 531 197 177 8 48
450 536 220 39 31 28
455 531 220 51 28 27
458 534 223 81 23 35
468 514 218 52 30 36
467 518 219 59 23 30
474 516 220 123 14 36
473 519 222 88 26 36
468 524 222 81 26 35
305 972 269 66 61 61
266 806 250 159 123 91
472 523 223 46 28 32
392 837 260 41 35 35
477 513 219 174 11 40
476 518 223 123 21 36
464 519 253 177 5 56
463 524 253 164 7 52
454 544 226 81 28 36
464 534 226 86 26 36
456 538 224 123 11 31
458 539 226 90 26 38
457 544 228 57 29 34
462 538 228 80 30 38
502 960 209 125 106 94
459 545 237 92 33 43
518 888 220 73 59 47
461 542 237 71 27 36
454 540 253 173 12 55
384 850 255 41 36 35
455 536 254 176 5 58
363 694 287 121 7 38
464 535 242 39 27 31
456 533 255 172 3 52
464 530 248 53 27 34
459 544 242 162 19 52
460 541 243 179 12 53
457 539 251 187 13 60
456 542 250 117 19 41
268 809 188 187 130 96
468 529 227 86 26 38
439 774 227 63 48 41
470 526 225 39 29 33
471 527 228 56 28 35
478 519 227 127 16 41
480 516 226 167 11 47
477 519 237 189 10 54
474 524 232 102 24 38
472 529 232 129 23 45
475 521 238 186 7 56
468 514 253 105 20 41
415 719 162 86 66 53
465 516 254 174 7 53
397 860 146 102 81 64
472 513 251 38 28 32
469 520 248 188 13 58
468 524 247 181 12 55
423 694 218 54 42 36
472 524 242 192 8 57
344 705 290 146 12 46
469 529 242 165 13 52
471 527 241 192 9 56
434 699 252 63 26 28
475 516 244 172 8 53
502 955 214 133 112 92
477 514 242 175 6 54
422 905 231 55 46 43
476 518 241 181 6 56
465 531 225 99 18 31
449 694 247 69 54 42
288 739 267 64 25 33
468 534 232 121 24 43
467 534 237 99 29 42
466 537 233 96 27 31
438 751 197 71 54 44
466 537 236 66 25 32
465 536 238 53 29 30
451 547 224 31 33 35
453 549 227 93 26 37
275 927 280 183 154 134
347 948 316 63 56 55
450 556 230 35 32 38
451 557 233 68 27 31
456 547 229 97 32 36
363 859 257 68 49 39
457 548 232 77 27 37
453 549 247 163 17 53
452 553 246 176 13 54
453 554 242 186 15 55
457 548 242 126 23 46
481 513 236 175 12 52
312 649 259 100 27 41
480 516 233 202 13 58
404 519 278 155 10 49
385 644 190 69 29 35
472 701 249 117 89 64
315 831 260 149 117 92
387 649 192 127 20 40
385 654 190 110 16 32
388 659 192 91 21 29
388 664 192 76 28 30
386 666 189 81 33 31
386 670 189 75 32 32
389 679 168 73 51 40
389 676 177 83 51 38
428 589 287 167 115 86
389 676 169 75 53 39
393 676 177 88 54 43
393 684 168 67 47 37
386 683 175 58 43 36
385 686 174 60 46 38
388 689 172 61 46 37
392 690 169 65 47 38
393 689 170 65 48 38
394 677 171 89 55 46
348 809 177 61 50 48
363 799 275 66 57 54
396 680 169 77 50 38
398 679 172 77 48 40
398 678 177 79 49 39
288 869 262 122 97 71
396 683 169 68 48 39
399 688 176 74 50 39
393 676 182 86 52 44
417 906 267 65 48 40
387 674 188 81 43 41
388 678 187 85 51 43
393 676 187 92 53 42
391 677 184 97 54 48
396 676 178 89 53 44
420 755 181 65 51 43
318 849 277 138 113 89
397 676 187 112 54 40
367 957 301 69 61 58
338 949 317 56 51 49
400 677 190 106 59 40
392 696 163 58 43 39
390 691 169 61 47 39
385 696 164 61 45 42
306 772 169 122 44 51
494 960 235 92 73 56
389 704 160 64 44 37
393 704 163 59 45 37
397 695 168 64 48 39
399 693 171 65 49 37
398 699 167 62 47 39
402 680 178 69 48 40
402 684 177 63 47 39
405 685 174 60 45 39
399 819 182 59 50 49
433 867 227 41 34 31
406 686 173 71 51 42
408 830 267 134 84 62
408 689 173 71 51 39
403 680 182 73 50 39
403 679 187 80 53 38
338 978 267 49 46 45
408 679 192 87 61 43
404 684 181 64 47 40
338 734 283 170 15 56
404 688 181 63 47 42
407 685 183 66 45 39
493 878 203 87 69 61
406 686 177 64 49 44
407 689 177 63 48 39
388 534 287 110 26 44
408 688 181 69 50 40
405 688 221 53 39 38
407 681 188 78 54 42
316 898 196 58 53 51
409 683 186 79 53 42
483 929 246 78 62 47
411 689 182 66 51 41
414 684 191 78 52 41
370 862 158 111 85 57
413 689 192 66 41 38
403 694 173 65 49 40
402 692 175 61 45 34
407 694 172 74 54 41
408 700 168 96 64 44
320 881 194 48 43 43
408 704 166 92 62 42
448 729 241 128 105 81
400 698 170 64 48 34
426 702 222 58 43 40
403 698 171 75 54 41
368 953 298 59 52 49
409 698 172 70 53 41
410 696 169 59 45 41
413 704 168 70 54 43
295 929 310 182 146 126
407 659 283 163 126 100
415 703 163 59 49 37
411 700 172 63 49 41
411 700 177 57 45 38
448 904 225 58 49 43
412 704 172 67 55 46
407 694 188 56 42 37
407 693 190 56 43 37
409 698 183 52 41 36
410 695 181 53 43 37
414 694 187 57 41 38
349 966 236 80 76 77
338 784 272 64 51 48
415 693 190 56 38 35
443 929 257 75 62 49
415 698 186 54 39 37
415 704 186 46 35 35
417 704 158 64 53 43
298 854 297 95 78 60
420 691 163 70 52 41
419 694 163 68 51 41
391 677 264 71 43 42
419 694 167 65 48 38
422 690 164 72 53 39
298 789 257 64 53 47
422 694 163 64 49 39
417 692 170 65 49 39
418 699 167 65 50 40
422 698 161 66 50 39
418 694 192 52 41 35
438 874 215 76 61 54
416 699 187 53 39 36
418 699 192 54 39 35
418 704 192 49 37 34
392 644 198 69 32 35
392 649 198 66 27 34
378 539 285 165 10 51
391 654 198 123 19 38
395 644 206 112 26 37
394 649 202 126 25 42
393 654 202 123 17 37
399 644 217 90 28 37
398 654 217 78 28 36
400 649 222 128 23 44
400 600 265 102 50 47
400 654 222 81 29 37
390 664 195 81 26 32
392 664 198 83 27 32
433 729 212 51 37 35
366 858 154 109 84 69
392 669 197 42 34 35
436 512 290 178 120 94
391 670 194 69 34 28
393 659 202 106 19 34
395 663 206 98 23 33
396 670 204 77 35 32
395 657 210 122 28 47
398 664 212 111 21 38
387 734 286 139 14 43
399 664 217 83 29 36
400 659 222 86 27 37
282 899 257 160 117 92
399 669 212 105 21 36
464 709 247 104 78 54
389 858 149 111 88 70
400 669 216 58 29 34
401 644 223 59 28 34
401 660 223 65 31 35
304 962 238 78 73 76
400 662 220 120 21 42
283 819 248 62 54 50
402 670 218 47 32 35
403 649 232 130 18 41
402 644 237 107 9 34
303 955 232 74 70 72
402 649 237 82 20 35
375 865 196 61 56 57
400 649 239 68 23 30
400 654 225 62 28 35
313 858 287 119 98 76
403 654 232 78 25 33
402 654 237 50 28 34
421 689 197 68 50 40
403 644 244 69 40 39
406 643 244 80 50 34
434 749 284 160 111 77
405 649 245 73 49 36
405 646 245 77 50 38
403 654 243 46 39 36
407 655 244 62 49 37
295 972 282 73 70 69
405 652 245 65 48 38
323 789 266 123 95 83
413 649 248 105 78 52
415 651 250 107 81 55
415 652 250 105 80 53
330 691 275 47 28 28
402 659 227 61 31 35
403 659 232 64 28 33
404 664 232 63 31 34
404 659 237 53 29 32
405 664 236 50 33 34
406 660 239 54 32 38
404 669 232 82 26 35
405 669 236 42 34 34
407 669 238 47 39 38
407 659 242 61 46 37
379 935 304 55 48 46
409 659 245 75 56 41
328 564 264 85 16 33
413 659 247 87 64 42
414 664 247 81 58 41
411 665 243 64 50 38
394 674 196 118 41 37
395 672 201 89 31 30
398 674 202 122 36 37
399 673 207 99 29 35
402 676 197 102 58 44
404 677 197 97 59 44
403 675 202 92 63 50
403 675 207 78 42 37
418 744 291 164 116 81
408 676 202 92 64 43
368 659 264 101 20 37
414 870 238 58 50 48
408 675 207 78 60 44
404 679 208 68 36 33
408 679 208 59 49 40
404 684 207 55 38 34
483 874 207 72 60 50
408 684 206 56 47 39
413 678 197 93 64 42
413 676 203 84 62 40
413 677 201 91 65 41
413 689 208 48 37 30
403 674 217 55 32 34
404 679 212 96 28 34
403 679 217 58 28 35
407 675 217 63 31 35
408 677 216 67 29 32
403 674 222 40 30 34
403 679 222 42 29 33
404 684 212 69 29 32
342 739 284 150 25 55
308 797 179 85 67 57
404 689 212 45 32 33
404 688 217 57 33 37
404 684 222 55 33 35
408 689 222 58 46 41
412 676 211 63 46 36
409 677 212 70 43 38
412 677 211 58 43 33
404 692 212 54 32 34
413 694 212 52 40 35
376 907 294 32 30 31
413 693 217 56 42 39
415 698 213 62 37 39
403 674 227 48 27 34
407 679 233 65 42 36
408 674 237 54 43 37
348 584 277 184 6 58
406 676 234 66 31 30
405 683 227 65 35 38
423 880 232 78 69 69
491 950 222 93 79 65
408 683 231 68 52 40
413 678 236 51 42 38
418 644 252 124 92 64
268 837 236 166 124 101
416 648 249 119 89 60
418 654 252 106 82 54
420 654 255 115 88 57
458 895 263 61 50 40
416 656 249 102 76 50
416 665 249 94 70 47
423 664 257 121 88 59
417 669 247 78 58 42
416 671 244 69 56 43
419 669 251 92 71 47
424 669 257 113 84 56
418 678 202 65 47 35
418 679 207 61 47 35
422 680 207 71 53 40
404 619 281 172 124 103
419 684 196 65 46 36
421 684 198 68 50 41
422 684 202 70 50 41
438 908 224 73 64 60
305 862 239 183 132 106
423 689 202 66 44 36
422 689 206 66 45 35
418 684 208 56 42 31
519 949 216 119 96 75
398 908 302 58 51 48
436 559 267 155 107 78
418 689 208 55 40 31
358 733 295 138 15 46
420 692 195 63 50 39
440 875 214 81 64 63
352 884 280 138 113 89
421 694 197 62 48 40
421 694 202 56 41 35
420 704 202 50 39 38
419 704 207 51 37 38
421 698 203 53 41 36
303 858 272 94 78 62
421 698 205 55 40 37
421 705 201 49 40 35
416 695 210 49 36 31
407 779 182 44 37 35
418 694 217 49 38 39
418 690 222 51 39 37
423 691 223 49 36 34
417 699 212 62 38 38
419 699 216 60 38 38
417 704 212 70 34 36
427 694 222 58 44 39
426 698 219 56 43 39
418 680 238 64 52 42
418 688 227 45 37 38
418 684 232 45 40 38
272 791 180 181 124 90
422 686 233 56 46 39
421 681 239 75 61 47
425 687 236 70 57 45
446 916 250 89 72 53
428 689 237 78 62 46
419 673 247 73 56 42
292 868 261 110 87 59
422 680 242 78 61 46
420 672 251 88 68 47
423 674 252 91 71 49
425 673 256 101 77 51
426 681 248 88 70 51
378 849 156 131 101 85
427 685 242 81 64 49
425 682 245 76 59 45
428 684 247 89 70 53
430 687 246 93 74 53
433 689 242 94 74 54
432 689 247 87 67 48
432 929 227 84 72 62
328 809 188 76 59 52
430 684 257 84 64 44
431 690 252 75 47 40
424 700 230 66 45 39
423 704 230 66 45 37
425 692 227 50 41 36
428 694 232 72 57 43
425 701 224 47 35 37
389 901 295 36 35 34
428 704 232 71 54 41
433 699 232 84 67 50
432 694 252 68 35 33
432 694 257 97 73 47
439 698 229 95 73 49
528 914 218 91 80 71
438 705 236 85 65 43
523 439 217 125 27 43
447 694 237 79 62 47
367 959 247 76 70 71
371 705 290 112 31 45
446 696 234 85 64 41
443 699 232 85 63 42
293 825 191 93 73 64
443 703 233 80 60 42
450 529 259 163 0 50
446 699 234 78 59 39
446 704 234 69 54 40
449 704 236 81 62 44
435 692 240 99 79 58
423 908 252 73 57 50
434 694 248 77 56 46
438 691 242 90 73 56
443 894 228 74 63 56
344 976 246 82 77 78
438 690 246 79 59 47
435 698 249 72 38 35
434 699 257 91 64 43
439 703 253 65 42 36
436 701 256 70 42 36
437 704 257 77 50 38
426 716 224 61 34 36
443 690 246 67 51 38
441 692 240 96 73 56
463 884 212 77 63 56
447 691 246 70 53 41
449 694 242 75 57 43
368 849 252 102 71 53
411 564 272 122 84 73
443 698 249 68 54 41
363 673 269 140 4 43
448 704 252 70 56 44
385 705 159 59 44 37
388 709 159 56 41 38
442 744 218 65 52 47
391 711 159 64 46 42
388 717 151 68 51 41
393 716 153 75 53 41
393 714 157 72 50 41
398 720 148 78 55 44
398 716 153 84 59 43
398 715 157 85 59 44
388 724 148 74 55 45
393 727 148 75 56 42
388 729 152 65 48 38
388 734 156 62 47 39
448 874 218 53 47 44
393 730 156 75 57 44
393 734 158 70 53 41
303 813 184 91 71 62
398 725 146 81 60 46
398 727 148 75 56 41
363 659 265 157 11 49
402 721 148 82 59 45
408 719 152 82 59 44
403 716 154 77 56 43
407 715 158 86 59 49
415 705 159 60 50 38
413 716 158 90 67 56
403 727 152 66 51 42
404 726 150 73 55 43
363 630 264 168 13 54
346 972 280 75 71 72
408 724 150 84 61 47
413 727 152 81 63 51
410 726 159 77 62 50
520 451 200 124 21 33
393 709 162 62 46 41
418 829 222 55 47 45
394 712 160 70 50 41
348 891 291 108 84 60
399 734 160 63 50 42
363 519 283 67 23 31
403 713 161 86 59 41
413 710 163 75 56 40
422 628 290 182 126 95
412 709 172 68 52 40
370 930 226 72 64 64
414 709 177 54 42 36
413 714 162 80 56 44
411 854 128 101 85 70
415 719 166 75 57 47
414 714 172 65 51 41
348 779 276 67 57 54
414 713 176 52 43 36
414 708 186 44 36 34
415 712 181 50 40 34
408 729 162 70 56 45
403 729 162 65 50 41
371 792 175 72 47 50
403 734 161 62 48 41
405 729 165 63 50 40
413 724 162 78 61 50
412 729 164 68 55 46
414 724 167 70 55 48
413 729 167 63 51 44
388 739 158 64 49 39
388 744 159 68 52 40
388 747 159 74 56 44
369 851 154 141 112 103
396 737 159 64 49 43
393 754 159 61 48 41
318 904 187 92 80 78
393 759 159 62 49 39
389 764 159 66 50 40
388 769 158 65 48 39
349 814 178 63 52 50
393 764 158 66 51 40
396 753 159 63 48 40
397 765 159 66 51 41
388 749 161 75 56 42
391 751 160 72 55 45
395 742 160 59 45 38
398 744 160 60 47 38
399 749 160 61 47 38
389 754 163 72 53 42
388 759 162 67 51 42
386 759 166 73 54 44
322 783 174 84 64 55
391 754 160 63 48 39
386 764 162 64 49 42
386 762 165 71 53 45
384 769 162 64 50 43
386 769 160 63 48 40
399 754 161 72 53 41
403 739 161 70 54 43
403 749 162 78 57 44
406 748 164 84 61 48
408 749 166 76 56 44
405 751 165 80 60 48
413 739 161 77 56 43
413 744 164 81 60 44
409 746 165 83 60 44
370 667 264 146 10 45
412 746 165 71 52 40
402 753 163 82 61 46
403 755 165 79 58 46
400 756 165 84 61 44
400 758 165 83 60 44
402 760 164 75 56 45
408 754 166 82 61 48
415 846 235 50 44 42
403 769 162 80 61 50
412 753 165 71 53 42
414 759 177 56 47 43
412 763 164 77 60 50
408 769 167 81 61 52
410 766 165 88 66 55
411 768 168 71 54 47
413 764 172 53 43 38
411 769 172 48 40 37
409 765 183 46 38 38
408 769 190 55 42 39
414 760 182 53 43 41
410 766 179 46 38 38
410 769 178 46 38 37
412 762 187 53 42 42
413 769 193 53 43 39
417 839 232 52 45 42
417 708 158 64 52 38
416 719 157 89 68 52
417 724 157 80 61 48
416 726 154 81 62 52
417 709 162 70 54 41
422 708 171 58 47 38
422 719 167 74 57 45
421 715 168 73 56 44
319 835 266 141 112 87
417 719 177 49 40 36
416 711 178 46 38 35
417 710 188 42 34 33
416 711 184 41 33 29
419 719 182 43 37 35
419 713 187 42 34 33
420 717 186 40 34 35
448 902 247 41 37 34
419 723 162 79 61 48
422 723 166 75 55 41
421 724 163 82 63 48
418 724 177 53 44 39
315 686 265 59 22 24
288 840 233 45 37 36
417 731 164 72 56 45
417 734 163 77 58 46
422 730 177 51 43 38
421 731 173 52 43 38
416 719 290 170 116 83
421 735 169 65 50 41
397 609 263 77 40 39
420 732 170 63 48 43
425 733 176 57 46 40
423 723 186 41 35 34
426 721 189 43 33 34
427 721 192 42 34 36
429 723 192 46 36 36
426 726 184 48 38 37
429 729 186 56 47 41
425 732 180 56 48 42
427 734 182 66 53 46
431 733 188 69 55 47
433 729 192 58 46 38
419 739 165 63 48 39
353 514 288 81 25 35
421 748 168 65 54 44
422 749 172 59 47 39
424 744 177 52 41 37
422 749 177 59 46 38
489 944 242 85 69 54
426 738 178 62 50 42
513 901 223 77 67 58
425 744 180 54 42 35
429 739 186 62 48 42
399 845 200 63 53 52
431 739 189 65 53 45
430 742 186 60 48 41
428 749 183 69 54 42
313 559 263 136 6 40
416 754 164 67 53 43
416 759 167 68 53 45
418 754 177 59 47 41
416 758 171 63 50 44
503 941 217 115 87 58
421 752 177 61 48 41
302 966 256 91 85 86
418 758 182 63 49 43
422 753 183 63 49 41
368 858 162 102 81 64
419 760 191 59 46 42
423 755 187 66 50 41
415 575 285 156 112 87
421 757 187 67 52 44
358 604 272 185 9 58
422 758 192 62 47 41
424 756 191 71 54 44
426 752 184 69 53 45
428 754 192 73 55 45
479 903 213 91 77 70
434 739 191 64 50 44
434 743 190 69 50 40
442 745 189 73 56 45
442 748 193 73 55 43
410 710 215 51 36 35
415 706 213 68 34 34
415 711 209 51 32 31
414 706 219 57 39 36
303 835 201 95 72 64
414 713 221 69 34 35
421 710 198 44 37 35
421 709 202 48 37 36
422 714 197 44 37 35
424 718 196 44 35 34
423 714 202 46 36 34
421 714 206 48 34 33
420 717 208 48 26 32
467 980 198 90 81 72
428 719 197 46 37 35
426 716 200 48 37 36
416 708 210 55 31 32
393 853 161 92 75 59
388 857 172 92 73 57
416 707 216 58 38 34
421 716 212 46 34 32
421 716 218 51 35 31
418 713 222 70 31 36
348 609 270 127 27 47
423 715 222 66 34 37
459 894 231 68 58 50
433 724 197 54 40 37
287 857 285 105 88 68
382 774 167 71 55 47
431 721 198 49 35 34
431 721 202 50 38 35
431 721 207 49 35 32
323 894 312 168 127 103
420 728 220 52 30 36
420 732 216 49 33 33
422 732 214 47 35 32
423 732 216 46 35 34
429 723 213 47 35 32
428 730 217 51 35 35
303 950 226 74 69 71
432 725 211 48 37 34
428 724 222 63 35 36
428 729 221 58 39 37
432 725 224 65 42 37
428 732 216 50 36 37
430 732 214 51 39 39
433 733 217 58 39 40
432 731 219 57 35 37
438 729 197 51 39 36
436 726 201 49 35 34
418 609 290 166 121 91
437 730 194 57 44 38
439 733 203 58 50 46
442 735 197 62 49 42
437 733 210 51 40 36
434 732 220 60 39 39
319 875 227 78 62 50
424 708 230 68 45 38
308 769 264 66 56 52
332 824 196 62 53 52
420 712 225 75 33 35
426 710 229 64 44 39
429 718 226 61 38 37
383 855 183 65 54 50
431 715 229 64 44 39
432 719 227 64 41 38
435 706 235 82 64 46
358 862 144 103 79 58
434 709 236 77 61 47
443 709 237 77 58 41
443 714 238 74 55 39
438 709 257 83 56 40
443 709 254 68 54 44
301 929 210 81 70 69
484 939 237 72 58 45
441 710 255 60 42 34
444 712 254 68 53 43
436 803 228 80 62 54
447 715 255 67 52 41
437 725 228 66 47 40
435 555 259 75 31 38
439 724 232 62 47 39
438 728 226 62 44 38
384 774 163 66 52 44
440 722 235 59 43 39
441 725 234 59 45 39
278 819 247 53 45 41
448 724 238 112 84 59
441 731 224 59 43 39
444 733 226 61 48 40
447 731 233 102 81 58
448 734 227 92 72 52
418 859 157 97 78 58
447 736 224 69 53 41
368 719 293 60 31 35
445 732 230 74 59 44
448 732 232 109 87 65
445 732 238 116 94 72
448 732 237 118 95 75
445 730 240 137 117 97
445 734 241 130 110 89
423 759 197 70 55 47
417 763 193 56 46 41
418 769 196 57 46 40
422 764 198 65 52 47
425 761 201 64 51 44
423 769 202 64 50 44
426 758 198 68 52 43
411 798 194 58 48 42
433 753 197 70 53 42
433 754 202 61 48 41
430 756 200 55 43 40
439 916 241 91 70 52
493 949 232 80 63 48
426 763 203 53 43 39
283 799 180 67 55 54
428 764 207 53 42 38
333 599 272 69 28 34
425 768 205 62 49 40
428 769 207 56 43 39
433 769 211 48 38 35
358 847 175 51 46 47
438 739 207 55 42 39
440 740 204 66 51 43
412 619 288 171 126 98
440 744 204 66 51 43
435 751 202 65 50 43
435 751 206 67 52 45
438 749 202 65 51 42
443 739 197 75 58 47
443 741 194 81 62 50
419 844 247 52 45 42
448 739 197 78 60 48
447 741 194 81 62 51
443 739 202 65 50 42
383 584 270 63 26 32
443 744 202 66 50 41
448 740 201 65 50 42
447 743 201 68 52 42
343 804 268 196 142 122
443 748 201 68 52 42
435 736 209 50 38 35
400 719 285 155 110 88
435 737 216 64 51 51
438 739 217 69 50 43
438 744 212 58 44 40
419 775 201 50 41 38
439 743 216 67 51 45
403 674 283 152 115 89
439 749 212 59 46 41
440 738 220 71 53 46
448 739 222 72 56 44
441 749 214 67 53 48
464 984 197 92 82 73
445 750 221 69 54 44
436 752 193 72 55 44
435 756 210 58 46 40
481 921 263 78 63 49
437 754 212 62 50 45
388 793 169 91 64 51
439 755 216 62 49 42
398 589 263 59 20 28
436 759 213 54 45 40
281 950 278 115 92 83
439 759 222 69 53 45
438 769 222 65 50 43
441 752 214 67 55 46
442 753 218 61 48 41
443 754 222 71 55 46
441 757 223 74 57 49
