ply
format ascii 1.0
comment Created by Open3D
element vertex 2210
property double x
property double y
property double z
property uchar red
property uchar green
property uchar blue
end_header
502 531 231 126 94 66
505 536 230 144 110 75
500 531 233 117 84 54
501 541 231 130 101 69
510 536 231 159 117 79
497 808 252 90 69 57
509 541 231 150 113 74
512 537 232 152 111 74
341 916 209 62 57 57
487 758 217 120 86 59
511 541 232 142 105 68
305 906 279 92 71 67
501 536 255 75 33 37
416 877 194 69 60 61
505 531 255 81 52 47
505 536 254 116 74 65
505 541 252 144 99 84
510 531 255 142 105 89
324 910 310 110 92 80
510 543 251 162 115 94
483 549 237 86 25 37
273 793 252 176 118 86
487 561 231 109 81 52
402 953 254 66 58 58
485 556 235 87 53 40
392 850 261 144 116 95
488 545 237 107 27 26
425 830 248 56 44 41
429 819 159 84 69 59
345 898 229 85 72 59
490 551 233 107 77 49
495 546 233 116 87 56
315 840 259 52 45 45
492 553 231 114 87 56
380 920 194 73 66 66
490 557 230 113 86 55
490 561 229 116 89 59
386 770 191 66 53 47
309 812 228 80 61 54
489 555 233 107 78 48
496 551 254 114 38 45
330 701 310 64 26 34
494 556 254 106 45 47
471 811 248 61 47 36
486 566 231 111 83 54
420 844 241 26 25 25
484 565 232 106 76 47
482 568 231 107 76 48
485 576 228 118 91 60
489 566 228 117 90 60
495 566 226 132 103 68
495 565 227 130 102 68
505 726 215 112 82 59
490 571 225 124 97 66
488 571 228 119 93 62
489 575 227 122 96 65
355 556 312 75 22 35
451 616 234 120 37 47
491 576 226 127 99 67
487 563 255 123 24 48
430 914 313 75 63 53
436 696 279 134 4 42
486 568 251 73 36 37
485 566 254 84 30 38
410 896 304 38 36 35
485 571 250 90 42 42
273 551 272 111 11 32
481 572 254 149 30 55
485 576 249 99 60 53
330 546 323 83 24 37
490 567 251 96 65 55
489 565 252 89 40 43
496 561 251 122 81 66
495 566 250 129 90 73
495 571 250 140 99 79
514 435 226 142 20 37
505 799 251 94 74 63
497 547 231 123 95 62
500 551 228 134 103 67
505 546 229 145 110 73
505 551 229 143 109 69
499 544 232 123 96 64
277 571 261 110 14 32
500 556 226 138 107 70
496 747 213 130 84 66
497 558 226 133 104 70
506 556 228 142 108 69
272 806 288 183 128 101
503 560 226 138 105 65
509 546 231 142 108 69
509 551 231 140 105 66
480 871 268 99 76 60
351 928 317 59 48 43
512 546 232 138 104 62
453 723 263 144 10 44
511 551 233 142 105 68
376 757 296 86 67 59
505 561 229 140 107 68
495 791 254 76 64 52
509 556 230 140 105 66
511 556 233 143 105 68
511 561 234 145 106 70
388 919 316 40 37 37
501 551 251 138 91 75
380 851 199 55 50 52
497 547 256 130 30 48
502 547 251 138 89 75
505 546 251 154 111 88
500 561 249 148 105 82
426 833 246 49 39 36
505 556 250 163 117 91
505 561 248 175 124 99
510 546 251 168 119 94
499 566 226 137 106 68
505 566 229 141 107 67
500 571 227 139 107 68
499 573 226 137 105 66
499 576 225 138 106 66
502 576 227 139 106 66
350 951 224 81 75 78
472 730 241 171 120 91
504 576 229 137 103 65
472 754 241 161 115 85
485 616 246 185 131 104
512 562 239 172 119 86
420 796 159 66 51 43
460 746 129 86 66 47
511 566 239 178 122 91
507 572 232 143 105 70
508 576 239 185 126 96
500 566 249 160 115 90
431 817 159 88 71 65
378 802 188 67 55 50
505 566 248 182 128 101
290 801 238 170 115 82
460 708 247 139 90 72
505 576 244 187 129 102
503 574 247 182 130 102
500 571 249 168 119 94
507 567 246 189 132 103
509 566 244 191 131 104
504 766 234 97 72 53
508 564 247 190 132 107
450 586 215 147 12 38
449 591 215 44 32 37
395 886 284 37 33 32
452 587 218 111 21 37
456 586 223 109 22 34
453 591 220 99 34 43
456 591 224 130 23 39
434 630 278 188 18 62
458 579 221 145 8 35
457 582 222 144 9 35
350 967 305 69 64 63
458 586 225 135 18 37
448 594 216 42 34 42
449 601 220 108 30 39
311 839 263 49 43 43
433 889 236 70 59 59
454 596 224 61 33 36
408 533 292 108 43 49
450 606 224 105 30 39
356 882 230 64 56 51
475 591 224 116 87 56
480 590 222 120 92 61
470 606 220 121 92 59
468 604 222 117 88 59
476 596 221 120 92 60
471 597 225 114 84 55
475 601 219 124 95 60
489 794 230 85 64 51
477 593 221 119 91 61
480 593 221 122 94 61
480 601 219 126 97 62
463 747 247 157 108 82
475 606 218 126 96 61
480 606 218 127 97 62
489 836 264 78 60 52
474 850 260 81 63 52
459 591 229 124 17 33
463 584 231 110 21 37
465 586 234 93 25 35
461 591 233 127 20 37
357 901 311 155 113 89
456 596 229 64 29 36
389 779 287 82 64 56
279 576 323 171 120 93
453 605 230 125 25 42
312 808 291 174 134 107
435 801 155 73 57 47
456 601 233 83 24 34
455 606 234 134 22 41
458 594 230 122 19 38
460 596 234 106 23 37
460 601 235 95 26 36
313 588 306 136 25 48
465 596 234 87 30 37
345 946 223 82 76 79
380 576 306 159 0 49
274 626 282 131 98 60
463 600 233 91 37 36
465 601 229 99 64 43
462 607 230 95 54 38
456 607 237 110 14 34
470 581 235 62 34 35
470 579 237 36 29 35
468 590 233 93 46 35
476 577 231 103 69 42
475 581 230 106 71 44
395 811 174 56 48 46
472 583 231 101 64 40
305 936 264 114 91 79
473 580 233 88 50 36
473 590 227 112 80 51
435 756 284 87 37 42
479 581 253 47 30 31
473 590 254 46 27 31
450 636 224 86 69 50
472 592 254 51 27 36
478 584 252 58 30 29
390 941 318 71 60 54
410 566 301 104 22 39
466 597 230 102 59 42
469 595 228 109 73 48
410 646 293 45 30 35
471 596 250 78 27 36
470 601 249 74 40 41
468 600 254 168 24 56
466 606 249 118 24 40
467 608 246 87 44 40
469 604 247 82 52 45
499 596 243 181 127 100
467 603 250 119 18 40
465 606 254 188 16 60
480 596 247 134 94 76
473 606 246 129 89 75
268 573 326 177 120 98
480 606 247 164 116 94
464 611 223 112 84 57
461 616 224 103 77 51
463 615 222 112 86 58
457 622 225 89 66 43
465 621 219 116 89 58
454 630 223 93 74 52
555 476 234 127 101 75
437 871 217 78 64 63
449 641 224 86 68 49
451 641 220 98 79 56
455 636 219 109 86 59
452 631 225 79 63 44
453 634 222 97 76 54
452 637 221 101 79 57
473 714 157 68 53 44
457 627 221 108 83 56
335 791 293 70 59 55
458 624 222 104 81 54
460 631 219 116 90 61
465 630 217 112 87 59
395 781 184 57 47 45
460 641 215 98 78 54
461 637 216 110 86 59
465 641 214 106 84 58
458 639 217 103 81 55
465 633 216 109 85 58
463 634 217 113 88 59
466 612 221 118 90 59
455 681 244 104 69 56
470 611 218 122 93 59
382 973 252 90 86 87
470 616 218 121 93 60
386 881 279 125 99 80
355 806 285 93 72 65
400 681 202 42 33 36
470 621 217 117 91 59
283 588 272 165 14 43
475 611 217 127 97 62
290 631 275 105 78 51
475 616 217 122 94 60
453 809 141 116 88 63
470 626 217 113 88 58
470 632 216 112 89 61
470 636 215 113 88 60
370 771 295 81 64 56
475 626 217 118 91 60
476 630 217 120 92 60
475 632 216 121 94 62
480 626 218 121 92 59
398 856 182 55 48 48
480 631 218 123 93 60
478 634 216 127 97 62
436 686 269 98 21 37
480 636 218 120 90 58
291 650 272 113 74 41
477 637 217 127 97 65
476 641 217 128 96 64
480 641 218 112 84 54
335 886 244 105 86 65
451 611 229 140 21 39
395 806 274 188 134 111
449 616 230 103 29 38
452 612 233 143 27 42
310 967 284 80 74 72
456 616 235 75 47 49
465 681 245 155 112 86
448 620 231 90 29 39
388 651 302 38 26 30
451 621 239 65 30 32
466 746 245 166 116 89
460 611 229 95 56 41
459 616 229 94 59 40
437 893 248 65 54 54
458 612 238 72 44 39
290 771 299 173 131 99
458 615 234 81 52 45
457 618 230 88 51 40
459 623 240 72 40 33
456 621 249 89 27 39
455 621 254 183 23 61
452 623 256 192 15 59
458 613 243 94 25 34
459 616 245 80 31 34
446 851 249 64 56 49
264 751 264 159 109 81
462 612 249 104 30 40
465 616 245 104 64 54
457 618 243 78 31 34
441 692 181 67 55 43
458 619 249 65 29 34
465 621 243 119 80 68
457 618 255 86 26 38
451 631 229 72 52 36
454 626 229 77 52 36
428 910 246 69 57 57
452 628 226 76 57 42
453 629 231 72 48 36
310 591 305 95 25 40
450 626 239 81 31 37
489 908 303 95 73 51
338 973 249 103 98 99
449 630 239 75 37 42
454 626 234 69 45 41
320 916 309 109 85 67
456 626 237 69 41 36
450 636 234 72 48 40
452 636 238 76 31 29
448 641 235 80 49 41
455 636 240 99 50 43
459 630 240 104 64 52
449 630 244 110 38 48
449 630 249 174 18 56
559 486 240 128 95 71
453 624 244 60 35 36
400 681 300 42 28 31
450 626 254 190 13 59
448 630 253 188 10 58
439 913 279 76 64 57
453 624 252 185 18 60
281 741 297 176 124 99
456 641 242 132 86 75
460 631 243 125 84 70
461 626 242 113 76 63
465 626 244 139 98 81
465 631 244 153 109 92
458 634 241 115 69 60
271 736 288 167 113 88
460 641 244 151 109 91
465 636 245 163 117 97
395 951 239 82 73 73
331 949 226 75 69 71
466 611 246 99 52 47
454 829 196 80 62 56
495 735 134 98 73 52
470 611 245 129 85 73
470 616 245 142 97 82
480 610 247 171 120 99
351 807 199 77 61 53
327 810 216 80 63 55
480 612 246 177 125 102
480 616 246 180 128 104
470 626 246 165 119 99
470 631 246 174 125 103
470 641 244 185 134 111
475 626 245 184 132 108
388 910 191 74 68 66
490 741 129 87 71 57
475 631 245 189 136 111
480 631 245 194 139 113
475 641 244 193 140 116
480 636 244 196 141 113
435 816 154 121 101 88
485 582 225 129 98 62
485 585 222 125 97 64
408 929 288 63 54 52
485 587 221 125 97 64
371 785 196 75 59 51
483 590 222 123 96 65
495 581 224 136 105 67
490 585 222 132 102 66
490 587 221 132 102 65
490 531 274 128 5 39
490 591 220 134 102 66
500 801 249 97 75 60
493 588 221 136 104 66
496 591 222 132 101 64
485 596 220 128 98 63
497 803 247 87 69 58
490 601 220 131 100 64
496 596 222 127 97 62
493 601 221 125 96 61
380 966 234 83 77 77
496 601 223 124 96 63
480 846 278 61 50 40
490 606 220 124 95 61
360 531 308 86 28 37
496 606 223 123 95 61
499 586 225 133 100 62
485 580 227 124 96 62
488 579 227 123 96 63
485 581 249 107 78 65
450 866 234 63 53 55
485 591 248 142 99 80
485 586 248 124 90 73
323 597 311 41 27 31
490 581 248 138 98 77
490 591 247 165 118 93
384 730 302 100 27 44
494 591 247 176 123 98
496 591 246 178 125 99
421 922 254 82 70 65
485 601 247 168 120 95
487 601 246 173 124 98
484 606 247 175 123 99
428 842 160 112 88 67
300 535 332 183 12 56
489 595 247 170 122 97
384 884 177 100 78 60
386 762 291 80 62 55
470 571 279 77 32 38
491 597 246 175 124 98
495 596 245 178 125 97
487 818 243 94 73 63
495 601 245 180 128 99
490 606 246 180 127 99
495 606 244 182 129 100
263 626 304 167 119 90
502 586 227 133 100 60
502 591 227 133 99 62
506 581 234 163 117 80
506 581 239 185 125 96
507 578 240 188 128 99
505 586 234 169 120 81
530 517 260 212 152 135
504 591 234 170 119 85
501 581 246 183 128 101
504 581 243 186 126 101
497 587 246 181 128 100
500 586 245 184 128 101
500 591 244 183 128 101
465 861 288 58 47 39
504 585 242 188 129 102
503 589 242 186 128 99
502 592 241 186 129 101
499 601 225 129 98 63
440 856 209 74 63 60
502 596 228 142 103 68
503 595 230 153 110 75
350 691 310 143 13 45
503 596 234 172 121 86
502 598 234 174 123 88
494 791 234 91 69 56
435 666 264 94 25 40
502 601 234 174 121 87
481 846 263 84 66 55
498 606 225 133 99 65
498 606 242 181 128 98
485 611 217 127 97 63
484 612 216 126 96 62
485 621 219 119 91 58
490 611 219 119 91 59
490 616 219 117 90 57
494 611 221 120 93 60
478 711 146 72 56 39
493 616 221 123 95 60
496 621 224 136 100 65
485 626 219 118 90 56
485 636 219 111 85 52
493 624 221 126 96 60
350 966 234 90 87 91
492 628 222 126 97 65
523 530 241 188 129 97
492 631 222 123 92 60
430 841 238 30 27 27
490 636 220 117 90 57
492 636 222 121 91 55
427 714 181 59 47 39
492 642 223 131 97 62
448 916 261 89 72 62
430 531 290 60 28 32
485 611 246 181 127 103
485 609 247 179 128 102
485 621 246 188 134 106
488 608 247 181 128 103
488 609 247 182 129 103
392 813 271 183 129 105
470 821 214 185 123 97
490 616 245 184 130 101
494 621 243 182 131 100
380 696 307 46 27 31
494 631 239 182 128 98
494 641 229 174 122 90
443 902 255 70 56 52
493 760 221 98 71 57
445 676 228 67 56 59
491 636 240 189 135 105
495 636 234 180 125 92
494 636 238 188 133 102
496 631 234 173 119 87
365 941 325 65 60 59
431 841 184 79 62 57
494 641 234 190 133 101
493 640 237 195 138 104
485 626 245 190 135 107
519 536 239 159 111 77
485 636 243 194 139 109
485 641 242 195 141 111
498 815 264 79 61 46
490 626 243 186 133 102
489 631 243 188 133 103
290 552 321 149 16 48
489 635 242 191 136 106
488 639 242 192 137 105
498 611 225 138 102 67
499 611 239 181 125 94
398 939 313 73 61 56
498 616 238 181 125 93
498 619 226 144 105 65
498 621 229 165 117 82
497 622 228 157 111 76
498 621 234 174 120 88
497 616 241 183 129 99
394 710 307 36 31 30
498 620 238 178 125 91
497 612 241 182 131 101
390 896 174 75 62 57
497 626 229 163 114 80
460 741 129 93 68 46
461 742 125 95 67 49
464 742 124 103 72 47
465 742 129 101 75 53
461 745 125 87 66 48
465 745 129 94 71 53
479 741 124 98 74 56
481 745 125 98 75 55
479 746 128 97 74 55
480 751 129 100 71 55
490 736 124 105 75 57
490 736 129 105 75 56
493 736 126 100 75 57
494 736 129 105 78 61
482 738 120 111 79 58
473 731 154 70 55 42
481 741 121 98 74 58
394 931 323 64 56 51
306 891 294 164 121 101
485 741 120 100 73 56
482 738 124 109 75 48
384 911 184 77 67 65
485 736 124 114 80 56
481 744 121 98 76 58
364 805 201 78 60 53
489 560 259 49 27 33
484 744 121 100 78 59
431 772 276 89 69 63
484 745 124 95 73 55
485 746 129 96 75 55
481 750 126 96 72 55
484 749 126 102 74 51
409 945 259 64 59 59
488 740 121 107 78 57
489 741 124 89 71 57
500 737 130 103 77 58
401 827 260 140 104 84
444 820 159 98 77 61
500 739 129 104 78 59
426 701 174 75 61 54
429 701 175 70 54 46
428 698 175 68 52 44
430 693 181 63 53 45
428 694 183 74 61 58
427 693 185 66 53 47
384 851 193 57 50 50
427 696 187 65 52 45
430 696 189 69 58 50
427 700 183 70 59 51
429 702 184 67 55 46
429 701 189 65 54 46
535 491 264 61 31 33
452 843 249 57 45 37
325 566 325 109 31 46
436 703 176 64 52 40
325 881 250 135 107 77
415 696 299 68 27 33
445 701 174 65 52 39
435 692 184 61 47 39
435 696 180 62 50 41
500 806 272 71 54 44
266 776 259 178 120 93
440 690 184 64 53 44
440 696 180 65 54 42
404 920 226 72 63 63
438 694 182 63 52 41
435 692 187 62 48 39
435 696 190 67 53 47
476 862 280 73 58 48
440 694 190 67 55 47
536 454 256 87 28 30
435 701 178 62 49 38
445 692 180 73 59 45
445 695 178 70 56 42
446 688 185 75 61 46
482 846 275 69 55 43
294 804 297 186 139 115
445 691 188 71 59 47
445 694 191 70 58 46
400 646 206 131 10 31
401 647 207 124 11 29
553 467 258 61 26 31
380 912 185 83 71 69
395 651 205 86 25 31
395 656 205 107 20 31
315 839 263 47 41 41
399 651 206 103 19 28
400 656 205 87 28 30
390 661 205 111 17 26
390 671 203 73 29 31
395 661 205 105 19 30
400 661 205 95 27 33
395 666 204 90 27 31
478 790 200 145 95 70
400 671 203 74 31 34
456 602 276 72 29 37
388 740 192 74 33 34
403 645 206 136 12 37
405 646 207 109 18 33
402 654 207 99 28 31
416 705 301 143 13 45
405 656 208 101 21 28
494 912 308 98 81 64
325 947 228 76 71 71
410 646 209 94 23 34
410 656 210 99 21 29
413 649 211 119 11 33
415 651 213 107 20 32
404 661 206 52 30 33
410 661 209 77 29 32
410 666 208 59 34 35
268 538 298 128 22 43
410 671 207 101 24 30
413 657 211 93 28 33
445 871 295 49 43 39
414 662 211 79 28 29
410 536 292 119 24 43
416 661 213 90 24 29
415 666 210 70 31 30
415 671 209 88 27 28
390 680 202 56 37 37
267 731 274 146 101 70
390 682 201 48 35 38
390 686 200 41 36 38
395 676 202 49 35 36
395 679 202 79 35 39
489 656 229 194 137 106
400 676 202 60 34 36
395 686 200 47 37 38
390 696 198 48 34 34
446 861 240 63 55 57
389 703 196 95 26 35
445 916 289 81 68 57
395 691 199 51 36 36
350 891 314 156 118 93
400 691 200 54 36 37
355 516 308 74 24 35
261 601 309 163 118 89
400 696 199 49 35 36
396 816 175 50 44 42
395 701 197 109 21 27
445 832 239 129 97 83
400 701 197 102 22 29
460 726 247 144 93 74
406 685 202 48 36 36
409 676 206 97 18 29
435 881 297 45 40 38
410 681 204 79 25 31
263 538 336 173 119 99
415 676 208 92 24 28
482 811 262 49 40 31
414 682 205 89 28 30
410 686 203 43 36 38
415 686 205 48 33 36
405 701 198 105 18 25
410 696 201 97 19 28
412 695 202 98 24 32
415 691 204 75 27 32
410 701 199 101 17 26
344 924 194 84 74 71
415 701 200 79 26 30
414 698 201 96 20 30
423 646 216 53 32 34
401 901 204 68 60 60
425 646 218 58 32 34
478 565 277 82 27 35
420 651 215 51 30 33
423 650 216 38 33 37
425 651 219 68 30 34
422 655 217 54 35 38
444 896 264 76 62 55
425 656 218 71 30 31
429 646 221 101 21 31
300 815 293 184 135 108
431 646 223 59 33 34
428 651 221 88 26 29
428 656 220 56 32 34
423 658 216 47 31 34
338 856 254 173 124 95
423 661 216 54 31 34
396 962 254 76 70 71
425 661 218 84 31 32
420 666 214 84 27 28
418 668 211 84 28 25
444 560 294 186 9 59
419 672 211 85 30 27
308 941 254 62 58 60
421 671 213 81 31 29
425 671 215 45 36 37
429 661 221 66 35 32
431 661 223 46 37 36
430 671 219 41 35 39
445 656 224 77 62 45
434 666 225 49 33 35
307 950 256 70 67 69
435 671 224 60 35 35
426 847 177 87 68 58
280 656 274 146 102 73
446 661 224 75 63 51
329 973 268 89 85 87
257 524 342 188 127 109
447 662 221 80 64 46
447 671 215 79 65 50
446 671 219 71 58 47
447 668 216 81 66 50
445 671 224 69 61 55
434 646 225 57 34 33
440 646 230 107 30 31
270 666 289 142 101 69
436 651 228 92 28 31
434 656 225 62 35 34
437 656 227 58 33 36
463 829 248 65 51 39
440 651 229 89 42 39
440 656 229 57 46 45
447 642 226 80 61 39
442 646 232 113 55 42
444 656 229 81 72 65
264 626 294 159 113 79
442 650 232 96 57 46
444 651 234 87 62 54
444 656 234 74 64 61
442 642 251 172 24 54
441 646 254 157 20 51
389 945 314 68 58 53
443 651 248 84 38 44
444 656 244 45 29 29
305 896 289 184 133 117
470 730 169 61 52 44
443 656 248 44 36 37
442 651 250 77 37 43
425 915 294 60 51 43
440 651 254 143 26 50
442 656 250 55 39 42
371 978 248 85 79 80
440 656 254 58 26 34
375 896 188 77 66 63
434 661 225 45 34 36
436 665 227 47 37 37
440 665 228 52 45 47
440 667 226 52 46 50
259 531 335 173 117 95
440 671 226 49 37 41
439 672 227 49 36 43
444 661 229 80 75 72
444 665 229 85 81 79
444 664 232 62 58 57
478 772 132 98 75 65
444 661 244 51 31 31
442 661 250 49 38 41
440 661 254 82 30 39
472 714 188 75 61 47
445 666 244 63 30 32
335 854 282 89 71 50
442 670 251 44 31 35
300 576 309 128 18 42
441 671 254 51 28 31
500 776 234 99 77 58
420 681 209 75 29 29
330 591 319 88 33 41
418 683 206 63 24 23
419 686 206 41 35 36
472 732 156 62 46 36
420 676 210 85 28 27
422 675 212 69 30 30
476 847 259 83 64 54
423 678 211 80 32 31
426 681 213 52 34 35
482 802 257 52 42 34
430 776 149 72 56 48
429 681 215 53 36 41
428 673 216 37 36 40
431 676 219 39 33 39
431 681 218 50 32 45
427 684 212 45 37 38
432 684 218 60 33 49
420 691 205 80 29 32
397 938 316 71 60 53
420 696 202 83 27 27
425 691 204 49 39 41
433 656 267 97 29 43
421 697 201 75 30 31
425 696 199 60 44 41
424 694 202 62 37 37
325 926 315 184 144 123
424 701 198 65 41 38
420 701 201 70 32 32
430 692 200 57 50 49
430 696 198 64 56 50
426 688 206 47 38 41
525 485 265 37 30 31
400 875 265 32 30 30
400 716 305 64 32 37
426 701 195 66 51 45
483 815 236 88 68 58
281 736 298 176 122 96
429 699 198 66 55 49
500 775 245 87 68 53
435 686 209 48 39 49
360 826 213 55 47 47
435 687 204 55 47 50
444 684 207 76 65 61
447 683 206 86 71 56
434 677 221 43 36 40
434 681 220 47 36 43
485 520 284 81 21 34
436 681 223 48 35 46
437 684 222 48 37 45
446 677 210 82 68 53
488 560 264 42 30 34
446 676 214 78 65 52
491 910 303 97 75 53
298 699 257 78 52 38
444 680 214 68 59 52
447 676 217 75 62 49
441 683 210 63 54 52
443 684 221 48 39 49
444 684 224 50 41 47
266 626 289 160 114 81
440 691 200 71 60 53
393 949 231 79 70 71
434 689 202 60 53 50
435 699 193 69 55 50
412 836 165 73 58 51
445 691 200 79 66 54
480 836 276 68 52 41
340 977 279 68 63 63
445 697 194 76 63 52
440 676 228 47 37 44
440 681 228 45 40 45
446 674 226 69 58 54
473 740 143 120 92 78
445 681 228 52 47 52
375 856 282 163 131 103
441 684 227 46 43 46
444 684 227 46 45 49
446 676 244 42 29 27
442 676 251 116 25 43
441 676 254 105 26 41
443 674 252 55 25 31
446 686 244 57 29 31
442 686 255 77 30 38
443 686 252 81 32 40
330 955 318 58 53 53
445 691 249 111 27 42
447 691 245 95 23 34
522 848 261 110 92 80
447 695 246 120 23 40
445 696 249 149 16 45
485 741 169 65 51 42
443 691 253 121 25 44
447 699 246 125 15 39
446 701 249 150 11 46
414 600 302 130 26 48
445 701 254 151 4 46
395 736 191 95 26 33
401 732 191 55 34 35
400 736 191 71 29 33
405 732 191 66 32 34
405 736 190 53 36 37
490 761 219 116 84 62
415 737 180 55 44 36
414 736 184 57 42 36
477 731 236 156 106 77
387 743 191 69 25 24
390 751 190 83 25 33
492 782 227 86 66 51
390 761 189 110 28 37
302 834 250 68 58 60
390 766 189 65 52 46
395 756 188 115 15 29
395 761 187 110 29 36
401 756 184 71 33 31
495 531 274 150 13 48
394 766 187 62 50 46
306 776 221 71 57 51
396 766 186 58 47 43
406 751 175 56 45 37
411 742 175 54 43 39
410 751 175 53 41 37
383 764 292 83 66 57
482 741 199 109 81 52
405 741 189 64 35 35
405 751 179 51 41 37
407 748 176 55 46 37
410 755 292 82 66 61
404 751 184 48 37 34
402 752 186 59 34 32
285 636 275 128 96 62
403 749 187 46 40 37
411 741 179 51 42 39
412 738 185 55 42 40
409 745 178 52 43 38
274 711 295 170 116 91
408 744 184 50 40 37
412 749 177 52 39 35
268 801 274 182 127 98
415 749 177 49 36 36
294 656 302 177 134 109
415 752 176 47 36 37
474 691 210 112 86 55
406 756 175 54 43 36
405 761 175 54 44 38
405 766 174 55 44 40
410 756 174 50 39 36
493 748 177 67 51 39
410 761 173 49 40 38
415 756 175 45 36 37
342 923 200 80 71 69
410 766 170 47 40 40
412 763 171 45 40 42
295 811 295 188 140 114
365 801 200 77 61 53
416 762 170 44 40 39
414 764 172 45 41 41
403 754 182 55 39 34
403 761 179 55 42 37
402 762 180 54 40 37
388 846 268 139 112 91
403 764 177 57 45 39
445 732 161 53 45 40
427 706 175 74 61 53
445 826 244 131 98 80
430 706 175 72 58 48
266 741 259 142 102 73
430 711 174 70 57 45
424 720 188 54 46 44
427 706 179 65 55 47
427 710 180 65 54 47
409 769 287 85 64 57
427 712 184 63 53 46
430 706 184 66 56 48
428 711 184 62 53 46
427 708 191 60 51 48
426 712 190 59 48 44
425 721 184 58 47 40
435 912 284 77 65 58
260 566 319 168 119 95
429 716 179 61 49 41
429 721 179 61 48 41
442 757 275 142 37 57
428 718 182 58 47 39
553 483 231 134 101 73
428 720 182 58 46 37
427 736 176 65 49 40
429 731 173 63 49 40
420 726 184 58 46 40
422 723 186 58 48 44
403 934 307 77 62 55
481 801 219 151 102 74
419 730 183 57 46 37
420 732 181 58 46 38
420 736 180 54 43 38
435 706 174 66 52 41
436 711 170 63 50 41
437 707 171 64 49 39
440 706 170 64 51 40
439 704 173 67 53 42
486 761 190 82 61 48
440 711 168 63 50 40
440 716 166 63 50 39
438 716 167 60 47 38
435 721 169 58 46 38
320 881 305 142 78 79
439 721 167 61 48 40
433 715 172 60 48 42
319 632 296 107 24 42
445 711 168 64 50 39
446 705 173 65 51 40
444 713 166 66 51 41
444 716 166 64 50 41
447 716 167 66 53 41
308 563 321 176 16 58
447 721 168 61 49 41
432 722 171 55 45 39
438 731 167 51 41 39
440 731 165 51 43 41
462 793 164 84 64 53
435 731 169 58 46 40
325 651 295 116 21 43
437 737 165 49 42 40
434 736 169 52 44 41
355 960 314 72 68 68
432 731 171 61 48 39
430 831 144 144 109 84
441 726 166 55 45 41
445 730 163 55 46 42
441 737 160 52 44 41
442 733 161 53 44 41
288 607 264 136 26 46
421 766 154 56 48 43
422 763 155 47 41 39
446 851 234 66 58 56
275 636 316 179 130 104
424 760 159 45 40 40
426 761 149 58 48 43
476 827 238 91 67 57
430 757 149 51 43 40
431 817 144 125 92 68
429 761 148 57 45 40
431 757 145 58 47 41
427 758 155 47 42 41
430 894 240 67 57 55
427 758 159 47 42 40
432 752 160 48 41 39
426 766 150 53 44 41
446 742 144 66 53 47
447 743 140 68 54 47
406 931 294 64 55 52
440 751 144 60 49 42
445 751 142 75 58 49
439 741 158 49 43 39
439 750 149 54 46 42
436 752 149 54 45 42
262 518 301 54 34 29
436 746 159 53 45 41
431 901 259 68 58 56
441 746 154 56 47 43
439 750 153 55 46 43
445 740 154 55 46 42
442 738 156 51 45 43
442 741 155 51 44 41
442 748 145 55 46 39
443 745 149 63 54 48
335 976 269 76 71 71
443 745 152 63 54 46
435 761 145 62 49 45
440 761 144 65 51 45
293 704 257 100 70 46
445 756 144 68 52 46
434 754 149 52 44 41
437 753 146 57 46 42
434 763 147 57 47 42
435 766 147 63 50 44
437 765 146 60 48 44
424 751 172 52 43 38
426 742 176 61 46 39
431 747 165 50 43 42
430 751 164 52 44 42
428 751 168 49 42 40
485 861 277 77 60 47
426 751 170 51 43 40
429 745 173 54 43 41
420 740 178 49 39 36
420 742 176 47 39 37
424 740 178 59 44 39
425 516 285 79 30 36
422 738 182 47 39 38
423 738 182 47 40 39
422 739 182 52 43 41
423 739 182 52 40 36
420 756 174 45 38 41
345 671 305 146 20 48
420 761 169 46 40 40
420 759 172 45 39 41
424 760 168 48 42 41
420 762 164 44 39 40
418 765 163 44 39 39
426 887 219 75 62 60
385 906 188 82 71 70
385 721 305 90 27 41
418 764 167 45 42 40
430 896 244 69 59 58
426 758 164 49 42 41
429 756 164 51 45 43
442 833 197 70 56 50
428 755 167 52 45 43
433 740 168 46 41 40
302 921 284 130 114 105
437 738 161 53 45 43
434 745 163 52 44 43
433 744 167 46 41 39
469 806 194 84 63 56
390 706 196 97 23 29
499 526 273 61 26 32
390 711 195 103 19 29
395 706 196 108 20 28
395 704 197 111 20 26
475 811 214 166 112 83
448 721 278 60 29 37
425 681 284 139 5 42
395 711 195 99 23 29
356 901 199 61 56 57
385 556 302 153 5 47
282 562 321 155 98 86
399 707 196 99 23 28
400 705 197 98 23 28
520 472 270 188 11 60
395 716 195 111 19 27
325 741 310 177 18 57
263 532 303 49 30 32
400 721 194 74 29 33
390 726 193 82 28 33
435 916 274 80 66 60
392 876 266 110 86 70
329 968 248 88 84 86
390 731 193 87 27 32
348 821 217 80 63 55
390 736 192 61 31 32
350 581 316 73 24 35
395 731 192 72 31 33
394 735 192 64 33 35
400 730 192 72 27 31
364 924 316 34 32 33
405 706 197 98 21 29
406 709 197 90 27 28
405 721 194 73 29 31
410 706 198 96 20 26
400 816 173 51 44 42
409 712 196 94 21 29
410 716 195 86 25 25
482 801 224 144 99 74
465 741 134 102 78 56
410 721 194 83 27 28
415 717 196 62 34 32
307 957 292 51 48 49
405 726 193 82 27 32
415 801 159 58 47 41
405 729 192 89 26 30
482 758 208 136 97 67
410 730 192 77 32 31
413 729 192 78 29 28
420 711 199 54 33 35
423 706 198 60 38 35
424 711 198 55 35 35
303 931 279 178 136 115
420 716 199 50 33 37
417 720 197 51 35 38
419 720 197 48 37 40
385 671 303 149 14 46
423 715 198 54 36 38
320 960 308 63 60 59
422 718 195 49 38 42
375 955 226 82 76 81
420 721 194 47 37 40
340 776 298 81 66 60
320 641 294 155 19 50
424 716 194 54 42 41
426 711 194 59 47 43
430 710 195 61 51 46
288 621 277 86 64 45
418 724 192 57 38 41
435 707 195 66 56 48
435 711 195 64 55 50
454 733 246 83 32 43
438 708 194 67 56 47
442 878 242 76 69 74
440 711 194 68 59 51
440 714 195 67 59 52
479 885 286 93 75 64
445 711 194 76 65 54
325 880 306 129 62 68
476 737 135 105 79 60
445 714 194 77 66 55
447 704 251 152 9 46
455 606 274 65 27 34
446 706 254 143 6 43
447 709 256 140 7 43
449 701 176 72 58 44
449 688 184 81 66 50
390 886 284 46 40 37
450 690 184 80 63 45
450 696 176 80 63 45
316 886 255 143 113 85
453 693 180 88 66 40
454 696 179 82 65 49
450 692 189 77 62 47
450 694 191 74 61 48
455 692 189 77 61 44
456 694 190 74 60 47
453 697 176 86 68 52
453 699 176 76 60 45
455 701 179 71 58 45
456 701 183 82 65 46
458 693 189 76 61 48
464 702 191 87 67 48
356 819 211 78 61 54
450 646 219 96 76 54
448 645 223 88 70 50
416 918 308 69 59 52
455 651 215 103 78 54
452 651 216 96 74 51
455 656 215 93 74 53
448 651 222 92 73 54
487 766 217 119 83 60
452 648 216 94 73 50
453 657 217 90 71 49
264 606 315 167 120 94
457 642 216 90 71 49
460 646 214 100 79 55
465 646 214 109 85 57
498 913 295 94 76 61
400 806 273 177 126 105
460 651 214 112 86 58
460 656 214 96 78 56
364 876 214 50 46 47
455 661 215 89 72 52
450 661 220 87 69 49
448 658 222 83 66 48
435 916 269 77 65 61
448 659 222 82 66 48
450 666 214 86 69 49
450 671 214 85 69 52
455 666 215 88 71 52
455 671 214 87 71 53
460 661 213 90 73 56
460 666 214 90 73 54
364 969 297 74 72 74
460 671 211 90 73 54
465 666 213 97 78 56
461 668 211 91 74 55
464 672 211 96 77 55
469 651 216 126 94 63
469 656 216 106 83 57
409 926 234 82 70 67
465 721 164 67 59 53
472 651 217 114 84 54
473 645 216 130 97 67
475 656 218 89 72 52
316 876 260 138 111 85
467 725 165 55 46 39
480 651 219 88 71 52
330 676 300 46 29 32
480 656 219 96 77 53
470 661 216 104 81 57
472 660 217 96 75 52
470 671 214 108 84 56
480 661 218 107 83 53
374 571 307 158 0 48
475 666 216 101 79 52
475 671 216 108 83 53
321 861 298 164 120 102
476 664 217 98 76 50
345 521 313 45 29 31
478 667 216 109 83 51
480 671 218 125 91 58
454 646 241 117 71 62
500 910 283 110 90 74
456 646 242 135 91 79
390 901 189 82 72 70
451 657 242 82 56 45
371 890 295 136 104 77
460 656 244 149 106 87
445 517 282 55 30 32
465 651 244 171 126 103
291 829 255 220 149 120
465 656 244 174 125 103
450 661 242 73 50 39
448 666 241 61 37 29
455 666 244 112 79 64
455 671 244 107 75 61
460 661 244 152 107 88
293 634 307 179 127 104
465 666 244 168 122 99
465 671 244 164 120 94
470 651 243 185 134 110
475 646 243 193 141 116
475 651 242 189 139 113
473 656 242 180 129 106
476 652 241 184 138 111
480 651 241 190 143 117
472 782 184 83 63 54
395 626 302 115 33 46
480 656 240 175 136 108
480 661 238 179 132 105
430 801 260 72 55 49
480 666 238 179 131 103
479 671 238 175 126 96
470 666 243 174 126 101
560 486 249 160 111 98
476 666 241 171 127 100
476 671 240 172 126 97
447 853 266 38 34 32
490 796 234 90 69 57
450 682 206 85 71 57
455 682 208 87 73 58
411 903 312 40 38 37
450 686 204 89 74 58
455 685 208 89 75 60
460 680 207 88 73 56
465 681 209 95 77 55
460 682 206 89 74 58
462 685 207 92 76 57
451 674 212 87 71 54
500 855 274 102 79 68
365 831 213 124 96 77
455 675 212 87 71 54
489 646 220 120 92 58
448 673 220 71 60 49
290 827 254 214 145 116
448 673 222 64 55 48
426 909 246 68 58 58
450 680 220 79 66 55
450 682 224 83 71 61
465 676 210 97 77 54
450 691 200 87 71 54
450 696 194 78 65 53
273 741 291 168 117 90
450 696 198 81 67 55
455 697 193 81 68 54
455 696 198 79 66 54
450 688 201 93 75 56
454 688 201 90 73 55
451 700 197 78 66 54
346 887 236 87 74 60
455 700 196 81 67 54
455 700 197 80 67 54
515 471 239 50 29 35
459 692 200 87 74 60
460 696 199 85 72 58
465 691 203 99 80 57
383 969 245 84 79 82
464 693 201 99 80 59
465 696 200 97 79 57
460 698 193 76 63 52
332 974 265 94 90 92
465 700 194 90 72 53
465 701 198 94 76 56
468 673 211 103 81 55
472 680 212 111 85 56
475 676 214 112 86 55
475 681 213 114 87 56
420 821 163 64 53 49
472 741 241 166 116 89
480 676 219 130 93 61
480 681 219 132 94 62
295 656 272 122 78 51
476 686 213 114 87 54
478 687 216 118 87 56
334 876 306 134 96 80
438 754 282 75 26 35
430 571 303 85 29 38
480 686 219 136 97 64
468 688 206 105 82 55
471 691 208 112 87 56
468 702 195 89 72 54
473 701 204 97 77 55
370 965 299 60 57 57
475 701 209 100 78 52
477 696 212 109 84 53
420 850 246 33 29 28
472 735 164 55 43 35
480 691 219 138 98 66
480 696 219 138 98 65
414 854 245 33 29 27
479 701 214 115 87 54
540 515 244 223 154 125
306 941 294 188 140 118
450 680 228 80 70 65
453 680 227 77 64 52
450 676 242 65 43 35
549 509 240 220 144 130
455 676 244 106 73 59
450 686 242 64 36 31
460 676 245 140 100 78
460 681 245 136 94 75
499 740 234 88 65 45
460 686 245 138 95 75
455 691 244 110 67 57
455 696 244 115 66 57
344 798 207 77 62 54
450 701 245 121 26 41
448 702 247 132 18 41
485 765 185 88 65 52
455 701 245 120 62 57
460 691 246 138 94 74
367 875 296 138 109 79
465 696 246 156 110 85
460 701 246 140 93 73
476 676 240 168 122 92
326 516 321 154 11 48
478 681 238 170 119 90
428 824 252 78 61 56
470 681 244 163 121 92
470 686 245 164 118 91
455 846 279 42 36 31
474 686 243 166 119 89
406 946 269 60 54 52
476 686 241 166 118 88
479 691 238 173 119 88
476 691 240 171 120 90
476 696 240 174 122 92
479 701 238 174 120 89
470 691 244 167 120 92
470 701 244 169 120 92
474 696 242 172 122 93
474 701 242 173 123 94
485 646 219 103 81 54
485 651 220 111 86 57
485 656 220 123 93 61
488 650 221 129 97 62
488 654 221 137 99 63
487 658 222 147 106 72
487 662 223 166 117 85
484 666 220 140 99 67
404 824 262 146 102 83
483 670 221 143 100 71
484 656 238 190 142 114
486 656 235 196 141 112
487 653 236 199 140 112
492 646 229 183 127 98
493 644 229 183 127 97
275 606 283 123 89 59
492 647 235 198 137 110
489 646 238 197 138 108
525 488 267 51 27 28
493 645 233 194 134 106
491 651 229 190 131 103
488 650 237 199 139 112
489 656 233 200 142 112
389 911 194 75 71 71
279 586 279 128 12 39
484 645 242 196 144 114
482 648 241 196 145 119
487 662 229 189 133 103
364 647 306 177 12 56
482 663 236 186 135 109
484 671 229 180 123 91
482 666 236 185 132 104
481 671 235 181 128 98
488 660 229 192 136 105
355 596 314 168 9 52
483 676 224 166 114 84
482 678 222 152 104 73
482 681 223 157 108 78
483 681 225 165 114 83
482 686 223 158 110 78
470 736 148 103 75 55
482 691 224 158 110 75
482 696 224 155 107 73
481 701 219 136 98 63
482 701 224 150 103 70
483 681 229 168 115 82
483 676 232 176 122 89
478 711 149 75 61 46
483 686 225 164 114 81
383 594 307 172 21 58
482 686 231 165 112 82
445 816 154 108 85 68
481 686 234 169 115 84
444 616 279 83 29 38
483 689 228 161 110 75
482 696 229 159 107 76
481 696 234 168 115 82
355 922 199 75 65 63
410 516 288 72 28 34
461 721 155 77 60 46
462 718 156 73 57 43
465 717 159 77 65 55
462 718 158 86 67 51
455 726 159 58 47 39
455 735 149 62 48 42
334 612 310 45 29 32
490 749 136 86 65 49
451 737 149 63 51 46
452 733 155 56 48 44
450 736 154 54 44 42
270 636 314 171 121 97
455 731 154 58 47 42
453 730 159 51 43 40
400 877 268 32 30 30
453 734 152 60 47 41
462 723 151 68 52 39
425 791 164 71 51 42
464 726 149 71 52 43
462 726 151 75 56 45
457 723 160 78 59 44
351 871 235 141 105 74
457 727 156 58 47 42
458 718 175 79 61 40
458 724 157 64 50 43
455 737 144 71 54 45
460 737 144 82 59 46
460 735 148 70 52 43
446 741 275 177 15 56
457 733 151 62 45 40
460 732 150 71 52 43
428 585 298 183 16 58
465 731 149 84 58 45
325 771 208 68 56 48
465 736 149 97 69 50
470 716 143 78 57 42
365 780 292 81 61 54
470 721 144 77 54 41
475 711 144 80 59 43
475 716 144 82 64 47
471 707 145 100 71 54
483 903 303 103 84 64
395 917 317 42 38 37
380 866 283 156 122 96
469 710 149 87 70 54
535 473 236 58 38 38
469 711 154 67 56 46
322 873 256 126 101 74
322 944 226 78 71 71
472 708 154 72 60 49
471 711 157 64 54 43
467 713 146 97 77 60
467 713 149 91 78 65
466 716 145 88 67 50
365 631 307 80 31 39
466 716 149 89 75 64
466 721 145 68 51 38
448 845 211 76 64 60
382 824 196 55 47 44
471 716 156 69 57 47
470 716 158 72 60 50
472 548 277 91 22 38
471 721 159 67 55 44
478 708 148 74 60 46
477 709 150 75 61 47
475 707 154 77 63 51
476 706 158 72 59 49
472 708 157 72 59 48
478 706 155 78 66 54
478 712 153 76 63 51
474 721 145 92 69 49
374 891 183 86 72 67
478 715 146 77 59 44
478 716 149 84 67 53
477 718 148 87 68 53
411 787 276 83 64 56
476 721 149 83 65 50
470 905 295 95 72 58
317 858 285 174 130 111
416 832 250 42 34 35
478 719 150 90 73 57
475 716 154 70 58 46
313 920 252 112 94 77
475 721 154 69 55 43
478 716 152 80 67 54
480 736 134 106 76 56
474 736 138 103 80 60
475 733 140 99 75 52
336 936 317 80 58 54
474 736 144 100 75 53
279 706 300 174 121 97
269 526 284 137 17 44
478 733 144 89 67 46
467 729 146 82 50 42
470 736 155 81 62 48
476 726 149 75 60 47
405 901 184 84 73 71
472 726 160 67 53 44
379 841 277 166 130 103
476 731 149 77 62 48
325 571 324 90 22 38
475 735 149 88 69 51
395 896 170 80 67 64
478 733 148 76 61 44
340 691 310 49 28 32
473 730 157 66 51 39
475 736 154 78 62 50
449 711 170 75 58 44
453 711 176 65 53 42
479 521 287 141 19 48
455 716 174 72 53 43
455 718 171 71 52 42
430 836 169 87 67 57
345 811 213 80 63 55
464 719 161 78 66 59
418 615 297 119 29 46
460 719 174 78 60 42
456 706 184 79 60 45
435 591 290 161 11 49
454 711 179 67 52 40
456 711 183 78 57 43
388 837 187 59 50 51
456 715 179 74 54 42
458 705 186 79 60 43
460 706 188 89 66 45
459 712 185 97 70 49
460 710 187 97 70 48
465 710 188 92 69 47
457 714 182 80 59 47
414 884 170 97 82 73
459 718 179 75 57 41
465 715 183 89 64 44
375 894 296 86 66 48
451 723 166 66 51 43
450 726 164 65 52 45
455 722 164 77 59 46
450 730 162 53 44 39
480 781 244 61 44 32
453 733 162 50 41 42
460 721 164 78 61 53
464 722 169 57 47 41
466 718 162 75 68 63
469 721 162 62 53 45
471 715 183 73 57 45
323 828 227 89 68 61
470 721 179 62 50 40
474 721 184 65 53 43
284 771 237 129 95 57
473 713 190 77 61 47
476 721 189 74 59 45
303 696 297 156 109 93
469 727 170 58 50 42
472 729 172 58 50 42
475 731 174 61 51 42
320 792 296 64 52 48
480 736 174 69 56 44
460 566 282 70 26 34
467 705 192 84 66 50
473 722 181 59 48 39
475 726 179 56 46 38
477 724 189 76 61 45
479 727 189 77 63 47
479 731 184 72 57 45
304 781 222 69 56 50
481 735 179 78 62 45
430 861 248 37 33 30
456 741 130 80 61 46
450 741 139 73 56 47
455 739 139 75 54 47
517 450 266 86 28 38
451 745 135 75 57 46
435 846 198 64 54 52
450 751 140 77 57 46
455 751 138 80 60 45
456 749 136 83 61 44
461 792 170 66 51 48
425 752 291 153 29 56
460 739 138 87 63 42
468 799 186 81 60 49
460 738 140 90 58 41
305 956 284 60 56 58
395 611 305 59 29 35
466 741 139 110 81 56
465 738 140 105 77 56
465 738 144 106 77 55
464 750 136 88 67 50
460 752 138 81 60 45
465 751 139 88 66 51
434 875 269 35 31 31
448 739 153 56 46 41
449 753 142 73 55 45
450 756 143 68 52 43
450 761 143 68 52 43
452 754 141 74 56 45
455 756 140 76 57 43
306 560 323 177 16 57
455 762 142 83 62 46
455 766 144 99 71 52
460 760 140 89 66 50
465 760 140 90 65 47
460 762 143 90 67 48
486 822 272 65 51 38
412 651 291 48 28 32
460 766 145 95 69 47
465 763 143 92 67 46
465 766 144 101 71 49
467 743 142 101 73 48
470 740 140 107 83 61
467 749 142 99 73 51
360 541 309 157 16 49
472 747 141 110 83 64
469 749 143 100 72 48
477 742 131 95 70 52
472 822 257 42 35 29
369 891 299 144 110 83
475 746 134 105 78 57
476 751 130 93 67 51
474 751 134 81 60 46
515 531 234 146 107 70
477 746 130 98 74 56
474 746 139 110 80 57
473 749 138 84 62 46
401 947 244 81 72 70
395 521 294 49 25 32
340 600 317 184 19 58
466 736 152 104 71 59
470 739 155 85 65 48
322 696 302 130 19 44
471 739 158 82 62 46
325 596 314 44 30 33
474 738 159 71 56 44
365 937 212 86 78 80
476 739 159 79 63 48
478 738 152 103 71 48
477 582 259 104 29 44
480 741 154 102 77 57
471 755 135 80 60 46
469 756 137 83 62 47
470 761 139 90 65 48
471 765 140 102 74 54
481 752 134 99 76 61
535 466 268 109 14 34
479 754 134 100 77 63
394 785 179 57 48 45
476 757 138 100 78 62
475 761 139 97 75 56
312 878 293 112 32 51
477 758 142 88 68 52
477 762 143 83 64 49
480 756 144 80 61 48
480 851 264 86 68 55
479 761 145 71 54 44
273 766 291 161 115 86
473 763 135 102 82 68
474 766 135 103 77 61
472 762 136 89 66 52
473 784 186 88 64 52
474 766 139 98 74 56
478 766 141 90 71 52
514 786 248 106 79 56
476 766 149 66 52 42
530 522 249 209 144 115
480 761 149 67 51 42
478 765 149 65 49 40
475 766 159 71 54 44
345 941 324 51 47 47
477 766 154 59 45 35
456 892 301 53 45 38
478 764 154 57 44 33
477 739 163 84 66 50
268 516 284 83 28 37
480 740 164 67 53 42
480 737 169 68 55 42
481 740 168 65 52 40
360 751 309 90 43 47
475 762 164 58 47 40
472 763 166 66 54 43
452 560 281 153 10 50
475 763 168 61 50 44
480 761 164 68 53 43
459 606 269 178 22 58
455 566 282 84 18 34
480 761 169 78 60 49
283 817 252 192 129 101
475 766 173 63 49 45
481 761 174 97 72 57
420 881 284 34 32 33
479 765 175 94 69 55
480 766 179 98 72 57
485 736 139 89 69 50
496 733 133 102 75 55
495 751 234 85 64 46
490 736 139 90 69 48
498 733 132 101 74 55
500 736 134 93 71 52
350 916 194 87 76 73
499 736 139 92 70 49
484 750 134 96 76 60
486 748 134 99 78 62
485 751 139 84 65 51
415 851 244 29 27 26
345 741 317 124 24 47
493 739 131 88 69 56
495 741 133 97 75 57
490 738 142 98 73 50
490 740 145 90 68 46
490 750 139 89 69 51
446 810 170 76 66 59
496 747 139 89 69 53
494 749 140 91 71 54
495 750 144 103 81 60
482 739 146 120 86 66
263 533 299 71 23 33
485 740 145 97 72 50
482 758 177 68 52 38
485 742 149 107 76 53
484 743 154 87 67 49
484 743 159 65 52 45
486 744 150 76 52 38
486 745 159 67 53 44
495 741 145 97 70 49
494 743 147 97 71 48
433 912 312 76 62 50
490 744 150 82 62 48
514 556 244 190 131 103
423 829 152 117 94 88
495 745 149 98 73 49
490 745 154 76 59 44
482 753 139 88 69 55
484 755 145 75 58 45
485 756 149 81 61 48
482 758 147 77 60 47
300 691 259 60 40 37
483 759 150 78 60 47
485 756 154 87 64 49
483 759 152 78 60 48
484 756 159 93 69 52
488 754 150 92 69 54
488 754 154 105 80 66
498 738 142 100 75 50
321 825 226 83 64 56
499 741 139 93 70 51
498 745 140 99 76 57
497 746 144 99 76 52
498 749 148 107 79 52
483 738 171 62 49 36
460 716 247 142 92 74
486 740 173 69 54 43
362 814 206 78 62 54
486 746 164 61 49 40
485 751 164 82 64 48
408 944 250 74 65 64
426 676 279 144 3 44
488 743 171 64 51 39
490 746 169 76 59 46
309 751 296 127 87 70
488 747 166 66 51 38
489 749 170 75 58 43
490 750 174 88 69 51
493 748 175 77 59 46
303 891 274 176 126 109
487 739 178 82 65 50
485 741 185 64 50 41
483 737 188 82 66 51
482 739 191 98 84 73
484 746 188 67 53 44
335 859 263 96 76 57
482 747 191 67 56 46
432 900 273 64 50 45
484 751 189 64 50 42
482 751 191 58 47 40
489 741 179 73 58 46
491 746 179 74 58 44
489 746 183 63 49 38
390 821 269 155 110 89
374 870 198 53 48 50
493 750 178 70 53 43
483 756 163 92 69 51
375 946 220 84 78 81
482 753 168 81 64 52
483 759 162 79 61 47
462 793 182 64 50 45
482 756 174 79 59 47
486 762 182 88 68 52
486 755 190 72 56 45
485 766 189 90 66 53
340 516 315 131 21 44
488 755 180 87 65 47
370 896 300 129 98 70
505 781 244 99 79 64
488 761 188 81 60 48
489 765 188 94 69 54
450 711 194 87 73 60
371 958 310 63 57 57
265 741 264 146 102 74
450 715 194 86 71 56
455 716 194 91 72 53
462 704 197 86 72 58
481 797 253 54 44 36
460 712 194 96 79 62
466 712 194 91 73 54
465 716 194 90 72 53
467 709 197 94 75 55
469 706 194 86 69 52
470 706 198 88 72 54
335 857 302 161 131 105
471 710 197 91 73 53
470 716 195 86 69 50
474 712 194 82 67 52
475 711 199 91 72 53
322 755 307 168 19 54
327 721 312 161 15 51
474 706 204 94 75 53
475 711 204 92 73 52
475 716 194 88 71 52
476 716 198 95 73 51
365 746 308 61 31 36
476 721 195 93 74 51
479 716 200 99 77 51
437 561 301 134 25 46
477 714 204 95 75 52
479 716 204 98 76 51
432 628 281 60 21 31
478 707 211 100 78 51
447 853 282 38 33 30
477 704 212 102 80 52
479 706 214 113 85 54
479 711 214 116 87 55
479 721 209 106 77 52
434 686 274 145 12 45
485 766 235 71 52 37
478 723 195 97 75 51
477 724 192 95 75 50
480 726 209 108 78 52
370 796 285 67 57 55
451 704 246 127 27 44
326 970 298 70 65 63
455 707 247 127 49 51
450 711 249 133 14 41
436 866 214 75 62 59
454 710 247 127 43 50
455 711 246 126 49 51
448 707 253 142 6 42
444 819 153 110 86 67
449 711 254 146 5 44
406 821 171 64 51 44
451 716 250 150 11 46
455 716 246 127 53 54
454 717 247 134 35 48
455 721 248 136 37 50
450 716 254 155 4 48
451 721 254 149 9 47
465 706 246 156 109 83
434 636 273 186 8 58
292 620 271 63 32 38
463 708 247 149 101 80
463 710 247 150 102 79
460 721 247 144 92 74
462 716 246 149 101 78
465 716 246 160 111 84
465 721 246 162 112 86
453 723 254 144 12 45
467 812 198 90 68 60
455 726 249 135 42 51
394 885 172 110 86 74
454 726 254 149 16 46
454 736 248 87 42 42
455 731 249 108 43 46
454 731 254 104 27 43
397 862 181 60 52 51
499 756 224 89 65 50
453 736 254 58 34 37
464 723 247 157 108 84
460 731 248 143 95 75
308 682 292 64 46 42
480 711 234 167 112 80
480 716 234 167 112 80
478 715 237 173 117 86
476 721 240 173 118 89
478 722 237 169 114 84
470 706 244 170 120 93
355 831 273 176 129 102
470 711 244 172 122 94
470 716 244 173 121 94
470 721 243 174 121 95
276 616 281 128 96 60
473 711 242 175 123 95
480 721 229 150 99 68
480 721 224 140 93 62
479 726 229 145 96 65
380 941 323 60 51 46
475 726 239 170 116 88
320 831 274 61 51 50
478 725 237 165 111 82
480 731 224 130 85 56
417 779 156 66 53 47
479 731 229 141 93 65
475 736 239 162 113 84
478 731 233 151 101 71
477 728 236 159 106 77
339 627 306 106 25 44
477 736 235 152 103 74
478 736 233 147 99 69
425 606 295 172 11 53
466 726 245 166 116 88
470 726 243 173 121 94
466 731 245 165 116 89
466 736 245 165 115 89
472 736 241 169 119 91
455 741 249 95 46 45
456 746 250 121 76 62
432 850 241 34 30 28
439 782 152 77 59 47
454 746 254 99 48 48
416 927 279 66 59 55
455 751 254 140 92 72
463 741 247 157 109 82
305 901 269 189 138 120
460 741 248 137 93 72
460 746 249 138 93 71
463 751 247 159 110 84
460 751 250 139 94 72
386 968 248 85 79 80
396 912 208 68 61 60
456 756 254 144 102 75
264 751 269 163 111 83
456 766 254 150 107 78
476 796 203 142 94 69
440 601 288 145 22 50
460 756 250 140 95 71
458 753 252 126 83 58
458 756 252 127 85 60
390 736 301 118 23 44
302 686 260 46 36 34
460 766 250 140 98 71
475 741 239 159 111 82
477 741 235 149 101 72
478 741 232 141 95 66
480 746 229 123 84 57
439 811 154 134 115 105
481 751 230 108 77 57
478 746 233 138 93 66
479 751 233 130 89 62
466 741 245 166 115 89
466 751 245 166 117 89
410 906 314 40 37 36
488 799 261 66 55 44
477 756 236 136 96 66
409 940 245 76 67 66
477 761 236 134 95 66
476 766 239 139 99 70
371 891 185 87 74 68
477 764 236 131 91 64
470 756 243 164 116 88
470 766 244 160 114 85
473 758 242 160 113 83
473 766 242 153 109 79
480 721 204 102 77 51
481 706 219 135 96 62
481 711 224 143 96 63
481 716 219 132 91 58
480 716 224 142 95 62
481 721 219 129 87 57
481 726 199 91 69 47
482 843 262 80 63 54
471 833 268 51 41 34
481 731 194 92 72 49
483 728 199 91 68 49
415 786 275 85 66 58
345 980 264 64 61 61
483 733 195 100 75 51
482 736 194 98 75 50
483 735 194 99 73 50
482 736 199 106 77 51
483 734 198 105 76 52
482 730 205 100 73 50
483 728 202 96 71 50
483 732 204 104 76 51
481 731 209 105 75 51
416 515 286 116 27 46
483 736 209 119 83 57
375 871 285 144 112 84
355 776 295 83 64 55
491 727 209 119 84 59
495 726 209 114 83 56
350 711 319 147 13 46
489 729 206 107 78 57
490 730 209 117 83 59
481 731 214 122 85 56
483 736 214 123 85 58
264 751 274 168 113 86
481 736 219 118 80 55
480 736 224 124 81 56
495 727 214 113 79 52
337 520 316 56 19 26
495 725 218 116 78 57
495 851 269 84 66 53
492 726 217 113 79 54
495 730 215 115 79 56
495 737 214 119 84 59
491 734 219 95 72 52
491 732 218 122 87 64
497 723 216 118 82 53
397 850 256 149 115 93
499 723 214 109 78 55
404 815 267 166 122 100
500 725 210 102 82 67
502 723 211 102 81 68
503 725 210 95 83 75
380 836 275 167 130 103
499 723 218 113 81 56
421 825 150 79 61 47
499 726 220 110 78 57
373 855 217 50 43 45
505 723 220 106 81 60
505 726 223 107 80 59
545 491 229 123 96 69
500 731 219 107 78 57
362 520 306 89 19 33
500 735 219 99 73 55
503 735 220 106 74 55
506 722 211 102 82 69
508 723 214 106 79 56
340 855 274 73 58 41
509 724 214 103 79 60
482 706 229 157 106 73
496 733 228 114 82 62
498 728 227 89 69 50
339 856 264 72 53 41
499 731 229 99 77 59
497 733 232 90 73 58
482 741 194 96 71 51
345 765 303 88 71 64
483 742 193 88 66 49
345 846 269 140 101 79
315 871 294 146 63 84
483 742 199 111 81 52
484 741 204 127 90 59
486 740 209 132 91 60
483 744 196 99 74 54
482 750 198 108 79 57
483 751 200 111 81 57
305 811 293 184 139 109
485 746 204 126 90 60
482 747 202 121 88 58
399 671 297 120 18 41
484 751 204 126 90 61
487 747 208 133 92 62
379 914 306 39 36 36
447 833 236 137 103 90
485 751 209 135 94 65
490 742 210 135 94 67
483 737 218 117 81 56
485 741 219 101 76 56
483 742 222 106 78 56
425 586 299 181 12 57
481 745 225 103 74 53
340 974 288 79 75 75
490 740 214 122 89 66
405 941 244 78 68 67
494 743 211 135 94 66
491 742 224 95 75 60
496 806 249 89 70 59
495 740 219 100 75 58
337 854 244 192 133 99
495 741 224 97 74 56
488 744 221 93 75 59
495 752 218 109 76 57
483 753 192 55 44 39
296 626 305 165 121 101
484 756 193 71 53 42
483 756 200 113 82 59
482 760 195 88 65 46
482 760 197 97 69 48
483 761 199 116 84 59
450 791 255 152 108 81
483 756 204 129 93 64
483 761 204 131 94 66
482 760 206 137 98 69
482 760 208 137 97 67
351 932 323 45 42 43
335 546 320 36 29 31
483 766 194 94 69 52
484 766 199 124 88 64
482 768 197 116 82 62
390 888 288 41 36 33
504 771 235 99 74 56
483 761 209 137 96 66
406 912 224 67 59 60
470 770 145 103 74 57
484 766 204 135 95 67
485 761 214 130 91 63
428 864 190 65 55 54
487 762 217 122 87 64
492 753 217 135 95 69
495 756 220 104 76 58
495 761 224 83 60 51
492 763 222 98 72 59
354 801 203 78 61 54
494 766 224 79 59 49
417 912 238 70 60 60
499 737 214 115 79 57
498 742 215 105 77 59
339 797 207 77 62 53
499 742 219 90 69 54
503 736 222 97 74 60
500 746 214 112 77 59
500 746 224 89 64 49
501 746 219 101 71 52
377 928 207 77 72 73
503 746 225 87 64 47
383 836 199 54 49 49
498 754 221 98 72 56
492 741 229 99 74 56
345 856 294 119 96 70
495 742 233 102 76 56
323 958 242 72 69 72
372 771 196 74 58 50
491 747 228 79 65 52
