ply
format ascii 1.0
comment Created by Open3D
element vertex 2215
property double x
property double y
property double z
property uchar red
property uchar green
property uchar blue
end_header
340 23 235 100 86 72
338 24 232 92 80 66
327 472 381 115 12 37
340 428 225 109 21 26
286 905 259 81 71 71
312 206 253 109 87 64
301 363 243 75 64 53
179 623 232 143 107 82
395 443 326 166 12 54
345 21 239 106 91 76
349 853 256 71 59 58
309 253 266 110 88 64
337 30 228 94 82 68
379 419 266 72 60 51
465 473 241 97 81 65
340 26 234 105 90 75
201 561 289 152 2 44
183 620 204 169 115 80
349 23 241 103 49 47
258 368 309 136 100 71
279 323 291 104 69 49
321 648 244 73 38 41
334 738 206 74 56 45
348 24 237 104 89 70
348 34 232 84 57 34
350 33 236 95 34 36
351 33 241 86 51 41
222 950 341 70 65 64
396 852 363 63 55 49
269 430 137 90 74 55
185 813 266 193 136 111
348 19 242 112 64 60
355 498 329 31 21 24
343 891 330 50 45 42
304 483 157 84 30 37
346 16 245 108 72 63
276 414 293 101 71 53
294 902 410 68 62 60
258 178 279 118 95 70
274 928 266 97 85 84
349 18 246 116 50 53
388 483 351 122 27 47
350 18 251 109 66 56
189 763 266 151 113 82
396 529 244 46 34 41
299 22 296 174 124 102
332 21 284 148 103 82
351 18 256 118 44 51
379 882 368 48 43 39
351 28 246 97 42 44
329 188 223 132 101 62
346 589 229 42 35 42
359 877 346 56 49 46
351 33 246 94 51 46
230 653 305 86 26 39
350 28 256 112 59 55
334 88 189 155 32 51
350 33 251 123 49 54
167 514 205 81 43 33
348 33 256 128 69 67
436 565 266 165 114 84
330 38 192 111 39 16
408 424 236 104 40 36
332 35 193 113 42 16
297 391 244 85 67 46
460 499 251 172 113 92
332 35 194 115 46 19
259 268 240 107 85 61
332 38 193 116 44 14
404 768 246 94 72 60
332 38 195 117 49 20
394 433 379 140 17 45
397 518 285 153 18 50
314 228 231 125 96 60
294 527 172 87 33 38
351 288 272 127 98 64
330 43 195 120 43 20
331 48 193 127 33 16
330 48 196 122 38 19
329 48 201 120 70 40
235 854 340 140 126 118
420 638 266 168 116 83
330 523 190 125 3 31
280 624 333 66 29 33
366 603 311 169 16 53
332 43 193 121 41 14
249 613 230 182 4 41
331 449 319 105 78 57
333 43 195 122 47 17
401 539 282 89 27 38
334 48 201 117 71 34
279 623 334 52 28 32
329 48 206 116 86 56
317 597 333 86 19 35
334 47 206 116 80 43
184 758 246 150 105 70
326 35 223 100 85 68
228 913 372 112 86 74
340 352 298 120 94 62
326 39 222 97 83 70
270 323 244 86 75 64
324 47 216 103 87 71
412 462 274 61 22 28
303 283 256 93 77 61
237 911 378 38 36 38
394 426 356 61 21 22
369 573 301 50 28 33
371 806 308 136 105 81
329 43 216 113 82 57
324 43 221 93 75 60
343 507 327 36 18 23
322 46 219 97 68 59
298 527 361 169 18 55
399 894 336 74 64 59
340 498 336 71 8 24
274 396 234 92 79 64
287 57 271 125 88 72
353 348 256 116 94 68
335 890 392 71 64 64
230 627 310 142 31 54
199 783 226 174 114 84
330 503 186 57 32 36
332 35 218 122 68 41
286 59 272 129 90 75
334 39 218 125 72 40
339 452 326 46 32 27
279 358 296 122 82 63
344 108 236 123 99 72
334 42 215 122 78 42
334 158 260 114 92 68
264 423 305 113 84 62
332 10 281 143 51 72
328 53 195 111 30 18
172 576 218 133 100 75
220 623 256 80 31 41
189 588 195 151 107 74
327 51 200 115 76 33
326 54 197 90 51 24
329 779 204 64 51 43
294 868 226 103 85 75
331 170 264 113 92 69
325 53 201 113 92 65
322 57 200 95 72 55
322 62 194 86 38 24
382 456 364 71 9 26
223 643 296 165 3 50
323 51 210 108 90 69
224 543 196 170 8 39
321 280 289 102 83 64
339 49 206 120 98 69
256 502 309 40 24 27
354 523 337 63 27 31
342 40 222 116 100 84
324 528 182 161 1 33
338 45 212 119 96 64
243 835 323 95 79 62
339 47 211 122 102 79
341 46 215 123 105 88
414 598 277 142 100 76
264 20 258 104 90 76
259 398 222 97 82 67
344 48 216 114 98 81
238 959 305 71 67 68
310 792 217 60 49 46
338 40 218 117 101 83
339 233 277 120 96 69
340 41 220 117 100 83
172 623 214 163 109 76
324 923 351 59 51 49
343 44 217 116 100 83
344 43 221 111 97 81
431 800 253 93 74 63
336 51 194 112 39 15
324 10 286 141 39 59
293 767 229 65 50 45
325 292 238 126 94 62
373 887 426 104 85 71
429 871 343 91 79 71
337 50 197 112 62 14
337 50 202 113 82 43
278 506 336 45 28 27
416 764 269 99 81 67
260 264 239 113 89 62
339 398 234 117 93 63
339 53 201 107 81 42
367 483 346 48 19 25
344 53 206 115 95 73
420 811 242 84 79 75
269 840 244 162 113 90
341 56 200 93 53 16
249 849 261 199 135 105
344 58 201 97 48 25
354 593 346 179 18 58
340 61 194 90 48 26
344 63 196 98 45 31
346 62 200 97 47 30
198 604 229 95 65 52
273 937 272 84 74 73
311 48 259 101 48 50
329 588 336 114 14 38
348 63 201 111 45 40
342 50 208 125 107 87
347 49 217 88 65 35
408 583 272 83 55 39
230 562 202 61 35 40
363 878 427 77 61 53
320 498 366 69 16 30
360 508 210 123 9 32
350 53 221 85 40 36
350 58 216 112 32 38
351 63 211 114 45 44
345 900 422 72 64 61
351 58 221 112 25 39
294 433 141 75 60 50
264 563 322 133 20 46
441 870 329 97 78 65
324 38 226 83 66 54
320 238 274 112 91 67
309 407 221 88 73 58
330 148 218 136 102 63
344 248 227 137 100 61
323 41 225 81 56 42
329 63 256 122 82 67
336 59 253 129 105 81
333 62 254 131 104 79
324 308 302 112 87 61
340 37 225 113 97 81
344 38 226 109 94 78
346 36 229 101 84 64
352 188 246 118 95 68
349 38 231 93 40 32
337 349 299 120 92 59
380 423 296 94 20 36
229 773 307 78 65 58
311 228 233 119 92 60
254 519 316 57 18 27
351 38 236 111 24 35
305 514 169 171 8 39
228 628 250 33 31 38
351 38 241 113 30 42
157 539 194 168 114 88
350 43 231 84 48 38
350 48 226 113 32 41
360 693 301 75 29 37
351 48 231 104 28 39
264 253 240 124 96 64
351 43 236 109 30 40
279 891 242 80 71 68
244 593 216 187 6 42
350 43 241 116 55 54
356 378 256 105 87 67
350 48 236 125 21 43
339 48 256 130 95 79
344 43 256 134 68 68
266 383 239 93 81 69
302 363 298 119 84 65
345 44 252 120 61 57
341 474 374 88 10 28
346 143 235 114 92 67
344 48 251 127 57 60
298 27 286 151 51 66
274 213 251 117 92 63
342 46 254 141 117 95
360 713 228 71 48 39
347 37 255 123 49 53
349 38 251 126 25 46
192 601 198 155 107 75
323 482 391 92 17 31
348 43 250 127 16 44
374 417 251 97 70 65
334 113 201 170 88 93
473 478 251 158 109 95
347 46 249 132 17 46
274 723 226 104 25 30
319 498 347 61 26 31
292 428 276 75 53 43
351 53 226 119 34 45
297 23 267 144 21 33
370 473 225 77 34 38
346 54 242 126 60 60
338 849 408 52 42 34
349 58 231 116 87 74
194 723 261 148 106 81
336 668 249 47 31 30
298 952 307 89 82 82
259 653 329 164 21 53
349 849 295 34 31 31
348 63 231 122 29 46
284 503 351 39 29 29
229 573 211 68 34 38
348 58 236 123 26 44
345 58 241 132 98 83
344 63 241 112 19 40
340 53 252 119 22 43
343 58 246 121 63 63
342 63 246 121 18 44
337 56 254 125 99 77
387 578 289 66 26 33
277 506 341 38 30 30
341 60 248 115 21 39
184 573 193 158 110 80
346 50 247 132 19 47
324 73 191 134 17 36
360 663 281 73 30 36
324 503 376 111 20 41
229 743 321 69 28 37
329 68 187 106 42 28
359 248 251 125 98 66
329 73 186 133 32 36
329 78 187 139 32 43
352 323 266 126 97 65
326 78 188 139 28 41
333 890 332 43 39 37
334 86 188 150 32 48
340 68 190 111 36 26
278 278 261 115 92 65
350 639 317 170 12 54
343 68 192 125 41 36
223 779 303 50 43 41
341 72 189 130 19 28
319 468 336 68 24 29
312 343 245 88 75 63
332 700 339 126 6 38
294 958 316 90 82 83
343 73 191 137 30 41
344 183 262 118 95 70
424 810 256 93 72 60
338 82 188 142 27 42
355 523 205 92 30 36
339 88 191 156 25 47
356 809 230 68 51 47
267 891 392 39 38 39
322 66 194 105 38 33
304 628 337 33 29 30
321 77 197 135 8 41
434 513 256 124 90 70
167 584 205 165 110 81
351 488 328 46 18 21
314 877 326 31 32 33
323 79 195 137 11 42
308 730 221 67 39 36
324 83 196 140 11 42
472 482 261 181 121 108
300 509 355 93 14 36
322 84 201 139 10 43
294 598 216 103 36 43
210 918 331 163 127 107
220 718 311 131 12 44
324 88 201 135 11 43
327 85 194 141 13 41
412 453 280 34 28 28
334 768 197 80 61 50
321 82 206 132 8 41
304 567 197 78 34 40
259 198 281 114 92 67
210 788 289 170 127 100
432 512 259 99 85 72
322 85 206 134 8 42
357 501 322 28 23 24
262 44 278 126 105 85
412 748 266 78 59 42
259 433 311 99 64 49
349 868 306 40 36 34
323 88 206 133 9 42
358 663 301 35 28 31
312 290 244 91 77 63
399 423 286 85 24 33
327 94 199 129 9 40
186 758 236 160 110 76
324 93 206 121 11 38
321 88 213 105 57 49
404 848 398 64 52 55
322 113 224 118 89 59
278 363 246 74 63 52
324 483 350 109 18 39
322 93 210 109 28 35
271 373 303 132 93 70
344 709 227 69 45 41
276 253 251 114 89 59
188 713 231 151 101 68
321 93 213 110 39 40
199 693 257 123 94 73
217 883 337 142 102 90
346 68 195 121 44 45
286 867 328 63 54 45
278 408 291 106 72 54
347 64 198 114 47 46
269 333 245 81 72 62
272 223 243 124 94 57
269 783 222 74 59 52
339 333 291 124 94 61
347 68 198 128 44 50
347 73 197 138 33 47
178 543 205 81 51 37
346 78 195 145 25 46
365 703 291 47 28 30
347 78 197 148 27 48
239 748 226 84 27 29
290 872 326 62 55 49
349 78 201 146 28 51
264 168 271 113 89 63
323 482 356 69 23 36
350 78 206 143 29 53
386 463 304 135 17 44
275 509 351 100 23 37
403 837 390 80 64 65
351 68 211 113 50 48
351 73 211 120 32 46
220 703 252 91 47 45
272 788 223 74 59 52
350 73 216 117 41 51
300 909 269 72 64 63
259 288 241 95 78 60
242 656 249 101 8 23
350 68 221 116 47 49
422 433 264 59 25 29
396 463 361 106 26 43
339 193 223 133 101 60
329 258 283 117 93 66
350 78 211 115 78 65
430 583 272 175 118 92
349 78 216 119 70 64
356 270 244 143 104 64
329 403 310 118 89 67
349 78 221 120 44 52
344 358 242 116 94 70
340 94 195 152 23 45
349 478 212 91 24 28
299 10 291 129 43 57
296 392 241 86 68 48
341 90 194 159 23 50
433 578 266 167 113 83
286 860 217 96 85 77
217 933 306 59 55 56
345 711 225 70 46 43
343 92 197 149 20 45
359 393 251 102 87 70
339 273 233 144 104 69
404 813 276 59 44 36
339 148 256 114 92 67
322 463 178 125 7 30
310 863 426 58 48 42
345 83 196 154 24 50
279 908 401 69 62 59
347 82 198 154 24 51
346 85 199 157 30 54
274 258 246 112 88 59
215 933 311 55 52 53
347 87 202 153 33 55
349 298 246 139 102 72
279 478 297 73 15 30
339 885 426 54 47 43
348 88 206 144 37 54
324 709 344 144 12 45
289 12 310 152 37 61
429 828 406 94 71 63
349 83 206 138 26 49
348 88 216 112 65 58
315 464 310 64 23 33
284 29 288 131 96 80
349 83 221 109 50 51
329 863 411 53 44 37
347 93 211 131 34 49
385 415 247 115 30 30
346 95 210 132 23 44
289 18 262 123 23 26
347 93 216 140 30 50
382 783 304 141 108 81
366 513 215 70 26 34
347 93 221 132 56 59
451 800 373 125 97 62
269 419 176 90 75 58
164 533 208 128 96 79
346 95 221 126 92 74
361 398 256 103 84 66
324 68 255 116 61 57
178 548 188 163 112 89
331 484 369 75 16 26
324 72 254 126 100 77
329 68 254 117 29 46
369 837 295 99 61 48
328 71 254 112 64 56
269 784 313 64 54 48
287 410 251 82 66 50
324 74 253 122 96 71
448 492 276 76 59 38
329 78 252 111 38 46
325 810 204 109 82 59
289 422 171 88 72 55
394 713 251 117 87 55
434 529 249 166 127 99
399 508 286 67 25 34
330 69 253 118 29 47
322 447 177 142 2 32
235 963 311 72 69 70
334 68 252 121 52 56
334 73 251 122 16 43
281 513 359 55 26 29
336 79 248 108 45 47
316 194 259 106 85 61
329 83 251 110 34 46
324 93 252 108 60 54
400 457 288 57 25 32
278 41 284 125 96 75
329 93 251 109 41 48
334 263 229 139 102 65
335 83 247 110 89 69
364 483 325 28 23 23
333 88 249 114 87 67
345 716 210 81 61 49
343 73 240 121 35 48
345 78 231 102 72 57
263 183 275 112 89 63
312 936 354 57 48 46
348 158 236 117 95 70
345 68 231 130 105 84
243 637 317 38 26 28
345 104 221 125 45 52
309 488 161 50 38 41
348 243 228 133 100 61
347 66 231 131 102 88
407 756 269 114 83 59
294 553 337 38 27 30
348 73 225 115 22 41
347 66 234 123 84 73
341 69 243 113 92 73
341 73 243 103 68 53
379 839 392 62 52 45
397 763 238 62 46 40
274 263 246 112 88 60
308 517 375 178 23 60
330 870 372 37 34 34
338 68 250 128 22 48
249 844 250 196 138 108
377 741 218 78 60 47
337 72 249 107 22 32
240 832 280 86 63 60
371 564 315 57 22 31
338 78 245 121 21 46
331 528 189 135 2 33
341 78 242 123 19 46
374 858 306 48 41 37
274 328 246 82 71 60
333 902 286 77 66 65
189 693 226 150 100 68
344 83 236 103 29 41
343 93 241 112 73 60
346 83 232 103 27 38
309 11 275 124 39 41
269 628 334 122 28 47
350 393 302 121 96 68
329 866 386 33 31 33
403 724 246 98 74 52
347 80 229 105 19 40
347 84 230 110 16 39
214 648 216 125 87 59
193 578 201 124 89 67
347 88 230 116 19 43
301 782 218 63 50 49
350 183 251 119 97 72
398 720 233 133 100 75
346 87 232 104 37 38
364 869 356 67 60 55
384 868 301 87 69 60
359 738 316 158 18 51
347 93 226 123 84 70
324 578 332 130 12 41
340 83 242 107 16 39
263 243 285 116 92 64
240 900 283 162 111 83
341 88 242 96 28 35
327 98 199 131 15 39
355 358 261 117 94 67
394 420 233 178 14 14
327 103 200 134 19 39
326 98 202 124 15 39
324 98 206 119 11 38
327 108 200 140 25 44
295 538 335 49 23 27
326 108 202 133 21 39
299 353 248 70 60 51
329 878 411 69 57 51
261 158 273 115 92 66
334 111 198 132 99 77
307 846 299 75 62 50
322 103 214 97 48 40
344 363 241 115 94 69
323 108 211 129 32 44
392 431 332 67 13 22
269 83 274 116 28 45
324 258 281 115 92 66
334 148 218 134 100 61
325 112 216 135 94 73
343 891 327 54 48 44
343 107 222 122 89 69
329 643 247 83 28 36
299 298 266 99 82 66
389 638 280 138 102 83
323 109 221 133 90 69
329 113 206 141 81 67
328 114 210 138 89 70
406 523 270 88 24 34
327 115 215 132 92 71
316 198 259 106 85 61
256 601 218 192 7 44
184 808 251 187 127 99
449 498 282 141 104 87
327 118 215 125 89 60
326 118 218 118 88 56
309 717 230 71 38 37
264 73 274 120 17 43
324 123 221 117 90 58
328 123 215 133 95 61
299 793 316 59 49 44
326 128 218 124 93 58
329 128 216 136 98 61
379 593 292 139 18 44
272 299 248 100 84 66
335 113 211 144 96 74
430 573 255 166 118 84
339 418 312 94 75 55
334 118 212 152 106 73
297 338 256 67 57 47
327 456 313 118 90 67
336 118 214 134 103 69
179 533 196 123 76 65
333 122 213 151 106 71
354 573 226 165 17 45
271 304 249 98 83 68
231 535 314 37 26 27
334 123 215 142 103 68
339 98 196 150 29 48
259 928 266 88 78 78
345 483 346 80 17 30
187 748 256 157 112 81
323 806 198 104 76 53
234 523 171 163 12 43
338 103 197 145 33 47
279 613 337 46 26 30
286 418 276 57 44 33
337 438 218 118 14 28
343 98 201 142 25 46
474 843 331 103 91 81
218 614 250 101 25 41
263 389 232 95 83 71
341 103 199 140 28 43
338 108 198 130 36 39
279 608 337 79 23 35
344 283 237 147 103 69
395 723 286 169 115 87
409 838 401 70 56 54
300 508 375 134 20 45
339 112 201 154 43 59
255 841 332 119 97 73
218 913 311 92 76 65
300 787 319 64 53 48
343 108 202 136 25 42
249 903 376 61 51 46
345 98 206 141 30 50
339 109 211 129 86 72
339 108 216 128 92 71
311 349 243 85 73 61
233 852 305 125 101 75
344 107 211 130 47 53
343 106 216 129 74 63
307 901 268 71 63 63
340 113 221 114 87 60
355 648 271 44 30 32
342 113 223 118 89 63
271 401 219 93 79 65
346 98 216 119 81 66
339 748 198 79 60 48
296 812 223 54 46 44
374 743 297 128 93 67
385 443 301 131 8 40
420 884 347 66 55 48
347 98 222 126 65 61
347 101 222 123 17 41
324 353 240 94 80 67
338 118 217 119 94 64
333 826 222 70 56 51
340 118 221 112 89 63
329 183 266 113 92 70
255 893 276 75 64 58
342 118 223 116 92 65
338 123 217 122 97 66
380 503 297 163 9 53
340 123 221 111 89 64
338 128 218 127 99 66
319 248 276 113 92 68
317 148 236 104 84 61
340 128 221 119 95 67
214 733 296 111 18 41
334 148 258 114 92 67
342 123 223 112 90 64
277 280 270 112 87 60
304 313 247 85 73 61
159 518 186 171 116 89
182 778 257 159 114 81
342 128 223 118 94 67
316 485 374 99 13 34
347 558 346 109 21 40
288 467 138 175 4 37
454 799 381 98 78 59
321 113 249 112 89 66
329 108 252 116 93 67
277 88 269 120 83 69
322 231 273 112 90 66
205 603 211 114 77 59
354 418 306 71 59 46
329 113 252 117 93 67
284 638 334 45 28 32
362 496 338 26 21 24
333 98 249 115 90 66
358 378 266 109 88 65
336 98 248 113 86 65
274 283 248 103 83 61
289 29 288 132 59 62
369 448 330 55 27 25
240 533 325 47 27 29
336 103 248 121 98 73
334 108 250 117 94 68
348 851 253 70 58 57
413 423 280 54 27 32
282 353 294 118 76 58
271 193 268 111 88 61
370 673 281 47 33 24
412 661 263 164 113 81
336 108 248 115 93 68
343 850 411 51 44 38
411 468 273 91 22 35
317 871 384 34 31 33
334 203 223 124 98 64
366 444 321 54 34 27
289 493 152 113 25 39
322 118 224 112 86 56
380 458 371 96 2 29
329 118 252 115 92 66
339 343 242 115 93 67
396 554 275 67 26 35
324 123 252 110 87 62
324 128 251 107 85 60
390 429 371 53 15 30
313 193 251 107 85 61
220 553 315 165 17 53
329 123 253 114 91 66
334 118 251 116 92 65
368 478 346 47 18 27
334 123 252 115 92 65
423 832 403 86 67 60
309 863 411 58 47 41
343 98 240 113 30 45
264 802 228 76 61 55
344 103 236 123 92 71
342 103 240 120 95 70
343 113 226 112 87 60
404 427 366 40 24 26
342 108 240 120 97 71
263 458 305 32 24 25
344 113 236 121 97 70
342 113 240 118 95 69
188 728 256 159 111 83
344 499 203 110 9 23
320 468 341 85 21 33
350 634 255 123 28 42
347 98 230 122 34 48
379 458 351 47 20 27
271 250 244 119 91 59
360 891 322 41 36 34
450 493 246 106 92 78
346 99 232 123 14 42
374 758 224 63 48 40
284 563 191 75 36 39
314 904 396 61 54 53
345 103 231 125 70 61
379 463 371 99 2 28
345 98 236 116 20 42
345 108 231 122 97 70
188 708 230 152 100 70
344 113 231 118 95 70
339 98 246 111 56 54
339 523 335 58 22 29
378 463 361 57 18 27
339 108 246 118 96 72
288 750 333 68 55 51
212 939 357 55 52 53
344 488 341 79 1 26
341 108 242 117 94 70
244 663 246 93 19 31
343 118 241 118 96 71
170 562 193 163 113 82
357 733 197 73 55 40
294 473 145 163 10 38
343 128 226 116 93 68
320 223 270 111 89 65
240 668 247 85 25 32
353 597 345 165 22 55
365 412 266 74 65 58
345 123 236 116 94 70
183 597 228 120 92 70
349 907 326 74 65 63
344 123 241 117 95 71
414 439 245 83 26 30
274 653 333 167 23 55
345 128 241 115 93 68
194 743 222 133 96 61
351 328 254 120 94 64
340 118 246 116 94 70
271 353 303 132 91 69
363 434 324 58 37 25
342 119 244 118 95 71
259 964 305 90 87 90
320 453 309 127 96 75
337 118 249 116 93 68
439 528 275 166 120 95
340 122 247 114 92 68
309 863 476 94 75 59
274 373 301 131 92 71
295 368 256 57 56 46
400 708 282 172 117 88
341 127 248 114 92 67
236 688 247 44 35 38
352 70 208 131 31 48
320 10 294 143 36 58
446 529 261 184 126 96
259 133 237 121 89 52
264 143 241 118 90 56
266 132 244 121 91 57
226 695 304 39 26 31
289 9 291 126 53 56
268 133 256 109 83 56
318 188 229 125 97 61
366 411 261 74 66 59
266 138 244 121 92 59
329 881 317 37 36 36
264 38 282 125 41 54
399 788 255 97 69 56
268 138 246 122 93 61
268 143 251 110 87 60
268 138 251 113 89 60
226 930 288 63 58 60
279 473 297 78 13 29
315 279 284 105 85 62
349 463 218 104 19 22
397 896 349 56 46 40
279 453 297 36 26 27
427 448 256 77 21 29
268 138 256 107 83 57
268 143 256 107 83 56
310 31 269 118 84 73
409 830 389 97 78 61
262 225 284 113 90 62
279 428 296 70 53 33
277 288 252 99 81 60
259 148 236 122 92 55
259 153 237 123 93 55
264 153 241 117 91 57
222 739 312 184 14 58
310 233 261 112 89 64
259 158 236 125 95 57
289 633 236 123 15 38
264 158 241 119 92 57
268 148 246 117 91 60
279 413 201 92 77 60
230 658 261 148 6 45
318 425 167 91 68 49
266 153 244 116 91 59
389 478 341 110 26 43
268 153 251 111 88 62
262 885 364 73 61 49
348 373 242 113 92 69
308 273 245 95 76 54
269 398 226 93 79 65
327 177 263 111 90 67
268 153 256 108 85 58
364 434 321 57 39 27
266 159 244 116 90 57
206 612 278 137 0 38
339 303 240 129 98 62
251 634 324 54 27 31
347 563 346 132 14 41
308 333 245 82 71 59
299 592 212 143 23 45
358 243 261 122 96 65
271 291 293 107 84 58
264 163 241 120 92 57
375 888 440 87 69 56
303 883 252 73 65 65
262 168 238 127 97 60
265 168 241 120 93 59
259 365 238 88 78 68
259 173 236 130 99 62
238 692 322 36 29 30
309 413 301 121 87 70
324 163 257 102 81 60
275 510 317 40 26 25
262 173 238 128 98 59
268 163 246 114 89 59
267 168 243 115 90 59
214 753 301 143 22 47
264 908 251 87 75 75
270 26 295 142 42 63
269 168 251 113 89 62
358 233 241 123 97 67
271 173 251 114 90 63
218 913 362 162 123 104
271 173 256 110 87 61
310 198 236 112 90 65
303 502 163 47 35 40
262 178 238 130 99 61
193 650 214 178 115 84
310 198 241 108 87 64
277 299 289 107 81 53
265 178 240 128 98 61
263 718 338 173 12 56
350 273 272 129 97 63
262 183 238 122 95 61
229 812 289 63 52 47
284 408 231 85 70 54
329 733 210 65 50 41
265 183 240 124 96 62
323 424 176 91 56 44
263 193 237 114 90 60
354 448 223 60 37 35
193 584 220 80 57 40
224 766 224 100 74 43
265 188 240 117 92 61
265 193 239 114 90 61
268 178 242 121 94 60
293 423 271 78 56 45
306 495 379 72 13 28
269 183 242 123 96 62
261 378 308 138 100 71
279 504 305 93 17 34
299 28 281 137 77 70
271 176 255 111 87 60
289 483 146 179 7 39
229 768 222 110 82 49
268 193 242 117 91 61
299 503 346 90 22 40
300 948 346 51 47 47
271 193 244 117 91 61
390 433 351 83 12 29
272 178 247 117 91 59
309 12 292 99 38 41
273 188 247 120 93 60
221 865 326 133 109 87
319 133 236 104 82 57
409 613 280 149 106 81
254 545 179 81 24 36
319 138 231 111 87 60
320 143 226 115 90 61
238 898 286 173 129 100
324 299 299 112 87 61
484 787 374 95 83 73
279 408 216 89 75 61
357 394 294 120 95 67
299 28 271 128 63 62
318 143 231 111 88 61
350 243 229 133 101 61
408 483 241 107 19 37
319 138 236 105 83 60
229 623 311 65 29 35
318 143 236 104 84 61
234 823 286 73 59 54
320 138 246 106 83 59
251 851 262 200 138 105
319 143 246 104 81 57
317 148 231 109 86 59
403 713 266 140 98 65
272 330 304 117 82 58
320 153 226 113 88 59
316 150 231 109 87 60
306 223 242 108 87 63
236 611 233 172 0 40
319 148 246 103 82 58
369 873 401 82 67 59
229 558 316 119 19 42
233 554 195 180 7 39
316 153 232 108 86 60
269 208 241 121 93 58
436 554 255 180 126 96
317 151 236 104 84 61
317 153 241 104 83 61
420 463 268 82 19 33
350 183 231 121 97 69
320 158 227 115 89 57
305 885 351 34 33 35
225 553 202 145 14 39
318 158 230 110 86 57
289 748 336 69 51 49
381 713 230 80 62 45
316 158 232 109 86 60
316 158 236 104 84 62
388 543 242 168 20 40
330 236 223 133 101 61
289 23 261 104 21 22
320 148 250 103 82 60
362 498 213 127 4 28
320 153 251 104 83 59
303 22 291 151 66 71
275 253 266 120 92 64
419 608 252 158 111 77
300 378 295 121 83 67
227 654 298 40 31 34
317 158 242 103 83 60
404 872 351 55 48 43
318 158 246 102 81 57
316 163 232 110 87 60
318 168 230 112 87 56
315 168 241 102 82 60
350 678 260 71 35 32
318 173 230 113 88 57
217 640 218 130 96 70
211 648 214 132 92 66
320 173 227 123 94 59
319 283 290 101 83 63
374 858 365 69 59 50
332 586 218 100 16 34
314 173 236 105 85 61
314 173 241 103 83 61
274 943 281 89 82 81
317 161 243 102 81 58
402 703 262 143 99 68
442 538 257 160 114 81
348 612 339 184 20 60
294 788 227 65 53 46
316 164 245 102 81 57
264 628 236 132 13 39
385 428 292 126 21 45
318 163 251 104 83 60
284 398 271 83 59 45
317 166 248 104 83 59
318 168 251 105 84 61
351 544 341 54 24 30
347 308 279 130 100 66
315 173 246 103 82 58
325 438 176 76 24 37
316 169 249 104 83 59
311 188 236 108 87 63
263 173 274 113 90 64
373 433 296 79 24 34
310 193 236 113 90 65
315 178 232 111 88 60
328 457 346 63 23 28
314 183 231 114 90 61
349 453 221 88 24 29
320 178 227 124 95 58
318 184 229 124 96 61
320 183 227 127 97 60
387 488 351 102 29 42
294 558 190 112 33 43
313 178 236 105 85 61
214 718 286 90 25 38
357 365 267 115 91 64
315 869 245 71 60 60
312 183 236 107 86 62
317 476 348 89 14 28
314 193 231 118 93 64
409 663 261 149 104 69
319 193 227 119 93 60
294 934 372 53 46 43
312 187 234 111 88 62
269 508 306 41 26 27
311 189 245 103 83 60
220 783 300 81 62 57
391 609 266 79 49 35
372 553 313 46 31 36
381 574 293 169 24 57
275 411 204 93 78 62
311 193 245 106 85 63
432 582 263 166 114 83
374 853 301 56 47 42
275 474 139 175 4 38
322 152 253 106 85 61
314 178 246 103 83 59
223 678 296 69 29 36
240 693 325 48 30 33
313 183 246 104 83 60
324 923 336 60 53 49
315 183 251 106 85 62
334 223 276 117 95 70
214 673 220 139 95 66
431 510 265 92 76 59
324 502 386 106 28 42
317 176 253 105 84 61
334 218 222 130 99 61
318 178 256 106 85 62
316 179 254 107 87 64
298 922 384 59 51 47
289 543 332 69 18 29
361 673 297 59 28 33
345 158 226 116 93 65
370 593 298 71 25 33
449 800 376 111 85 57
312 188 247 103 82 59
272 83 274 113 51 50
422 473 261 75 22 32
315 193 256 107 85 61
317 203 229 120 94 62
419 763 270 86 65 48
295 353 266 70 56 43
194 713 260 145 106 81
259 198 235 121 96 64
319 653 243 47 34 38
263 198 237 119 92 59
266 458 303 39 26 25
259 208 235 127 98 63
279 663 237 129 9 33
264 203 237 124 96 61
266 202 239 122 94 60
350 348 250 112 92 69
266 208 239 125 95 59
323 243 277 113 91 68
405 788 273 72 57 48
271 197 244 117 92 60
344 733 196 66 50 41
257 211 233 129 100 66
469 468 251 75 60 43
308 16 269 132 42 45
264 213 237 127 98 62
257 218 233 130 100 66
394 763 236 68 51 41
184 578 221 101 76 59
259 218 234 128 99 64
264 938 267 108 94 87
324 398 309 127 94 70
337 751 199 83 60 48
259 223 234 130 100 64
221 646 273 50 25 34
424 578 276 147 103 77
264 218 237 127 98 63
272 183 264 112 89 62
361 393 271 110 89 66
188 793 240 167 111 78
263 223 237 128 98 63
266 212 239 126 97 61
405 493 277 128 14 41
362 556 359 179 20 56
329 43 262 119 76 64
429 563 251 164 115 84
395 428 321 116 11 38
470 473 241 140 96 79
266 218 239 127 97 61
338 138 254 114 92 66
319 287 292 105 85 62
269 218 241 124 95 59
166 573 214 149 105 81
266 223 239 128 98 62
349 448 222 70 28 31
408 518 266 78 29 33
269 223 241 125 95 59
271 217 244 121 92 58
364 488 326 30 23 23
354 208 246 119 96 70
274 198 251 117 92 63
274 198 256 110 86 59
348 28 261 124 49 56
363 404 252 106 87 72
274 203 251 118 93 63
398 457 370 60 28 33
414 579 252 131 102 70
273 213 246 120 92 59
272 220 243 124 93 57
310 934 357 59 53 50
294 10 296 129 43 57
358 238 241 123 97 65
274 223 246 125 93 57
315 203 260 107 86 63
266 258 283 118 94 65
356 640 269 89 23 37
358 238 251 124 98 69
296 315 267 84 69 54
294 9 286 123 45 50
275 218 251 119 93 62
425 448 262 31 27 26
285 578 334 71 27 33
356 269 262 128 96 64
358 238 256 125 99 68
352 303 256 127 97 66
315 503 170 47 38 41
344 18 280 120 58 60
275 218 256 115 90 61
379 868 295 74 59 54
435 819 371 102 84 70
257 227 233 132 101 64
296 851 308 68 58 47
415 890 341 80 68 62
281 380 264 77 61 46
256 230 234 133 102 65
265 148 267 116 91 63
230 532 182 176 12 44
259 233 235 132 101 65
263 228 237 130 99 62
449 502 246 153 103 80
202 582 275 94 23 34
263 233 237 131 100 63
347 184 259 117 94 68
266 228 239 128 97 61
283 398 276 93 64 50
344 403 235 119 94 65
334 248 226 134 100 60
321 929 326 60 54 51
384 493 234 119 11 29
269 228 241 126 96 59
309 373 241 85 74 63
371 420 233 122 14 18
265 238 239 131 99 62
288 423 271 54 42 33
302 333 293 108 75 55
444 528 271 174 122 94
269 238 241 128 96 60
259 248 237 132 101 65
214 653 215 123 86 60
360 793 220 80 61 51
380 419 276 82 45 39
261 244 239 132 101 65
352 490 208 40 37 38
263 242 238 132 101 64
261 247 239 131 101 66
269 248 242 122 93 61
362 851 386 38 34 33
269 253 242 117 91 61
283 877 217 104 82 70
279 443 127 123 32 45
295 743 340 164 23 54
272 228 243 124 94 57
274 228 246 125 93 58
312 216 258 108 86 62
231 632 309 56 26 31
273 233 242 125 94 58
276 228 251 120 93 63
217 949 332 64 60 61
324 388 230 93 79 65
275 228 256 117 90 62
275 238 251 122 92 61
254 539 174 188 8 44
274 248 246 120 90 60
413 453 247 96 12 31
189 563 206 115 72 59
394 468 361 68 34 40
289 19 302 149 97 79
275 243 251 119 91 61
275 243 256 115 89 60
299 298 256 83 71 58
275 248 251 116 90 61
355 463 346 71 4 23
415 454 250 128 9 29
372 498 223 133 4 31
274 253 246 116 89 59
439 528 250 189 136 108
377 562 243 164 19 39
322 606 338 137 16 40
345 208 268 121 98 72
275 253 256 111 87 61
243 623 239 169 0 40
200 822 275 186 136 112
267 264 284 116 91 62
311 194 233 116 93 67
274 483 299 29 26 26
259 888 366 75 64 53
311 203 232 116 93 66
353 623 252 123 27 41
219 832 270 54 39 44
310 203 236 111 89 64
309 203 241 108 87 64
314 198 231 117 93 65
266 162 268 111 88 62
269 845 249 161 110 88
329 833 231 66 56 53
277 398 294 121 82 64
437 552 274 168 116 94
319 198 227 117 92 61
338 699 334 130 2 41
314 203 230 118 93 65
304 872 391 40 37 37
329 418 311 110 85 61
404 523 266 78 28 34
314 208 231 118 93 64
369 488 221 69 32 35
317 208 229 122 95 63
283 308 261 95 77 57
311 199 249 106 85 62
288 962 311 90 83 85
311 203 250 106 85 61
172 633 226 162 116 89
344 473 212 100 22 27
211 523 304 42 29 31
424 428 243 145 25 35
311 208 251 106 85 62
311 503 384 89 26 37
312 196 248 107 86 63
314 198 256 107 86 61
312 203 252 107 85 62
387 626 273 80 52 39
313 203 256 108 86 62
354 348 271 124 99 70
321 286 238 131 97 65
327 480 183 66 33 35
312 208 256 107 86 62
353 313 266 126 98 66
218 614 307 102 32 44
311 213 233 114 90 63
478 847 317 85 70 55
448 523 266 174 122 91
307 218 241 108 88 64
322 218 224 131 100 62
368 872 392 60 51 49
186 683 245 150 108 81
266 128 268 120 93 65
403 863 370 71 57 56
285 504 310 65 24 30
309 218 236 110 88 63
385 839 294 55 42 34
311 218 233 114 90 62
280 353 251 72 62 51
193 518 256 88 23 37
286 64 266 119 82 66
209 738 219 131 97 64
311 223 233 116 91 60
263 29 287 134 40 56
314 218 231 122 94 61
396 520 239 125 22 39
352 531 203 117 29 42
347 540 333 55 22 31
314 223 231 123 94 59
264 514 321 56 19 26
319 218 227 128 98 61
369 452 321 57 27 26
361 743 312 77 26 36
311 209 254 107 86 62
429 800 266 88 68 53
375 878 319 67 58 49
482 841 330 102 86 70
308 222 246 105 84 61
377 696 254 101 79 53
352 302 253 136 100 70
306 224 245 107 87 64
222 742 223 132 94 65
334 792 205 81 62 53
319 338 242 93 79 64
333 358 238 101 85 70
310 218 256 107 85 60
308 223 251 103 82 58
348 459 218 104 17 23
341 645 254 59 31 31
303 874 422 58 51 46
324 278 235 134 99 65
310 223 256 108 85 60
289 708 230 98 27 34
454 513 266 186 128 103
375 478 230 55 37 41
308 228 236 113 89 62
309 233 236 115 90 61
349 258 231 142 102 64
307 233 240 108 86 61
277 320 248 88 74 60
269 455 129 50 38 41
377 811 243 79 59 52
311 233 233 120 93 61
294 883 246 75 65 64
316 495 359 62 25 29
309 238 236 116 90 59
344 719 196 83 58 37
307 238 240 108 86 60
314 233 231 126 96 60
319 513 176 153 9 36
282 383 289 116 78 60
214 768 219 151 106 74
329 313 239 118 92 63
269 493 301 39 26 27
248 862 290 117 87 58
264 942 277 97 88 86
319 233 227 132 100 61
345 153 226 117 94 68
310 550 189 78 24 30
317 230 229 131 100 63
287 690 233 82 29 27
215 748 301 136 13 42
379 783 226 74 56 47
458 503 251 186 125 102
315 238 232 127 97 60
320 238 228 130 99 59
306 228 245 106 86 62
455 484 276 116 78 69
307 228 247 104 84 60
242 755 223 43 40 41
242 815 293 63 51 49
306 233 246 106 85 61
307 228 251 105 83 59
304 648 240 111 25 37
306 233 250 103 81 58
307 233 252 106 84 60
306 239 242 106 85 62
192 573 201 123 86 66
360 523 346 73 25 35
306 238 251 105 82 58
333 513 192 132 1 32
306 240 254 110 87 63
380 874 320 67 56 47
310 243 237 119 92 59
161 546 193 165 112 83
310 248 238 119 92 58
322 473 362 57 25 29
224 938 291 73 65 64
351 548 354 132 17 44
324 422 191 77 51 43
308 253 240 114 89 60
264 923 261 94 83 81
319 248 230 131 100 63
315 243 233 129 98 60
347 551 337 38 29 28
313 248 235 125 95 59
316 248 233 128 98 61
394 455 289 35 30 30
348 753 330 86 29 39
319 253 231 129 99 64
306 243 242 109 86 59
321 489 359 67 12 26
306 248 243 112 88 59
306 243 251 104 82 58
312 233 263 112 90 65
158 528 190 156 109 81
331 488 191 58 27 33
263 203 280 115 91 64
318 932 341 67 59 56
306 243 256 107 85 61
369 618 271 78 33 40
342 214 223 130 100 62
324 133 221 119 91 60
309 608 333 69 30 35
400 425 359 68 32 32
329 133 217 134 98 60
171 610 224 147 108 80
291 875 399 65 57 52
329 34 268 127 35 49
326 133 218 125 93 57
324 138 221 121 93 60
423 872 300 78 63 61
324 143 221 123 95 62
348 168 251 119 96 70
329 138 217 134 99 61
326 138 218 127 95 56
421 638 271 169 116 84
299 11 306 133 44 57
334 413 311 101 81 58
326 142 218 131 99 60
348 183 227 120 96 66
164 517 183 167 117 91
380 633 270 69 48 32
334 133 216 139 103 65
334 138 217 137 102 63
334 143 217 135 101 62
359 428 229 65 29 31
396 720 237 132 95 66
328 149 219 134 102 62
329 153 219 135 101 61
272 213 269 117 93 65
395 723 236 123 91 59
314 878 366 34 33 35
329 158 219 135 101 61
264 723 338 182 7 59
281 403 231 86 72 58
330 151 218 137 102 64
324 26 280 133 58 60
336 149 219 133 100 60
334 158 219 132 99 60
315 433 305 123 91 71
340 133 220 123 97 66
226 706 246 89 41 43
404 653 280 177 130 103
312 298 244 90 78 65
276 258 256 114 89 61
342 133 223 119 95 68
299 663 239 50 34 34
276 717 229 120 23 27
347 543 333 75 23 32
176 516 198 89 54 43
338 138 218 132 102 66
335 508 336 33 24 24
184 604 199 165 115 80
384 886 309 80 68 65
337 143 218 133 103 65
340 143 220 125 98 65
447 818 418 84 60 48
342 138 223 119 95 66
274 41 284 113 73 61
373 852 370 66 56 48
390 434 336 61 18 26
302 328 292 103 73 53
342 143 223 117 93 66
337 146 218 133 102 63
342 158 223 123 97 64
322 133 224 116 91 60
274 208 261 114 88 61
323 203 224 123 97 65
322 142 224 117 92 64
328 129 254 114 92 66
451 489 280 99 67 50
281 864 248 55 49 53
259 844 335 117 95 72
327 132 253 113 90 64
344 469 353 45 25 25
321 138 249 105 83 59
249 963 306 86 81 83
323 138 251 107 84 59
323 143 252 106 83 59
326 138 254 109 86 60
409 423 282 49 27 32
277 452 299 36 28 27
329 143 256 112 89 64
270 344 244 80 70 61
368 458 340 51 17 22
218 820 283 69 50 50
333 130 254 115 92 66
334 133 254 114 91 66
283 548 328 68 21 32
364 408 271 86 74 61
322 158 224 122 94 59
342 491 340 75 4 25
323 148 252 106 85 62
321 159 254 102 82 59
404 723 241 92 68 51
322 156 253 103 83 60
343 133 226 118 95 68
387 432 322 85 6 34
313 865 410 61 51 46
344 143 226 117 94 67
259 515 159 109 36 42
398 448 351 171 13 54
307 23 261 106 38 42
345 133 231 115 94 69
387 468 295 150 10 47
345 133 241 115 93 69
281 368 293 120 81 62
264 828 236 75 62 59
265 574 324 49 23 29
349 463 355 45 22 27
281 373 256 70 58 46
245 757 224 63 40 44
347 140 240 113 91 67
347 143 238 113 91 66
347 143 241 114 92 68
264 338 241 84 74 64
232 580 214 117 40 58
316 257 233 129 99 63
344 133 246 113 91 67
414 783 257 98 74 58
309 403 225 89 75 60
339 133 251 113 91 67
334 348 240 105 87 68
196 788 279 156 123 94
342 134 249 114 92 67
287 864 320 64 55 47
339 143 255 114 91 66
319 420 191 83 62 50
344 143 251 115 92 67
385 814 303 156 113 88
341 142 253 114 92 66
309 411 215 88 73 57
410 503 278 131 13 43
347 144 245 115 93 68
304 883 416 48 42 40
309 863 301 33 31 31
334 368 306 127 97 67
345 148 226 117 95 68
161 562 202 172 116 91
325 870 377 34 31 34
284 313 266 90 73 55
346 152 230 118 96 71
314 488 381 55 27 29
274 323 301 120 81 60
274 590 209 201 10 50
347 150 233 116 95 70
249 846 338 132 108 83
347 153 232 118 96 71
306 268 247 95 76 53
339 153 257 115 93 68
343 153 255 117 94 68
406 765 262 124 86 66
343 158 255 115 92 67
224 548 316 46 25 30
287 566 193 159 49 71
347 148 246 117 94 70
346 147 248 118 95 71
348 153 246 116 93 68
179 593 225 126 95 72
295 960 336 62 56 55
273 343 246 77 68 58
347 154 250 119 96 70
314 782 217 61 50 48
385 513 293 131 3 40
263 208 280 115 92 65
348 158 246 115 92 67
253 608 323 152 20 51
387 463 306 90 20 37
347 158 250 118 94 68
396 780 244 85 69 56
272 302 248 98 83 67
346 158 253 117 93 66
284 503 341 36 28 26
290 436 134 77 63 46
325 168 223 130 99 61
325 208 270 111 91 68
329 168 221 133 101 61
389 834 396 75 64 54
264 466 133 179 10 39
405 768 266 98 76 58
334 163 220 131 99 60
334 173 221 132 101 61
294 407 231 85 69 51
392 567 281 120 17 37
329 183 222 133 101 62
326 193 223 123 96 61
382 652 254 106 80 49
269 768 320 64 54 49
329 193 223 128 99 62
334 178 221 133 102 62
334 188 222 132 101 61
203 573 281 76 23 38
339 163 221 131 100 60
236 626 243 162 4 37
384 458 296 144 16 47
339 168 221 131 99 60
363 420 300 66 55 44
338 333 243 125 98 67
417 836 373 80 65 56
297 328 266 78 63 49
343 163 222 127 99 64
412 456 247 90 8 35
222 701 259 90 21 35
342 168 222 127 98 62
274 608 221 108 32 42
373 832 256 95 68 60
351 343 254 115 93 68
339 178 221 133 102 62
329 53 259 122 18 45
353 762 203 77 57 46
325 625 239 61 32 36
383 436 326 48 22 26
343 188 223 133 102 62
242 595 219 186 5 41
229 878 296 159 118 87
339 878 401 52 45 41
343 193 223 132 101 60
321 163 255 103 82 59
305 268 251 93 76 57
343 514 198 48 35 35
323 178 225 130 99 61
279 423 166 88 73 56
221 546 203 136 11 31
324 183 225 131 100 61
361 537 364 45 28 28
323 193 225 121 95 62
274 718 227 108 25 29
327 188 224 132 100 61
391 429 352 80 17 26
378 797 232 87 64 55
294 426 159 83 67 50
345 163 226 117 93 65
211 617 226 93 45 39
347 163 228 117 94 68
297 318 251 72 62 53
353 778 211 61 49 45
209 618 231 83 46 34
348 163 231 119 96 70
345 168 226 118 94 66
347 168 228 118 94 67
343 228 274 119 95 69
266 188 273 110 87 60
319 618 341 73 29 35
334 405 233 107 87 64
298 852 430 55 43 37
382 497 321 144 20 49
349 168 241 116 93 68
192 815 249 198 135 104
424 442 247 141 19 35
274 434 131 90 73 52
347 173 228 118 94 67
349 173 231 120 97 70
374 493 372 98 23 39
253 604 224 186 6 41
350 173 236 122 99 74
238 633 313 47 26 31
350 173 241 118 95 69
324 618 235 74 35 40
348 163 251 118 95 69
259 13 291 87 42 43
205 598 221 90 54 41
288 38 257 118 23 30
344 163 256 117 94 68
269 10 286 100 64 54
383 453 356 36 24 23
321 480 379 29 26 29
346 162 253 119 96 70
288 522 168 183 9 40
303 313 286 93 66 46
347 164 254 120 96 70
347 168 254 118 95 69
254 733 337 192 2 63
231 678 257 68 37 41
349 173 246 117 94 68
298 738 229 53 35 38
319 333 306 128 94 68
349 173 251 119 96 70
299 473 302 111 1 34
217 538 205 161 10 36
345 178 225 125 98 65
408 504 279 142 11 45
348 178 227 119 96 68
286 842 238 60 51 47
373 442 302 55 33 27
305 258 251 103 84 62
379 673 285 115 84 67
351 178 236 123 100 74
369 418 281 73 53 48
351 178 241 117 95 69
394 543 266 40 30 33
351 218 229 124 98 64
351 182 236 123 99 73
351 182 241 118 95 69
324 233 275 114 92 69
385 875 324 68 59 51
346 188 224 129 99 60
297 333 266 76 62 48
348 188 227 122 96 64
258 213 285 119 95 68
345 193 224 131 101 62
259 430 137 91 74 55
315 228 266 112 90 66
351 193 230 123 97 67
307 511 168 90 20 26
351 183 246 118 95 69
348 178 256 118 95 71
357 223 246 118 95 69
386 445 362 61 16 29
351 187 247 118 95 68
233 683 312 62 26 33
284 463 136 174 6 36
351 188 251 118 95 69
299 762 330 67 56 51
334 293 238 139 105 73
288 828 235 63 53 52
344 459 373 89 16 29
350 188 256 121 97 70
352 184 236 123 100 74
352 184 240 119 96 71
352 188 241 118 95 69
349 888 321 45 40 37
298 303 266 96 80 66
353 193 241 119 96 70
258 908 403 58 52 50
345 738 337 53 27 31
322 926 321 67 59 56
314 368 240 87 75 64
359 704 236 70 45 43
300 303 276 95 72 52
352 193 250 118 95 69
329 198 223 122 96 64
325 203 223 123 97 66
329 203 223 122 97 66
230 694 253 49 30 34
325 208 223 128 100 65
329 208 222 125 99 66
254 946 283 85 76 76
325 213 223 131 101 62
329 213 222 130 100 63
357 458 350 73 4 27
384 533 237 159 17 37
325 222 223 132 100 60
354 763 204 86 64 50
334 213 222 127 98 63
339 198 223 131 100 62
374 848 295 56 48 43
339 218 223 131 101 62
339 223 223 132 101 61
371 474 351 54 18 25
358 748 206 75 58 49
342 223 223 132 102 62
269 508 156 126 23 40
323 198 225 119 94 64
231 521 173 137 9 38
344 208 225 130 101 62
274 698 337 54 25 31
286 413 266 62 48 36
173 603 205 160 110 76
345 198 224 133 102 63
410 509 266 107 16 33
254 713 231 75 27 34
351 198 230 123 97 66
259 443 122 117 35 45
345 203 224 132 101 61
328 705 232 77 34 39
351 203 229 123 97 66
344 563 211 80 34 39
296 378 247 82 65 49
351 208 229 122 97 65
341 211 224 129 99 60
323 494 393 90 26 37
264 63 275 114 85 66
189 678 222 171 113 79
344 213 225 129 100 62
232 650 308 173 10 54
312 906 278 68 61 63
352 318 271 129 100 68
344 218 225 130 100 61
181 775 251 156 110 77
294 403 251 91 70 53
263 518 341 118 19 42
345 223 225 131 101 63
317 248 273 112 90 66
349 213 227 127 99 64
324 763 331 68 55 51
351 308 255 131 99 69
348 223 227 129 99 62
334 228 223 133 100 60
306 721 198 83 65 56
334 233 223 132 100 59
328 690 334 136 17 46
339 228 223 133 101 61
363 588 242 122 25 43
328 173 263 112 90 67
324 228 225 133 100 61
201 553 281 164 1 46
407 678 271 181 121 93
265 288 245 97 81 63
343 484 207 103 18 24
324 233 225 134 101 61
399 483 286 155 7 49
151 516 201 171 123 98
299 414 206 88 73 57
281 75 268 128 16 46
327 224 224 133 101 61
319 10 291 136 37 55
327 228 224 133 101 61
328 233 224 133 101 61
332 483 197 115 9 30
324 11 271 132 47 63
159 548 196 166 112 84
329 238 224 133 101 61
269 758 325 64 55 51
336 235 224 132 100 60
321 243 228 132 100 61
324 248 227 132 101 61
227 883 299 165 122 93
326 200 269 113 92 69
279 934 275 84 75 74
182 668 231 172 123 95
326 466 190 64 28 28
359 483 327 25 23 23
399 511 248 63 24 36
329 243 225 132 100 61
292 743 338 162 23 54
329 253 227 133 100 60
184 763 241 153 108 72
319 308 241 95 79 63
411 754 261 121 87 64
306 500 164 68 35 38
334 243 225 133 100 60
284 11 265 106 78 57
320 422 181 89 64 47
334 253 226 136 100 61
309 638 336 133 29 49
344 233 225 134 101 61
339 234 224 133 100 59
361 874 426 64 53 44
269 668 240 73 26 33
287 414 265 60 47 35
348 228 227 130 100 63
389 528 290 141 6 44
351 228 229 127 98 63
362 856 268 65 53 55
394 618 276 107 75 59
351 233 229 127 99 62
351 239 229 131 101 63
215 718 271 75 31 39
339 243 225 134 100 59
373 538 306 131 18 46
270 357 245 82 72 62
339 253 227 139 102 63
344 253 228 140 101 63
346 25 272 139 21 53
357 890 413 71 60 53
345 254 229 142 101 62
346 702 327 133 9 40
329 193 269 113 92 70
347 248 228 136 99 60
332 453 203 118 15 39
347 251 228 139 100 61
240 612 232 178 1 41
324 718 201 71 51 42
366 855 279 65 52 49
349 253 230 138 102 63
353 198 236 122 98 71
353 733 330 66 26 35
193 673 247 136 105 81
353 198 241 119 96 69
296 518 354 93 13 32
486 834 320 101 85 73
354 208 236 124 99 69
355 208 241 119 96 69
284 443 128 88 40 42
269 10 281 94 59 53
352 198 251 117 94 67
344 885 418 93 83 77
319 876 313 30 32 34
353 203 251 118 95 69
371 548 302 156 19 51
353 208 251 117 94 67
206 603 214 106 67 52
389 628 276 104 74 59
379 768 302 150 111 83
353 208 256 119 95 69
457 502 274 161 120 97
245 668 243 83 31 36
230 608 314 148 30 51
355 213 236 124 99 68
353 223 232 122 96 65
356 383 251 102 85 67
289 868 321 61 54 47
355 218 236 123 98 69
269 168 266 110 86 60
356 218 241 121 97 70
244 843 306 106 81 55
330 483 400 146 20 48
390 874 466 92 74 60
356 223 240 121 97 70
343 718 340 106 21 39
355 213 246 120 96 70
314 713 231 101 34 33
354 218 256 116 92 66
269 13 301 105 62 53
334 528 192 124 6 30
394 416 246 96 24 24
353 233 232 125 97 61
356 228 236 123 97 67
330 362 239 96 82 67
357 229 238 124 98 69
353 383 296 124 97 67
222 763 223 116 84 55
357 233 237 125 98 66
356 238 235 127 98 63
356 226 253 120 96 68
284 25 298 142 105 81
356 228 256 118 94 66
301 870 398 54 47 43
358 233 251 122 97 68
329 668 246 97 23 31
357 229 255 121 96 68
357 233 256 122 97 67
358 243 241 127 99 66
404 758 271 111 78 53
265 378 239 89 78 67
355 891 323 39 35 34
357 248 238 131 102 66
348 474 213 63 29 31
174 528 202 93 59 49
358 248 241 130 101 66
394 733 231 112 84 58
316 213 264 110 89 65
260 183 278 114 91 65
447 526 266 178 124 93
352 253 233 135 103 64
289 623 231 150 12 39
319 448 171 142 2 34
355 253 236 135 102 64
345 293 281 131 98 65
289 443 128 65 40 46
357 253 241 132 101 63
414 788 258 95 74 61
354 444 351 71 21 29
356 254 239 135 102 64
358 243 246 123 97 66
358 248 246 125 98 65
359 248 256 124 98 65
274 718 340 62 26 35
235 527 173 177 12 45
270 550 342 150 18 48
285 408 261 74 57 40
316 906 414 73 66 63
181 667 227 186 126 99
359 253 256 123 96 64
259 14 266 90 67 59
223 908 305 103 85 73
285 10 305 133 50 57
368 488 351 60 17 27
264 11 271 90 67 59
370 855 368 76 64 56
398 437 379 154 19 49
269 12 266 92 79 68
268 11 270 92 75 65
186 703 232 161 107 76
367 502 343 30 26 23
270 10 272 93 75 65
269 513 306 41 26 26
293 428 281 82 58 46
258 804 303 54 44 44
259 11 281 87 37 43
259 12 276 88 45 46
264 11 276 89 54 52
262 365 238 87 77 67
259 12 286 88 37 41
264 11 286 93 49 47
252 546 328 153 18 48
265 10 281 90 47 47
266 10 286 95 54 49
159 518 210 141 106 96
329 30 272 124 66 58
260 20 258 103 90 77
294 408 271 97 66 52
257 21 259 107 91 76
330 298 238 121 95 64
264 17 260 96 83 69
390 554 251 87 29 38
356 406 244 95 83 72
259 33 282 123 27 47
264 33 285 129 42 55
289 413 211 88 73 58
337 556 203 156 12 50
274 14 262 97 85 74
332 429 198 56 38 40
279 14 261 104 88 74
264 453 127 66 36 40
389 728 292 161 114 84
274 10 271 97 79 67
329 393 230 95 80 65
279 10 268 103 81 65
274 10 281 100 69 55
345 313 245 137 104 70
187 733 252 160 110 80
279 9 281 105 69 49
384 478 301 116 15 40
294 893 351 49 42 38
298 864 466 88 69 51
274 10 286 106 72 56
279 9 286 111 70 55
284 9 281 107 59 38
337 911 354 63 56 53
289 9 281 108 50 33
347 889 294 75 64 67
284 9 286 115 60 50
304 308 247 85 73 61
234 923 386 52 50 51
274 17 260 101 87 74
260 867 358 91 75 59
274 19 258 105 90 75
285 863 216 99 83 73
379 508 316 85 21 37
279 19 258 104 71 48
209 648 246 102 73 59
300 812 309 140 100 81
443 496 255 101 83 62
284 18 259 102 36 28
159 533 191 149 105 75
289 463 294 81 16 30
282 20 258 74 19 30
283 24 258 102 30 27
283 28 257 75 34 31
324 630 338 75 31 36
304 874 321 31 31 34
362 874 432 69 56 47
414 488 275 75 21 32
479 789 366 103 84 68
266 884 271 66 52 49
285 28 259 55 43 36
289 28 261 96 28 29
317 879 321 32 32 33
290 33 260 110 26 29
317 208 263 108 86 63
349 504 330 37 19 22
384 898 356 60 53 50
289 33 285 140 32 56
235 517 167 165 9 41
264 13 296 116 86 72
270 10 291 104 71 56
269 11 296 107 75 57
280 413 287 90 63 45
271 10 294 107 74 56
266 14 300 120 85 86
284 318 276 87 63 46
256 18 289 101 53 53
211 618 290 115 25 43
457 481 256 105 79 60
260 18 295 105 53 48
262 169 274 113 90 63
369 831 299 137 94 72
385 463 301 144 13 47
213 908 356 159 120 98
256 22 289 120 18 45
259 23 291 128 25 49
204 618 206 144 102 72
264 23 296 133 28 53
250 853 291 120 89 63
290 500 331 55 26 30
260 26 290 131 37 54
312 482 347 111 2 35
314 498 167 87 35 41
269 22 300 130 32 52
218 804 229 186 125 97
279 713 231 125 16 31
269 28 291 117 69 62
383 802 242 88 63 52
267 30 288 129 34 52
409 623 250 154 108 73
367 443 325 55 35 26
269 33 287 120 41 51
274 10 291 108 73 57
259 369 239 88 78 68
279 9 291 116 70 59
273 11 297 110 73 56
242 935 383 53 48 48
373 568 242 168 18 41
299 608 331 64 29 34
225 607 237 165 6 40
274 12 301 117 78 61
328 259 229 134 103 64
227 567 317 135 13 43
279 11 302 123 68 59
253 560 189 109 29 44
385 448 301 134 10 43
275 14 304 127 86 71
357 673 304 56 25 30
280 30 288 116 62 56
294 416 196 90 75 58
279 13 306 138 89 76
284 12 307 137 66 64
326 615 234 56 33 37
286 12 309 136 35 51
401 788 281 141 94 65
386 560 249 45 34 38
379 633 266 70 54 35
279 20 303 144 98 80
396 443 378 165 20 53
274 38 285 129 28 49
279 23 301 144 103 83
274 26 296 149 25 56
330 878 422 52 44 40
220 528 192 43 33 37
325 467 186 72 28 33
274 29 291 140 31 56
238 637 312 72 29 34
274 33 287 119 47 54
274 31 289 131 43 58
272 183 261 111 88 62
348 338 281 130 102 70
380 884 450 89 71 55
279 26 296 135 44 56
382 436 316 94 4 29
277 31 289 147 24 54
266 88 274 104 45 45
417 613 279 163 115 85
272 25 298 151 23 60
269 368 242 83 73 64
303 343 297 114 79 60
278 26 299 126 88 67
347 243 274 122 96 65
285 20 303 143 100 77
349 718 201 73 59 43
284 23 301 138 94 75
298 758 230 108 26 34
280 876 343 67 57 46
289 22 300 143 95 75
264 849 340 110 89 68
304 347 250 75 65 56
280 25 298 114 77 56
325 545 189 163 12 43
216 870 317 116 95 73
177 523 188 166 115 103
290 25 297 141 101 80
279 18 305 159 115 108
334 878 421 62 54 48
387 562 252 85 30 39
324 453 186 127 9 33
284 17 305 157 115 98
380 633 261 76 60 43
246 626 238 168 0 43
399 418 241 111 23 16
402 517 246 66 26 34
258 39 278 123 49 55
260 38 280 129 30 52
382 566 248 169 20 45
256 46 274 121 8 39
366 483 341 42 20 24
317 478 167 73 30 34
314 248 271 112 90 66
264 43 280 122 99 79
274 258 271 118 91 63
348 193 261 120 97 71
284 483 145 181 6 39
263 48 278 119 37 51
377 503 369 144 30 54
269 38 284 135 18 49
317 486 381 60 26 30
293 497 321 51 28 32
258 58 272 105 30 39
187 719 234 154 103 70
262 199 279 116 93 67
405 768 251 112 82 65
374 874 346 69 62 57
320 503 370 109 13 37
259 63 272 118 32 48
260 58 274 95 60 48
312 506 363 96 8 36
264 58 276 118 92 72
363 643 286 111 24 41
339 863 258 68 58 57
269 463 132 108 30 43
269 53 279 116 63 58
253 839 331 115 95 73
353 444 356 89 16 30
211 763 294 169 128 101
262 70 273 111 8 36
367 553 355 140 23 50
243 634 244 163 1 38
274 348 247 76 66 57
