ply
format ascii 1.0
comment Created by Open3D
element vertex 2216
property double x
property double y
property double z
property uchar red
property uchar green
property uchar blue
end_header
372 56 238 79 49 35
271 624 257 154 112 95
371 64 236 118 51 46
426 432 171 90 70 54
353 105 183 116 24 44
377 60 232 95 31 20
416 780 199 106 77 53
398 821 208 74 56 45
381 55 232 107 90 71
246 769 256 158 117 85
376 804 315 68 59 56
378 51 238 115 99 80
381 50 237 117 99 82
391 399 236 95 81 66
351 14 300 104 49 46
272 399 231 118 94 67
399 811 323 166 128 104
348 343 244 111 80 66
371 89 241 125 38 40
426 709 337 170 111 81
345 474 96 80 33 38
406 442 121 91 73 52
410 394 281 117 93 66
380 53 235 116 100 83
395 844 217 56 48 47
377 268 243 86 72 58
295 874 301 150 119 88
344 416 186 99 83 67
374 939 257 72 63 64
378 56 233 87 68 46
362 310 247 82 71 61
446 569 226 100 25 41
380 59 230 84 35 28
370 149 250 119 90 57
341 709 322 54 27 34
380 62 229 102 29 26
356 441 96 85 56 39
433 876 262 87 77 77
371 50 243 68 44 33
356 443 86 72 50 43
361 169 276 117 95 71
385 714 201 61 46 39
421 434 330 44 26 28
337 113 177 138 96 69
311 613 177 200 19 49
274 382 234 121 96 67
394 361 294 126 98 63
371 804 208 53 44 42
426 444 332 57 26 30
336 69 157 139 28 35
331 74 161 141 22 43
257 827 251 219 147 119
487 940 271 94 78 65
375 363 238 82 71 61
468 505 253 179 7 53
333 72 158 142 20 41
334 304 238 79 68 57
336 74 157 147 21 41
388 910 259 70 63 65
281 399 276 110 84 64
291 899 321 178 124 109
347 364 256 90 69 55
344 299 275 82 66 48
334 76 159 147 12 44
337 89 162 148 15 43
341 794 212 75 59 52
326 109 215 94 73 51
335 80 160 146 12 40
294 677 278 102 22 35
352 794 309 83 65 62
396 590 179 191 16 48
296 509 281 93 15 37
336 749 200 88 28 38
336 418 202 98 82 66
337 78 158 149 14 42
381 154 281 116 93 66
263 584 263 143 101 84
411 699 226 47 35 35
453 524 286 80 30 37
416 409 291 68 61 53
367 93 243 129 66 57
341 975 270 79 75 78
341 69 155 134 32 33
341 79 156 151 12 41
321 74 176 115 28 38
306 449 286 123 1 37
314 849 276 175 130 103
346 70 153 128 31 34
350 70 153 121 25 29
319 492 139 98 17 31
339 114 204 95 76 54
291 349 221 120 96 68
319 259 254 96 77 55
391 427 176 91 75 57
256 779 267 166 127 97
346 75 154 144 19 39
286 254 241 115 92 66
350 72 153 130 17 30
351 79 155 144 17 37
407 706 174 77 57 38
336 84 161 145 12 42
339 324 280 76 59 41
341 184 216 95 77 58
338 82 158 150 13 43
268 445 213 98 28 37
256 734 260 160 114 90
339 324 276 73 59 43
346 869 206 95 76 60
296 424 166 50 38 37
327 300 230 83 71 59
302 963 291 79 75 76
343 619 304 56 25 32
342 83 158 152 10 42
340 85 159 150 12 41
411 509 345 92 26 37
489 463 234 166 4 51
274 619 254 126 90 78
406 374 281 122 95 64
346 112 167 160 49 61
342 319 295 120 87 65
316 799 292 164 125 105
332 89 167 102 65 51
303 464 158 136 19 40
431 923 286 65 55 51
346 84 157 153 9 42
280 504 185 102 26 35
312 494 151 129 4 34
346 104 163 144 17 37
326 794 297 177 132 111
329 952 253 97 88 91
346 88 158 149 12 37
272 492 284 26 25 30
399 210 279 118 95 68
397 525 110 91 31 39
331 110 181 130 91 66
316 319 275 100 74 51
346 90 159 146 13 37
336 13 281 133 80 78
346 94 160 146 16 38
351 94 161 146 27 44
323 304 225 83 70 57
318 146 188 127 101 72
327 69 166 117 61 52
323 69 173 127 41 53
459 547 183 134 21 39
350 94 191 111 70 57
344 113 186 137 100 72
333 499 289 135 0 41
485 943 280 84 71 62
339 224 226 92 74 54
274 629 254 134 98 83
316 849 246 177 118 90
323 79 173 112 36 42
290 504 175 144 5 35
473 494 252 57 21 31
406 79 241 133 18 51
400 334 261 112 91 67
355 249 261 89 73 54
341 129 186 142 104 72
336 417 166 99 83 65
331 739 198 146 2 36
266 414 271 71 57 44
410 683 231 103 50 38
437 462 90 100 36 32
491 436 182 94 22 33
339 224 211 106 85 61
381 799 318 70 59 55
340 399 212 97 82 67
301 566 159 102 19 36
321 79 176 122 29 40
341 469 106 94 22 31
403 802 229 68 56 55
362 420 232 83 71 59
325 74 171 127 46 51
253 725 218 126 94 59
282 539 186 47 35 39
301 354 216 104 87 69
411 554 361 163 116 86
325 79 170 105 41 42
307 258 258 113 90 65
346 954 256 88 82 86
396 229 285 119 94 64
308 159 197 117 95 70
422 774 211 55 47 45
328 79 167 102 62 52
396 434 146 92 75 56
461 498 121 68 34 40
326 754 199 53 36 39
334 100 169 89 55 40
396 509 377 174 124 92
328 69 163 128 40 42
371 109 246 126 81 58
329 75 164 138 46 55
364 500 312 72 29 37
371 309 298 129 94 61
251 514 282 127 76 73
476 428 201 79 30 27
330 79 165 106 60 51
376 184 245 113 88 57
482 485 125 158 24 48
351 29 291 126 64 61
284 449 179 74 35 40
326 568 137 103 31 40
441 529 311 173 11 54
321 84 176 104 48 44
306 459 286 52 23 29
282 279 241 119 94 65
279 433 199 39 36 40
316 434 141 93 32 35
401 437 136 90 73 55
328 83 168 143 19 43
411 799 336 175 131 103
409 487 374 182 125 103
326 89 172 106 47 41
322 94 177 135 66 60
322 574 295 145 6 44
342 119 191 121 92 61
339 228 212 107 85 61
401 738 184 69 52 43
327 93 172 152 18 44
330 84 166 140 23 41
307 288 273 108 85 58
332 94 167 138 23 44
321 967 330 68 62 61
403 209 256 110 89 66
350 79 191 96 18 35
364 582 158 59 34 36
350 89 256 116 30 47
338 93 163 143 18 40
519 956 234 91 76 60
358 405 324 144 14 44
386 48 241 120 104 88
371 109 275 118 95 70
408 69 236 115 38 46
379 622 198 104 28 40
417 817 178 112 85 67
366 854 210 82 64 50
326 99 176 107 55 45
288 245 244 115 93 69
321 859 261 171 117 88
367 605 180 121 28 45
357 459 78 59 34 33
329 96 174 129 98 78
413 832 236 59 50 51
301 415 176 99 82 61
329 99 174 105 61 46
296 830 266 64 51 48
339 862 229 54 46 46
416 729 187 85 63 46
333 98 168 137 38 43
389 129 269 115 91 63
337 104 167 133 18 38
284 259 226 122 95 63
465 821 285 91 72 55
331 109 176 145 95 75
404 268 280 129 96 63
306 389 283 106 79 60
332 108 172 145 48 52
336 109 171 143 62 60
316 709 200 118 15 30
371 404 238 90 77 64
349 112 170 156 63 88
335 111 176 144 100 76
323 102 178 147 18 42
322 108 182 135 101 71
361 289 298 116 92 66
324 105 179 143 65 64
246 544 276 174 120 100
334 111 180 129 91 64
413 574 358 168 120 86
341 329 252 139 101 90
326 113 183 133 100 67
248 770 259 156 116 86
336 339 236 76 65 55
511 943 287 99 84 71
331 114 183 121 89 56
405 209 266 118 94 67
279 719 288 160 7 50
405 410 238 97 81 64
266 669 223 133 94 60
385 74 225 149 9 40
370 409 237 91 77 63
335 114 180 124 92 57
307 524 151 94 21 33
367 214 247 106 85 58
336 119 181 128 98 62
344 360 260 96 73 58
414 688 218 65 47 38
372 107 243 135 55 54
334 459 110 129 17 41
286 304 276 119 90 63
329 119 184 124 96 63
328 129 183 129 102 71
277 405 286 95 38 38
326 509 127 85 25 32
294 934 327 184 138 117
299 946 265 77 71 72
331 129 183 131 102 68
412 695 230 49 37 34
316 474 146 112 22 34
336 129 183 135 102 65
461 427 204 69 36 27
365 314 299 128 91 61
361 24 262 97 73 50
329 122 184 124 98 65
341 99 163 144 18 37
340 100 164 144 19 40
353 97 265 117 87 68
424 578 182 201 20 48
376 464 82 137 1 29
283 304 261 123 91 60
341 104 165 141 16 36
334 304 259 66 54 40
342 102 163 143 16 39
256 699 260 153 109 85
338 108 168 145 14 40
411 439 335 64 18 27
288 649 254 128 11 42
306 524 282 105 17 37
330 494 288 134 0 40
346 30 287 135 41 56
346 319 297 121 87 66
341 109 166 149 19 40
333 250 210 113 88 58
403 704 200 64 47 42
354 444 313 98 22 37
339 111 170 147 80 67
287 424 186 45 36 38
505 451 157 108 43 38
402 58 231 80 32 32
486 489 136 95 32 41
352 966 327 77 72 72
409 483 374 183 126 104
346 418 202 97 81 65
351 99 162 139 35 41
289 233 215 116 93 67
363 154 257 113 90 63
350 103 163 140 22 37
399 189 274 117 93 66
266 469 206 56 33 35
396 164 251 110 88 62
299 417 170 99 61 31
363 879 307 147 113 89
356 969 316 61 56 56
432 679 311 119 89 57
468 438 273 144 5 45
327 270 210 122 90 60
421 734 227 50 41 38
340 324 261 127 91 83
348 111 173 155 116 99
298 350 218 111 91 68
427 835 255 57 47 44
342 956 343 66 60 59
391 907 323 34 32 33
398 164 256 111 90 66
349 94 195 105 76 56
506 474 181 67 33 39
282 394 217 113 92 69
416 544 325 124 17 43
456 784 308 122 80 56
426 448 116 92 71 44
347 111 176 139 99 80
356 934 245 79 72 74
377 603 309 156 6 50
350 429 311 105 19 39
306 149 201 115 94 71
321 609 296 94 25 39
388 98 233 139 15 36
350 103 191 114 43 48
389 79 224 150 13 39
366 464 79 115 22 38
300 959 286 73 69 71
351 108 181 121 42 52
329 384 274 71 52 38
412 414 237 97 82 65
396 304 286 129 97 67
383 926 259 78 66 63
294 199 211 116 94 70
347 106 187 102 68 49
344 109 191 123 87 63
242 584 265 167 118 93
301 274 266 101 82 60
433 790 234 47 41 41
342 112 168 154 55 58
286 684 221 72 31 35
494 497 167 208 18 53
341 112 171 143 95 74
261 419 266 67 48 40
341 113 176 150 104 77
345 112 176 158 115 93
356 74 185 101 21 38
341 119 182 150 111 75
402 794 195 81 63 53
329 278 221 100 79 55
301 324 219 111 88 63
343 116 187 135 99 69
488 491 207 176 26 62
343 119 186 141 103 73
406 568 162 102 33 43
342 124 191 123 94 63
342 129 191 123 94 62
330 229 240 83 68 52
351 909 231 68 61 62
288 360 279 133 99 74
392 94 261 117 84 69
460 514 266 94 24 38
340 619 303 52 27 31
351 339 251 100 78 60
391 423 235 94 79 65
356 74 156 120 34 35
449 484 315 105 15 34
362 103 247 132 44 48
391 189 245 111 91 68
359 78 158 113 25 41
361 74 161 115 22 37
450 739 311 152 106 75
354 87 158 147 21 42
358 894 229 58 53 54
389 46 252 103 90 76
358 81 159 127 20 44
333 417 203 99 85 69
376 209 242 101 81 58
360 83 162 135 20 44
362 69 166 117 24 39
369 425 350 124 6 37
395 249 248 98 81 62
242 799 236 175 119 86
426 699 336 167 111 81
361 79 166 134 20 46
405 84 231 137 28 48
378 84 238 138 21 44
359 194 260 111 89 64
461 874 271 92 78 65
381 109 240 134 47 52
362 74 171 126 12 44
358 75 182 118 12 43
452 874 282 71 60 53
276 584 261 40 26 27
306 464 155 112 20 36
316 479 286 133 2 41
359 77 179 122 3 44
358 80 177 126 2 44
431 414 271 74 58 49
351 364 252 85 68 53
415 634 256 131 26 44
406 905 321 39 35 35
360 84 166 135 17 44
341 354 232 84 70 59
286 239 226 116 93 68
462 875 291 73 62 54
378 79 273 110 20 41
468 795 279 86 68 56
378 880 229 57 53 54
357 89 171 131 13 47
391 44 231 82 63 52
321 434 136 103 26 38
251 669 255 174 125 101
356 89 176 124 6 43
389 170 279 116 93 67
348 94 201 94 58 47
269 474 199 61 34 39
403 648 340 179 137 115
417 438 333 55 23 26
394 254 289 121 93 58
508 442 180 108 32 35
336 422 207 97 81 65
356 94 171 131 16 46
304 869 321 144 67 81
411 609 306 84 25 37
381 314 246 98 84 70
342 334 255 129 92 75
294 476 169 136 17 47
440 814 311 177 112 86
308 135 206 108 90 70
337 339 276 79 58 41
394 269 289 128 95 63
356 94 176 120 6 41
267 425 288 70 20 30
298 225 244 107 88 67
424 480 335 139 7 44
301 484 282 60 22 29
361 445 77 77 60 48
326 314 266 72 57 40
356 84 181 125 13 47
386 799 320 71 58 53
303 164 202 115 94 70
353 88 183 106 37 46
485 935 251 98 77 59
402 588 359 180 126 102
279 479 184 72 33 36
329 454 126 109 24 38
422 688 261 55 38 31
360 306 249 82 71 60
316 809 214 90 69 61
362 119 257 119 88 63
353 94 183 107 15 38
376 319 297 132 100 65
353 93 269 112 39 47
442 442 145 107 48 41
354 98 163 100 94 85
300 179 221 110 91 73
355 552 123 150 29 49
333 255 216 111 87 60
355 99 166 110 75 71
376 104 241 129 33 39
444 818 252 82 63 54
268 822 228 205 141 113
244 563 244 128 98 64
354 103 167 106 75 66
283 741 213 56 44 31
410 417 323 66 58 49
381 279 295 128 97 62
339 219 206 109 87 62
321 199 236 89 72 55
345 379 246 87 68 57
286 499 283 135 15 47
402 349 256 97 83 67
366 430 141 90 73 54
448 764 250 58 45 41
354 104 171 123 25 42
418 579 346 158 113 79
353 106 169 96 63 52
331 69 219 95 19 34
393 460 380 98 58 52
348 334 299 126 91 66
273 360 260 123 95 65
505 478 176 114 34 45
334 69 219 81 30 30
399 299 281 121 92 64
505 444 201 94 15 31
296 620 185 116 34 45
368 174 284 113 92 70
337 69 217 80 63 47
246 709 246 158 106 78
304 183 199 123 99 73
407 542 344 113 77 57
332 75 218 92 18 34
336 79 216 87 40 41
403 230 254 107 87 64
424 905 280 75 57 57
322 84 216 107 27 41
386 64 225 105 24 26
264 417 266 81 65 53
339 209 202 116 92 64
299 589 283 159 7 48
411 564 336 103 74 49
451 899 295 53 46 42
322 89 215 114 14 41
326 11 292 147 64 74
322 94 215 102 69 54
284 745 288 106 32 43
361 425 226 84 71 59
326 94 216 99 53 49
306 784 290 67 55 49
331 84 217 93 69 52
389 294 248 88 74 59
331 89 216 86 51 40
389 927 263 70 62 60
495 488 146 211 20 55
377 364 239 84 73 62
278 699 224 99 73 46
353 271 279 108 85 60
361 219 251 117 94 66
301 419 161 88 49 46
364 459 371 101 13 34
336 89 216 82 28 32
376 724 332 46 29 31
426 734 186 81 61 49
256 769 265 159 123 92
331 94 216 95 30 40
346 69 201 84 49 44
303 239 198 133 101 63
348 68 197 91 14 33
351 899 226 64 57 57
353 384 304 130 96 73
339 50 266 116 36 50
461 437 170 102 18 35
284 684 224 42 32 36
350 69 195 90 19 37
421 423 211 95 79 62
350 74 196 85 40 39
356 74 247 122 84 67
345 74 206 93 78 63
326 549 290 131 4 40
392 809 319 53 45 42
365 449 346 109 8 34
386 540 121 154 24 46
345 79 206 86 51 42
350 389 302 123 91 71
342 69 212 86 23 34
339 79 214 86 12 30
386 714 196 61 51 45
371 912 327 41 38 39
342 74 212 89 22 33
465 769 262 87 65 52
344 69 210 82 37 37
324 871 333 124 47 63
341 414 191 99 83 67
286 789 207 169 114 80
302 614 280 79 24 35
371 733 334 127 30 50
287 489 283 81 21 32
371 184 246 113 88 56
300 454 160 94 26 34
306 389 207 90 80 70
356 547 118 209 13 42
376 234 245 94 77 58
306 259 200 141 99 65
451 484 311 163 9 50
344 74 210 84 58 45
364 882 210 84 77 74
296 304 281 114 88 63
348 84 201 92 20 32
368 835 298 156 120 96
348 89 198 104 48 48
405 74 251 129 24 51
346 94 206 88 24 35
328 547 128 166 9 37
346 404 227 83 69 53
262 429 288 110 9 37
302 904 276 122 94 73
350 879 331 159 122 93
338 234 221 101 81 58
386 194 285 118 94 67
409 394 248 104 88 73
339 84 214 83 11 30
246 799 231 177 119 87
292 764 203 141 101 66
402 254 282 125 96 64
391 459 376 61 31 28
391 516 99 101 37 44
377 509 341 67 27 35
396 89 226 149 16 41
409 483 83 54 40 40
451 704 297 64 50 39
339 89 214 78 26 29
481 457 120 103 24 34
405 629 232 74 35 43
330 124 214 84 66 46
371 459 391 111 16 39
342 84 211 77 34 34
342 89 211 74 56 40
396 169 251 110 89 65
342 94 212 84 36 35
332 21 263 115 33 40
342 44 257 113 83 67
347 69 256 111 55 49
326 214 191 130 99 61
380 140 279 113 91 65
392 208 245 112 91 68
331 659 199 147 0 34
296 234 247 109 89 68
355 367 237 80 66 52
351 69 251 115 60 54
301 625 190 87 33 39
391 838 196 106 80 57
360 344 245 75 64 54
348 68 253 118 93 69
401 739 330 133 88 73
348 74 257 112 70 55
441 784 241 54 44 41
305 209 195 125 98 66
350 84 256 116 52 53
326 459 290 58 23 30
351 94 256 115 22 41
321 970 321 64 60 60
314 307 218 106 84 59
273 369 265 129 99 70
391 608 316 76 25 34
371 24 262 103 89 75
331 344 276 66 52 36
376 359 237 84 73 62
294 909 290 157 117 93
416 839 293 43 37 35
341 24 296 129 69 64
395 339 252 95 81 68
424 775 205 104 81 58
322 99 214 103 83 62
323 229 243 88 72 55
403 791 214 49 41 44
440 459 325 108 29 43
300 944 331 159 114 96
416 434 332 78 21 31
404 248 253 106 86 62
326 99 215 97 75 54
297 659 213 70 34 37
331 99 215 92 68 49
414 479 365 144 106 78
336 98 214 95 64 52
386 404 236 93 79 65
448 447 134 117 20 32
306 415 166 95 81 70
336 104 211 93 70 50
351 929 242 78 71 73
340 339 246 136 101 88
270 529 274 69 23 31
477 442 164 98 33 40
312 145 219 101 83 63
421 870 251 66 51 50
332 109 213 89 70 48
417 437 149 89 73 55
336 109 210 92 71 50
333 282 241 81 68 54
302 894 281 128 99 72
326 124 216 88 70 49
446 808 242 75 59 53
326 129 216 87 69 47
330 114 214 88 68 46
332 114 213 87 68 47
356 754 206 80 31 38
330 119 214 85 67 45
483 474 242 155 16 49
445 804 316 173 113 85
284 304 229 131 101 69
332 119 213 85 68 48
414 794 338 179 134 105
406 69 231 103 31 35
335 114 210 89 71 50
324 663 298 134 7 40
300 184 226 107 89 71
306 589 157 109 26 41
331 29 266 120 44 52
332 129 212 85 69 51
342 101 208 100 70 57
387 79 267 97 26 37
306 839 261 161 118 92
342 344 237 87 68 59
343 109 196 109 82 57
406 455 77 99 76 56
245 579 267 171 120 96
343 106 202 106 78 58
340 109 205 97 75 54
338 110 207 94 74 52
424 634 316 133 101 70
411 674 246 116 34 35
345 760 313 78 63 56
393 46 234 85 74 61
286 394 280 116 88 67
346 104 196 108 74 56
342 899 342 169 120 96
381 529 341 77 27 36
346 104 201 107 75 58
343 380 245 86 68 57
286 594 186 118 10 35
316 774 201 79 62 53
472 464 266 139 9 44
431 704 261 66 32 34
349 99 196 110 40 43
287 889 306 168 124 100
338 344 241 83 66 56
382 78 228 147 9 44
348 99 198 110 48 45
295 253 253 110 89 65
349 99 199 105 18 35
341 563 132 186 20 48
431 772 188 81 61 52
406 709 166 90 64 50
345 103 205 105 73 59
344 108 195 116 85 61
341 99 211 95 48 47
339 97 214 90 23 33
416 440 136 90 72 52
321 159 186 126 99 67
339 103 209 97 72 53
297 449 162 80 31 33
338 106 208 97 74 53
291 389 282 118 89 67
376 444 351 70 11 26
482 934 251 96 76 57
342 114 196 105 81 56
313 753 198 96 26 38
340 114 201 99 78 56
338 508 108 73 32 39
419 422 224 93 77 60
413 662 288 80 29 40
340 194 221 92 76 59
380 444 381 114 10 37
501 469 126 114 33 45
342 119 196 107 84 57
334 250 239 88 72 55
381 848 208 115 91 77
346 654 306 53 26 31
286 799 276 57 48 43
362 432 130 89 71 51
311 474 285 70 22 31
406 588 359 182 128 101
340 119 201 98 78 57
309 173 194 123 99 72
334 254 240 87 71 53
288 445 173 106 29 40
437 699 265 62 47 40
338 114 206 93 74 53
366 459 341 101 14 37
308 154 198 116 94 69
357 674 205 120 10 28
294 930 328 179 135 113
385 69 224 145 10 30
282 489 182 85 33 38
416 784 201 97 71 54
258 421 264 72 30 28
457 820 276 80 60 52
337 119 206 91 73 52
342 129 196 109 85 57
341 129 201 98 79 57
427 590 236 136 29 48
321 334 221 89 76 64
366 474 80 155 10 35
454 479 306 78 21 32
355 254 256 120 95 70
374 877 191 92 80 77
277 484 187 58 36 37
276 694 222 112 83 54
339 124 204 93 75 56
369 436 118 88 71 50
471 819 301 82 64 48
476 419 246 84 18 29
331 549 292 129 4 39
434 490 329 140 0 41
351 344 301 131 94 72
336 159 216 85 71 57
337 129 207 88 71 53
260 504 279 132 6 39
404 272 263 111 86 57
371 424 231 90 77 64
371 644 306 145 12 45
406 825 181 101 82 67
339 129 204 93 75 56
451 414 256 86 40 37
356 69 246 114 67 58
281 674 256 48 28 26
321 424 137 119 57 47
361 69 244 113 79 64
442 789 240 56 46 42
354 298 254 105 88 69
385 659 218 59 30 32
353 69 248 120 24 44
385 184 284 119 96 69
457 824 280 74 59 52
361 74 245 114 71 57
276 659 225 131 87 60
421 829 301 141 87 65
332 449 294 86 22 35
376 484 83 149 0 31
260 469 221 76 30 34
333 326 269 59 46 30
344 725 323 74 26 34
455 860 276 80 64 55
361 79 246 114 48 45
286 829 227 151 106 90
354 75 249 117 54 51
289 368 219 119 96 69
355 79 249 113 45 44
275 449 196 49 36 40
362 68 243 116 48 48
340 134 205 93 75 55
363 77 243 126 18 34
324 567 293 138 6 43
345 442 105 78 49 39
460 434 286 137 11 42
376 329 242 86 75 64
470 729 286 62 48 36
358 84 248 122 19 40
301 484 162 139 8 35
338 42 274 110 72 59
291 499 283 159 9 49
316 134 191 123 98 71
361 84 245 126 15 39
361 89 246 119 22 34
387 59 267 114 24 44
468 749 288 72 57 41
355 84 250 123 28 43
256 654 258 179 134 111
341 369 262 95 69 59
456 459 106 111 30 29
297 184 221 109 90 71
351 878 206 78 67 62
358 89 248 113 67 55
326 20 291 152 109 90
364 449 331 141 8 44
361 94 246 121 28 38
326 374 212 93 81 70
303 324 283 124 88 66
356 94 250 104 76 55
465 539 216 56 30 35
315 499 146 104 12 32
358 94 248 110 55 40
371 424 171 93 76 57
366 84 243 114 43 38
331 894 348 192 139 122
351 519 102 137 17 42
400 74 223 134 33 39
249 528 279 156 104 91
364 84 244 128 17 34
381 279 245 89 74 59
446 879 285 58 49 43
367 89 243 131 20 32
412 709 221 49 41 37
426 594 226 131 36 51
506 949 221 107 90 72
364 89 244 124 18 31
394 139 261 111 89 64
396 509 96 118 25 39
286 689 281 62 27 33
371 69 236 113 44 45
386 139 246 126 95 58
256 604 232 130 97 62
368 67 238 103 71 52
408 69 241 116 37 48
333 322 234 79 69 58
283 686 270 65 29 35
373 69 232 119 29 41
291 299 222 131 98 68
419 603 232 79 32 39
403 62 229 75 33 24
363 454 325 123 12 39
324 251 249 84 68 51
376 74 231 138 12 43
283 266 239 119 93 64
341 724 321 39 28 32
296 599 277 132 14 44
318 455 289 115 11 37
372 73 237 136 24 48
409 706 174 75 56 41
406 586 179 198 15 43
314 504 149 103 12 32
400 887 252 59 51 50
373 72 233 132 14 42
378 278 243 87 73 59
371 79 241 128 30 41
375 79 239 125 34 47
341 539 295 31 27 29
410 503 351 144 59 58
337 417 170 99 84 66
381 69 226 145 8 34
445 569 241 191 9 55
283 603 266 94 27 38
318 900 247 55 49 48
378 73 228 141 8 36
312 174 192 124 99 69
381 74 227 147 8 42
466 456 117 119 16 29
375 26 262 103 88 74
381 79 231 143 9 43
350 421 162 95 78 60
396 729 329 128 45 49
366 444 366 76 21 30
398 925 290 71 61 59
383 83 232 143 9 43
254 739 214 129 95 61
475 429 261 116 14 38
286 784 206 164 111 77
346 824 225 60 51 51
432 424 317 61 27 31
271 409 271 82 67 52
410 907 287 66 52 45
274 540 274 38 25 25
376 84 240 133 32 42
381 84 236 137 13 38
341 432 134 75 51 39
376 89 240 106 52 42
424 445 334 62 27 28
401 334 276 120 95 65
512 449 186 78 21 32
311 169 227 100 82 63
288 542 178 79 31 36
349 379 231 76 63 53
311 904 341 152 111 95
274 707 268 125 27 45
383 87 233 143 9 42
243 644 243 138 97 61
420 498 98 196 11 41
447 464 317 70 27 34
349 377 239 86 69 59
453 437 169 97 23 33
379 90 239 95 56 43
281 334 236 130 102 69
363 719 204 134 9 31
440 713 183 98 75 64
309 169 194 120 97 71
500 465 126 156 30 41
302 209 197 124 99 68
418 689 282 77 34 37
299 343 219 109 89 67
398 389 297 121 95 64
334 567 298 132 4 39
299 423 160 87 32 37
382 94 237 128 11 33
282 359 275 129 97 72
270 379 261 127 96 69
303 156 203 114 94 72
498 948 236 104 91 80
451 445 141 111 18 35
426 564 310 102 23 42
379 94 239 131 21 37
431 433 171 84 58 44
262 439 231 105 22 35
273 474 192 61 35 37
370 859 291 131 93 73
386 209 242 106 86 64
411 799 230 62 54 53
371 84 241 123 47 45
399 184 253 110 89 65
371 94 242 129 54 47
420 630 312 118 91 61
292 880 311 129 103 76
511 469 171 157 17 51
425 614 266 84 32 39
363 384 248 85 71 57
365 224 250 106 84 59
370 96 244 121 87 60
397 523 342 64 16 31
432 416 248 82 65 49
350 469 85 131 16 38
361 99 246 128 17 37
362 459 321 136 7 42
342 27 294 145 36 60
387 584 326 122 24 46
353 98 253 122 13 46
366 254 251 98 77 53
373 200 243 106 83 56
287 589 172 163 2 40
396 714 171 87 60 47
317 594 294 35 29 32
473 446 263 157 6 47
333 479 113 150 1 38
354 100 256 127 83 71
356 104 256 129 93 72
380 240 294 125 98 65
361 105 251 140 92 73
418 824 244 51 44 43
338 344 286 110 74 56
359 106 254 134 93 73
382 950 286 66 60 58
368 103 243 140 16 39
286 894 311 191 137 121
371 84 275 97 44 44
314 844 263 179 125 95
418 486 89 175 13 39
366 104 245 132 48 48
367 108 247 129 86 62
338 138 208 88 72 55
362 108 252 136 97 73
392 224 287 116 92 64
243 799 255 175 126 96
365 109 250 134 94 68
361 114 256 123 91 65
320 416 153 98 83 67
400 99 251 121 19 45
358 209 266 110 88 63
429 779 228 51 46 45
363 112 253 129 94 69
388 307 293 132 102 65
456 457 110 111 32 31
366 114 251 129 93 66
463 494 276 121 14 41
431 508 112 205 21 50
398 101 234 91 91 86
303 950 334 58 47 46
352 889 332 162 123 98
327 474 126 60 28 32
412 906 285 68 53 45
367 119 252 125 92 63
381 209 241 102 83 61
412 734 216 58 47 45
387 299 249 88 75 62
364 119 254 120 88 60
371 39 284 124 12 44
251 619 232 139 102 63
362 124 257 116 86 60
481 844 296 80 66 54
365 124 254 119 88 57
320 904 343 130 98 87
381 299 248 98 84 69
426 415 271 68 61 51
379 99 239 113 57 43
382 104 237 133 18 36
376 99 242 106 66 43
332 351 279 69 53 39
369 106 244 134 42 44
376 108 242 132 51 50
361 494 86 123 26 41
376 110 245 124 82 59
415 824 241 63 53 52
333 194 194 127 98 63
288 740 208 41 34 37
256 534 277 83 42 42
393 567 359 175 124 102
316 239 249 108 87 63
382 113 242 126 84 59
371 114 248 120 84 52
356 479 83 130 20 39
253 551 233 111 41 38
306 349 284 143 99 77
376 114 246 114 77 46
416 654 307 84 63 41
475 808 296 91 68 55
249 763 258 157 117 86
372 119 248 120 88 54
331 659 300 151 17 49
287 369 279 133 99 74
381 144 246 122 92 56
345 449 95 100 29 33
302 842 246 63 55 57
369 115 249 129 91 61
302 174 202 119 96 71
386 554 346 131 24 46
332 514 121 136 10 38
370 119 249 125 90 56
383 719 186 62 51 42
305 164 222 104 86 67
366 614 307 43 25 28
374 194 244 108 86 58
365 354 239 79 68 58
259 422 254 79 33 35
376 129 247 120 88 54
304 162 218 106 88 69
362 179 280 115 94 71
385 689 201 64 46 36
385 628 207 146 27 48
396 869 237 62 54 54
386 204 242 108 88 66
370 124 250 123 91 57
367 249 248 94 74 51
471 749 271 78 59 44
336 789 210 77 61 53
306 239 252 111 88 64
311 413 176 98 84 70
440 524 316 183 6 58
381 424 234 93 79 64
397 703 194 84 55 52
366 194 286 114 93 71
421 559 161 96 31 41
371 129 250 123 92 57
350 500 94 64 35 39
362 204 284 116 95 73
373 124 248 120 88 55
391 49 236 97 84 71
271 828 232 219 148 116
373 129 248 121 89 54
323 22 286 167 121 98
381 124 245 122 88 54
399 795 328 175 132 105
431 529 326 173 1 55
386 917 333 47 43 40
381 129 245 120 88 53
417 579 351 159 112 78
321 134 187 126 101 72
326 334 224 88 76 63
513 471 150 211 20 56
316 144 190 125 100 72
458 505 282 68 30 36
420 619 286 176 12 53
332 494 289 135 0 41
346 28 291 138 39 56
482 495 140 207 21 52
336 434 126 86 46 43
321 139 187 127 101 72
352 874 326 151 117 84
319 140 189 127 102 73
275 499 190 136 7 38
441 564 281 184 10 54
312 159 193 119 97 72
375 934 345 55 48 44
440 774 334 172 118 86
319 143 189 127 102 73
316 149 190 124 100 72
307 869 330 118 85 88
362 209 285 118 96 73
345 369 227 83 69 57
381 384 310 127 98 63
331 479 290 135 0 41
405 878 242 57 48 47
388 278 249 94 77 59
321 149 187 126 100 69
315 159 190 121 98 72
380 444 391 157 8 51
421 774 195 106 79 58
321 154 186 125 98 67
424 430 250 97 79 58
396 108 251 105 58 53
276 459 191 58 37 39
406 799 230 61 51 51
436 754 335 161 110 75
461 440 161 102 41 41
311 349 216 94 81 69
269 412 229 103 68 53
262 544 217 145 14 44
392 464 381 94 56 50
317 159 188 124 99 70
281 299 241 127 99 68
276 379 231 119 95 68
312 164 192 119 97 71
315 164 190 123 99 71
325 790 298 110 87 78
365 949 257 79 71 72
336 144 211 85 71 56
432 918 276 83 68 60
347 389 226 79 67 54
315 169 190 126 99 69
326 159 222 83 68 51
321 164 186 128 100 65
317 169 188 128 100 67
361 400 316 83 63 42
340 179 201 113 90 64
296 679 281 126 7 39
443 719 322 151 104 71
321 169 187 130 100 64
399 639 228 120 14 33
386 164 280 117 94 67
371 964 276 80 76 78
317 394 278 105 76 62
270 449 206 46 35 39
292 944 276 74 69 70
381 324 297 134 102 70
351 304 256 132 103 82
292 239 206 126 99 68
315 174 190 128 100 67
395 664 306 78 57 56
504 482 152 216 22 58
274 398 229 117 94 68
326 134 217 88 70 49
432 723 239 51 39 39
334 454 110 94 25 36
398 628 344 183 134 108
317 174 188 130 100 64
321 174 187 131 100 64
365 405 326 81 47 34
412 475 80 54 39 41
311 189 191 128 100 67
321 489 286 135 2 41
361 884 311 140 104 79
391 109 235 145 17 39
332 831 229 75 59 53
371 904 235 64 59 61
411 829 186 126 96 75
376 518 98 59 33 40
341 189 216 95 78 59
316 179 188 131 102 67
293 200 221 110 90 70
376 795 209 49 41 40
321 934 241 82 74 75
313 182 188 131 101 65
320 275 259 88 72 53
460 477 93 197 12 42
346 324 257 116 85 66
316 184 188 132 102 66
348 824 222 55 48 47
348 72 269 108 75 61
321 179 187 131 101 64
466 847 278 93 77 66
459 524 264 173 8 47
336 484 111 78 26 35
314 185 189 131 102 66
317 189 188 131 101 65
338 329 251 92 67 52
350 977 277 79 75 78
307 494 157 141 4 36
381 419 317 91 71 49
381 309 247 98 84 70
304 899 275 158 123 96
456 927 268 132 118 110
279 342 263 121 94 64
303 154 206 111 92 72
357 913 332 74 62 54
463 784 266 73 59 52
419 411 291 65 59 49
348 397 229 77 63 49
432 928 297 63 54 47
303 159 203 112 92 70
421 721 186 85 68 55
302 478 284 57 18 26
411 749 177 78 57 44
295 874 306 150 118 88
376 784 204 58 45 39
302 159 206 111 92 72
468 755 264 85 64 50
424 439 243 96 79 57
303 155 211 108 90 71
298 346 218 110 90 68
301 699 296 133 10 41
302 159 211 109 90 71
404 214 275 120 95 65
303 156 214 108 89 70
367 454 390 140 12 45
337 229 231 91 73 54
494 487 143 217 22 55
503 442 174 89 30 32
309 134 201 109 90 70
420 430 329 31 26 25
406 599 196 211 19 52
385 59 270 116 41 52
311 134 196 113 93 71
308 135 202 109 91 71
419 517 339 58 25 34
365 479 326 43 28 30
497 444 221 100 20 36
309 133 206 108 89 70
309 138 199 110 91 70
398 362 288 128 101 69
321 634 192 153 17 41
474 803 300 93 70 55
322 230 194 132 97 60
466 794 302 97 71 56
310 144 196 115 93 70
377 534 320 68 27 35
361 779 316 66 57 55
448 432 184 71 34 27
308 139 201 109 90 70
401 903 316 36 34 34
396 519 346 53 25 30
390 243 243 95 80 63
344 526 109 85 19 29
311 299 276 108 79 54
321 410 186 98 84 69
337 883 343 149 116 86
411 479 82 78 38 43
289 939 286 56 52 53
314 134 194 117 95 70
282 329 232 131 102 69
465 503 132 172 27 53
313 144 193 120 96 68
491 489 201 69 30 36
373 229 243 95 77 56
281 309 251 123 95 63
310 134 211 107 88 69
290 883 311 141 111 85
385 279 294 129 96 61
347 417 191 98 83 66
386 774 326 65 57 53
300 574 283 152 9 46
270 574 216 78 24 37
325 21 288 152 109 91
371 359 236 80 70 59
308 136 209 107 88 69
308 140 210 107 89 69
316 299 271 103 77 53
389 45 256 92 78 60
261 634 227 131 98 63
309 138 212 107 89 70
310 144 217 103 85 66
284 785 278 73 60 53
313 130 214 104 85 65
474 780 297 89 65 54
362 134 271 117 93 67
447 938 286 86 74 63
267 444 216 103 23 36
361 16 271 102 78 67
488 505 171 170 36 58
395 59 260 104 27 40
261 629 262 178 124 102
316 134 217 101 82 62
333 509 118 96 28 40
433 499 332 156 0 48
387 474 77 143 3 29
287 274 217 144 105 75
501 450 156 107 50 41
348 423 310 70 28 34
321 134 218 94 76 55
419 679 266 41 29 31
315 138 218 101 83 63
316 139 219 98 80 60
461 859 266 68 55 46
422 525 333 120 19 46
357 419 325 101 13 35
351 673 312 37 30 33
313 140 219 101 83 63
316 144 220 97 79 59
431 564 306 140 24 50
340 209 226 92 76 58
357 765 209 109 35 42
416 529 126 197 13 47
308 150 198 115 93 69
365 464 326 145 0 43
310 149 196 118 95 69
371 469 81 140 2 31
515 947 235 94 81 68
402 339 276 122 97 66
269 384 251 125 98 67
411 624 306 110 50 46
435 579 291 122 24 43
318 238 248 104 84 62
304 149 206 111 92 71
366 324 299 131 93 62
305 154 201 115 93 70
399 620 348 179 130 104
476 426 208 78 33 28
334 31 264 119 91 69
381 214 241 101 82 62
392 576 165 153 27 45
267 827 233 220 147 117
268 455 208 122 19 36
453 491 104 100 26 37
305 159 201 114 93 71
310 159 195 119 97 71
265 831 246 214 141 112
304 153 205 113 93 72
337 445 102 93 30 41
504 441 177 96 30 32
336 234 206 114 90 61
313 149 193 121 97 70
430 559 310 115 20 45
287 894 316 195 140 126
367 204 247 111 88 60
377 546 124 221 14 48
336 364 221 87 75 64
425 654 326 128 89 57
355 439 316 144 5 42
352 710 329 152 13 49
346 443 101 91 48 39
415 734 187 85 64 48
313 154 193 121 97 71
305 149 211 108 90 71
307 149 216 106 87 69
469 532 182 185 15 52
393 373 298 121 95 63
320 464 288 112 9 37
387 704 201 61 41 39
309 148 218 104 86 67
311 149 220 101 83 64
340 30 282 125 81 68
279 609 215 141 15 42
329 901 224 75 65 65
304 153 212 108 90 70
469 454 275 139 11 42
271 389 236 121 96 67
305 154 216 106 88 69
340 149 191 126 98 64
389 806 318 68 55 49
392 899 256 66 58 57
304 158 217 107 88 70
411 769 338 176 131 102
402 94 241 133 22 51
406 639 302 108 42 41
411 624 236 116 29 41
307 154 220 103 85 67
306 159 220 104 86 68
252 609 233 134 100 62
343 459 299 61 25 31
396 154 256 112 91 66
323 334 273 68 52 33
386 334 295 135 104 70
311 154 221 100 82 63
392 83 223 149 11 39
488 470 232 161 13 47
322 544 132 68 28 35
310 158 222 101 83 64
336 194 196 121 95 64
487 499 196 79 31 38
338 339 251 130 96 82
258 528 279 134 33 51
434 857 264 81 69 59
334 26 288 139 32 53
349 440 308 92 20 35
321 149 221 89 72 54
305 381 208 91 80 69
291 402 288 100 19 32
316 154 223 94 77 58
438 506 114 93 34 38
416 436 151 90 73 55
322 158 223 85 69 53
316 159 224 94 77 58
406 399 291 112 90 66
321 159 224 86 71 54
438 702 303 71 44 33
291 474 171 126 15 38
488 456 238 103 11 34
418 724 224 64 37 40
306 749 199 142 11 36
337 359 226 83 72 61
399 602 193 217 21 56
301 164 206 115 95 73
488 500 191 107 32 41
358 250 253 138 107 74
302 169 202 119 96 70
301 169 206 118 96 73
407 579 321 62 23 34
471 417 246 74 34 28
321 199 189 131 100 62
321 416 156 98 83 68
446 913 276 78 66 57
301 164 211 111 92 73
300 169 216 111 93 74
368 854 298 151 114 89
303 165 219 106 88 69
472 519 221 177 6 52
409 524 365 162 115 85
252 524 278 123 70 63
299 174 211 114 95 75
282 319 261 121 93 61
376 174 245 116 89 53
261 814 226 192 129 99
416 799 230 63 54 52
330 922 349 189 150 129
373 352 239 81 71 60
366 584 312 148 8 46
298 176 211 114 95 76
446 534 151 209 19 50
352 864 316 138 106 74
299 174 216 111 92 74
464 538 221 156 20 51
351 359 251 89 71 56
411 594 356 174 120 88
358 499 305 81 23 34
370 597 173 208 14 47
298 176 215 113 95 76
302 179 201 119 96 70
401 729 331 149 97 82
281 529 186 75 33 38
317 569 143 139 20 43
368 508 315 122 19 45
335 214 197 124 97 65
301 294 215 146 102 75
299 179 205 118 96 72
298 179 207 118 96 73
385 691 319 94 14 33
343 301 284 103 74 51
299 183 205 119 96 71
411 669 340 180 129 102
452 880 275 82 70 63
410 829 222 52 47 48
363 235 289 122 99 74
399 436 138 91 74 55
325 239 245 82 67 51
278 603 213 71 38 42
344 299 282 99 76 52
296 189 211 117 95 72
366 754 325 75 63 59
445 804 311 157 101 74
396 49 226 109 32 30
254 718 258 159 111 84
421 854 290 42 37 37
445 569 236 188 10 53
462 803 302 85 68 56
295 189 216 110 91 70
391 764 187 64 48 40
356 759 207 73 35 39
436 690 271 68 52 40
298 179 216 112 93 74
397 324 286 132 100 69
296 184 216 110 91 72
270 479 196 89 32 38
305 164 200 115 94 70
304 169 200 118 95 69
285 424 191 42 39 40
315 504 141 71 29 34
391 510 378 190 138 108
431 444 131 92 67 44
376 405 241 91 78 65
304 174 199 119 96 71
341 149 206 94 76 56
456 449 131 117 13 31
284 454 180 52 38 41
304 179 199 120 97 70
309 179 194 122 98 71
449 856 282 59 50 43
330 850 325 135 109 80
351 419 181 98 82 66
309 182 194 121 98 70
309 702 204 128 10 31
391 449 356 51 18 24
373 551 129 208 14 50
374 701 208 63 27 34
316 234 194 132 98 59
451 559 236 189 13 53
391 839 211 72 58 50
377 704 209 43 35 36
433 586 232 38 32 35
336 609 303 38 28 30
361 479 82 105 25 37
294 629 267 124 29 48
306 189 196 123 98 70
361 639 200 110 30 42
316 769 199 70 56 50
329 284 227 93 74 53
283 558 188 68 24 32
481 884 276 68 56 46
303 171 224 105 87 69
385 530 362 133 62 61
374 540 313 36 29 29
303 175 225 105 87 69
406 519 351 97 66 56
362 892 228 56 50 52
302 179 226 105 88 70
326 149 219 83 67 50
303 181 229 103 86 69
453 412 288 102 24 37
333 474 113 149 0 41
414 458 339 34 28 29
436 584 231 71 27 38
298 186 224 109 90 71
298 189 225 109 90 71
242 519 253 106 73 54
306 169 225 103 85 67
311 164 225 100 82 63
271 614 229 102 71 52
317 839 286 167 125 100
306 174 227 104 86 68
310 173 228 102 84 66
329 479 120 142 9 40
311 174 229 100 82 63
270 444 211 106 24 37
316 169 227 93 76 58
326 199 190 130 99 61
327 354 272 64 50 35
371 909 316 82 62 49
321 164 225 85 70 54
284 479 179 137 18 37
289 434 175 52 35 39
321 169 226 85 70 54
430 799 339 182 128 97
407 729 335 178 129 102
362 444 326 133 10 41
316 174 229 93 76 57
270 424 221 136 11 37
285 259 241 118 93 66
334 294 246 80 68 54
441 930 286 92 78 70
422 484 342 110 15 37
278 335 251 120 95 66
336 444 296 62 25 31
304 474 159 135 11 34
321 173 228 85 70 53
431 431 177 83 57 44
320 176 229 85 70 53
305 178 228 104 87 68
334 504 115 69 32 35
372 871 225 63 59 61
428 580 298 132 16 47
372 489 384 126 90 80
357 315 252 80 67 54
306 179 230 103 86 67
244 537 249 125 89 61
340 369 252 86 69 56
366 609 308 68 23 31
304 528 155 106 12 32
446 457 105 101 39 33
273 578 266 48 26 31
306 184 232 103 86 67
356 920 340 37 34 35
311 179 231 101 83 63
344 60 260 118 89 69
311 184 233 102 83 63
305 188 233 104 86 68
311 204 240 104 84 61
306 190 234 103 85 66
420 719 236 68 30 36
380 826 303 41 33 38
310 186 234 102 83 63
311 189 235 102 84 63
476 463 106 118 22 30
436 549 161 202 17 46
461 416 246 84 42 34
321 179 230 85 69 52
292 319 222 123 96 65
316 184 232 94 76 57
310 267 203 141 97 65
321 184 231 84 68 52
265 419 236 73 42 38
475 799 301 85 63 50
446 444 141 112 35 37
329 842 303 121 96 71
399 274 253 109 88 64
360 848 214 50 45 45
336 194 226 85 72 57
317 188 233 93 75 56
381 814 206 73 57 49
367 159 280 113 92 69
240 629 251 149 104 73
316 190 234 96 78 58
298 911 330 124 98 78
321 189 233 87 71 54
242 619 261 164 118 91
371 894 316 139 105 81
383 543 336 132 15 46
311 199 190 133 104 69
317 251 199 136 96 62
385 709 329 95 27 39
489 459 235 157 10 47
311 204 191 133 104 69
321 627 188 191 15 46
394 779 328 150 114 89
391 84 225 151 11 41
307 209 192 130 101 66
429 420 319 70 29 31
313 217 243 106 85 61
284 504 180 57 30 35
316 449 141 78 31 36
311 209 190 131 101 65
316 199 189 132 102 66
319 192 188 131 101 66
297 420 166 78 41 37
368 484 336 87 24 37
345 45 278 134 104 80
316 204 190 132 101 65
367 189 247 116 91 60
366 532 108 124 20 40
321 204 190 132 101 65
307 214 192 130 100 64
326 324 226 85 73 60
312 587 153 124 26 41
277 384 227 118 94 68
311 214 191 130 100 62
279 354 235 119 95 66
309 733 199 132 13 33
316 214 191 130 99 62
245 759 221 163 111 81
309 831 268 174 132 109
316 219 243 100 81 59
402 924 311 66 57 53
464 537 225 187 11 53
321 214 191 131 99 61
363 144 274 116 93 68
321 219 192 131 99 61
486 494 211 80 27 36
287 234 221 116 94 69
288 234 216 115 92 66
336 34 262 108 41 45
421 809 191 109 83 60
412 669 251 97 29 35
357 31 258 84 34 28
288 239 216 115 92 67
395 699 326 103 58 51
316 854 291 111 83 61
450 534 286 93 32 43
430 817 330 199 133 109
287 244 216 117 94 67
288 244 213 123 98 69
297 929 335 182 139 119
244 609 263 166 119 93
377 234 293 124 99 69
405 569 321 57 24 32
288 249 213 126 99 68
286 249 221 117 93 66
357 84 274 110 17 40
286 254 216 125 98 66
411 407 291 69 61 53
415 399 271 87 73 58
413 729 211 46 37 34
326 169 225 84 69 52
480 503 147 177 19 49
285 254 221 120 94 63
287 229 226 113 92 69
292 224 207 118 96 71
287 234 226 114 92 69
278 589 270 46 29 31
371 149 281 113 91 67
386 249 243 92 78 62
352 436 117 86 63 42
361 804 310 159 121 104
441 839 290 56 45 39
239 589 256 153 109 77
337 38 275 121 8 41
286 239 231 115 92 67
356 334 250 81 67 53
300 218 243 106 88 68
341 169 206 105 85 63
294 655 214 118 16 38
331 374 266 80 58 42
335 454 106 96 24 35
288 234 236 112 91 67
423 897 268 78 59 50
263 415 246 73 56 45
337 884 212 78 66 62
469 478 270 136 18 46
269 594 259 103 75 64
291 299 277 106 84 60
451 447 135 116 15 32
295 688 287 124 2 38
333 469 113 150 3 43
285 244 231 116 92 66
393 143 267 114 92 67
285 249 231 117 93 65
285 249 236 115 92 65
291 949 306 83 76 72
360 421 177 96 80 63
373 134 248 122 91 55
364 839 214 59 50 50
396 154 266 113 90 65
446 694 276 65 50 39
371 431 394 135 15 41
287 249 241 114 92 67
285 254 226 118 93 64
296 628 192 88 35 41
285 254 236 116 92 64
431 754 336 162 112 77
288 249 245 115 93 69
295 204 206 114 92 68
278 504 187 137 15 36
457 784 260 85 63 52
404 209 261 116 93 67
426 779 227 50 45 44
289 323 224 124 97 66
351 744 202 83 30 37
295 209 206 114 92 68
395 441 117 91 73 54
337 239 216 107 84 59
277 714 220 102 70 47
316 360 213 94 82 69
302 199 198 123 99 72
346 948 252 84 80 82
306 399 202 90 80 70
299 193 204 117 94 69
349 714 328 38 27 32
298 200 203 117 95 71
295 408 204 96 84 72
356 344 301 131 96 69
446 483 93 97 25 37
338 458 103 100 26 34
287 439 176 70 36 36
297 199 206 116 94 69
360 18 265 102 84 69
241 779 246 164 114 83
300 204 200 121 99 73
352 407 230 75 63 49
285 739 292 48 29 32
298 204 202 116 94 71
298 209 202 118 96 71
302 234 197 131 100 62
332 474 116 144 5 38
376 434 131 91 75 55
356 949 252 80 74 76
294 194 216 111 91 70
328 23 268 125 17 45
245 734 226 144 102 70
330 274 221 101 80 54
295 194 221 110 91 70
357 32 289 136 44 59
318 552 138 144 10 44
358 507 304 75 20 35
390 134 247 121 92 57
284 293 262 118 87 58
293 200 217 112 92 70
358 199 266 111 89 64
412 733 184 71 53 44
356 433 126 86 69 49
294 198 221 110 90 69
262 798 218 174 118 83
403 250 254 106 84 59
410 712 168 89 64 51
289 630 257 43 25 27
293 205 212 114 93 70
326 350 222 90 79 67
293 204 216 112 92 69
294 209 209 114 92 68
276 359 266 128 99 69
418 718 236 78 24 38
387 939 276 73 65 62
391 304 250 95 80 65
325 195 234 85 70 54
476 443 161 100 45 44
283 269 241 118 93 64
375 424 233 92 78 65
413 644 260 89 32 39
390 790 323 63 53 50
291 209 221 111 91 70
481 430 196 92 21 30
295 214 206 114 93 70
411 814 330 181 130 106
359 490 308 117 25 45
322 328 224 88 75 63
295 219 205 116 94 71
295 224 205 119 96 71
290 929 321 182 138 117
293 769 203 142 101 67
276 344 251 117 93 65
341 199 221 93 76 58
297 214 202 119 96 71
300 224 200 125 97 65
302 224 197 126 98 65
453 479 308 142 16 49
396 515 100 96 35 43
375 948 329 53 49 50
297 219 202 121 97 70
496 433 196 110 20 33
297 224 202 124 98 68
301 249 255 112 90 66
293 214 211 112 91 68
328 459 128 63 33 37
371 339 299 126 97 62
391 94 230 145 13 37
365 454 366 76 21 33
293 216 208 112 91 67
296 359 283 139 100 78
294 212 209 113 91 66
281 774 206 142 100 64
290 214 221 113 92 70
353 502 93 64 36 38
292 219 211 114 93 68
453 486 99 216 16 53
290 219 216 113 93 70
381 414 316 110 84 59
426 479 331 135 8 40
428 576 184 206 21 49
306 230 249 109 87 63
508 457 149 116 74 53
291 224 211 116 94 69
398 299 283 128 94 66
390 144 247 122 94 59
293 204 226 109 90 69
351 914 235 67 61 62
331 289 256 76 66 57
289 219 221 113 92 70
305 199 195 125 100 70
308 195 193 127 101 69
393 158 249 113 90 61
332 204 232 82 68 53
251 539 275 155 102 86
308 199 192 129 102 69
287 609 270 44 28 31
344 479 96 61 34 37
307 204 193 129 101 68
404 617 217 57 31 39
478 516 196 197 12 54
438 692 273 68 53 40
386 314 248 97 83 67
348 878 333 157 121 92
305 224 195 129 99 63
329 877 338 120 93 68
311 224 192 132 100 61
433 693 328 154 105 72
376 254 245 90 75 58
396 739 329 107 38 44
316 224 192 132 99 60
376 554 312 131 9 41
296 194 226 109 90 71
361 429 331 125 12 39
401 314 266 125 97 68
273 435 207 127 12 37
324 469 135 46 33 35
295 204 231 109 90 71
316 274 207 135 96 64
416 444 121 90 71 48
355 259 276 106 85 62
294 209 232 111 91 71
298 195 230 108 90 71
306 269 262 114 90 63
327 685 304 54 28 32
413 872 293 38 33 30
299 192 228 108 90 71
299 198 233 106 88 71
351 634 194 52 35 39
301 199 235 105 87 68
310 830 229 100 76 68
302 195 234 104 87 69
393 584 336 134 91 76
327 599 299 67 32 37
297 204 235 107 88 70
311 278 208 138 97 64
489 482 128 71 35 40
303 205 239 107 88 67
381 799 206 59 48 47
451 833 290 62 52 46
292 214 231 110 90 69
346 19 301 117 68 62
410 816 183 94 74 56
293 215 234 109 90 70
273 356 255 118 93 63
301 449 285 123 5 38
285 519 180 84 29 35
294 212 233 110 91 71
380 344 299 129 101 69
341 437 121 62 39 33
371 34 286 116 60 59
371 484 346 158 4 47
429 603 256 82 31 41
295 214 236 109 90 70
331 179 190 134 101 61
392 886 240 61 53 54
289 219 226 111 91 69
296 609 276 144 14 48
271 374 246 120 95 66
376 294 246 91 79 67
346 416 199 98 82 66
366 259 250 93 75 53
407 399 245 98 84 69
288 221 226 112 92 70
361 423 166 94 78 59
484 497 214 45 29 36
299 952 328 43 39 40
288 224 226 113 92 71
426 824 245 55 48 47
397 329 287 133 101 71
282 499 182 102 19 33
289 222 226 113 92 70
390 938 286 73 64 60
337 164 217 86 72 57
443 769 244 70 54 48
446 449 126 105 33 35
288 225 230 111 91 69
341 704 321 73 24 35
304 579 159 39 34 37
473 525 191 199 14 53
341 339 256 126 91 76
289 224 231 111 91 69
268 415 227 74 43 35
372 759 198 70 55 50
426 875 249 80 63 53
302 499 162 101 25 33
317 524 284 129 7 39
384 545 327 160 6 49
416 444 336 93 15 31
306 249 197 138 100 64
292 219 236 110 90 71
450 799 251 53 43 43
341 389 291 96 70 57
393 23 229 86 86 86
386 259 294 127 97 60
285 509 180 52 32 35
342 384 220 89 76 62
471 869 294 77 66 57
318 509 128 142 5 37
463 464 287 109 19 39
387 354 297 125 98 67
374 547 123 223 14 48
367 769 202 72 57 51
409 425 238 98 81 62
405 749 332 177 128 104
331 219 237 84 70 54
291 224 236 109 89 68
416 669 276 125 24 42
446 909 305 58 50 44
294 218 238 108 90 71
308 554 284 146 9 44
297 215 240 106 88 69
474 523 196 198 13 53
242 644 256 181 130 104
296 219 240 106 88 69
407 764 335 174 127 99
350 379 254 92 70 62
411 714 338 180 127 100
387 209 287 119 95 67
333 269 236 89 72 54
501 474 131 104 30 43
260 540 220 46 33 38
293 221 239 109 90 71
321 549 136 124 15 37
338 194 199 114 90 64
327 24 271 129 27 44
437 519 322 179 0 56
378 900 239 61 56 59
399 171 269 117 94 69
341 509 106 99 22 37
292 225 240 109 89 69
496 920 297 90 78 68
408 564 363 172 118 94
456 499 116 131 34 49
301 214 241 106 87 67
376 239 294 125 99 70
358 474 310 105 14 39
373 718 333 58 30 34
301 224 245 106 87 65
349 386 228 75 64 51
356 379 306 132 98 73
294 592 169 131 11 36
471 529 201 163 18 52
302 220 244 107 88 67
297 889 336 161 122 102
325 243 198 133 95 59
285 274 251 116 92 64
295 919 332 146 122 104
312 474 152 67 28 32
306 194 236 102 84 64
346 714 326 65 32 39
407 784 225 56 47 46
333 138 213 84 69 53
338 343 252 128 95 82
366 439 351 97 16 37
416 437 146 89 73 55
475 804 292 85 65 53
306 198 237 104 85 65
288 647 218 162 30 55
311 194 236 102 83 62
296 784 285 69 57 51
406 449 91 95 76 55
393 554 364 177 125 103
327 254 247 76 62 48
281 404 216 106 86 67
304 202 238 107 88 67
338 852 318 122 95 68
365 444 351 87 16 32
306 204 240 107 87 66
336 624 301 74 27 35
331 769 302 72 58 52
340 154 211 89 73 57
464 773 266 77 59 50
337 314 241 76 64 52
316 194 236 96 78 58
327 354 275 64 48 31
316 199 237 96 78 58
393 188 278 117 93 66
421 439 332 56 25 29
416 589 305 52 28 33
423 429 240 97 79 57
441 413 266 92 46 46
315 200 239 100 81 60
336 869 221 58 52 52
411 664 251 100 20 34
434 412 285 91 42 35
311 818 218 89 70 60
409 799 193 99 80 66
321 204 237 89 73 55
441 484 92 57 37 40
371 59 277 107 27 41
381 560 145 74 33 37
316 209 241 99 80 59
392 35 230 88 46 40
282 529 274 48 27 31
306 215 244 108 87 64
393 706 183 65 44 43
360 244 254 132 103 74
421 415 320 62 41 32
336 139 185 134 100 61
409 517 108 207 14 46
339 164 196 120 94 63
462 519 256 178 6 54
357 408 236 80 66 51
310 216 244 108 87 62
291 399 210 98 84 70
356 575 150 123 25 42
402 689 210 55 43 40
360 938 248 71 64 65
306 224 247 110 88 64
286 759 206 133 99 61
287 269 216 139 103 72
311 219 245 109 87 63
296 234 202 129 101 67
311 224 246 109 87 63
454 415 289 98 29 36
321 214 241 92 75 57
304 481 283 104 18 36
277 644 252 120 82 69
315 220 244 103 82 59
316 224 245 102 82 59
321 415 166 98 84 70
318 503 284 129 3 39
356 409 231 77 65 52
321 219 242 92 75 56
290 919 296 151 118 94
386 117 243 128 85 58
414 607 216 48 31 37
322 408 294 130 7 41
368 605 308 122 8 39
338 188 223 89 75 59
403 203 273 119 94 65
417 755 190 80 60 47
322 844 296 144 111 88
322 224 243 90 73 55
320 224 244 93 75 56
297 963 311 70 65 67
361 510 95 125 29 44
406 224 271 119 94 64
306 294 277 107 83 57
292 229 207 120 97 72
505 469 191 74 30 36
297 229 202 126 100 69
376 34 281 105 44 47
294 234 204 127 101 70
467 534 211 162 16 47
301 359 215 104 87 68
297 239 202 130 100 65
294 240 204 129 101 67
473 524 201 191 11 54
465 911 266 86 70 60
311 239 195 133 98 61
393 720 163 77 57 45
301 554 280 101 19 38
300 234 200 130 101 65
300 239 200 131 100 63
325 739 303 62 51 45
290 229 211 117 94 69
387 427 175 91 75 55
426 455 96 94 60 38
412 751 179 72 55 40
289 229 216 117 94 69
275 404 225 112 91 68
311 289 271 107 83 56
288 425 182 67 33 35
469 416 261 127 12 38
289 234 211 119 96 69
376 430 391 56 19 25
288 239 213 118 95 68
292 249 207 129 100 65
518 956 235 91 76 60
292 244 207 127 99 67
431 854 266 56 46 42
370 612 188 111 26 40
340 366 223 109 87 78
281 479 284 31 26 27
371 249 295 124 98 69
297 244 202 132 101 64
381 224 242 97 80 61
321 744 198 136 11 37
404 64 250 110 31 42
355 734 327 164 10 52
450 924 269 118 101 90
381 289 245 91 76 60
429 602 276 123 34 49
292 254 208 133 102 65
360 41 283 132 105 83
387 529 366 154 105 90
411 521 338 69 31 35
405 734 184 66 51 41
263 519 278 56 18 26
296 254 205 135 101 64
280 344 236 123 97 67
384 44 274 111 20 46
402 664 231 95 19 31
403 199 260 115 92 67
340 184 201 109 88 64
301 564 282 115 16 40
300 244 199 134 101 64
478 423 252 40 30 29
303 249 198 138 101 64
301 254 201 138 101 64
292 444 167 58 35 41
298 253 203 136 101 63
