ply
format ascii 1.0
comment Created by Open3D
element vertex 2221
property double x
property double y
property double z
property uchar red
property uchar green
property uchar blue
end_header
315 159 169 117 95 69
257 547 164 36 33 30
470 453 148 116 26 37
320 154 169 119 95 66
394 598 164 115 42 51
302 170 175 116 96 75
295 164 188 115 95 73
335 11 293 126 35 56
337 414 277 139 30 49
294 169 188 115 95 74
458 552 199 41 33 38
349 234 242 109 87 61
384 159 267 118 94 65
295 174 183 113 93 72
296 169 183 113 93 71
258 606 191 53 33 30
267 832 251 193 152 124
260 464 248 95 54 49
279 264 188 123 96 63
272 554 235 97 44 43
292 176 190 115 95 75
333 31 266 100 57 41
301 164 179 113 94 74
534 458 198 165 20 46
368 474 298 63 23 31
309 247 165 124 93 55
279 319 223 118 87 57
286 889 259 153 115 84
298 169 181 111 91 71
340 564 268 83 18 33
384 284 271 141 102 75
394 623 188 165 30 51
391 234 269 124 97 65
297 175 180 110 91 71
440 439 282 102 16 32
297 190 174 115 95 73
410 534 269 37 24 25
285 429 119 78 59 51
303 178 171 119 97 73
363 139 246 119 93 62
305 179 169 121 98 71
352 735 176 116 24 35
281 803 190 64 55 55
256 594 188 81 32 39
305 184 168 120 97 71
439 769 229 70 50 43
326 234 171 121 95 63
278 308 191 120 95 65
297 186 175 114 94 73
227 749 214 153 106 79
247 792 200 162 109 71
254 579 213 71 31 36
305 189 168 121 98 71
395 579 268 83 28 36
455 451 143 105 23 35
302 190 170 120 97 71
405 448 118 96 54 45
294 179 183 113 93 71
390 440 138 91 75 58
296 184 178 113 94 72
352 586 106 156 38 56
335 11 288 123 38 55
338 474 265 135 8 43
260 698 250 133 96 74
292 179 193 115 96 76
293 178 187 114 94 73
375 139 272 116 92 63
332 167 195 93 76 58
292 195 180 115 95 73
292 184 184 115 94 72
282 629 236 128 25 47
398 681 189 81 55 43
370 169 277 122 98 70
310 739 169 154 3 38
290 189 188 116 95 72
373 707 166 61 42 41
397 789 183 56 48 46
357 184 276 116 94 71
354 119 258 117 90 64
290 189 193 112 92 71
334 154 183 116 93 67
309 164 172 117 95 71
378 304 239 100 84 67
311 165 170 118 96 69
308 168 171 118 96 70
310 169 169 119 96 68
486 929 227 90 71 51
384 431 173 97 81 64
404 519 93 69 33 39
310 174 168 121 97 69
306 174 169 121 98 71
315 164 169 119 95 67
282 907 312 207 156 140
367 570 102 200 17 46
278 427 115 83 71 60
340 428 178 86 71 54
350 447 102 85 57 39
320 164 168 122 96 64
370 259 233 89 75 60
389 518 53 190 14 48
320 169 168 123 96 62
291 434 121 70 35 39
344 293 242 95 78 60
291 914 243 66 58 57
264 374 213 116 92 65
327 840 205 58 48 46
321 229 167 124 95 60
384 244 276 127 98 64
394 614 178 66 35 40
475 448 163 91 25 43
310 184 166 122 97 68
257 406 232 124 25 39
414 558 149 154 21 44
310 189 166 122 97 67
233 728 211 137 100 69
437 861 210 69 51 50
406 779 187 52 43 39
398 907 296 71 59 50
315 384 233 75 56 39
375 457 77 79 62 39
280 949 263 63 59 61
315 190 165 123 97 65
320 189 167 123 96 63
302 130 196 111 91 71
365 429 293 100 21 37
385 244 237 103 84 61
268 392 186 106 87 70
303 134 199 111 91 70
370 474 303 67 27 34
375 484 8 67 40 37
300 144 198 111 91 71
296 549 104 59 31 33
272 346 212 116 92 63
301 139 198 111 91 70
303 139 200 110 91 71
380 456 83 81 62 40
464 934 213 93 75 58
415 784 198 55 45 41
305 139 202 108 88 67
303 142 200 110 90 70
364 948 306 53 48 47
347 465 89 81 32 27
299 149 198 110 90 70
398 767 165 88 67 53
383 264 276 134 99 68
301 149 202 108 88 69
365 239 235 85 72 57
360 300 234 89 77 64
302 145 201 108 89 69
436 470 68 110 33 44
298 154 199 110 90 70
387 184 241 107 88 66
330 159 173 122 96 65
246 549 179 116 20 39
295 284 173 131 95 58
289 513 120 104 23 36
343 502 265 147 9 48
300 159 203 108 89 69
242 589 242 152 110 84
357 160 271 110 89 66
275 529 121 103 27 36
310 758 271 65 56 53
305 154 204 103 84 64
403 411 233 79 69 59
370 249 236 87 73 59
268 645 197 140 7 38
409 426 281 68 21 27
305 158 205 101 82 62
235 784 252 160 117 87
310 144 204 99 80 59
288 694 176 62 26 33
353 622 150 146 35 43
383 224 235 103 84 64
315 134 204 98 78 56
348 508 274 138 10 42
320 134 203 91 72 50
315 139 204 97 77 55
385 438 143 94 78 60
333 238 183 115 91 64
350 940 227 72 69 72
305 160 206 100 81 61
409 724 173 56 46 40
390 734 161 60 47 41
327 315 204 75 65 56
320 149 203 86 70 51
375 654 184 40 34 38
421 569 286 161 112 87
505 950 208 96 81 66
242 576 230 136 105 71
320 968 244 85 82 85
401 659 223 72 30 37
315 159 205 89 73 55
320 154 203 86 70 52
494 453 163 122 13 38
315 509 244 111 3 33
320 159 204 87 71 54
294 169 198 113 93 73
440 428 223 86 25 34
362 17 295 88 47 41
382 235 236 100 83 63
473 513 185 46 35 36
296 169 203 109 90 70
283 484 247 117 66 61
269 494 121 131 13 34
297 160 201 110 91 71
297 164 202 108 89 69
389 404 219 102 87 71
302 384 240 114 79 63
309 499 116 99 13 26
299 164 204 107 88 67
335 562 75 226 16 45
305 785 181 84 65 54
360 179 242 110 87 60
299 169 205 107 88 69
382 279 275 139 101 70
302 164 206 105 86 66
414 839 238 49 42 42
305 164 206 101 82 62
307 519 98 100 13 28
287 930 240 58 55 57
255 549 130 157 1 31
282 298 185 121 93 60
390 480 168 94 80 66
320 674 268 85 23 37
301 169 206 105 86 67
504 436 223 73 49 39
415 594 287 157 114 86
298 172 205 107 88 69
278 269 193 120 92 62
375 431 163 96 81 65
300 174 207 105 86 67
486 437 207 63 23 41
303 235 166 124 94 59
305 174 208 98 80 61
355 654 269 61 23 29
324 284 183 109 86 59
291 184 198 111 92 72
411 685 162 74 62 56
399 94 243 132 21 50
374 538 296 167 16 54
294 179 203 111 92 72
381 437 146 95 78 61
292 185 202 111 92 73
325 209 168 121 96 65
375 858 193 58 52 51
255 599 153 153 11 43
414 700 167 68 56 45
338 298 285 107 85 60
430 725 199 58 41 38
290 189 198 111 91 71
356 359 226 82 70 58
325 924 317 151 116 91
430 426 229 69 46 41
291 189 203 111 91 71
329 184 174 119 95 65
355 378 223 89 75 60
286 589 123 67 30 36
343 493 37 97 19 30
300 179 209 106 87 67
441 887 225 59 48 38
305 179 209 97 78 59
295 889 315 153 107 95
451 433 273 70 53 48
326 179 204 87 72 56
298 188 210 104 86 66
404 417 272 86 37 41
300 189 211 102 84 64
314 165 206 89 72 54
530 454 188 164 18 40
319 200 165 121 95 63
320 622 139 231 15 50
281 648 174 119 18 40
334 144 178 123 97 67
308 563 255 123 8 37
315 179 208 88 72 54
315 644 264 94 25 38
345 860 163 94 74 63
300 824 197 94 73 64
490 440 153 135 18 36
320 179 207 88 72 56
310 614 261 84 26 37
333 218 201 93 77 60
310 184 210 91 74 56
475 938 217 79 65 50
385 420 322 75 24 28
282 680 247 73 21 31
448 492 125 41 34 41
315 184 209 87 71 54
392 875 227 64 56 55
249 534 172 91 16 32
313 191 211 89 72 54
376 294 278 135 100 68
320 189 209 88 72 55
441 584 228 206 15 56
260 779 192 153 107 73
345 219 258 116 93 69
404 598 174 37 33 38
287 204 193 111 92 71
340 34 259 96 42 34
320 884 318 166 130 100
424 680 239 78 61 46
287 209 188 108 89 68
339 818 270 173 132 106
380 825 274 52 44 42
246 519 239 172 131 114
286 209 193 111 92 71
286 219 183 112 92 70
393 267 254 116 88 56
289 433 120 58 40 39
320 774 272 67 57 52
287 220 180 113 93 72
357 699 176 107 19 26
442 860 205 79 58 54
331 454 253 64 24 33
327 230 171 122 95 64
248 520 236 169 122 107
279 893 303 144 102 86
341 369 286 145 104 81
286 224 183 113 93 70
369 649 266 157 13 50
376 39 279 117 28 46
443 452 104 192 20 44
285 219 188 109 90 69
285 219 193 112 92 71
380 34 273 97 28 37
284 224 193 112 92 71
287 234 175 120 97 69
352 347 232 80 67 52
413 592 180 55 34 34
287 239 175 120 96 69
339 454 107 105 30 27
370 749 294 76 62 56
375 219 234 95 79 61
286 229 178 117 96 73
348 478 33 67 33 33
285 229 183 113 93 70
334 204 198 95 79 61
283 229 193 113 93 71
437 549 274 164 114 82
285 418 138 94 81 69
380 809 284 62 52 47
286 234 178 119 96 71
354 194 242 114 92 65
408 489 292 88 32 39
283 234 193 113 92 71
451 920 225 85 73 62
397 426 280 96 15 39
315 194 165 123 97 64
316 364 177 88 78 69
228 804 243 178 128 98
446 540 173 176 15 43
283 238 187 111 90 67
442 570 250 162 32 56
282 239 193 114 93 70
400 454 180 98 83 66
362 951 304 63 58 55
282 240 189 112 91 68
390 579 143 198 17 49
291 479 241 71 22 31
448 533 170 181 13 43
439 774 288 170 115 81
430 469 54 115 32 42
277 329 218 118 91 60
287 244 175 121 95 66
329 309 268 96 75 50
346 214 258 115 93 69
381 668 187 94 32 30
430 431 210 91 63 52
287 249 175 122 96 65
365 124 273 118 95 69
363 238 236 87 72 55
395 484 167 95 80 66
283 249 181 121 96 68
285 244 178 119 96 68
285 384 172 90 79 68
392 422 211 98 82 66
380 284 239 102 83 61
283 243 186 112 91 67
449 573 218 111 22 41
281 249 188 113 91 66
310 209 164 122 96 64
352 861 167 105 87 77
310 454 238 44 24 26
383 567 120 51 33 35
360 324 229 89 77 66
412 417 236 74 65 57
282 255 180 123 97 66
361 129 272 117 94 69
436 574 268 157 109 78
365 479 293 60 24 30
390 434 319 163 11 52
500 944 213 93 79 66
280 254 188 116 92 65
290 214 178 114 94 73
280 254 193 114 91 65
363 907 310 45 38 37
401 419 280 84 20 34
294 209 173 117 96 71
323 249 211 87 71 55
305 194 166 123 99 71
267 594 245 150 98 79
324 164 202 86 71 55
301 194 169 122 99 73
365 54 278 117 32 48
395 434 313 111 24 41
360 54 279 123 60 62
321 580 266 149 14 45
303 199 166 124 100 70
264 599 247 152 103 79
408 492 288 92 24 37
355 359 225 80 68 55
333 692 280 57 30 32
351 341 225 77 66 54
305 199 165 124 99 69
273 362 191 116 93 68
298 194 171 119 97 73
421 899 300 64 54 46
320 418 147 94 80 64
298 199 171 118 96 72
454 435 263 90 75 64
304 504 122 61 25 30
300 204 168 122 98 70
247 559 246 154 113 90
292 199 179 114 94 73
341 484 53 51 31 29
290 199 183 111 91 70
289 194 193 112 92 71
460 899 228 81 65 56
289 199 188 112 92 71
465 437 197 87 22 36
279 334 187 110 88 64
288 199 193 111 92 71
440 444 253 62 18 29
343 427 180 85 71 54
287 599 246 140 13 44
444 909 235 88 76 64
293 204 176 114 95 74
416 833 133 107 87 67
365 144 244 115 88 55
287 205 202 111 91 70
286 524 121 116 18 35
288 204 188 110 91 71
284 589 239 134 11 42
320 953 321 72 70 72
425 479 58 182 20 50
315 439 236 105 1 31
288 208 187 108 89 68
399 769 294 158 120 90
318 583 265 151 14 48
437 785 252 142 95 67
280 449 121 132 1 30
292 214 174 114 93 71
494 502 200 147 13 37
396 439 207 98 82 66
262 577 135 169 3 39
374 339 277 136 104 72
393 224 266 124 97 66
386 144 248 114 92 67
296 214 169 122 97 68
335 354 238 97 72 52
293 219 172 118 95 68
275 409 242 144 15 45
317 344 230 71 58 42
284 450 121 130 4 33
405 744 292 172 127 99
345 229 253 116 93 67
425 684 233 65 52 43
333 439 259 120 10 40
436 759 218 57 44 38
346 384 223 89 73 55
296 219 169 121 97 67
356 689 176 71 30 33
250 654 250 178 126 101
375 429 168 97 81 65
322 496 95 40 36 35
232 719 237 151 104 75
312 510 94 37 34 34
450 433 258 72 42 40
295 224 169 123 97 66
302 210 165 123 97 66
335 554 67 125 29 42
332 334 210 67 55 43
305 214 165 122 95 63
450 569 238 192 17 57
424 752 194 77 58 46
354 159 258 109 88 64
305 219 165 123 96 63
355 414 212 89 76 62
262 413 236 133 18 42
305 224 165 124 96 61
306 196 165 123 99 69
315 204 165 123 97 65
295 374 243 129 93 70
319 204 165 120 94 61
353 602 125 213 15 48
295 469 241 55 27 32
310 214 164 121 95 62
334 149 188 106 86 64
282 551 131 136 0 36
492 521 230 205 15 55
328 289 198 88 75 61
310 219 165 122 95 62
485 443 230 41 26 26
310 654 163 177 9 40
346 89 258 113 86 64
238 703 211 125 94 58
315 214 164 121 95 62
468 445 273 113 89 68
321 209 166 121 95 63
258 498 140 141 0 41
279 462 121 125 0 30
426 604 253 141 88 68
343 731 290 190 18 62
384 934 263 51 45 43
310 229 164 123 94 59
318 214 165 121 94 61
262 390 222 119 93 64
294 809 191 92 72 63
315 219 165 123 95 61
340 539 279 97 31 43
405 829 194 58 51 48
319 224 165 125 95 59
295 229 169 125 98 65
268 364 203 113 91 65
446 565 249 43 30 32
306 954 233 75 70 72
387 911 310 53 46 40
252 540 141 75 29 36
423 457 77 106 24 35
369 675 272 133 5 41
286 899 259 147 111 83
292 230 170 124 98 67
385 299 253 109 85 58
353 204 241 115 92 66
358 659 175 114 19 34
290 239 173 124 97 66
360 13 283 102 61 57
245 664 209 139 96 67
364 168 241 109 85 53
348 568 275 120 7 40
437 774 218 62 49 42
336 899 309 149 114 88
295 239 169 128 99 63
305 724 168 97 34 40
292 240 170 126 98 65
284 910 309 202 152 137
421 826 131 110 87 64
310 259 168 124 92 55
370 929 318 49 43 41
485 452 162 88 31 38
333 174 179 120 95 67
384 389 277 122 96 65
446 764 238 77 60 49
323 867 202 44 40 42
301 229 165 124 96 61
369 848 179 78 65 56
285 269 218 112 89 64
305 229 165 123 95 59
361 739 159 65 47 42
355 259 237 95 76 53
300 234 167 125 96 60
286 924 248 53 50 52
290 869 268 113 90 63
387 830 149 139 113 94
301 849 243 169 115 88
336 368 235 90 69 48
302 233 165 124 95 60
395 439 303 55 27 30
305 234 165 124 94 59
351 439 286 95 24 38
440 430 218 92 32 38
388 355 244 114 92 67
301 240 165 126 96 60
300 329 177 118 92 63
456 867 205 76 62 49
288 228 176 117 95 72
375 849 183 76 64 55
365 234 284 128 101 71
370 329 234 91 79 66
295 244 167 129 99 62
295 249 168 128 98 60
430 867 267 67 54 42
489 448 154 172 14 41
414 455 193 98 82 65
333 214 198 94 78 61
286 309 236 106 83 59
377 541 72 207 16 48
292 244 170 128 99 64
293 946 236 73 68 68
327 329 220 72 58 43
290 249 172 126 98 63
413 686 166 77 70 65
470 930 219 77 68 59
292 818 261 49 43 43
335 369 188 80 69 59
347 645 166 73 22 36
281 329 184 109 88 64
290 254 173 129 99 62
275 417 153 94 81 70
330 224 203 90 75 58
397 790 186 56 48 46
450 484 123 175 13 45
293 251 171 128 98 60
419 509 284 87 53 51
411 456 201 98 82 64
379 129 267 117 94 67
420 433 208 94 76 59
349 839 276 148 121 93
300 244 165 127 96 58
300 248 165 128 96 58
415 875 228 71 63 61
305 250 166 126 94 55
305 254 166 127 94 55
385 499 301 123 21 44
278 319 218 124 92 61
350 659 270 106 23 40
405 69 243 121 37 49
281 249 208 118 94 68
329 454 116 105 20 21
360 68 276 121 39 50
315 229 165 123 94 59
318 229 165 125 96 60
380 224 235 99 82 63
321 224 166 125 96 60
337 26 260 103 29 30
397 840 197 58 46 44
354 954 312 72 65 62
251 564 198 147 0 44
436 698 254 59 38 32
384 354 268 132 102 72
287 209 203 112 91 69
314 239 165 123 93 56
320 239 168 124 94 56
363 776 285 76 63 58
310 244 165 124 94 56
285 729 275 139 16 47
420 814 223 66 53 48
350 438 118 82 68 52
280 889 303 167 113 105
310 249 166 125 92 55
311 565 262 124 6 37
393 867 208 65 58 57
363 488 294 124 11 37
312 246 166 125 94 56
395 539 288 157 14 51
356 47 281 112 79 60
432 591 212 196 15 51
310 254 167 125 92 54
355 219 238 106 85 60
275 749 267 116 35 49
275 574 234 76 19 29
420 769 203 70 53 46
313 243 165 125 93 55
316 244 166 125 93 55
315 249 167 125 92 56
319 249 169 123 92 56
406 659 238 53 32 34
424 900 282 75 64 56
319 254 170 123 91 56
495 459 238 47 27 28
385 184 239 109 89 65
287 200 194 111 92 72
340 509 38 144 7 35
394 49 225 115 31 23
263 392 225 122 96 66
326 349 187 87 77 67
287 200 197 111 92 70
332 399 272 146 104 83
284 219 198 112 92 70
411 856 228 73 57 49
278 426 115 83 71 62
383 155 240 109 88 63
286 219 208 113 92 71
239 699 212 129 95 60
285 459 120 122 4 26
460 447 158 92 20 37
284 224 203 114 93 71
466 470 275 173 115 103
287 224 211 113 92 71
369 439 294 45 26 29
347 88 266 104 76 59
342 797 276 190 140 115
378 436 144 94 78 60
341 254 258 116 94 69
239 724 206 130 96 61
328 401 175 94 80 67
283 229 198 114 93 71
282 230 199 113 93 71
300 704 170 53 34 37
364 810 280 47 43 43
288 832 251 63 51 47
375 444 303 148 12 46
326 163 200 85 71 57
386 134 258 114 90 63
356 370 225 85 72 59
425 420 253 72 64 56
282 230 201 112 91 69
337 414 177 93 75 56
282 234 198 112 91 69
356 404 291 138 102 77
283 232 196 113 92 71
350 219 243 109 88 63
333 184 179 113 91 66
282 235 202 112 91 67
479 478 169 169 14 42
468 472 271 192 134 120
283 233 204 112 91 68
400 434 283 67 18 27
282 240 207 116 93 69
478 463 155 139 27 48
286 229 212 114 92 70
345 304 289 136 99 73
384 194 272 122 97 68
302 292 230 78 65 50
277 400 175 91 80 68
348 512 279 95 18 35
286 234 212 114 92 69
448 572 209 58 21 35
395 464 177 97 81 65
280 249 198 116 93 67
279 254 198 116 92 66
287 274 175 132 97 60
334 179 188 112 91 69
281 919 263 160 125 99
326 189 171 121 96 65
280 249 203 116 93 66
365 369 287 133 101 67
282 244 208 118 95 69
360 462 58 70 55 44
344 364 232 82 66 46
281 254 208 117 93 67
297 575 251 94 17 34
324 406 164 89 77 64
259 423 143 81 36 37
369 538 59 110 21 40
256 457 236 78 24 35
283 244 210 118 95 69
285 244 213 116 94 70
285 249 213 118 94 69
352 194 244 108 87 62
284 254 214 116 93 67
329 349 189 84 74 64
475 471 251 60 38 36
384 598 154 188 13 46
261 399 228 117 92 66
286 254 216 113 90 64
232 822 242 210 147 119
451 464 103 171 13 45
289 194 198 112 92 71
343 747 175 118 26 37
339 689 170 131 7 31
407 631 228 76 27 34
288 198 199 111 91 70
370 44 282 122 28 46
385 462 67 87 64 46
288 204 203 112 92 71
290 194 203 111 92 71
409 729 173 59 47 42
461 450 127 145 20 34
292 194 207 110 91 71
289 199 203 111 91 71
468 937 205 109 94 80
316 953 321 59 55 55
387 56 225 88 19 31
427 596 250 145 38 47
291 199 208 111 91 71
294 194 209 110 91 71
434 709 278 151 101 71
286 423 121 93 80 67
293 198 210 110 91 72
314 559 259 126 6 38
359 280 236 82 68 54
380 880 221 60 52 51
360 414 292 103 65 51
383 140 266 118 94 65
295 199 212 107 88 69
365 461 63 73 56 44
292 209 211 110 90 69
375 619 163 49 35 39
360 114 272 119 95 69
281 504 244 130 59 62
244 749 250 169 123 94
330 214 173 121 96 67
395 759 290 138 99 72
393 31 234 107 39 28
380 714 292 36 29 31
295 204 212 108 88 68
226 759 218 163 111 83
293 456 241 40 30 31
315 955 320 66 63 64
300 199 212 99 81 61
370 604 143 203 15 46
380 159 239 105 85 61
475 938 228 86 71 54
325 209 208 89 73 57
397 397 226 125 104 82
275 339 193 121 96 66
300 204 213 100 82 61
289 214 209 113 92 71
393 803 175 67 54 51
350 194 268 117 94 68
528 477 222 198 14 54
343 483 48 64 31 26
291 214 212 112 91 70
295 214 214 108 88 66
288 218 210 113 93 72
242 629 246 150 107 80
295 219 215 107 87 66
379 892 293 33 31 32
355 365 226 82 70 57
402 629 276 165 121 102
323 374 226 70 57 46
300 819 194 92 72 62
411 500 68 124 31 47
246 564 228 133 102 73
394 420 214 101 85 68
375 269 236 94 77 59
350 589 283 183 12 58
295 224 216 106 86 65
441 539 163 40 33 38
295 399 164 85 75 66
446 909 237 84 72 63
300 214 214 101 82 61
454 493 139 96 34 42
300 219 215 100 81 59
403 524 283 156 11 50
305 224 215 97 78 58
469 910 234 74 60 47
297 221 216 104 85 64
389 426 203 98 83 65
300 224 216 100 80 59
404 634 279 170 125 105
376 164 275 120 95 67
315 194 211 90 73 55
302 586 261 130 15 44
446 920 230 91 80 70
385 739 293 68 29 35
316 193 210 90 73 56
350 12 288 106 47 54
298 654 255 152 12 47
315 199 211 91 75 56
318 196 211 90 73 56
401 450 195 98 82 65
321 199 210 89 72 55
382 159 270 118 94 66
319 199 211 90 73 56
395 654 268 137 92 81
335 978 273 51 47 46
259 569 173 109 17 37
301 674 257 152 12 49
425 464 288 70 45 42
361 119 272 116 93 67
357 234 235 95 76 54
405 834 143 102 79 57
315 209 212 92 75 56
326 636 156 213 13 48
319 209 211 91 74 56
254 569 203 150 4 45
310 214 214 94 76 56
454 888 248 77 62 51
445 443 168 87 22 42
315 219 214 95 77 58
412 711 196 42 34 34
246 529 248 158 117 99
289 229 214 112 91 69
295 229 216 105 85 63
284 344 239 134 95 73
305 412 151 92 79 66
289 234 214 114 93 70
361 956 289 57 53 53
288 238 215 116 94 71
325 469 117 101 16 25
364 441 114 81 66 52
365 874 274 39 36 35
291 234 216 112 91 68
332 942 326 50 44 41
250 524 168 113 8 34
473 505 256 145 5 44
290 239 217 113 91 67
413 488 48 201 18 52
300 229 216 100 81 59
415 559 278 138 94 80
254 529 218 155 4 47
276 309 193 123 97 68
385 844 261 35 31 30
346 419 286 155 11 50
384 558 114 142 29 46
305 229 216 96 78 57
435 427 238 63 36 35
372 392 211 98 84 68
300 234 217 99 80 58
324 179 169 126 98 63
258 459 134 96 18 35
329 314 283 117 89 64
259 469 113 137 0 37
421 559 286 165 116 91
305 844 258 170 128 104
300 239 218 98 79 57
452 897 219 90 76 68
295 324 178 123 96 65
377 570 116 38 34 38
305 234 217 96 77 57
305 239 217 95 77 57
385 711 154 76 54 43
450 429 228 80 24 33
285 674 248 83 17 34
361 159 245 113 89 58
357 596 121 161 11 37
290 244 217 113 91 66
340 59 263 132 98 75
290 249 218 112 90 66
418 787 205 53 45 40
359 554 289 116 20 41
510 898 217 75 59 51
276 384 179 99 84 69
410 689 183 67 53 44
239 694 213 134 98 64
454 479 288 183 122 100
295 254 220 106 85 61
326 364 253 107 78 57
300 249 219 101 80 58
419 719 291 168 114 81
356 98 271 118 96 73
229 774 213 174 118 88
320 425 134 93 78 61
360 724 177 92 28 33
305 244 218 95 77 56
305 249 218 95 77 56
246 534 198 156 0 45
307 227 215 95 77 56
315 229 215 93 75 55
433 446 145 93 22 39
410 554 268 42 29 27
385 149 243 106 86 63
281 685 252 74 16 30
315 234 215 93 75 56
316 238 215 92 75 55
320 234 213 92 74 55
395 499 299 86 22 37
407 849 222 66 55 51
313 235 216 93 76 56
351 441 110 84 68 50
332 224 176 119 94 66
390 105 253 109 53 51
256 604 193 95 33 43
373 21 269 103 70 62
310 244 217 94 76 56
310 254 219 92 74 54
405 689 213 56 34 36
348 362 231 80 66 49
317 242 215 91 74 54
251 798 200 167 113 80
395 229 253 116 91 62
393 375 248 115 91 63
416 734 183 61 48 43
320 244 214 90 73 55
258 609 211 85 39 40
320 249 214 90 73 55
471 469 268 156 107 96
350 884 188 66 60 60
388 180 266 120 95 66
346 249 244 111 88 61
395 74 220 134 21 31
473 464 271 149 112 90
449 749 233 80 60 48
315 244 216 92 74 55
315 249 217 92 74 54
334 364 237 91 69 47
351 189 248 110 88 64
341 856 164 98 80 66
326 24 273 131 23 44
318 246 216 91 74 54
375 224 282 127 101 69
418 744 185 62 49 41
320 254 213 89 72 54
315 254 217 91 73 53
280 509 119 40 36 39
320 798 185 79 61 53
325 134 171 120 94 62
278 659 235 116 12 38
409 421 225 75 55 46
324 141 170 122 96 64
380 709 158 60 44 43
329 399 238 74 60 44
450 900 239 96 81 66
327 144 171 126 98 65
339 520 41 153 17 43
235 734 207 133 98 64
330 134 172 125 96 60
260 494 123 152 0 34
353 885 286 121 98 79
360 264 285 133 101 69
255 749 252 162 113 90
357 864 273 137 105 83
327 389 176 90 79 68
333 134 175 127 98 64
334 224 193 101 82 62
333 144 175 124 97 64
334 134 183 117 93 65
278 269 203 120 95 66
333 134 188 106 85 60
375 824 274 51 43 41
332 133 190 100 80 59
331 139 193 94 77 58
349 79 269 106 81 62
334 144 188 106 86 63
404 523 99 86 30 39
252 594 153 170 5 43
411 826 131 109 85 63
327 149 171 126 98 64
444 894 263 91 73 57
325 154 170 124 97 64
327 374 244 87 67 50
330 154 173 122 96 64
330 934 218 75 67 68
370 624 164 63 30 38
280 454 121 127 2 28
415 529 273 51 20 24
274 924 278 148 119 104
446 575 233 174 20 53
333 154 175 120 94 64
260 699 207 93 68 51
386 47 247 111 95 80
436 579 268 157 110 78
239 619 238 155 110 82
333 149 178 120 95 65
334 149 183 117 93 67
355 14 298 99 46 48
442 476 96 186 17 49
425 619 289 170 117 87
333 149 192 98 80 59
333 159 178 119 94 65
334 154 188 109 88 65
327 254 176 120 93 61
360 409 208 94 78 62
338 309 241 102 81 58
333 154 192 99 80 61
334 159 188 109 88 65
325 164 169 124 97 64
436 485 97 191 16 49
330 339 218 67 56 43
360 229 234 93 75 54
366 950 241 73 67 68
408 675 235 70 45 38
355 619 270 131 28 47
328 909 316 162 116 93
324 169 170 124 96 61
327 164 171 125 97 64
406 468 192 99 83 65
324 174 169 126 98 62
264 473 238 87 26 30
397 86 250 96 50 44
327 174 171 127 99 64
310 344 237 74 55 34
330 164 173 122 96 66
384 409 282 92 74 55
330 169 174 122 96 65
335 739 284 72 56 52
430 861 229 57 47 42
349 199 248 112 90 66
430 459 287 84 50 46
388 399 219 104 89 73
332 169 176 122 97 67
421 464 289 41 25 28
328 369 270 138 98 76
471 514 183 49 36 37
288 562 121 120 2 35
351 199 244 109 87 62
355 914 218 68 63 65
339 459 269 129 9 40
364 15 265 104 89 75
457 446 116 164 19 35
334 169 183 117 94 67
387 895 238 67 60 59
290 399 242 137 98 76
420 689 288 166 113 81
340 359 233 83 65 45
334 164 188 109 89 66
345 74 258 123 37 47
338 688 280 46 24 27
334 169 188 110 89 66
334 169 193 98 80 61
332 174 177 120 95 67
334 174 183 117 93 67
345 729 292 189 17 60
345 499 268 146 9 44
271 379 232 125 97 68
352 466 50 82 50 42
310 620 137 229 15 50
334 174 188 111 90 67
317 653 266 93 38 45
334 174 193 100 82 62
326 184 171 124 97 64
344 484 43 91 23 28
324 189 169 122 96 63
259 589 142 171 8 41
330 179 174 121 96 65
332 179 177 118 94 66
340 407 213 81 68 54
299 474 241 64 22 28
334 184 183 111 90 68
358 543 275 86 20 33
286 289 179 131 98 63
334 179 193 101 83 64
393 577 145 198 17 49
375 349 229 93 83 72
292 967 301 58 53 53
331 339 239 120 86 63
335 184 193 102 84 65
332 189 177 112 91 66
346 229 273 120 97 72
361 744 160 60 43 39
412 800 207 73 55 48
363 543 290 90 21 34
333 189 179 111 90 67
398 476 40 100 75 49
345 433 133 85 70 54
334 189 183 110 90 68
323 134 201 86 69 51
408 681 190 96 64 45
370 204 281 126 100 71
326 139 199 86 71 55
311 329 234 66 54 40
323 139 201 86 70 53
354 744 173 64 37 39
260 474 153 63 26 33
323 144 201 86 70 53
335 428 178 87 72 54
290 416 148 93 80 67
328 134 196 90 74 56
329 493 88 62 32 34
328 139 196 89 73 57
290 919 238 61 58 59
281 279 218 115 91 63
469 441 184 102 14 40
355 24 259 93 37 30
407 751 176 57 45 41
262 719 205 77 57 49
344 244 248 112 89 64
328 814 265 168 124 104
329 144 196 87 72 57
326 149 199 86 72 57
334 745 279 72 58 51
412 585 281 153 109 87
393 919 298 54 47 44
392 52 238 105 86 71
300 589 112 99 33 41
420 452 113 123 25 30
323 149 201 86 70 54
436 784 248 104 68 49
277 273 201 121 95 66
442 442 171 90 31 46
326 159 199 85 71 56
328 149 196 88 73 58
329 154 197 88 73 58
344 254 248 109 87 62
341 494 263 148 6 45
349 574 283 102 19 37
329 159 197 88 74 59
350 704 172 107 16 29
399 54 233 86 30 32
249 594 249 152 110 82
325 169 202 85 71 55
285 409 244 133 21 44
262 764 190 144 106 69
375 119 269 121 96 69
495 449 159 181 15 42
379 588 138 204 16 48
331 868 298 125 100 72
395 716 144 94 64 44
450 875 238 44 38 35
327 167 200 86 72 57
320 669 168 138 1 33
349 219 274 120 98 73
395 59 223 108 36 24
426 510 117 207 19 52
335 389 233 84 67 51
322 173 205 86 71 54
325 174 204 86 71 56
365 564 93 203 17 45
323 498 92 35 33 36
323 176 206 87 72 55
372 24 285 102 36 42
332 204 176 115 92 67
331 174 199 90 75 59
369 25 260 108 93 77
381 688 274 107 1 30
351 464 78 90 28 29
396 540 112 199 19 48
333 174 196 95 78 60
328 175 201 86 72 58
445 429 263 75 61 54
396 500 28 208 20 53
326 184 204 87 72 57
410 549 268 31 24 25
400 448 113 90 59 45
338 483 78 50 34 32
330 379 182 81 72 62
312 880 240 84 70 57
272 419 241 117 18 40
395 829 186 65 54 51
324 189 207 87 72 56
326 189 204 87 73 58
346 450 100 117 39 28
354 554 274 69 24 32
331 179 199 89 74 59
333 179 197 93 77 59
328 324 217 73 60 45
361 896 211 54 50 52
277 291 207 125 97 66
389 676 178 73 42 36
331 419 258 135 4 42
333 184 197 94 77 60
334 494 58 68 29 30
329 179 201 87 73 59
329 184 202 87 73 59
416 479 283 57 38 35
332 188 200 91 76 61
420 444 293 41 29 29
272 351 195 118 94 65
330 189 202 88 74 59
390 464 176 96 81 65
259 729 206 89 61 51
353 467 47 79 55 41
335 214 183 114 92 67
390 21 228 89 76 70
379 533 63 214 19 51
466 535 192 129 25 44
506 915 217 95 82 70
498 457 170 135 16 44
226 744 228 156 108 77
445 863 218 69 54 39
352 174 253 109 88 66
355 89 273 116 25 44
455 499 263 141 46 53
386 359 263 131 100 68
405 437 173 100 83 65
358 134 251 106 83 55
458 488 272 187 125 104
373 434 300 46 29 30
358 139 251 108 85 59
365 184 279 120 97 72
360 139 248 119 95 67
379 29 268 91 67 52
381 38 258 103 91 78
408 597 180 157 37 49
433 587 246 78 24 35
339 44 274 120 86 67
360 144 248 114 91 65
375 489 5 128 30 39
363 134 246 119 94 63
366 134 244 116 89 56
276 324 213 127 97 66
443 856 218 46 38 30
315 914 322 154 119 98
393 427 321 156 18 49
366 139 244 115 89 55
338 529 279 53 26 33
361 439 291 49 28 31
470 439 231 107 2 34
337 310 240 109 85 59
426 755 202 65 50 43
273 359 191 117 93 67
454 553 194 123 32 46
359 154 248 111 89 63
406 719 163 79 60 49
359 159 247 113 90 63
403 776 183 46 38 37
415 690 218 57 43 39
403 762 190 58 46 45
362 150 245 115 91 61
362 154 245 113 89 60
400 484 173 95 81 66
295 609 254 122 27 47
365 159 242 110 85 52
370 430 158 94 79 64
395 840 264 38 33 31
331 239 178 118 93 65
367 155 240 109 84 51
330 414 258 112 14 37
370 139 242 112 86 54
376 139 240 104 81 53
388 284 263 132 93 64
324 827 270 140 112 88
343 244 253 114 92 67
375 144 240 104 82 54
243 521 176 90 22 26
382 130 241 109 85 56
407 541 126 112 9 39
382 134 241 109 86 58
435 889 275 85 71 59
480 504 188 84 23 33
329 309 208 80 70 60
329 410 164 94 79 64
384 134 243 114 90 63
484 523 243 180 10 56
384 139 243 111 89 65
278 294 213 121 92 61
395 389 238 104 85 63
398 587 160 178 15 47
370 159 239 105 82 53
375 154 239 103 82 56
335 199 188 111 91 69
375 159 239 101 81 58
328 219 206 90 75 59
368 152 241 109 83 50
415 669 286 166 119 87
394 379 253 121 95 64
365 174 239 104 81 52
404 543 124 190 17 45
262 394 198 104 85 66
403 644 238 111 11 32
300 509 123 87 26 33
366 169 240 105 82 51
471 869 221 56 45 35
476 452 157 104 23 39
266 469 252 93 55 50
359 163 246 113 90 63
350 204 273 117 95 71
310 794 268 106 76 63
277 934 273 180 140 117
475 454 143 86 30 37
389 689 174 61 42 37
421 673 248 85 65 45
361 164 244 113 89 59
308 507 240 131 11 37
353 168 252 107 86 63
275 794 188 182 129 98
362 174 240 109 85 56
368 612 150 166 52 71
288 574 240 131 8 38
414 669 244 66 53 40
360 189 239 109 86 58
257 489 136 139 0 41
365 179 239 103 81 54
505 479 242 76 29 36
424 834 124 111 88 65
333 229 197 95 77 58
359 183 241 111 88 60
367 362 285 127 98 63
370 179 239 99 80 58
440 865 273 95 80 67
277 324 190 116 92 64
369 478 182 96 81 65
355 189 243 114 91 63
253 767 201 91 58 34
276 690 252 40 28 29
251 589 193 83 31 39
493 482 185 129 4 35
371 401 205 94 81 70
450 879 268 61 46 34
416 474 188 99 83 65
328 299 199 88 76 64
319 869 236 114 84 65
479 441 231 32 26 25
352 190 245 110 88 64
357 191 240 117 93 64
425 810 222 71 56 50
440 432 208 90 46 41
315 574 93 111 24 42
375 164 239 99 80 57
375 174 238 98 80 60
380 164 239 104 85 62
267 574 245 150 96 78
306 374 240 95 67 48
384 164 240 109 89 65
306 967 250 89 86 88
366 774 175 70 52 42
259 404 223 89 70 54
384 169 240 109 88 65
266 688 245 93 67 53
380 174 239 103 85 63
267 659 235 142 98 81
375 179 238 98 80 60
301 612 130 75 30 39
375 184 238 97 80 60
283 268 215 117 93 67
329 249 178 119 94 63
370 219 283 129 102 71
380 184 238 103 84 63
385 189 238 109 88 64
419 493 73 191 23 53
251 559 178 158 1 42
414 416 253 74 65 57
324 194 169 121 95 64
371 630 172 48 34 39
463 466 257 71 15 29
390 438 148 97 80 62
398 60 224 93 42 28
327 199 171 117 93 65
321 204 166 121 95 64
410 734 163 64 49 40
365 224 234 90 75 58
423 689 286 163 108 79
435 455 98 156 14 38
531 465 203 168 16 42
329 194 174 116 93 66
360 549 288 97 20 36
490 937 216 86 74 62
330 204 173 117 94 66
330 209 173 120 96 68
282 714 180 111 21 33
505 964 208 103 88 73
281 874 298 153 73 84
334 882 191 74 63 61
295 344 176 95 83 70
332 194 176 110 89 66
277 319 190 120 94 65
447 739 254 64 47 36
355 234 237 100 80 55
333 194 179 110 90 67
405 724 163 69 54 45
463 483 149 98 32 41
334 199 183 112 91 68
239 644 223 153 109 79
335 199 193 102 84 65
341 339 234 85 66 45
416 539 278 88 55 49
282 942 301 189 142 121
416 485 48 209 18 51
364 414 197 92 78 64
335 204 183 114 92 68
420 594 288 163 118 86
334 304 242 117 93 68
437 801 285 177 118 88
352 220 240 111 89 64
332 208 176 116 93 66
350 824 273 169 134 105
284 550 131 112 12 36
335 204 188 111 90 67
386 687 269 71 16 24
370 74 272 108 54 53
292 848 224 47 46 51
310 399 163 85 75 64
423 764 204 64 50 42
335 209 188 110 89 66
321 219 166 124 95 61
459 449 108 171 21 42
366 635 172 65 31 35
325 224 169 124 96 62
326 11 290 127 54 56
327 216 171 122 96 64
416 654 286 178 132 107
327 219 171 123 96 64
350 974 263 74 69 70
351 437 122 83 68 54
327 897 315 162 120 98
259 680 246 154 112 84
328 209 170 121 96 67
303 346 241 89 62 42
420 419 253 72 64 57
328 212 170 123 98 67
404 730 156 72 54 40
330 219 173 121 96 66
328 269 183 113 89 61
269 464 258 113 66 62
497 510 239 153 24 54
333 330 203 71 61 51
330 224 173 121 95 65
420 639 288 188 134 105
410 794 302 167 126 95
340 438 117 79 64 48
370 200 235 96 81 64
372 861 206 56 50 50
335 214 188 109 89 66
390 834 153 105 84 63
300 444 120 81 32 35
334 219 188 110 89 66
413 747 180 63 50 41
334 219 193 101 82 62
279 499 252 153 96 83
326 239 172 121 94 62
255 634 208 117 86 59
330 714 167 84 35 38
310 829 263 158 120 96
453 444 245 65 20 25
325 796 270 185 136 116
332 229 177 118 94 64
245 824 254 207 150 126
388 395 272 121 96 66
359 214 237 101 80 56
333 229 179 118 93 65
279 944 288 195 148 126
392 52 254 87 62 41
408 488 30 147 27 44
356 626 156 108 20 38
360 24 258 93 61 44
333 229 183 116 92 65
333 234 183 116 92 65
309 299 175 117 89 57
399 503 48 78 33 38
332 235 181 117 93 65
252 513 230 90 35 34
360 472 27 84 68 49
290 349 177 93 82 71
333 238 188 112 89 64
320 432 122 89 75 59
385 479 304 168 12 54
350 734 293 163 16 53
360 764 287 73 60 55
425 870 253 60 49 43
323 243 170 122 94 59
389 106 249 103 67 56
322 249 171 122 93 58
403 558 266 52 26 28
325 244 173 120 94 61
323 378 226 68 56 44
278 324 219 119 91 59
375 669 267 136 16 44
349 474 43 54 28 32
410 827 282 150 94 70
321 254 171 122 92 58
332 304 248 110 87 62
306 509 113 96 11 30
435 886 227 49 41 40
425 427 280 90 17 29
514 441 214 76 46 32
328 243 175 119 93 63
327 249 176 120 93 61
248 517 120 58 40 39
369 369 223 99 86 72
422 491 76 199 18 47
389 446 114 83 65 51
330 244 178 118 93 63
425 544 148 62 36 42
467 441 124 152 28 44
240 784 203 165 112 78
347 471 74 75 33 35
332 244 183 115 91 64
401 837 158 101 77 51
331 249 188 110 89 64
420 826 129 114 89 67
440 437 191 86 51 47
332 244 188 111 89 64
348 204 263 113 91 68
352 454 286 77 28 36
400 705 164 93 64 46
331 244 193 100 81 60
290 929 313 183 146 127
324 194 207 87 72 56
388 164 262 119 95 67
390 594 158 102 25 40
403 627 205 125 42 59
270 769 259 43 37 36
400 764 293 147 110 82
327 193 205 87 72 57
298 585 111 82 32 39
397 511 61 138 34 57
327 199 205 86 72 57
329 409 244 100 31 38
337 349 235 95 73 53
364 423 197 91 78 64
382 530 295 174 13 53
327 203 205 88 73 58
402 496 32 96 36 47
438 696 230 71 54 40
405 494 33 99 29 38
380 447 107 82 64 46
365 264 234 85 71 56
384 329 248 118 94 65
334 194 198 94 78 61
374 89 271 96 79 59
370 354 282 128 100 66
330 199 203 88 74 59
356 314 285 139 100 67
476 933 233 111 92 74
290 889 313 155 103 95
380 219 235 101 84 64
314 679 265 94 25 39
338 405 213 80 67 53
342 480 58 75 28 27
320 660 166 164 4 40
283 954 289 80 60 55
447 480 112 181 15 45
300 965 253 91 87 88
282 495 244 118 62 60
332 194 200 92 77 61
327 23 270 129 12 44
411 452 107 108 28 29
248 519 209 49 29 30
329 504 58 82 27 32
375 837 158 135 101 68
478 930 242 88 73 60
410 461 73 96 29 38
274 650 182 110 24 42
295 789 183 89 69 59
334 209 198 94 78 61
393 424 293 84 24 36
332 328 203 71 61 52
270 794 189 187 128 95
319 560 81 118 27 40
333 204 201 92 76 60
227 769 215 171 117 86
321 204 210 89 72 55
322 209 210 90 74 56
325 214 209 90 74 57
365 194 237 96 78 58
490 919 218 108 88 72
328 209 206 88 74 58
245 828 252 210 149 123
345 489 33 101 18 29
443 856 210 54 47 45
255 828 214 214 147 116
330 214 203 90 75 59
355 589 282 188 7 59
328 214 206 89 74 58
330 229 203 90 74 57
354 577 95 65 33 31
380 254 235 96 79 59
344 494 33 109 14 28
325 629 267 67 29 36
271 349 213 115 91 64
333 214 201 92 76 60
331 738 282 67 55 50
333 219 198 95 78 60
332 224 200 92 75 58
323 215 211 90 74 57
323 219 211 92 76 58
321 639 266 65 28 33
323 21 284 156 117 93
460 448 153 100 21 35
414 694 169 68 51 40
323 224 211 92 74 56
254 664 246 171 121 99
371 270 236 88 74 58
290 643 164 173 15 46
385 179 268 120 95 65
350 194 248 113 91 66
420 774 300 167 122 86
348 199 253 113 92 68
332 719 286 104 25 42
305 299 233 76 61 45
349 204 248 112 91 67
327 244 204 87 72 55
253 594 199 55 27 33
324 369 227 71 58 48
327 567 80 209 15 46
481 447 172 106 27 41
426 898 259 76 60 48
397 100 232 105 76 71
349 209 248 112 91 67
347 206 254 114 92 69
295 584 113 54 35 37
320 729 168 154 1 37
378 405 205 98 84 71
350 214 243 110 89 65
268 665 236 136 99 81
416 549 142 155 20 45
366 375 224 97 83 69
348 214 248 112 90 65
347 215 249 112 90 66
350 562 75 227 19 45
328 369 221 71 60 50
414 573 163 55 32 36
289 879 310 163 121 126
347 219 249 111 89 64
393 199 253 119 95 66
350 533 282 127 25 47
285 919 308 176 138 120
541 911 234 102 84 67
413 628 244 84 51 42
340 304 238 96 79 58
285 349 179 98 84 70
457 480 284 180 120 99
360 314 284 139 100 66
396 64 221 102 41 27
456 446 113 175 17 36
347 224 245 109 87 61
447 496 131 161 29 47
388 497 15 206 21 46
321 279 214 78 66 53
441 560 187 130 20 43
388 462 191 96 80 64
390 59 223 100 33 25
379 853 198 62 54 55
352 224 240 110 88 63
345 437 118 79 65 50
346 219 253 112 90 66
345 224 253 113 90 65
420 489 68 104 26 41
400 699 168 96 67 47
296 599 257 108 21 42
480 904 213 58 48 38
330 958 317 76 71 71
412 466 60 86 40 42
325 239 208 87 71 54
333 232 196 97 78 59
323 229 211 92 74 55
270 431 115 133 8 35
323 232 211 91 74 55
328 337 257 100 73 53
282 912 306 195 142 126
280 739 273 143 18 49
323 240 211 88 72 55
415 446 134 94 45 43
325 244 208 87 71 54
327 254 205 85 70 55
448 431 276 73 43 42
458 886 223 48 40 33
329 254 203 86 71 55
388 112 241 123 85 67
262 612 154 155 25 46
394 446 119 86 65 52
330 579 269 133 11 41
323 253 211 87 72 55
275 474 120 111 10 29
355 434 133 84 70 54
305 279 224 84 67 48
375 468 48 87 70 54
309 888 238 69 58 49
445 764 268 170 119 83
347 234 244 107 85 60
240 654 218 157 113 83
361 860 186 69 60 58
400 834 193 68 56 51
332 427 177 89 74 56
345 239 248 113 90 63
385 229 237 104 86 65
385 44 268 75 41 38
380 374 278 123 96 65
337 476 94 89 26 32
344 249 248 111 89 63
391 469 304 112 20 40
342 250 254 114 91 65
328 259 202 85 71 56
342 254 253 113 90 65
349 249 242 111 88 60
349 254 241 112 88 60
351 254 240 104 83 58
365 264 285 136 102 67
356 199 240 113 90 64
395 479 301 116 28 45
360 199 237 106 85 60
395 712 157 83 57 49
261 449 108 110 15 36
336 349 287 145 100 82
356 204 239 110 89 63
360 204 237 103 83 59
365 203 236 97 79 59
378 375 281 124 98 67
365 209 234 95 78 58
440 454 123 144 18 29
365 64 277 122 31 49
415 805 300 195 142 113
367 26 290 113 16 40
354 199 242 115 92 65
454 435 268 81 69 60
420 734 292 168 115 82
359 219 236 98 78 55
261 479 121 146 0 33
359 224 236 97 78 54
349 249 279 122 98 71
490 441 198 110 30 37
361 214 235 96 77 55
323 591 106 224 16 46
370 492 5 121 40 40
365 214 234 94 76 57
255 604 203 38 30 32
421 560 157 49 33 37
376 33 279 94 71 57
361 219 235 95 76 54
353 214 241 112 91 66
258 449 99 47 36 45
346 581 96 112 31 43
315 454 119 128 9 28
439 734 278 161 109 74
365 14 273 102 76 66
372 636 176 67 23 30
325 869 188 79 66 59
370 198 236 95 80 63
380 539 78 183 17 47
375 198 236 98 83 67
295 334 242 104 75 56
367 916 321 51 46 45
370 204 235 95 79 62
389 209 239 106 88 68
317 369 176 90 80 70
368 202 236 95 79 61
375 204 234 99 84 67
345 414 208 81 68 56
406 829 208 65 53 51
445 894 253 93 74 60
380 199 236 103 87 69
246 534 248 173 125 109
395 54 248 82 59 48
385 194 238 108 88 65
324 431 124 94 78 60
355 734 177 80 30 34
242 553 187 115 15 39
350 389 218 85 71 57
380 204 235 104 88 71
382 203 236 105 89 72
300 344 176 98 83 68
444 784 233 60 46 40
533 451 194 107 41 35
255 549 218 135 29 47
386 550 108 117 22 41
385 204 237 108 90 70
384 210 235 107 90 72
382 931 305 64 56 52
327 384 258 115 81 62
355 428 153 88 74 59
370 224 234 90 76 60
478 474 251 145 108 94
370 214 234 93 78 61
370 219 234 92 77 60
385 224 236 107 88 65
377 689 169 64 48 38
354 239 237 100 79 55
392 431 320 161 13 52
278 659 182 65 26 35
385 549 288 178 2 56
381 251 235 97 80 60
332 505 49 67 33 36
429 818 238 71 54 48
532 465 230 128 19 44
365 229 234 90 74 57
264 624 188 93 31 40
254 565 136 160 1 34
364 254 238 87 73 57
412 717 187 44 36 35
303 854 258 177 132 107
365 234 234 87 72 56
352 476 25 101 29 32
392 34 229 114 34 26
335 425 143 91 76 60
361 239 236 88 73 55
320 839 210 66 52 51
380 792 170 86 63 51
362 236 236 88 72 55
260 704 207 98 69 51
355 244 237 98 78 55
354 28 256 81 34 29
276 929 288 191 152 131
360 244 236 90 73 54
426 820 258 75 48 40
392 465 304 82 24 35
308 647 260 80 26 32
326 359 253 106 76 56
379 59 271 126 9 43
360 249 239 90 73 54
387 106 253 114 84 69
424 889 213 86 69 59
360 254 239 87 72 55
366 254 235 86 72 58
443 740 271 159 108 76
271 374 188 111 91 68
261 433 103 116 22 21
342 250 262 118 95 69
371 418 192 94 80 66
380 840 181 72 59 53
295 855 298 93 76 58
363 254 242 88 73 56
444 498 128 75 36 41
469 528 189 67 34 37
370 229 234 89 75 59
370 239 234 86 73 58
342 468 271 50 23 30
407 441 209 94 80 65
290 857 292 95 78 60
254 554 218 123 40 47
375 234 234 91 77 61
324 504 78 58 32 31
335 489 73 54 31 34
442 724 241 105 81 60
375 239 235 90 76 61
380 234 234 97 80 63
380 239 235 96 79 62
360 498 14 187 14 39
315 858 293 119 98 76
383 232 235 100 83 64
340 654 167 152 9 35
378 340 234 94 82 69
397 467 191 98 82 65
419 674 286 166 113 82
385 234 237 104 85 64
327 389 244 80 64 47
370 254 234 88 74 59
325 784 274 56 46 45
370 249 284 132 101 66
380 243 235 95 79 61
250 519 123 54 39 40
344 399 193 87 70 54
250 574 249 155 111 86
380 245 236 96 79 61
275 709 267 129 12 41
245 524 243 143 109 86
380 249 236 97 80 60
444 454 287 113 79 71
394 92 225 148 25 43
301 405 159 90 77 65
538 451 208 69 27 23
383 242 235 101 82 61
360 794 167 54 45 41
342 485 48 66 30 31
359 418 202 91 78 65
385 254 238 102 82 60
341 474 268 77 21 35
328 334 190 84 74 64
260 614 249 155 107 80
335 379 282 143 104 82
389 25 225 89 76 70
390 24 227 91 69 62
343 704 170 120 11 29
317 265 171 120 89 55
419 680 208 65 50 38
390 54 224 96 28 22
355 13 278 102 78 69
503 952 195 149 116 84
390 63 221 98 35 25
399 64 224 91 46 26
369 691 287 122 6 37
431 589 258 145 96 72
387 39 227 109 55 50
378 299 276 138 102 71
392 39 232 120 29 21
415 438 193 100 84 66
319 499 98 41 35 33
285 649 172 108 22 40
390 44 228 114 43 39
331 309 253 115 88 62
258 530 157 34 30 30
257 429 164 43 30 33
391 45 232 112 62 56
262 629 181 45 30 32
529 473 228 178 10 54
388 49 228 109 72 69
363 568 94 202 17 46
391 404 222 103 88 71
394 35 228 117 31 25
355 39 283 130 19 49
415 464 294 57 28 33
469 469 264 71 28 33
393 33 233 109 38 30
393 38 225 123 26 22
352 386 215 86 72 58
385 448 316 73 33 39
341 43 276 130 100 77
300 274 224 96 77 55
297 544 104 55 31 32
394 45 232 108 45 42
375 469 308 98 25 37
396 49 228 105 34 32
395 49 233 93 54 44
356 437 126 83 68 53
495 455 236 48 26 25
390 49 253 95 81 62
455 442 173 90 22 46
367 546 66 190 21 50
416 510 98 114 34 45
388 54 226 83 35 34
269 640 177 47 32 37
430 450 258 60 16 29
391 52 234 110 91 79
398 50 229 96 23 34
334 379 237 93 71 53
384 394 214 102 87 71
398 50 232 91 23 31
458 454 254 75 7 27
399 54 228 93 32 33
396 52 235 90 54 37
415 429 282 80 17 28
380 89 268 104 62 54
480 454 153 93 27 36
405 774 189 47 40 38
395 53 238 94 75 55
318 289 221 79 65 50
399 55 238 79 41 30
284 438 120 53 34 37
320 628 144 226 16 54
293 954 305 70 52 50
467 432 230 89 22 37
359 484 7 65 36 40
437 746 208 70 54 46
351 799 174 60 48 40
400 59 228 82 36 27
403 61 238 90 36 35
353 229 280 119 96 73
254 552 145 97 14 36
343 491 265 149 6 44
270 594 142 151 4 33
395 54 243 90 71 56
472 911 199 81 62 49
388 184 266 121 95 65
283 744 176 148 8 37
392 412 275 80 54 47
258 489 148 105 15 36
398 56 242 69 41 32
315 709 275 118 21 44
394 54 253 87 41 33
342 254 263 116 94 68
270 469 258 111 70 62
450 433 208 69 35 32
400 59 243 84 32 31
318 913 200 92 82 82
505 456 236 126 10 39
396 58 254 100 30 38
465 434 233 95 17 38
414 472 46 85 44 40
401 59 233 84 34 30
327 394 253 101 71 52
388 159 262 117 93 66
401 63 227 81 42 29
410 465 64 86 39 42
403 61 233 86 34 30
340 274 248 107 86 62
403 65 229 86 42 34
275 664 233 64 22 29
404 64 233 93 36 35
404 64 238 99 35 40
331 384 238 86 67 50
303 971 278 68 63 63
363 912 315 41 37 36
373 562 100 51 27 24
402 63 244 102 39 42
338 364 194 73 63 54
342 427 192 81 68 54
404 65 243 108 40 45
394 404 263 117 94 68
279 474 252 139 92 79
401 64 248 110 35 42
283 288 225 104 83 61
305 729 169 99 27 39
387 69 220 140 12 31
448 503 140 145 25 46
345 550 270 103 24 40
328 329 248 108 80 60
225 769 228 167 115 85
390 65 220 101 31 21
418 451 115 122 26 31
387 73 220 143 12 34
255 744 205 111 76 53
390 184 263 122 97 69
426 599 248 148 36 49
475 464 243 57 28 29
390 74 220 139 15 33
350 29 257 94 38 38
265 544 253 162 111 87
340 565 77 221 15 44
388 76 221 143 12 36
375 354 278 128 101 68
265 578 135 165 2 38
488 446 180 106 29 32
389 80 221 145 14 37
298 575 106 122 36 49
419 855 227 68 53 40
394 65 220 98 41 25
395 69 220 123 31 32
278 299 218 127 91 63
397 69 221 111 41 26
329 364 243 93 69 48
280 769 263 66 56 50
335 12 286 123 41 54
394 78 220 139 22 38
420 744 293 163 114 80
468 467 245 61 27 34
260 704 251 121 82 63
397 74 221 133 28 33
400 74 223 120 39 39
400 79 223 125 33 43
390 84 222 149 14 39
390 89 224 148 14 39
395 84 222 145 24 42
250 545 141 64 19 30
337 37 276 125 9 41
384 696 281 80 18 32
396 69 254 109 35 45
430 794 298 171 118 90
485 442 192 103 24 34
382 223 275 119 94 65
245 744 203 135 100 68
399 69 252 117 25 43
369 324 281 143 103 74
472 911 241 70 57 44
395 74 254 101 59 55
338 50 268 114 11 40
350 422 178 89 74 59
246 519 198 80 27 36
293 923 315 90 77 71
392 75 255 116 82 73
405 453 98 97 28 34
269 398 182 102 87 71
316 314 182 103 83 59
395 79 253 111 42 50
385 878 214 68 57 55
401 79 248 130 15 48
390 94 227 142 15 37
332 829 198 53 46 46
398 88 225 146 21 48
400 89 228 144 27 50
405 509 288 148 16 48
339 274 253 106 85 61
328 687 275 45 26 30
489 915 232 76 61 47
364 507 296 104 27 43
399 94 233 133 34 49
392 95 254 116 60 59
399 89 247 133 21 51
444 478 103 185 15 48
354 377 226 89 75 61
314 888 223 43 39 42
321 858 223 78 61 54
398 401 225 131 108 84
430 599 238 139 21 48
392 84 255 110 63 58
395 84 252 107 43 48
360 634 268 124 23 43
300 344 241 100 70 50
394 89 253 118 46 54
396 89 250 104 56 52
316 319 182 104 83 60
434 449 285 95 30 39
351 194 272 118 96 72
349 607 129 217 14 51
392 89 255 118 42 51
328 459 245 127 5 35
345 349 288 144 102 76
473 522 190 55 38 39
398 83 251 117 21 46
245 814 213 185 126 93
278 294 210 124 96 65
436 447 146 91 24 41
400 89 243 135 12 50
261 539 153 56 25 32
257 612 167 164 3 45
394 94 252 122 31 49
305 474 119 127 11 27
397 94 250 121 23 44
402 68 226 93 38 33
522 481 230 143 17 43
405 69 233 115 37 44
270 714 263 152 13 47
403 74 225 119 31 41
403 79 228 129 22 41
393 254 249 113 89 60
507 500 234 86 27 39
402 80 226 123 33 45
314 304 179 106 86 62
265 489 263 180 119 102
405 74 233 130 30 45
322 906 196 88 76 79
405 74 238 130 23 49
239 614 228 150 108 77
269 529 252 156 103 83
404 79 238 137 21 52
401 509 294 73 24 34
354 219 279 118 97 73
440 453 103 181 14 39
403 69 247 123 34 48
308 887 320 134 104 74
425 674 283 166 111 80
402 69 249 124 34 49
300 643 160 199 16 48
525 914 218 99 81 63
375 299 237 93 79 64
269 704 258 68 27 34
414 451 296 47 23 28
360 784 283 68 57 55
403 74 247 131 27 53
450 564 203 129 28 45
335 577 90 122 22 42
403 78 242 134 23 51
410 464 198 99 83 65
439 539 268 159 94 76
391 904 257 60 51 50
320 754 173 139 17 39
336 359 213 77 65 53
406 808 297 181 133 107
241 679 243 168 117 91
260 594 173 82 25 37
402 74 249 132 23 53
254 539 228 105 28 35
342 499 35 114 16 30
376 699 164 57 42 37
401 84 228 134 32 48
399 538 113 195 18 47
403 83 229 140 22 47
399 528 98 194 19 48
360 364 288 136 103 69
401 89 233 146 20 51
472 485 166 135 20 42
402 85 233 148 22 53
402 85 238 143 16 57
370 294 236 79 67 54
342 270 245 116 93 65
401 89 238 139 11 52
426 684 284 163 110 75
504 436 220 75 49 40
329 299 213 79 68 57
328 385 264 129 93 71
330 618 134 198 11 46
354 942 321 56 48 45
240 794 207 173 117 83
300 825 254 109 78 61
401 84 243 139 23 54
419 709 213 53 36 35
403 82 241 139 15 53
385 414 298 60 50 41
390 99 228 138 20 37
250 769 255 163 123 91
335 564 267 54 23 30
422 551 151 47 33 39
336 349 198 71 62 54
365 28 256 103 88 72
398 578 266 55 28 29
239 514 178 73 27 34
390 103 230 132 21 34
390 106 231 126 22 35
243 617 245 151 109 82
282 416 159 95 82 70
395 99 229 115 56 51
394 103 230 109 50 41
385 443 123 83 67 54
370 474 28 86 66 47
306 359 240 90 63 43
398 98 233 127 45 52
397 105 238 130 30 47
394 109 234 111 93 85
410 479 178 99 83 65
392 99 254 120 79 69
292 544 241 37 27 28
