ply
format ascii 1.0
comment Created by Open3D
element vertex 2193
property double x
property double y
property double z
property uchar red
property uchar green
property uchar blue
end_header
412 744 144 105 78 54
251 639 207 63 29 36
253 639 205 57 35 37
258 633 200 45 35 41
256 635 202 49 34 40
257 639 203 55 36 40
244 638 211 169 5 42
224 632 226 54 25 27
225 635 228 154 17 46
225 640 233 62 32 39
224 642 240 75 25 34
223 704 244 103 21 37
224 695 250 99 26 39
272 702 311 104 15 37
222 699 254 123 19 41
236 579 310 146 114 87
206 679 299 153 106 81
234 642 221 178 10 49
402 814 264 93 66 52
236 654 224 179 10 48
239 659 221 160 3 42
239 669 221 49 29 34
237 669 224 125 18 43
257 644 204 51 34 38
255 651 207 162 9 46
355 778 162 64 52 47
252 654 209 165 3 41
242 644 215 158 3 37
287 904 300 121 93 74
245 644 212 153 1 38
225 762 222 51 28 33
240 644 217 164 6 41
247 654 213 164 2 43
232 779 305 163 121 87
247 659 214 138 1 33
242 659 219 158 4 41
252 664 210 132 2 32
424 782 251 127 97 73
250 662 212 132 0 32
256 659 208 144 0 35
230 869 296 118 49 64
256 664 208 132 2 32
205 654 294 148 103 80
256 669 208 117 9 31
229 659 244 152 8 44
232 649 229 169 5 47
226 644 239 168 14 51
281 963 303 77 69 65
229 648 235 165 3 42
404 766 189 76 57 43
230 646 232 199 9 55
230 649 233 171 4 45
398 714 178 87 66 46
230 651 237 188 3 53
260 652 291 127 11 36
235 704 222 49 34 35
231 654 234 186 7 51
208 603 272 67 27 32
230 655 238 189 6 52
342 649 273 82 28 37
233 654 229 181 8 47
373 689 257 95 57 41
225 645 244 184 16 56
225 646 249 85 29 40
226 649 249 139 13 44
283 714 310 151 1 47
252 689 298 75 26 35
225 646 254 75 25 38
228 654 244 186 4 53
227 654 249 110 21 42
232 659 234 177 7 50
231 664 239 156 8 45
235 660 227 158 8 43
234 664 230 168 9 44
235 669 228 135 5 39
229 664 244 151 14 45
230 664 242 150 10 44
229 669 244 93 31 41
225 694 249 81 29 35
227 669 254 78 25 36
237 674 224 64 32 38
238 684 220 38 33 39
401 752 143 94 65 44
236 684 224 87 25 37
236 689 223 125 21 39
235 699 222 46 35 38
237 704 219 47 35 37
225 923 247 64 60 60
233 704 224 106 21 39
387 715 173 87 69 51
256 674 207 71 32 37
252 684 208 72 28 32
258 679 205 104 18 31
396 704 209 86 73 61
244 674 216 100 31 40
248 684 210 56 34 38
245 689 213 36 36 39
241 684 218 45 36 38
249 674 211 43 34 37
356 795 152 67 54 49
313 844 180 57 52 54
252 674 209 49 34 36
396 539 219 187 17 50
251 694 207 100 21 33
205 707 277 129 100 67
257 694 203 62 30 36
252 704 205 56 35 39
257 699 203 116 18 34
247 694 210 84 29 35
245 624 312 162 113 81
240 694 217 44 37 40
402 793 179 92 68 53
377 659 265 185 126 106
262 529 314 155 124 100
377 714 158 84 62 47
242 699 214 81 34 41
244 700 211 118 28 42
232 674 234 98 25 37
267 794 289 66 53 49
346 654 269 133 16 45
230 683 238 95 27 43
230 689 234 60 33 38
350 842 272 42 35 32
229 689 239 55 33 37
234 674 230 104 22 40
277 649 197 143 7 34
233 684 229 101 23 37
356 868 209 79 66 62
229 674 244 67 31 35
244 515 304 78 18 31
230 672 242 96 42 45
230 872 296 174 167 167
228 679 244 56 31 36
227 679 249 63 31 36
227 674 254 139 13 43
227 684 249 46 30 36
227 689 244 71 25 35
226 689 249 94 28 43
232 694 229 60 30 35
229 691 236 55 23 31
228 694 239 81 29 40
226 704 239 121 15 37
392 839 289 75 56 41
229 699 235 143 7 43
230 702 232 134 3 38
225 698 247 121 15 34
373 584 244 61 37 33
209 674 280 136 101 70
224 701 246 126 10 37
251 893 228 143 104 75
224 715 235 100 29 40
224 709 240 61 32 35
237 814 223 79 61 52
219 710 255 128 14 41
400 527 216 170 19 37
221 714 244 144 7 43
220 719 244 138 6 39
220 718 247 146 4 45
219 714 254 136 7 39
312 899 184 74 64 59
218 719 254 120 14 38
224 724 230 134 7 41
222 724 234 132 9 39
220 728 238 104 22 37
232 569 299 113 77 63
220 734 233 130 14 40
216 724 254 93 22 39
332 844 163 82 66 58
337 714 190 82 28 32
345 633 201 91 27 37
214 735 250 44 33 39
325 877 179 90 75 68
222 759 224 108 17 32
376 543 171 42 33 38
222 764 224 54 37 40
222 769 224 62 52 48
404 784 178 98 77 62
384 706 162 87 66 49
206 764 254 149 112 77
352 753 288 167 23 59
206 769 249 148 107 74
337 877 190 76 69 71
215 749 239 133 70 57
374 593 238 71 32 30
222 739 229 132 7 39
216 744 239 114 23 40
224 939 241 62 58 60
220 742 232 143 12 53
322 809 184 52 47 47
219 745 231 145 2 39
224 749 226 104 20 40
214 739 249 66 46 44
215 737 247 41 34 39
214 740 246 50 32 37
214 749 244 138 105 73
222 964 269 78 73 76
212 749 249 148 113 80
212 828 298 200 143 118
214 750 241 136 102 69
216 764 234 126 96 64
212 769 239 148 107 75
321 628 287 105 19 40
219 754 230 76 24 32
221 754 228 110 13 34
320 894 196 75 70 71
223 754 225 119 13 32
306 888 290 33 31 31
343 770 281 83 64 57
220 758 227 91 20 33
217 754 234 110 50 49
207 649 289 150 115 82
219 764 226 45 33 36
410 737 166 92 65 47
218 769 229 91 74 57
211 754 249 147 110 78
212 759 244 140 104 71
209 756 251 150 113 78
209 759 250 150 112 78
375 574 199 149 14 45
208 769 245 148 107 74
231 714 224 134 13 41
239 709 216 66 37 41
238 719 215 67 33 38
236 714 218 78 32 39
236 719 218 73 34 38
229 719 225 113 10 37
249 967 240 86 82 83
250 756 207 110 26 41
404 757 217 141 105 73
228 724 224 130 7 37
327 879 303 41 37 36
230 723 222 128 7 32
392 734 164 62 50 41
227 729 224 120 14 37
229 734 221 82 30 36
371 793 146 88 66 51
235 729 217 128 8 34
246 709 208 64 31 35
246 714 208 132 10 38
252 709 204 66 34 38
256 709 202 75 29 33
255 537 311 156 122 105
198 719 280 144 106 76
249 714 206 114 12 33
249 719 206 147 1 37
232 934 308 188 148 128
252 719 204 145 1 36
255 714 202 113 20 34
228 589 308 147 115 90
243 714 210 115 20 39
407 779 170 78 59 46
241 714 213 51 35 39
246 729 208 134 5 36
317 824 263 152 113 91
249 729 206 138 2 36
320 931 277 59 52 51
252 729 205 138 2 34
256 729 203 138 3 35
233 854 274 140 107 83
252 734 204 138 7 36
241 724 212 128 7 34
203 589 264 153 5 45
262 779 206 82 65 55
243 729 211 135 4 35
272 934 204 90 82 82
357 689 274 135 7 42
230 708 227 116 12 35
254 681 297 49 24 29
226 719 229 91 25 35
225 717 232 106 25 41
223 959 294 49 46 46
225 732 227 110 6 20
343 805 266 65 51 43
227 749 224 66 31 38
235 739 217 144 2 35
235 744 217 118 13 35
405 760 203 70 53 39
302 628 186 101 34 43
227 754 223 127 16 36
383 758 157 70 54 46
232 754 219 80 26 36
232 759 218 121 10 32
228 769 220 70 56 50
235 758 217 130 8 31
427 778 233 119 89 66
237 764 215 133 15 39
237 769 215 71 50 46
234 764 216 132 15 38
247 739 208 74 31 37
249 739 206 102 31 38
252 739 204 75 28 36
247 744 208 111 23 39
236 780 302 157 119 86
255 739 202 82 26 37
249 748 206 138 15 38
202 584 264 107 16 37
243 739 211 105 21 35
228 864 289 138 51 69
241 739 212 144 1 35
270 898 203 55 52 54
241 749 212 112 23 37
252 754 205 81 30 37
257 759 203 52 35 39
247 769 209 75 52 49
257 764 203 83 34 38
257 769 204 95 56 53
244 754 211 92 29 39
292 554 283 55 28 31
253 925 206 69 62 61
196 759 268 143 106 74
241 754 213 118 23 40
244 759 211 83 29 38
241 759 213 106 22 36
243 764 211 106 26 39
242 864 254 105 82 54
243 769 211 70 50 47
224 739 226 149 1 41
190 514 260 118 17 42
342 784 275 74 58 52
193 519 264 56 28 32
189 524 257 133 13 43
189 527 257 48 20 29
322 929 244 78 69 69
191 529 259 41 28 31
282 639 293 171 14 55
193 524 264 51 29 31
194 529 263 61 25 33
195 525 266 78 23 35
196 529 269 94 25 37
198 514 279 52 29 31
200 514 281 47 29 28
202 514 283 91 25 37
242 655 290 74 52 44
207 514 284 89 25 37
327 899 214 69 62 62
203 529 282 76 29 37
237 824 228 87 66 55
207 529 283 89 22 36
195 534 265 158 11 48
197 534 269 90 23 37
367 579 185 171 19 38
378 529 184 61 25 32
200 536 276 55 30 33
200 539 276 51 24 30
201 539 279 70 29 34
312 630 290 100 30 42
232 774 304 163 119 85
212 519 285 89 24 35
217 514 285 79 20 33
217 529 284 30 27 27
226 874 274 124 78 72
222 514 286 121 8 37
377 514 180 129 18 46
222 524 285 28 26 27
212 544 282 32 26 27
288 976 264 75 72 73
217 544 284 35 26 28
221 544 289 44 24 28
223 544 294 115 14 38
194 549 259 160 7 47
303 514 274 93 56 49
196 549 264 130 17 41
207 599 273 37 27 30
412 774 258 100 71 48
390 742 162 62 50 40
197 549 269 72 26 36
233 569 303 137 108 85
196 554 264 160 4 45
406 760 249 147 101 72
197 559 264 101 15 37
198 559 269 61 25 33
337 899 269 67 59 61
199 549 274 77 24 34
200 549 276 98 21 34
285 872 217 50 47 48
202 549 280 114 22 42
202 559 279 92 19 35
209 555 282 44 26 28
307 619 289 50 23 27
208 559 284 37 28 31
410 817 211 128 87 65
215 649 306 160 115 90
199 563 264 39 27 33
198 569 259 73 22 34
199 573 258 82 19 34
200 565 264 36 29 33
200 569 261 69 29 36
200 565 269 62 27 35
231 854 284 175 127 108
208 564 288 96 23 38
401 828 230 154 103 79
204 574 282 55 28 31
209 547 282 68 12 27
382 719 260 135 91 62
216 549 285 61 24 33
215 552 286 130 5 41
308 950 284 58 53 52
218 885 294 88 61 50
216 554 289 132 7 41
316 531 266 131 83 71
219 546 287 33 26 32
212 659 304 163 113 91
209 574 287 105 23 42
215 558 291 140 8 43
217 559 294 149 9 47
221 548 294 133 13 43
222 554 298 159 12 49
410 822 244 108 79 64
212 569 290 85 20 35
214 560 292 146 7 47
217 564 294 162 8 51
212 574 289 63 28 33
267 855 288 117 96 73
337 679 195 97 21 26
222 570 291 47 20 26
216 954 274 54 51 53
227 514 286 115 2 34
229 514 287 118 4 35
195 744 295 167 114 90
232 519 289 125 7 38
226 524 286 63 21 30
229 524 287 117 9 39
297 679 296 103 15 37
226 533 286 52 23 29
224 536 287 31 27 26
226 538 290 63 21 30
237 519 294 132 11 42
235 522 291 135 11 46
236 524 294 118 12 40
233 529 294 82 18 33
318 930 309 56 48 46
237 529 304 48 26 29
230 533 294 79 20 33
233 534 303 55 27 30
412 804 249 139 95 73
226 539 294 118 11 38
307 649 192 53 35 38
237 904 309 131 97 85
230 537 301 90 10 34
232 539 303 74 21 32
277 957 226 98 92 96
360 862 210 72 60 57
391 749 257 168 116 85
229 544 302 98 18 38
238 533 307 74 24 34
237 539 305 68 27 32
237 544 303 60 26 29
240 512 291 126 8 39
242 514 294 129 9 40
241 518 299 105 20 39
245 512 299 120 7 36
248 514 309 104 16 35
245 517 306 26 28 26
247 519 309 51 23 31
240 527 306 43 31 25
322 514 290 183 121 100
247 524 310 159 21 54
358 821 158 92 73 54
247 529 308 146 32 53
252 520 311 156 26 53
253 514 312 156 17 50
257 514 313 175 24 59
258 518 312 165 71 79
242 533 307 61 25 30
247 532 307 78 33 38
221 604 288 125 96 76
247 534 305 66 35 36
313 523 273 113 69 59
377 705 196 88 67 48
231 889 306 125 90 73
252 534 309 130 97 86
202 769 303 165 118 89
257 534 313 158 123 106
250 538 306 117 82 73
252 539 309 142 112 94
248 544 308 139 114 93
212 599 274 58 26 30
251 544 310 152 122 101
344 775 180 50 44 43
257 544 314 167 129 109
232 549 301 52 25 30
304 870 180 51 48 48
237 819 225 83 64 54
232 547 302 49 28 29
232 559 295 69 17 27
238 548 302 72 26 30
312 804 195 86 67 55
236 550 301 69 22 28
236 559 299 104 43 45
297 744 190 62 35 36
238 559 304 128 98 80
393 836 269 97 72 61
231 564 295 71 20 29
427 744 144 98 80 64
402 729 165 72 55 42
226 570 291 68 21 28
230 574 299 122 91 73
312 794 280 102 82 71
382 529 206 82 19 30
235 568 305 141 112 89
234 575 307 141 113 88
347 909 304 91 76 74
327 520 285 182 122 98
242 549 304 96 57 52
245 548 306 126 98 83
253 549 313 157 125 103
216 944 274 105 85 77
249 556 312 156 124 101
252 554 313 158 122 99
245 563 311 154 121 98
243 569 312 148 115 91
205 773 248 149 106 74
240 573 311 151 119 93
365 703 184 76 62 53
247 574 314 156 117 91
257 564 313 170 124 98
256 569 313 169 121 96
201 579 264 86 23 35
201 584 259 164 0 46
202 579 269 59 27 34
204 578 282 40 30 31
207 579 284 67 28 34
205 585 280 110 17 39
204 588 277 126 15 40
207 589 279 111 21 40
204 594 264 163 4 45
205 599 259 163 5 46
205 599 265 155 0 43
204 594 269 130 11 40
428 794 229 130 93 66
223 589 299 134 108 84
264 733 312 127 23 47
204 598 268 139 7 41
301 514 270 63 27 28
205 600 270 94 16 36
317 874 276 30 28 28
205 604 259 168 0 45
287 684 299 145 13 46
204 602 263 155 0 41
205 604 264 155 0 41
396 838 239 145 101 82
208 609 269 93 19 39
204 593 273 32 28 31
370 867 262 57 47 43
384 598 248 138 112 84
207 592 277 66 26 31
209 578 287 61 27 29
212 584 284 61 22 28
352 908 309 74 62 58
347 829 257 39 34 31
426 806 237 100 71 55
332 704 296 78 20 33
217 584 284 46 26 29
194 774 288 175 120 90
212 590 280 68 22 29
360 788 267 64 53 44
257 789 206 80 63 54
223 578 287 90 19 34
332 894 315 56 48 42
222 584 285 67 25 33
416 770 184 101 76 59
212 595 275 76 22 32
216 604 276 89 25 39
217 609 275 149 8 48
220 595 281 83 27 38
287 604 291 126 27 47
223 599 284 89 34 39
222 604 284 110 54 52
326 868 290 38 34 32
220 608 287 128 96 76
221 594 294 124 97 75
220 598 293 129 103 80
220 598 300 148 115 92
372 859 269 77 61 53
218 609 289 135 105 80
216 609 294 149 117 92
219 606 302 157 122 98
221 604 304 157 121 97
392 753 148 86 64 46
224 600 307 154 119 93
287 945 314 62 54 53
223 604 307 154 117 93
357 829 162 110 80 59
307 679 293 146 17 47
223 609 308 152 114 89
208 614 259 177 0 46
209 613 268 135 17 46
215 615 271 118 13 39
209 617 259 173 1 46
209 617 262 181 4 53
388 529 207 138 21 37
282 584 155 195 9 39
227 604 310 152 114 88
213 623 259 107 29 45
377 719 260 112 67 51
302 764 190 134 9 34
218 949 284 65 51 48
214 623 263 39 30 30
364 755 165 43 40 40
213 618 268 79 28 37
229 585 307 142 114 88
215 625 264 87 30 40
217 614 273 134 13 46
216 619 289 141 113 85
388 834 198 86 68 60
389 560 219 151 22 45
220 615 276 98 17 36
218 618 272 91 23 38
219 622 272 54 22 31
323 849 165 79 67 63
218 619 284 131 100 74
215 626 259 71 27 37
219 629 268 144 24 47
220 635 265 142 23 46
221 639 259 96 26 37
328 575 167 180 7 40
220 636 260 121 21 42
407 824 239 101 74 58
213 629 284 125 99 72
212 629 289 143 115 85
214 625 286 125 101 77
214 631 281 119 93 66
217 634 278 122 89 65
210 634 289 150 120 90
211 639 284 137 109 81
378 669 220 82 67 53
209 640 289 156 124 91
262 770 202 82 59 53
222 629 274 115 36 46
287 584 155 174 11 42
220 628 277 121 77 61
287 609 290 69 22 33
222 634 274 115 46 48
220 632 277 121 74 58
215 614 294 151 118 92
398 824 219 145 97 76
417 769 229 148 105 75
216 614 299 155 118 92
214 620 290 146 117 87
272 894 209 47 46 49
249 600 311 168 118 94
215 617 294 153 120 92
218 614 303 155 117 91
220 622 306 158 118 92
222 624 309 154 114 86
355 734 187 62 48 43
210 639 294 155 119 87
216 634 304 145 108 80
213 639 303 145 109 80
219 630 307 148 111 81
222 629 309 154 115 85
219 634 307 145 108 79
370 882 291 101 75 63
281 793 287 74 58 49
218 639 307 147 109 83
358 912 305 91 77 65
322 784 280 74 58 51
386 827 190 84 65 59
352 674 269 141 14 44
222 634 309 152 113 84
224 584 287 49 25 32
272 775 203 84 65 55
225 586 286 47 23 27
225 589 286 81 23 35
252 844 229 163 117 91
226 589 289 89 53 48
228 579 294 81 55 45
230 578 305 140 114 89
287 669 296 163 4 51
224 591 291 108 80 66
224 586 296 121 95 74
232 919 310 103 92 86
225 587 300 137 111 86
226 589 305 146 117 92
230 582 306 141 114 89
237 584 313 143 109 83
237 589 314 144 109 82
225 593 306 150 119 94
274 539 285 54 23 30
340 548 156 108 29 41
227 594 308 149 115 90
227 599 309 152 115 89
294 832 211 86 68 60
206 734 306 167 117 91
230 598 311 151 113 87
232 599 313 148 111 84
230 602 311 149 112 87
232 609 314 156 117 89
237 599 315 153 116 89
284 966 291 70 65 63
356 538 166 170 13 35
307 564 154 79 32 38
237 604 315 159 121 93
237 609 315 162 122 94
266 559 304 166 108 88
372 640 226 81 57 41
329 541 147 47 40 40
242 579 314 146 112 84
247 579 314 162 121 94
247 584 315 164 122 95
242 589 315 157 118 91
247 589 314 165 120 92
302 629 293 75 28 35
257 769 299 62 51 47
254 580 311 171 120 96
254 576 311 169 120 95
257 579 309 174 121 99
252 579 313 167 120 93
251 584 313 167 120 93
253 589 310 170 121 96
325 913 234 75 66 65
252 833 278 52 43 38
246 955 228 72 67 69
256 589 308 172 120 92
312 584 164 133 18 38
255 609 294 95 64 48
255 609 299 147 95 71
404 774 261 97 70 50
256 604 299 146 92 69
317 889 194 74 68 70
255 604 304 162 112 84
242 599 315 165 122 95
386 569 229 74 27 36
247 599 313 168 120 92
242 604 315 167 123 94
242 609 315 168 122 91
382 789 264 69 49 37
252 599 309 167 118 91
256 599 304 164 112 85
250 593 312 169 122 94
248 609 310 164 114 87
251 609 308 162 113 86
319 901 203 68 61 62
254 609 305 163 113 86
225 633 274 114 33 47
229 614 312 156 116 89
280 812 282 144 104 84
232 614 314 156 115 88
226 624 311 155 114 87
298 772 191 79 60 53
232 619 314 159 117 90
268 554 299 166 109 87
232 624 314 161 118 91
333 544 261 88 5 27
237 614 315 165 122 95
207 819 300 193 135 109
237 619 315 166 121 94
318 894 179 94 87 82
237 624 314 168 122 93
227 629 313 159 117 89
412 771 189 90 69 54
225 638 311 161 119 90
227 639 312 161 117 89
400 709 220 107 86 62
232 634 314 165 120 92
232 639 314 168 121 92
352 739 189 64 37 36
237 629 314 168 120 92
257 614 290 53 26 30
255 614 294 97 62 48
255 613 299 147 95 71
340 797 168 50 43 46
254 615 300 153 100 75
252 884 314 150 118 90
257 619 290 51 28 32
254 620 291 64 28 35
332 813 267 88 68 58
407 769 169 77 60 49
254 619 294 104 66 49
398 654 234 130 96 72
255 617 292 82 33 30
322 555 152 51 35 40
254 616 295 119 78 61
353 839 259 54 45 38
388 844 229 101 68 59
342 719 190 70 32 34
253 624 291 57 29 32
257 624 289 48 28 30
382 704 260 137 93 64
252 624 294 106 69 52
436 738 148 94 78 68
253 624 299 148 94 72
252 624 304 162 108 82
246 614 313 165 115 86
247 624 310 161 110 80
242 619 314 168 120 90
246 619 312 163 113 83
251 614 308 164 113 87
251 619 308 165 114 87
250 624 308 164 114 87
430 739 136 89 77 69
257 629 289 43 28 29
252 629 294 100 62 47
251 639 294 101 54 45
253 634 290 62 28 31
417 818 239 105 79 61
207 654 299 152 103 82
257 634 289 74 25 32
253 639 291 105 21 36
251 634 299 145 92 69
268 586 292 35 29 29
250 634 304 162 107 81
403 755 135 96 68 36
245 912 222 152 114 85
250 639 303 162 105 82
369 732 160 74 58 47
247 629 309 161 112 82
273 534 304 169 117 95
244 631 311 160 109 77
369 519 193 69 20 31
297 545 142 182 5 37
243 639 311 162 112 82
206 744 263 97 74 50
246 634 309 163 113 85
262 539 129 113 20 37
241 634 313 162 114 83
250 628 307 165 114 88
365 719 168 68 53 39
249 634 306 166 113 86
222 949 249 72 67 68
249 639 306 167 113 87
208 649 284 153 118 88
302 779 284 79 61 53
256 826 222 88 68 60
205 664 289 140 101 73
252 849 284 82 66 50
208 669 280 151 110 82
402 724 219 118 91 62
206 669 284 141 103 73
205 669 289 135 96 69
224 644 259 166 17 50
302 686 191 49 36 36
369 625 222 104 48 42
223 644 264 114 33 42
222 644 269 112 43 44
338 590 177 120 24 40
215 644 277 123 95 67
215 648 277 127 97 69
209 644 285 151 119 88
322 899 204 70 63 63
210 648 282 144 112 83
215 652 277 136 101 75
358 837 151 134 105 81
209 654 281 152 114 81
331 834 163 58 50 50
246 951 223 75 71 72
218 644 275 122 90 63
343 684 197 103 21 25
221 645 273 115 71 56
222 649 274 122 86 65
222 654 273 106 77 62
211 659 278 151 110 81
267 864 234 146 108 75
212 804 244 164 114 79
214 659 276 149 110 83
304 854 271 117 92 75
216 944 269 87 75 70
214 663 276 148 108 80
288 956 301 58 53 52
209 664 281 159 115 85
211 669 278 145 106 77
214 669 276 142 104 77
217 669 275 139 100 75
403 803 183 81 62 52
222 664 273 110 81 63
362 863 296 55 47 44
222 669 274 117 87 65
207 649 294 127 92 67
208 649 299 133 92 71
277 774 200 83 63 56
205 659 294 148 102 78
205 664 294 146 101 75
207 659 299 156 105 84
207 664 299 155 105 83
359 730 174 64 50 41
204 671 291 139 98 71
204 671 293 147 102 76
210 642 296 142 109 77
209 645 298 128 95 67
212 649 304 149 107 81
212 654 304 164 116 92
215 644 306 148 108 82
218 644 308 156 113 88
305 816 202 86 66 57
222 644 310 161 114 89
222 649 310 167 115 91
217 654 308 165 114 90
222 654 309 166 115 90
209 658 302 165 114 90
350 627 201 47 34 32
210 664 301 152 105 83
212 664 303 153 106 83
210 667 301 153 107 83
212 669 303 150 105 80
205 737 267 114 85 59
209 671 302 150 105 81
215 659 306 157 107 84
218 659 307 149 101 77
339 896 259 65 57 56
222 659 309 144 98 73
222 664 309 145 102 75
218 669 307 144 100 74
222 669 309 151 107 81
206 674 284 135 100 69
205 673 288 135 99 69
206 679 283 136 103 69
208 679 280 130 98 66
267 529 313 156 118 95
204 679 285 143 106 75
203 679 289 150 108 78
207 689 279 129 99 67
202 684 289 153 111 80
202 689 289 153 109 81
202 694 289 153 111 81
234 694 306 161 110 84
204 694 281 137 103 72
339 896 276 62 54 58
273 786 291 87 68 56
335 903 222 82 72 69
299 764 291 82 62 56
206 699 279 130 101 68
206 704 278 129 101 67
372 694 257 96 46 36
201 699 289 153 112 81
203 704 280 134 103 70
332 769 285 79 62 55
201 704 284 146 109 77
314 896 307 39 37 36
204 699 281 136 102 69
381 828 276 78 64 52
223 684 264 58 34 34
223 689 259 108 25 41
372 695 164 94 67 48
222 689 264 67 35 37
386 766 262 135 95 68
223 689 269 62 43 40
313 849 180 60 54 55
212 674 278 138 103 73
212 679 278 135 102 69
214 673 276 141 105 76
217 674 275 139 103 76
215 676 277 139 104 74
292 622 181 61 35 41
211 684 277 130 100 67
213 684 276 132 100 70
210 687 277 127 98 66
222 674 274 116 87 66
218 695 271 89 69 50
214 702 271 115 87 61
217 704 269 77 59 46
222 694 264 60 31 37
222 694 269 67 47 42
219 704 264 59 37 40
360 706 287 78 12 28
267 769 299 69 56 51
220 699 259 71 29 37
220 704 259 86 26 39
221 699 268 69 49 40
220 702 267 64 50 41
212 694 274 127 98 67
216 694 272 109 83 60
209 699 276 129 101 68
212 704 273 127 97 67
356 811 261 61 48 44
220 692 272 78 61 46
203 684 294 156 109 83
206 684 300 152 106 80
388 723 173 87 62 44
203 694 299 155 109 83
205 694 301 153 106 83
204 704 302 162 116 91
207 704 304 162 115 89
209 674 302 150 103 80
212 674 304 149 104 79
212 679 304 150 107 79
372 844 295 70 55 42
212 684 305 150 107 80
215 674 306 149 104 78
362 794 148 83 63 52
211 689 305 150 106 81
252 972 254 86 81 82
217 679 308 147 105 76
217 684 308 149 106 79
331 644 196 64 32 37
213 689 307 149 107 79
214 685 307 148 105 79
218 674 307 147 104 77
222 674 310 156 110 84
222 684 310 160 113 88
364 653 240 78 67 67
222 689 311 161 113 88
360 847 247 68 56 46
213 694 308 152 107 82
331 829 163 55 48 46
217 694 309 154 109 83
398 820 213 124 84 68
359 742 176 77 57 47
212 699 308 155 109 84
210 704 306 160 114 86
212 704 308 158 112 84
217 699 310 158 112 86
332 754 186 68 31 34
217 704 310 161 114 86
208 828 269 206 139 109
222 694 311 163 115 89
222 699 311 165 117 90
222 704 311 168 119 91
225 646 258 144 16 47
225 649 259 137 13 44
224 647 261 115 15 31
224 647 263 92 25 35
225 646 266 99 32 39
226 649 264 70 32 36
226 646 269 99 27 36
257 967 308 70 62 59
228 649 269 70 38 38
377 574 259 142 114 83
226 654 259 131 19 43
227 654 264 60 37 37
226 654 269 51 42 37
367 649 263 156 100 82
224 656 271 70 57 52
224 681 260 77 36 39
225 646 272 107 63 55
226 649 273 84 55 45
225 652 272 69 55 48
252 944 318 47 46 47
227 659 259 117 20 39
264 686 302 47 19 27
228 664 258 119 17 40
229 662 263 77 27 38
348 845 179 81 65 59
230 665 260 136 9 43
224 659 271 69 57 47
228 669 258 121 13 44
230 669 260 137 9 42
231 669 264 103 21 39
337 533 278 162 103 82
227 669 273 72 50 42
230 670 272 59 38 38
227 644 312 162 114 89
232 644 313 166 120 91
208 784 308 173 124 95
237 644 313 164 119 87
237 654 313 171 123 93
222 914 254 145 116 89
239 663 289 93 71 60
226 659 311 148 104 77
226 664 311 150 109 80
286 525 272 82 23 33
228 659 312 151 108 81
228 664 312 154 112 84
232 659 313 160 115 86
227 669 311 164 117 91
352 904 318 72 61 55
229 669 312 171 123 97
239 660 311 175 121 91
238 664 310 179 125 97
237 659 312 175 124 94
314 955 264 68 65 65
236 664 312 178 126 97
237 669 309 177 122 95
397 734 253 172 116 87
243 655 293 85 55 45
370 524 194 43 23 30
248 650 294 91 52 40
342 894 279 61 52 54
291 755 192 140 3 36
247 655 291 57 45 40
246 653 294 87 55 45
246 654 299 143 93 71
249 646 296 114 66 52
251 648 293 88 44 44
254 644 291 108 22 38
257 644 291 128 8 41
252 649 291 94 35 42
250 644 299 148 90 70
250 644 303 164 105 79
249 644 305 169 112 87
243 649 310 173 122 92
388 614 259 151 110 74
228 948 235 68 63 65
240 649 312 171 121 90
242 654 310 175 123 94
387 714 194 76 63 51
245 654 307 176 124 96
243 659 294 83 58 47
420 771 187 91 66 51
357 614 266 111 56 50
247 659 290 52 42 38
247 664 290 64 35 35
243 664 304 164 115 90
374 558 195 104 18 37
245 657 296 112 75 58
230 791 222 74 59 51
244 660 305 172 116 91
244 668 291 78 59 50
243 669 294 88 64 51
247 669 290 62 34 33
321 899 184 71 63 59
242 669 299 119 83 65
241 669 304 152 110 84
252 659 290 89 23 34
252 664 290 84 25 33
256 659 291 107 11 35
394 535 236 115 19 42
255 663 291 63 24 22
254 666 292 37 25 24
272 975 284 61 56 55
257 664 293 35 28 28
257 669 294 35 29 31
242 659 309 175 121 94
382 844 249 106 73 59
241 664 308 175 125 95
267 573 146 75 35 40
240 667 307 175 125 96
228 675 258 127 14 43
243 847 253 41 36 42
227 679 264 87 21 36
302 914 314 40 37 37
333 904 249 68 61 61
361 809 151 81 62 51
230 673 260 129 3 42
231 674 269 75 30 36
365 749 272 75 29 36
228 680 269 61 33 34
224 681 263 81 32 37
224 686 256 64 15 26
230 674 272 57 39 37
307 934 219 67 60 61
225 682 272 70 49 41
238 679 305 151 104 82
237 689 305 156 109 84
227 674 311 170 120 95
227 679 311 176 126 97
232 679 310 172 119 92
365 544 278 166 124 99
274 694 196 111 12 26
227 684 311 175 124 97
321 934 244 78 69 69
227 689 311 171 119 93
307 664 289 144 14 46
232 684 309 170 117 89
306 953 239 81 74 75
239 674 306 159 110 86
237 694 304 157 108 84
237 704 303 156 105 83
330 867 154 90 77 65
262 700 308 66 25 33
232 694 308 165 113 85
227 699 310 169 118 90
395 778 150 98 72 54
231 699 308 164 113 84
367 795 147 88 66 53
231 704 308 165 112 83
234 690 306 163 113 85
282 948 219 98 92 94
234 699 306 161 110 86
243 674 294 96 69 54
244 674 291 83 55 45
247 674 291 53 32 30
246 678 291 39 32 29
332 851 258 35 32 30
248 679 293 34 28 27
241 674 299 120 83 64
317 540 143 103 34 43
240 674 303 144 101 79
241 679 299 123 86 68
346 862 180 76 64 59
243 684 295 86 63 50
247 684 294 39 32 30
236 960 305 62 57 56
240 684 302 141 98 75
311 859 178 55 52 53
242 689 299 108 74 59
364 866 230 63 50 47
240 689 302 147 100 79
327 560 158 91 35 41
244 687 296 64 48 41
373 846 202 73 58 54
246 687 296 59 40 36
250 672 291 38 24 23
403 765 154 81 63 52
327 619 185 110 31 43
249 675 292 32 26 25
252 674 293 52 29 30
252 679 295 58 27 31
257 674 295 50 28 32
326 543 146 49 36 38
247 690 297 85 38 37
347 530 281 176 124 97
252 684 297 60 28 31
242 694 300 108 74 59
242 699 300 110 75 60
240 699 302 149 100 79
242 704 300 111 69 57
247 704 301 116 20 39
312 899 174 78 63 56
252 694 300 37 26 29
254 696 302 41 26 31
404 814 260 101 73 56
257 694 303 58 27 32
381 629 268 167 116 83
251 698 301 94 19 35
386 674 262 185 127 97
248 705 302 138 14 44
287 903 189 82 72 71
262 559 138 109 34 42
253 700 303 119 17 41
426 779 248 128 92 67
252 704 304 133 13 41
257 699 305 75 19 31
199 706 286 152 109 78
298 522 131 174 1 35
199 709 284 151 111 79
198 709 289 154 111 82
366 874 269 74 63 58
288 825 270 159 107 84
198 714 284 153 111 81
264 689 201 55 28 34
212 824 300 199 143 118
198 714 289 158 113 84
197 719 284 155 113 83
197 719 289 159 113 85
428 783 250 114 85 63
355 859 201 75 62 57
204 710 276 128 99 66
201 714 279 136 103 71
204 714 275 129 99 65
201 719 278 134 100 70
207 714 273 131 101 67
207 719 272 133 101 68
206 733 268 113 87 59
307 949 234 87 79 78
280 753 307 108 49 55
383 609 238 114 93 70
208 735 265 96 70 49
269 744 196 98 22 36
195 729 284 156 111 83
195 729 289 157 110 83
217 904 279 105 80 74
196 724 289 159 110 85
375 873 290 134 122 117
273 539 132 169 0 34
196 734 278 148 108 79
308 807 196 86 66 56
198 734 275 133 100 69
194 735 280 154 111 83
195 732 284 155 111 83
200 724 277 132 100 65
202 729 274 127 96 63
286 967 288 67 62 62
201 733 273 127 97 63
213 710 271 118 89 61
276 529 279 63 24 32
217 709 269 72 57 43
212 714 271 118 91 64
396 719 175 125 85 52
212 719 270 121 93 66
217 714 269 76 58 42
220 709 264 63 29 35
315 561 277 142 1 40
220 710 268 51 43 38
430 784 229 120 89 63
221 714 260 109 15 38
432 784 234 128 95 66
221 714 264 77 23 32
312 744 294 69 55 49
220 718 260 107 14 37
220 714 268 56 41 42
374 579 271 163 118 87
220 717 267 68 46 41
212 709 272 128 99 67
258 849 264 61 44 32
384 629 266 166 115 86
210 717 272 134 102 72
277 927 315 34 33 34
347 684 279 117 11 37
213 729 259 95 33 37
367 594 193 77 27 38
216 724 259 87 25 31
394 683 222 114 90 62
214 726 260 98 33 41
262 654 293 138 13 43
213 729 264 95 44 42
214 726 264 96 44 43
212 724 269 104 79 57
211 728 268 88 64 47
315 947 277 58 50 46
252 769 298 50 42 39
211 734 259 67 36 36
275 535 282 92 21 33
199 706 292 153 109 82
199 709 293 151 108 82
199 714 294 159 112 86
198 719 294 161 112 87
199 715 297 162 113 87
199 719 298 162 113 86
201 709 299 155 109 86
372 824 174 80 66 60
337 569 168 188 14 45
204 709 302 162 114 90
200 712 296 154 110 83
335 917 296 65 54 51
286 885 292 136 104 78
420 752 153 93 69 54
204 714 302 160 113 86
375 739 262 137 49 51
203 719 303 155 110 82
330 887 201 70 63 63
207 714 305 155 108 84
198 734 299 160 112 86
202 724 303 155 109 83
372 714 264 92 32 37
200 729 301 157 108 83
326 584 277 136 7 42
206 729 306 162 113 89
202 729 303 158 110 85
200 734 301 160 112 85
209 724 307 161 111 86
208 729 307 164 112 89
208 734 307 169 117 91
212 709 308 157 110 85
387 764 261 149 109 77
209 710 307 156 109 85
217 709 310 163 114 88
209 714 307 155 108 83
209 719 307 155 107 83
212 719 309 162 113 87
217 719 310 167 117 90
222 709 311 169 119 92
222 714 311 171 121 93
222 719 311 172 121 94
212 724 309 166 115 89
212 729 309 167 115 90
298 779 286 78 62 53
217 724 310 169 118 91
217 729 310 172 120 94
379 538 186 35 27 28
212 734 309 170 117 91
331 909 274 69 61 65
217 734 310 175 122 97
332 729 298 46 28 30
332 579 274 117 7 37
222 724 310 174 122 94
222 729 310 177 123 94
222 734 310 179 125 98
351 559 275 171 115 94
199 740 271 125 96 64
199 744 271 129 100 67
199 751 266 128 100 68
217 833 293 204 141 114
207 739 264 100 72 52
220 810 237 60 51 49
201 739 269 122 93 62
203 744 265 109 83 58
367 834 184 70 57 51
357 549 280 186 129 107
201 744 268 123 96 64
205 748 262 96 74 49
208 745 260 94 73 50
207 749 259 91 72 50
431 800 258 110 76 56
194 739 280 153 110 81
193 744 279 157 112 82
195 744 277 153 110 82
193 739 284 157 112 83
296 972 259 85 81 84
194 739 289 158 111 84
193 744 284 161 112 87
193 744 289 164 113 89
196 749 274 147 109 77
193 749 279 163 115 86
396 838 249 107 72 59
194 750 275 158 114 83
193 749 289 168 115 91
197 754 269 138 104 70
234 906 307 117 86 80
194 756 271 154 111 82
194 759 270 155 111 79
199 755 266 126 98 64
390 848 241 107 82 71
198 759 265 128 98 63
197 769 264 144 105 72
195 763 267 148 108 75
276 739 312 177 17 56
194 764 269 158 114 81
194 766 266 153 112 75
202 754 264 114 89 60
360 894 301 98 82 79
400 767 141 113 84 63
201 759 263 114 89 59
203 759 259 94 73 49
206 754 259 92 72 49
416 828 273 106 85 70
422 809 239 89 62 47
394 668 251 143 99 61
205 752 262 95 74 49
205 758 257 91 69 46
200 763 262 117 91 60
323 905 318 53 46 43
201 769 259 105 82 54
429 777 241 102 70 45
195 753 273 151 111 80
193 759 274 164 115 86
428 749 144 95 74 60
192 754 284 170 117 91
193 754 289 173 118 93
292 649 292 160 15 49
192 759 284 174 119 93
193 759 289 176 120 94
307 709 187 91 23 33
193 764 274 169 118 88
193 764 289 177 121 94
194 769 289 176 122 93
211 739 259 73 55 43
210 738 262 82 61 46
210 743 258 91 72 50
292 534 275 66 24 30
312 749 187 86 31 35
209 740 261 88 68 49
328 834 165 58 51 51
209 746 256 90 71 47
325 938 268 57 49 47
317 854 258 47 41 35
195 738 291 160 112 83
409 767 172 78 61 55
194 740 292 161 112 87
198 739 299 165 115 88
197 744 299 168 116 91
194 749 293 171 116 93
289 885 185 63 58 60
195 749 296 172 116 92
198 749 299 173 118 91
200 739 301 165 115 89
200 749 301 173 119 91
377 854 214 90 71 63
352 659 209 73 31 36
202 749 303 173 120 94
208 739 307 170 117 91
206 744 306 171 119 94
375 852 257 68 52 44
208 744 307 172 120 93
194 754 293 175 119 95
291 958 298 53 48 46
195 754 295 176 119 95
194 759 293 176 121 95
195 759 295 176 120 94
198 754 299 174 119 92
197 759 298 172 118 92
195 764 295 177 121 95
310 912 210 75 67 68
194 768 292 176 121 92
327 899 315 62 53 46
195 769 294 174 120 92
200 754 301 173 119 92
367 709 164 79 61 47
202 754 303 172 120 94
200 764 301 169 120 91
202 764 303 168 120 91
206 754 306 171 120 92
383 594 249 136 110 82
208 754 307 170 118 90
206 764 305 167 121 92
310 728 297 158 27 60
218 880 274 133 102 78
206 769 305 167 121 91
312 580 162 177 5 39
212 744 309 171 118 92
217 744 309 177 127 99
222 744 309 178 124 96
222 749 308 175 123 93
208 759 307 167 116 88
337 664 199 96 23 30
312 719 187 114 17 32
212 759 308 166 118 89
217 759 309 170 122 92
269 608 292 42 31 30
374 593 235 97 24 39
209 769 307 167 121 90
352 874 304 47 42 38
217 764 309 169 122 91
222 754 308 172 122 90
229 944 231 80 75 75
222 759 308 171 121 89
222 769 309 173 126 92
247 809 217 84 65 55
237 709 303 157 104 83
237 714 303 160 104 84
237 719 304 163 106 85
432 789 234 120 89 65
231 709 308 164 110 82
227 714 310 170 117 88
231 719 307 166 112 84
324 921 242 78 68 68
234 709 306 162 110 84
234 714 306 163 110 84
234 719 306 165 110 86
237 724 304 164 105 84
315 587 166 87 35 42
237 729 304 162 102 84
227 724 309 173 117 87
227 729 309 175 117 89
231 724 307 168 112 83
230 729 307 173 115 87
374 865 278 98 76 72
227 734 308 176 119 89
233 729 306 169 113 86
230 734 307 173 117 87
302 954 234 86 78 79
292 563 286 82 23 32
233 724 306 167 110 84
352 888 254 68 59 58
242 709 300 101 62 51
245 709 301 118 20 41
359 612 267 133 80 68
248 709 303 140 16 44
242 714 301 108 48 45
407 758 133 99 74 54
241 715 302 145 81 68
251 709 305 130 13 41
306 939 220 65 58 59
257 704 308 93 17 36
367 512 156 66 27 32
254 710 307 121 12 38
257 709 309 84 21 35
253 714 308 145 16 46
250 719 306 148 18 48
242 729 303 132 49 53
242 734 302 127 46 49
332 804 270 53 44 42
247 729 305 153 28 51
252 724 308 163 18 53
250 729 306 167 19 53
257 724 310 171 19 54
232 739 305 170 115 87
364 631 217 61 28 30
232 744 304 171 115 89
398 799 261 72 52 39
236 743 302 163 107 86
238 744 301 158 97 81
420 729 187 92 72 53
239 741 301 158 94 80
237 749 300 154 96 79
227 739 308 176 120 91
228 744 306 174 119 90
229 740 306 174 118 87
230 737 307 173 118 89
267 946 321 72 66 66
226 749 307 174 121 89
232 754 303 169 116 89
237 754 300 151 96 77
234 755 301 166 111 87
234 758 301 163 113 85
208 814 254 178 122 90
237 759 300 152 102 78
232 764 304 164 116 85
237 764 300 154 106 79
421 780 252 113 82 60
238 769 300 154 108 79
267 693 306 60 26 32
228 754 306 171 119 88
226 759 307 169 121 88
282 959 304 66 60 59
228 759 306 168 119 88
227 764 308 169 123 89
227 769 308 168 122 88
361 867 225 72 60 56
229 764 306 166 119 87
229 769 306 166 121 88
240 741 301 148 80 68
242 744 301 115 40 45
317 889 304 39 37 36
243 743 302 115 29 40
242 749 299 103 27 38
286 729 192 73 28 38
248 749 303 159 17 51
252 744 305 171 19 55
253 738 307 165 19 53
258 744 307 71 26 34
267 834 268 122 90 72
257 749 306 73 26 34
242 754 298 108 31 39
242 759 298 109 66 51
334 562 266 131 10 41
247 759 300 77 41 43
381 767 261 151 112 83
242 764 298 129 88 64
247 764 298 74 60 52
272 935 208 87 80 81
247 769 298 124 97 75
249 757 302 78 29 39
257 759 304 69 57 52
257 754 305 79 32 42
387 849 224 93 76 71
374 596 213 140 15 42
222 774 225 69 56 50
204 774 250 150 107 74
267 544 132 65 32 35
202 774 254 147 106 72
375 857 244 74 59 52
229 861 286 144 103 82
204 771 251 145 105 71
207 779 244 156 109 76
203 779 249 158 110 77
205 784 247 166 115 80
262 714 199 127 11 34
201 779 254 159 113 78
272 644 198 96 31 41
203 784 250 166 115 82
201 784 254 168 118 83
206 789 248 173 119 85
204 789 250 173 119 87
387 706 169 79 63 47
202 789 254 175 120 89
337 569 268 93 14 31
203 794 254 175 120 89
407 739 194 55 42 31
203 799 254 173 120 86
207 799 249 169 116 83
212 774 239 156 111 78
367 834 298 74 57 42
211 779 239 163 115 80
398 837 262 136 92 75
214 779 236 166 117 82
217 784 234 124 91 70
214 782 236 169 118 84
219 772 226 43 43 46
295 861 282 163 129 103
263 579 291 41 27 29
218 779 230 73 59 53
262 704 200 108 17 32
219 782 231 58 50 48
223 778 226 74 59 52
209 779 241 159 111 78
213 789 240 171 118 84
215 785 237 170 119 85
328 864 161 91 78 79
264 569 299 157 99 79
213 794 240 170 118 82
213 798 241 168 117 82
216 799 238 153 109 79
413 811 193 68 49 47
222 789 229 67 56 52
366 544 274 154 120 92
218 789 234 95 71 59
306 849 194 51 49 52
220 786 232 54 46 48
220 788 232 52 45 46
287 759 193 142 4 36
218 794 234 78 61 54
218 799 235 60 50 50
220 795 232 56 49 47
221 799 233 61 51 49
211 794 243 174 121 86
206 804 253 173 120 85
333 533 274 155 101 80
204 804 255 174 121 87
251 857 258 82 66 54
204 808 256 176 122 88
322 718 297 56 26 32
307 639 289 122 31 48
224 803 231 75 59 55
332 809 164 53 47 45
342 669 274 144 13 44
217 809 239 77 61 53
330 922 301 71 59 56
222 809 234 72 58 54
218 814 240 53 45 46
220 814 237 70 57 52
215 805 242 162 113 77
337 823 262 55 46 42
382 819 174 78 60 51
233 953 308 56 53 55
215 814 243 131 95 72
212 814 249 173 119 87
287 614 175 54 32 39
209 812 251 175 120 88
210 815 253 179 123 89
219 818 240 60 51 49
221 819 238 77 61 56
267 776 296 65 54 50
313 940 233 86 78 77
214 818 246 167 119 87
332 604 285 96 28 40
213 819 249 179 125 92
216 825 248 123 91 75
317 806 271 180 128 106
211 819 254 183 127 93
320 813 188 53 48 47
213 824 254 192 133 102
214 823 250 186 130 100
218 828 249 69 53 53
214 828 255 197 135 102
215 826 252 191 133 102
217 830 254 158 111 89
262 852 284 98 81 63
357 534 165 170 12 35
218 824 244 56 48 48
389 841 226 112 70 61
220 831 248 73 59 56
232 774 219 71 57 49
232 779 219 73 59 50
238 779 215 71 57 50
282 564 289 73 23 32
235 779 217 72 58 50
232 789 220 75 58 51
228 794 225 73 59 52
233 793 220 74 59 51
231 795 223 74 59 51
236 789 217 74 59 50
214 886 277 162 116 98
236 794 218 74 59 50
277 977 273 54 51 51
257 929 204 86 74 72
234 797 221 74 60 50
328 874 159 105 88 79
235 800 222 77 60 52
353 891 287 83 68 62
386 604 244 138 112 83
254 772 206 75 59 53
342 764 185 60 33 37
257 774 205 79 61 53
252 779 209 74 59 51
257 779 207 77 61 53
244 774 211 67 56 49
387 689 219 100 83 64
266 714 197 130 11 34
247 774 210 69 56 50
242 779 213 70 57 49
242 784 213 71 57 50
244 779 211 70 58 50
247 779 210 71 58 51
270 864 232 139 104 72
244 783 211 70 57 50
247 784 210 71 58 50
277 699 309 133 7 42
257 785 206 79 63 54
287 554 285 33 29 28
254 786 206 79 63 53
418 803 255 102 76 58
254 788 206 78 62 52
357 874 304 48 42 38
252 794 209 78 62 53
335 922 306 64 56 52
256 795 207 81 63 54
248 789 210 73 59 51
246 790 212 74 59 52
242 794 215 75 60 52
343 795 165 45 41 41
247 794 213 77 61 53
244 798 216 78 62 53
247 799 214 80 63 54
240 796 217 76 60 52
253 798 210 80 63 53
307 878 173 83 69 60
257 799 209 81 64 54
225 785 227 73 60 53
229 798 226 76 62 51
232 809 225 77 61 53
238 809 221 79 62 52
206 830 279 216 144 116
239 813 221 81 63 53
357 774 273 84 67 60
244 803 216 81 64 55
247 804 215 83 65 55
256 874 243 115 89 60
242 804 218 80 63 53
349 663 266 151 11 47
242 809 219 81 64 54
242 814 220 84 66 56
240 816 222 85 67 57
282 629 292 60 27 31
426 753 140 92 73 56
247 814 218 85 66 56
252 804 214 84 66 56
346 578 176 175 14 40
256 804 212 83 65 56
257 809 214 83 66 56
332 914 290 85 75 75
257 813 216 85 66 57
252 812 216 84 66 57
252 815 218 86 66 56
243 818 221 86 67 57
242 824 225 89 69 58
247 819 220 87 67 57
252 819 219 88 68 58
253 823 221 88 69 59
252 825 223 88 68 59
257 819 218 87 68 58
344 668 202 54 28 33
257 824 220 89 69 60
252 829 224 87 67 58
257 829 223 87 67 58
227 804 229 76 61 55
224 808 231 76 60 56
291 953 302 62 58 57
220 960 285 58 55 57
227 809 229 77 62 56
417 795 248 132 95 69
230 804 227 78 62 54
228 814 230 77 62 55
271 899 308 152 113 88
337 799 269 66 52 45
230 814 228 77 62 54
229 818 231 79 62 55
302 795 196 84 65 56
232 824 230 82 63 54
228 824 234 81 63 57
225 821 237 80 64 58
227 829 239 86 67 61
228 827 235 83 64 58
232 828 234 88 67 59
231 830 238 90 69 61
233 818 226 79 61 54
357 574 274 173 116 93
235 820 227 82 63 53
347 864 184 70 60 59
238 822 226 87 66 55
226 831 242 88 69 62
242 829 229 92 70 59
244 827 226 90 69 60
247 828 226 88 68 59
240 831 232 94 71 61
292 909 190 84 73 71
222 833 249 83 66 59
224 832 245 88 68 61
252 834 225 86 66 58
280 946 217 96 89 89
257 834 223 77 60 55
383 529 179 126 20 42
233 833 240 91 69 60
295 942 312 64 52 53
392 840 239 143 94 78
236 835 238 93 70 59
226 835 249 86 68 63
229 832 241 88 69 63
231 835 243 88 68 61
332 529 279 166 107 85
233 838 245 86 67 61
232 839 249 83 67 61
273 933 196 93 82 81
225 836 253 84 67 63
228 837 250 84 67 62
227 838 254 80 65 61
224 837 256 73 61 58
397 659 229 123 93 67
231 840 253 79 63 62
262 879 309 162 127 96
233 842 254 71 58 55
237 840 244 87 66 61
239 842 241 82 64 60
329 858 167 92 73 69
237 844 249 73 60 57
244 832 231 92 69 60
247 834 229 89 66 58
242 834 233 94 69 60
240 840 238 87 66 59
242 844 239 59 50 52
247 844 234 118 91 76
248 847 235 190 132 104
316 565 278 142 5 42
245 846 238 143 114 90
247 849 239 195 137 109
244 847 240 126 101 84
318 868 166 75 62 58
249 832 226 87 66 58
252 839 227 59 49 50
377 854 249 74 56 48
250 823 287 42 37 37
253 838 226 53 44 47
255 841 227 128 102 80
257 844 228 169 118 92
253 847 231 176 120 93
292 924 198 88 77 77
251 846 232 181 125 95
243 848 244 102 81 71
240 846 249 58 47 52
243 848 249 64 55 54
241 846 255 51 44 46
247 848 254 118 87 71
253 853 240 191 128 101
247 850 244 200 139 110
247 864 253 107 78 43
327 778 282 77 61 54
348 841 246 36 31 29
250 851 242 198 134 104
249 852 245 195 131 103
354 621 202 53 31 30
249 852 248 178 116 90
252 854 249 154 102 77
256 856 243 179 118 90
250 851 251 145 89 68
312 654 193 77 32 37
252 850 254 127 85 68
308 564 281 73 20 33
405 760 209 91 70 51
254 854 254 105 71 56
257 859 244 153 104 76
402 779 198 76 58 44
253 859 250 112 78 55
287 654 294 156 9 49
252 864 249 102 72 42
252 858 254 85 59 45
250 862 252 104 72 39
228 879 255 133 106 79
232 874 254 126 101 74
231 879 253 133 106 78
362 512 156 155 14 33
233 870 256 119 96 71
237 869 254 117 94 68
268 848 226 166 115 90
238 865 256 110 89 65
200 810 295 190 134 106
239 871 251 121 97 70
236 873 252 125 100 72
281 967 292 84 79 79
227 884 254 135 107 77
227 889 253 138 108 78
230 883 252 136 108 78
230 887 252 138 108 78
224 890 256 140 109 79
226 894 253 142 109 80
228 821 301 178 130 101
229 890 251 136 107 76
345 778 177 52 47 46
232 894 249 131 103 73
360 682 274 139 2 42
239 880 246 132 104 74
234 896 246 125 100 71
237 894 245 118 94 68
247 869 248 113 89 59
311 854 264 60 51 41
242 870 250 116 93 67
248 866 250 109 80 45
245 867 252 108 85 54
242 874 248 125 100 71
364 682 217 56 40 36
240 878 247 130 103 74
251 868 247 109 82 49
373 749 264 96 31 37
252 869 245 104 79 50
254 865 246 107 75 44
247 894 234 149 114 86
272 939 209 88 81 82
246 894 238 119 99 79
349 644 265 127 14 41
243 895 240 111 91 70
407 728 185 53 43 34
252 886 236 87 72 56
248 885 240 99 82 65
249 886 236 89 73 56
377 639 269 169 119 83
257 889 234 87 72 55
253 894 225 123 87 52
365 704 179 71 58 45
249 894 230 175 131 102
256 891 231 82 66 47
257 895 224 82 64 45
305 580 287 160 9 49
257 893 229 80 64 45
364 876 260 72 63 59
346 613 191 152 23 43
242 884 245 131 103 73
242 889 244 122 97 71
263 790 291 79 64 55
338 814 155 62 52 47
246 883 243 119 97 74
241 894 243 110 88 63
252 882 242 92 76 59
377 594 219 138 17 39
224 920 250 102 86 72
223 924 249 76 68 65
237 869 300 125 46 64
224 930 245 61 57 56
362 698 209 52 42 47
224 934 245 58 54 55
219 934 256 79 67 62
223 944 244 62 59 60
221 944 249 61 57 58
302 923 320 44 40 40
219 939 255 64 59 58
292 963 289 60 53 50
218 944 254 63 59 60
220 938 253 60 55 56
223 949 244 70 65 65
222 954 254 78 72 70
238 919 225 64 59 60
367 644 264 156 102 84
238 924 224 64 59 61
307 734 297 149 20 50
239 925 221 65 60 63
239 929 220 64 60 64
248 905 221 154 107 75
339 708 192 110 20 29
252 899 224 127 86 63
250 902 222 143 99 70
256 898 222 86 63 46
256 904 218 63 52 47
253 901 221 99 67 52
254 910 215 55 49 46
302 609 286 51 26 30
255 908 217 58 52 48
257 919 204 65 59 59
252 919 209 62 57 58
254 921 206 65 60 62
423 783 209 99 72 54
306 863 182 56 52 54
257 924 204 67 60 59
372 829 269 45 37 31
303 513 279 80 51 47
247 919 214 60 56 57
243 919 219 63 58 59
355 857 194 73 63 61
241 918 223 62 57 58
246 918 218 55 54 57
243 924 215 68 62 64
222 823 302 202 148 122
243 929 215 69 63 64
245 929 212 71 64 66
240 929 218 63 58 60
389 633 233 121 100 76
252 914 214 54 51 52
344 886 223 82 70 67
249 916 216 58 55 57
294 796 196 84 65 57
251 918 213 58 53 54
256 914 209 57 54 56
254 916 210 59 55 57
255 913 212 54 51 51
251 913 217 51 45 47
249 921 211 64 60 61
239 910 230 62 57 56
236 908 238 76 68 66
354 702 286 126 6 41
238 909 234 69 62 60
239 906 235 78 67 59
224 899 256 155 114 91
224 904 256 150 113 88
226 904 253 152 114 88
229 899 251 152 113 87
228 909 249 135 108 82
249 836 275 50 41 39
229 911 246 104 87 73
225 909 253 141 111 83
235 903 242 100 82 67
309 522 272 129 88 79
238 900 241 99 81 64
349 659 266 152 11 47
372 604 271 171 117 87
234 906 241 87 75 67
338 735 296 155 17 51
232 914 239 66 62 63
317 858 260 44 38 33
231 918 238 64 60 62
231 924 234 62 59 60
228 924 239 61 57 59
398 739 209 64 42 35
230 923 237 61 57 59
229 926 236 64 59 61
228 929 239 63 58 62
236 919 229 66 60 61
234 920 231 62 57 59
262 569 144 115 29 40
238 914 229 66 60 61
236 914 233 66 61 62
322 594 281 137 14 45
234 915 236 67 62 64
234 924 230 62 57 59
236 924 228 62 58 59
235 928 227 66 62 64
393 669 254 157 110 78
233 929 229 68 64 66
272 695 308 106 14 34
226 914 249 122 101 79
227 919 244 65 60 60
316 897 195 67 60 59
272 692 306 112 15 37
229 915 245 80 70 63
226 919 248 90 77 67
230 913 243 71 64 61
226 929 243 61 57 58
365 623 211 107 34 44
248 899 229 107 75 62
246 903 229 87 69 56
347 639 204 66 34 37
242 899 239 103 84 64
242 904 234 89 75 62
241 902 238 93 80 68
244 900 235 109 89 66
246 899 234 104 79 61
245 897 237 124 102 78
245 902 232 86 68 52
240 907 233 72 60 53
249 901 225 117 83 70
352 889 259 66 56 56
240 897 242 101 82 61
240 913 228 61 56 54
234 934 225 75 69 71
238 934 219 69 63 63
317 519 284 172 112 98
233 939 225 75 68 68
235 938 222 77 68 67
237 939 219 80 71 69
233 943 225 75 68 68
249 930 206 78 68 67
299 877 281 106 86 70
248 934 210 81 71 69
242 934 215 74 66 66
240 933 217 69 62 61
387 714 188 65 52 41
242 939 215 83 73 72
243 943 216 81 73 73
301 937 314 66 55 49
242 944 218 81 74 74
322 694 190 51 34 36
252 944 215 77 70 73
257 938 211 88 81 82
362 527 161 58 30 36
257 940 213 84 77 79
257 943 215 85 78 80
243 948 220 76 71 72
247 945 217 79 73 73
247 954 224 75 71 72
252 946 218 81 75 78
252 949 219 83 77 79
257 945 218 86 78 82
367 814 264 82 62 48
257 948 221 86 79 83
257 950 222 86 79 82
248 952 221 81 76 78
251 952 221 82 76 79
257 954 224 84 79 83
228 934 234 64 60 63
226 934 239 59 55 58
230 939 228 75 69 71
267 964 308 74 67 65
228 944 234 77 72 73
225 944 238 70 66 67
352 584 183 172 14 39
225 933 243 57 53 55
232 948 230 68 63 64
232 950 234 65 61 62
237 949 229 66 62 64
236 950 232 66 62 64
237 954 234 65 60 62
234 952 235 67 63 64
237 959 239 72 68 70
239 957 236 71 67 67
227 954 244 77 71 70
228 952 241 72 66 66
224 953 245 76 70 69
374 610 228 71 36 34
228 958 249 83 77 77
232 960 249 85 79 79
225 956 254 79 73 73
367 859 214 71 55 52
322 598 281 117 10 39
400 725 216 107 85 61
357 659 214 81 30 34
232 960 254 86 80 79
302 724 188 100 25 33
234 957 240 75 70 71
352 832 257 38 33 32
243 953 229 68 64 66
301 534 273 39 29 28
244 952 226 70 65 66
241 955 233 67 62 65
402 684 234 148 106 72
242 958 234 70 66 68
372 614 270 172 120 88
241 960 238 73 70 72
296 846 277 161 127 100
252 959 229 77 73 74
257 958 226 87 83 87
238 962 245 79 75 76
362 834 159 124 103 89
237 963 254 90 83 81
243 963 240 80 77 79
248 963 235 76 72 75
371 850 258 64 48 42
245 961 237 77 74 77
247 964 239 81 77 79
382 734 260 145 93 67
257 963 230 81 78 81
250 966 237 83 79 80
355 858 189 70 59 56
277 764 196 72 32 35
252 968 239 88 83 85
323 569 275 142 0 43
257 965 233 83 80 82
254 967 236 86 83 85
257 968 235 87 84 87
