ply
format ascii 1.0
comment Created by Open3D
element vertex 2219
property double x
property double y
property double z
property uchar red
property uchar green
property uchar blue
end_header
487 873 273 91 71 61
252 571 224 171 34 54
382 533 269 105 70 57
346 98 275 105 66 55
254 834 296 81 57 58
342 40 283 106 47 48
233 389 265 110 89 65
326 876 267 53 47 47
334 14 301 157 76 92
211 548 236 173 10 51
381 56 273 112 83 73
391 702 307 91 27 40
239 508 366 183 0 55
339 674 236 105 20 26
334 30 282 130 43 55
354 409 251 105 78 53
534 870 206 94 83 73
234 394 262 108 88 65
366 157 293 117 94 67
389 104 237 133 60 59
257 674 270 58 31 36
263 224 300 115 92 68
196 524 276 129 20 42
377 602 248 116 13 34
449 541 319 77 4 32
232 397 264 110 89 64
374 699 327 138 4 43
259 124 240 137 102 66
225 389 276 120 95 66
329 404 324 144 102 76
226 390 273 118 94 66
235 774 286 144 98 67
418 717 179 107 81 56
230 404 262 110 88 63
360 134 258 124 97 64
309 930 255 85 73 69
226 401 268 108 88 66
377 69 275 109 73 62
315 708 353 142 10 45
227 408 264 109 89 66
268 179 248 135 105 69
344 24 296 126 48 55
354 94 284 97 44 46
274 495 390 67 24 29
276 705 349 101 23 38
229 414 261 108 87 63
318 597 436 178 115 105
276 588 409 181 127 111
234 404 260 110 89 64
264 409 246 89 75 60
235 410 258 111 88 62
261 491 379 95 33 40
195 514 271 143 5 40
216 509 334 128 20 44
240 404 257 107 87 64
208 544 241 189 4 50
239 409 257 108 87 63
304 649 242 57 35 39
399 484 276 85 32 35
244 389 260 102 84 65
231 657 364 179 122 96
281 283 302 99 78 56
248 388 259 100 83 66
349 209 309 115 94 72
360 84 247 135 22 35
364 594 466 123 13 33
285 39 255 116 30 29
250 390 258 99 83 65
351 388 259 96 83 71
374 164 261 129 99 61
359 565 401 100 15 33
244 394 259 102 85 66
273 629 343 68 27 32
342 74 271 112 13 39
244 400 257 102 85 67
254 389 258 95 81 66
484 584 362 149 18 47
339 939 376 60 54 52
226 389 301 123 96 68
227 388 302 123 96 68
382 99 274 119 88 70
398 586 465 102 19 40
225 394 301 122 96 68
269 734 346 164 18 53
414 814 266 127 84 64
261 67 214 115 33 26
226 391 304 125 98 68
329 11 291 141 62 70
280 339 323 123 83 61
230 389 311 124 97 67
261 763 258 112 34 43
236 638 297 179 14 52
289 39 257 124 38 34
353 859 306 139 108 84
279 10 301 111 49 44
338 634 330 65 30 36
226 395 305 123 97 69
380 49 277 118 18 43
284 524 351 108 66 58
376 139 277 120 94 63
459 539 331 70 11 26
228 399 311 122 96 68
250 832 297 193 134 105
404 769 161 92 69 58
226 400 309 123 97 67
266 769 344 159 116 88
472 881 243 94 76 63
276 479 354 121 74 63
231 396 319 124 98 70
272 429 168 53 42 45
319 569 391 63 27 34
296 853 300 168 115 88
231 400 320 123 97 68
315 768 232 76 59 53
394 784 166 92 69 55
259 489 346 127 84 71
234 389 321 122 97 68
226 803 307 192 129 97
244 594 345 64 25 33
232 393 318 123 98 70
453 519 317 100 2 33
367 228 263 135 104 65
281 100 261 130 92 74
344 610 229 65 36 38
233 394 321 123 98 70
456 519 319 107 3 33
539 858 182 109 96 82
213 739 310 154 108 80
232 399 322 124 98 70
323 729 349 174 3 55
347 416 223 96 27 36
227 403 312 124 97 69
228 404 316 124 97 68
473 535 327 102 6 33
371 82 233 146 15 45
429 582 338 60 26 27
259 824 345 177 128 101
328 229 291 107 87 63
464 562 338 102 7 33
366 424 266 101 82 60
368 603 320 193 8 61
455 933 345 103 80 66
235 598 252 206 15 53
229 409 321 127 99 70
414 614 285 193 128 114
283 616 239 169 21 52
423 571 312 30 24 26
484 509 315 126 16 43
336 581 219 55 37 38
364 199 302 120 97 70
457 500 307 94 25 38
267 88 223 156 19 45
282 521 324 151 30 64
228 414 321 127 99 70
228 424 259 87 62 46
277 92 274 106 39 44
229 549 211 148 20 42
231 420 258 103 84 64
225 439 257 85 26 26
342 871 330 116 85 61
339 951 269 94 86 89
279 18 305 150 108 97
226 416 320 124 98 70
349 903 347 79 62 53
289 509 197 143 3 32
305 528 408 140 15 46
292 359 291 80 59 43
202 510 318 119 30 47
221 434 325 45 28 31
354 708 229 65 31 34
434 561 334 80 18 28
367 58 244 62 37 24
240 775 349 165 121 92
315 852 347 134 108 80
327 874 269 57 48 45
282 264 286 109 88 64
223 434 327 43 29 31
265 558 208 94 31 39
370 470 230 156 3 36
349 454 317 128 92 65
407 838 264 70 58 52
225 439 330 97 21 36
420 715 176 110 81 56
217 444 322 110 17 39
407 846 278 44 37 34
334 424 322 142 102 75
334 329 269 100 84 66
220 444 325 125 10 39
219 449 326 126 5 38
289 859 321 142 108 83
301 349 276 63 56 49
459 571 351 64 17 28
222 444 328 127 8 38
390 820 177 119 89 59
258 434 196 55 18 26
417 561 364 79 31 37
222 448 328 127 7 38
284 763 349 78 64 59
326 230 282 108 88 65
334 583 437 111 21 32
271 248 298 112 88 60
373 454 291 128 94 67
408 659 245 176 117 92
480 832 218 93 80 68
288 489 186 101 34 42
236 390 324 122 96 69
404 901 296 64 56 55
235 608 262 204 14 52
334 194 276 113 93 71
416 730 163 98 70 52
508 868 309 84 67 53
374 499 231 51 35 38
237 387 323 122 97 69
344 44 257 118 41 39
198 509 311 91 23 39
334 724 342 145 24 51
213 754 331 177 120 96
316 429 314 113 81 62
235 394 325 122 97 70
378 199 281 122 97 67
203 504 322 77 30 39
248 635 274 178 10 45
366 26 293 113 36 47
278 444 330 130 94 69
284 629 347 54 25 31
265 484 342 134 92 77
235 399 325 124 99 71
484 587 322 199 125 113
238 398 328 122 98 71
342 497 309 117 81 64
385 604 281 156 14 54
311 291 305 98 77 53
384 424 237 82 33 28
240 399 330 122 96 69
279 594 226 135 21 41
400 830 269 53 44 38
397 747 169 63 49 42
232 403 323 124 97 69
234 404 326 125 98 71
233 409 327 125 98 70
324 578 356 50 24 29
384 553 361 58 44 35
235 409 329 125 98 70
236 406 329 124 98 71
197 468 275 75 29 34
233 413 327 127 100 72
314 329 331 123 87 68
235 414 330 126 98 71
195 509 291 151 0 40
395 571 335 112 43 52
377 219 276 131 102 66
289 444 311 126 88 64
372 752 189 60 50 44
206 475 258 44 37 37
314 759 230 132 16 40
242 388 328 123 98 72
335 514 204 95 33 36
320 604 359 97 25 42
429 863 267 81 74 66
244 389 330 123 97 70
241 390 329 122 97 71
269 634 256 51 33 37
397 730 286 157 20 49
210 724 326 165 113 87
258 514 346 128 85 72
450 502 298 48 32 34
248 389 332 123 96 69
364 134 290 112 91 68
244 394 331 123 97 70
244 399 332 124 98 70
269 494 386 51 25 29
250 475 359 75 24 31
419 635 261 193 130 101
339 779 222 71 57 50
292 479 310 135 91 74
195 494 296 110 22 39
356 299 280 128 99 68
379 564 371 41 24 28
254 469 357 81 24 32
352 374 319 131 98 68
304 484 200 144 2 30
264 554 376 107 12 36
353 834 295 143 113 93
246 400 334 124 97 70
358 134 260 122 94 62
195 499 296 125 9 37
294 469 186 43 35 39
303 844 312 160 114 90
249 399 336 126 98 69
211 583 286 141 20 47
281 244 276 123 98 70
304 534 411 136 14 44
250 390 334 124 96 68
254 389 335 125 97 70
377 224 277 128 101 67
284 894 356 181 134 114
218 784 331 184 126 100
243 404 333 125 98 70
376 65 233 83 28 28
279 74 241 137 37 49
274 554 341 99 58 52
242 408 333 126 99 71
241 410 334 126 99 70
346 833 303 144 111 89
378 39 280 109 38 46
266 203 293 111 89 66
249 409 337 126 99 70
279 774 347 49 42 43
244 534 201 182 10 40
311 632 238 67 34 35
439 594 291 132 99 63
244 754 348 175 123 95
282 54 248 99 49 37
252 408 338 128 100 70
219 779 306 177 118 90
254 424 342 134 101 74
452 502 298 60 33 37
393 818 274 49 39 38
226 687 349 168 115 90
359 649 250 74 29 35
437 859 264 91 79 69
360 159 258 130 100 62
237 641 301 85 23 37
390 56 232 109 37 33
250 410 339 128 100 71
433 581 335 74 28 33
319 965 351 61 56 54
343 608 228 47 33 37
391 702 302 43 30 33
371 437 281 115 89 59
250 414 339 127 98 70
229 419 326 125 99 71
261 542 342 136 32 58
225 425 325 75 42 38
392 922 318 75 66 66
243 794 280 153 107 76
284 354 267 74 65 56
415 546 314 61 32 29
231 420 329 124 98 71
377 169 281 121 96 67
264 479 370 99 16 32
227 427 328 44 26 28
421 585 304 138 87 84
226 430 329 38 31 30
359 423 243 75 52 49
270 174 250 124 98 68
273 679 255 128 4 31
219 479 337 125 4 37
353 420 223 77 35 35
330 468 209 78 36 39
213 524 231 92 21 32
302 11 296 128 64 57
251 651 341 138 88 75
231 430 334 34 28 28
339 925 371 40 37 37
276 268 298 113 89 63
369 174 260 135 102 62
238 419 333 124 97 70
293 882 358 126 93 77
219 604 291 174 16 51
444 587 401 174 17 56
314 799 327 64 51 46
303 407 225 92 78 62
242 815 295 192 129 98
240 419 334 123 97 70
242 516 358 54 28 32
370 43 255 114 98 82
419 784 211 74 57 48
219 535 205 190 13 46
239 424 335 119 94 68
236 426 334 115 91 68
228 439 332 38 28 30
464 581 361 159 17 47
231 434 334 35 31 31
418 561 361 78 32 36
343 809 225 64 52 49
364 219 306 123 98 69
230 439 335 42 26 29
270 74 220 140 23 42
314 399 236 100 86 71
314 604 469 164 116 105
311 724 358 170 7 55
357 299 309 137 101 71
272 134 271 111 84 58
271 449 169 137 7 36
368 264 277 153 107 73
227 448 333 129 9 40
494 564 320 141 106 79
230 444 335 113 18 40
236 440 339 129 18 43
474 586 346 134 80 82
279 474 176 85 36 42
238 432 338 112 25 38
419 734 231 116 79 49
233 505 361 183 2 56
364 590 356 63 29 36
389 864 296 36 32 30
239 439 341 117 17 38
383 74 269 107 23 39
233 444 337 104 21 37
195 514 281 151 0 39
339 464 211 60 35 37
235 449 339 90 22 35
314 509 197 97 23 31
309 604 469 147 99 91
239 444 341 88 23 35
274 34 251 64 41 29
245 823 297 197 133 101
244 419 337 127 99 71
287 374 319 128 86 67
264 509 349 129 85 72
417 625 243 113 90 63
394 540 291 64 39 31
519 869 191 97 89 80
282 913 309 147 115 90
359 199 259 128 99 64
249 419 340 128 99 71
317 434 203 134 7 31
206 539 242 139 14 40
209 534 231 111 13 34
281 69 245 112 85 67
399 459 261 93 16 31
391 84 258 110 38 46
344 204 306 109 89 69
359 914 256 71 63 64
243 428 338 121 91 66
250 650 362 184 120 98
212 473 328 43 24 28
352 99 283 110 91 71
488 866 315 62 49 39
368 209 300 124 99 70
497 599 366 124 18 45
414 724 171 79 58 43
245 429 339 121 91 66
350 99 262 122 41 44
249 429 341 128 98 72
285 403 251 79 66 51
264 64 216 103 41 24
265 542 338 132 28 56
270 179 282 107 85 59
284 744 246 96 27 35
244 439 345 73 24 34
245 436 344 101 23 35
211 557 319 171 0 52
454 468 292 95 28 39
244 444 345 66 27 34
244 449 345 79 26 34
265 11 272 98 70 60
270 89 231 106 61 51
270 23 299 134 25 52
222 524 338 150 0 45
248 449 348 52 27 31
390 552 327 69 57 51
282 399 248 82 68 53
296 587 459 169 119 109
195 499 271 138 1 38
269 94 275 108 61 56
252 553 353 47 27 30
254 433 343 125 94 68
404 886 339 45 41 40
254 435 344 110 79 56
354 563 396 115 15 38
415 819 220 82 66 57
195 509 286 150 0 39
285 579 441 146 107 91
254 444 350 114 20 39
384 434 241 85 7 29
254 449 352 119 22 40
207 452 269 99 26 29
206 455 268 81 30 34
240 616 357 103 82 58
399 444 246 52 36 38
427 768 229 69 52 42
200 459 272 41 33 36
358 479 221 113 17 37
201 450 294 123 3 36
291 412 288 73 45 36
203 459 270 66 33 36
371 261 284 140 99 68
436 517 275 63 36 32
383 100 234 149 19 41
324 623 233 87 35 40
200 464 271 69 32 36
204 464 266 75 33 35
364 109 285 115 94 70
334 854 260 84 58 49
360 484 225 127 8 30
270 550 381 123 5 41
198 454 281 118 16 35
198 454 286 132 9 38
339 524 205 112 26 39
310 568 426 75 11 28
298 844 307 161 112 91
359 119 287 111 90 67
388 439 238 92 26 33
197 464 276 65 30 36
292 674 244 53 35 39
413 534 252 100 31 40
196 465 281 49 28 34
279 459 174 155 3 35
280 529 327 139 19 56
379 576 340 62 34 36
225 734 345 173 119 94
294 494 366 80 13 32
196 465 285 66 24 32
248 699 286 112 13 35
339 529 205 82 33 39
410 461 275 87 1 25
197 463 287 62 25 34
277 240 290 113 90 63
427 781 248 146 101 66
199 469 271 65 32 35
361 584 229 142 3 33
379 504 281 133 91 73
200 474 266 58 34 35
218 754 305 140 101 69
203 469 265 67 34 34
279 469 331 135 98 76
290 856 322 123 93 70
352 788 314 72 56 51
204 474 261 46 38 38
264 759 342 146 107 80
279 274 265 117 93 66
201 476 263 42 35 37
260 669 267 108 13 34
201 479 262 44 36 36
379 474 242 116 23 36
394 444 246 55 32 36
195 474 281 133 6 36
196 479 276 55 26 33
423 511 272 80 25 26
304 499 199 117 6 25
363 644 306 150 17 49
195 479 281 115 13 35
360 379 286 108 88 66
236 822 344 194 136 109
197 473 274 99 28 36
196 476 273 67 24 33
363 624 247 91 29 37
399 558 346 72 43 36
196 480 272 77 29 37
289 11 309 152 39 64
216 533 207 159 15 44
195 474 286 133 2 35
214 454 261 79 29 30
235 794 349 172 124 96
351 334 312 138 104 74
317 546 414 84 23 34
199 504 316 36 30 31
341 244 263 131 100 62
281 525 199 138 0 32
366 74 237 82 48 35
378 499 236 124 19 40
378 119 271 119 94 66
258 659 270 145 0 36
404 459 261 150 9 37
211 456 263 69 28 26
235 507 360 182 0 54
329 558 321 81 61 48
266 593 354 100 25 41
216 456 258 72 29 30
376 725 216 87 66 50
198 459 291 112 14 35
376 635 266 151 26 49
250 609 381 140 104 76
289 779 247 77 60 52
359 174 258 131 101 63
264 21 258 109 94 80
321 449 314 91 68 45
201 454 296 120 1 35
325 23 286 148 104 87
199 464 296 122 3 36
243 473 352 51 29 31
357 639 314 60 30 35
369 584 441 192 18 56
203 454 301 120 1 35
318 847 323 96 72 50
202 458 302 122 0 37
276 244 259 131 100 66
344 565 376 72 23 33
263 94 222 144 18 41
284 739 356 183 18 59
270 842 292 85 66 61
204 454 306 123 2 37
372 259 286 138 99 68
206 455 310 124 4 37
202 464 307 125 3 36
335 408 235 114 66 45
374 679 246 55 39 40
354 39 254 102 32 26
210 454 316 124 2 37
274 369 264 79 69 60
283 609 356 37 26 29
354 414 317 135 100 70
388 434 238 125 22 32
226 455 334 127 7 39
476 597 377 109 33 44
207 463 318 112 17 36
340 587 448 72 24 30
209 464 321 128 4 38
424 589 306 158 106 99
197 468 288 130 6 37
321 259 277 118 93 63
263 593 386 117 88 66
197 469 291 126 3 35
370 669 301 147 10 45
196 471 290 127 1 36
199 469 301 127 0 37
341 64 266 113 66 54
222 585 255 48 30 37
197 472 293 126 2 36
196 475 295 132 0 38
364 44 252 83 45 34
405 485 265 132 27 40
340 64 271 116 87 65
230 725 303 121 77 53
282 284 268 102 84 63
372 463 228 153 4 34
311 340 268 80 69 59
393 854 236 71 60 57
322 877 274 77 61 50
196 479 296 130 4 37
286 606 348 149 24 57
347 452 319 126 91 66
197 478 298 121 6 39
230 799 345 178 126 98
323 539 406 67 43 38
327 505 303 108 49 53
394 504 256 69 25 28
358 419 315 134 100 70
197 479 301 75 20 33
463 939 351 101 79 64
389 549 241 96 31 41
393 925 359 57 48 40
271 80 226 149 27 51
200 474 306 131 2 39
304 829 256 53 46 49
199 479 306 106 14 36
278 439 330 131 95 68
399 588 276 50 26 29
398 859 247 68 59 57
371 200 264 134 103 62
215 479 335 129 3 39
332 841 254 158 109 85
244 560 219 117 33 44
464 572 351 64 18 25
202 468 308 127 5 38
304 619 235 56 35 39
205 469 316 33 27 29
208 469 321 118 12 38
349 938 375 60 54 53
206 470 319 62 23 28
354 419 237 88 45 42
201 479 311 95 19 36
370 493 229 43 37 40
204 474 316 42 27 30
348 339 272 113 93 71
202 478 313 94 23 36
206 474 320 39 28 31
339 799 315 168 117 95
220 594 331 150 10 44
211 456 319 125 3 39
214 454 321 125 3 37
264 569 391 57 28 32
274 10 296 106 67 52
393 566 358 33 27 27
349 224 259 130 100 63
249 564 356 50 27 32
292 476 372 84 13 33
388 425 238 63 34 33
210 459 320 126 3 37
435 588 290 121 95 62
279 509 401 111 25 40
199 489 261 57 31 33
357 268 268 148 105 71
360 815 297 158 111 90
282 946 343 97 77 71
334 39 266 129 22 39
197 483 269 77 30 35
366 621 308 180 28 64
246 638 278 181 11 47
196 490 267 87 30 36
196 489 271 61 28 32
462 556 334 114 5 34
262 88 273 99 77 58
245 496 374 102 14 32
371 581 333 134 21 48
379 547 306 90 71 72
269 69 276 115 28 44
254 774 266 70 55 50
197 493 265 111 19 38
542 853 181 108 93 79
201 486 258 104 30 42
284 384 260 69 59 48
194 484 281 131 4 36
194 489 281 137 1 37
416 821 246 70 50 44
360 284 281 149 101 72
195 494 276 134 3 36
194 494 286 143 0 38
195 519 286 109 15 37
197 499 260 96 20 36
232 497 363 38 28 33
213 514 332 83 27 36
420 635 256 187 122 95
379 846 274 31 28 27
197 504 260 135 4 36
379 99 236 146 17 40
272 64 227 127 42 42
404 574 353 42 23 26
424 459 281 105 7 31
334 519 203 96 32 37
290 389 276 69 55 44
347 810 219 59 50 47
299 744 357 110 34 47
409 578 401 112 16 35
424 435 265 113 25 40
338 12 304 142 43 66
283 609 381 152 95 80
404 893 273 64 55 55
269 407 256 90 76 62
284 289 301 89 72 54
196 499 266 137 1 37
309 407 220 97 83 67
254 584 232 192 9 44
334 367 259 96 84 72
252 458 353 100 18 35
398 564 331 92 19 31
367 20 294 105 27 40
195 504 271 143 0 38
244 614 341 81 28 38
197 509 260 146 3 38
419 869 262 82 70 63
303 394 313 113 75 59
194 499 276 141 0 37
264 229 300 114 92 67
194 504 276 144 0 38
194 499 286 146 0 38
364 509 298 142 99 84
298 474 192 152 2 37
307 511 373 84 12 32
310 409 314 130 88 74
234 669 356 178 119 94
334 573 360 158 11 50
194 504 286 149 0 39
325 715 228 118 14 29
264 149 245 126 98 64
356 557 387 57 44 32
349 905 241 70 63 62
195 509 276 148 0 39
195 484 291 134 2 37
196 484 296 135 4 39
363 739 330 157 20 54
252 647 365 183 121 98
194 489 291 110 12 35
216 583 267 69 31 36
328 239 301 107 87 65
334 459 317 105 77 51
279 409 241 84 70 56
196 480 299 108 16 39
247 655 290 158 5 45
371 459 297 129 92 65
196 485 300 136 14 41
409 754 161 105 75 54
344 84 271 106 78 58
364 164 258 133 101 62
198 484 306 67 25 33
278 450 357 98 41 41
262 129 243 133 101 66
289 789 340 77 62 52
371 437 274 108 84 55
358 139 260 125 98 65
200 484 311 89 23 35
364 705 233 74 27 32
375 59 278 107 40 46
294 11 310 149 41 63
197 489 306 86 28 38
272 189 284 110 86 59
349 469 315 126 90 64
227 579 337 41 28 31
459 949 346 105 81 59
196 491 304 91 28 42
289 724 242 150 8 39
361 285 308 136 99 72
404 823 213 79 63 55
259 154 242 134 102 64
354 59 251 96 40 35
369 544 286 93 67 57
269 529 410 68 25 35
196 494 304 77 28 36
303 504 372 86 7 32
406 717 209 55 45 37
285 879 346 149 84 89
221 502 345 96 26 37
197 494 306 79 27 35
257 566 219 62 37 32
262 644 264 64 27 35
259 219 246 132 102 66
200 494 316 39 29 31
276 106 250 146 101 79
213 469 327 117 6 37
203 529 251 56 32 36
430 459 285 127 14 40
282 511 353 115 71 62
201 481 314 119 20 41
220 664 355 166 120 93
201 484 315 63 26 31
280 358 264 77 68 58
294 11 281 126 73 77
365 28 259 117 99 79
202 488 318 53 28 31
422 794 226 71 53 43
283 566 411 69 28 36
317 292 323 109 87 62
201 491 319 47 24 31
422 479 278 59 34 35
201 495 320 57 31 33
406 698 253 160 105 80
195 504 291 150 0 40
195 504 296 145 4 40
268 154 279 109 87 61
381 455 234 146 11 35
196 504 301 64 25 33
196 499 305 102 22 37
197 499 307 91 25 37
280 924 306 58 54 53
198 499 311 40 29 30
321 566 390 79 31 38
359 27 294 129 42 55
218 540 210 192 13 49
288 299 286 88 75 63
294 544 199 86 28 40
261 556 370 33 27 28
274 309 263 97 83 70
196 504 305 71 27 34
274 124 266 112 84 59
197 504 307 136 22 43
322 396 323 137 97 78
198 504 311 41 29 33
199 499 316 34 29 31
425 774 251 150 107 71
227 811 315 192 129 99
402 741 269 129 83 64
196 508 304 42 28 31
224 719 305 128 93 62
289 845 307 132 91 69
349 159 266 115 90 58
333 598 356 174 17 57
244 659 356 175 115 92
197 509 306 127 21 42
342 314 324 130 96 63
201 499 320 49 30 32
313 633 344 55 28 32
399 822 220 73 60 55
257 123 238 145 107 69
236 797 288 170 112 80
295 841 308 137 92 70
358 384 271 108 88 68
275 444 333 131 96 70
201 508 319 49 28 32
286 715 359 110 20 42
212 463 323 130 0 40
324 548 203 52 37 38
201 538 310 73 21 33
384 634 221 103 86 66
294 598 421 176 114 97
210 559 256 69 31 37
221 455 329 125 6 37
388 458 243 155 12 35
352 154 264 117 90 55
268 254 253 137 106 71
297 966 313 69 65 64
273 134 266 109 84 58
286 80 261 121 30 44
224 454 332 127 7 38
343 879 341 137 105 78
379 449 231 60 34 37
420 508 295 67 16 26
281 319 269 86 75 64
220 459 330 126 4 38
372 253 299 128 100 69
396 845 236 69 59 57
357 211 258 130 101 66
216 464 329 130 3 38
300 25 286 151 24 55
219 464 331 132 3 40
230 639 365 154 112 84
380 884 251 69 62 62
299 599 421 173 113 98
288 573 441 91 78 65
223 458 332 123 5 36
263 565 215 143 19 42
259 229 302 116 94 71
264 618 390 186 128 106
216 694 308 137 100 67
308 304 307 103 79 57
259 144 242 135 103 65
388 614 256 79 49 31
338 957 360 54 50 48
225 459 335 123 6 37
211 476 329 26 29 32
268 749 254 97 27 40
294 589 221 193 7 43
306 527 359 79 20 35
342 218 264 125 97 62
294 464 185 124 14 35
258 51 227 116 95 68
364 659 250 56 29 31
452 556 334 87 16 30
269 89 275 108 47 47
211 480 329 53 25 31
213 479 332 123 7 39
281 428 174 79 39 40
218 469 332 130 2 38
304 449 191 142 2 34
348 159 292 100 81 61
237 675 313 114 73 62
259 179 245 136 105 67
274 329 265 86 75 63
339 544 351 67 53 39
376 616 293 193 5 60
220 469 335 130 2 39
333 213 270 114 92 66
224 469 337 132 4 39
269 37 249 102 86 71
244 572 228 73 31 37
241 735 282 132 5 39
217 473 333 127 2 38
449 488 302 99 20 37
215 739 307 144 103 71
342 65 277 107 62 56
219 474 335 127 3 39
223 473 338 129 2 39
300 770 343 83 67 58
274 64 278 114 57 54
279 694 346 94 27 40
432 503 297 64 25 30
220 480 339 105 11 35
419 880 301 69 60 54
222 477 338 127 4 39
224 479 341 81 21 33
248 575 229 70 31 36
398 874 257 71 62 60
210 509 330 44 30 32
335 34 263 136 22 41
408 674 227 128 94 61
427 897 300 66 54 53
206 480 324 33 30 30
329 724 345 171 8 54
329 948 267 94 87 88
344 304 272 122 95 63
350 780 317 83 64 55
550 864 291 107 91 75
377 159 271 120 95 66
290 439 306 124 85 64
210 749 321 173 118 92
228 619 286 123 28 45
353 89 255 125 26 36
454 885 321 86 70 59
376 494 234 41 36 41
208 484 327 31 28 30
354 259 317 123 96 62
380 433 242 82 4 27
208 489 327 79 22 34
344 244 262 132 100 62
286 444 317 126 90 66
282 407 264 85 72 58
204 494 326 68 24 33
210 489 331 123 10 37
504 599 346 191 25 54
344 219 261 127 98 62
388 928 317 69 62 62
374 89 235 147 15 44
419 533 281 45 23 22
428 574 312 53 34 36
404 585 346 73 27 35
231 528 344 95 34 45
474 544 331 64 10 24
413 759 265 158 111 82
344 234 261 131 100 62
235 644 369 166 115 92
262 841 304 64 55 55
202 499 323 45 28 32
204 499 326 86 28 40
207 530 323 151 14 48
205 504 325 75 28 37
259 329 263 101 83 63
208 504 327 66 28 34
260 509 342 130 88 75
250 454 350 72 26 32
229 559 221 149 23 46
217 595 321 135 15 42
209 529 326 70 23 34
360 109 252 134 42 45
306 911 267 62 55 53
434 484 290 82 30 36
337 318 329 130 93 64
370 18 276 99 52 53
420 580 412 68 20 31
245 664 327 90 59 51
207 501 328 114 25 38
289 679 345 39 30 31
318 419 202 125 16 29
274 569 215 123 33 45
363 394 301 118 93 64
208 509 326 47 31 34
348 226 314 116 94 70
350 547 356 56 44 31
334 839 251 161 111 86
219 643 326 91 76 59
409 739 169 85 62 46
219 529 336 117 10 40
264 264 307 119 93 64
345 185 300 107 88 69
375 169 286 121 96 68
213 489 336 117 6 35
369 912 352 38 36 36
347 91 264 117 18 32
210 494 335 130 4 38
389 854 231 70 62 61
245 528 354 66 27 33
214 494 341 125 10 37
340 448 214 45 37 39
228 666 358 179 122 96
220 484 340 94 18 34
273 74 226 140 29 48
216 486 339 120 3 36
434 874 246 79 69 60
344 559 316 82 62 48
331 801 318 161 114 91
249 503 382 40 28 30
356 402 259 116 96 75
334 199 276 112 92 70
216 646 323 86 70 52
492 864 299 75 61 50
218 488 342 103 18 35
368 607 481 164 19 53
329 910 239 84 73 72
359 224 310 120 96 68
299 20 301 196 145 152
424 456 279 101 10 32
316 808 243 81 63 55
220 490 345 63 26 30
225 485 345 58 27 32
271 320 264 92 79 65
313 335 274 84 72 60
346 210 309 111 91 70
223 488 347 60 28 31
367 414 291 114 90 60
216 495 344 129 10 40
289 364 271 69 60 50
291 379 290 98 66 52
218 494 346 112 15 36
249 619 382 161 116 92
357 16 299 90 33 37
342 70 265 129 17 42
393 704 296 72 24 36
223 494 352 111 13 36
390 573 244 116 15 28
210 498 335 179 10 57
404 538 291 54 31 26
210 504 330 63 28 34
213 504 332 54 29 33
284 529 199 143 1 30
399 518 251 61 36 36
218 501 342 65 28 32
228 629 356 132 100 70
218 504 337 116 26 44
289 478 383 85 24 33
221 498 350 163 5 50
394 853 286 37 32 29
413 575 394 114 4 36
223 500 351 169 5 52
222 501 348 114 14 36
225 503 351 171 8 52
319 424 202 137 4 31
264 344 324 119 90 63
329 669 336 155 13 48
229 454 336 129 8 39
234 454 340 132 12 41
234 464 342 88 19 34
402 462 257 88 21 38
238 459 343 54 23 28
237 462 343 57 28 32
312 577 213 101 20 34
369 19 271 105 73 65
241 818 298 195 131 101
240 459 344 38 27 28
256 304 314 128 93 67
361 124 258 122 93 59
356 783 203 63 50 45
264 425 216 86 70 53
239 464 345 58 27 31
284 454 176 148 2 35
229 469 341 118 11 37
330 790 323 68 54 48
229 479 346 69 25 33
230 475 344 55 24 28
232 468 343 103 18 34
234 469 345 73 25 32
368 903 246 70 63 66
260 504 342 131 90 76
374 120 250 144 98 71
369 804 297 48 40 39
429 499 291 74 28 33
242 497 373 103 12 33
324 449 316 94 70 47
284 524 199 135 1 27
240 470 350 97 22 35
321 294 278 107 86 62
234 474 346 58 27 31
475 587 327 204 142 126
484 574 315 152 102 76
236 475 349 90 26 38
208 569 276 76 33 40
233 478 348 99 23 37
434 589 316 170 116 104
376 552 342 56 43 31
287 370 263 68 59 50
389 654 215 120 91 56
412 882 300 64 55 50
319 494 200 117 12 25
403 561 342 72 36 34
234 479 350 93 22 35
279 639 252 88 29 40
283 949 296 80 75 76
422 493 283 61 35 39
272 107 237 141 79 70
394 729 186 55 45 40
368 20 267 110 91 78
354 586 450 82 24 27
226 608 326 186 7 54
349 27 294 139 33 58
237 472 348 54 25 29
272 712 348 79 29 36
238 478 352 54 26 29
285 289 286 91 79 66
391 760 168 78 61 52
273 99 237 96 62 41
248 454 348 45 27 29
246 460 349 49 27 28
370 144 287 115 92 66
304 509 400 47 26 29
414 582 345 100 23 39
245 464 350 55 27 30
249 464 352 76 23 32
269 10 281 97 58 51
362 200 304 119 96 70
351 854 217 66 57 56
247 649 285 139 5 39
343 538 208 122 28 41
253 454 352 111 20 37
255 459 355 120 18 40
339 543 371 61 47 36
287 816 259 79 62 54
411 835 257 75 60 49
252 462 353 110 19 37
413 773 192 83 62 47
248 468 353 75 25 34
313 664 239 109 17 28
244 475 355 35 29 30
391 672 253 118 69 58
409 934 341 83 72 65
294 404 251 77 66 55
247 477 358 46 29 29
409 580 292 54 25 28
249 479 361 55 27 30
346 844 231 59 54 55
253 559 356 36 29 29
375 428 241 94 8 31
251 466 354 88 19 34
196 514 266 113 13 37
314 664 342 129 17 45
258 55 222 97 37 18
236 671 353 171 114 91
256 470 359 50 27 27
255 744 342 156 99 79
252 472 358 70 26 30
340 413 235 142 35 31
294 424 301 63 45 33
319 384 325 135 97 78
416 479 290 77 15 29
364 551 316 83 64 51
368 204 300 122 97 69
249 809 281 62 51 51
282 94 251 106 71 53
359 124 260 121 93 60
253 478 362 50 27 30
381 687 301 131 13 42
226 481 344 40 29 29
449 879 296 66 54 48
231 481 349 79 22 31
378 801 179 78 60 53
429 897 281 76 66 63
233 484 352 92 21 34
228 509 346 164 2 49
334 614 230 77 34 38
228 505 351 179 4 54
230 508 350 174 0 52
459 494 311 128 9 38
226 495 355 121 7 35
273 229 253 132 103 67
354 179 301 111 91 70
201 547 295 92 27 40
227 492 353 103 15 33
368 530 223 65 33 34
315 879 277 134 102 74
254 499 381 38 30 31
228 494 357 99 17 34
369 733 221 57 43 40
295 504 199 125 5 26
259 84 271 90 37 37
354 734 334 175 16 56
408 453 257 75 26 35
239 489 361 97 16 33
469 594 421 167 16 57
287 572 431 121 103 86
279 289 266 104 85 65
373 67 234 96 35 25
273 539 376 156 0 48
319 398 236 100 86 71
235 490 360 76 22 29
238 530 348 30 26 29
234 493 362 73 26 32
364 44 285 117 92 73
309 919 369 182 148 128
235 495 365 69 26 31
374 39 257 116 100 84
238 492 363 59 26 28
225 499 355 160 1 48
329 514 201 94 33 36
227 499 357 155 4 47
299 13 281 128 80 85
231 500 364 72 23 35
231 502 364 131 16 47
469 844 236 93 81 71
214 544 326 170 0 53
344 469 211 53 37 38
274 604 236 171 19 47
365 99 247 132 36 41
355 344 307 135 103 72
231 507 354 184 0 58
323 459 313 98 70 49
384 584 347 113 38 53
389 694 213 111 84 54
234 499 366 90 20 36
354 549 336 67 45 34
234 508 356 181 0 54
255 613 252 131 27 45
232 506 357 183 0 54
237 497 368 105 16 35
368 434 301 124 93 62
242 482 358 45 28 28
367 109 284 117 95 70
348 178 265 122 94 57
210 729 316 165 114 86
315 869 354 145 113 89
248 483 362 38 28 27
239 794 350 171 125 96
244 489 366 65 25 30
250 709 276 119 17 40
246 486 364 59 28 34
273 469 173 58 37 41
299 854 350 173 127 111
248 487 367 44 30 29
365 749 203 55 46 40
254 483 367 65 26 29
279 390 265 81 69 56
283 421 178 66 46 49
299 570 450 116 93 77
244 494 371 85 18 31
384 509 246 63 29 31
267 94 227 129 27 39
249 489 371 55 28 29
248 492 372 81 20 30
319 572 365 34 27 26
298 578 453 105 70 67
324 377 255 97 85 73
357 417 238 93 37 36
218 774 336 175 122 93
251 491 374 68 20 27
270 704 253 78 34 39
274 164 261 114 92 67
255 490 375 94 18 32
319 509 198 101 27 35
224 769 300 134 98 63
379 84 230 150 15 42
438 874 245 83 72 65
385 57 240 119 102 88
254 493 377 95 19 35
392 61 228 127 30 28
284 405 247 81 68 53
346 547 371 60 47 35
242 511 363 174 5 54
356 921 259 74 67 68
216 769 334 177 121 94
241 504 375 155 5 47
404 801 178 84 68 55
299 404 306 92 59 45
248 498 378 77 22 33
348 913 247 71 64 64
528 872 199 120 84 54
266 42 244 118 101 84
241 507 374 177 2 53
244 509 376 179 2 55
404 784 186 88 67 55
406 438 254 95 27 34
384 832 176 94 77 68
247 510 383 112 17 43
269 624 351 105 30 43
250 505 384 39 28 30
307 429 193 133 12 33
361 551 318 77 56 43
255 501 384 56 33 33
367 930 374 52 46 43
255 509 390 87 27 37
376 135 260 128 99 65
267 56 228 102 85 60
400 821 218 70 57 52
439 889 306 65 55 55
259 29 255 108 92 76
479 597 415 205 16 70
478 581 364 155 19 50
264 30 253 107 92 77
264 24 257 105 91 77
267 674 338 44 26 29
269 24 256 105 91 78
274 24 256 96 77 58
296 686 349 122 26 48
224 579 241 203 14 54
444 582 381 90 15 31
274 31 253 67 46 35
293 714 239 78 30 36
254 534 201 140 17 41
279 29 255 86 39 27
289 774 247 78 60 52
274 469 355 113 66 56
283 391 266 78 64 49
227 642 324 91 73 52
306 589 404 133 72 70
345 16 258 126 34 23
283 29 257 71 40 32
260 58 220 94 38 23
312 308 327 112 87 60
270 426 201 49 32 29
254 635 377 189 126 104
515 594 346 110 20 37
304 934 367 167 127 108
458 488 302 117 19 42
294 664 244 66 34 38
264 60 222 89 45 18
377 224 281 125 98 66
384 494 241 139 11 39
367 135 289 112 90 66
214 734 336 169 115 91
311 306 324 103 80 54
269 64 221 115 40 28
270 219 250 133 104 68
308 434 308 83 58 36
304 884 362 127 95 78
259 45 237 120 105 89
287 399 256 76 63 48
365 763 186 63 50 42
444 931 359 65 51 40
344 11 300 119 48 62
354 218 258 131 101 63
414 784 201 74 57 47
264 49 236 121 104 86
398 84 231 131 30 44
425 474 280 76 28 36
265 47 239 118 102 84
331 220 295 104 84 63
259 39 246 117 100 84
369 499 226 50 37 39
419 563 346 78 10 34
298 752 354 83 36 44
257 32 254 115 98 80
270 214 292 111 88 63
299 589 461 125 81 74
330 219 272 114 92 67
295 669 243 55 36 38
258 37 249 121 104 88
303 788 334 78 60 52
279 204 271 118 94 69
260 36 248 112 96 79
274 423 191 44 26 28
325 538 313 110 62 57
264 34 251 113 97 81
259 41 243 116 100 84
394 616 247 97 79 57
280 219 276 120 96 70
364 814 296 158 113 92
378 454 232 97 28 37
266 37 249 113 96 81
274 74 275 111 87 65
299 969 326 64 60 60
269 45 242 107 90 72
302 329 291 67 56 47
269 43 245 103 85 67
299 964 296 76 72 74
259 50 231 123 104 85
290 854 341 179 130 113
277 181 266 117 95 70
311 388 253 94 82 69
263 51 232 125 106 91
264 55 227 118 102 83
341 39 258 128 26 34
309 498 298 123 15 43
261 57 224 91 61 21
399 914 347 48 43 40
296 954 364 51 48 49
366 636 298 72 18 30
379 114 261 121 87 67
268 55 231 104 82 58
418 464 282 93 0 29
354 244 315 121 96 65
268 50 237 111 92 72
265 52 234 126 106 86
366 209 303 122 97 69
329 229 272 116 92 63
358 509 217 78 25 31
344 739 222 50 34 36
294 649 245 107 24 35
269 59 226 100 42 23
396 91 234 139 37 51
270 58 230 99 54 24
394 444 241 77 37 38
209 709 316 163 112 84
280 33 254 88 39 26
273 46 243 84 39 24
215 584 271 105 29 41
358 159 260 128 99 62
274 49 241 92 41 22
373 556 374 53 38 27
276 47 244 90 48 27
242 650 305 75 20 28
273 249 256 132 102 68
309 612 464 182 121 118
224 550 215 125 30 46
279 49 246 105 39 31
286 338 318 115 74 59
377 569 238 133 7 32
276 421 212 77 64 48
259 644 267 106 19 36
323 855 264 160 113 88
280 44 250 85 49 37
309 528 360 78 25 35
319 863 352 153 122 90
283 34 257 94 45 30
283 40 252 101 30 27
228 749 299 116 84 55
272 14 303 134 102 93
237 718 299 113 28 34
282 546 393 125 3 38
286 48 254 115 65 48
272 51 238 84 47 29
274 55 237 69 45 27
358 490 222 126 3 30
306 556 204 156 44 57
275 53 240 89 40 22
300 384 311 116 76 62
414 699 236 141 97 63
391 610 261 84 44 32
278 54 242 96 44 28
273 59 231 106 36 34
272 61 228 121 44 29
413 829 256 61 47 39
267 462 168 46 38 41
272 56 233 72 40 15
275 59 235 93 39 24
276 64 235 106 59 53
362 425 252 65 39 24
332 26 264 141 63 64
399 829 231 68 56 50
382 90 274 109 22 42
280 953 321 69 64 63
279 59 241 108 41 35
277 64 237 108 41 42
316 432 314 104 76 55
272 405 257 88 75 62
280 64 241 117 36 41
360 840 282 139 105 83
319 18 296 171 113 113
252 652 351 169 108 90
280 54 245 86 57 43
285 54 251 125 40 38
324 954 371 82 75 75
288 54 256 124 67 59
281 58 245 93 54 43
284 490 390 63 26 31
344 404 246 104 86 68
281 64 244 118 58 52
283 64 247 125 52 49
285 59 251 131 40 45
287 59 253 117 62 54
348 554 300 81 60 46
369 714 226 75 37 37
379 89 232 153 16 44
288 59 256 111 68 53
276 544 380 141 0 45
263 74 213 149 19 39
265 74 215 149 25 45
384 547 311 85 64 65
333 604 350 52 30 35
365 414 271 104 86 66
376 39 283 112 27 43
270 69 220 129 30 40
404 704 256 155 99 78
319 584 352 95 19 36
268 74 217 142 20 42
292 837 314 78 51 46
268 78 218 151 22 47
258 83 213 154 19 44
260 84 215 153 18 45
409 779 191 74 57 48
314 565 427 77 10 27
307 971 310 77 71 73
265 85 220 154 17 44
395 545 244 114 29 42
374 833 271 53 42 40
340 174 276 108 89 69
366 678 318 132 15 42
438 468 287 148 18 37
262 87 218 155 17 45
358 59 250 67 46 34
264 89 221 153 18 45
259 564 391 63 29 33
260 90 220 155 19 47
316 276 304 104 84 62
234 739 348 171 119 92
334 444 214 66 35 34
269 244 252 136 104 68
266 81 219 155 19 47
272 234 294 112 88 61
264 509 186 50 36 40
330 538 371 64 46 37
272 66 223 125 37 42
314 774 231 79 61 54
272 78 222 151 29 52
314 389 251 96 83 70
270 84 226 150 24 50
271 85 230 140 35 51
294 524 197 126 9 30
346 819 303 155 112 90
277 249 262 125 97 65
388 54 256 99 85 67
271 89 234 99 53 45
369 639 255 158 26 34
288 59 276 116 76 65
356 712 229 57 31 33
393 448 243 51 37 38
265 94 225 134 20 36
269 94 231 124 33 39
289 634 348 92 26 41
510 865 290 79 62 46
271 95 234 130 52 49
404 659 247 161 107 83
459 460 290 122 24 38
376 38 259 113 97 81
369 533 289 110 83 81
289 964 331 63 57 59
503 600 390 92 24 39
273 69 226 128 34 44
272 78 226 141 35 54
267 170 284 109 87 62
348 659 325 51 25 32
335 229 267 123 95 59
376 149 265 122 97 66
277 74 237 133 46 52
365 905 349 43 39 39
284 479 360 96 33 38
277 78 238 118 49 49
278 79 241 145 28 49
263 594 391 129 97 73
416 800 215 68 53 45
472 878 262 99 80 65
280 79 246 117 67 54
287 69 253 130 32 44
282 74 248 131 107 83
314 556 424 56 27 30
513 879 195 105 89 73
337 203 297 104 85 64
213 664 346 161 113 87
296 36 271 120 37 41
234 714 305 105 69 51
352 162 264 120 92 56
274 379 330 127 95 64
284 74 251 133 84 70
335 509 205 68 32 36
409 459 266 161 10 38
402 759 281 159 115 85
421 816 245 85 63 55
309 563 436 58 22 25
377 164 280 120 95 66
344 429 322 139 100 70
309 594 470 151 113 99
334 975 331 70 65 64
286 76 254 147 25 48
229 759 299 116 84 52
389 569 245 101 20 25
272 83 232 139 27 46
277 939 331 115 92 82
224 663 309 112 77 45
418 722 214 57 44 33
273 94 237 126 47 47
385 60 233 101 37 26
291 18 264 113 28 22
290 12 269 128 56 47
286 449 317 128 93 67
195 519 276 156 2 41
302 338 285 62 54 45
275 94 240 119 75 60
310 523 366 82 16 34
280 89 246 124 26 39
277 94 242 114 74 58
406 481 279 78 4 27
276 768 253 74 58 52
253 754 264 96 18 38
281 89 249 117 66 56
373 674 242 55 35 35
283 89 251 115 73 60
345 408 244 107 70 52
364 469 306 139 100 77
293 613 348 28 25 26
285 84 256 137 24 43
284 89 256 111 57 50
331 229 301 109 88 67
281 92 249 113 55 46
370 799 297 66 53 47
282 96 248 133 38 48
344 754 219 78 31 35
382 440 233 74 27 40
284 94 256 107 75 57
339 344 265 97 84 71
259 109 225 146 25 41
329 943 256 95 86 87
354 234 261 133 101 62
426 531 281 60 20 25
263 109 227 142 22 41
291 354 281 67 56 44
324 814 317 155 106 85
324 869 270 107 78 62
278 79 274 113 92 68
432 723 172 73 58 45
265 110 231 151 59 61
394 632 224 104 87 67
245 669 306 82 29 38
279 704 247 108 15 33
365 634 254 153 19 35
265 110 241 151 104 77
444 509 298 66 30 33
380 99 276 115 52 54
268 104 231 115 41 40
303 579 402 93 17 38
271 99 235 95 69 48
459 485 310 121 17 41
268 108 232 137 43 48
411 830 258 57 45 37
283 499 321 142 94 79
269 109 236 140 84 70
422 739 174 80 62 48
388 55 251 105 90 74
464 594 416 161 21 55
323 573 213 135 16 40
359 764 319 87 67 57
430 749 211 83 62 50
359 929 375 53 48 46
195 519 281 89 20 36
269 108 241 137 93 68
361 18 298 93 35 38
226 793 302 189 128 97
357 339 301 138 103 73
331 32 274 121 71 59
266 111 244 145 103 75
244 830 342 202 143 116
297 11 282 133 84 90
448 450 280 115 26 41
271 111 249 141 99 73
454 584 316 163 107 78
262 112 228 160 44 55
264 541 199 84 38 42
249 649 366 187 124 100
415 713 216 61 50 39
384 49 256 104 92 79
273 104 274 115 93 68
361 465 219 53 34 37
259 114 236 147 102 75
286 469 179 70 33 38
360 294 286 139 100 70
282 274 294 99 80 58
427 798 242 114 79 56
339 454 319 112 81 55
394 99 246 139 14 50
261 115 239 148 108 78
265 124 245 130 99 64
328 773 329 83 64 55
247 699 291 114 13 38
326 270 319 110 90 68
268 114 247 127 92 62
394 514 256 57 33 31
265 119 245 125 95 61
380 469 271 113 74 59
249 521 194 149 25 44
267 124 247 126 98 65
362 395 276 108 88 67
265 129 245 130 100 65
384 563 366 85 21 37
268 129 248 127 98 66
335 554 312 82 63 50
216 684 308 138 102 68
275 99 240 104 62 42
335 194 281 107 87 66
210 719 331 165 112 88
273 104 237 125 34 42
384 494 272 108 61 53
277 99 242 105 54 40
329 612 228 152 15 40
448 448 278 124 18 38
277 103 242 126 23 31
279 399 261 85 72 58
335 17 299 172 134 135
278 104 246 137 58 57
441 524 300 70 1 28
484 585 364 144 18 50
343 874 226 55 50 51
289 784 341 79 62 54
369 39 256 110 95 80
360 805 302 161 117 96
279 104 251 145 87 75
343 718 339 99 30 42
273 108 247 144 99 74
275 109 251 143 101 77
276 110 256 133 97 72
278 499 330 139 98 82
459 559 336 97 13 31
332 26 288 153 30 58
441 513 310 80 11 30
277 108 256 137 98 74
282 98 252 133 30 45
349 164 265 117 90 56
283 98 256 134 26 44
330 424 210 116 21 35
273 114 252 137 100 72
225 809 321 196 133 105
264 804 346 166 128 94
272 119 252 133 101 70
273 124 256 128 98 68
272 129 253 130 99 70
273 129 256 125 96 66
253 521 372 165 0 50
293 34 262 116 54 42
256 788 348 163 124 90
230 794 296 179 119 88
415 484 291 84 40 40
349 39 256 114 31 33
330 28 281 138 30 51
392 103 241 136 51 60
348 49 255 92 63 47
354 209 258 128 100 66
419 883 286 93 85 85
351 46 253 103 35 26
245 804 282 144 102 75
300 354 296 85 61 47
344 414 226 119 30 27
308 945 265 83 73 73
355 284 275 151 106 73
362 268 273 150 102 70
348 54 255 127 28 34
428 600 278 124 96 61
299 819 256 82 65 58
278 254 291 113 89 64
387 630 258 100 46 46
264 539 338 138 25 58
351 54 253 130 19 32
304 794 332 73 58 51
294 854 321 105 75 56
286 947 288 79 73 74
369 429 250 69 23 25
412 507 280 62 22 26
349 64 256 130 27 35
325 310 273 104 86 66
259 529 341 138 62 68
238 759 281 109 36 42
321 412 219 138 27 15
271 729 349 165 16 53
479 587 323 195 121 101
351 64 253 133 17 34
355 45 253 102 34 28
396 451 259 65 10 23
259 279 310 113 91 66
354 49 252 116 29 32
364 39 255 91 72 56
377 204 276 129 101 66
454 844 241 100 88 81
367 41 253 111 96 80
432 720 185 69 55 39
284 514 317 149 31 59
380 698 322 138 6 43
369 48 250 111 95 78
411 752 165 86 72 63
233 672 354 180 122 96
447 887 313 78 64 56
358 54 250 115 31 30
354 64 251 127 24 33
364 54 246 100 34 28
304 874 355 150 106 103
280 399 327 127 91 67
285 11 309 142 40 63
335 842 253 155 107 82
365 60 243 69 38 28
215 709 340 165 114 89
295 527 413 131 13 43
269 499 182 46 37 43
376 463 282 124 88 61
364 64 242 111 34 31
293 44 266 117 83 66
343 54 283 105 77 58
354 890 340 117 90 70
369 59 241 74 44 35
368 63 240 91 37 29
439 890 271 80 68 65
374 43 255 118 102 86
255 759 263 139 1 35
374 45 252 119 103 86
264 724 256 142 1 36
303 339 316 108 74 56
299 534 350 82 48 40
379 44 256 114 100 87
282 419 324 130 89 65
385 88 228 152 17 41
374 60 237 112 96 78
286 75 267 117 10 42
217 534 333 156 1 47
374 594 236 70 33 40
379 57 239 123 106 89
344 479 209 49 36 41
201 529 314 41 30 33
379 64 232 87 41 32
351 326 313 139 101 77
384 59 236 112 90 73
280 885 340 125 88 71
291 329 311 102 68 50
271 154 254 120 95 66
264 169 286 111 90 66
368 733 329 171 18 57
384 64 231 95 37 23
506 875 200 94 87 81
378 84 275 99 39 40
410 724 211 49 38 29
259 169 288 112 91 69
368 554 227 171 7 40
280 279 265 113 91 66
279 734 355 181 17 58
324 789 232 81 63 54
370 56 243 98 79 60
463 479 305 120 20 38
384 824 190 106 80 59
374 51 248 119 103 86
379 55 242 124 107 90
358 948 282 79 71 72
292 52 263 135 24 40
431 611 288 202 128 106
379 53 246 125 108 91
275 416 227 87 72 56
242 525 353 39 26 29
269 714 346 34 27 30
385 53 251 114 99 82
349 69 256 127 33 36
253 739 265 131 3 33
238 830 337 204 140 113
349 74 257 133 34 39
366 70 238 113 51 43
363 74 241 100 44 40
269 139 276 112 88 60
314 967 288 83 80 82
364 79 241 136 38 50
363 69 284 113 23 43
344 69 261 127 45 47
373 888 192 100 85 78
359 69 246 127 29 36
263 412 244 88 74 59
273 434 168 45 37 43
234 629 286 96 29 42
320 596 445 169 104 98
469 549 331 78 9 27
353 70 254 128 73 58
357 69 249 117 62 55
322 486 308 109 72 56
524 903 319 95 81 68
359 74 246 138 23 40
360 79 246 128 31 41
307 677 239 52 37 39
326 265 315 109 88 66
364 194 260 136 103 62
348 769 215 64 51 45
249 784 272 72 57 52
354 219 311 120 96 70
356 74 252 132 100 79
404 474 265 90 17 28
363 80 245 126 92 79
249 679 291 81 24 32
359 89 250 106 37 34
273 154 256 118 94 67
339 299 273 115 91 62
354 94 256 125 37 37
396 713 291 80 26 37
359 94 251 131 32 37
364 674 316 130 13 43
292 903 294 139 107 82
364 84 245 127 36 42
376 545 229 115 33 38
273 159 256 118 94 67
355 465 313 134 95 70
304 464 196 160 3 37
340 829 307 152 116 91
270 329 324 117 89 63
364 89 246 114 44 41
367 587 449 40 23 42
384 115 251 96 55 50
464 861 316 56 45 37
388 429 238 65 37 38
369 89 241 132 24 41
361 89 248 113 43 34
438 889 295 72 61 60
364 94 247 123 35 36
481 597 367 50 30 44
423 764 236 123 85 50
368 94 245 101 61 44
479 866 320 59 48 39
374 69 232 107 30 25
419 744 171 90 71 56
284 419 186 65 45 44
340 408 240 114 68 51
424 545 316 61 29 28
371 70 233 126 18 31
240 729 286 107 13 33
374 74 230 137 20 33
386 596 296 41 30 31
427 807 237 83 63 53
276 944 316 55 51 52
370 79 233 141 16 42
384 69 227 101 38 21
434 574 351 95 14 36
344 924 371 41 38 38
259 169 243 138 106 68
379 74 227 133 24 34
289 23 299 139 91 73
262 168 243 137 106 67
378 474 281 127 88 66
249 689 327 46 25 27
384 74 226 120 31 32
292 868 348 150 109 109
286 531 419 107 28 44
303 314 301 93 69 51
371 88 238 138 15 41
264 838 291 86 67 62
290 404 296 108 70 53
316 319 334 126 92 71
314 414 201 131 18 19
268 214 248 134 104 68
375 88 233 149 15 43
354 124 287 107 87 65
270 664 339 35 28 28
374 94 237 146 15 43
412 477 278 71 14 21
380 83 228 150 16 42
308 439 307 82 58 35
384 84 227 149 16 40
319 415 206 129 22 19
504 554 331 101 83 64
295 842 268 183 126 103
382 86 229 153 17 42
292 468 183 44 32 34
380 93 233 152 17 43
277 720 249 141 1 35
414 574 391 126 9 41
356 329 285 117 93 65
354 99 256 128 36 39
354 104 256 133 24 38
483 964 353 89 77 66
210 739 321 168 114 89
274 254 296 114 89 62
364 883 316 31 29 29
219 789 331 186 128 100
354 579 225 131 9 34
358 99 254 102 74 49
309 299 286 87 73 59
358 104 254 127 34 36
226 807 339 186 128 98
220 515 216 62 27 33
340 179 271 111 90 66
368 104 246 102 68 48
269 59 278 121 95 72
466 532 299 43 37 43
279 411 237 84 70 55
365 109 248 135 28 36
362 288 304 139 102 73
363 109 250 135 34 38
246 566 371 81 17 29
327 228 286 108 87 64
394 574 311 84 28 38
420 440 266 130 12 36
294 964 351 65 61 61
361 113 257 132 93 65
349 409 246 107 66 47
316 822 248 81 63 54
367 116 250 141 98 70
357 273 314 129 96 64
364 119 256 114 85 50
368 479 232 131 6 34
475 598 381 126 35 49
355 907 243 64 58 58
318 289 321 105 85 62
390 109 251 132 20 48
358 319 291 120 94 65
196 518 267 31 29 33
396 724 286 161 14 48
366 117 252 130 92 63
249 537 203 188 7 38
325 459 314 99 71 50
364 124 256 122 93 58
373 99 240 132 18 35
212 544 226 169 9 47
310 294 306 100 78 55
400 69 241 98 36 37
334 942 257 100 92 93
375 99 238 142 16 40
206 563 276 158 22 49
374 104 240 135 19 39
349 594 341 69 31 38
349 289 272 149 108 74
377 106 239 139 18 38
380 108 238 144 24 39
300 595 470 136 105 87
211 567 262 87 25 36
359 139 291 112 91 68
384 109 237 152 27 46
360 595 333 189 11 59
264 504 349 131 88 74
384 114 240 133 50 50
299 444 186 129 15 36
421 582 435 137 10 50
372 116 244 152 49 55
446 460 290 43 30 33
365 153 293 114 92 67
295 489 298 119 54 55
399 449 251 75 32 37
417 589 297 136 85 82
414 924 330 48 41 43
370 124 252 123 90 53
424 610 292 205 134 114
286 404 318 129 86 66
374 124 252 145 101 70
373 128 253 145 102 69
258 417 240 86 72 58
219 549 331 164 0 50
309 319 326 115 81 60
375 129 256 139 99 67
359 394 266 105 87 69
484 568 338 90 3 24
253 785 349 164 125 90
379 118 242 161 30 48
405 844 266 81 67 61
368 139 289 113 91 65
463 879 270 96 78 64
384 118 246 145 68 73
380 114 256 129 86 70
254 789 349 166 126 93
369 739 326 190 13 61
378 118 251 143 96 75
378 119 256 130 91 69
439 589 292 123 95 61
285 289 281 91 77 63
376 125 255 145 101 71
309 679 345 160 9 49
266 630 360 166 106 90
344 244 317 118 95 70
418 615 252 105 87 67
259 134 241 133 100 62
262 134 243 129 99 64
237 742 289 45 37 41
265 134 245 131 101 66
272 622 350 114 36 48
356 373 313 126 97 66
379 814 285 83 64 57
371 184 292 122 98 72
339 574 426 75 20 27
350 339 275 114 93 70
259 139 241 132 100 64
262 139 243 128 99 62
399 69 236 92 35 32
334 393 245 96 83 70
445 864 232 140 122 111
265 139 245 129 100 66
269 209 291 110 88 63
408 582 349 130 28 49
262 144 243 130 100 63
329 714 346 150 20 51
264 144 245 127 98 64
270 139 250 128 100 68
249 779 272 73 57 51
270 144 250 127 100 70
417 611 288 191 127 112
259 149 242 135 103 66
207 659 326 152 107 80
275 229 256 128 100 65
337 209 302 104 85 63
292 459 183 140 5 33
355 794 206 59 49 47
352 790 209 61 50 46
349 563 391 109 18 37
262 149 243 131 101 66
298 454 187 136 5 31
259 159 243 134 102 64
381 42 271 103 24 40
262 499 348 131 89 74
347 819 220 59 51 48
251 614 384 157 115 91
379 566 401 96 15 31
325 15 271 137 72 60
415 580 347 141 24 52
288 299 296 86 72 57
262 159 243 133 102 64
403 580 288 110 14 36
458 571 356 61 16 27
328 405 232 102 85 67
379 915 356 41 37 37
279 489 355 107 59 52
267 149 248 125 98 66
296 419 301 65 46 33
418 754 186 65 51 42
359 239 263 135 102 62
267 153 248 124 97 67
267 159 248 125 98 65
218 599 316 89 30 41
372 244 299 126 99 67
289 869 341 147 73 87
269 154 251 122 97 68
272 134 253 128 98 66
339 659 240 80 29 30
358 219 310 120 96 68
273 134 256 123 95 65
272 144 252 125 98 67
318 338 271 89 77 65
413 706 182 97 71 46
309 413 211 123 37 27
356 480 220 83 23 37
327 332 334 132 90 64
321 260 295 106 85 63
273 144 256 121 96 67
273 149 256 120 96 67
219 714 306 134 98 65
337 44 278 101 75 57
225 784 297 146 98 66
199 534 276 48 31 35
362 289 291 141 97 68
319 754 227 128 16 33
272 159 253 120 96 68
258 173 243 138 106 68
335 214 301 107 87 66
495 550 320 183 127 113
264 174 245 136 105 67
271 164 254 118 94 66
262 472 168 71 33 37
347 405 248 104 89 70
259 224 247 134 103 66
424 875 321 43 39 36
270 169 251 121 96 67
293 49 266 119 61 55
399 583 451 85 25 33
234 674 312 110 68 54
334 469 209 61 36 37
259 184 246 134 103 67
239 764 347 169 122 94
264 189 247 127 100 66
306 788 233 78 62 54
286 294 281 91 77 64
467 538 298 62 25 29
382 492 238 38 37 37
317 361 328 132 95 76
283 929 296 55 52 54
283 669 343 43 26 31
268 219 248 135 105 69
268 184 248 135 106 70
288 499 310 137 77 70
333 239 312 110 90 69
290 409 261 75 63 50
270 189 250 134 106 74
354 564 386 159 17 51
355 510 303 129 88 74
274 174 256 120 95 67
404 724 262 152 99 76
460 528 300 88 26 26
369 464 301 134 96 69
275 184 255 123 97 67
264 199 246 123 97 65
275 189 255 125 99 69
259 194 245 118 95 66
384 566 357 65 22 31
489 588 326 200 137 125
354 239 262 133 101 62
438 559 308 64 25 32
264 204 246 130 101 66
474 559 316 137 96 69
287 379 319 129 86 67
344 579 435 71 19 27
264 209 246 133 103 68
309 334 270 77 67 56
267 194 248 122 97 67
508 871 199 104 88 73
327 373 260 96 84 73
275 551 390 63 15 28
270 199 250 125 99 67
304 599 471 173 121 113
343 618 330 39 29 32
384 884 341 41 37 35
270 209 249 130 101 67
226 730 303 124 89 60
334 584 219 98 28 38
