ply
format ascii 1.0
comment Created by Open3D
element vertex 2220
property double x
property double y
property double z
property uchar red
property uchar green
property uchar blue
end_header
402 417 265 58 27 26
292 348 280 90 65 48
376 845 293 53 45 39
365 621 303 166 19 53
292 353 275 82 60 44
216 698 280 86 26 38
292 348 285 102 71 55
292 353 285 102 70 55
297 323 290 97 70 49
175 523 213 87 46 40
362 833 384 51 43 37
298 323 295 100 72 50
227 553 325 61 30 36
297 328 295 102 73 52
299 323 300 106 76 53
299 325 303 112 79 58
301 323 305 115 81 60
298 333 300 110 78 57
330 290 303 118 93 64
299 333 304 115 82 60
341 866 262 67 56 56
303 323 309 120 86 65
342 323 290 132 100 69
173 628 225 165 112 80
384 458 295 101 21 38
300 328 306 115 83 61
173 628 230 161 113 85
303 328 309 120 87 66
296 338 295 107 75 56
337 764 327 55 47 42
326 448 317 119 90 68
382 633 245 128 98 64
294 340 293 106 74 57
294 342 293 107 74 58
218 718 305 117 21 44
260 728 228 81 28 32
187 633 216 175 118 83
320 541 338 153 18 50
397 718 250 113 85 55
295 348 295 110 76 59
295 348 292 109 75 58
414 765 273 82 72 62
218 628 304 62 33 37
255 883 283 136 109 83
293 353 290 109 74 59
382 813 301 159 117 94
220 676 227 119 86 56
218 699 270 71 24 34
360 557 344 181 10 56
294 350 293 110 75 60
187 558 200 146 103 80
295 352 296 112 77 61
297 338 300 111 78 59
299 338 304 116 83 62
297 348 300 112 79 60
332 849 299 34 32 31
396 720 245 118 89 56
382 723 289 141 99 70
298 348 305 116 83 63
297 353 300 114 80 62
298 353 304 117 85 64
282 946 292 83 76 77
218 532 197 83 19 33
256 892 279 75 63 58
358 814 225 88 65 49
303 338 309 122 89 67
303 343 309 122 90 67
360 709 303 148 8 46
300 348 307 118 87 65
192 538 255 131 8 40
303 348 309 121 89 68
352 462 350 63 19 24
377 852 445 86 66 50
306 323 311 122 88 67
306 328 311 122 89 66
312 323 314 125 90 68
364 810 393 52 42 35
308 328 313 124 90 67
312 328 314 127 93 68
308 333 313 126 92 69
250 682 327 94 13 33
186 683 235 168 110 82
312 333 314 131 96 71
317 323 314 128 91 64
329 658 327 71 24 33
297 943 300 65 59 61
317 328 314 128 93 64
305 343 312 125 93 69
401 728 260 123 87 56
308 338 314 127 94 70
362 863 380 51 46 44
308 343 313 128 94 71
240 601 227 182 4 40
396 738 279 149 101 74
306 353 311 125 91 71
380 582 266 116 10 32
318 643 332 101 33 43
367 859 346 69 62 57
308 348 313 128 93 72
272 763 222 65 54 50
237 618 240 126 17 39
237 758 224 54 48 48
445 497 259 184 126 107
317 338 314 132 93 67
302 678 334 92 19 36
381 493 335 173 20 54
317 348 314 136 98 72
232 903 300 97 78 63
317 353 314 136 99 72
297 548 186 115 35 46
292 358 270 71 55 43
283 447 301 49 39 30
292 363 260 61 54 45
292 363 265 64 54 42
291 363 270 71 55 41
291 368 270 73 55 40
292 358 275 81 59 44
328 348 312 127 95 65
186 793 244 170 114 81
292 358 280 90 62 47
196 588 285 154 12 50
317 868 241 89 74 66
200 590 207 132 97 69
292 358 285 101 68 55
291 363 275 80 58 42
353 819 224 81 62 47
362 813 303 138 108 88
291 368 280 88 61 46
343 569 219 48 36 38
292 373 270 76 56 40
387 598 250 98 67 46
349 328 280 129 100 69
292 383 260 90 73 57
291 488 311 112 7 36
292 383 265 82 63 47
342 383 311 128 98 67
336 816 303 45 38 37
292 378 260 83 70 55
273 772 318 62 51 46
292 378 270 78 57 41
291 373 275 81 57 41
318 874 244 72 62 61
211 738 280 110 50 51
223 914 374 51 42 43
292 378 275 82 58 41
291 383 275 83 58 42
242 598 226 183 5 40
293 378 285 107 72 59
292 923 381 52 47 45
293 383 285 109 73 60
237 877 361 89 73 59
290 407 260 91 68 53
292 358 290 110 75 60
294 358 294 113 78 61
252 658 246 114 12 29
379 496 287 158 20 50
300 849 304 69 57 45
295 358 296 114 79 62
249 870 363 122 84 71
296 358 300 116 81 63
188 688 254 151 108 81
292 363 290 111 75 60
293 368 295 115 79 63
396 688 275 163 111 82
295 363 297 115 81 63
347 443 314 79 58 40
359 705 240 66 50 48
298 368 304 119 87 68
339 645 322 112 28 46
300 358 307 119 87 67
208 523 205 52 35 37
302 358 309 121 88 69
303 363 309 121 90 69
185 743 250 156 108 76
282 874 395 50 46 45
301 368 307 120 89 68
303 368 309 121 91 70
381 831 267 169 108 88
167 528 216 122 87 72
294 372 295 118 80 65
295 375 292 117 78 65
362 897 345 53 45 40
296 373 300 120 85 67
380 481 348 48 26 22
294 378 289 115 77 63
295 378 295 119 81 66
294 383 290 116 78 64
294 380 293 118 80 64
373 608 275 57 24 31
294 382 293 118 80 64
296 378 300 120 84 67
345 719 338 110 20 38
267 753 329 65 45 44
297 383 300 121 85 68
349 341 281 128 101 70
303 373 308 121 90 70
392 768 291 131 98 69
301 378 306 121 89 70
283 418 265 56 46 36
312 618 234 73 39 42
306 358 311 124 91 71
309 358 313 128 94 73
310 744 227 79 32 34
231 549 198 64 24 37
246 687 326 97 23 38
312 358 314 133 99 74
429 528 243 168 127 96
306 363 311 124 92 71
307 368 311 125 93 71
188 728 235 139 95 64
312 368 314 130 97 73
317 358 315 136 99 73
317 363 315 135 100 72
309 372 313 128 97 74
307 378 311 127 94 73
228 543 196 142 10 39
307 383 311 127 93 73
202 599 265 102 25 45
351 598 334 129 28 48
310 380 312 129 95 74
310 383 312 129 95 75
317 378 315 133 99 73
339 256 287 122 95 60
383 519 238 41 33 37
325 732 229 77 37 38
343 263 286 124 96 62
384 438 340 161 17 51
343 268 286 126 97 63
350 258 274 125 97 62
368 538 335 176 18 56
272 782 313 61 51 46
367 823 300 142 104 83
385 428 345 96 25 38
353 258 270 125 97 62
347 258 280 127 98 63
384 423 338 89 28 38
352 593 335 114 23 44
348 538 209 94 28 40
351 263 274 129 99 63
348 263 280 128 98 63
272 429 298 111 78 59
345 258 283 124 96 62
352 363 280 124 98 68
243 663 246 64 28 34
350 273 274 128 96 63
349 273 277 127 96 63
222 533 195 168 8 41
349 289 259 148 104 74
350 286 257 150 104 77
402 803 256 70 52 43
350 287 260 143 100 71
222 583 324 86 25 39
361 643 295 172 14 54
211 633 216 143 103 71
212 738 290 46 32 34
351 283 270 131 98 66
302 848 229 83 67 60
301 896 262 76 68 67
350 288 270 131 97 66
362 408 270 99 83 66
343 278 286 125 97 63
344 283 286 126 98 64
257 919 264 84 74 72
177 518 211 96 50 46
227 582 324 152 24 51
349 278 276 127 97 63
350 278 274 129 97 63
345 278 284 126 97 63
382 833 395 72 54 46
347 283 280 126 98 64
312 859 445 68 58 51
408 768 255 110 83 65
350 283 274 129 98 64
327 383 315 134 100 72
348 313 280 131 102 70
322 264 293 113 91 66
424 564 248 168 118 84
221 619 249 108 28 40
328 262 292 116 92 64
322 902 282 71 63 63
327 264 293 115 92 66
262 578 206 168 15 48
347 758 205 60 48 39
280 394 288 94 65 48
322 272 297 104 85 63
337 263 290 121 94 60
332 268 294 117 88 57
351 353 280 126 100 71
337 268 291 122 93 59
335 270 293 120 92 60
338 273 291 122 93 59
335 274 293 120 92 59
322 274 298 105 85 64
328 470 330 48 38 28
341 861 359 55 49 47
326 274 298 112 91 68
322 288 305 113 91 66
197 563 265 149 5 45
188 718 259 157 108 80
327 283 301 112 90 66
325 285 303 114 92 67
257 553 340 58 25 30
332 278 296 118 93 64
336 278 294 119 93 60
336 873 309 42 37 35
173 618 230 150 106 77
329 276 297 115 93 67
331 283 299 117 93 65
332 288 300 119 94 63
322 471 326 70 29 31
334 282 297 117 92 61
356 471 373 99 17 34
337 288 295 123 94 60
335 289 298 123 95 62
412 628 270 166 116 89
340 258 288 123 96 62
361 597 247 106 30 40
300 876 368 34 31 36
172 517 192 181 130 105
306 902 271 73 65 66
340 268 288 123 95 60
303 722 228 50 38 40
341 273 288 122 94 61
342 588 229 42 35 41
338 278 291 121 94 61
341 278 289 122 95 62
247 967 325 83 77 78
287 886 424 63 57 55
339 286 292 123 95 60
441 747 270 122 87 61
341 283 290 125 97 64
307 948 335 57 50 48
342 288 290 128 98 65
254 673 328 156 20 50
348 293 260 147 105 77
379 840 357 60 50 42
269 726 338 179 10 56
350 291 262 143 100 72
350 292 270 128 96 65
337 486 396 108 16 36
349 294 270 127 97 63
362 452 360 68 24 31
251 848 275 184 130 99
219 686 228 130 93 63
346 303 260 135 100 70
348 303 265 128 98 69
441 773 355 93 80 67
322 378 315 134 100 73
349 298 270 125 95 62
196 548 250 53 31 34
349 303 270 122 95 61
344 293 287 130 98 65
346 293 284 130 100 66
331 875 405 62 53 50
349 303 275 125 96 64
344 303 287 132 101 68
344 305 258 136 101 73
337 727 223 67 47 43
272 882 365 57 50 43
366 853 380 50 44 40
344 308 258 137 102 76
258 438 310 97 53 45
253 684 237 43 32 36
304 388 308 124 90 73
348 308 265 125 97 66
367 428 355 90 14 33
206 608 211 139 101 74
349 313 270 121 95 64
321 863 433 66 58 52
434 484 269 83 58 37
349 308 275 124 97 65
346 308 285 133 103 70
357 768 316 49 42 39
344 308 287 131 100 67
256 625 238 170 0 36
344 313 287 133 101 69
349 318 275 125 96 64
216 628 239 89 48 39
393 864 356 55 46 40
349 376 302 129 100 66
346 318 285 132 102 72
214 632 294 164 20 53
330 293 303 121 94 64
367 823 405 58 47 39
333 293 301 125 94 64
373 818 240 77 59 52
335 293 298 128 96 63
331 303 304 124 91 61
333 303 301 126 91 62
335 298 298 132 95 65
368 758 300 126 95 69
365 566 237 158 14 44
263 893 419 64 59 57
443 478 271 162 111 98
317 568 336 48 25 28
337 298 295 129 93 64
215 731 288 42 31 33
335 303 298 126 92 61
252 842 246 197 145 119
314 716 233 110 20 28
322 293 306 114 91 65
323 297 307 117 91 62
327 298 306 123 93 66
277 551 187 131 31 46
325 300 308 118 91 64
337 308 295 124 94 59
338 313 295 128 97 63
307 899 410 75 70 68
331 313 305 127 90 61
300 931 292 75 67 69
383 478 286 141 14 47
333 318 301 126 93 62
218 919 370 45 42 43
331 318 305 124 91 58
327 308 309 121 91 63
307 643 334 44 29 30
323 313 312 130 89 67
366 597 251 37 32 35
320 309 313 120 88 65
321 318 313 131 87 65
329 307 307 122 89 60
239 946 302 68 63 62
370 593 309 111 29 44
329 318 307 126 91 61
423 791 272 103 78 61
341 293 290 130 98 66
340 292 293 126 93 62
317 874 427 66 59 55
342 298 290 130 98 66
301 789 228 67 55 49
357 433 310 63 41 29
270 630 238 43 40 39
227 693 305 60 27 33
316 507 342 36 25 28
312 783 319 55 47 43
342 308 290 128 98 65
301 952 325 78 70 66
340 318 293 129 97 64
355 258 260 123 95 61
374 435 315 66 19 28
355 257 265 123 95 61
400 806 283 151 101 77
355 261 260 121 93 57
354 263 260 125 96 62
354 268 260 126 96 61
353 273 260 132 97 63
338 514 335 53 18 25
353 268 270 128 97 65
238 534 330 37 28 27
262 728 337 181 3 59
343 323 259 118 93 65
416 608 265 168 116 87
320 921 312 67 58 56
343 328 259 114 92 66
267 571 202 63 35 37
338 648 322 85 22 34
344 333 258 112 91 69
349 328 270 122 96 66
346 333 261 113 91 68
337 878 400 62 55 52
299 955 330 70 63 60
349 333 270 123 97 68
212 918 345 94 78 71
349 323 275 125 97 66
478 841 314 85 71 59
349 323 280 129 100 69
347 518 205 97 26 34
361 563 231 146 20 44
349 328 275 125 98 65
349 333 275 126 99 67
347 553 350 96 19 37
246 529 178 186 12 50
379 523 292 36 27 30
268 936 276 92 82 81
349 333 280 130 101 69
348 333 285 132 104 72
364 728 302 141 14 44
181 773 250 154 107 72
344 337 258 112 91 69
350 358 265 117 94 68
346 338 260 113 92 68
349 343 265 117 94 68
207 548 220 174 26 44
349 338 270 122 97 67
350 340 271 124 98 68
384 469 335 64 29 35
345 348 257 109 91 70
347 348 260 112 92 69
354 884 292 65 48 60
311 653 333 32 29 29
348 353 260 112 92 69
349 348 264 117 94 68
352 483 360 77 14 29
350 353 265 118 95 68
351 353 270 122 97 68
349 338 280 130 102 69
376 418 279 73 25 35
304 905 273 74 66 66
350 338 279 129 101 68
279 421 292 101 71 52
351 353 275 124 98 69
318 858 430 61 52 45
350 344 283 128 102 71
378 618 260 70 48 31
349 348 286 130 103 71
342 465 325 54 33 30
334 323 301 124 90 59
332 328 305 126 92 61
347 813 211 105 78 56
307 428 305 124 93 72
307 748 226 104 23 31
402 860 323 78 68 58
336 328 300 125 95 60
337 333 300 125 96 62
343 899 310 65 57 60
334 331 302 125 93 60
332 333 305 126 94 63
384 423 357 149 20 49
293 751 333 68 55 50
327 328 310 126 90 63
327 333 310 127 92 64
329 323 307 126 92 61
209 618 275 79 22 38
330 330 308 129 92 67
223 568 319 149 18 47
335 339 303 121 93 60
287 788 314 60 49 45
327 338 311 126 93 64
327 503 345 52 25 28
325 343 313 130 95 66
322 348 314 134 97 68
332 467 321 77 60 44
216 533 200 74 28 41
374 479 357 89 25 39
322 353 314 134 97 69
344 750 332 38 26 32
327 353 313 130 96 65
362 878 430 78 66 60
330 338 308 124 94 63
404 639 248 156 106 73
333 343 307 121 92 59
174 636 227 174 118 89
415 801 395 71 55 45
336 343 304 120 93 60
332 348 309 123 94 62
205 589 215 108 71 56
337 348 305 122 95 62
227 908 305 68 60 59
329 352 312 128 97 65
308 500 375 82 24 24
338 323 296 127 95 63
232 829 244 84 67 61
338 328 296 126 97 62
339 333 296 125 97 63
343 333 291 132 103 69
345 325 288 133 102 70
390 573 275 54 28 33
345 328 288 134 103 71
279 388 287 94 67 54
345 333 288 132 102 71
341 338 295 126 99 65
359 401 265 99 84 67
234 914 287 159 114 86
348 629 254 108 30 40
359 706 302 152 10 48
359 834 399 46 39 37
343 343 295 125 99 67
339 336 297 125 97 63
384 448 315 115 23 40
338 338 300 122 94 60
372 443 340 69 15 29
340 339 298 122 95 62
342 348 300 121 95 64
346 338 289 132 104 72
361 862 395 62 53 47
346 343 290 128 101 69
344 342 292 129 102 69
291 936 287 82 75 76
355 690 262 52 37 40
347 353 295 125 99 69
202 763 281 122 93 63
349 353 290 126 100 70
447 758 355 109 82 62
345 354 299 125 98 67
280 571 332 41 27 28
349 358 260 111 91 69
351 358 270 122 97 68
349 362 259 108 89 69
400 776 247 105 75 62
351 363 265 116 93 68
356 538 216 43 36 40
336 485 394 110 19 40
350 368 257 104 87 70
248 689 329 95 17 35
263 862 362 111 88 68
418 508 260 82 60 42
350 368 260 109 90 70
352 363 285 125 98 67
351 373 260 107 88 68
384 805 392 68 55 44
310 508 387 108 23 39
322 358 314 135 98 70
410 766 247 104 76 64
245 596 322 44 25 26
327 358 314 130 95 66
212 673 223 142 97 68
322 363 314 133 98 71
327 363 314 130 97 67
414 623 267 167 117 87
352 500 390 174 20 53
327 368 314 131 97 67
330 354 313 129 97 65
334 362 312 126 96 64
332 363 313 128 96 65
302 548 344 146 26 51
332 368 314 129 97 67
337 368 311 127 97 65
312 768 220 64 52 48
383 433 320 151 19 48
370 597 308 91 21 37
290 866 421 46 41 39
322 383 315 135 101 74
442 778 364 98 79 64
413 788 385 55 43 31
332 378 314 131 97 67
337 383 314 129 98 67
344 357 302 126 98 65
342 358 305 124 97 64
351 358 290 125 99 69
348 358 295 125 99 68
350 359 294 125 99 70
332 907 305 71 62 61
346 358 300 124 97 65
351 363 290 124 98 67
352 368 290 124 98 66
233 643 314 107 23 40
365 846 257 80 61 56
351 368 295 126 99 66
220 753 227 128 92 61
347 363 300 125 97 64
198 593 275 130 25 47
346 364 304 126 98 65
339 357 307 124 96 62
357 490 384 85 16 29
291 457 302 81 20 30
337 729 221 67 53 48
340 364 308 125 97 64
195 698 228 145 98 63
343 368 306 127 99 65
247 773 222 68 56 51
282 903 406 71 66 64
347 494 374 162 22 53
317 861 307 32 32 32
341 368 309 127 98 65
350 373 299 127 99 65
349 372 302 128 100 64
350 383 304 127 99 65
422 518 268 134 93 80
342 373 309 128 98 65
237 673 315 68 22 35
339 378 312 130 99 68
339 382 312 129 98 66
345 378 308 128 97 65
310 521 367 141 16 47
354 373 280 122 97 68
282 605 223 166 15 38
348 383 306 128 99 66
254 556 192 93 27 22
272 393 295 128 87 68
346 383 308 128 99 67
353 368 275 121 96 68
287 695 232 85 23 29
353 368 280 123 97 69
433 498 272 152 106 92
252 857 355 108 87 65
277 947 295 83 77 78
352 373 265 112 91 67
311 522 370 143 16 44
353 378 265 111 90 68
353 383 260 106 88 68
340 742 338 62 31 36
354 382 264 110 90 69
287 778 317 64 52 48
401 493 265 118 11 37
354 378 270 115 92 67
354 381 268 112 91 68
355 380 271 115 92 67
378 417 276 78 32 34
354 373 275 119 95 67
354 373 285 124 98 67
337 508 345 93 21 36
354 377 275 118 95 68
355 378 280 120 96 67
356 383 280 121 96 69
356 383 285 124 98 68
353 373 290 125 98 67
248 529 339 125 17 39
322 823 301 94 71 60
279 388 260 74 62 48
289 410 274 95 66 51
279 388 264 73 60 46
279 391 263 73 61 48
371 583 314 90 27 37
358 623 311 167 10 53
386 733 289 148 105 77
280 389 266 72 59 46
280 398 260 76 63 49
342 723 224 73 50 45
377 872 333 67 58 51
280 398 265 72 60 47
280 398 270 70 57 46
279 398 287 97 67 53
207 583 304 108 25 42
280 388 275 79 60 49
280 388 280 88 64 52
280 393 280 88 64 52
224 942 350 69 64 63
292 508 340 42 27 27
280 398 285 94 67 54
281 408 260 77 62 45
401 863 321 77 67 58
281 408 265 69 56 42
392 528 245 111 31 42
281 403 270 69 56 44
232 939 295 81 73 72
282 413 260 73 59 43
287 458 303 52 26 29
279 402 287 104 71 54
408 740 258 75 58 44
372 443 315 68 20 27
248 768 222 64 54 49
280 408 280 83 59 47
280 403 285 95 67 52
167 518 194 162 117 88
272 764 322 64 52 48
280 408 285 92 64 49
239 836 247 81 63 57
383 428 325 140 18 43
304 490 329 89 17 31
261 398 304 131 94 70
370 458 315 89 16 33
262 403 304 130 93 71
380 592 272 97 10 32
302 783 226 66 53 48
264 403 302 129 92 71
261 408 304 130 93 70
264 408 302 129 92 70
261 413 304 128 92 69
264 413 302 127 90 69
272 403 295 126 85 68
360 886 316 46 40 38
267 403 300 128 90 69
317 871 355 41 39 39
269 403 297 127 88 69
352 739 204 73 55 46
269 409 297 126 86 69
231 924 387 65 61 60
272 413 294 123 82 66
278 880 364 54 47 41
258 408 306 132 95 71
351 895 315 65 56 54
275 386 293 124 80 63
238 844 335 135 51 71
277 413 291 110 75 57
427 853 329 94 77 64
274 412 292 121 79 63
280 405 288 106 72 56
280 414 289 94 65 46
284 418 260 69 56 41
288 418 265 82 60 48
286 422 261 67 52 42
245 912 279 61 53 50
377 809 390 66 52 41
277 892 250 74 65 63
267 478 304 51 24 28
284 421 265 55 44 36
287 423 270 68 50 39
286 428 262 60 46 38
252 698 334 136 14 42
286 428 265 59 44 36
228 713 240 73 39 38
247 834 315 97 79 59
286 432 262 57 42 36
337 533 335 58 23 29
286 427 270 57 42 35
282 418 275 52 42 33
162 538 216 143 103 83
282 418 280 61 46 35
307 713 231 85 29 31
335 658 252 91 23 26
307 393 310 126 93 73
392 438 276 96 17 33
288 423 275 79 56 42
286 428 275 58 42 34
284 426 276 48 39 32
286 432 276 49 36 30
210 554 219 129 20 39
440 482 273 144 98 83
370 522 344 103 23 42
357 423 306 65 47 39
287 433 280 52 38 30
284 428 285 47 38 28
284 431 286 48 38 27
286 437 281 44 33 26
302 663 334 133 25 48
307 549 188 99 32 40
287 437 285 45 35 26
394 523 277 151 12 49
261 418 304 127 91 69
241 842 308 105 83 57
264 418 302 126 90 69
261 423 304 125 90 68
262 743 224 93 30 34
236 536 325 38 27 26
196 718 229 128 90 53
264 432 302 116 85 65
272 418 295 119 81 63
252 750 222 102 25 30
266 418 299 123 87 68
287 901 256 78 67 66
211 573 229 77 32 37
267 423 299 121 86 66
192 598 204 155 108 75
269 422 297 121 84 65
267 433 301 113 82 61
272 427 297 112 78 58
258 423 306 127 92 70
202 643 248 128 97 79
381 503 320 40 28 31
242 924 391 59 55 54
425 786 287 110 82 59
259 427 307 124 90 67
252 868 364 134 97 83
268 437 302 107 79 58
267 443 305 74 33 34
418 733 230 89 66 49
267 852 350 101 83 64
271 440 303 87 64 45
272 443 304 67 40 33
220 662 248 98 60 46
445 793 359 101 80 62
259 436 307 116 86 68
260 439 309 95 46 40
387 865 308 66 55 45
264 442 307 78 29 33
263 449 307 47 24 25
372 743 293 105 73 52
278 433 296 91 66 46
275 430 298 103 72 54
202 603 280 165 1 45
276 434 299 97 70 50
171 598 225 153 106 79
277 668 333 120 23 44
353 894 305 69 60 57
281 418 289 90 62 46
281 423 290 79 56 39
377 763 298 123 92 66
437 488 272 149 106 89
303 403 305 122 87 71
347 852 256 73 61 61
384 474 299 81 25 36
283 428 290 60 45 32
342 513 331 38 21 22
284 433 291 53 42 29
306 532 342 104 0 31
317 517 384 152 28 54
286 433 289 60 46 34
277 438 299 87 65 45
279 437 297 82 62 41
303 628 338 39 28 30
192 683 255 140 105 78
360 403 265 98 82 67
354 672 268 46 35 37
224 868 344 150 110 91
274 442 302 78 60 41
358 702 259 46 43 44
277 443 301 72 55 38
277 448 304 41 26 27
213 613 255 96 25 39
282 438 295 68 52 37
266 878 274 117 92 73
232 818 236 82 65 60
285 440 293 52 42 32
372 708 224 83 61 41
287 442 291 40 32 24
287 444 295 49 39 29
252 643 245 119 9 32
281 444 299 64 50 34
214 626 233 93 46 39
347 823 220 74 59 49
281 449 303 34 27 25
384 585 273 111 8 34
416 849 301 95 79 67
230 515 178 123 14 39
285 445 298 56 43 29
288 446 296 49 39 30
342 868 265 64 55 56
410 790 310 144 105 76
361 448 318 63 29 25
292 388 260 91 70 51
169 582 212 164 109 79
285 506 317 85 22 34
291 393 260 90 68 49
257 702 337 144 17 47
218 903 364 156 119 98
357 819 302 125 99 79
337 518 335 61 15 26
291 393 265 89 65 47
291 388 270 86 61 44
266 550 188 67 37 38
262 683 235 106 21 31
400 723 270 148 98 68
291 393 270 89 63 46
291 398 260 89 67 49
292 718 342 34 29 30
291 398 270 92 64 48
292 393 275 90 63 47
292 388 280 95 66 50
292 393 280 98 69 52
247 588 216 187 6 43
293 388 285 110 75 60
321 758 220 78 38 35
164 532 197 151 109 78
295 397 286 116 80 64
258 633 334 111 24 42
377 433 360 151 20 47
290 403 265 92 65 49
364 453 316 80 23 29
290 403 270 94 65 50
290 408 270 95 66 51
320 886 267 71 64 64
182 563 224 99 70 54
289 410 260 91 69 54
332 487 365 53 26 28
289 410 265 94 67 53
289 413 265 92 65 52
289 410 270 95 66 52
290 408 275 95 66 52
292 408 285 114 78 63
295 404 286 118 81 64
202 598 295 30 27 30
289 414 274 94 65 51
238 522 176 106 31 41
284 700 338 77 16 29
290 412 272 94 66 52
389 825 401 61 47 41
290 413 280 97 67 53
292 413 285 110 76 61
295 385 291 117 79 64
368 853 400 74 60 54
272 513 311 37 26 26
366 703 290 82 25 33
295 388 291 117 79 64
294 392 289 116 79 64
192 563 210 120 79 63
295 394 290 118 80 65
337 683 326 138 7 43
296 393 295 121 82 66
292 868 405 67 58 54
373 503 350 55 29 31
296 398 290 119 81 65
363 453 345 69 17 31
302 393 305 122 89 71
298 398 299 122 85 68
300 394 302 123 87 69
300 398 302 122 86 70
398 468 276 97 17 35
294 408 289 117 81 65
296 408 291 118 82 65
361 891 358 45 38 32
389 563 264 103 17 29
296 413 291 118 81 65
257 783 312 63 51 45
262 764 321 63 53 48
301 408 301 123 85 69
231 953 319 73 69 71
262 914 406 68 63 61
298 413 295 120 83 66
301 413 300 122 86 69
410 557 262 69 45 28
310 393 312 129 95 74
484 824 300 101 89 79
212 578 230 66 35 40
307 398 309 125 91 72
311 398 312 127 93 73
317 388 314 132 97 74
401 438 274 78 24 32
313 393 313 130 96 74
317 398 315 132 97 73
372 688 285 63 45 33
308 403 309 124 91 73
192 588 231 91 67 51
314 403 313 131 96 74
231 678 255 87 45 47
317 403 315 132 96 74
314 408 313 130 96 74
317 408 314 131 97 74
381 438 305 133 14 42
317 413 314 130 96 74
315 414 312 130 95 75
458 844 322 95 79 68
289 419 279 88 62 46
285 612 338 32 28 30
290 418 280 89 63 46
290 421 282 85 60 44
266 714 227 103 23 27
292 423 289 110 78 61
298 871 328 49 44 39
177 538 194 174 119 101
292 433 290 102 74 57
295 428 292 118 84 65
247 718 341 157 20 51
298 418 295 120 84 66
188 723 235 140 94 65
298 423 295 120 86 67
304 418 303 123 89 71
299 434 298 122 91 69
300 426 297 122 89 69
252 567 201 154 17 42
379 436 303 126 12 39
301 433 300 122 91 69
432 854 338 66 53 46
294 434 293 115 83 65
346 568 221 53 35 39
387 845 293 60 52 43
338 479 354 94 10 31
267 758 325 64 53 49
293 438 294 102 75 56
296 443 297 113 84 64
352 563 351 177 13 57
395 809 460 96 85 75
292 448 299 58 45 33
355 523 212 64 37 40
297 448 299 102 77 57
303 448 304 123 93 72
277 873 405 41 38 38
304 433 303 122 92 70
347 708 246 64 37 39
309 428 308 126 94 74
312 428 310 127 94 74
196 653 247 133 104 84
309 433 308 126 95 74
348 423 312 74 59 43
215 605 243 84 32 35
317 418 314 130 96 74
308 490 334 105 8 29
247 836 313 97 78 57
316 428 312 129 94 74
214 932 352 63 60 61
344 548 340 44 27 28
316 433 312 128 96 74
327 493 350 73 25 37
281 467 302 36 25 28
307 438 305 124 94 72
309 448 308 127 96 74
232 643 255 157 8 43
197 653 224 175 114 84
209 616 237 85 44 33
312 448 310 128 97 76
316 438 312 128 95 75
319 438 313 129 96 74
187 673 230 174 115 84
316 443 312 129 96 76
300 822 228 56 48 47
192 728 230 126 91 57
316 448 312 130 97 76
364 600 312 166 21 54
225 703 240 91 69 50
263 453 307 66 24 29
375 434 291 85 20 32
267 803 229 79 63 56
263 458 306 42 25 27
307 923 295 85 75 75
260 458 308 44 26 27
254 699 232 59 31 33
324 490 354 96 8 27
223 903 369 155 118 99
262 463 306 41 25 27
267 676 238 82 23 30
167 553 219 138 99 78
267 453 305 72 24 32
267 458 304 58 27 31
267 468 304 35 25 26
309 458 308 113 83 65
267 473 304 73 21 30
273 465 302 30 25 26
225 916 303 66 61 61
175 581 227 134 97 73
272 467 302 29 25 26
272 469 303 30 25 26
272 473 303 73 20 31
277 969 340 70 67 67
262 473 305 54 23 26
281 890 240 92 81 76
262 478 305 31 25 26
277 453 303 33 26 27
207 743 222 135 99 69
345 490 398 68 12 26
376 866 433 92 74 63
277 462 303 49 26 28
412 573 267 121 88 65
282 453 303 41 26 28
287 453 302 57 24 29
320 566 202 172 17 44
283 458 302 33 26 27
372 878 330 52 45 40
287 458 302 48 25 28
327 510 391 70 27 35
277 468 302 29 25 27
262 798 305 54 45 42
277 470 303 29 25 27
398 673 253 139 97 65
346 699 324 135 9 42
287 473 305 84 17 32
188 604 238 121 91 70
257 888 280 102 84 70
401 453 274 43 26 29
267 483 304 42 26 28
258 483 307 29 25 26
392 668 250 125 89 55
258 488 307 44 25 27
262 483 305 34 25 27
262 488 305 45 26 28
267 493 305 36 26 28
258 498 307 30 25 26
288 876 355 57 50 45
262 498 306 41 26 28
262 508 306 60 24 29
262 513 307 60 23 31
387 628 244 133 100 66
267 498 306 61 24 30
267 503 306 64 20 30
272 498 306 64 20 29
263 514 308 43 26 28
377 823 407 64 50 40
270 506 307 33 24 26
272 508 309 39 26 27
255 825 238 83 67 62
397 553 270 129 20 44
288 484 308 106 6 33
235 927 279 79 70 66
287 488 309 80 17 31
322 874 427 55 49 46
356 388 270 110 90 68
283 493 308 71 18 31
287 493 311 53 23 28
275 501 307 105 5 29
287 633 335 42 28 30
356 458 365 87 14 29
297 613 333 71 28 36
277 503 309 104 8 33
277 508 310 88 14 32
279 510 313 111 8 38
392 788 294 146 108 82
281 503 311 64 20 30
367 803 306 135 104 82
200 558 296 102 14 38
284 504 314 56 23 30
285 501 312 77 19 31
280 507 312 117 4 38
181 778 260 160 114 80
280 511 316 84 15 35
284 509 319 71 22 30
288 504 319 49 27 30
292 452 302 73 30 30
297 455 303 95 23 33
252 927 271 92 81 78
362 748 205 70 54 43
301 452 302 112 83 65
187 593 203 157 110 76
282 548 185 188 11 42
303 453 304 116 87 67
252 942 375 60 56 56
212 628 220 120 90 63
302 458 304 107 22 37
392 623 242 140 104 68
297 463 305 105 9 34
235 545 193 97 17 32
302 463 306 107 10 35
250 856 352 97 79 59
228 567 211 76 30 35
292 468 305 89 15 30
297 468 306 113 3 35
174 633 226 170 116 85
296 471 307 112 1 33
291 477 307 108 2 32
298 469 308 114 0 36
238 531 182 186 9 40
302 468 309 113 4 36
244 951 363 56 54 55
304 465 308 94 16 32
346 688 319 105 17 36
301 472 311 116 0 36
351 832 236 75 60 56
383 453 305 131 19 43
303 474 314 117 1 36
346 628 324 171 13 54
306 462 307 101 13 33
165 559 208 166 112 84
307 463 309 87 19 32
279 515 331 36 26 25
287 882 428 60 53 49
312 463 311 88 42 40
354 868 270 70 58 57
316 453 312 130 97 77
318 453 313 130 98 77
317 458 312 126 95 77
306 467 311 99 15 33
213 762 223 145 105 73
327 533 190 136 3 30
392 812 409 80 64 51
305 471 312 115 5 35
307 472 316 116 4 35
417 843 350 84 73 65
310 466 312 81 25 37
334 876 312 41 37 34
312 468 315 58 24 29
332 903 365 51 48 47
312 472 320 94 19 34
313 470 319 70 24 31
275 728 227 77 33 35
305 476 317 120 3 38
452 765 341 118 86 66
247 673 243 60 32 35
307 478 320 121 4 37
220 650 243 103 60 50
317 466 316 70 28 31
262 752 328 66 34 37
295 482 312 117 0 37
214 623 235 94 42 37
293 489 313 107 9 36
207 768 290 163 120 88
290 491 312 86 16 29
292 493 315 63 24 31
214 636 277 43 31 33
295 492 317 92 18 35
410 618 246 152 105 72
297 493 320 77 20 31
298 489 319 93 17 32
303 483 319 105 9 34
281 881 371 38 36 36
247 618 236 175 2 41
296 497 321 69 27 32
287 508 325 50 27 30
257 793 306 61 50 45
248 854 296 104 73 48
285 511 325 53 23 30
288 509 330 48 26 27
288 509 335 58 25 29
353 388 300 127 99 66
352 858 302 44 39 36
287 511 360 52 27 29
287 513 370 74 27 33
384 830 269 149 94 75
346 467 350 84 16 29
277 879 391 38 37 38
313 474 324 85 20 30
316 471 322 46 27 29
317 473 325 57 26 30
320 481 337 94 15 34
347 499 401 188 16 62
211 618 270 55 27 35
318 479 334 83 21 32
357 455 323 72 37 31
364 457 316 87 21 31
303 489 325 53 25 29
299 494 325 71 22 33
300 491 322 42 25 26
302 493 330 85 18 31
297 498 325 56 26 30
416 849 304 96 79 67
296 501 326 31 26 26
215 625 238 90 46 39
293 504 330 65 25 32
457 843 325 88 72 63
295 501 330 32 27 29
296 502 335 32 26 28
180 528 197 146 97 83
294 504 335 40 26 26
289 505 324 31 30 27
207 649 218 150 104 73
262 588 329 137 21 46
290 506 330 61 24 30
300 496 332 43 26 29
189 817 257 211 142 114
405 615 273 153 107 83
301 497 336 40 27 30
366 826 298 135 96 77
422 862 305 83 70 62
297 503 340 36 27 28
287 512 345 42 27 26
292 509 345 32 27 25
245 540 337 173 22 55
293 514 345 37 23 26
342 467 335 48 26 28
298 509 341 51 24 28
346 723 220 77 60 51
297 508 345 52 27 28
294 696 233 50 37 34
298 504 345 48 26 27
290 535 331 42 24 26
302 503 342 54 22 29
384 459 340 44 26 32
282 882 375 33 33 35
281 914 399 56 52 52
302 507 345 75 22 36
204 602 270 92 27 41
172 558 221 125 91 69
395 720 242 111 84 54
298 505 349 48 27 25
297 513 350 94 19 38
346 501 398 190 16 63
302 505 350 46 28 30
373 593 260 153 23 40
302 508 350 76 21 35
385 459 310 91 24 38
269 830 303 82 66 48
277 531 363 96 29 42
308 483 324 111 8 36
311 482 326 119 5 37
356 786 313 56 45 40
307 488 330 101 9 31
352 893 325 65 57 54
313 483 330 113 6 34
244 919 271 78 70 67
311 487 331 109 4 33
312 488 335 108 3 33
317 483 335 98 12 34
399 713 272 157 105 73
297 638 240 88 30 40
312 733 229 82 27 34
314 485 333 110 5 32
363 870 337 55 48 43
338 484 349 107 16 35
313 489 339 108 4 33
307 528 341 86 4 27
363 753 310 107 22 39
211 579 234 119 40 53
344 564 348 139 15 40
312 493 345 104 7 33
316 487 340 108 3 33
318 484 339 100 11 33
401 658 273 175 129 102
318 489 345 107 5 33
221 825 282 49 40 43
262 972 330 57 53 52
334 734 204 71 58 50
319 495 342 48 25 27
367 438 350 52 19 29
305 496 341 82 22 32
345 732 338 72 35 40
307 498 345 71 21 29
307 503 345 72 25 33
257 748 330 41 27 31
323 514 380 139 26 49
313 499 341 70 23 35
312 499 345 74 21 32
309 500 348 66 18 28
327 759 332 70 46 45
320 512 366 101 7 31
312 503 350 56 24 27
357 553 350 179 15 57
310 906 277 67 59 61
305 506 347 80 30 33
317 502 351 52 24 27
318 509 343 30 25 27
317 513 344 42 25 29
287 512 355 47 29 28
287 614 228 127 29 44
392 643 274 156 113 90
293 510 355 56 26 28
297 508 360 55 29 27
289 510 361 49 25 29
213 893 340 114 98 88
297 507 365 55 28 27
390 576 278 80 31 43
304 505 356 46 26 24
237 773 222 60 51 48
301 506 360 50 27 27
312 638 335 123 30 48
422 858 305 85 73 65
302 513 355 108 10 36
298 505 367 69 26 28
365 541 343 120 22 42
301 506 364 58 26 26
292 508 370 58 26 30
290 511 372 53 24 27
214 893 335 129 107 93
292 763 325 68 55 50
296 506 370 75 25 33
384 459 350 41 27 31
297 508 376 114 14 36
377 733 292 129 92 66
302 503 375 95 14 30
229 688 308 40 28 31
298 505 374 97 15 34
298 509 379 142 17 46
301 513 381 147 21 48
252 849 260 198 136 105
304 513 383 108 23 40
242 568 205 184 8 41
318 494 355 92 12 28
319 495 360 85 16 27
392 793 405 57 47 37
282 542 354 89 27 39
319 495 364 83 19 28
399 862 324 79 69 61
319 495 380 79 20 26
319 495 384 77 25 31
354 640 268 70 23 28
312 499 355 64 22 30
247 608 230 182 5 41
353 708 320 134 13 43
309 500 356 59 25 28
312 499 360 58 23 27
379 731 219 80 64 56
401 812 403 85 67 53
310 501 361 59 24 25
292 952 306 80 73 74
307 502 365 68 23 26
385 481 318 175 20 54
374 498 350 59 29 32
312 499 365 74 20 26
237 638 250 145 11 37
308 509 354 69 18 26
340 680 323 140 9 43
312 507 355 87 25 37
308 514 359 94 12 34
350 491 371 121 20 42
309 510 358 96 15 37
312 509 359 115 21 39
197 613 240 110 82 65
357 798 309 81 63 50
311 512 361 101 11 36
401 483 260 96 36 40
412 558 264 87 61 42
193 713 264 150 107 81
317 497 360 79 18 27
357 460 335 70 26 29
287 828 240 85 68 61
317 497 365 81 18 26
317 508 360 85 20 32
362 823 385 57 49 43
318 505 358 57 22 30
418 749 245 102 75 58
174 623 234 153 111 83
316 511 362 118 8 39
258 839 300 85 66 47
317 513 365 113 10 35
306 501 375 86 20 26
248 541 338 150 18 49
408 563 264 73 49 32
309 500 371 77 23 26
322 513 344 34 26 28
310 501 368 75 24 28
224 693 245 75 58 46
308 503 384 90 23 35
411 798 261 87 67 56
312 499 380 75 24 27
312 872 370 31 30 33
312 499 385 64 26 30
311 502 386 65 25 32
307 508 385 106 24 40
317 497 385 73 25 27
202 603 236 84 53 39
199 582 209 123 88 65
358 713 310 134 8 42
182 543 215 85 51 36
327 393 316 132 99 72
234 961 326 75 70 71
273 879 415 42 40 41
322 398 316 133 98 72
332 388 315 130 97 70
337 802 309 49 43 39
337 388 314 128 97 68
377 413 260 68 49 41
337 393 314 125 95 68
268 520 330 51 23 27
327 408 316 125 94 69
246 590 218 187 6 44
227 778 306 64 53 47
204 572 247 65 30 36
322 413 316 129 96 73
332 403 315 118 90 65
398 733 275 150 100 73
374 422 282 69 23 30
332 408 316 113 87 63
380 513 316 55 26 31
328 429 318 120 89 67
337 403 315 108 85 61
417 798 275 89 66 51
221 594 233 149 6 36
337 408 315 99 79 59
332 413 316 112 87 62
412 818 374 66 52 44
337 413 316 97 77 57
351 388 304 127 99 67
288 843 465 76 60 48
374 854 372 44 36 33
343 388 311 128 98 67
194 590 203 147 103 73
342 398 313 113 90 65
248 570 326 154 15 50
317 581 212 186 7 40
215 644 248 98 62 53
344 397 312 117 93 66
348 388 306 129 101 69
347 393 309 127 100 70
342 648 320 122 19 42
417 808 375 83 71 62
316 551 192 140 27 42
349 393 307 128 101 70
238 606 232 180 3 41
342 403 314 99 81 60
219 516 187 131 16 31
347 403 311 98 80 61
351 403 308 103 85 64
399 740 233 108 84 59
397 663 274 160 119 95
368 769 204 78 60 47
351 408 309 77 65 53
348 413 312 74 62 49
351 413 309 68 58 48
391 733 284 151 106 77
328 438 318 114 86 64
327 428 317 124 92 70
337 418 316 98 78 56
197 688 226 137 94 59
398 804 254 72 52 44
337 423 317 100 78 57
331 425 318 116 89 65
332 428 318 113 86 63
336 430 318 103 80 57
326 438 317 119 89 68
464 840 321 86 70 60
322 443 315 126 95 73
322 448 315 126 95 73
369 850 357 72 63 55
328 443 318 115 85 65
336 443 318 99 75 53
337 448 318 97 74 53
388 553 255 59 32 37
342 428 316 90 71 50
370 517 348 128 18 45
352 418 309 66 52 42
352 423 310 66 52 39
364 768 311 135 102 78
407 828 358 73 61 51
223 617 246 103 32 42
346 418 313 79 63 47
346 423 314 79 63 46
302 878 339 35 33 32
346 433 313 81 63 43
243 837 246 74 60 58
348 433 312 76 58 39
357 468 370 118 14 40
342 438 315 87 67 46
350 566 222 53 37 39
354 580 233 166 11 40
352 763 205 68 52 45
337 503 346 44 26 29
348 437 312 77 58 39
273 960 357 74 71 73
268 520 313 33 28 26
350 434 313 73 56 37
352 438 312 68 49 34
352 448 315 68 44 33
408 793 390 60 49 37
355 389 261 107 89 69
318 668 332 138 24 47
356 388 265 110 90 69
297 574 204 163 20 45
355 390 257 102 86 69
287 892 235 90 78 73
290 866 413 47 40 40
257 573 204 82 29 39
357 393 265 107 88 68
227 613 315 145 25 50
357 393 270 109 89 68
292 853 450 65 54 48
358 398 265 101 85 67
357 388 275 114 92 67
201 533 230 109 19 40
358 393 285 123 98 68
367 832 293 129 89 69
359 398 275 113 92 68
359 398 280 119 95 68
359 401 260 102 86 70
380 492 339 105 21 40
355 527 340 65 27 31
359 401 270 108 89 68
360 403 260 99 84 69
352 869 341 53 49 46
342 504 390 116 27 46
346 711 243 59 39 40
362 408 260 86 75 65
182 768 255 152 108 73
360 403 270 106 87 68
364 411 265 77 68 60
367 412 265 72 64 56
282 828 240 109 84 72
364 412 270 85 74 63
327 608 344 174 18 56
367 413 270 75 66 58
379 443 281 142 8 45
359 401 274 111 91 69
359 401 285 122 97 67
360 403 280 116 93 67
362 408 275 107 88 68
360 403 285 122 97 68
294 599 337 144 21 48
267 897 419 61 54 50
363 413 285 106 86 63
365 415 284 89 72 57
372 413 260 70 59 51
377 413 265 67 49 41
372 414 270 67 57 50
384 503 282 145 9 46
382 414 265 67 43 36
403 733 245 93 70 49
382 415 270 65 41 33
372 415 274 68 57 50
355 388 295 127 99 67
207 618 280 122 14 41
354 387 296 127 99 66
356 393 295 127 100 67
327 608 231 118 30 46
278 950 367 60 58 59
354 393 301 127 99 67
277 623 234 51 37 41
411 583 268 138 97 73
355 393 299 127 99 66
368 763 199 72 57 49
422 523 267 116 75 61
356 398 300 127 99 67
407 792 300 159 111 86
354 397 301 128 101 69
322 673 331 154 21 51
352 743 206 69 54 45
359 406 292 126 99 67
272 574 204 121 35 47
420 506 262 86 57 41
355 403 303 121 96 68
358 408 300 113 90 65
266 946 373 75 74 78
280 864 348 58 50 42
356 408 304 97 80 61
359 411 297 111 89 66
356 413 305 71 60 49
360 403 289 125 98 67
242 673 245 53 33 35
360 408 290 123 97 67
360 409 294 121 95 67
361 413 295 106 86 63
360 414 299 86 71 54
188 518 265 95 24 38
213 623 230 98 54 42
353 408 306 85 71 57
354 413 307 67 58 48
337 882 429 59 50 44
367 416 280 75 62 53
364 416 286 92 74 58
383 416 272 65 39 30
347 888 420 80 72 69
436 483 271 110 75 57
372 416 276 70 55 49
369 416 277 72 64 57
377 583 296 64 28 34
331 507 381 86 25 40
362 733 200 77 58 44
369 428 358 134 16 45
372 418 280 64 34 34
371 419 284 87 29 36
195 570 212 117 78 61
375 424 283 82 25 36
367 828 406 59 48 40
375 428 284 92 19 35
373 428 286 72 25 32
379 421 277 89 27 38
382 418 275 77 30 30
183 548 216 90 54 42
383 423 276 90 24 32
198 783 284 157 122 92
381 428 278 104 19 36
382 433 279 128 11 41
171 588 226 150 106 81
378 433 281 132 14 44
378 438 281 137 8 46
381 443 279 137 7 41
381 448 280 135 11 42
378 443 285 130 10 41
377 473 355 79 26 37
381 448 285 136 11 44
202 668 224 138 93 61
359 421 302 64 47 40
220 683 253 84 58 45
364 417 291 89 66 51
363 418 296 79 52 42
366 420 295 81 34 34
369 422 291 91 26 36
234 849 311 147 115 84
363 422 300 77 35 35
363 421 297 83 41 36
361 424 304 73 38 38
367 422 300 75 31 34
337 723 195 80 64 51
368 423 303 86 27 33
402 663 271 177 125 98
171 593 215 163 111 79
287 848 245 74 59 56
401 483 265 120 19 41
362 428 306 82 47 45
355 424 308 64 48 37
317 869 405 46 41 40
356 429 308 64 48 35
362 430 308 74 50 45
372 889 350 53 46 42
362 433 310 78 33 31
352 857 262 74 61 60
368 432 306 101 30 39
359 435 314 60 38 23
384 724 223 79 59 43
300 906 394 53 48 47
361 653 280 134 25 45
357 448 319 62 38 30
242 931 277 91 79 75
368 438 310 87 30 32
368 443 310 74 26 28
362 444 320 56 30 25
192 533 250 138 4 41
364 448 317 75 27 27
366 443 315 69 27 27
365 440 318 58 31 21
365 442 319 56 30 23
262 858 360 109 87 67
366 448 314 83 23 30
370 424 290 85 23 33
419 754 269 85 66 50
246 965 341 60 57 58
471 826 324 95 84 77
411 862 328 76 66 61
370 425 295 86 26 33
373 428 300 102 16 34
209 556 222 155 24 49
422 568 264 167 115 89
238 663 251 141 11 35
347 523 205 90 31 37
369 431 302 100 22 36
387 798 296 149 109 84
327 617 236 58 37 40
372 433 305 112 18 36
375 429 301 108 11 32
167 568 210 168 112 84
375 430 296 105 9 38
378 432 305 120 13 38
373 428 309 111 26 44
377 428 310 121 18 42
199 596 280 178 11 50
374 433 310 104 11 35
245 960 352 50 47 48
377 430 315 131 14 40
201 594 296 44 27 32
375 433 315 65 12 26
377 428 320 98 12 35
377 438 360 148 18 48
248 698 236 57 31 36
414 788 381 63 51 40
381 433 310 136 14 43
405 448 268 106 24 42
380 430 311 145 18 47
381 428 320 141 18 43
332 843 230 81 63 57
377 438 290 100 20 34
347 488 349 118 15 39
379 437 300 122 15 39
368 711 219 78 57 42
379 442 290 117 14 37
377 828 260 133 91 74
197 698 262 137 103 79
381 448 295 142 12 45
326 859 427 62 52 44
380 440 296 130 12 40
382 448 300 136 14 45
370 896 338 65 53 44
277 808 305 141 100 83
371 831 293 125 83 64
381 488 285 85 22 34
374 438 315 77 20 30
257 956 302 90 85 86
422 756 262 111 79 56
373 438 320 80 15 28
371 442 311 68 26 26
371 448 310 75 21 27
396 813 460 102 86 70
302 913 385 55 48 46
372 448 320 86 14 33
380 434 306 127 12 38
382 438 310 139 17 43
267 643 241 91 22 31
362 843 290 36 29 28
383 438 315 138 17 44
384 438 320 150 18 45
236 514 173 166 15 44
367 428 345 96 10 32
366 428 350 48 24 28
362 440 323 58 30 23
353 723 330 94 29 40
362 442 324 57 27 24
366 448 345 49 25 28
277 894 255 71 62 60
305 760 228 119 26 39
251 940 377 56 52 51
367 443 350 58 16 27
368 444 346 66 19 29
212 813 239 188 127 99
377 423 325 80 23 34
377 419 330 73 27 33
287 843 311 69 58 48
287 553 335 85 21 35
375 422 330 49 20 27
391 483 278 120 1 37
374 424 330 57 15 22
373 423 335 58 14 26
375 421 334 22 23 30
377 418 335 55 21 31
374 430 322 79 0 26
371 428 335 84 12 30
347 874 304 49 42 39
372 433 335 68 16 29
208 618 290 82 30 39
373 428 330 88 10 34
373 433 330 86 3 30
351 532 345 61 20 30
388 839 352 62 53 45
378 420 326 83 28 38
297 872 434 62 54 50
325 491 361 85 17 30
378 424 321 98 21 37
293 548 339 42 28 30
381 420 326 89 29 37
382 423 325 66 19 32
322 458 314 125 94 74
381 424 322 113 21 42
382 419 330 106 31 42
205 665 223 145 99 67
382 418 335 64 27 36
382 758 294 136 102 74
392 842 368 50 38 35
383 423 330 78 28 35
384 423 335 54 30 31
360 459 368 115 17 42
307 833 223 72 58 51
384 433 325 155 19 47
384 428 335 68 27 33
384 433 330 158 21 51
370 421 344 47 22 22
241 702 331 92 22 35
344 470 354 114 13 37
372 419 345 32 22 27
377 418 340 51 24 30
351 457 321 69 47 33
370 428 339 95 12 34
364 723 301 151 9 47
369 428 341 88 13 33
369 432 341 49 21 30
382 417 340 65 31 34
382 416 345 60 31 31
207 753 222 142 103 72
187 578 229 97 72 55
373 438 325 79 11 28
373 438 330 58 19 27
208 758 290 154 119 88
372 448 325 92 11 32
209 816 242 193 130 103
348 703 248 77 39 31
362 793 210 79 60 50
371 443 330 63 22 27
371 448 330 76 19 32
370 435 343 69 12 27
232 773 224 53 48 48
205 610 238 75 45 27
372 438 340 85 10 30
360 587 242 162 20 43
391 598 244 123 94 65
370 438 344 60 23 27
369 438 346 42 25 26
223 733 230 131 89 65
370 442 344 56 24 25
267 828 301 110 84 62
370 447 339 65 19 29
367 423 355 81 16 30
367 438 355 116 7 35
368 438 359 132 14 42
363 449 355 40 24 25
368 448 358 108 20 39
252 848 285 160 113 86
372 418 355 57 25 27
231 697 316 94 21 37
389 729 233 86 65 46
369 424 358 116 10 35
372 423 359 127 16 40
384 614 247 117 91 64
427 793 274 93 71 55
377 417 355 67 35 36
377 423 360 147 21 48
372 428 360 140 17 45
372 433 360 145 17 46
188 753 231 155 106 75
382 433 359 153 17 47
372 448 359 98 20 37
382 438 359 150 17 46
292 929 376 50 45 42
384 438 356 152 16 47
222 788 225 171 116 83
181 658 230 182 124 94
234 723 333 163 22 54
381 443 359 73 22 33
384 443 355 117 16 41
366 877 296 76 65 64
389 800 397 95 78 60
347 558 216 100 28 39
381 448 358 75 33 39
407 588 240 142 108 71
322 453 315 127 96 75
326 458 317 119 90 70
269 881 367 65 55 47
267 941 281 85 77 75
328 458 318 114 86 66
381 498 325 174 18 55
332 453 319 108 81 60
332 458 320 106 80 59
205 636 247 112 85 69
329 462 318 112 85 65
332 463 319 103 78 58
242 939 290 76 68 68
321 466 317 64 45 31
340 449 318 90 68 48
262 788 310 61 50 45
343 452 317 84 63 45
341 454 318 86 64 46
347 453 316 75 51 37
351 452 316 71 47 32
342 883 430 62 54 49
347 457 317 71 45 34
216 583 311 96 22 37
383 453 276 52 23 29
381 453 285 143 12 46
262 550 188 142 26 46
382 458 280 132 13 43
384 462 277 135 12 42
384 463 280 139 12 44
382 458 285 145 14 48
384 463 285 147 11 47
368 453 307 80 23 27
361 453 319 76 28 30
421 861 311 81 70 64
172 613 220 163 110 80
398 722 245 119 88 59
366 453 314 80 20 30
397 623 242 147 106 70
367 457 307 85 19 29
383 453 300 144 16 46
271 882 415 41 39 40
226 594 229 78 29 38
383 463 290 119 19 44
337 733 344 123 20 45
384 463 295 71 25 34
369 450 307 77 26 27
370 452 311 85 19 29
240 663 317 153 15 48
265 907 257 84 75 73
371 453 315 88 16 32
202 647 217 172 116 87
370 460 312 92 19 34
373 844 385 67 56 51
265 556 340 139 19 46
370 461 311 92 19 34
317 578 334 155 19 50
367 882 329 46 40 38
405 463 260 48 27 29
297 618 231 126 19 41
371 763 201 84 62 51
370 462 315 95 17 34
306 942 310 87 77 76
384 453 310 99 24 38
385 536 242 164 18 43
383 473 290 143 17 48
382 478 290 64 23 31
298 714 343 36 30 30
382 478 295 41 27 29
383 483 286 102 19 37
379 495 287 157 21 52
205 603 212 131 95 71
182 593 234 123 91 68
332 513 345 70 26 33
382 503 285 152 11 49
382 508 285 152 14 48
342 613 241 127 28 43
381 483 290 49 28 30
382 483 295 44 28 29
332 778 321 54 45 41
383 483 300 56 28 32
381 488 300 104 26 42
209 573 232 40 35 41
380 493 290 108 22 42
265 661 332 162 21 53
187 603 205 165 117 81
383 488 310 79 24 38
372 858 435 86 70 56
382 493 310 168 22 55
322 658 244 107 18 33
384 488 315 136 24 50
383 493 315 170 16 53
237 873 296 156 120 87
383 493 320 173 16 55
287 878 240 89 74 62
380 499 289 157 16 51
380 503 289 153 16 49
229 648 262 134 3 39
379 498 300 153 18 49
466 842 319 87 73 62
242 553 195 116 26 42
378 503 300 143 20 48
379 503 305 158 20 51
247 733 338 176 18 57
389 574 286 137 26 47
380 496 300 123 15 40
377 513 300 53 25 31
199 826 261 217 140 113
307 933 365 57 52 50
379 504 309 168 20 54
262 522 311 70 20 30
381 498 310 142 20 47
380 503 310 169 19 53
381 498 315 164 19 51
357 868 301 44 40 39
190 525 260 42 31 35
382 498 320 113 19 41
379 508 310 105 28 43
359 820 234 69 55 50
379 509 313 64 25 35
380 506 312 168 21 53
381 508 320 37 27 31
257 568 324 152 22 52
297 870 400 57 51 48
380 513 320 63 30 34
322 470 324 63 30 30
326 471 327 57 36 28
322 474 330 60 27 29
320 476 332 61 29 34
332 468 325 55 42 30
327 513 345 44 26 29
337 467 326 59 43 33
277 638 335 66 24 31
332 470 334 40 27 28
337 468 330 42 28 27
337 469 335 43 24 27
323 479 339 71 23 29
336 471 341 46 29 29
331 476 342 52 25 27
398 688 255 136 95 64
332 478 345 65 25 29
337 473 345 62 24 27
336 478 350 99 14 33
342 463 322 68 46 37
346 461 322 68 43 35
370 603 304 166 15 54
347 462 325 68 45 35
336 643 251 62 32 36
288 846 485 83 65 50
349 460 324 73 50 35
352 462 335 66 41 31
212 558 315 125 18 44
337 763 206 52 43 40
347 464 340 61 31 29
242 613 322 147 27 51
402 423 271 91 26 36
342 503 344 52 25 29
267 698 231 67 35 37
352 462 340 75 31 30
230 856 340 134 105 84
352 462 345 65 22 26
341 466 326 50 34 31
449 481 257 134 101 79
266 854 258 176 123 98
287 730 337 78 30 37
344 465 335 56 34 29
221 763 307 44 38 38
270 873 268 90 70 59
352 892 290 72 62 60
342 468 340 46 26 27
393 885 315 71 58 56
392 803 294 157 112 86
340 471 346 68 19 24
375 487 353 117 22 41
341 472 350 104 11 32
199 548 293 132 8 40
377 853 371 54 45 37
343 469 350 95 17 32
277 683 334 163 17 52
327 894 385 52 46 44
330 921 344 60 51 46
206 593 215 110 73 55
211 732 272 84 35 39
348 465 345 57 24 25
249 685 328 70 23 30
352 462 355 84 16 26
309 871 307 35 33 34
347 463 364 106 3 31
175 573 203 158 111 77
353 464 370 105 8 34
247 529 335 90 21 34
357 874 412 94 80 75
343 465 366 113 10 34
343 467 365 113 5 34
364 693 292 79 29 35
344 474 359 115 8 35
209 621 277 53 31 33
341 478 356 109 6 35
317 858 440 63 53 45
406 805 278 93 67 52
349 465 355 96 12 31
344 467 362 118 13 40
297 543 340 72 26 33
206 598 297 35 27 30
390 802 242 102 74 60
350 466 362 117 6 34
357 568 230 88 27 39
375 601 298 52 30 32
349 469 363 108 6 33
342 466 368 113 4 35
352 473 369 106 11 36
348 479 369 91 9 30
297 923 380 53 47 45
297 884 232 103 81 71
352 478 370 107 13 36
293 959 335 64 58 57
353 479 373 85 5 27
323 484 344 91 16 34
322 894 400 60 52 53
393 538 281 140 17 46
320 486 342 103 16 36
365 708 293 153 18 49
322 488 350 104 7 33
358 573 335 90 31 42
322 493 345 57 24 28
407 813 370 79 65 50
194 674 253 133 103 78
322 494 342 67 23 30
327 492 344 86 21 35
312 688 236 72 33 35
325 494 342 84 16 30
267 943 375 76 74 75
331 482 350 68 24 31
337 485 347 112 20 38
375 715 217 86 63 48
212 827 251 210 140 109
337 488 346 108 14 37
331 492 351 70 23 32
302 885 417 54 50 49
405 462 268 68 27 32
322 498 342 57 23 29
412 773 275 77 60 43
291 873 345 57 50 43
362 897 316 60 52 51
221 648 230 121 85 64
325 496 342 62 23 25
322 498 351 62 26 33
320 506 342 34 25 26
297 884 421 61 55 53
186 703 240 161 108 78
225 515 183 173 3 44
327 508 345 47 27 30
308 702 233 105 20 28
332 508 346 64 26 32
169 587 220 157 109 81
336 512 344 96 23 39
340 484 347 102 20 39
228 653 305 64 29 36
214 776 298 171 124 97
322 838 220 101 77 63
340 486 347 94 15 33
347 484 351 84 24 32
445 740 266 121 87 62
257 588 214 194 8 45
372 468 359 39 29 29
344 495 347 143 16 50
222 938 360 56 52 52
352 490 347 96 18 38
352 493 346 86 10 29
302 948 350 54 50 49
477 822 325 96 82 69
341 512 335 35 21 24
342 496 348 128 19 45
387 648 274 150 110 89
182 518 200 157 97 90
354 648 307 163 15 49
343 508 340 43 22 25
347 498 345 72 18 30
305 526 366 167 16 53
348 500 342 47 21 25
352 498 345 58 15 25
351 503 341 30 21 23
350 510 337 40 20 24
368 854 395 67 57 53
322 492 355 99 8 31
328 489 360 80 21 29
326 492 365 66 22 26
220 916 367 74 49 47
282 738 334 137 23 49
332 484 355 69 22 29
333 485 360 74 21 30
362 701 264 57 46 46
338 489 354 74 18 32
337 494 360 89 18 33
357 778 199 76 58 48
322 494 370 81 17 29
230 902 303 98 78 66
451 764 345 131 96 74
250 545 188 120 27 44
