ply
format ascii 1.0
comment Created by Open3D
element vertex 2218
property double x
property double y
property double z
property uchar red
property uchar green
property uchar blue
end_header
381 776 191 64 51 44
296 581 168 145 4 31
335 795 174 151 105 71
289 586 164 158 0 33
336 581 178 76 27 36
291 586 166 141 2 30
298 596 290 139 12 45
289 589 164 179 0 31
302 785 251 76 59 53
291 591 166 162 7 37
295 591 169 54 33 36
301 581 168 191 5 42
303 579 164 189 4 52
388 646 236 61 33 37
301 584 169 167 0 31
301 587 170 146 4 35
298 591 170 44 35 37
314 721 179 76 45 38
384 586 353 163 117 95
301 591 172 90 20 34
406 766 202 64 51 44
261 666 159 158 109 74
291 596 168 116 22 38
291 601 171 114 29 40
362 542 170 129 30 43
295 595 169 51 35 37
292 598 170 47 28 38
296 601 172 171 18 44
296 605 174 101 27 39
394 895 244 73 61 58
301 596 173 51 33 37
306 656 287 67 26 34
361 900 357 56 50 47
311 731 172 123 96 65
301 606 176 75 32 38
303 602 175 118 22 35
336 531 301 106 15 37
306 580 163 94 23 35
306 582 166 155 19 41
311 580 163 104 23 42
311 585 168 95 23 39
306 585 169 185 8 44
395 526 193 113 10 34
311 588 170 188 4 43
419 894 309 71 55 56
311 590 173 153 8 38
313 829 231 65 53 52
316 581 163 169 11 42
321 581 166 47 32 39
321 586 168 88 24 39
386 531 376 175 120 95
371 926 242 74 66 67
316 590 172 185 5 42
356 591 193 176 6 41
316 589 169 185 1 41
321 590 172 164 14 44
390 904 330 61 55 55
441 857 343 66 50 39
307 596 176 68 35 38
308 593 175 120 20 28
304 599 174 78 31 39
321 593 175 202 6 45
306 606 178 78 34 39
378 873 364 78 63 51
312 602 180 70 34 34
316 600 179 121 19 39
286 831 192 212 141 109
319 748 174 88 69 45
321 596 177 183 6 41
321 600 179 115 17 39
316 602 180 64 31 35
316 606 182 106 23 37
321 606 182 147 9 36
291 611 177 163 16 41
413 704 288 128 13 42
291 614 179 164 15 41
291 616 181 173 15 45
296 611 178 92 30 40
454 869 312 80 66 63
294 614 179 129 6 36
331 951 241 95 88 91
296 620 184 52 35 36
292 622 185 114 27 42
280 581 263 35 29 29
331 885 357 34 32 32
296 622 185 56 31 39
301 611 178 57 35 38
436 759 284 52 35 28
298 613 180 95 39 36
301 613 180 56 31 32
292 960 297 64 60 61
301 620 184 72 35 42
323 708 320 131 7 41
291 626 187 96 27 38
438 782 324 166 110 80
289 628 190 82 18 34
271 721 167 157 103 68
291 631 191 66 30 35
290 629 189 74 33 46
296 631 191 52 35 36
289 638 179 96 68 51
289 641 179 100 76 53
289 638 181 85 60 46
301 626 188 50 36 37
306 922 348 67 61 58
298 629 189 40 34 39
282 791 216 166 121 92
300 629 189 40 36 37
306 616 182 129 24 39
367 866 362 50 42 36
311 611 181 119 27 40
311 616 183 93 30 37
436 881 312 87 76 68
306 619 184 138 22 44
296 831 207 182 129 103
311 621 186 88 32 40
316 611 183 93 30 40
302 926 232 65 60 60
316 617 185 131 25 42
439 770 325 168 114 86
319 614 184 90 30 35
337 968 308 76 74 77
316 621 187 52 36 40
321 621 188 62 33 39
442 761 307 110 80 52
306 631 191 55 33 37
312 627 190 107 26 40
311 631 192 120 18 40
310 792 258 72 57 52
316 627 190 81 28 38
316 631 192 123 18 38
258 579 199 185 0 38
260 583 205 80 24 40
285 895 297 107 84 66
263 584 196 144 13 55
381 747 192 62 48 43
261 586 207 117 16 41
455 755 290 56 45 33
264 583 201 99 16 47
265 587 206 98 23 42
396 681 345 169 119 92
266 591 202 69 22 38
294 641 274 110 15 42
266 591 207 103 24 41
260 588 211 89 27 37
258 589 214 56 34 40
260 592 216 87 30 43
481 851 322 80 68 61
268 595 198 140 7 44
269 597 196 157 4 48
270 601 197 86 24 38
267 596 202 135 11 45
267 596 207 114 18 44
268 599 202 76 21 36
270 602 202 85 30 39
426 721 236 51 38 38
297 820 221 46 39 40
272 606 197 69 26 35
269 602 207 73 24 34
271 606 202 91 22 37
399 879 351 62 53 49
301 581 292 136 0 41
270 606 207 139 17 49
403 848 367 67 53 41
263 594 214 46 30 30
260 597 221 98 28 42
262 600 223 58 33 33
421 881 337 58 53 51
266 596 212 117 26 45
265 597 216 118 20 43
267 601 217 38 29 32
264 598 220 37 34 36
269 603 210 78 23 33
270 606 212 102 24 42
268 604 213 53 31 31
383 834 295 41 35 31
268 605 217 53 31 32
404 854 239 57 48 47
269 607 216 64 31 35
267 606 222 127 18 42
261 581 233 36 28 30
263 582 235 41 25 28
260 585 234 32 29 29
262 586 236 48 29 31
261 591 237 38 28 30
258 592 235 43 27 31
394 693 229 80 35 33
265 585 238 46 28 30
359 788 309 66 53 51
264 590 239 34 27 25
331 546 303 52 27 31
269 577 243 147 9 47
269 581 243 116 18 42
272 941 312 54 51 52
326 901 364 67 61 57
434 704 264 54 44 35
271 581 247 160 6 49
266 591 242 73 29 34
281 661 237 118 12 40
272 586 247 97 17 37
269 590 244 55 31 31
390 885 352 65 57 53
258 596 235 73 26 35
260 596 237 56 29 33
261 601 237 49 28 32
262 605 237 57 29 34
383 858 215 63 55 54
264 607 231 60 30 37
264 608 238 115 22 47
361 596 198 104 21 39
263 592 240 46 32 28
263 596 240 44 31 33
280 677 164 134 92 56
263 601 240 37 29 33
263 604 240 64 32 32
341 888 337 32 30 31
265 601 243 41 29 31
270 601 248 98 16 37
265 606 242 115 19 41
268 606 245 150 10 45
270 606 248 135 9 43
382 851 211 60 52 51
274 581 253 164 2 51
460 711 272 79 63 46
276 581 257 135 7 42
273 591 250 102 11 32
409 559 214 42 32 38
275 591 252 143 3 43
342 861 217 58 51 51
277 591 257 167 1 51
273 596 250 108 23 39
402 561 363 172 123 92
362 836 195 74 59 50
442 806 299 45 33 29
275 596 252 140 7 44
292 743 159 125 91 54
406 531 352 146 59 58
273 601 251 146 8 46
275 601 253 152 4 46
346 631 317 153 18 51
416 796 222 57 48 44
277 601 257 160 0 48
275 606 253 83 20 38
277 606 256 99 16 39
371 817 195 88 67 52
363 787 191 65 53 48
270 611 217 108 16 39
269 608 220 139 18 51
270 611 222 157 14 51
361 576 337 65 23 31
271 616 222 77 24 38
274 608 195 99 31 47
291 536 262 63 27 31
457 769 289 70 59 50
429 723 335 158 108 77
273 609 198 103 25 41
383 572 200 179 10 40
276 616 197 143 9 47
276 616 202 124 19 45
368 523 165 166 0 33
391 761 337 171 123 98
291 895 313 106 87 68
274 613 206 135 26 54
396 811 207 68 54 51
275 616 207 68 24 35
342 660 200 90 27 34
278 620 197 91 21 36
279 622 197 81 27 38
306 676 197 68 26 30
369 940 311 54 47 44
278 621 202 111 24 41
277 621 207 75 30 39
273 620 218 103 33 44
274 622 217 64 27 34
274 622 221 63 27 28
279 627 206 42 26 30
281 626 197 60 24 35
283 630 197 101 17 39
283 629 194 108 29 49
364 929 330 55 51 52
285 632 197 128 20 46
287 636 197 120 17 39
288 634 194 106 17 25
283 635 203 154 1 49
430 530 316 135 17 47
282 636 207 153 3 48
431 890 322 70 61 59
287 640 202 141 3 47
277 626 212 61 30 37
414 605 282 148 26 48
280 631 212 47 25 33
278 629 213 31 25 35
389 914 254 83 71 69
278 630 217 115 25 44
277 631 222 141 19 46
377 726 329 158 17 51
280 636 217 139 8 45
279 633 220 149 2 42
296 911 252 71 63 61
278 634 223 154 8 45
311 771 272 74 59 53
281 636 212 114 12 42
386 596 217 151 19 44
336 876 222 43 38 42
392 811 201 66 54 50
281 641 222 170 1 49
345 796 178 69 57 54
267 611 232 91 29 38
264 669 159 152 107 70
271 616 227 79 27 38
311 972 297 65 62 63
441 835 366 73 58 46
270 616 232 66 30 35
403 613 250 46 35 34
268 614 234 61 30 32
272 621 232 73 29 39
347 908 354 54 48 47
269 617 237 57 33 33
267 611 242 102 24 40
268 615 241 68 33 38
269 617 242 91 33 43
316 940 335 82 77 76
433 528 285 42 20 23
269 613 244 78 30 35
271 621 242 110 33 45
273 620 246 84 32 41
406 531 201 88 28 36
441 729 250 68 53 41
272 621 227 69 26 35
273 611 250 34 30 32
377 834 290 101 80 68
392 852 352 41 34 31
275 611 253 39 30 32
273 616 250 51 31 33
275 616 252 46 30 32
278 611 256 39 28 32
278 616 255 69 29 37
274 622 248 53 30 33
274 618 249 48 27 34
278 620 255 80 16 30
273 624 232 149 13 47
274 627 232 162 12 50
276 631 232 39 30 33
273 624 237 105 29 39
275 627 237 114 32 47
370 916 233 68 59 59
277 631 237 104 27 45
278 635 227 153 16 50
278 636 232 76 27 38
280 641 227 170 6 49
279 638 230 116 13 37
411 805 341 175 129 104
396 636 356 182 130 102
280 641 232 122 21 42
278 636 237 107 32 46
279 637 238 74 28 37
356 696 198 57 38 39
273 624 242 84 30 40
277 631 242 56 30 36
278 630 246 84 34 41
286 676 167 131 92 59
284 874 277 139 109 83
278 625 251 102 25 40
281 631 252 121 24 46
407 566 314 157 9 48
283 631 256 49 25 30
331 541 157 141 15 40
282 641 247 96 19 36
380 516 377 186 136 115
283 635 255 48 31 33
284 641 253 122 14 42
415 581 242 51 33 38
284 638 254 50 30 36
285 641 257 104 17 39
291 634 194 78 30 35
415 586 247 57 34 38
287 676 217 61 34 40
291 637 196 125 26 43
291 640 198 114 27 40
427 693 247 75 56 41
296 637 195 91 30 37
296 641 197 90 23 35
301 641 197 112 25 42
306 635 194 116 26 38
306 638 195 133 26 42
300 606 288 35 29 33
311 638 195 65 28 36
321 631 193 128 17 39
299 919 240 60 54 53
395 866 233 82 68 65
316 635 194 37 36 39
366 926 237 75 66 67
316 637 195 62 33 38
296 766 157 155 107 72
316 641 197 149 8 36
320 634 194 46 29 34
321 636 195 102 24 37
321 641 197 148 6 34
355 945 243 81 74 75
321 871 246 143 110 79
326 516 143 57 32 38
325 520 144 63 33 35
331 556 166 133 21 40
408 699 306 71 46 36
327 522 145 54 33 37
324 524 144 67 35 38
332 516 146 83 30 36
328 518 145 76 33 33
336 516 148 76 27 37
335 521 149 47 34 37
330 525 149 134 25 41
332 527 150 164 7 40
377 736 206 69 37 40
337 521 150 74 27 37
334 524 149 44 27 39
336 526 152 99 18 37
323 533 150 186 10 43
326 532 151 182 5 41
323 543 155 145 13 29
325 540 154 179 8 40
300 671 200 98 19 26
331 531 152 181 4 39
357 666 206 52 36 38
432 546 272 109 23 41
407 566 347 155 115 82
335 530 154 179 4 41
336 531 156 179 4 38
359 823 289 123 92 73
336 536 158 171 4 36
335 540 159 163 3 36
341 521 152 152 6 38
340 525 154 99 17 30
346 894 317 47 40 36
343 522 155 167 8 37
297 950 253 68 63 65
445 861 331 63 51 41
345 516 154 164 0 35
344 520 154 167 0 35
319 651 299 31 27 31
321 676 302 115 15 39
346 521 156 158 9 37
330 651 308 52 27 31
351 516 156 157 2 33
351 521 158 113 17 36
302 862 262 122 100 78
350 525 159 132 20 40
338 528 155 179 2 33
333 543 160 168 23 49
352 527 160 146 5 35
342 537 160 131 14 38
343 532 160 172 6 43
338 538 160 178 1 31
346 531 160 166 5 38
348 528 160 171 0 37
363 872 361 49 43 38
438 517 258 43 27 33
283 780 226 154 114 90
346 536 162 74 26 37
351 531 162 157 6 35
347 542 165 178 4 38
422 831 317 85 52 41
349 540 164 59 23 26
351 541 166 85 23 36
366 870 352 40 35 35
326 546 158 70 31 35
324 550 159 85 29 34
330 545 159 84 24 35
328 548 160 150 39 61
326 556 163 63 31 36
324 560 164 51 35 40
326 561 166 63 34 37
313 925 219 89 78 76
461 852 332 70 53 42
327 557 165 58 32 38
332 547 161 98 26 38
331 551 163 151 23 44
336 546 162 116 22 39
361 666 208 79 29 33
336 552 166 79 28 40
331 561 168 90 31 40
335 560 169 100 32 40
382 582 205 75 28 35
456 740 288 53 41 29
323 563 165 58 31 29
323 566 165 91 25 31
323 571 166 93 29 36
378 933 265 61 52 51
385 626 347 176 126 102
323 576 165 51 34 42
341 866 187 103 86 74
326 571 168 73 31 36
351 946 242 83 76 77
325 576 168 72 32 38
328 571 170 67 30 36
348 958 250 76 71 73
322 780 280 77 61 55
330 565 169 85 24 32
292 571 277 132 1 40
332 563 170 101 43 48
336 561 171 64 35 38
336 566 172 69 33 37
306 591 297 122 12 42
331 576 173 100 26 35
336 576 177 128 18 37
410 890 272 61 51 49
340 545 164 159 6 38
333 598 180 164 0 40
441 756 307 109 81 54
320 933 225 78 69 70
342 547 165 80 24 35
341 551 167 60 32 36
340 555 169 68 35 35
342 557 170 104 28 36
338 558 170 53 28 33
341 561 172 78 34 41
282 950 287 74 68 68
346 546 167 167 6 37
305 844 276 126 105 86
351 546 168 182 5 40
347 552 170 178 4 43
384 717 207 58 44 35
352 548 170 179 3 39
291 691 166 128 93 56
351 556 173 182 5 38
350 560 174 177 5 42
317 817 176 187 126 98
366 776 187 67 55 48
340 565 174 137 20 41
341 571 177 88 25 36
347 562 175 74 27 36
344 564 174 61 38 30
346 566 176 173 9 38
351 561 176 176 8 39
351 566 178 183 7 39
346 571 178 154 8 41
346 576 181 183 9 40
347 573 180 176 6 41
336 826 186 81 64 59
351 572 181 181 7 39
406 646 312 98 77 54
393 636 245 90 25 38
357 522 160 140 13 38
361 526 163 172 2 37
286 941 252 76 71 72
366 521 163 171 0 34
367 527 165 160 8 38
416 693 242 61 45 33
304 711 294 40 24 32
271 941 302 54 52 53
356 531 163 168 4 39
355 534 164 82 21 33
376 836 202 80 62 52
356 536 166 64 30 37
361 536 167 156 14 40
358 543 170 120 0 29
366 531 167 128 14 34
366 541 172 131 22 43
367 537 170 107 24 37
370 520 164 169 0 34
343 803 180 74 61 56
372 521 166 158 1 34
374 515 164 164 0 34
376 516 167 158 0 36
371 526 167 93 19 35
374 526 169 161 7 39
380 516 173 147 0 35
377 521 172 155 0 35
379 521 174 150 0 36
383 512 175 143 0 34
301 901 253 115 90 65
382 516 176 145 0 35
347 582 185 182 8 42
382 521 176 149 0 32
382 526 177 147 2 36
370 530 168 64 27 33
411 526 328 112 15 39
369 534 169 105 23 36
361 877 342 34 30 32
371 536 171 124 20 39
364 879 331 31 29 30
376 531 172 93 22 37
375 536 174 115 22 38
377 536 176 120 18 37
376 541 177 117 21 36
383 616 337 166 112 95
291 821 173 194 132 101
380 536 178 84 30 34
312 676 296 140 10 44
345 556 317 74 23 35
336 902 364 75 67 62
382 536 181 60 36 38
341 838 200 71 58 54
379 540 179 112 24 41
383 543 185 126 23 44
355 544 169 174 10 43
314 894 345 37 34 35
432 861 292 79 60 53
356 546 171 176 7 38
356 551 173 176 3 37
361 551 174 126 19 39
299 782 248 78 61 55
356 555 174 178 9 40
353 558 175 184 8 39
356 631 319 184 14 58
361 556 177 111 24 39
326 886 237 74 62 56
366 546 173 118 30 41
427 566 272 169 15 46
367 547 175 165 20 45
348 810 290 163 118 97
323 744 310 165 10 46
306 796 163 166 112 77
366 551 176 136 20 40
360 560 178 101 30 38
366 561 182 104 25 39
367 557 180 171 11 41
353 568 180 183 12 36
357 567 181 101 21 37
361 566 182 117 26 42
356 571 182 169 8 41
403 637 282 40 28 31
355 575 184 182 8 40
360 570 184 181 10 42
376 697 320 109 0 34
358 573 185 180 7 35
410 591 352 164 115 84
361 576 187 182 8 41
451 726 307 79 66 56
365 565 183 105 23 38
366 571 187 181 7 42
364 575 188 180 7 41
396 698 221 76 40 35
367 573 190 180 7 44
370 544 174 95 21 37
287 681 166 130 91 57
355 851 184 100 76 58
371 546 176 92 29 39
444 776 263 63 48 41
375 546 178 55 34 37
406 581 337 133 98 69
377 547 181 41 36 39
369 554 179 119 24 38
441 766 317 151 102 71
371 556 182 121 21 40
362 516 327 74 23 32
372 562 186 78 31 37
386 847 278 42 32 31
380 546 183 81 32 40
381 551 187 100 28 40
417 846 252 67 52 49
272 945 297 68 63 67
429 734 278 58 30 30
326 586 312 139 9 43
356 951 248 73 67 68
378 553 185 35 34 37
379 559 189 135 35 53
381 561 192 126 25 41
370 575 193 180 8 41
372 577 195 179 9 41
377 572 196 177 9 42
311 691 297 91 23 36
380 565 194 120 27 43
321 631 302 135 24 49
382 567 196 163 17 45
269 692 165 165 107 76
381 576 201 171 11 43
388 528 185 128 6 24
325 581 168 49 34 39
322 588 170 98 15 35
326 586 171 120 23 40
441 701 272 57 47 36
333 581 175 68 34 36
379 695 319 114 0 38
346 743 329 123 35 51
335 591 179 100 17 34
326 600 179 200 7 44
326 606 182 187 9 43
331 596 178 170 2 34
331 601 181 188 7 40
444 851 298 75 59 57
336 596 182 151 0 34
431 746 336 167 114 84
336 601 183 163 3 35
331 606 183 190 11 43
372 942 257 84 74 73
339 580 179 169 13 41
341 581 181 170 9 39
375 940 302 52 46 43
338 582 180 116 20 37
337 586 180 52 30 33
341 586 183 132 12 36
416 741 342 171 117 86
340 591 183 110 16 35
343 587 185 166 6 36
342 591 186 158 6 35
350 579 184 183 9 42
411 781 344 173 127 97
351 582 186 182 8 43
345 930 335 56 52 50
344 584 184 176 7 40
346 586 186 176 7 40
345 591 188 170 6 38
347 592 190 172 6 39
331 932 226 91 82 81
373 798 189 60 48 42
465 864 316 82 67 60
349 589 189 177 6 41
302 917 238 88 72 57
351 591 192 175 6 40
352 588 190 178 7 40
341 601 187 159 4 36
343 607 190 165 5 38
336 900 365 78 69 64
345 596 188 164 5 38
347 596 191 169 5 39
446 844 322 69 56 44
274 796 197 176 131 101
346 601 192 165 5 38
345 606 192 164 5 38
326 612 185 74 32 37
272 786 182 168 119 87
436 835 362 70 56 46
322 623 190 56 34 38
346 856 292 75 61 45
325 620 189 55 34 36
330 609 184 174 18 51
332 618 190 147 22 44
331 621 191 166 8 40
326 626 192 84 27 37
356 836 285 128 101 78
340 610 189 152 10 37
338 613 190 143 17 37
341 611 191 166 7 39
393 808 200 61 50 46
325 811 263 172 122 104
356 581 188 181 8 41
379 814 194 83 63 49
456 851 342 76 59 46
357 582 190 179 7 40
361 581 191 179 7 41
354 584 189 181 8 43
301 965 302 55 51 51
421 851 298 33 30 30
356 586 191 179 7 41
363 578 190 180 8 40
378 597 210 147 15 41
351 596 193 171 5 38
350 601 194 168 4 38
291 814 169 179 121 87
348 607 195 166 7 40
302 668 199 95 28 30
351 606 196 147 10 38
386 747 187 64 53 48
326 636 196 148 10 37
404 673 290 38 31 30
326 641 198 143 4 33
329 630 194 171 8 38
331 631 196 165 3 36
384 571 358 165 118 94
336 631 198 161 1 36
331 636 197 140 8 33
336 616 321 149 18 48
331 641 198 136 6 34
386 571 202 176 11 41
335 641 199 134 8 34
343 617 195 171 5 40
340 620 194 176 6 42
415 890 287 67 56 54
341 621 196 172 4 40
345 610 194 167 4 38
295 666 187 90 65 50
374 854 204 67 56 52
346 616 197 167 3 38
415 701 282 120 18 41
351 611 197 69 26 36
347 622 200 165 0 37
351 621 202 163 1 36
292 811 221 109 89 77
341 626 198 167 1 39
341 631 200 157 0 36
410 535 325 37 28 29
337 636 200 150 2 33
326 691 312 85 21 34
337 641 200 134 8 34
346 631 202 156 1 35
351 626 203 158 5 38
432 877 302 62 51 51
350 631 204 149 6 36
336 943 235 93 84 86
346 636 203 150 1 36
407 789 214 67 53 46
361 880 298 44 39 35
346 641 203 130 10 33
349 636 204 150 4 35
351 636 206 129 18 38
298 928 234 59 56 57
400 596 233 65 27 37
351 641 206 92 24 33
361 586 193 177 9 41
360 590 194 176 5 41
361 591 196 140 13 39
406 591 332 125 93 66
367 582 195 121 16 37
363 587 195 176 13 41
366 586 196 100 24 38
366 591 198 153 14 43
354 594 194 174 6 41
356 596 196 171 8 41
353 597 195 170 4 38
356 601 197 169 3 38
357 592 195 162 13 43
359 604 199 157 24 50
371 926 327 63 57 56
362 601 201 145 14 40
363 598 200 91 20 34
366 596 201 77 31 38
368 592 200 169 12 46
368 602 205 88 26 34
274 935 302 53 46 46
501 827 327 93 75 58
364 605 204 130 26 43
367 606 206 115 28 43
439 760 248 61 50 38
336 952 324 60 55 53
369 579 194 178 7 39
371 581 197 167 10 42
348 953 319 56 52 52
375 580 198 171 9 41
370 586 198 108 28 42
372 587 200 76 33 40
371 591 202 99 25 40
376 586 203 97 30 40
377 591 206 73 31 37
381 581 203 147 20 44
410 831 238 56 47 45
379 585 204 103 27 36
424 565 300 183 0 58
381 586 207 111 32 43
380 591 208 80 32 39
382 592 211 161 20 44
369 599 204 132 30 46
372 597 206 86 28 40
373 593 205 128 24 32
376 596 208 133 23 41
370 606 208 90 26 36
374 600 209 92 28 38
372 607 210 100 31 42
379 594 209 102 24 38
391 870 361 55 45 37
412 831 241 58 47 46
381 596 212 145 17 40
382 602 216 128 26 46
432 811 303 121 78 56
379 604 214 76 21 28
355 610 199 40 35 40
356 611 201 40 34 40
394 869 284 40 38 41
355 621 204 161 6 38
371 516 362 66 18 29
362 616 206 108 24 39
357 621 205 120 17 39
306 881 252 147 112 81
361 621 207 70 28 40
366 611 207 100 30 40
365 616 208 87 37 42
296 944 330 59 55 55
445 825 273 80 61 54
396 756 341 171 124 97
366 621 211 51 36 40
356 626 206 61 32 36
341 926 222 89 80 79
353 628 205 99 21 35
456 716 279 61 48 34
462 772 282 92 84 76
322 591 310 138 12 44
430 716 327 151 105 70
356 631 207 57 37 39
361 626 208 48 36 41
359 634 209 47 35 38
399 865 375 72 59 49
361 636 211 63 29 35
358 637 210 70 29 33
363 627 210 44 37 40
432 878 317 83 74 69
362 631 210 46 38 41
365 636 213 98 24 37
367 636 216 139 15 36
369 610 209 110 25 40
373 617 215 78 30 39
386 857 357 42 36 32
376 616 217 132 20 40
446 736 297 68 37 35
370 621 214 77 40 43
380 611 218 129 19 40
351 731 188 116 20 30
381 616 222 117 21 40
313 572 300 109 5 34
378 618 220 112 15 34
380 621 223 128 21 42
391 891 241 73 61 59
369 625 214 111 28 43
278 674 165 124 84 47
371 626 216 99 30 41
371 631 217 81 30 38
374 625 219 92 27 40
376 631 222 95 23 36
370 636 218 103 19 35
373 636 220 121 20 36
382 626 227 107 30 42
309 732 169 124 97 66
379 629 224 152 15 44
381 631 227 116 21 38
378 632 225 115 21 38
383 631 230 80 32 38
378 636 225 124 18 38
381 636 227 99 28 38
405 621 355 172 120 89
378 641 225 127 13 34
383 636 230 64 31 36
379 824 199 77 59 51
307 911 355 61 55 53
383 641 230 98 24 35
339 848 210 125 84 68
261 642 155 166 113 76
261 646 156 166 112 74
296 756 158 139 98 65
261 651 157 160 110 70
261 656 158 148 102 63
508 843 310 104 84 64
266 646 156 166 112 73
271 646 157 167 112 75
266 651 157 167 110 73
391 596 222 110 26 42
407 695 247 80 47 32
265 656 159 160 104 70
261 661 158 142 99 64
357 922 334 55 51 51
296 696 167 124 93 58
421 836 257 56 49 50
258 664 159 175 121 86
262 669 159 164 114 76
267 657 160 164 107 72
388 666 230 50 37 37
271 656 162 174 113 82
446 781 298 77 49 39
272 652 160 170 110 79
259 646 184 166 121 100
344 863 300 66 55 43
362 731 195 79 33 35
259 651 184 171 126 105
259 656 184 171 127 107
268 643 190 142 107 91
271 642 190 126 92 77
282 954 277 76 72 73
264 656 188 164 123 103
332 581 317 88 14 32
271 651 193 139 106 92
259 667 160 179 122 86
444 859 299 71 57 52
267 661 161 134 91 54
271 661 163 142 93 59
267 666 160 128 93 54
257 661 181 163 122 102
260 661 183 161 123 102
258 665 180 157 119 98
261 666 182 156 121 100
259 672 179 162 125 104
261 671 182 159 122 100
416 871 347 56 46 41
263 671 185 161 123 99
394 761 339 171 124 98
417 806 237 56 47 46
267 661 191 161 121 103
278 777 206 150 112 82
265 671 187 160 123 100
271 671 193 156 117 100
381 907 333 58 54 54
434 713 313 112 82 55
281 651 163 149 105 72
359 772 319 74 62 57
314 737 174 117 92 66
272 771 182 166 118 85
352 836 193 74 59 51
284 642 164 136 103 70
284 651 164 132 96 66
284 656 164 153 110 77
425 741 340 167 112 77
317 834 226 54 45 49
409 899 312 64 53 49
281 646 193 88 53 45
329 871 240 122 94 70
286 646 191 87 57 46
288 645 188 85 51 41
286 651 193 89 59 47
277 662 165 135 87 56
370 951 292 59 52 49
370 955 282 62 57 54
281 660 164 166 110 78
282 662 165 160 109 76
433 531 282 113 24 40
311 521 277 124 7 38
277 666 165 131 89 54
275 671 164 122 86 48
441 876 312 88 76 68
281 666 166 138 95 63
397 731 341 173 123 96
277 671 165 126 86 51
281 671 165 130 90 56
305 972 282 78 74 77
286 661 166 156 108 78
286 666 167 134 96 65
261 676 162 188 125 95
257 676 167 198 136 107
258 680 168 194 131 102
389 869 229 76 65 61
476 741 262 70 53 42
262 680 163 189 125 95
258 680 172 184 128 101
263 684 164 189 123 91
259 682 172 183 126 100
260 686 172 184 125 98
421 831 252 62 51 49
266 681 162 180 119 86
271 681 162 156 104 68
265 687 165 185 119 87
321 701 191 95 23 28
324 846 247 163 121 93
396 840 291 36 28 29
271 686 163 160 106 71
260 681 182 159 120 96
263 676 186 158 120 95
292 829 179 219 144 116
262 681 186 156 117 93
260 686 182 161 118 94
434 693 248 85 65 48
262 686 187 157 117 93
265 676 188 157 119 96
267 676 191 159 120 100
442 771 312 131 89 59
283 811 210 166 127 100
270 676 193 154 115 98
264 685 189 157 118 95
260 691 177 174 121 94
406 721 343 176 120 91
376 886 227 62 55 56
366 941 317 61 57 55
401 651 277 118 24 43
261 696 177 177 121 93
428 866 286 65 54 50
261 701 177 178 119 91
266 691 167 175 113 83
401 786 342 165 122 94
268 689 164 177 113 76
382 656 322 143 99 85
271 691 164 155 103 69
272 696 164 147 99 63
402 818 221 63 52 49
271 701 165 154 101 66
284 661 227 60 30 34
351 961 307 57 52 51
264 702 170 171 114 83
423 823 250 59 48 43
260 691 182 164 117 93
305 671 287 143 4 44
261 701 182 172 120 94
410 611 262 151 26 50
262 701 187 170 121 96
315 751 167 126 98 68
263 701 191 167 120 97
352 581 330 124 12 41
439 697 253 76 58 43
266 691 192 159 119 99
276 676 164 130 91 53
393 711 202 68 47 39
310 900 341 38 35 36
276 681 163 133 92 56
389 737 196 54 43 41
282 676 165 132 90 57
276 686 163 135 93 57
281 686 163 127 91 53
371 862 357 39 32 31
420 731 212 62 49 41
283 679 165 133 93 58
276 696 164 134 93 56
281 696 164 129 90 54
273 701 164 143 98 59
286 691 164 126 90 54
286 696 163 129 91 55
289 648 174 113 88 61
291 651 177 108 83 56
289 656 168 126 91 67
290 646 182 95 70 52
289 643 185 82 51 38
476 761 272 89 68 53
424 692 318 130 99 65
291 651 182 100 75 51
292 656 182 107 79 58
301 835 187 204 129 97
290 652 191 84 54 43
279 746 226 160 0 48
293 656 187 86 57 43
420 756 217 67 52 48
291 661 172 124 87 61
292 661 177 113 78 56
289 666 169 131 96 65
292 666 172 121 88 60
289 671 169 130 91 63
292 671 172 122 89 60
293 665 176 107 76 54
297 902 325 116 100 87
306 832 217 64 52 50
295 671 177 101 73 52
293 661 182 112 80 59
294 662 183 108 78 56
293 660 188 90 61 47
294 663 190 85 63 48
405 575 223 181 17 45
295 671 182 93 68 49
294 666 190 89 65 51
295 671 187 86 64 46
344 565 322 103 10 36
331 711 189 91 25 31
292 671 193 94 75 63
295 526 263 98 19 37
290 677 169 128 90 59
293 552 270 127 1 40
294 677 173 114 87 57
305 916 236 125 96 72
296 676 177 102 78 53
352 841 193 81 67 59
295 681 172 119 91 59
297 686 172 119 90 58
278 926 310 160 118 100
297 681 177 106 83 56
385 726 202 57 44 39
297 676 187 83 63 47
297 681 187 83 63 49
299 687 178 107 84 58
294 929 240 60 56 57
326 930 223 81 72 73
298 684 182 98 76 51
298 685 188 89 69 54
291 701 164 129 93 53
373 794 320 46 40 38
401 581 322 123 16 44
293 700 165 129 94 57
296 701 166 123 92 55
297 691 172 117 90 58
299 692 173 114 89 60
298 695 170 118 91 57
301 696 177 112 88 61
407 601 308 101 27 43
299 702 169 118 91 59
301 701 172 113 88 60
301 691 182 101 78 55
303 695 181 100 74 54
301 691 187 86 62 46
368 566 347 91 21 37
301 696 192 77 53 47
302 696 187 77 50 43
306 691 193 51 32 36
404 625 263 58 32 33
327 837 267 116 89 65
389 671 339 164 121 97
311 696 192 82 24 28
309 698 189 77 22 29
396 826 317 128 89 70
395 782 193 62 50 43
310 702 188 79 26 29
277 751 247 82 31 39
391 801 192 79 61 48
312 700 190 94 22 28
306 949 244 75 70 71
345 970 301 61 57 57
316 696 192 91 19 29
316 703 189 89 26 35
276 656 196 119 85 73
356 676 317 128 11 41
281 656 196 95 63 53
285 656 195 89 63 52
507 826 312 99 79 60
283 645 218 163 0 49
284 642 211 151 1 45
306 782 160 167 113 80
284 647 217 144 4 45
284 648 220 142 11 44
285 651 217 79 25 35
287 651 212 93 22 39
332 726 330 173 15 56
286 656 217 57 33 38
283 650 223 90 26 40
284 652 221 65 30 36
273 661 195 139 101 87
276 661 196 120 85 75
273 667 195 145 107 92
384 752 329 111 76 55
276 666 196 125 89 78
286 661 196 91 66 55
315 541 289 83 21 31
286 671 197 89 66 54
287 661 217 40 32 33
383 596 347 157 112 91
288 666 218 51 33 35
286 666 222 46 33 37
288 671 218 57 30 37
286 671 222 43 32 35
360 516 355 43 25 25
281 646 227 144 6 45
281 646 232 151 10 45
282 651 227 111 21 40
284 646 252 163 1 48
286 646 257 159 0 48
283 651 247 163 4 49
284 651 252 160 1 48
284 656 249 156 1 48
283 661 232 42 29 35
284 657 226 64 30 37
398 875 295 41 37 38
284 662 230 40 31 31
282 751 262 174 6 56
285 666 227 38 32 36
276 701 257 88 24 37
284 666 230 37 31 36
285 671 227 57 33 38
435 885 317 80 71 67
284 670 230 76 21 31
281 661 242 151 2 44
282 661 247 149 6 44
283 662 250 141 9 48
341 731 332 36 28 29
286 816 212 171 130 104
284 660 249 151 8 45
284 661 252 143 5 44
286 661 257 144 2 43
282 666 247 55 24 33
282 671 242 36 29 35
282 671 247 36 30 33
283 671 252 47 26 32
304 798 244 74 59 53
284 670 254 60 21 30
285 671 257 137 5 43
376 760 330 128 97 77
270 681 193 155 115 98
269 686 194 157 117 98
272 686 195 148 108 92
269 691 194 156 117 98
266 701 193 162 119 98
268 701 195 158 117 98
276 676 196 128 93 79
337 796 175 142 101 69
276 681 197 126 91 77
404 565 214 177 15 45
281 676 199 94 68 56
276 686 197 127 91 78
286 676 198 82 65 54
286 681 199 77 61 49
282 678 200 90 63 52
282 681 200 86 61 49
416 846 297 31 28 28
287 685 199 73 60 50
294 833 185 215 136 102
283 686 200 81 57 46
285 676 222 57 33 37
305 721 293 106 19 41
428 551 247 146 26 49
284 681 221 54 35 37
422 831 257 64 54 54
288 686 213 77 29 38
492 786 248 102 80 62
283 686 224 79 26 38
268 741 191 176 122 97
276 691 197 127 92 78
281 691 198 105 75 64
280 696 199 112 79 67
276 701 198 129 92 78
461 766 269 88 74 62
279 701 199 115 81 69
283 691 200 86 62 52
282 696 200 97 66 58
286 691 200 68 51 42
286 696 201 71 49 42
287 691 213 46 28 33
288 696 212 42 30 34
286 696 217 96 26 39
283 691 224 108 33 45
283 697 223 64 33 40
284 691 221 107 21 43
284 696 221 75 26 36
391 556 197 100 20 35
287 701 212 84 22 36
285 701 217 97 25 40
441 725 272 46 38 34
310 601 298 65 25 32
284 700 220 92 21 41
283 677 228 115 17 39
283 673 229 122 38 50
282 681 227 105 24 42
476 751 272 82 65 50
282 681 232 54 31 35
284 675 226 62 26 34
282 681 237 75 31 36
411 696 229 83 60 40
380 541 363 96 68 54
355 747 329 52 24 28
416 711 342 165 110 79
281 686 232 42 33 36
446 695 272 77 62 46
281 686 237 53 32 34
289 598 279 36 26 33
280 686 242 71 34 40
336 751 178 95 28 29
281 676 242 41 32 35
290 915 257 70 64 65
281 681 242 73 33 37
283 677 256 130 13 43
281 681 252 54 29 35
282 681 257 84 22 36
280 691 237 73 28 38
279 695 236 123 21 42
280 696 232 114 19 40
308 730 170 126 97 65
277 701 237 45 31 35
408 867 302 30 28 28
279 699 235 118 22 43
387 820 316 90 65 53
337 855 298 79 64 47
494 834 334 91 73 53
282 691 227 54 29 35
288 661 262 151 0 47
365 865 198 75 63 59
281 691 232 46 32 34
279 690 241 70 34 41
279 753 253 68 31 35
278 691 247 42 32 35
279 689 247 38 34 35
284 704 269 133 0 43
279 694 240 98 26 40
377 786 189 58 47 42
276 696 247 62 31 38
279 691 253 80 27 37
281 691 257 117 10 39
282 756 163 153 103 68
278 697 256 45 26 31
279 694 254 47 30 31
275 701 247 59 32 38
273 703 248 65 34 36
271 736 172 168 110 79
275 701 252 71 27 35
343 828 280 138 107 83
273 703 250 64 28 34
273 731 238 173 0 49
291 646 202 121 9 37
290 647 206 128 1 39
296 646 201 141 19 38
291 656 207 44 29 38
397 736 341 173 123 97
347 812 185 81 63 57
296 651 202 80 24 32
300 647 200 109 18 34
301 651 200 127 14 28
301 656 200 100 15 29
289 652 210 90 32 44
288 660 194 92 69 55
291 661 207 40 32 35
420 681 317 127 97 63
296 661 202 56 31 37
293 661 204 45 34 36
289 672 195 89 71 58
396 577 364 180 124 90
292 666 207 85 27 38
293 664 204 64 29 37
294 668 205 99 32 38
297 671 203 106 19 36
381 877 287 30 29 29
316 970 263 93 90 94
393 676 235 42 36 38
292 671 208 74 27 37
303 658 199 41 39 42
301 661 200 86 24 31
289 661 211 35 28 35
290 671 212 87 23 38
389 604 224 160 11 41
306 646 198 98 25 33
311 646 198 113 16 33
311 656 199 108 17 31
305 652 200 82 27 33
321 646 198 130 7 31
316 651 198 132 5 30
321 651 198 132 3 31
306 661 199 47 34 35
341 959 249 94 87 91
311 661 199 90 25 32
306 671 198 90 24 30
403 632 266 46 33 38
311 666 198 66 32 34
311 671 198 75 29 30
436 744 245 57 45 39
321 661 197 124 8 28
321 666 197 93 23 31
321 671 197 57 34 34
289 676 195 86 71 59
292 681 193 89 71 59
309 613 294 106 39 48
292 676 208 88 24 41
294 675 205 62 24 36
292 681 207 67 23 35
293 685 194 90 72 58
321 826 181 193 134 105
436 751 332 171 119 88
293 682 204 80 30 43
376 586 347 111 32 42
298 678 199 94 32 35
301 676 198 75 25 32
298 681 199 91 38 39
281 826 192 211 145 113
301 681 197 55 30 36
441 766 257 64 48 41
375 821 303 62 51 47
299 675 200 95 23 25
290 681 211 53 31 36
289 686 210 37 31 36
288 689 199 73 58 47
370 802 309 64 53 48
292 691 198 79 61 50
296 691 197 88 61 51
431 726 242 62 46 40
291 691 207 48 28 36
445 771 297 80 54 37
290 696 207 47 28 33
446 705 257 60 41 33
294 689 205 105 17 48
385 851 213 63 54 54
292 700 199 73 46 43
414 800 222 60 50 45
291 701 202 72 42 40
290 701 207 99 22 41
297 811 226 63 53 49
294 700 200 74 50 47
297 696 194 83 62 54
299 696 195 82 59 52
278 753 224 145 0 37
298 699 194 77 52 47
428 876 290 73 58 58
299 700 195 77 53 47
293 780 241 78 63 56
289 691 210 34 33 36
289 695 210 33 32 34
288 701 209 110 22 47
306 681 195 42 29 33
311 681 196 39 34 36
427 861 277 56 48 50
311 686 195 54 31 32
316 676 197 50 34 35
470 797 290 60 51 45
321 676 196 70 32 34
301 856 297 142 62 81
321 681 195 60 31 34
401 877 344 58 50 45
316 688 194 53 29 38
407 851 240 60 50 48
321 687 194 43 33 36
311 689 195 62 33 36
290 870 292 138 103 86
311 691 194 62 31 34
365 676 208 99 25 30
316 691 194 60 32 34
263 705 174 176 117 89
356 891 365 72 61 53
262 706 177 178 119 91
263 711 177 177 119 90
426 726 337 163 109 78
267 706 168 162 107 75
265 706 171 172 113 83
265 711 172 172 113 84
264 712 175 176 117 90
271 716 167 158 103 69
265 716 177 176 117 88
391 766 192 67 53 46
320 849 261 92 75 57
446 826 276 71 54 51
371 536 362 141 13 45
351 916 217 73 66 66
267 721 173 168 111 79
266 721 177 176 117 88
268 716 169 163 108 76
430 859 371 93 76 64
284 744 208 88 59 47
432 821 303 60 41 35
269 718 170 165 106 79
269 722 170 163 105 74
296 596 288 134 10 44
263 711 182 174 118 93
292 867 297 127 94 78
433 792 329 162 109 82
263 706 191 169 120 97
263 711 187 173 121 96
354 794 184 74 59 53
263 710 190 173 121 100
263 714 178 177 119 92
265 711 192 169 120 99
264 716 182 176 119 92
264 712 189 174 122 100
308 843 274 106 89 68
320 556 299 57 25 29
459 805 295 44 37 30
265 721 187 176 122 97
266 721 192 172 121 98
302 631 286 31 29 32
267 726 177 175 115 86
272 731 168 158 103 71
371 910 336 48 43 41
269 731 176 173 113 84
305 973 287 59 56 56
269 736 176 176 116 86
327 913 354 66 59 57
266 726 187 177 122 97
289 875 266 128 103 76
267 726 192 173 121 98
268 731 178 177 117 86
384 791 329 164 121 96
268 736 182 176 119 90
351 970 272 85 78 80
268 735 178 176 118 87
267 731 187 175 121 96
279 926 313 155 114 96
268 736 187 176 122 95
268 736 191 174 121 97
390 884 355 60 52 48
273 706 164 147 98 61
276 706 164 138 94 56
276 711 164 140 94 58
281 706 163 133 93 53
274 721 165 152 101 63
286 716 163 131 92 54
286 721 163 125 90 49
275 726 165 152 100 64
277 726 164 147 97 61
281 726 163 135 92 56
424 555 306 182 15 57
276 731 166 153 100 65
273 735 169 162 105 75
286 736 162 129 92 55
272 741 172 169 111 80
339 875 232 50 44 44
270 741 177 176 116 87
272 746 172 171 115 83
269 738 180 176 119 89
404 761 199 62 50 43
346 975 282 71 66 68
269 741 181 175 118 89
339 944 330 56 54 54
416 786 344 171 121 94
269 743 187 176 122 96
269 741 193 174 121 97
270 746 182 174 118 89
326 551 302 57 25 31
269 746 187 177 123 96
270 751 187 177 123 96
270 751 192 174 121 95
272 756 177 168 116 83
271 756 182 171 119 89
271 756 187 175 122 95
406 790 217 66 52 46
272 766 182 169 121 87
276 741 167 156 103 70
278 741 164 150 99 65
451 846 312 92 76 62
276 711 262 105 11 37
276 746 167 158 105 72
278 744 164 150 101 66
418 730 228 39 34 33
404 546 361 173 123 93
312 766 161 145 105 70
277 751 167 161 108 74
407 831 236 55 46 46
281 751 163 151 102 66
274 752 171 169 114 81
286 741 162 132 94 56
286 746 161 138 97 57
277 756 168 162 108 76
287 944 254 74 69 69
442 724 304 57 40 33
279 756 165 156 105 72
440 840 283 74 57 52
277 761 168 160 107 74
275 756 172 167 112 79
293 691 276 139 3 43
273 754 174 169 116 82
274 757 175 168 115 82
346 561 332 116 3 32
278 766 168 159 108 74
280 766 166 156 107 72
398 852 225 68 59 56
396 781 340 163 121 95
416 846 347 66 55 44
282 766 163 157 107 70
272 761 178 166 114 81
273 766 178 165 114 81
280 751 257 86 24 38
291 706 164 131 94 58
416 721 342 169 111 82
291 711 163 130 93 56
294 706 164 127 92 56
381 586 347 119 71 62
329 875 240 118 93 71
295 712 164 124 90 56
409 645 350 167 119 89
291 721 163 126 91 51
296 716 164 125 92 56
296 721 163 125 92 54
300 711 168 120 92 58
302 706 172 112 88 59
303 704 176 109 86 59
298 714 165 124 93 57
300 716 164 122 92 56
300 721 164 121 90 56
338 854 294 78 62 44
391 581 362 173 120 94
401 706 344 176 122 93
303 721 166 122 93 58
303 714 170 119 94 65
296 726 163 122 90 53
301 726 163 121 91 55
303 724 165 123 94 57
301 736 162 120 91 57
402 820 331 142 96 75
286 925 327 55 44 44
307 711 177 109 84 58
345 892 311 51 44 38
308 785 260 74 58 51
305 721 168 120 92 61
294 732 279 166 0 52
306 716 172 117 92 61
307 706 182 83 55 40
310 712 178 83 53 43
308 709 182 74 48 43
310 707 184 76 42 46
311 711 182 73 43 41
303 586 295 146 1 45
306 706 187 66 41 46
402 851 232 59 51 51
311 706 186 77 31 34
308 710 185 71 44 45
376 811 307 62 50 46
409 600 248 55 26 35
486 827 305 99 74 50
316 706 188 85 30 30
316 711 187 99 25 28
401 591 361 171 118 85
446 776 297 73 48 37
321 706 189 59 33 33
364 548 339 31 24 28
321 704 190 71 26 27
391 518 388 201 141 111
315 717 183 89 28 30
316 721 182 90 28 32
382 892 348 56 50 47
314 713 184 76 31 35
321 716 185 99 23 28
318 719 185 105 19 28
321 720 185 106 22 30
304 727 164 123 94 58
310 726 172 121 93 63
312 726 176 99 72 50
387 871 227 72 62 59
304 732 164 124 95 59
307 731 167 124 95 62
312 736 171 125 98 67
336 851 222 141 96 75
313 730 175 106 82 57
315 731 177 71 52 45
317 726 182 84 30 32
321 731 183 50 34 37
394 564 204 156 12 44
318 735 181 42 39 41
296 742 159 122 90 53
326 696 192 111 17 30
288 751 159 143 98 56
291 751 159 137 97 59
296 746 159 126 93 57
296 751 158 132 95 61
291 756 159 144 100 64
291 761 158 152 104 70
288 764 159 158 106 74
301 761 157 144 101 67
306 771 158 158 109 75
433 787 333 166 114 86
301 766 157 153 107 72
413 705 254 75 38 40
305 747 159 126 94 61
310 757 159 134 100 66
306 766 157 151 106 71
343 883 365 51 45 42
310 766 159 149 106 72
296 740 160 122 91 54
301 741 160 121 91 55
303 744 160 123 92 57
289 757 160 150 102 65
289 760 160 152 104 68
306 741 162 124 94 60
308 741 165 125 96 63
311 741 167 125 97 66
434 536 284 43 32 26
386 866 377 75 61 53
308 749 160 128 97 61
310 747 163 128 99 65
352 550 345 166 13 54
308 744 165 127 97 64
315 741 172 116 92 66
401 736 196 61 47 42
314 743 169 125 98 67
317 741 176 69 56 46
314 746 168 126 98 69
313 750 165 127 99 67
316 746 172 110 87 63
321 746 177 93 70 43
481 756 282 69 54 41
391 881 237 68 57 56
320 752 173 94 72 46
414 612 338 150 107 71
279 779 209 144 104 73
319 738 179 42 37 40
312 756 161 132 101 67
315 757 163 130 101 68
316 756 167 126 97 67
313 761 160 139 104 69
315 761 163 135 102 69
317 761 166 128 99 67
321 756 172 98 74 47
320 766 168 115 88 59
379 522 373 168 123 102
268 706 195 162 117 97
454 733 285 52 41 30
271 706 197 151 109 93
271 711 197 154 111 93
362 776 321 69 56 51
268 716 195 166 118 98
452 767 270 91 69 47
271 716 197 157 111 93
268 721 195 168 119 97
271 721 197 159 112 93
455 702 272 75 59 43
271 726 197 163 115 95
269 726 194 171 120 97
269 731 194 172 119 97
341 786 297 71 57 51
269 736 194 171 120 96
308 974 272 95 89 89
276 711 199 134 95 80
280 707 199 119 83 71
282 705 200 106 73 63
299 622 284 100 23 38
275 720 199 143 99 83
279 716 199 123 87 74
281 716 200 114 79 68
391 776 193 62 52 45
277 722 200 137 95 78
278 718 200 129 90 75
281 721 201 116 80 68
414 799 219 61 51 46
286 706 201 80 53 47
437 846 306 43 36 32
289 535 259 69 22 31
286 711 201 84 59 54
286 716 202 86 58 51
286 721 202 86 59 53
281 711 222 45 36 39
283 711 219 39 36 37
417 691 338 155 104 73
334 767 174 114 85 49
284 704 220 80 36 41
314 901 359 52 47 44
286 721 212 63 31 37
284 720 215 80 23 40
283 717 218 43 34 36
282 721 217 81 26 40
281 726 202 113 79 67
274 731 199 156 107 88
274 736 199 159 109 90
276 731 201 142 96 79
281 731 202 111 77 63
410 591 242 39 34 39
480 801 272 81 65 56
288 726 207 62 38 40
278 721 224 140 5 38
280 726 221 132 11 42
280 736 222 157 1 47
371 901 347 55 50 50
282 726 217 84 28 42
315 721 308 103 29 42
288 722 208 76 37 41
285 726 212 43 34 37
284 726 215 42 34 35
295 812 223 43 38 40
282 731 217 73 27 38
434 761 335 171 120 89
421 840 367 63 51 40
286 731 212 60 33 38
417 867 349 57 44 39
284 732 215 44 33 38
286 736 212 47 33 36
356 551 343 129 9 42
272 712 238 139 6 39
272 716 237 145 1 42
272 706 247 101 19 39
271 711 252 73 29 37
411 856 382 77 62 48
270 721 247 151 1 44
271 716 252 80 24 36
272 711 257 48 29 33
271 721 257 140 1 43
340 831 278 136 106 83
272 726 237 162 0 46
271 726 252 165 1 49
271 726 257 135 5 44
381 901 337 52 47 45
272 736 247 169 10 55
280 706 227 57 35 35
279 704 230 44 36 36
341 706 331 106 12 37
276 711 232 103 22 40
274 710 236 132 7 40
275 716 232 108 16 39
277 716 227 57 30 38
430 556 277 121 16 39
496 783 248 104 83 65
382 756 193 61 48 44
274 714 235 140 1 39
301 871 256 131 103 72
273 721 234 153 1 44
311 838 197 190 127 100
273 707 243 133 9 39
367 936 246 72 64 67
273 706 252 62 30 35
273 707 256 38 30 34
365 935 244 77 69 72
432 755 283 64 37 28
274 704 253 84 28 35
275 706 257 59 26 32
276 726 227 152 1 45
274 726 231 157 0 45
273 726 233 160 0 46
274 728 239 166 0 48
275 736 231 170 0 49
316 796 166 169 115 79
424 854 325 48 39 32
279 733 225 158 0 48
321 942 334 75 70 69
279 735 225 158 0 44
273 729 233 166 0 48
333 849 289 89 69 47
274 731 237 173 0 49
371 811 192 81 62 50
333 878 212 45 41 40
273 736 237 178 0 51
392 720 202 67 49 43
421 761 342 163 112 80
273 725 242 162 0 46
274 729 241 171 0 48
273 736 257 187 4 59
272 751 197 170 118 94
421 581 292 175 6 54
399 566 365 174 119 90
336 796 287 82 68 64
386 865 279 35 32 32
274 741 199 162 113 90
432 731 332 161 110 78
274 751 199 163 112 92
277 751 201 155 107 84
394 629 244 54 34 35
277 746 201 153 106 83
280 746 203 136 94 75
283 743 205 108 65 55
284 740 204 101 66 57
425 811 243 55 43 42
413 671 338 160 108 75
285 741 207 87 51 47
282 741 217 135 15 45
285 741 212 43 33 35
284 739 215 46 25 32
282 746 212 77 52 45
281 746 217 99 18 40
282 751 212 126 90 67
275 756 199 165 114 90
394 656 243 102 20 32
272 761 197 173 121 95
326 691 193 88 27 30
276 761 201 161 113 88
401 626 302 97 26 40
280 761 203 149 102 80
273 766 197 172 124 95
311 911 232 107 78 63
287 926 252 65 60 64
281 766 207 131 87 63
398 568 210 175 14 43
282 761 207 128 85 63
279 756 221 151 46 58
400 861 288 37 35 35
278 756 224 151 3 45
401 840 292 32 28 28
279 766 217 164 121 91
279 766 222 164 123 95
282 756 212 140 104 74
281 756 217 148 107 81
284 756 208 119 79 58
275 736 262 177 0 54
328 886 217 45 42 43
275 741 231 169 0 48
277 741 227 163 0 47
279 742 225 160 0 47
341 687 320 133 10 40
273 741 234 170 0 47
273 741 237 180 0 51
274 743 235 168 4 43
328 886 212 52 47 47
276 746 232 166 0 48
278 746 228 163 0 48
405 891 262 70 59 55
279 750 226 159 3 46
424 799 239 52 42 38
278 751 227 164 1 49
276 751 237 185 3 55
272 741 242 185 3 55
308 927 224 83 75 72
274 742 248 41 28 33
416 791 222 56 47 45
346 731 333 58 29 33
325 895 227 52 49 50
440 845 377 77 63 51
273 740 251 70 28 39
406 696 228 72 53 38
291 936 333 64 58 58
275 741 257 107 22 43
402 692 210 85 54 41
273 744 241 187 1 56
274 746 242 156 12 49
275 746 247 79 30 42
398 637 299 135 25 43
276 751 242 132 18 47
375 900 346 50 47 46
276 746 252 132 21 45
420 726 212 56 45 40
277 746 257 79 22 35
277 751 252 95 32 43
278 749 256 62 33 38
277 756 227 159 2 43
276 756 232 168 1 49
278 759 224 163 25 56
278 760 227 156 11 44
435 531 297 156 14 41
280 762 232 80 57 55
281 762 237 83 65 60
285 926 257 64 60 62
282 765 231 64 54 51
284 767 233 75 61 56
283 764 237 82 66 59
438 848 290 86 67 56
277 756 242 125 25 47
285 571 267 116 17 42
279 758 243 83 26 37
281 756 252 113 33 45
282 761 247 93 58 58
284 758 254 61 31 37
326 886 323 78 63 49
284 757 258 59 26 35
284 763 244 83 67 62
284 763 248 81 66 61
287 765 247 84 67 61
346 586 328 155 14 47
288 764 251 83 66 60
303 666 285 151 3 47
289 711 204 70 56 54
289 716 204 68 45 43
311 837 192 202 133 99
289 716 207 115 33 45
406 556 319 132 6 41
465 807 290 59 47 36
289 720 204 76 54 51
302 704 192 71 44 42
347 551 327 76 24 35
327 780 286 78 61 54
288 711 209 85 23 35
431 856 346 57 45 37
291 766 252 82 66 59
292 764 256 83 66 59
383 699 215 102 32 35
331 701 191 109 17 28
336 701 191 106 19 29
476 746 262 78 61 47
341 701 192 86 29 32
326 646 198 133 3 32
326 651 198 132 2 31
331 646 199 136 1 33
318 754 290 82 64 58
335 646 199 137 2 33
331 651 199 131 2 32
334 651 199 130 1 30
326 671 196 89 25 31
331 661 198 124 9 29
442 751 247 55 43 39
429 564 286 186 12 54
336 661 198 95 21 32
331 666 197 96 22 30
341 656 201 123 14 30
346 646 203 131 6 31
351 646 206 129 8 33
384 721 206 62 45 39
346 651 203 126 6 30
346 656 202 121 10 31
349 651 204 125 5 30
339 658 199 97 20 31
359 575 334 61 21 28
341 671 198 67 35 37
326 961 317 89 86 87
343 665 200 81 28 33
346 661 202 99 20 30
350 661 204 113 16 30
372 740 200 76 36 35
352 660 205 116 14 28
344 668 199 96 33 38
440 766 322 165 114 80
357 851 186 103 79 63
377 820 306 60 49 45
347 670 200 52 36 39
351 671 202 48 38 39
290 526 258 47 27 30
326 676 196 80 30 33
326 681 195 72 30 33
326 686 194 46 35 35
406 876 247 68 55 52
326 684 195 44 35 31
336 681 195 103 22 32
331 686 194 45 36 37
362 800 305 64 52 48
345 801 293 105 80 71
321 621 307 136 25 47
331 691 193 78 28 31
331 696 192 111 17 28
331 611 321 179 16 56
336 691 194 55 35 37
336 696 193 72 27 30
341 676 197 43 36 38
341 681 196 50 33 36
341 686 195 68 33 37
312 872 316 125 96 73
346 676 198 44 38 40
349 676 199 43 39 41
349 681 199 41 39 40
321 936 228 79 71 71
352 681 200 53 36 38
422 694 230 84 59 40
346 686 198 42 38 39
297 781 247 79 63 56
316 631 297 104 26 41
416 846 342 64 55 48
350 687 199 45 38 40
352 686 200 51 36 40
340 692 194 45 36 37
342 690 195 44 37 38
341 696 193 54 35 37
346 691 196 47 39 37
272 776 192 166 123 92
351 801 298 55 45 45
345 697 194 46 37 39
347 695 195 52 38 40
351 696 196 65 37 38
346 701 194 48 37 40
351 701 195 79 33 37
356 651 208 124 6 31
356 656 207 122 12 28
359 646 209 126 10 30
361 646 211 125 6 31
365 646 214 125 5 32
436 531 307 114 17 36
362 651 211 123 6 31
362 656 210 122 8 29
356 661 206 100 21 31
434 751 283 51 33 28
361 661 208 103 19 29
355 667 204 43 36 39
357 671 205 51 37 39
364 667 209 112 16 28
345 782 303 73 58 52
366 666 211 116 14 29
371 646 218 124 7 31
342 913 349 58 55 55
371 651 217 122 9 31
369 656 214 119 11 29
371 656 216 113 14 30
377 656 221 112 18 32
380 656 224 92 22 33
370 661 214 115 13 30
285 906 317 155 123 99
409 889 268 61 52 51
372 661 216 103 19 31
330 757 308 81 64 57
382 864 378 81 65 52
375 661 218 96 25 32
320 781 278 76 60 54
363 538 344 61 25 33
402 814 335 157 109 86
370 666 213 117 14 29
372 666 215 111 18 30
373 670 215 109 21 30
376 671 217 91 26 32
377 661 221 90 29 32
378 665 220 71 33 34
378 670 220 51 31 33
381 671 222 60 32 34
383 646 230 96 27 37
291 586 282 141 1 42
383 665 225 54 35 36
356 681 202 97 27 31
358 675 205 62 34 36
361 686 203 95 29 32
366 686 207 63 32 36
385 710 196 79 57 41
454 750 269 79 58 41
355 692 199 65 35 36
361 696 201 48 39 40
356 701 197 82 31 35
431 856 316 56 50 46
362 700 200 60 38 38
388 625 355 167 121 96
367 695 206 65 34 36
366 701 202 76 36 36
368 679 210 45 35 37
361 911 342 49 44 43
371 681 211 83 30 33
374 678 214 112 19 27
377 681 216 106 22 28
375 686 213 102 29 30
377 686 216 106 23 29
286 771 237 80 65 57
379 672 219 95 26 35
379 676 219 107 19 30
381 676 221 99 23 32
380 681 218 102 23 28
419 736 207 69 53 44
434 531 262 56 29 34
382 685 221 99 27 28
282 897 302 84 68 54
370 691 208 99 29 29
368 700 205 76 35 38
369 702 204 91 34 34
373 695 210 97 34 33
378 690 215 108 28 32
381 691 216 94 29 31
380 696 214 104 27 31
337 877 232 47 43 43
382 918 251 82 71 69
382 695 216 99 28 31
381 701 213 89 29 32
392 912 257 73 63 61
326 706 189 73 32 36
326 704 190 106 24 35
326 716 186 84 28 31
331 721 186 103 23 28
306 895 323 109 92 76
336 716 188 95 22 30
336 721 187 110 20 29
325 722 184 92 24 30
298 834 205 184 129 103
336 721 333 127 14 42
326 736 181 51 35 36
368 522 355 119 0 35
331 726 183 108 22 26
331 736 181 60 32 36
336 731 183 115 21 30
341 706 191 97 27 31
342 710 190 83 30 33
341 716 188 116 17 29
341 721 187 111 20 29
371 856 282 50 39 32
346 706 193 67 36 38
346 711 191 72 36 37
346 721 188 115 18 30
351 716 192 108 21 31
341 736 183 120 19 29
338 729 185 115 28 37
342 730 185 91 28 35
409 880 254 80 65 59
346 726 187 93 28 33
464 737 272 57 45 31
345 737 184 113 21 32
322 750 175 99 76 47
396 707 217 69 45 37
326 751 176 105 80 49
322 739 180 66 31 35
326 740 180 102 28 36
326 742 179 93 24 29
326 746 178 108 53 38
424 815 244 59 48 44
306 846 272 115 94 75
331 741 180 123 20 31
331 746 179 104 25 29
331 751 177 102 46 35
334 748 179 106 26 30
333 745 180 125 23 37
324 753 174 105 81 48
423 572 257 84 21 34
325 757 174 109 83 51
322 765 170 93 70 42
330 762 174 111 84 53
336 761 176 86 60 45
336 766 176 98 76 50
336 756 177 88 36 33
341 741 183 98 27 33
341 746 182 94 29 32
377 936 302 53 48 45
337 750 180 115 26 30
341 751 181 115 23 30
380 864 346 37 31 30
346 741 183 56 35 38
350 742 184 42 39 43
352 591 331 70 15 29
348 739 185 70 34 36
338 581 330 167 15 52
