ply
format ascii 1.0
comment Created by Open3D
element vertex 2208
property double x
property double y
property double z
property uchar red
property uchar green
property uchar blue
end_header
403 746 248 170 15 54
421 435 192 82 26 36
265 656 247 168 8 46
423 433 192 82 25 36
320 926 208 86 81 83
424 434 181 79 30 36
378 889 220 104 89 85
244 551 186 83 23 33
436 432 167 111 31 45
441 432 162 127 32 49
311 937 220 90 85 87
441 429 177 73 33 37
446 431 162 131 31 48
396 661 198 92 73 54
446 430 167 120 34 48
296 933 215 84 77 78
361 701 297 72 29 36
446 429 172 105 32 44
438 428 179 65 34 35
441 428 179 66 33 35
444 455 216 166 12 51
424 479 240 68 27 30
436 427 187 81 35 39
251 585 208 208 11 51
433 428 188 81 33 40
265 681 247 51 35 38
436 427 192 85 35 43
436 419 231 77 25 33
441 426 187 82 34 38
441 426 192 89 35 42
446 428 178 76 31 37
436 433 162 123 31 47
366 921 316 81 69 63
346 811 276 170 117 94
384 401 237 113 90 64
384 402 241 122 96 65
406 448 206 79 27 29
233 580 253 56 31 35
385 406 237 114 91 64
384 411 228 101 82 62
385 416 227 100 81 61
263 917 320 81 73 68
331 840 284 164 128 101
316 836 212 61 54 53
311 831 222 80 63 55
386 416 232 103 83 60
386 411 237 112 89 63
388 689 216 100 41 53
387 416 237 110 87 60
384 406 242 125 98 66
341 866 154 101 75 57
313 890 179 91 76 72
386 411 242 125 97 65
274 904 240 92 74 59
385 411 247 133 101 71
387 416 242 122 95 64
385 416 247 133 101 72
327 566 298 66 27 34
384 423 208 82 70 59
334 861 285 142 111 89
392 430 197 72 49 41
408 458 235 38 23 23
386 425 202 80 65 54
316 836 202 59 52 50
310 705 324 123 21 43
386 425 207 71 61 53
392 430 202 71 50 43
396 432 197 69 42 36
377 617 191 117 21 37
391 541 143 176 8 33
256 876 297 123 85 71
384 418 217 98 85 72
386 421 222 92 77 61
254 691 310 123 96 65
347 893 196 76 71 72
387 426 212 76 68 59
371 501 282 148 109 86
316 571 166 169 13 40
387 651 237 139 19 47
389 427 211 69 60 52
364 444 289 162 18 50
382 751 127 92 67 51
392 431 212 71 49 45
360 471 269 73 21 32
236 561 292 158 4 47
261 676 272 65 31 35
389 427 218 77 67 57
329 277 269 95 76 53
245 561 303 143 14 47
388 424 222 88 74 60
376 646 208 89 23 27
390 426 222 86 72 58
392 431 222 72 62 52
440 486 152 126 25 44
394 432 210 78 15 39
389 872 266 72 56 44
329 851 172 60 54 54
402 756 247 81 29 36
398 434 196 69 39 33
301 451 334 38 30 31
400 437 197 71 36 33
398 434 202 72 41 39
400 436 202 74 40 36
398 434 207 75 41 38
396 435 212 81 37 36
393 434 213 69 63 54
393 434 217 70 62 54
265 967 303 63 57 56
396 436 217 70 60 48
400 437 212 87 41 39
317 451 323 65 27 33
399 437 217 93 44 31
360 924 320 79 64 55
393 434 220 66 57 46
381 727 171 62 42 40
366 641 202 95 29 36
316 911 188 94 83 82
394 433 223 68 59 51
396 436 222 67 58 48
401 441 217 107 27 35
398 439 220 64 58 46
400 441 222 102 25 37
224 546 257 72 27 33
252 756 257 148 10 42
358 886 202 81 72 70
376 746 112 85 65 50
402 441 197 74 30 29
377 641 272 84 30 39
402 441 202 82 30 32
361 801 272 97 74 65
402 441 207 91 31 32
338 782 294 85 66 56
316 716 197 128 12 32
237 781 302 168 117 87
306 726 203 89 28 35
403 444 199 77 29 30
266 526 323 106 25 41
405 443 195 75 30 29
329 750 320 180 14 56
403 445 207 91 27 31
406 446 202 79 29 31
415 440 197 82 27 32
254 736 256 89 30 40
415 440 202 79 28 31
411 442 197 80 28 31
437 506 177 195 11 56
409 444 198 78 29 29
412 442 202 80 28 30
410 446 207 69 26 27
336 617 185 115 27 40
387 896 217 61 47 38
402 446 217 96 25 37
296 656 332 177 122 95
373 529 139 44 24 31
387 617 201 141 15 40
411 446 212 59 25 26
412 446 217 50 23 25
413 443 217 49 22 25
258 413 268 64 53 46
253 895 316 201 148 133
412 446 222 45 22 24
413 443 222 47 22 24
290 927 210 91 79 78
388 420 232 102 81 58
351 871 182 77 69 69
418 630 216 122 95 63
366 486 267 112 22 41
366 579 164 185 7 37
311 836 285 129 95 72
389 423 232 101 82 59
388 420 237 107 84 57
401 841 192 109 73 57
409 565 172 151 21 47
261 416 306 133 11 42
258 640 276 56 28 35
389 422 237 104 82 56
295 661 331 177 122 95
388 424 226 96 80 61
335 965 262 68 63 64
390 426 227 91 75 57
259 628 245 186 12 50
354 936 270 54 48 46
306 921 318 82 69 59
393 430 227 79 66 53
321 336 318 134 104 74
353 306 296 94 78 60
354 578 165 172 0 32
395 432 227 70 57 47
389 889 239 70 57 45
267 561 178 97 25 36
388 420 242 119 92 63
387 420 247 125 98 69
389 422 242 108 85 59
384 417 251 130 99 71
327 261 271 108 85 60
328 831 174 59 52 53
386 421 252 107 85 62
416 850 178 92 71 62
386 422 257 85 69 51
306 590 178 139 14 42
389 423 252 89 72 54
260 876 271 132 107 81
346 516 147 173 2 38
391 425 247 86 70 50
391 425 252 75 62 46
292 516 155 159 0 31
395 428 242 70 58 47
232 576 277 146 10 45
397 430 242 62 53 43
398 429 246 71 60 46
399 432 243 58 44 34
396 427 257 61 50 41
398 429 252 69 51 39
263 656 282 111 23 41
340 305 268 90 72 53
400 431 252 127 29 45
399 431 257 112 22 43
298 573 330 137 109 84
397 436 227 73 53 46
398 435 232 69 54 45
394 730 280 186 7 60
399 438 224 72 47 38
283 417 320 135 12 42
400 441 227 94 19 34
401 441 232 116 15 37
371 891 237 79 65 57
398 434 236 69 53 38
306 326 267 95 78 59
307 891 187 75 67 67
395 761 163 73 61 52
271 766 232 111 36 45
400 436 237 113 26 39
399 433 239 57 49 34
396 785 152 68 56 48
259 696 262 96 22 38
400 436 242 100 25 38
399 436 256 149 17 45
400 436 252 155 17 49
369 382 260 136 99 70
252 951 262 79 73 73
399 441 252 147 8 44
370 497 265 53 25 30
399 439 255 145 9 39
400 441 247 137 10 45
346 546 156 53 33 39
398 441 257 145 6 45
398 442 253 145 4 45
400 446 247 131 1 42
399 446 251 140 1 41
401 441 237 120 10 39
252 671 327 152 103 80
402 446 227 72 22 30
244 760 301 115 90 60
401 446 232 91 17 32
420 816 207 159 107 77
415 441 227 49 24 24
286 969 252 91 86 86
413 447 232 42 22 24
413 448 235 34 21 27
416 446 237 36 23 25
396 634 245 129 67 56
254 905 302 125 95 80
286 576 318 55 27 29
401 436 247 118 20 40
257 442 305 74 24 32
330 656 305 158 1 49
328 541 323 154 116 91
423 432 197 82 25 36
376 706 157 73 57 44
426 432 201 83 26 36
226 536 282 90 16 36
426 422 222 72 22 27
250 731 334 156 110 84
369 714 163 58 49 40
431 422 222 80 22 29
429 431 216 77 25 28
337 406 307 141 100 77
321 555 159 117 36 44
431 431 212 81 28 30
361 850 243 34 30 29
428 426 219 77 23 26
368 671 279 159 14 49
425 426 222 73 23 28
443 466 213 46 30 33
425 431 221 68 26 31
270 847 262 63 54 54
418 438 202 79 27 32
298 784 214 79 62 53
421 435 202 80 27 34
421 761 222 168 117 85
248 894 290 185 131 115
418 438 207 69 28 30
426 437 207 77 27 33
418 438 212 58 28 28
421 438 212 60 28 28
421 436 222 53 28 27
291 521 155 156 0 32
238 596 267 114 22 41
356 756 289 81 62 53
426 438 212 68 27 30
424 439 216 56 28 28
243 756 304 126 98 67
427 436 217 64 26 30
430 435 212 80 27 31
429 434 215 75 25 31
246 921 292 180 139 117
441 426 202 105 37 44
289 282 304 147 106 85
409 510 241 176 9 54
272 741 228 88 29 39
437 427 207 97 31 38
340 446 307 100 18 36
396 561 262 161 121 89
443 431 203 144 24 49
444 431 201 94 28 38
410 795 172 114 79 57
436 423 224 99 24 35
406 731 182 124 89 51
441 422 222 119 27 42
356 921 307 74 61 62
436 427 212 95 27 34
441 425 212 98 26 36
241 566 197 142 24 47
433 424 220 90 24 31
428 497 224 160 24 54
440 425 221 114 24 39
441 423 212 103 27 36
249 956 298 54 51 53
273 628 335 148 111 83
443 423 217 122 25 41
445 423 218 130 24 42
446 422 222 130 27 45
417 537 146 77 28 35
443 432 210 161 17 46
310 969 301 74 69 70
274 599 322 126 99 78
446 426 217 136 18 42
312 973 293 78 73 72
316 751 323 76 33 39
444 428 209 138 40 50
445 431 217 163 14 50
434 434 206 87 27 36
445 436 197 40 29 31
448 436 193 104 27 43
414 500 240 174 12 51
300 321 308 130 100 73
381 616 192 141 18 42
378 626 267 110 26 41
443 436 203 145 25 50
443 440 203 154 18 49
406 896 217 77 66 60
286 466 331 46 27 29
444 436 201 88 28 35
444 441 202 99 19 38
431 882 252 84 72 62
251 541 312 101 21 38
326 791 167 60 51 48
445 446 197 159 17 50
361 916 307 76 63 61
444 443 207 159 11 46
229 563 252 46 32 34
445 446 202 155 16 48
378 633 205 43 32 37
301 491 318 49 25 27
445 446 207 160 9 49
443 436 210 160 14 46
276 806 237 83 63 53
445 436 217 163 13 49
276 831 328 191 136 109
413 620 215 106 86 62
444 446 212 161 7 50
355 671 290 145 14 45
352 437 301 44 23 24
444 446 222 166 15 47
423 427 227 65 26 27
403 931 227 91 75 62
423 427 231 63 23 25
376 857 272 42 37 33
421 431 227 61 28 25
431 420 227 72 23 29
367 873 196 76 66 63
425 425 232 61 24 29
430 425 239 79 22 34
247 831 312 203 139 111
366 845 153 106 81 63
427 431 240 118 15 40
417 437 227 54 28 25
419 435 232 68 19 22
417 437 232 62 28 24
320 451 321 58 30 35
281 621 212 58 30 36
411 762 170 125 85 55
434 514 196 184 4 59
421 436 237 91 2 27
371 612 185 63 31 35
417 442 236 65 19 25
301 911 191 86 76 73
401 501 251 112 20 42
334 895 177 90 82 79
419 444 239 49 24 23
351 926 272 49 43 40
342 781 143 61 50 47
424 434 239 115 7 35
336 885 293 43 38 34
311 654 309 138 11 44
423 438 240 122 12 41
431 521 157 180 14 51
306 421 325 111 87 62
422 441 241 104 15 36
356 841 153 97 73 59
269 592 314 137 22 51
220 516 237 136 9 37
426 436 241 133 13 43
431 436 240 144 15 44
330 905 202 74 68 67
426 446 243 70 27 32
265 781 340 170 123 91
441 419 231 100 27 40
422 546 192 179 20 57
432 418 234 65 26 30
436 418 236 67 25 31
440 418 236 80 26 35
259 942 240 75 69 71
441 420 238 81 27 36
256 741 252 145 9 41
252 956 302 52 49 50
366 866 187 73 61 58
381 686 272 92 25 38
446 421 232 106 29 43
366 521 143 172 1 41
248 539 310 160 18 52
385 626 203 115 24 37
446 421 227 112 29 43
384 711 153 54 47 42
445 421 236 114 27 44
360 466 287 124 81 76
448 426 232 150 20 49
396 786 247 88 68 58
248 906 287 121 100 82
278 964 244 83 80 82
339 749 175 52 42 37
447 431 227 170 12 52
262 960 311 57 54 54
446 431 232 173 9 54
443 426 239 128 28 46
276 711 338 172 116 86
358 467 289 143 92 86
327 821 282 169 113 93
442 431 238 152 16 48
446 426 237 134 23 49
285 276 303 144 105 82
249 948 276 65 59 58
336 531 152 70 28 36
355 631 295 50 29 32
436 423 240 70 24 34
410 506 241 162 13 50
379 418 265 90 71 49
228 545 213 167 4 41
270 839 325 199 137 112
440 423 240 104 34 47
436 426 240 75 28 33
286 951 231 84 78 81
258 779 249 73 60 54
440 426 240 105 25 41
441 436 238 168 11 53
255 701 306 112 87 61
438 446 239 121 21 42
316 861 296 146 115 87
440 446 237 154 26 54
342 897 200 74 68 68
433 513 140 202 15 55
445 441 227 169 13 50
444 445 231 130 16 44
363 579 164 181 5 30
436 436 240 151 13 48
436 441 240 156 11 47
302 473 324 115 47 55
284 359 294 117 94 68
372 746 147 56 43 38
435 446 241 151 19 52
259 637 256 184 2 48
448 471 142 175 15 50
447 476 142 124 23 42
264 638 245 170 11 44
328 814 169 60 52 49
448 476 138 110 26 44
309 884 192 47 46 48
446 481 142 53 27 32
361 801 142 67 54 46
448 473 151 38 29 36
444 479 152 118 27 41
346 806 147 69 54 47
445 480 157 116 28 41
447 477 156 49 32 34
416 551 167 36 29 36
447 456 192 164 14 53
448 466 188 127 21 45
432 472 233 91 31 42
447 466 192 161 13 52
446 471 192 166 5 52
299 768 210 141 12 35
447 481 182 169 15 50
335 271 292 111 89 65
328 850 174 53 48 49
448 476 182 134 18 44
447 476 187 161 10 50
332 772 303 89 67 57
446 476 192 168 2 53
423 786 223 170 122 89
340 936 228 84 75 74
309 884 203 41 39 43
445 481 192 170 3 55
442 496 132 62 32 36
443 493 132 55 34 31
274 618 220 164 27 55
250 916 271 148 117 91
445 491 132 78 28 37
268 393 280 115 92 66
445 491 137 103 26 43
260 716 339 159 111 85
443 492 143 76 27 38
444 491 142 101 25 37
438 492 153 71 22 32
440 496 147 86 28 38
439 495 150 71 16 34
460 450 137 96 20 34
443 482 148 100 27 40
443 482 152 112 24 39
356 891 217 83 72 67
442 486 147 117 25 44
444 484 145 134 35 51
443 482 156 101 24 43
443 488 144 48 28 30
438 502 131 135 21 47
385 854 193 66 54 48
451 436 142 102 30 37
440 501 137 107 24 37
327 461 314 84 27 38
436 506 132 137 22 44
432 512 136 196 17 50
296 666 213 106 17 33
306 596 182 106 25 40
434 509 133 71 21 37
347 812 274 167 113 91
437 506 137 163 21 50
261 541 321 64 27 32
435 511 142 115 22 42
264 526 171 72 28 32
390 690 212 155 49 43
309 684 205 49 35 38
243 771 282 150 109 75
437 507 142 171 16 51
248 738 304 118 92 63
439 504 142 174 17 49
436 501 152 105 22 41
438 498 149 78 30 28
435 501 157 173 14 50
295 701 211 93 19 30
435 511 152 74 23 34
445 486 167 180 24 56
439 504 146 174 20 57
413 855 200 89 70 61
436 506 152 122 22 41
344 391 292 128 87 67
351 831 152 81 64 54
311 316 316 136 103 77
408 726 234 136 80 63
434 505 156 178 14 51
432 511 162 170 16 50
432 511 167 106 24 42
361 896 227 70 61 58
438 492 161 165 20 50
440 491 162 162 21 49
356 801 143 63 51 46
442 491 167 196 12 57
437 497 167 195 12 56
406 449 208 79 26 29
385 759 275 93 73 66
391 606 256 148 89 70
306 731 203 51 33 37
439 494 164 192 14 58
440 495 167 195 10 57
447 481 162 128 30 48
270 516 157 117 18 38
379 730 114 97 75 53
389 828 146 78 59 52
419 524 134 88 8 35
447 481 167 47 29 35
445 485 163 161 31 55
445 486 172 179 19 53
230 571 257 39 32 36
443 488 165 189 25 58
405 830 235 184 127 101
269 626 304 120 35 42
444 489 168 200 17 57
442 492 172 195 11 57
440 496 172 195 7 61
286 974 292 72 68 68
444 490 177 193 13 55
445 486 182 173 15 51
443 487 192 173 2 54
290 760 320 126 72 57
443 492 182 185 9 56
441 496 182 190 10 57
316 366 321 130 99 71
307 616 317 137 90 68
444 490 182 182 11 56
291 925 208 89 79 76
443 491 187 177 7 55
412 893 231 76 64 55
442 491 192 172 3 54
290 351 302 122 96 69
265 856 297 168 124 103
441 496 187 180 9 56
268 506 325 109 19 40
326 892 302 128 102 81
434 501 162 145 18 44
433 503 164 102 15 38
433 503 166 173 24 56
436 501 172 194 12 55
439 500 174 194 9 57
393 827 175 85 68 61
256 571 198 81 29 37
400 569 164 40 27 38
439 501 177 194 9 58
433 506 162 162 19 50
433 506 167 180 18 54
350 445 304 64 29 33
251 891 302 169 123 106
358 908 247 42 35 34
433 507 170 191 16 55
380 790 143 89 64 47
433 511 172 105 24 42
434 510 173 188 15 54
416 711 228 160 108 78
421 461 245 40 28 28
440 501 182 193 9 58
396 872 305 78 64 55
326 970 277 60 55 53
439 504 182 194 8 62
295 326 302 125 96 69
345 875 287 34 32 32
331 846 286 163 129 101
438 506 187 187 4 59
249 695 323 155 110 84
436 511 187 191 8 58
272 857 273 89 66 55
386 431 274 144 17 47
403 451 217 81 26 34
406 451 212 72 26 30
341 585 169 101 20 39
272 596 202 130 21 43
406 455 217 54 25 27
408 452 217 54 24 26
403 451 222 73 26 33
403 456 222 54 26 28
404 460 222 44 26 25
409 449 213 60 27 27
375 407 261 129 94 67
395 641 210 93 72 50
409 450 217 52 25 24
259 469 314 114 26 40
370 436 292 166 15 51
410 451 222 43 22 24
408 453 221 44 23 24
458 439 140 89 29 39
409 454 224 41 22 24
289 909 210 62 58 60
275 886 256 109 91 73
381 711 177 57 46 40
399 451 247 128 1 38
370 401 261 133 96 68
390 865 266 67 53 43
400 456 242 121 2 40
351 781 136 66 52 46
399 455 247 127 3 40
398 451 252 141 3 44
273 934 219 90 78 77
449 470 148 113 26 39
399 451 250 139 3 43
399 454 250 138 4 43
360 413 271 74 56 39
395 456 257 153 12 48
301 346 266 94 79 63
326 651 199 95 26 34
400 461 242 121 7 38
250 837 307 214 145 114
398 461 247 130 5 41
398 463 244 126 7 37
395 461 256 73 21 34
390 476 256 139 16 46
329 777 175 49 41 40
328 536 319 149 112 86
400 466 241 80 20 31
373 780 129 90 69 53
397 466 247 127 11 42
396 471 247 124 12 39
396 466 252 142 15 46
394 465 256 69 22 33
395 471 252 147 16 46
390 710 118 100 78 61
391 471 257 75 26 36
292 536 317 45 27 27
395 476 247 125 15 42
396 481 246 89 20 35
397 476 244 86 19 33
401 475 243 47 24 27
272 901 247 90 74 60
398 479 244 30 24 24
391 519 129 140 12 37
394 475 251 150 14 47
393 481 248 139 13 43
283 849 297 52 44 40
341 676 196 87 28 34
402 456 232 55 25 28
269 400 260 101 84 66
272 771 233 77 57 51
401 451 237 116 2 37
223 531 232 56 29 32
388 822 170 80 67 62
403 461 232 46 28 27
405 461 227 40 26 24
408 457 232 37 24 22
316 747 324 110 29 46
364 744 139 40 34 32
402 461 237 72 19 31
410 451 227 41 21 23
243 599 290 102 22 37
381 546 278 162 118 88
412 451 237 38 23 24
407 462 240 34 24 23
412 456 241 32 22 23
415 456 243 29 26 27
391 836 237 154 108 84
411 461 242 30 25 26
415 460 244 32 28 28
347 371 302 145 98 76
417 462 245 32 29 28
404 465 232 38 27 24
403 781 239 129 88 57
402 466 237 37 25 25
293 916 199 86 77 74
290 740 325 130 58 53
351 516 303 174 119 99
254 613 240 199 7 51
402 470 234 34 23 24
402 471 238 33 26 30
238 786 307 185 128 97
401 474 239 39 24 22
324 837 181 62 54 54
351 805 144 74 57 45
406 466 242 47 23 28
406 476 247 46 26 26
406 481 249 35 28 29
250 616 287 84 29 39
244 577 206 136 25 48
410 465 243 40 25 26
411 466 246 53 28 31
408 468 245 47 27 27
244 587 299 158 11 45
307 603 306 69 27 32
416 481 246 105 24 42
386 486 257 106 18 39
286 611 337 145 110 82
389 484 255 165 16 50
388 488 254 157 18 52
321 331 318 139 107 75
262 882 316 134 100 83
271 656 338 164 115 90
388 492 253 151 16 47
397 671 198 79 65 50
385 496 256 73 24 33
246 606 247 193 1 50
305 766 205 140 6 35
390 491 251 126 18 44
390 496 250 89 22 36
397 496 250 47 26 27
341 811 277 165 111 88
392 491 249 57 20 30
392 496 249 50 25 29
395 495 249 35 27 26
248 615 282 113 29 43
392 486 248 138 16 45
426 451 244 62 30 32
373 788 140 87 66 52
392 607 197 121 21 40
400 486 249 48 27 26
401 491 250 62 25 30
401 496 251 112 21 41
391 501 250 45 26 28
297 651 333 175 121 95
391 499 249 61 22 27
380 711 122 104 82 67
386 511 253 84 17 31
267 681 242 55 38 40
384 511 255 132 15 44
391 506 252 46 23 27
291 846 241 161 111 85
391 511 253 70 21 29
396 501 251 43 26 27
396 506 252 107 18 39
400 506 251 162 17 51
239 586 241 90 29 38
271 536 162 68 29 35
301 892 207 37 36 39
399 510 250 168 14 52
309 893 185 94 80 77
402 487 250 45 28 30
306 311 270 89 73 54
248 741 304 115 89 62
361 601 176 82 29 37
430 878 250 81 73 69
409 776 235 156 113 82
406 486 250 97 26 38
345 851 261 137 107 86
407 492 249 169 17 55
411 486 248 97 24 41
329 593 175 43 39 37
385 556 276 167 119 90
320 566 326 175 124 103
415 485 246 146 23 51
417 486 242 160 18 51
409 483 250 26 28 33
301 306 271 89 72 52
409 484 250 34 30 24
311 746 201 79 31 39
411 491 247 149 17 51
415 491 242 173 13 55
321 366 321 139 105 74
350 821 150 75 59 50
395 701 237 140 15 45
305 445 335 80 25 36
414 489 245 178 13 59
417 496 237 175 12 56
416 501 237 165 16 52
412 506 238 118 21 44
371 576 162 195 10 41
401 865 265 70 55 40
405 506 246 172 8 54
407 511 242 173 4 55
269 522 160 125 17 36
405 510 245 172 5 53
411 501 242 172 11 53
341 761 298 89 67 59
443 472 209 169 19 54
412 822 168 92 67 54
409 500 245 172 10 53
425 756 182 113 82 58
408 503 244 169 7 54
247 951 282 58 55 57
362 346 263 131 94 66
448 451 192 157 8 48
362 361 263 132 95 69
446 451 197 158 12 49
423 533 209 117 11 34
446 456 197 164 11 50
254 706 334 153 108 83
446 451 202 160 9 48
416 726 172 135 96 64
446 456 202 160 10 49
356 386 267 122 82 60
445 456 207 160 12 47
446 461 197 166 10 52
397 896 223 69 59 52
445 461 202 166 9 50
295 396 319 123 98 71
338 926 230 63 56 56
308 867 222 51 47 48
305 354 260 90 76 62
301 461 331 149 23 51
443 457 217 169 12 50
271 446 318 52 29 32
252 691 331 154 108 83
359 874 294 46 40 35
443 453 223 81 20 35
306 716 202 136 5 35
444 451 222 146 16 46
383 743 284 187 10 59
443 461 213 150 21 48
371 872 302 40 36 34
446 471 197 165 4 52
445 471 202 168 9 52
361 506 297 153 107 87
444 471 207 157 18 50
366 811 263 54 44 41
445 476 197 166 2 53
444 481 197 170 3 53
286 281 277 126 92 65
443 476 207 170 15 50
341 431 307 122 18 42
443 478 204 171 10 50
443 481 202 171 13 52
442 481 207 124 23 43
444 480 201 171 8 52
284 281 282 129 92 66
339 760 301 92 69 60
440 471 222 111 33 45
330 871 166 69 59 56
442 466 217 62 30 33
444 466 211 42 31 31
395 595 188 187 16 48
442 476 212 164 21 50
432 461 238 108 23 42
365 890 222 67 57 52
398 659 230 70 40 32
421 450 244 60 26 31
418 456 245 43 30 32
360 321 266 135 91 71
304 910 320 158 114 91
418 453 245 86 32 40
424 453 245 41 28 30
431 451 242 105 26 42
424 461 245 80 26 33
430 461 240 151 25 53
427 471 238 111 25 42
431 466 237 134 21 46
335 677 305 144 11 45
431 476 232 115 23 43
346 841 262 144 113 92
425 481 236 92 23 38
326 796 167 66 55 52
389 705 109 113 80 56
428 478 234 138 18 46
396 821 177 87 65 55
427 482 233 174 17 56
421 466 246 43 28 30
420 471 246 81 31 36
423 467 244 56 31 30
419 475 245 63 24 31
291 850 284 55 43 37
422 476 243 74 27 36
426 466 242 136 28 49
424 464 245 65 23 31
253 814 335 185 133 108
424 476 240 104 31 45
437 451 238 61 27 32
352 346 302 143 96 72
263 791 244 74 59 52
436 456 237 80 30 37
440 456 231 134 23 46
360 371 266 130 91 67
438 457 234 135 34 53
370 850 162 85 69 63
439 460 230 68 25 33
301 846 286 108 84 64
398 812 176 104 75 59
242 781 277 160 114 81
271 811 338 183 134 104
440 461 227 111 30 44
435 461 236 148 32 55
443 451 227 167 20 54
326 962 246 82 74 76
443 448 228 169 16 58
351 631 193 82 28 34
345 396 287 108 76 54
435 471 231 62 29 34
439 466 226 106 28 42
437 471 227 111 27 43
373 822 254 81 65 57
352 429 294 28 24 24
439 469 225 127 30 45
434 474 230 34 29 32
434 481 226 42 27 34
433 477 229 35 28 33
441 891 252 87 79 73
334 839 165 64 57 58
292 306 297 135 97 78
423 508 224 170 23 61
323 836 182 62 55 54
422 511 223 56 29 32
381 781 137 79 59 44
433 497 218 98 32 44
316 966 242 85 81 83
292 316 287 132 96 72
365 572 160 180 3 40
429 500 221 162 19 53
429 504 220 179 14 57
439 496 202 109 22 39
311 446 331 87 26 38
249 786 334 165 117 89
440 491 207 56 30 32
341 573 165 98 21 41
346 941 287 58 50 48
443 483 199 174 6 51
440 496 197 174 11 54
243 777 274 157 114 81
332 817 278 162 106 88
311 910 187 93 81 81
441 491 202 114 24 43
366 506 292 155 115 92
301 412 325 131 102 75
285 721 331 175 118 94
332 536 297 160 103 84
439 485 216 48 30 31
301 281 313 133 99 74
433 487 224 38 26 30
435 486 222 79 34 39
438 482 219 48 30 35
459 441 166 54 30 35
437 486 218 71 33 37
300 830 301 76 61 56
439 490 212 48 31 33
436 491 217 107 31 43
439 500 196 174 11 51
266 731 340 170 118 90
438 502 197 174 10 51
437 501 202 164 13 49
436 501 207 180 15 56
321 296 262 88 70 47
381 868 300 58 48 44
435 511 197 183 3 59
317 836 284 152 113 84
404 746 246 168 23 53
435 506 207 179 12 55
263 820 249 81 64 57
264 666 283 80 31 39
434 510 206 179 13 54
435 501 212 180 13 54
248 693 318 151 111 77
355 880 302 34 31 30
423 543 192 193 13 57
423 482 238 47 29 32
381 912 304 83 68 60
388 730 162 62 51 45
423 487 234 178 15 53
264 963 270 73 69 70
419 495 235 176 14 56
429 485 230 113 18 42
424 484 235 150 24 54
425 491 231 175 13 54
331 893 161 100 83 73
426 496 227 180 14 56
424 495 230 178 13 56
430 491 226 97 20 40
420 811 227 178 129 95
429 494 225 185 15 54
390 566 271 177 125 100
420 501 232 46 26 33
281 970 307 60 57 57
423 498 229 174 15 53
428 523 145 163 29 46
418 498 234 82 10 27
360 825 260 152 109 90
418 502 234 65 23 32
391 626 212 72 54 42
420 511 227 44 28 31
419 509 230 46 31 28
418 512 228 53 30 31
301 501 318 107 12 36
356 561 159 171 3 38
238 564 202 182 12 54
425 501 226 174 15 54
329 731 325 175 8 56
451 440 132 121 26 33
448 473 184 120 20 40
455 438 138 106 29 36
336 311 317 123 95 64
366 886 316 56 49 43
456 441 132 121 31 35
448 451 189 158 7 49
344 759 160 58 47 41
289 266 309 129 98 71
386 885 297 78 60 50
404 839 173 90 74 62
461 441 142 80 30 39
459 438 143 73 31 37
338 832 164 57 50 51
462 446 132 171 23 52
260 617 304 80 26 35
461 446 142 103 23 41
356 311 268 114 81 57
337 962 272 63 58 58
316 656 309 142 14 45
452 434 151 95 33 38
456 435 152 87 29 38
400 561 231 53 28 33
455 433 158 127 30 47
336 681 306 127 12 42
460 438 147 60 29 33
235 527 195 134 9 35
342 292 265 84 69 53
461 436 157 77 31 40
381 781 267 88 68 60
243 810 284 173 122 88
369 693 199 49 37 35
461 441 157 82 26 42
460 446 152 112 27 43
243 737 309 140 105 73
460 446 157 126 25 45
456 432 167 141 25 47
344 756 160 57 47 40
451 430 172 117 36 48
452 430 177 117 25 45
449 428 185 48 28 35
448 429 188 63 34 34
286 490 325 172 13 53
456 432 162 142 27 49
456 436 172 112 21 39
454 441 176 148 19 49
454 446 176 71 24 33
459 436 166 144 24 46
458 441 168 63 30 36
313 906 314 137 106 83
458 446 167 57 31 35
316 961 237 84 79 83
361 681 198 43 36 41
270 551 171 73 31 38
328 880 294 140 112 89
300 854 289 67 54 37
459 445 166 50 28 32
453 436 178 151 21 48
450 436 187 145 19 48
449 441 187 161 14 50
448 438 189 166 16 44
448 441 189 158 12 48
351 916 321 63 55 50
386 706 142 76 64 53
451 446 182 157 14 50
291 916 202 81 73 70
449 446 186 157 8 50
365 671 281 143 16 48
316 686 317 90 28 38
357 726 168 62 55 50
448 446 189 158 6 52
328 560 294 52 27 31
456 456 132 72 24 31
454 460 137 167 18 48
355 919 303 72 58 58
260 641 257 162 10 47
453 462 142 178 16 49
460 451 132 106 23 39
356 741 296 76 48 46
458 453 132 129 35 53
296 566 168 177 6 37
460 451 142 188 22 55
457 456 147 166 22 50
283 706 334 172 119 91
453 463 145 103 8 37
398 601 211 121 22 40
455 461 152 80 32 38
325 561 317 175 119 98
456 456 157 52 31 34
273 604 209 125 21 33
405 859 189 93 74 63
264 680 288 75 29 37
250 751 297 98 72 48
460 451 147 134 22 45
346 930 317 67 54 50
239 598 260 185 0 49
458 453 146 191 14 55
459 450 157 46 32 33
450 471 137 144 17 46
322 871 177 54 50 50
452 471 132 59 25 31
340 361 315 148 101 80
355 906 320 59 51 47
454 466 130 38 30 34
311 271 262 94 72 44
459 449 160 55 35 32
450 466 142 179 16 51
259 668 334 158 107 88
416 711 188 130 98 63
449 476 136 78 27 33
290 527 154 160 0 33
312 604 184 87 24 33
449 480 132 96 22 36
340 956 257 62 55 56
388 685 221 49 27 36
449 480 136 59 30 33
317 950 229 88 82 85
448 472 139 167 16 50
295 726 211 135 13 40
454 464 148 46 36 35
454 464 152 40 33 36
451 471 157 40 33 35
366 386 263 133 96 69
301 581 176 186 5 38
453 467 157 43 34 36
336 361 317 148 102 76
281 884 251 91 75 57
370 567 273 126 62 57
455 456 162 74 31 39
331 881 292 127 104 83
366 816 261 65 52 48
454 456 172 91 26 39
330 366 320 147 106 75
454 456 175 116 27 43
307 467 324 54 25 33
314 948 230 88 83 85
336 882 154 110 81 74
454 461 162 119 31 44
454 461 167 75 31 38
454 460 171 82 33 39
264 516 170 72 25 31
453 461 172 113 30 44
452 461 177 83 28 38
457 451 162 56 32 33
456 451 167 66 29 37
231 571 247 128 26 45
450 456 182 113 25 43
408 594 244 145 107 73
280 651 226 146 1 36
448 457 188 124 17 42
280 766 331 168 119 89
450 461 182 45 31 35
451 471 167 84 30 41
375 577 269 128 53 51
453 466 162 72 33 40
336 291 272 92 75 58
386 423 271 63 46 35
250 621 277 115 30 46
453 466 167 50 31 34
293 403 320 127 100 73
320 786 187 57 48 45
451 471 172 44 31 34
366 536 147 161 7 39
267 912 321 132 103 82
384 731 132 86 69 53
449 476 162 89 29 42
356 620 188 91 32 38
449 476 167 145 27 48
221 521 227 65 33 37
278 598 330 137 109 85
301 631 308 82 38 38
416 681 189 136 99 66
448 478 172 110 25 41
401 776 242 169 122 91
358 453 292 134 21 44
449 470 185 168 16 50
374 855 178 72 60 55
319 554 330 181 131 110
283 260 269 120 90 58
401 876 242 76 63 57
282 266 272 127 94 64
356 461 272 91 24 36
285 271 272 120 90 62
278 260 278 137 97 67
350 306 272 97 72 51
301 446 336 102 28 42
279 262 276 135 95 67
392 761 161 55 45 43
292 631 208 91 25 39
277 261 282 140 98 68
267 516 162 117 17 36
280 266 277 132 94 66
315 937 220 93 88 90
328 836 174 58 52 53
279 267 282 137 96 69
278 266 287 142 99 72
247 831 302 205 140 111
279 268 287 142 99 71
281 271 282 135 95 67
301 711 323 148 17 46
280 271 287 142 98 73
346 751 297 86 65 57
257 701 282 146 7 42
414 623 214 106 86 63
283 270 273 127 94 65
282 271 277 129 92 66
283 280 287 139 97 72
284 278 280 129 93 64
377 842 172 72 61 57
287 285 278 124 92 65
286 286 282 129 92 66
281 975 272 77 73 74
280 261 302 135 103 77
278 266 292 145 102 75
271 591 197 138 19 44
279 267 298 144 103 78
319 580 312 125 79 63
316 288 257 100 77 49
341 536 153 84 24 37
316 906 312 127 98 76
280 271 292 145 102 76
282 271 301 142 103 81
286 261 308 127 99 71
256 596 311 31 27 28
331 796 157 65 54 49
283 264 305 133 102 75
448 930 225 80 64 53
286 266 307 131 101 73
281 851 252 182 125 98
282 276 297 147 104 81
251 691 313 135 104 72
283 280 292 146 102 78
283 275 301 146 107 83
382 607 186 92 32 38
286 281 302 148 105 84
437 885 258 91 78 66
257 701 336 151 106 81
337 931 226 60 53 56
285 286 292 146 101 77
286 286 297 147 104 81
282 396 310 120 96 70
287 291 287 136 95 70
287 291 292 145 100 76
325 541 326 141 109 81
291 261 263 108 84 56
288 260 264 110 86 58
353 694 195 61 39 40
354 505 305 164 111 94
289 262 265 110 85 57
408 843 211 112 77 63
330 492 315 150 111 91
290 266 265 110 84 56
298 263 259 104 82 53
321 526 152 84 29 36
429 870 266 80 64 52
300 261 259 101 80 53
298 264 259 104 82 54
301 266 261 102 80 53
384 547 275 155 116 85
289 277 270 110 85 58
237 781 307 179 123 94
290 281 271 111 85 57
230 561 282 135 11 45
397 691 198 80 66 51
292 280 269 109 83 56
393 906 209 73 58 44
362 656 283 110 22 42
294 272 265 107 83 55
368 880 210 78 66 60
301 276 264 103 79 50
302 280 264 103 79 51
301 286 266 104 79 50
360 429 298 89 9 27
306 261 261 95 75 50
311 261 262 93 72 45
393 447 264 74 20 31
306 266 262 97 76 49
319 262 264 100 77 48
316 266 262 95 73 42
301 471 327 69 27 35
316 271 262 95 73 43
320 271 264 96 74 46
417 542 151 98 33 41
311 276 262 97 73 43
296 601 187 179 2 40
306 281 264 102 77 47
307 283 265 101 76 47
310 286 265 100 75 44
312 286 264 97 72 43
296 422 331 79 50 39
338 474 309 133 102 95
316 276 263 94 72 44
321 276 264 93 71 46
296 965 242 87 84 88
353 838 254 144 112 93
316 286 263 89 69 44
321 286 263 87 68 45
251 941 257 59 56 57
405 611 213 103 78 48
341 306 316 119 94 65
289 260 309 122 95 69
356 566 161 172 0 35
291 261 310 123 95 69
289 271 309 135 103 76
425 781 202 149 103 69
296 271 312 133 101 74
301 261 313 125 97 70
332 541 307 159 104 82
304 375 319 124 98 71
249 931 267 65 57 55
269 537 165 51 33 35
337 943 236 82 74 73
301 266 313 128 98 71
290 276 308 138 103 78
292 276 310 136 101 76
384 799 153 61 49 43
291 281 307 144 105 82
296 276 311 136 101 77
314 335 260 81 66 49
293 280 310 139 103 78
251 781 257 79 64 57
296 281 311 135 100 75
247 711 313 146 111 78
294 287 309 143 105 83
296 286 311 137 102 77
327 826 174 57 50 50
306 261 313 127 100 70
416 856 197 102 80 74
306 291 266 100 75 46
306 271 314 131 101 71
243 796 326 174 122 93
311 266 314 129 101 68
303 921 319 115 92 72
311 271 314 131 103 71
316 261 313 125 99 68
299 588 180 185 5 39
316 266 313 127 100 68
334 814 280 172 114 95
426 726 192 133 96 65
321 266 312 123 97 66
308 277 315 131 101 73
372 550 149 132 8 38
311 281 315 129 100 71
306 286 314 130 98 73
308 286 315 130 99 73
256 956 262 84 77 77
316 276 314 129 101 70
332 805 157 59 49 45
316 281 315 127 99 68
321 276 313 125 98 67
350 471 297 129 84 74
321 281 314 126 99 67
388 447 269 79 32 39
341 631 192 62 33 37
316 286 315 127 99 69
298 289 269 103 79 51
307 600 184 82 23 33
422 731 171 128 93 61
336 321 318 132 99 65
301 291 268 99 75 49
316 581 172 182 4 42
299 292 270 99 76 50
369 492 281 125 93 74
248 834 307 212 143 113
391 528 135 140 16 36
300 296 270 96 74 49
326 927 326 37 35 36
243 610 272 113 32 44
302 296 269 94 71 46
341 581 293 61 26 34
290 291 277 120 89 65
301 751 208 127 12 37
292 290 274 110 82 57
292 296 277 119 89 63
294 297 276 108 84 58
289 292 281 129 93 67
291 972 257 79 73 76
290 296 282 129 92 68
374 900 310 59 45 42
295 301 276 108 84 58
293 300 278 120 89 64
291 301 282 127 93 69
331 607 180 56 33 36
290 301 287 135 97 72
321 932 330 47 44 44
301 311 272 92 75 55
415 551 162 49 32 38
301 316 272 95 77 56
293 306 279 111 86 60
295 306 277 102 80 55
271 970 297 54 49 48
293 310 279 116 90 64
296 311 277 105 83 59
291 306 287 129 96 71
292 311 282 124 92 67
294 312 280 118 90 65
258 786 340 168 119 90
424 726 220 173 117 89
296 316 277 104 83 59
293 321 287 127 94 68
330 916 213 77 71 72
350 460 306 169 24 57
298 320 274 99 80 60
306 296 267 96 72 47
249 740 271 38 31 35
309 291 265 100 76 46
309 296 265 99 75 47
311 301 266 95 75 51
312 300 264 95 75 51
316 291 262 87 68 45
296 546 160 112 23 40
316 296 262 86 68 47
321 291 263 87 69 46
264 905 255 82 71 66
411 726 232 144 93 67
316 301 263 88 70 49
321 301 259 88 69 46
423 537 162 118 25 41
306 306 268 89 71 51
343 727 179 47 39 38
305 307 270 87 70 51
308 311 269 93 76 56
300 889 225 52 49 52
246 711 317 152 112 80
273 805 239 83 63 53
330 531 317 161 117 93
311 306 266 93 75 55
326 906 308 99 70 58
311 311 267 93 76 58
239 750 317 162 114 86
305 316 270 93 75 56
359 464 290 184 146 137
352 316 291 95 74 49
307 316 269 96 78 58
306 321 268 96 79 60
310 321 266 93 77 58
283 609 199 160 17 45
244 786 329 167 116 87
249 958 281 74 70 72
405 541 232 37 28 32
321 306 260 83 65 44
316 316 262 84 67 48
369 391 260 135 98 70
224 516 278 61 29 34
441 901 246 89 77 69
390 891 231 66 54 44
411 836 192 87 68 58
292 331 292 111 88 63
284 811 330 169 125 97
313 316 264 90 74 56
320 316 260 71 56 38
306 316 313 134 102 78
258 413 264 73 50 46
253 959 274 73 68 69
288 294 291 143 98 76
345 876 182 77 70 71
373 666 274 159 16 50
289 296 292 143 99 77
387 546 252 166 17 52
289 292 298 146 104 81
262 766 243 126 25 44
288 289 300 147 104 83
298 362 259 91 78 64
291 291 302 148 105 85
292 296 301 145 103 83
247 756 272 133 74 61
290 301 292 141 98 77
291 301 297 143 100 80
381 851 187 75 62 57
250 837 312 213 144 115
293 301 301 141 100 80
294 297 304 144 104 83
294 301 303 140 100 80
293 290 305 148 107 86
295 291 307 144 106 84
296 731 325 144 42 51
297 301 306 138 100 80
301 296 312 130 100 76
360 450 287 32 27 30
299 297 309 134 101 78
346 571 287 83 28 37
299 301 309 136 100 78
253 766 254 92 33 41
419 540 210 178 12 56
291 306 292 132 98 74
301 586 333 156 116 85
293 306 300 132 96 76
255 821 262 77 63 58
258 656 309 130 100 73
387 706 168 69 56 44
295 306 302 132 96 75
237 776 302 154 111 79
395 606 202 150 17 39
294 312 298 127 96 73
293 321 297 118 91 64
357 862 176 77 67 65
294 321 299 119 92 65
310 606 312 93 53 46
300 306 308 137 100 78
302 306 311 139 103 79
302 311 310 137 102 79
400 844 225 148 96 73
301 953 230 85 79 83
300 316 308 131 101 75
297 321 306 127 99 72
305 291 314 128 99 73
379 418 261 112 86 63
311 296 316 127 99 71
326 586 305 89 20 36
307 301 315 129 99 74
316 291 316 131 104 73
316 296 317 133 104 73
333 506 314 164 112 95
266 571 187 115 14 36
233 581 267 70 25 35
321 296 317 134 103 68
352 356 272 123 77 60
414 555 167 115 21 44
316 301 317 133 101 73
274 651 302 57 31 36
321 301 317 137 102 72
254 744 296 89 62 47
321 586 172 108 30 41
306 306 313 138 104 80
308 306 315 137 103 79
290 821 322 168 129 97
306 311 313 138 104 80
222 531 247 73 24 35
396 845 226 123 79 63
281 486 328 174 13 54
311 306 317 136 103 78
311 311 316 138 104 79
245 571 302 74 24 34
308 316 315 134 102 77
311 321 316 137 103 78
314 598 180 87 37 41
286 906 327 177 134 115
376 706 142 66 55 46
316 306 317 137 102 74
316 311 317 138 104 76
321 306 317 138 102 71
396 867 301 70 58 48
316 316 317 138 105 77
297 427 336 52 26 29
321 316 318 134 102 70
311 762 319 89 72 65
405 751 172 95 63 42
288 347 283 112 91 68
287 346 287 112 91 67
286 351 282 112 91 70
288 347 296 118 94 67
233 579 280 172 0 47
390 703 117 103 76 53
287 351 297 120 95 67
419 851 178 95 74 64
366 491 267 77 26 37
282 367 273 106 88 69
279 365 282 115 93 68
279 366 287 115 92 68
246 931 292 176 133 111
268 610 310 87 19 32
352 321 291 99 76 51
283 362 278 111 91 70
394 787 171 90 66 50
286 356 277 107 89 69
288 357 274 100 84 67
283 357 287 112 91 68
276 536 322 38 23 26
281 361 287 113 91 68
283 363 274 107 88 67
281 371 272 107 88 68
281 376 266 102 86 70
282 372 268 101 86 70
371 573 160 191 9 37
286 371 268 101 87 72
285 377 264 101 87 72
365 736 127 55 47 39
357 756 127 71 55 45
303 483 319 125 48 64
241 811 302 180 126 96
275 376 277 112 90 65
302 621 333 166 114 87
279 370 276 112 91 69
277 372 278 115 92 68
278 368 279 114 92 66
261 651 333 134 99 73
278 373 274 111 90 68
370 421 282 123 26 44
275 376 282 113 90 65
240 571 212 189 4 50
404 584 206 53 29 27
276 376 287 117 93 66
277 371 282 115 93 67
277 371 287 116 93 67
273 381 282 113 90 65
274 379 283 113 90 64
350 351 277 102 64 49
258 839 278 82 65 60
263 661 281 86 24 38
280 366 292 117 93 67
283 358 291 114 92 68
346 831 267 153 119 98
282 361 292 115 92 67
326 676 199 94 27 33
361 301 262 130 95 64
311 951 322 60 54 52
285 361 297 122 96 68
326 666 199 112 17 30
283 362 296 120 95 68
414 788 235 163 119 87
371 599 279 44 24 26
286 366 302 124 97 70
279 370 293 120 95 67
403 582 213 72 29 36
278 372 291 119 95 67
381 771 132 89 64 47
277 376 292 120 95 68
280 376 297 121 97 70
286 921 327 162 126 102
324 846 185 58 52 52
276 381 292 120 95 67
336 421 306 109 78 58
281 381 302 123 97 70
273 711 339 171 117 87
283 372 301 124 97 70
284 376 304 124 97 71
253 907 301 124 95 79
287 371 306 124 98 70
287 376 307 124 98 71
281 461 328 120 20 42
361 456 271 116 15 40
283 382 305 123 97 70
261 876 312 134 59 72
288 382 310 123 97 70
244 528 190 109 21 36
416 742 168 151 103 71
301 326 272 99 81 62
328 968 256 73 69 74
301 331 272 98 81 62
306 935 218 89 83 85
379 815 152 76 62 53
303 328 269 96 79 60
246 781 332 166 116 87
296 326 277 105 84 61
245 916 292 125 108 98
398 586 259 174 125 94
392 646 232 73 21 22
293 337 279 108 88 65
326 951 232 80 73 73
292 336 282 112 90 66
293 331 282 114 91 65
398 680 194 86 70 51
294 331 280 112 89 64
293 331 287 116 93 67
298 328 274 104 85 65
298 332 274 102 84 64
297 336 273 100 83 65
295 351 271 97 82 67
296 351 268 96 82 67
270 671 237 114 17 37
298 342 269 97 81 64
340 517 150 128 27 42
259 930 241 63 59 61
292 341 278 104 85 65
353 346 297 129 89 67
336 616 301 115 22 43
290 341 282 111 90 68
289 340 287 111 90 67
345 426 305 63 24 28
405 925 216 94 74 58
288 342 288 110 89 66
291 346 277 103 85 66
289 350 276 103 86 67
267 781 339 171 122 89
247 796 332 171 121 92
289 345 281 110 90 67
355 676 291 83 15 32
304 326 270 97 79 61
312 331 263 88 72 55
310 330 265 91 75 58
308 336 264 91 75 58
309 334 265 92 76 58
316 326 261 81 65 46
318 326 259 67 53 36
247 751 282 153 114 81
315 331 261 81 66 48
353 727 299 128 40 57
306 346 263 90 76 60
376 726 180 63 43 37
306 351 262 90 76 60
311 346 261 83 70 55
341 931 322 68 58 53
310 350 260 84 70 55
366 396 262 131 93 66
313 340 259 79 65 49
335 706 317 135 8 42
336 570 164 90 36 43
293 326 297 115 91 64
294 325 299 121 94 67
259 642 262 179 9 49
290 336 292 109 87 63
292 331 297 115 91 63
338 747 178 55 43 36
256 651 327 136 102 74
416 661 190 129 95 64
291 336 297 116 92 65
293 328 300 122 94 67
252 726 267 142 8 42
331 951 237 82 76 77
429 524 152 176 16 49
293 331 301 123 95 68
294 331 303 126 97 70
301 801 312 62 51 46
293 336 301 123 95 67
294 335 304 124 95 68
297 331 306 128 97 71
388 462 264 72 28 33
296 336 306 126 96 71
303 878 233 52 47 47
300 326 308 130 100 73
302 331 310 131 101 73
291 461 333 88 22 37
289 340 292 110 88 64
291 346 302 123 96 69
291 974 295 72 67 67
289 349 299 121 95 68
292 371 262 94 82 69
300 847 235 163 113 88
294 340 304 125 96 69
362 491 288 85 49 45
294 904 205 56 54 55
296 346 307 123 96 70
299 345 309 126 98 71
301 346 311 128 99 71
342 956 272 57 50 48
272 871 315 140 75 88
357 741 143 67 48 49
301 351 311 126 98 70
257 631 287 39 32 35
306 326 313 135 102 77
262 461 315 124 18 41
346 906 222 72 64 63
284 744 330 177 121 95
311 326 316 141 106 81
374 720 135 58 47 38
351 506 307 155 108 90
321 586 306 46 28 29
306 331 313 134 104 77
306 336 313 134 103 75
316 326 317 140 106 78
344 287 306 104 87 68
381 542 145 179 2 35
252 616 297 160 12 49
321 326 318 139 106 74
395 871 287 64 49 45
316 331 317 139 105 78
308 338 315 134 103 77
389 530 255 61 26 30
311 341 316 132 102 73
350 361 292 128 89 66
346 936 242 83 73 70
305 346 314 129 100 72
334 282 274 91 75 58
305 351 314 127 99 71
307 351 316 125 98 69
350 401 272 99 68 55
311 346 317 128 100 70
316 341 318 130 100 72
327 907 197 76 69 69
245 806 277 163 115 82
316 346 318 127 98 69
316 351 319 125 97 68
344 939 295 56 49 46
296 361 262 92 79 66
249 751 266 155 7 46
290 356 272 98 83 68
337 898 310 36 33 31
291 361 267 95 82 67
295 355 266 96 82 68
260 646 262 173 4 46
241 576 222 109 20 40
318 841 197 55 49 49
294 360 265 95 81 67
297 357 263 94 81 67
293 366 263 93 80 67
339 656 300 133 19 45
291 366 266 95 82 69
336 441 311 146 16 48
307 640 204 60 34 36
387 730 167 59 41 39
300 360 260 93 79 64
275 386 292 120 95 68
302 358 259 89 76 63
242 596 291 78 30 37
434 515 187 194 9 59
291 376 262 96 83 70
290 371 266 96 83 70
311 521 153 48 36 37
341 591 171 55 35 38
389 671 232 69 26 33
308 353 259 86 72 57
341 496 313 160 112 94
290 356 303 124 98 70
372 431 291 157 16 49
351 880 151 92 78 69
292 356 306 123 97 70
289 360 304 123 97 70
327 401 319 153 109 80
223 536 237 56 25 32
291 361 307 122 97 70
321 924 319 36 35 36
404 911 232 85 68 55
359 578 280 148 2 44
295 356 308 124 98 70
294 361 309 122 96 70
288 363 305 122 95 69
264 746 240 83 27 39
293 367 310 123 97 70
252 912 307 133 106 82
294 364 309 122 96 69
296 366 312 121 96 69
361 576 277 146 4 44
298 357 310 123 97 69
273 809 239 82 63 53
255 676 311 145 106 77
367 713 172 55 43 38
301 356 312 122 96 68
402 721 267 62 29 35
311 636 308 61 25 30
301 361 313 121 96 68
300 366 314 120 95 68
253 722 281 149 2 44
359 745 127 46 38 32
298 891 224 53 50 53
303 362 315 120 95 68
411 630 206 106 87 66
290 371 308 124 98 70
292 371 310 123 97 69
252 726 303 116 85 61
326 586 172 62 32 39
361 830 256 122 90 75
296 371 313 121 96 68
234 582 277 174 0 48
295 376 313 121 97 70
301 376 318 122 97 70
300 381 318 122 96 70
420 686 225 167 113 83
356 738 147 63 51 51
306 356 316 121 95 67
306 361 317 120 95 67
311 356 318 121 95 66
310 361 319 121 95 67
306 366 318 121 96 68
309 365 319 121 95 67
264 666 252 100 22 38
318 352 320 126 98 69
377 636 206 39 32 35
303 378 320 124 97 71
312 362 320 123 96 68
313 358 320 122 95 67
307 371 320 125 98 70
306 376 321 126 99 72
311 371 321 129 99 70
336 731 188 72 39 31
311 376 322 133 103 74
311 381 323 135 104 76
316 371 322 136 104 74
316 376 322 140 106 75
351 586 168 139 13 36
321 376 322 144 105 75
404 892 218 76 65 60
345 746 301 66 53 49
316 381 323 141 107 77
296 961 317 73 67 65
257 941 242 79 74 75
325 261 269 106 83 59
322 266 266 100 78 51
323 271 265 97 75 48
325 266 268 103 81 57
327 266 271 107 85 59
325 271 268 100 79 53
330 266 273 102 81 57
416 831 207 107 71 60
330 261 274 104 83 58
331 261 277 105 84 60
331 261 282 106 85 62
306 541 156 156 1 35
332 266 282 103 83 61
377 752 284 94 61 60
252 610 238 203 10 54
334 268 287 108 87 64
314 428 330 73 54 44
334 273 281 100 82 62
347 376 287 125 87 64
304 626 312 81 40 41
333 270 285 106 86 64
335 271 287 108 87 64
323 276 265 93 72 45
323 280 265 92 71 45
385 726 147 65 56 49
326 281 266 93 73 49
340 286 282 105 84 60
327 286 266 91 72 51
331 276 272 94 76 54
330 281 269 93 75 54
284 632 216 51 33 40
332 281 271 91 75 56
339 731 186 69 47 37
335 286 258 93 78 62
330 286 268 91 74 56
392 936 217 108 90 78
333 286 270 91 75 58
337 276 287 107 87 64
351 261 257 107 82 53
346 266 257 98 77 53
353 376 269 121 79 57
365 829 255 50 41 39
351 266 258 102 79 51
351 271 259 101 78 50
310 606 317 146 94 71
340 276 259 94 76 57
339 281 259 92 75 58
355 481 297 131 91 75
341 286 262 85 70 55
345 273 260 94 75 52
241 801 287 179 124 93
386 706 283 130 6 40
346 276 260 95 75 53
242 796 322 173 119 91
348 274 259 98 78 55
353 580 284 152 10 48
351 274 259 103 80 53
394 775 139 58 53 51
346 286 263 84 68 51
351 286 263 93 74 52
348 288 266 86 70 53
377 716 122 85 74 62
419 820 192 86 67 50
337 281 282 103 83 62
338 280 286 107 86 63
339 287 278 100 81 59
374 709 163 45 38 29
339 282 283 105 85 61
338 284 280 101 82 61
225 546 267 72 28 36
341 286 287 107 85 60
236 566 212 213 12 57
331 261 292 112 90 66
331 261 297 116 93 67
401 906 207 85 69 57
340 746 172 49 41 37
333 265 292 112 90 67
334 267 292 111 90 67
333 265 297 116 93 67
334 267 297 116 93 66
335 271 297 116 93 67
343 837 269 147 115 96
332 266 302 117 94 68
282 497 324 171 16 54
333 269 303 115 92 66
335 271 302 115 92 67
326 261 307 117 92 63
324 262 310 120 95 67
328 260 304 118 93 65
238 756 312 163 117 86
330 266 306 116 93 66
331 271 307 113 89 62
337 276 302 114 92 68
345 486 311 150 106 89
326 276 312 120 95 66
322 285 314 125 98 66
353 305 308 115 90 62
262 666 272 153 4 45
386 569 159 147 19 38
326 286 314 125 97 65
273 755 229 47 37 40
329 273 310 110 87 60
332 275 308 107 86 61
411 626 208 106 86 64
331 281 312 121 96 67
390 574 164 187 28 48
335 276 307 109 87 64
337 280 308 99 80 57
297 891 227 51 48 50
334 278 310 104 84 61
331 286 313 125 98 68
337 276 292 111 88 63
339 278 300 112 91 67
338 279 304 107 87 64
342 286 292 109 87 63
342 286 297 106 86 65
343 285 302 101 84 66
340 282 306 99 81 62
338 284 309 101 83 63
341 286 307 104 85 66
340 287 310 106 85 62
306 881 317 163 128 99
326 296 263 87 70 50
326 301 261 85 68 47
334 290 259 90 76 62
244 536 191 100 19 32
249 701 328 158 113 85
297 920 198 83 74 70
332 297 262 84 70 54
313 856 213 48 44 46
331 291 267 89 73 55
405 771 142 83 66 51
229 563 247 81 31 37
347 761 292 87 67 59
328 294 265 88 71 52
392 656 212 75 53 40
337 296 271 92 76 58
320 486 316 115 25 41
333 290 270 90 75 58
264 647 289 112 12 38
335 301 264 83 68 52
333 300 265 85 70 52
253 839 297 206 138 109
336 301 267 88 72 54
391 881 302 74 59 52
384 514 255 114 11 37
328 305 260 79 62 43
310 597 180 48 36 38
324 309 258 74 58 40
336 306 316 123 94 64
311 886 212 43 42 44
334 304 264 84 69 52
230 566 242 57 32 36
341 291 263 84 70 55
238 776 321 183 126 98
339 295 264 84 69 54
341 296 266 85 69 52
306 531 155 62 35 39
308 606 328 169 119 91
341 301 268 88 71 52
346 296 268 88 70 51
336 904 209 80 73 72
225 526 212 87 22 36
348 296 270 92 73 52
351 291 267 93 73 52
270 681 237 54 37 40
345 299 269 89 70 50
350 301 271 96 74 51
251 896 277 173 127 106
355 331 307 140 94 74
296 851 286 66 52 38
352 301 268 101 75 50
338 290 275 95 78 59
314 588 175 74 40 39
308 611 327 168 118 90
339 297 273 94 76 56
402 716 267 97 28 41
283 579 179 178 4 43
342 291 282 107 84 58
282 878 320 126 96 73
343 296 281 106 84 58
342 301 276 101 82 60
359 898 320 61 52 49
344 297 284 105 83 57
345 296 287 104 83 58
419 777 174 104 77 61
344 302 278 103 82 60
342 310 271 90 72 53
371 424 304 96 10 32
346 306 272 91 72 52
346 315 273 97 73 50
343 305 275 100 81 60
347 311 277 102 81 57
255 806 257 77 65 61
399 766 246 49 42 43
349 308 275 94 75 54
272 606 212 122 26 43
346 306 282 105 83 58
347 311 282 107 84 58
248 956 292 57 55 57
348 310 285 99 78 54
260 411 267 83 70 57
347 316 277 104 78 55
347 321 277 103 74 53
421 526 217 169 22 57
401 561 157 44 34 39
337 419 304 99 75 52
351 321 272 113 74 54
348 320 274 107 72 52
348 316 282 106 81 55
347 321 282 102 77 52
350 316 287 94 74 50
349 320 284 97 76 50
350 321 287 97 76 51
326 291 315 124 96 64
327 290 314 122 95 64
326 296 316 129 98 63
386 885 292 74 58 49
326 301 316 136 99 68
331 291 314 121 95 65
331 296 315 126 96 63
379 501 260 87 27 36
318 816 179 57 51 49
331 301 316 133 97 67
336 301 315 128 96 65
326 311 317 134 101 66
326 321 318 132 101 67
267 877 264 132 105 75
331 311 317 125 96 63
336 316 318 134 100 69
347 406 277 70 64 59
349 940 280 62 55 51
343 289 292 109 87 63
245 811 327 183 128 100
311 536 155 42 34 40
389 864 294 67 54 45
344 288 294 106 87 66
306 978 274 56 52 52
346 291 297 98 81 62
348 295 296 97 80 63
362 897 262 57 46 50
347 291 302 102 84 65
349 297 298 97 81 64
348 294 302 104 85 65
350 296 302 106 87 67
341 291 311 110 87 60
343 290 309 105 84 58
261 681 336 147 101 77
341 296 313 119 93 64
338 299 314 132 100 71
341 300 314 125 97 64
347 295 308 110 88 64
345 296 311 108 86 62
350 297 307 110 89 66
341 311 318 126 99 68
341 316 318 139 104 74
341 321 318 139 100 71
256 881 307 150 110 93
346 311 317 125 94 61
346 321 317 147 97 74
350 316 316 137 95 71
350 321 315 146 96 75
356 826 261 153 110 90
356 261 257 117 90 57
356 526 148 177 3 35
357 276 259 113 87 58
370 526 141 57 28 36
427 826 182 79 59 51
355 277 260 105 81 54
356 281 261 104 81 54
356 286 262 104 81 55
354 292 265 102 77 52
284 538 160 169 4 39
362 291 258 121 95 63
386 806 248 73 57 49
306 950 228 86 79 82
356 306 267 114 81 56
311 881 192 46 44 47
353 306 269 101 73 49
353 311 269 107 75 53
