ply
format ascii 1.0
comment Created by Open3D
element vertex 2223
property double x
property double y
property double z
property uchar red
property uchar green
property uchar blue
end_header
411 316 221 102 84 64
401 501 149 154 1 32
417 311 223 110 89 65
422 931 249 73 65 65
416 321 224 107 88 66
336 486 314 82 26 36
376 540 157 85 29 36
384 291 228 109 89 66
386 301 226 101 84 66
415 796 269 81 62 56
386 311 225 104 87 69
292 561 215 80 33 39
295 266 290 121 96 69
418 268 218 115 89 57
421 271 220 116 89 57
316 391 323 142 105 79
428 441 159 56 36 41
424 270 222 116 90 57
317 736 304 167 16 52
401 395 203 95 81 66
420 280 222 111 86 56
425 630 211 141 19 39
521 521 226 175 124 94
419 285 222 110 86 58
429 261 227 120 94 61
453 533 198 70 26 34
430 261 230 121 95 63
429 266 227 121 94 60
388 538 158 154 1 31
430 266 230 123 96 62
331 506 315 154 9 48
429 271 230 125 96 61
428 272 228 122 94 59
435 911 265 60 50 49
430 266 235 125 97 63
411 446 125 149 7 40
429 261 245 125 97 62
426 261 255 127 98 63
322 917 236 67 62 62
382 661 302 136 22 48
429 266 245 127 96 62
271 491 300 64 28 33
429 270 244 127 95 62
426 266 255 128 98 62
428 341 234 102 85 67
344 763 203 72 56 50
284 492 338 79 23 32
376 912 193 76 67 67
322 726 308 165 15 52
429 266 249 127 98 62
428 276 230 123 94 60
429 635 217 75 33 35
481 751 130 89 69 54
429 276 234 129 97 62
420 865 180 69 59 57
428 276 236 127 96 62
429 279 234 129 97 63
546 515 250 213 146 128
264 756 265 164 112 85
428 281 240 127 97 62
336 856 300 136 112 87
428 286 235 125 96 63
426 276 255 131 99 63
427 286 255 127 98 61
418 823 146 87 70 55
418 291 223 109 87 61
421 291 225 110 87 61
369 853 223 115 79 62
292 825 251 206 141 109
420 306 225 114 93 69
333 893 237 181 144 114
468 602 251 187 19 58
481 446 204 64 36 40
423 297 228 109 88 64
424 290 227 109 86 59
272 476 341 46 25 27
439 688 263 60 21 24
486 636 213 111 84 52
425 291 230 115 90 59
304 931 275 179 138 116
425 296 230 111 88 62
427 301 235 112 89 62
428 301 240 120 94 63
396 456 118 165 0 31
401 266 268 116 92 65
343 662 212 127 8 27
427 291 255 129 99 63
427 296 255 128 98 62
428 296 250 127 98 62
316 961 255 89 85 86
377 851 211 51 44 46
336 761 205 83 52 50
428 301 245 122 95 62
427 301 255 127 96 63
477 586 250 105 31 45
396 391 206 96 81 66
474 764 137 70 52 37
428 301 250 125 96 62
489 560 228 96 70 41
420 311 226 117 94 70
551 481 255 159 20 49
465 821 255 41 34 30
411 361 216 92 81 71
299 622 244 42 33 39
420 321 227 105 87 67
376 895 296 94 73 53
422 316 229 102 84 64
462 769 143 108 67 45
422 321 229 101 84 66
372 426 302 57 28 31
401 716 193 98 20 28
425 306 230 107 86 63
324 951 312 49 44 46
278 441 280 136 1 38
427 306 235 112 90 64
427 311 235 109 88 63
461 471 284 169 15 53
428 311 240 118 94 67
385 870 184 56 51 51
431 516 288 63 29 33
331 571 191 163 14 41
425 321 231 98 82 65
428 316 239 116 93 66
397 482 297 124 19 44
486 801 264 64 52 41
337 356 321 141 99 75
428 310 243 122 97 69
429 311 245 122 96 64
420 386 283 140 101 71
301 811 234 78 61 55
304 558 317 160 14 51
428 306 250 127 98 64
336 616 211 87 32 40
429 311 250 126 99 66
498 429 245 79 17 26
281 586 255 56 27 35
391 771 288 80 64 57
429 321 241 118 94 65
429 321 245 119 94 65
429 316 250 126 99 67
417 902 225 74 64 62
334 532 318 38 28 33
428 316 255 127 98 64
280 801 249 178 119 87
390 326 223 97 81 65
441 816 145 119 93 67
391 418 150 93 76 58
391 331 223 97 81 64
436 856 200 67 55 52
382 872 185 54 49 50
401 431 109 79 41 40
271 466 290 87 26 34
509 586 234 190 128 102
392 332 222 94 79 64
445 556 197 145 8 36
390 335 223 98 81 64
308 686 241 50 34 37
377 546 302 158 8 49
466 745 140 101 73 51
401 326 221 89 76 64
311 736 296 97 22 36
434 381 235 105 86 65
446 921 260 85 67 53
396 331 222 89 77 64
294 331 280 132 100 70
476 506 278 77 23 34
451 776 141 96 69 51
396 336 221 89 77 65
401 331 221 88 76 65
312 797 297 184 136 105
302 646 265 105 28 38
401 336 221 87 77 67
396 531 155 113 20 38
271 566 295 114 59 46
386 341 224 102 84 65
470 697 201 110 85 55
389 341 223 99 82 64
386 346 224 101 84 65
396 341 221 88 78 67
421 731 299 169 23 58
401 341 221 88 78 68
406 336 221 87 77 68
413 324 223 100 83 66
486 861 270 82 65 50
411 331 221 90 78 67
416 336 221 95 83 70
406 351 220 91 81 71
405 471 135 162 3 39
416 341 221 93 82 71
411 346 220 91 81 72
386 366 220 96 81 65
387 368 216 95 81 66
357 401 280 72 59 43
361 791 289 77 60 52
386 596 305 108 22 42
288 413 304 91 72 53
431 876 265 36 33 32
396 355 218 92 81 70
461 761 135 93 66 49
442 691 255 110 23 43
396 357 217 92 81 70
417 892 214 77 66 65
400 358 217 91 81 71
396 366 214 91 80 69
442 626 224 54 33 35
381 941 321 56 48 42
439 850 202 64 53 53
397 372 212 91 80 69
371 672 202 48 37 38
396 376 211 92 81 70
287 571 230 53 32 37
401 371 212 89 79 69
346 301 290 122 97 69
401 369 213 89 79 69
316 941 235 77 72 74
396 381 211 94 82 70
381 736 192 54 32 33
417 865 252 29 27 27
402 359 218 91 81 71
430 774 273 89 70 64
267 476 345 106 54 53
406 358 217 92 82 71
549 514 240 203 144 119
466 455 282 74 27 32
408 355 223 92 82 72
411 357 221 93 82 72
409 358 217 94 83 72
317 661 231 68 25 34
282 825 266 220 147 119
351 726 321 178 14 57
490 440 206 48 35 36
416 356 220 93 83 74
374 331 261 94 76 57
413 374 213 88 78 69
521 461 269 64 25 30
429 418 151 127 63 46
414 377 212 91 80 70
295 316 300 130 99 72
411 381 211 92 80 69
415 382 211 91 79 67
417 380 214 91 80 69
296 496 331 109 18 38
481 741 220 126 85 60
418 341 223 95 83 71
418 349 223 93 83 74
378 706 307 120 24 45
420 352 222 93 83 75
306 691 245 75 28 34
371 546 160 140 26 42
422 351 224 94 84 74
420 326 226 101 85 68
422 326 229 99 83 67
446 811 150 109 85 66
487 753 223 93 67 49
420 331 226 98 84 70
423 331 229 98 85 71
353 395 291 111 83 62
310 906 295 164 120 105
423 335 228 97 84 71
471 417 195 160 12 25
424 326 231 98 83 67
427 326 235 103 86 66
486 425 265 76 33 32
439 424 283 104 24 39
447 482 282 172 15 55
425 331 231 96 83 69
446 426 180 98 28 37
427 336 235 104 86 68
462 536 215 82 34 40
460 890 281 82 67 56
428 331 238 113 90 64
262 511 306 38 34 34
491 507 278 57 25 27
413 928 291 81 66 54
429 331 240 118 94 67
428 335 238 114 92 66
410 774 283 85 66 56
429 336 240 120 96 68
485 479 273 181 14 59
357 575 182 156 11 40
429 326 250 124 97 66
429 336 255 126 99 66
411 560 171 117 25 41
424 707 298 142 8 45
421 341 225 95 84 73
321 351 325 145 102 79
309 656 293 138 97 85
424 348 227 95 84 74
428 346 234 103 85 67
442 793 139 84 63 52
263 466 331 47 34 33
436 816 251 57 47 41
430 346 250 118 94 67
431 351 250 119 96 69
481 848 260 90 74 63
411 496 290 160 10 50
420 356 221 94 84 75
423 356 223 94 84 75
267 621 291 160 115 81
492 757 234 77 58 41
423 360 223 92 83 74
361 701 200 62 36 36
418 364 218 93 83 74
314 501 323 155 1 48
402 482 139 171 6 41
334 284 262 117 86 62
339 326 318 123 88 63
444 933 272 75 64 52
331 896 314 182 133 117
470 676 207 105 83 56
420 376 217 92 82 72
305 901 275 191 138 121
422 381 218 92 81 70
425 371 221 92 83 73
501 737 210 102 83 67
428 370 224 91 80 71
407 419 148 107 74 57
426 376 220 92 82 72
356 813 209 75 60 52
431 376 225 96 82 67
427 356 229 93 80 68
428 360 228 93 80 68
371 736 195 66 34 39
429 353 232 100 84 67
506 551 244 139 91 76
431 356 240 113 92 67
269 792 264 171 115 85
266 626 295 159 112 79
431 361 235 108 88 67
431 361 240 111 90 66
385 909 302 47 38 35
432 366 240 110 89 66
433 376 235 108 88 66
366 576 309 161 11 49
326 471 320 173 17 56
433 374 238 107 88 67
433 380 229 104 86 66
435 381 240 105 86 66
408 452 124 70 34 38
433 369 245 107 87 64
334 919 317 143 122 104
441 886 250 66 57 58
481 696 215 146 102 69
401 404 194 93 79 64
269 501 275 90 27 39
434 371 245 107 86 64
391 811 176 57 48 45
435 376 245 104 85 64
476 641 238 189 137 113
261 486 352 108 67 60
347 854 232 170 117 88
409 449 122 48 35 38
348 313 281 101 80 57
327 916 314 143 115 96
459 760 248 128 86 63
386 605 192 102 34 42
434 371 250 108 87 64
434 368 254 111 89 64
346 666 210 128 10 30
474 791 190 106 71 57
420 413 182 102 77 61
436 381 255 107 87 63
496 586 241 168 120 94
386 431 110 93 33 38
298 262 293 115 93 68
374 865 203 54 48 51
392 427 107 143 39 36
396 425 109 104 59 46
391 686 301 108 31 45
451 726 160 74 58 49
396 431 109 86 39 40
386 423 115 91 78 60
386 422 120 91 77 60
511 847 263 91 73 58
439 398 260 109 88 64
309 613 228 132 24 52
352 975 246 96 91 93
386 424 113 89 75 57
373 312 258 76 64 51
395 423 112 89 72 52
490 631 238 190 135 106
445 441 182 111 22 35
332 741 207 94 24 32
392 846 185 51 45 47
401 422 120 92 72 53
396 436 110 94 25 39
270 486 300 94 14 33
313 482 322 149 11 44
401 436 111 73 36 38
451 731 155 50 41 39
403 468 128 166 5 42
320 282 313 99 82 64
525 470 268 154 14 48
396 440 112 151 7 35
304 563 203 89 20 37
388 439 112 111 22 40
434 398 222 149 121 91
391 442 113 175 4 35
374 398 293 65 54 42
386 446 116 186 7 39
406 576 180 109 22 41
384 447 118 182 5 32
456 930 275 94 80 67
388 825 182 59 51 52
491 516 239 91 16 30
401 446 115 63 40 39
406 616 199 126 23 39
431 851 185 66 56 55
406 426 111 54 48 48
281 462 341 176 13 57
406 431 111 48 42 44
516 451 230 102 22 28
410 427 112 96 44 44
350 532 168 171 6 43
471 541 271 54 26 29
410 430 112 86 39 40
459 794 151 81 67 56
406 421 125 106 71 52
411 423 120 112 63 47
303 525 182 163 11 43
414 427 117 121 32 40
371 948 218 87 81 84
416 426 120 147 38 40
486 747 205 133 93 63
500 506 235 112 11 29
443 592 208 112 17 39
401 897 299 42 38 37
406 441 114 53 38 39
284 593 253 59 28 35
406 446 116 55 40 41
408 447 119 42 38 42
279 566 255 67 32 39
409 434 112 123 48 64
412 441 120 89 31 39
495 636 234 189 134 104
414 435 121 121 21 37
279 683 302 175 124 98
410 446 121 110 23 40
398 918 218 74 66 65
479 751 229 126 87 59
387 450 117 177 2 33
440 880 225 72 61 60
414 287 273 115 91 63
432 591 199 65 33 40
361 948 322 61 56 54
384 457 123 162 11 46
385 461 124 162 4 37
387 460 122 166 1 33
351 721 321 166 15 53
396 454 117 166 1 40
401 456 119 134 11 39
401 461 121 171 4 35
401 466 125 160 4 37
463 618 217 106 82 57
391 465 122 148 6 36
391 471 125 86 32 36
396 465 122 137 14 37
396 467 123 109 25 39
459 538 293 88 27 38
400 470 126 137 14 38
405 456 121 82 37 40
351 867 304 149 120 89
326 916 230 77 64 57
404 460 122 171 9 49
278 575 274 179 0 52
405 461 125 160 5 41
271 436 335 102 21 33
391 478 128 86 35 43
410 451 125 144 8 39
409 455 127 162 6 46
376 676 304 178 9 56
386 414 170 93 78 62
476 475 279 107 22 41
495 521 235 103 14 28
391 414 173 92 77 61
440 636 260 183 6 57
396 415 165 92 76 60
396 414 170 92 76 60
394 414 173 92 77 60
375 366 265 88 72 54
401 414 170 92 76 59
261 448 384 61 15 23
292 281 285 123 94 65
430 615 207 56 31 33
391 407 190 93 79 64
316 262 299 113 93 71
331 521 166 182 6 37
484 814 237 90 70 61
353 399 296 102 77 56
391 411 180 93 78 61
316 961 260 88 83 84
391 409 185 92 78 62
392 408 187 92 78 63
289 399 259 93 72 56
467 847 245 85 66 56
396 411 180 93 77 60
401 409 184 92 77 61
401 561 299 158 14 48
396 408 186 93 78 61
274 454 319 79 26 34
443 888 259 59 51 50
401 408 186 92 77 62
406 416 165 92 77 59
461 415 205 150 34 33
309 685 239 43 33 37
444 860 264 45 41 39
438 573 291 171 15 56
411 412 180 94 77 59
497 557 222 123 96 65
415 413 181 98 77 59
444 610 216 119 31 44
417 414 179 102 76 59
416 411 185 96 78 61
415 419 156 96 82 62
412 409 189 93 78 61
263 581 302 151 110 78
416 410 190 95 79 63
401 871 166 131 109 95
361 721 314 167 0 53
401 391 285 135 97 76
386 421 130 92 79 64
276 425 340 54 42 32
529 830 242 95 85 81
391 419 140 92 79 62
391 419 144 93 78 61
396 420 135 93 79 62
401 420 130 98 76 59
302 412 318 89 72 54
451 491 280 64 29 33
317 726 217 126 9 31
401 420 135 100 76 59
486 847 268 90 75 63
302 808 297 183 137 107
451 692 185 80 64 47
396 419 144 96 78 61
308 278 308 106 85 64
401 419 140 102 76 59
401 419 145 105 75 58
410 914 317 44 40 39
391 418 146 93 78 60
311 761 299 155 114 87
391 416 160 93 77 60
305 946 275 104 89 82
414 749 178 51 37 36
396 418 150 98 76 59
274 516 225 58 34 37
505 601 225 167 118 82
401 418 150 103 75 58
396 417 155 94 77 59
497 460 213 45 37 38
268 476 260 97 24 37
499 428 240 90 20 28
486 481 201 125 18 34
322 907 246 105 86 71
448 705 246 149 10 45
396 416 160 92 77 60
401 417 155 95 77 58
401 417 160 92 77 59
471 766 241 154 110 82
294 316 290 135 102 72
406 419 135 113 72 54
406 419 140 112 72 54
318 722 217 126 8 31
341 756 203 65 33 37
489 749 141 111 86 64
411 420 130 128 65 49
411 419 135 126 66 50
286 425 356 55 23 27
416 421 130 133 62 46
541 506 221 196 132 106
410 419 140 116 69 52
466 514 282 103 25 41
386 741 190 83 30 34
416 418 141 113 71 52
467 950 261 117 91 75
326 591 314 57 30 34
416 418 145 103 77 56
404 418 147 109 73 57
406 418 150 105 75 58
413 481 148 150 3 35
336 471 316 64 28 35
424 890 216 75 62 59
411 418 151 100 79 59
506 485 241 51 26 33
374 316 261 76 62 47
414 419 148 101 79 58
306 451 334 76 24 33
296 556 317 143 12 45
413 443 128 83 6 26
356 772 297 86 65 57
446 581 283 148 10 44
413 446 130 151 1 37
299 628 254 27 31 35
414 445 131 154 0 40
415 446 135 152 0 39
461 836 270 45 37 30
411 417 165 95 78 59
436 837 237 32 29 30
416 417 165 103 77 58
421 416 175 126 69 54
344 308 303 123 94 64
279 576 258 127 7 34
422 414 183 105 77 62
360 741 313 78 26 39
285 406 280 109 87 65
279 501 339 96 46 47
307 506 327 129 12 41
404 470 131 157 6 40
361 916 191 78 67 64
501 581 240 178 125 99
376 676 201 46 36 37
423 684 287 130 14 43
341 676 304 39 29 32
425 413 186 104 81 65
431 417 165 166 39 36
435 417 165 170 21 32
436 416 170 173 24 32
326 838 266 51 42 43
436 416 185 137 63 54
441 406 255 105 85 61
465 457 283 73 25 32
446 416 185 119 35 39
272 491 350 141 99 83
517 486 226 117 14 32
318 951 305 71 54 51
446 416 190 120 47 44
375 361 265 89 74 58
421 879 265 33 31 30
421 420 140 113 69 51
276 576 270 175 3 50
475 418 215 92 25 27
333 404 322 127 94 71
310 616 229 176 11 42
284 560 323 163 113 91
422 419 143 108 73 52
513 447 228 123 14 30
415 825 160 73 61 58
404 457 298 132 24 46
421 426 130 157 22 40
337 929 318 190 149 125
401 491 293 163 12 49
445 804 142 120 85 62
269 730 264 138 101 70
423 427 139 158 5 40
465 726 188 65 50 40
422 431 140 159 0 40
426 421 145 138 40 38
425 422 141 135 42 39
476 421 235 57 24 23
534 519 227 198 138 104
426 426 145 162 2 40
436 921 310 74 63 54
438 628 271 191 14 61
424 430 146 159 0 39
426 796 161 67 50 42
421 417 150 103 79 57
411 846 159 113 86 67
425 418 146 113 73 52
291 541 205 158 9 41
428 421 148 147 33 41
434 386 226 101 84 66
432 421 155 125 20 38
431 416 160 160 43 35
416 831 250 43 35 35
264 751 270 162 111 82
483 757 208 134 93 65
427 427 149 162 4 39
274 464 343 152 18 58
267 536 301 64 31 35
432 426 160 55 30 39
311 611 301 148 26 52
429 430 156 149 12 38
428 400 218 104 89 73
420 436 140 157 0 40
456 475 284 167 15 51
418 442 140 156 0 39
334 321 324 125 89 63
452 853 283 43 37 32
423 433 148 129 15 34
486 486 271 147 13 44
460 615 250 112 28 44
423 436 148 129 17 37
420 446 146 130 19 40
336 611 209 86 32 39
422 446 150 87 34 40
323 882 252 138 109 78
425 436 150 88 27 36
312 391 323 138 103 79
453 929 264 106 90 79
429 441 161 71 34 39
424 441 151 93 32 40
554 504 248 142 87 75
427 436 155 54 31 36
383 341 273 80 65 48
451 526 185 138 14 38
426 441 155 47 36 40
417 336 276 129 92 63
395 811 174 53 46 44
430 436 160 102 34 42
421 546 169 85 32 39
369 879 199 53 49 50
426 446 155 71 35 40
426 418 165 152 55 42
312 691 230 47 36 38
406 651 207 112 15 27
426 417 170 156 53 44
531 477 226 91 78 65
306 556 319 168 15 53
426 417 175 149 58 48
463 518 199 140 16 43
416 401 285 137 99 69
346 761 201 82 46 45
438 661 257 118 27 44
432 431 165 48 37 39
347 656 212 127 6 29
431 416 180 153 57 52
321 405 326 123 93 71
432 436 165 58 36 39
431 441 165 62 36 40
429 446 161 90 30 38
338 716 318 101 24 41
436 421 165 132 16 38
318 907 252 149 113 89
447 731 275 154 22 52
436 417 175 167 37 40
439 417 171 157 15 35
435 426 165 48 35 37
434 430 167 49 36 39
297 266 294 118 95 70
319 741 213 115 27 39
483 863 273 67 53 41
401 881 164 106 84 73
444 694 183 66 52 44
439 424 172 136 12 40
511 501 229 113 21 31
441 426 175 97 31 39
381 827 273 173 130 104
436 416 180 153 50 47
441 417 180 138 40 42
504 749 211 104 76 53
501 431 210 141 16 37
311 651 240 159 4 43
444 417 177 99 29 37
356 506 306 164 15 51
443 427 178 49 39 40
442 431 178 60 39 39
444 424 177 53 33 32
468 789 247 101 75 57
446 431 181 101 29 39
420 461 152 140 4 36
333 731 207 63 29 35
383 886 172 101 82 69
321 361 325 145 104 77
437 436 174 80 37 41
308 918 293 89 66 54
469 820 211 185 123 97
440 436 176 59 38 41
434 446 171 80 34 37
364 537 158 128 25 43
482 756 205 135 95 66
436 446 175 117 26 38
420 751 173 45 39 39
441 441 179 90 34 38
438 443 178 95 37 44
311 836 245 87 68 62
438 446 178 73 34 34
441 446 180 75 37 40
411 516 155 109 27 37
448 441 183 118 23 37
499 510 234 107 16 31
401 736 189 53 36 38
392 388 207 97 83 68
352 793 208 78 60 52
401 388 207 95 82 69
273 458 291 118 9 32
522 501 221 138 100 75
396 706 305 38 31 31
398 398 202 95 80 65
401 398 202 95 80 65
348 341 306 129 93 67
316 936 235 67 63 65
385 390 213 95 81 66
448 632 246 181 11 56
464 790 151 89 69 59
279 444 291 131 3 38
391 386 209 98 84 68
467 786 160 75 58 49
410 630 293 156 27 54
406 561 299 96 26 40
317 269 302 110 91 70
389 390 208 96 82 67
384 394 208 95 80 66
434 549 182 111 32 38
396 386 209 97 83 69
341 636 215 55 31 33
401 386 209 95 82 70
386 405 199 95 81 67
396 405 195 94 80 64
401 326 285 134 94 72
395 404 198 94 80 65
471 881 280 70 56 49
456 541 294 55 29 30
402 403 196 93 79 64
320 531 323 113 16 40
406 388 207 96 82 67
436 891 255 59 49 51
413 301 277 130 95 63
411 876 265 30 28 27
476 621 211 112 88 59
406 395 203 95 81 65
336 856 275 80 63 43
412 399 203 97 82 65
371 906 304 129 99 76
416 396 206 98 83 67
406 386 209 96 83 69
301 271 299 113 91 66
411 386 209 97 83 69
406 404 193 93 79 63
410 403 197 94 80 64
496 446 215 60 35 38
419 398 207 98 83 68
420 386 212 95 82 69
421 721 300 83 28 40
281 516 335 115 79 69
418 391 209 97 82 69
328 949 227 76 70 72
296 681 304 167 124 96
418 395 208 98 84 68
360 876 229 76 62 52
426 561 300 98 24 38
420 396 210 99 84 69
422 396 214 101 86 71
426 386 219 95 83 71
491 471 206 97 26 27
275 585 288 114 61 45
481 496 210 171 4 43
382 791 180 57 48 45
449 708 248 143 6 46
432 391 223 120 98 73
426 401 215 102 87 71
421 410 195 97 82 66
442 828 184 65 51 49
419 408 197 97 81 65
289 620 313 173 125 100
258 476 356 94 39 45
426 410 200 100 84 67
315 956 300 50 45 45
431 412 195 105 87 70
286 476 334 106 20 37
286 465 338 180 13 56
541 456 242 43 33 34
431 411 200 103 87 70
342 486 312 94 25 39
414 321 278 139 94 70
348 682 207 122 12 29
431 410 205 103 87 70
287 601 316 170 120 93
293 346 285 125 98 68
471 721 136 84 59 44
429 408 206 101 86 69
425 402 211 99 84 69
358 790 202 75 59 52
429 402 216 104 89 72
270 501 280 74 25 33
358 483 307 37 32 33
358 520 157 56 27 32
465 800 182 89 66 54
437 414 194 109 85 69
428 501 168 135 5 32
416 681 291 50 27 32
436 412 205 107 91 73
281 761 245 105 79 49
441 413 205 110 91 74
386 888 288 69 57 48
509 553 222 141 107 68
380 326 266 69 57 44
331 856 280 94 75 55
446 415 195 121 63 53
471 716 240 172 122 94
443 414 203 112 88 72
390 416 298 152 13 48
446 414 205 118 87 72
416 931 245 77 67 65
321 766 210 66 54 49
436 406 220 132 110 88
438 405 224 120 101 83
446 830 239 126 97 85
440 406 225 98 84 71
433 409 213 111 95 76
273 722 261 130 98 65
436 410 215 117 100 83
308 646 292 143 96 84
441 412 215 115 99 83
439 408 222 113 96 80
435 386 230 103 85 66
316 426 329 95 23 37
456 751 250 137 96 71
435 391 230 96 81 63
441 471 289 121 25 44
435 386 235 103 84 65
436 386 240 103 85 65
371 746 194 130 9 33
449 413 240 76 66 56
435 391 235 100 83 65
436 391 240 102 84 65
452 532 194 158 5 38
282 536 215 119 17 38
438 400 240 99 81 63
392 826 266 147 109 88
458 547 292 157 35 56
305 661 260 60 34 35
302 316 314 126 96 68
436 386 245 105 86 65
512 434 235 86 20 27
470 730 141 97 69 50
436 386 250 105 86 63
271 801 265 180 122 92
437 391 255 106 86 63
396 286 271 94 77 58
338 856 250 177 123 93
437 396 245 103 85 65
501 750 226 81 61 42
432 445 287 49 29 30
412 723 191 61 35 35
438 400 245 102 84 65
438 400 253 106 86 64
506 466 274 85 26 37
439 401 255 107 87 64
351 976 250 91 85 88
385 306 270 79 64 47
426 866 251 31 28 27
439 398 256 107 87 65
439 403 236 96 80 62
397 445 297 122 13 37
452 490 188 120 13 28
475 523 288 65 31 35
438 404 233 92 77 61
400 495 146 163 4 35
443 410 240 85 72 59
446 412 235 77 66 56
327 441 322 45 26 29
446 412 240 79 68 57
361 551 166 50 36 39
439 402 245 101 83 63
361 531 159 84 34 41
331 857 275 93 74 54
443 410 245 90 75 60
443 410 250 94 78 60
346 511 310 145 19 47
425 829 248 59 46 43
446 412 250 83 70 56
446 506 283 79 29 37
445 413 254 83 69 55
349 326 295 128 93 69
443 871 230 65 56 58
391 481 129 158 13 38
311 761 216 87 46 50
436 641 225 101 25 33
396 481 130 148 10 36
401 476 130 67 32 36
399 945 231 80 72 70
408 458 129 155 1 38
415 451 140 153 0 38
356 954 222 87 81 84
473 597 246 96 28 41
413 457 139 153 0 36
396 451 299 140 14 43
414 455 140 150 0 35
262 497 317 53 30 29
410 461 135 157 0 38
408 462 133 157 0 38
377 376 270 65 54 42
415 461 145 151 0 36
511 566 240 187 132 106
413 462 143 154 1 38
277 446 320 57 30 34
407 471 140 166 4 40
403 473 133 118 12 32
403 476 134 154 9 38
471 526 288 64 31 35
411 471 145 141 4 34
401 481 135 169 5 39
424 796 163 66 48 39
404 475 136 164 4 39
298 512 332 111 27 46
406 481 144 160 1 34
357 693 202 83 31 34
394 668 202 65 28 29
409 470 141 164 3 38
467 496 277 94 25 38
414 466 146 147 2 36
431 771 274 90 70 63
427 582 296 164 22 56
416 476 149 132 15 34
361 807 197 78 61 52
416 481 150 109 20 38
328 773 207 69 56 48
386 486 132 66 36 37
386 491 134 90 32 39
386 496 136 60 35 40
456 816 185 78 61 55
331 656 299 141 18 47
391 491 134 114 33 41
463 817 194 84 65 60
268 636 292 165 117 83
395 485 132 118 19 38
329 802 213 81 63 54
397 487 134 97 24 37
299 730 234 99 19 34
398 483 133 175 9 30
317 936 309 182 139 119
440 411 270 108 86 62
385 641 303 123 28 45
394 494 137 72 37 40
312 555 323 180 15 56
395 496 140 65 28 36
398 488 138 111 15 34
448 833 198 86 69 63
399 490 141 175 6 40
320 656 292 66 26 33
386 502 138 107 26 40
534 524 236 202 141 105
289 797 238 162 110 75
388 508 143 188 12 40
496 481 270 167 16 52
471 781 180 87 67 57
341 821 219 81 64 55
399 499 147 161 2 34
432 632 218 98 34 41
402 497 148 153 1 31
396 511 149 124 12 33
406 486 146 161 1 34
446 526 181 146 9 36
416 486 151 66 31 37
436 685 215 54 38 46
408 488 148 157 1 36
341 316 269 95 76 54
403 841 172 61 51 48
411 496 151 157 0 34
310 921 259 154 122 97
415 491 151 130 12 38
416 496 155 157 2 36
381 696 197 108 20 30
410 500 152 159 0 35
412 502 154 160 2 36
277 407 260 98 26 39
413 498 153 161 3 40
305 686 250 48 29 34
415 501 156 160 3 37
344 292 285 114 91 64
411 506 154 159 3 36
361 967 301 69 63 61
411 511 155 151 9 35
470 726 155 65 50 41
417 506 159 94 19 33
414 511 157 130 18 34
305 941 270 116 93 83
349 341 271 132 100 75
326 606 211 154 14 43
416 511 159 57 32 36
293 581 312 84 64 56
419 450 147 150 3 36
421 451 150 130 17 40
418 453 148 153 0 34
267 761 284 167 117 88
418 457 149 150 0 37
300 296 305 125 95 67
477 726 236 170 116 87
420 456 151 150 2 36
272 531 265 148 8 43
423 452 153 119 14 36
344 302 298 125 98 67
401 456 298 117 17 40
422 456 154 144 4 37
422 461 154 126 9 33
425 451 155 131 19 41
367 402 280 64 53 42
427 451 159 96 28 36
385 784 184 59 49 45
277 796 250 180 123 90
425 456 156 140 8 34
427 461 160 119 22 39
419 466 152 85 28 36
396 571 174 166 1 33
420 471 152 85 37 44
451 837 230 124 84 75
317 741 304 170 17 54
422 471 155 52 37 40
426 935 270 69 60 54
386 906 188 80 73 73
417 691 203 84 27 32
419 476 152 90 29 36
321 586 204 187 10 45
419 480 152 47 37 38
294 346 300 132 101 70
423 477 158 72 33 38
423 481 159 76 35 41
424 466 157 42 37 40
428 628 282 118 28 45
427 466 160 49 34 38
306 301 261 154 105 78
301 420 340 65 39 33
445 701 255 146 4 45
424 470 157 52 36 40
351 949 323 70 66 65
426 471 160 79 34 41
424 474 157 115 35 41
425 476 160 97 33 40
429 451 162 64 35 38
431 451 165 65 39 40
429 456 162 61 36 37
322 857 299 156 123 101
429 352 264 120 95 65
432 461 170 102 29 38
346 968 306 65 61 59
436 829 243 42 37 37
406 456 297 85 28 38
446 866 289 46 41 38
429 466 165 134 18 38
432 466 170 91 28 36
431 471 170 68 38 39
426 788 159 66 52 44
462 616 220 99 74 48
431 481 170 59 37 38
436 451 175 79 35 40
401 821 264 161 114 93
434 456 172 54 38 37
436 456 175 45 37 40
434 460 172 108 35 42
469 536 222 40 36 40
383 973 272 63 57 56
433 463 173 78 27 30
541 515 254 203 148 137
311 916 260 152 121 95
430 889 230 66 56 55
419 764 159 44 39 39
289 516 198 132 15 36
451 933 230 84 69 60
442 696 255 151 12 45
438 451 178 69 35 38
441 451 181 56 38 41
438 456 178 54 37 38
306 406 320 120 93 72
437 461 179 75 37 40
291 261 280 123 95 65
443 452 183 46 36 40
501 576 241 167 119 94
444 450 182 73 35 38
451 851 239 73 61 59
426 702 181 66 52 44
446 451 183 72 35 39
446 456 184 94 32 38
470 781 175 67 53 48
446 461 184 73 36 39
362 609 197 180 7 43
501 842 262 80 66 56
400 841 254 145 114 94
466 461 283 111 17 39
447 900 295 51 46 44
446 861 245 77 69 68
433 466 173 48 37 38
415 408 288 115 83 61
435 466 175 42 38 41
433 481 173 54 40 39
318 862 280 163 125 101
435 481 175 47 38 40
437 466 179 51 40 40
318 697 222 55 38 39
272 661 304 185 131 105
438 471 179 49 38 40
444 703 270 63 24 33
440 471 181 73 33 38
452 706 241 123 32 45
438 476 179 94 34 37
273 640 313 178 126 102
440 476 181 112 28 36
286 576 235 118 27 42
438 481 178 59 41 41
487 497 230 150 5 36
440 481 181 53 37 41
326 906 309 150 110 97
316 790 298 183 133 102
435 616 284 163 17 53
443 471 183 103 29 37
446 471 185 78 34 37
305 806 229 78 61 53
442 476 183 104 27 33
446 476 185 57 35 39
485 461 207 96 29 29
406 602 193 94 38 43
420 486 155 86 28 37
422 486 159 136 12 37
456 932 260 109 92 80
422 491 160 154 1 36
486 456 279 62 29 33
417 501 159 156 1 36
428 483 168 79 34 41
431 486 170 90 29 37
502 597 237 182 127 102
426 491 165 124 12 35
430 780 269 89 71 64
425 496 165 147 1 35
431 491 170 124 14 34
397 952 281 53 48 46
428 496 168 139 4 34
309 578 208 183 10 44
511 456 225 88 28 25
308 661 247 142 3 35
431 496 170 136 2 33
312 570 201 179 11 45
420 501 161 150 0 35
293 341 289 129 100 69
404 544 162 176 6 40
461 676 205 89 73 55
423 501 163 145 2 34
425 501 166 139 2 33
294 636 273 109 79 53
420 506 162 135 6 33
314 705 297 69 30 36
420 511 161 123 18 36
422 511 163 110 22 33
293 296 294 125 97 69
431 501 170 134 3 32
360 858 288 140 113 86
426 511 166 64 35 40
431 506 170 133 5 33
380 965 231 81 75 76
428 511 168 104 27 32
381 897 185 77 66 65
431 511 170 126 13 35
326 261 294 111 90 67
433 486 173 75 32 32
326 786 298 62 52 49
435 486 175 64 35 39
351 821 279 168 116 97
408 679 203 98 22 27
433 491 173 126 19 39
336 741 315 52 29 35
356 581 312 72 24 35
401 731 190 69 30 32
275 541 245 44 31 36
436 496 175 134 7 32
390 935 217 73 67 69
438 496 178 134 6 34
441 496 180 130 5 31
443 486 183 106 23 36
461 481 192 110 20 30
443 494 183 130 1 29
412 881 185 73 64 63
446 491 185 128 8 29
433 506 173 134 4 34
478 745 116 90 70 53
436 506 175 131 4 32
401 571 300 156 14 49
436 511 174 131 3 32
336 541 175 132 25 44
430 546 176 92 32 40
411 626 204 60 36 40
438 505 178 129 8 31
441 506 180 124 8 28
496 806 260 90 69 56
444 497 182 122 8 28
439 865 270 39 34 33
446 506 182 125 8 28
446 511 181 135 4 31
451 416 181 85 32 34
250 513 336 197 135 116
456 876 261 71 56 52
451 415 185 108 30 34
496 427 235 90 22 30
451 415 190 123 33 36
441 426 282 92 27 37
456 416 185 122 24 29
490 423 215 78 23 32
460 417 187 129 14 27
461 415 190 146 14 27
466 417 190 154 8 30
451 421 181 66 36 40
447 631 235 54 32 36
421 836 150 119 92 71
454 421 182 106 33 38
451 426 182 55 37 39
414 946 236 78 68 66
268 641 305 167 120 91
451 431 183 91 33 38
453 428 183 52 37 37
454 424 182 52 40 37
512 878 270 89 77 75
456 431 184 62 36 39
461 421 186 131 9 35
461 426 186 124 17 33
456 436 185 110 27 37
401 587 184 54 36 43
451 446 185 65 36 36
310 756 297 143 105 79
456 446 186 49 38 42
460 436 187 74 34 34
350 371 300 126 91 67
463 436 188 57 37 37
442 490 282 38 26 29
351 531 166 129 17 37
462 441 188 54 38 40
471 715 152 59 48 39
269 492 291 86 27 36
464 419 187 127 5 31
464 427 187 120 21 35
334 919 218 56 51 52
466 426 188 133 16 34
293 356 299 130 100 70
311 281 311 101 83 63
431 606 289 174 5 54
471 726 240 173 122 95
464 431 187 85 32 35
466 431 188 79 36 38
386 781 286 81 63 56
471 486 275 151 12 45
380 880 179 59 54 55
400 744 188 86 30 31
471 426 190 129 15 32
273 447 264 138 0 39
259 436 348 77 33 32
471 431 190 102 28 37
301 825 241 84 65 59
475 422 192 125 20 30
475 431 192 113 27 37
304 336 317 126 97 69
426 691 200 45 40 45
466 436 189 66 36 39
416 791 159 58 47 42
466 446 191 79 36 39
451 415 195 130 41 40
289 381 275 123 98 69
451 415 200 130 62 53
456 415 195 140 26 32
416 461 295 103 28 40
456 415 200 144 40 39
451 414 205 128 75 63
456 415 205 140 55 48
433 543 178 159 26 44
451 414 210 120 83 69
442 808 252 113 87 71
379 916 182 81 71 68
449 413 216 108 89 74
451 414 215 107 84 70
285 430 359 112 32 46
456 415 210 126 66 56
504 753 228 97 71 51
502 429 230 95 24 33
456 415 215 106 69 58
450 413 220 95 79 66
452 414 220 90 73 62
412 555 297 63 30 34
450 413 225 75 62 53
456 415 220 83 61 52
461 416 215 105 46 41
294 532 198 99 18 35
457 631 216 105 83 59
461 416 225 63 36 32
466 415 200 159 14 23
466 416 205 151 19 24
328 932 217 71 64 64
484 555 233 76 24 30
450 413 230 65 51 44
467 822 259 48 40 33
366 971 235 84 81 84
452 414 230 61 46 39
456 417 235 56 36 32
363 904 187 82 69 67
448 414 245 77 66 56
451 730 164 71 59 52
448 414 252 77 65 54
356 736 316 190 13 61
471 416 200 154 16 23
350 622 208 53 33 37
475 418 195 156 15 24
506 501 273 76 24 34
477 420 194 139 21 24
478 419 200 138 21 26
481 421 195 115 26 32
274 642 284 178 125 98
481 420 200 121 23 31
282 576 250 167 7 43
413 573 183 154 2 35
476 418 205 132 23 25
309 689 238 54 24 27
478 419 205 120 24 28
481 420 205 106 24 31
478 425 193 90 28 30
282 436 315 79 26 33
258 526 316 150 114 90
477 432 193 90 31 40
346 925 201 85 75 72
430 356 260 121 96 67
481 431 195 76 36 41
336 371 320 147 102 78
466 416 210 136 26 27
396 796 171 54 46 45
367 969 232 85 82 85
434 668 222 54 32 35
466 417 215 108 33 31
471 417 210 132 23 24
471 417 215 102 28 28
319 597 213 182 9 43
444 754 273 181 29 62
466 417 220 81 33 31
470 418 224 62 26 26
476 591 245 105 34 45
478 419 210 101 25 26
356 846 224 166 115 90
481 420 210 88 26 28
481 420 215 77 25 29
412 646 208 112 18 32
474 418 219 77 26 28
263 457 370 50 29 30
266 761 280 171 120 91
476 419 220 71 25 26
472 419 225 60 24 24
298 381 313 133 102 75
312 936 304 179 135 115
476 420 225 63 24 24
436 421 283 128 21 42
475 591 224 106 73 46
472 441 194 95 33 37
432 566 193 149 0 35
273 432 332 99 33 35
334 747 312 96 41 48
500 480 221 152 12 40
469 445 192 84 41 45
364 902 308 150 113 88
468 448 193 57 41 41
348 440 312 145 14 46
316 611 301 117 27 44
274 538 250 47 32 32
474 435 192 101 34 41
473 438 193 88 34 42
481 436 199 82 27 39
474 445 197 72 42 42
419 382 283 139 101 70
476 446 200 58 36 37
498 552 247 142 32 53
479 445 202 105 29 41
380 396 271 60 49 37
398 856 176 51 46 48
461 417 235 55 24 25
461 418 240 56 29 29
361 436 307 126 22 45
450 776 143 89 64 46
456 417 245 71 59 51
456 417 250 72 63 54
293 560 212 115 39 50
422 821 140 118 89 64
456 417 255 70 61 53
461 418 250 70 60 52
466 418 230 56 24 24
301 736 300 174 116 94
471 419 230 55 23 23
465 418 235 54 23 24
467 419 236 53 24 25
306 376 320 134 102 76
466 419 240 54 29 29
471 420 235 53 25 24
471 420 240 54 30 28
436 516 174 134 8 31
481 421 230 67 23 23
286 401 275 113 91 66
476 421 240 61 27 26
481 422 235 67 22 23
466 419 245 54 37 35
391 595 186 47 35 40
403 933 228 76 66 64
471 420 245 57 37 34
381 771 191 69 54 48
296 816 240 90 68 61
466 419 250 63 52 47
462 461 193 145 8 34
466 419 255 68 60 53
411 581 185 51 35 41
471 420 250 58 44 38
476 421 245 65 33 31
376 606 194 53 37 39
316 834 273 59 49 48
481 423 245 73 27 29
406 586 185 42 36 41
476 421 255 68 48 41
414 924 314 64 55 50
481 423 250 72 35 34
282 736 299 174 121 96
484 422 197 86 33 31
335 632 302 53 26 31
486 422 200 94 29 34
530 840 258 97 82 71
485 426 196 102 34 36
293 312 281 136 102 73
487 426 198 93 37 41
485 430 197 88 36 38
307 413 324 79 62 46
326 536 321 47 26 32
282 423 335 53 43 34
487 431 199 70 38 40
489 423 201 81 32 36
340 321 266 93 75 54
439 820 146 115 86 66
273 720 293 164 112 86
490 423 205 76 29 33
521 532 247 159 114 93
414 536 162 44 38 42
490 431 201 55 41 39
492 432 203 55 39 38
496 431 205 66 38 37
524 495 223 112 71 45
380 627 203 105 32 40
486 422 215 76 24 30
431 421 285 114 24 41
486 422 220 76 21 29
490 423 220 79 22 29
471 481 196 115 18 28
492 424 210 77 23 33
438 806 146 86 64 51
416 476 293 128 19 43
416 631 206 95 30 38
496 425 210 80 27 34
371 786 195 73 57 50
452 481 189 138 16 35
437 791 155 68 52 44
492 424 220 81 22 30
322 595 309 68 30 36
496 426 225 93 20 34
483 433 198 78 36 50
482 442 204 118 32 46
342 560 182 112 29 43
485 445 207 49 36 38
411 870 161 102 82 67
489 435 202 59 39 43
356 521 159 62 35 39
488 443 208 48 37 38
540 491 258 55 32 36
331 566 318 86 25 38
486 446 209 51 37 38
542 492 257 50 29 31
491 441 210 57 35 36
493 437 209 41 33 35
494 440 212 80 31 33
321 931 230 66 62 65
497 437 213 124 25 38
496 441 214 79 33 37
284 563 233 39 35 39
499 428 207 74 35 35
500 427 210 102 26 34
335 973 286 67 64 64
506 751 220 94 68 52
503 429 221 89 27 34
505 751 225 93 68 49
502 429 225 92 25 33
343 326 268 92 74 53
481 711 215 139 96 64
466 621 238 113 77 65
504 428 215 93 29 35
386 628 203 43 36 41
391 666 299 162 23 54
504 430 212 129 27 42
306 571 206 166 10 43
333 930 212 73 65 63
506 431 215 71 34 37
506 430 220 85 29 35
506 430 225 92 25 34
511 431 220 91 29 36
500 434 212 156 22 43
501 436 215 139 19 41
548 484 223 72 40 29
348 326 301 123 88 65
281 435 355 107 24 43
336 656 300 155 17 48
501 441 216 110 23 38
505 750 215 98 69 50
502 433 213 130 18 44
420 641 212 45 33 35
500 446 217 48 38 41
502 446 218 49 39 40
381 409 272 59 47 34
346 581 313 171 11 53
287 526 205 155 6 39
506 435 216 59 32 37
506 441 220 113 22 36
283 554 227 75 28 27
476 601 214 118 92 60
509 434 217 50 38 39
461 616 235 84 51 47
511 436 220 126 20 39
509 439 222 147 11 36
511 441 224 121 14 34
341 841 226 176 122 98
436 481 286 156 20 52
505 446 221 59 37 37
486 423 230 75 22 24
282 591 255 50 31 36
484 423 240 75 20 25
381 371 275 74 59 41
372 821 272 172 116 96
488 424 232 79 20 26
487 424 235 78 19 25
486 424 240 77 19 25
489 423 228 80 22 26
433 743 162 49 44 44
491 425 230 85 20 29
444 702 265 131 12 40
496 426 230 92 20 33
308 936 298 180 139 117
463 771 165 50 42 41
453 547 204 70 31 36
418 675 208 85 27 27
491 425 235 83 20 27
481 741 215 135 92 63
482 562 232 72 29 38
496 427 240 86 19 27
484 423 243 74 22 26
483 424 246 75 27 30
446 811 250 157 120 96
298 521 187 131 20 41
291 751 240 112 86 55
324 943 223 80 72 73
486 424 245 76 22 26
483 424 250 74 31 32
284 429 363 124 15 48
349 588 193 138 49 57
455 725 154 70 53 45
483 424 255 72 38 36
491 511 241 102 11 30
293 751 236 111 82 53
270 521 285 121 19 41
486 425 250 78 23 31
486 424 255 77 28 34
491 426 245 78 19 25
491 426 255 78 24 32
499 428 235 96 22 31
501 430 240 90 19 27
351 811 284 91 69 63
496 451 215 74 35 32
506 431 230 99 23 32
506 432 240 85 19 26
326 611 214 41 32 37
301 731 230 124 11 35
453 660 212 87 69 48
453 638 217 99 78 57
501 430 245 79 18 25
498 429 250 77 14 28
486 486 205 170 6 43
506 432 245 76 18 25
510 433 230 102 24 32
327 631 221 159 3 36
311 776 220 71 58 50
486 476 202 102 25 29
510 433 244 76 20 25
512 435 245 76 19 27
293 282 293 121 95 66
391 386 281 119 87 69
508 434 255 71 21 26
509 433 248 74 20 26
421 616 202 99 31 39
356 611 200 105 26 38
467 526 219 102 28 38
508 434 252 73 21 24
301 422 349 113 27 41
271 576 324 173 119 96
511 435 255 71 18 27
355 456 313 49 27 30
451 451 185 77 33 37
451 456 186 99 30 36
295 596 229 177 11 45
422 914 236 69 61 61
479 534 280 66 29 34
321 481 320 162 13 50
455 455 187 69 35 36
451 461 186 63 37 39
454 460 187 74 39 44
305 341 263 114 91 65
457 456 188 93 39 43
461 451 189 96 34 39
325 602 307 102 28 43
458 452 188 52 37 39
330 612 213 39 35 38
301 541 324 175 16 57
334 278 298 116 92 63
526 451 264 100 24 37
460 461 191 144 7 36
481 591 216 118 92 62
450 466 187 49 36 38
406 863 253 34 31 29
450 471 187 60 36 37
433 612 287 189 13 60
371 446 305 51 29 30
341 491 312 47 29 32
416 641 210 83 29 33
452 471 188 94 29 36
498 511 236 75 23 30
456 466 190 128 15 35
456 471 191 125 19 34
327 275 302 105 84 60
449 481 187 88 29 34
546 501 219 157 111 80
456 476 191 133 20 36
431 656 221 56 34 35
456 481 191 106 21 32
418 534 292 86 5 30
419 661 212 97 24 29
465 451 191 57 35 38
464 455 192 93 36 40
422 266 261 128 98 64
449 486 187 121 21 35
456 486 189 87 25 33
313 732 298 149 18 51
265 456 385 74 22 33
479 741 225 135 91 62
485 666 229 189 136 107
451 496 186 119 14 28
456 491 189 114 22 30
376 836 275 163 127 102
456 497 187 94 24 32
453 494 188 124 9 27
456 495 188 97 24 28
298 457 337 79 23 32
441 621 275 184 17 59
461 486 191 91 27 31
274 426 261 95 27 37
427 461 292 77 29 32
461 491 189 76 33 34
451 501 185 126 12 29
417 316 275 126 89 58
451 701 241 119 33 44
451 506 183 133 9 31
475 800 201 130 84 62
356 936 211 83 75 77
449 508 182 135 9 32
274 440 329 85 27 36
452 511 183 133 12 35
456 511 184 131 14 34
350 675 208 120 12 28
459 498 187 39 39 38
362 896 195 60 55 55
462 500 188 51 39 40
321 266 299 115 93 70
461 506 186 66 35 39
371 830 272 167 127 101
460 511 186 95 30 39
463 506 188 55 37 40
314 671 234 70 34 41
526 446 237 91 28 35
496 551 265 79 33 40
462 512 189 57 35 37
439 774 268 91 72 66
466 486 192 121 16 28
486 777 244 62 48 36
293 371 305 130 100 71
308 702 232 109 19 32
443 861 218 68 58 57
466 496 190 46 38 40
510 515 269 84 22 33
341 356 260 95 79 61
470 491 192 56 37 39
489 664 223 189 131 101
475 546 226 80 31 34
466 501 189 49 38 39
341 970 300 61 58 57
490 442 273 79 24 35
465 510 191 64 37 39
386 441 300 43 24 29
465 825 260 49 40 34
463 458 193 138 21 43
311 961 295 53 50 51
323 589 313 42 30 29
467 607 239 100 44 45
459 470 192 138 13 35
371 681 201 101 23 31
318 712 303 36 30 32
272 461 315 58 27 31
450 921 309 78 66 54
461 471 194 116 16 29
369 964 303 55 49 49
458 476 193 117 20 29
441 881 291 42 37 34
401 566 300 157 14 49
459 478 192 112 19 27
462 480 193 117 16 25
300 424 349 159 19 51
296 771 301 174 129 96
482 666 231 182 132 104
466 456 194 87 28 36
464 514 196 60 34 38
371 832 273 163 125 99
470 451 196 85 30 38
472 456 199 138 9 35
356 441 310 144 11 45
466 461 196 133 15 36
474 844 251 81 65 57
471 461 199 110 21 28
506 446 270 89 21 35
445 825 244 128 96 78
298 619 242 37 36 36
468 462 198 114 23 31
345 408 318 98 39 39
473 448 198 55 32 31
475 451 201 111 19 34
478 448 203 55 32 36
352 381 280 106 81 58
316 839 264 49 41 42
475 461 201 92 25 28
381 716 194 120 14 30
265 521 295 51 30 32
477 460 203 102 26 30
309 656 245 154 4 41
327 970 266 92 88 90
466 471 196 105 24 31
316 406 325 122 92 71
271 711 285 154 104 76
468 464 198 80 28 33
269 606 288 141 105 70
469 467 197 54 33 34
364 894 193 61 56 56
391 723 192 84 27 33
466 476 195 119 14 29
476 466 201 77 34 34
422 552 174 82 32 38
476 471 200 108 29 34
480 467 202 70 31 31
405 895 201 69 62 63
482 466 204 91 30 33
431 876 285 37 33 32
264 552 327 166 115 93
481 471 202 86 33 35
436 621 215 55 35 40
438 827 160 95 76 62
406 341 285 142 97 72
443 810 168 74 64 59
477 480 198 103 25 31
481 481 199 110 20 26
471 486 194 108 23 29
446 841 230 72 62 58
469 488 192 107 26 29
472 491 193 68 38 38
476 486 195 78 31 33
301 571 310 121 16 39
479 486 197 128 20 35
476 491 195 50 38 40
475 496 195 64 32 39
322 591 206 186 9 45
478 493 198 38 34 38
479 494 201 79 25 36
468 507 194 66 35 37
381 536 300 155 15 49
466 511 195 67 35 39
352 381 285 107 80 58
470 506 195 64 33 38
472 506 205 174 3 44
342 959 318 84 78 77
474 500 196 148 14 44
475 501 200 174 3 42
265 451 335 53 29 30
476 501 205 174 2 43
478 498 204 173 3 43
299 750 228 129 12 34
472 511 215 60 34 36
479 499 211 169 1 40
306 461 331 101 23 40
314 567 198 38 30 35
282 441 346 166 14 52
478 502 215 147 14 45
296 481 329 70 23 32
480 501 220 156 9 43
482 501 225 52 27 35
357 891 210 47 44 45
475 506 215 108 29 41
477 506 220 72 31 36
316 801 294 174 130 102
461 791 150 82 67 56
472 512 220 100 33 41
302 321 314 130 99 70
376 976 280 79 76 78
474 510 221 113 29 41
476 511 225 136 20 41
292 286 280 129 99 70
463 863 263 74 59 51
272 546 275 111 5 31
479 504 221 116 40 51
480 505 225 43 34 38
480 506 230 50 34 35
431 426 284 96 26 39
376 955 314 72 64 60
421 911 245 63 57 59
478 511 229 96 29 37
322 926 313 172 140 120
479 511 231 57 32 36
484 457 207 93 31 37
489 463 207 47 36 34
311 926 255 91 79 71
411 736 299 39 29 31
483 451 208 55 39 38
280 546 230 159 12 43
486 456 209 54 36 37
490 451 212 44 37 41
365 470 308 118 20 41
490 456 211 50 40 40
424 560 182 173 15 48
493 455 213 71 34 34
397 401 283 87 65 45
480 848 266 96 78 63
496 456 215 80 30 30
491 461 210 59 39 37
274 556 289 52 28 34
501 763 238 86 63 46
493 459 213 56 35 35
313 931 246 58 55 57
495 462 212 47 37 41
486 466 205 87 31 27
486 471 204 102 25 29
441 821 155 96 78 63
484 473 202 85 26 31
490 467 207 75 35 32
348 400 307 123 92 71
494 472 207 96 21 26
455 911 285 75 63 57
413 882 194 67 60 61
491 476 205 126 15 32
344 786 197 73 59 53
490 481 205 116 23 39
448 468 287 70 26 33
494 476 207 152 7 38
496 466 210 69 37 35
493 469 208 89 30 33
496 471 209 105 19 30
371 581 181 188 7 41
492 482 209 139 20 44
495 480 210 159 9 40
394 869 174 67 59 56
500 456 217 94 30 27
300 661 269 101 68 47
502 451 219 69 36 38
377 766 192 71 55 49
310 890 306 118 87 70
502 456 219 100 28 29
501 461 215 83 32 30
526 476 230 83 58 40
486 586 216 119 94 65
503 460 218 90 33 22
311 266 301 106 87 67
341 966 310 69 63 61
506 461 220 87 28 25
387 520 297 146 17 48
504 463 217 87 26 26
279 441 290 134 1 37
508 459 223 84 28 29
512 461 224 104 21 28
446 521 180 145 7 35
283 427 309 89 26 36
499 467 212 87 28 28
466 776 246 154 112 84
500 471 212 136 8 34
458 798 173 51 46 43
356 881 230 68 59 51
502 471 214 147 5 34
271 496 305 61 28 34
496 481 215 183 2 42
421 901 305 44 41 40
499 479 217 182 0 37
471 739 164 70 52 39
497 482 220 176 4 41
371 476 305 60 28 33
453 632 221 78 62 43
503 478 223 80 30 36
516 511 265 79 22 33
512 467 224 148 7 34
509 470 221 154 1 38
511 471 225 141 13 37
504 474 217 83 29 31
285 406 285 112 89 66
504 479 226 121 26 40
417 933 270 78 73 71
269 475 285 62 25 32
426 641 216 59 33 35
297 641 272 110 73 51
504 479 230 128 18 40
511 476 235 72 28 35
485 485 201 161 4 38
469 784 156 79 60 55
366 551 164 93 35 39
489 484 206 135 23 50
487 487 209 184 3 44
401 411 294 118 28 43
483 493 209 177 6 43
340 341 319 136 95 72
372 877 195 50 46 47
484 494 212 160 24 47
411 927 295 83 66 52
485 495 215 117 23 42
422 902 239 71 61 60
406 586 304 108 22 41
345 301 295 126 99 69
411 926 300 73 57 48
485 495 220 169 5 42
433 926 275 80 67 60
316 491 321 160 9 49
488 493 220 50 27 33
486 496 225 162 3 39
368 923 313 40 38 39
345 838 223 174 121 97
491 486 215 156 8 39
493 483 213 186 7 42
494 484 216 179 1 39
492 487 220 45 33 38
401 891 295 39 35 34
495 485 220 109 18 38
433 449 287 37 26 28
493 488 224 46 30 39
496 486 225 87 30 39
489 490 216 75 29 40
325 962 244 76 72 75
491 491 225 100 22 38
488 493 224 132 14 36
349 858 294 119 95 69
483 498 219 171 1 41
451 561 205 148 3 36
276 592 280 111 49 43
265 527 336 178 122 101
497 486 230 108 27 40
489 494 226 161 6 37
490 495 230 149 3 35
405 775 169 49 42 42
492 492 230 152 10 39
476 536 270 96 23 37
445 470 288 83 26 36
494 489 226 93 24 33
494 490 230 135 19 40
461 651 208 112 85 58
502 616 225 173 121 89
491 496 240 92 18 31
516 532 247 150 112 96
420 907 255 60 53 56
495 490 235 87 25 36
493 493 235 121 18 32
340 286 295 122 96 66
493 493 239 95 21 37
496 491 245 99 23 36
411 401 286 126 92 64
494 494 242 87 36 41
452 445 282 129 12 38
411 396 285 138 98 70
494 496 246 80 33 37
456 656 210 93 75 54
482 502 230 75 31 35
294 754 233 107 79 54
485 500 230 133 16 37
486 501 235 136 9 32
487 501 239 113 13 34
384 826 188 57 49 48
476 716 150 72 59 45
482 506 234 93 29 37
282 408 280 79 59 46
481 511 235 46 34 35
487 506 239 68 26 31
486 511 239 95 24 32
401 534 157 138 17 42
488 498 238 120 11 33
490 501 241 107 16 30
554 473 258 146 13 42
395 276 267 100 81 61
496 501 249 86 20 32
455 422 278 144 19 46
311 776 300 158 113 82
492 506 244 101 14 30
276 441 325 62 29 33
492 509 243 99 17 32
448 719 168 65 50 41
497 507 241 81 26 36
421 706 195 59 38 37
496 511 240 73 28 35
349 321 280 99 77 55
497 781 230 94 72 56
294 321 295 136 103 75
494 509 243 93 18 34
457 708 243 124 64 56
439 661 254 126 27 46
506 556 243 149 105 85
499 484 227 97 33 35
384 954 299 58 55 54
429 712 298 151 1 47
499 484 230 119 25 40
497 487 235 72 26 35
500 484 236 104 27 40
288 605 260 74 31 37
466 491 277 132 18 43
264 527 304 69 30 36
497 487 240 101 22 37
510 482 239 56 29 30
284 566 234 51 31 36
510 486 240 90 23 28
507 496 231 122 5 29
447 817 247 149 110 87
481 526 286 100 30 42
432 694 189 67 52 46
512 491 227 137 7 30
361 948 218 87 80 82
353 892 221 51 47 47
331 396 321 140 100 75
481 740 150 92 69 48
510 491 230 118 6 28
508 493 232 112 6 27
511 496 228 132 6 30
508 492 235 107 8 28
359 863 294 129 104 76
259 469 370 139 35 55
506 496 235 110 8 26
505 496 240 108 9 24
509 490 234 106 12 26
432 571 194 152 3 36
331 858 303 165 132 109
295 626 270 67 35 39
509 489 238 104 12 27
498 488 243 106 20 37
366 945 323 69 63 61
501 487 244 69 25 33
502 496 246 95 16 32
466 601 255 171 20 56
500 492 248 67 24 33
321 301 260 133 93 67
521 486 225 133 20 34
499 495 248 72 24 34
291 666 269 105 72 40
508 581 223 139 103 63
351 481 310 88 26 36
311 601 220 180 9 44
302 834 252 78 66 63
509 486 243 77 24 34
503 503 232 122 14 23
503 502 235 109 7 29
501 511 230 131 7 26
502 506 231 124 6 26
457 797 155 82 67 56
506 501 230 132 7 26
536 520 230 211 145 111
504 499 238 114 12 22
446 684 204 80 68 57
341 291 295 120 95 65
506 506 229 133 5 30
511 506 230 110 51 42
496 611 239 183 130 102
510 505 233 100 25 31
397 902 199 69 62 62
500 501 245 96 15 31
341 531 169 178 3 36
503 497 242 110 6 25
336 281 265 111 85 58
499 504 244 97 15 33
426 516 166 48 36 38
288 261 260 134 102 68
351 979 275 71 68 69
288 643 272 102 74 41
288 261 265 128 99 67
289 263 258 139 104 71
289 256 267 123 96 66
288 258 268 125 97 67
430 782 154 69 53 44
278 526 221 79 24 34
419 521 162 67 38 41
289 261 270 126 97 66
288 264 261 136 103 70
327 666 222 53 29 34
306 951 280 88 75 71
288 264 264 131 100 67
486 742 135 82 59 45
299 711 249 98 28 32
322 741 308 168 18 54
289 266 265 132 100 68
349 321 285 121 88 65
506 532 247 61 32 34
290 271 265 137 102 72
312 351 324 137 100 76
289 271 270 133 100 70
383 731 192 117 20 29
289 261 275 123 95 66
407 466 297 41 30 31
387 631 302 77 28 35
292 261 285 120 94 65
294 260 287 118 94 66
325 671 297 117 21 41
479 762 233 109 80 62
289 266 275 127 97 66
290 266 280 125 96 66
401 782 282 84 66 58
290 271 275 130 99 69
290 276 265 143 103 75
331 786 209 75 60 52
292 281 260 157 107 79
416 856 165 103 81 66
293 279 257 159 109 81
294 351 300 130 100 69
291 281 270 143 103 75
486 788 253 62 49 38
293 285 261 160 108 82
492 429 266 84 14 28
292 286 265 155 106 80
329 679 218 63 25 21
291 276 280 127 95 67
291 281 275 133 100 70
291 281 280 127 97 68
285 427 359 61 26 30
390 931 216 72 66 67
350 361 270 95 76 61
317 605 303 44 28 33
305 529 328 176 9 56
292 286 285 124 97 67
546 510 226 200 135 107
281 541 330 163 114 94
334 262 288 115 91 63
529 457 263 83 26 32
474 774 176 95 72 59
294 271 291 122 96 67
297 271 295 119 94 68
336 941 317 57 46 46
467 531 220 41 35 38
301 261 295 113 91 67
315 646 234 157 1 42
300 266 296 113 91 67
361 846 279 141 112 87
267 446 370 150 14 49
268 457 327 32 28 27
