ply
format ascii 1.0
comment Created by Open3D
element vertex 2228
property double x
property double y
property double z
property uchar red
property uchar green
property uchar blue
end_header
369 734 317 122 18 41
305 329 288 76 61 44
342 194 228 132 103 68
341 199 227 133 104 69
319 259 263 134 96 72
237 676 301 163 111 80
334 395 298 59 49 39
284 364 217 126 98 64
342 199 229 135 105 70
424 405 303 118 41 44
408 779 239 173 117 88
344 194 238 125 97 63
320 285 253 135 96 76
341 204 227 133 104 68
316 462 124 151 0 37
262 439 282 86 30 38
229 579 263 176 119 88
342 204 229 134 105 70
316 798 244 148 108 86
341 209 228 133 103 68
342 208 230 133 104 68
414 764 318 60 49 39
337 215 325 119 96 70
259 449 263 55 27 32
342 204 238 121 95 63
306 458 170 79 20 31
277 294 323 127 96 66
313 750 222 81 65 61
343 194 248 124 97 65
329 604 227 45 36 38
294 370 215 108 89 69
333 89 364 115 32 47
324 395 293 58 48 38
343 199 243 121 94 62
239 734 352 157 112 85
358 445 178 94 83 73
305 149 338 114 93 70
320 269 307 101 82 62
282 282 335 122 95 64
334 15 318 95 51 45
314 824 339 42 37 34
382 802 190 159 109 72
314 559 208 90 28 40
337 29 328 82 31 34
236 759 352 173 125 95
229 579 278 147 108 76
359 449 208 40 32 31
340 194 254 121 96 66
289 474 382 38 29 31
274 415 213 133 73 78
340 199 254 125 97 67
342 102 330 137 92 79
257 484 360 32 30 31
374 414 363 58 31 28
268 354 227 136 99 67
258 554 348 54 27 32
342 194 251 124 97 66
419 439 298 60 29 33
291 869 368 46 41 40
309 339 222 102 85 66
318 54 318 113 37 45
329 789 342 61 48 39
304 334 221 123 96 65
343 209 243 124 97 63
368 704 322 122 19 42
324 234 215 133 104 69
306 846 350 31 29 30
342 209 248 125 98 65
324 239 313 102 83 61
340 204 253 127 98 67
244 909 283 127 102 80
340 209 253 129 100 68
224 533 223 215 139 108
341 214 233 132 102 67
308 842 357 32 30 31
342 213 234 130 100 65
340 169 343 125 97 64
298 179 333 116 96 75
319 419 359 107 19 35
254 874 329 161 119 102
338 224 228 141 105 69
340 224 233 134 100 66
269 374 228 139 101 72
354 639 213 151 104 85
341 219 238 126 97 63
404 424 218 132 16 38
218 514 245 149 114 93
369 794 188 136 101 61
354 84 343 119 42 49
387 469 373 100 24 39
347 436 192 49 36 33
334 63 315 110 27 35
277 391 260 145 104 87
342 217 240 126 96 60
292 311 276 101 81 59
345 455 377 106 2 31
304 27 308 168 65 66
358 873 258 58 49 49
271 363 225 137 100 68
340 224 238 128 96 62
294 864 259 102 86 70
337 184 329 122 98 71
410 705 268 55 44 37
341 214 248 128 99 66
339 214 253 130 101 70
314 844 257 105 89 73
341 219 243 127 97 63
240 909 289 157 122 95
409 778 319 58 47 38
294 916 246 84 75 76
342 217 242 127 97 59
350 89 338 127 39 48
366 509 187 146 110 89
267 347 309 115 91 64
341 216 245 128 99 67
298 12 260 111 46 50
314 454 128 122 12 36
286 271 305 87 72 57
338 219 253 132 100 71
289 504 384 154 15 48
338 224 252 133 102 70
265 754 359 152 110 79
323 540 177 159 1 38
336 225 254 131 101 72
410 799 298 62 50 47
274 454 193 119 16 30
270 574 254 148 0 35
326 229 216 130 101 66
261 429 284 110 27 41
415 434 339 154 0 48
326 234 216 136 105 68
312 937 336 60 56 56
311 48 256 109 24 42
241 684 300 149 101 67
274 304 298 104 82 57
409 799 273 72 56 51
346 634 330 85 26 35
326 239 216 140 106 68
325 584 360 40 29 32
329 259 233 130 93 65
262 705 346 146 107 82
250 948 303 69 65 66
329 239 218 144 107 70
284 863 343 39 35 34
299 724 238 130 12 41
332 234 220 143 106 69
269 914 247 67 62 62
248 534 333 43 32 36
333 234 223 144 105 71
410 504 249 144 13 44
392 608 249 103 32 43
299 394 357 128 100 72
333 239 223 147 105 73
400 403 243 71 29 34
317 309 239 128 97 69
324 244 216 144 107 70
404 806 316 68 55 52
324 249 217 150 108 73
236 896 295 135 114 96
271 406 285 86 58 26
314 11 261 101 40 43
364 39 363 89 33 37
313 838 386 52 42 34
352 599 193 143 100 69
349 449 164 103 83 60
320 254 216 150 107 72
272 649 286 119 14 35
324 254 218 151 107 75
267 359 258 141 99 82
315 213 360 122 95 64
259 899 268 88 75 68
329 249 223 150 106 74
351 771 200 135 106 74
294 234 258 115 93 69
302 218 260 118 96 72
406 506 262 136 17 42
326 255 222 150 105 75
402 783 214 161 106 78
311 753 229 78 64 58
335 229 254 133 102 73
315 339 227 101 86 70
397 818 267 75 56 49
307 309 225 117 93 65
379 402 263 84 61 52
252 534 238 112 17 36
334 239 253 135 102 72
341 916 281 64 57 59
331 250 227 145 103 71
226 514 201 101 42 45
299 25 259 133 29 53
410 509 328 103 21 40
333 244 228 143 103 71
320 457 370 77 25 32
387 74 247 117 18 43
232 804 328 179 127 99
429 424 199 133 22 41
264 459 363 86 24 34
412 442 341 147 3 44
267 766 281 87 67 59
363 584 342 175 17 58
324 69 258 109 23 40
285 454 190 96 21 27
335 244 238 132 95 65
331 251 231 135 96 65
359 54 348 76 59 47
319 204 265 121 97 72
386 63 237 94 30 30
331 254 233 133 93 66
251 900 344 53 44 45
322 440 155 94 29 32
332 253 238 131 94 63
330 250 254 137 100 76
336 244 243 135 96 68
308 449 158 79 25 34
354 84 256 101 64 54
416 451 301 116 13 32
339 825 342 33 30 30
326 356 236 97 85 73
304 24 262 129 29 51
285 300 290 86 69 48
271 572 356 160 13 50
419 504 229 99 29 36
309 534 381 92 33 42
329 204 263 121 93 64
334 249 248 138 99 71
338 385 233 95 84 73
263 359 313 116 92 64
331 244 255 135 101 76
319 13 333 90 67 59
331 256 243 135 94 70
325 437 360 61 24 27
332 252 251 138 100 73
356 744 330 147 11 47
336 230 227 143 105 69
362 509 174 153 109 80
319 729 354 135 20 46
374 669 194 158 107 71
337 234 233 132 98 65
256 952 316 61 59 59
280 623 347 104 28 42
336 236 231 135 101 67
338 234 238 129 95 63
244 579 259 175 113 89
231 658 299 185 128 99
337 237 234 130 95 63
247 538 275 86 22 39
337 239 238 130 93 64
386 831 247 111 82 63
336 24 318 104 19 39
281 286 336 122 96 65
336 240 237 130 94 64
375 604 187 141 104 68
344 394 232 103 90 76
237 598 300 130 100 72
316 729 355 142 21 47
319 480 382 70 25 31
339 234 243 130 97 65
338 234 248 134 99 70
289 284 219 127 99 66
277 314 330 128 99 69
325 339 313 102 82 62
254 935 268 70 64 65
352 99 345 100 68 49
336 240 249 137 101 70
426 442 230 133 6 41
260 525 207 74 32 39
386 63 243 98 18 33
337 224 325 122 98 71
371 600 324 136 26 49
387 65 239 100 28 35
294 389 355 127 100 72
359 406 326 54 44 38
374 779 318 43 35 30
387 65 243 104 26 39
432 448 210 176 18 38
339 564 362 190 9 61
309 19 344 102 27 41
369 400 288 73 64 54
387 78 235 127 17 39
387 79 238 126 25 44
358 838 367 74 57 45
334 714 210 133 8 33
387 66 246 101 18 35
386 84 243 134 23 52
437 761 296 93 72 55
274 344 224 128 98 61
286 314 341 127 97 71
386 81 245 124 21 51
382 593 316 152 22 52
289 15 261 109 54 50
280 18 256 143 113 87
402 797 242 176 118 88
284 18 257 147 110 90
384 529 219 62 32 35
324 27 300 116 48 50
319 903 362 57 50 46
335 481 391 94 7 28
299 953 269 93 90 94
355 614 329 39 27 32
329 499 140 167 12 39
289 19 258 136 102 81
260 384 304 117 91 60
260 644 292 144 93 73
268 609 344 162 16 52
289 13 303 145 39 51
289 14 308 163 83 92
294 11 257 110 48 49
294 14 262 108 43 47
311 344 291 80 64 45
300 11 261 111 46 50
238 764 354 171 124 95
407 808 288 85 67 58
324 569 367 180 16 58
303 15 289 187 122 123
290 17 261 113 86 69
290 22 256 154 111 91
294 19 262 118 31 46
329 594 225 132 7 31
294 23 257 137 36 56
279 956 325 73 69 69
408 540 241 162 15 40
360 94 363 139 48 62
215 523 237 172 120 94
336 235 333 130 101 67
304 19 263 116 42 49
300 28 257 132 74 68
302 26 260 127 78 69
309 10 258 105 43 46
254 809 310 145 110 78
284 479 187 47 38 40
354 104 257 113 36 48
387 457 396 69 26 32
228 569 268 152 112 77
272 528 220 59 27 34
379 402 298 71 61 53
309 11 261 106 42 47
346 846 203 113 88 69
320 12 259 96 49 44
334 394 323 80 67 53
309 19 265 101 44 45
351 798 200 156 119 85
404 549 278 48 30 34
381 525 344 171 13 53
417 468 309 84 31 38
309 29 262 115 54 55
383 478 387 93 31 42
278 874 266 112 91 69
304 824 262 127 102 76
314 24 264 119 29 46
319 24 263 110 24 42
265 664 293 85 34 33
314 19 264 106 41 45
335 794 224 71 61 57
304 14 293 177 111 108
298 11 304 154 73 74
334 849 328 32 29 30
304 234 264 122 95 68
304 13 298 172 101 97
326 294 312 120 98 75
408 812 324 76 59 52
291 11 313 127 43 48
272 579 355 167 14 53
282 413 267 86 66 49
294 11 313 124 47 50
286 289 341 127 98 69
319 434 153 70 31 33
344 89 372 121 21 46
292 12 320 105 40 41
294 449 374 55 26 29
258 826 321 145 96 74
333 103 325 116 88 61
302 11 310 153 80 81
290 420 189 105 27 32
303 11 313 139 70 71
307 837 331 36 32 32
304 12 308 160 87 87
378 838 333 55 46 41
305 12 312 148 78 79
333 254 323 127 101 70
319 324 304 88 73 58
338 934 293 65 58 56
347 79 330 112 44 45
315 399 355 122 95 66
329 438 360 72 22 28
304 11 318 116 53 53
327 237 261 130 100 72
364 744 194 136 101 60
295 18 303 165 114 97
346 886 256 67 58 57
329 174 323 106 86 64
393 434 220 80 31 34
259 394 303 116 90 60
380 424 398 41 28 29
296 17 289 183 117 107
296 18 293 180 121 102
317 158 355 110 90 69
252 565 311 84 13 32
424 770 317 64 50 39
398 564 313 68 25 34
299 19 293 207 143 147
409 403 293 125 18 37
387 799 194 159 110 76
244 864 288 114 94 73
304 20 293 190 129 128
296 17 298 185 128 122
309 829 338 40 35 35
269 830 343 112 72 52
414 549 242 149 19 39
300 23 299 154 102 76
387 699 232 87 64 49
301 372 216 93 82 72
299 24 303 149 100 76
321 181 261 114 91 67
327 309 326 129 102 73
400 809 313 63 49 46
277 372 282 92 65 36
346 906 282 60 52 50
303 21 296 175 116 92
415 469 240 133 10 39
328 259 253 139 100 75
303 26 302 149 45 57
344 669 223 52 35 35
353 498 164 160 112 85
312 808 351 39 35 33
291 17 310 158 105 102
388 469 352 161 13 50
334 219 258 127 97 70
339 835 346 32 30 32
322 74 349 95 68 51
387 509 220 81 29 32
291 18 313 141 96 87
298 369 215 93 82 71
314 884 373 59 53 51
442 712 295 88 66 51
292 16 306 187 145 140
342 89 325 103 84 63
294 19 308 157 105 83
296 23 309 148 106 81
381 634 294 162 12 51
377 533 357 118 30 47
290 19 318 120 39 50
294 24 318 149 22 54
334 432 188 53 36 38
311 34 346 104 26 40
415 706 292 54 43 33
298 26 313 163 20 56
300 214 257 116 95 73
348 49 329 96 29 34
315 559 203 113 28 45
320 94 352 111 23 41
259 484 363 34 30 33
302 682 236 94 26 33
304 27 304 167 19 54
256 416 336 119 13 39
302 26 308 165 22 52
433 443 210 169 17 38
319 13 318 109 75 66
316 304 237 127 94 68
251 579 314 42 30 33
274 269 253 110 88 64
428 419 313 138 21 45
299 27 318 155 22 54
239 619 274 177 120 87
293 209 323 110 92 72
322 84 326 112 23 37
257 625 324 128 37 46
304 29 318 148 37 57
311 690 225 102 21 28
358 401 311 65 57 48
309 15 298 170 103 95
257 340 236 152 100 79
405 479 293 146 16 44
309 13 303 169 100 95
277 304 221 135 103 65
314 15 298 161 95 87
416 424 340 155 5 49
331 654 340 124 18 43
351 456 160 131 93 66
314 14 303 161 98 90
284 639 268 40 35 39
369 84 257 129 11 47
368 543 361 72 32 38
289 544 376 49 28 32
335 437 172 58 41 36
307 444 158 118 16 37
284 314 276 103 77 60
319 15 303 143 81 75
305 770 360 62 49 43
291 460 185 88 26 27
379 408 343 62 31 29
305 788 253 173 122 99
309 12 313 150 84 84
354 396 277 74 65 56
264 432 253 96 54 49
306 12 316 132 68 68
375 554 338 88 21 35
360 674 198 134 99 65
369 614 183 146 103 64
368 64 353 103 29 33
262 379 302 116 91 61
314 13 313 146 87 85
379 401 243 92 56 46
313 479 158 140 1 36
257 422 211 105 26 26
329 24 343 92 79 66
319 13 313 126 79 74
324 54 313 120 53 50
314 12 318 121 74 70
405 559 259 33 27 31
309 19 294 172 103 93
335 847 234 70 57 48
333 24 304 102 27 40
352 822 377 55 43 37
309 24 298 158 40 61
251 527 214 86 32 38
310 27 300 149 44 50
369 799 189 141 103 64
326 452 139 99 13 35
270 422 230 97 43 37
286 360 346 126 98 71
284 848 325 97 75 58
314 19 294 155 65 66
291 884 360 78 73 70
319 19 294 150 54 61
329 624 343 153 27 53
318 22 295 150 22 50
290 219 338 115 93 68
320 17 297 146 70 69
303 30 323 131 74 64
294 938 346 65 60 59
313 425 163 83 60 45
264 309 227 131 97 58
319 25 298 142 55 57
314 29 303 156 18 49
287 264 345 126 97 67
321 89 352 110 72 61
283 249 333 121 96 65
319 27 300 145 87 76
429 474 219 114 23 39
292 238 350 119 95 69
320 94 329 104 83 60
421 444 210 163 13 38
342 370 263 99 82 64
305 33 257 118 61 60
322 89 326 104 36 40
331 250 345 142 104 73
309 34 259 118 29 47
310 39 257 115 14 42
296 429 180 112 18 31
324 419 357 103 26 35
311 32 261 119 90 73
413 489 246 142 9 44
379 809 353 63 49 39
377 569 215 38 32 33
310 44 257 109 47 47
314 384 285 74 60 44
256 309 256 114 84 63
287 499 186 44 36 39
309 234 361 128 97 66
312 35 260 113 74 62
373 502 381 188 10 60
312 303 230 118 90 64
313 40 260 112 22 41
319 644 344 146 20 51
315 38 261 118 19 45
266 359 230 142 101 72
296 220 315 99 82 65
309 329 293 78 63 45
310 920 349 48 43 42
328 854 316 37 33 32
357 444 210 43 35 32
319 39 262 123 25 48
374 754 191 126 94 55
314 44 258 118 86 71
316 42 261 110 67 55
364 64 373 89 34 35
294 644 345 126 24 45
310 219 361 119 94 64
318 44 260 118 90 73
320 43 261 108 77 64
319 49 260 115 55 58
279 415 208 121 68 72
369 834 358 58 47 42
381 714 305 139 11 44
420 493 225 44 33 34
319 54 259 109 43 50
381 504 358 70 26 34
373 664 308 137 9 44
320 64 257 108 85 66
372 614 185 146 105 66
343 488 155 145 106 81
342 898 327 48 43 40
310 34 313 137 21 48
301 310 221 128 100 66
376 841 338 58 49 43
382 857 312 64 56 52
308 34 318 132 28 48
314 34 308 135 20 45
294 214 318 102 85 68
319 32 305 127 91 76
383 479 220 104 18 33
254 634 322 130 98 73
349 869 343 45 40 38
277 381 226 108 86 61
319 35 307 116 33 44
274 394 283 87 59 39
381 664 294 73 19 32
244 524 273 107 10 35
319 564 370 157 20 54
286 737 255 78 60 53
314 199 317 97 82 65
316 44 314 129 98 70
318 844 256 105 89 72
319 49 313 114 78 60
253 589 313 87 19 34
274 744 353 128 92 69
391 704 241 96 21 32
358 59 339 86 28 32
314 49 318 109 70 52
394 804 333 60 51 46
328 189 320 105 86 65
289 859 348 33 31 31
284 839 328 46 38 36
230 654 303 161 113 84
259 529 208 111 32 44
315 344 226 101 86 69
309 12 338 92 39 41
316 48 315 124 94 69
409 509 288 46 29 34
315 53 320 115 23 40
339 554 367 162 22 55
317 50 316 118 95 70
389 401 288 106 42 44
294 14 328 93 38 39
378 519 214 57 35 37
283 389 349 127 99 72
299 11 323 95 38 38
299 11 328 93 36 39
390 684 258 42 32 33
300 11 332 94 35 40
304 11 332 94 35 40
242 889 286 174 126 104
269 429 253 88 59 47
304 12 334 94 35 39
402 808 255 99 75 56
293 19 328 109 37 46
305 154 343 112 91 69
294 24 323 143 35 55
246 514 261 61 26 33
358 444 384 80 19 33
309 179 354 112 92 71
243 729 307 159 107 76
359 609 329 120 22 44
296 537 205 47 32 35
295 23 328 130 17 48
298 19 334 102 35 44
272 665 286 115 6 33
299 24 333 119 56 59
244 684 298 141 98 64
337 504 153 73 30 36
424 484 221 150 21 40
300 28 323 143 84 73
339 64 261 111 26 42
333 169 356 128 98 65
313 799 253 176 127 102
310 129 338 110 90 68
263 524 209 94 29 40
254 640 326 129 94 71
371 870 282 73 62 60
298 26 328 134 30 52
300 28 328 137 30 49
399 424 347 47 27 30
274 418 224 134 86 87
271 962 291 75 70 71
417 482 319 129 24 46
233 794 323 170 121 89
349 842 320 33 31 33
347 866 245 63 54 50
302 31 328 138 28 50
308 11 323 102 46 47
297 315 276 95 72 52
267 380 250 140 100 81
308 11 328 95 39 43
309 12 333 93 40 42
274 884 374 59 53 50
285 518 194 108 15 36
334 204 352 123 96 63
374 405 323 73 48 42
338 830 363 64 56 51
319 13 323 95 69 60
267 408 291 92 71 46
323 289 308 108 90 70
319 13 328 90 67 59
316 734 355 133 23 47
314 12 333 92 54 50
327 344 323 112 90 64
316 661 235 123 8 30
311 229 266 126 97 70
425 754 304 57 44 34
309 14 343 94 38 40
385 484 221 51 35 35
325 259 349 148 107 79
348 414 209 52 36 38
314 14 343 88 51 46
389 429 404 147 18 48
306 24 341 97 63 53
258 349 248 149 102 80
311 20 346 102 28 42
305 29 342 119 92 76
314 24 347 73 37 36
364 49 358 82 48 39
329 29 303 105 61 52
404 559 242 157 15 38
320 18 345 91 79 66
284 429 374 59 27 30
334 114 357 109 85 62
406 694 247 64 47 35
239 548 270 106 81 61
279 679 263 75 32 36
319 30 351 93 27 36
299 604 358 86 30 39
305 33 324 122 37 50
413 499 246 136 11 42
329 110 326 112 86 57
370 709 319 106 22 41
375 401 238 105 49 47
301 434 174 129 6 33
309 39 323 130 15 43
308 39 333 134 54 59
384 434 220 90 28 35
294 479 183 53 38 40
278 264 254 113 92 69
341 37 339 89 80 69
274 905 250 80 61 56
272 267 250 111 89 64
311 42 320 105 70 58
310 44 328 119 81 65
243 799 354 170 119 96
310 44 333 134 109 86
344 459 160 65 34 34
311 48 333 120 63 56
354 429 208 45 37 40
251 700 294 69 45 41
238 729 349 155 111 84
330 818 239 56 46 50
312 45 321 109 29 36
232 709 323 160 110 79
398 709 213 135 103 69
312 49 323 124 12 43
315 64 328 118 88 66
264 434 203 47 40 37
307 36 339 120 14 42
294 842 326 50 41 37
386 654 273 148 11 44
306 33 341 120 96 80
354 808 395 80 63 48
311 44 342 114 21 41
314 34 349 92 43 45
257 751 282 85 55 54
319 34 352 92 26 34
314 44 348 113 81 69
333 860 214 107 91 80
312 50 328 120 8 41
287 700 246 28 34 36
239 779 354 170 118 91
326 17 340 88 77 66
314 954 278 81 77 79
312 50 333 122 11 41
324 914 343 55 50 48
313 54 333 116 74 59
238 934 293 74 68 67
315 58 324 116 86 63
314 709 213 116 12 34
335 209 259 123 96 66
362 51 355 87 74 65
419 464 318 117 25 42
380 800 378 75 62 52
317 64 326 114 36 43
289 864 378 48 42 39
339 489 153 121 81 68
314 59 333 114 91 70
315 53 342 107 50 47
334 750 211 87 51 52
344 94 371 122 23 46
317 55 344 120 98 81
328 431 179 49 34 42
360 95 368 129 80 85
318 50 349 115 12 40
430 700 296 84 69 54
359 619 324 151 21 51
316 52 346 110 51 45
333 36 352 99 86 73
318 54 348 117 58 59
371 669 310 137 9 44
314 59 338 105 28 39
291 685 346 73 36 43
346 740 211 122 10 29
316 64 342 109 51 52
285 411 220 106 95 91
404 403 318 93 28 35
336 890 340 54 47 44
317 59 344 105 32 43
318 64 344 101 64 55
321 327 254 108 87 63
304 234 360 122 94 64
321 493 139 107 12 29
354 50 353 84 74 64
401 550 241 156 13 35
335 374 238 95 84 74
319 59 348 105 25 39
316 69 329 115 25 42
399 499 234 136 10 31
298 535 198 127 31 47
410 464 224 78 32 39
340 603 218 88 29 36
269 424 202 70 36 28
326 582 220 61 33 38
242 888 313 113 86 75
316 69 333 118 18 42
234 614 274 175 117 83
316 72 330 112 20 39
262 432 249 90 47 41
233 684 318 151 104 74
309 789 248 152 110 90
275 489 377 78 22 33
295 340 221 125 97 65
318 79 333 107 63 51
344 839 323 32 29 31
331 199 321 108 89 67
316 69 337 108 50 48
240 874 322 176 130 114
357 614 186 146 102 65
338 204 347 125 98 65
352 458 385 111 7 33
316 67 341 116 90 73
317 74 338 116 25 44
319 294 243 132 95 69
318 79 338 101 59 51
359 495 390 154 27 56
387 842 285 65 53 47
302 761 251 76 62 54
349 104 257 112 53 52
268 464 369 111 19 40
427 739 264 84 63 50
320 84 328 111 41 42
236 642 311 151 105 78
320 89 329 104 31 40
316 90 335 113 26 40
317 94 333 106 70 53
246 715 351 146 107 80
317 88 338 103 44 41
283 453 191 117 15 29
316 840 325 43 36 32
320 79 348 102 21 38
331 895 344 48 42 39
344 498 391 199 8 64
316 93 338 105 30 41
317 94 343 105 26 40
320 99 329 107 87 66
399 804 364 71 56 44
326 337 248 104 86 67
339 64 318 104 53 46
304 279 299 89 73 55
317 104 332 114 92 69
334 35 348 95 83 71
258 554 283 48 24 30
310 369 220 92 82 72
419 709 298 69 58 47
320 104 329 105 86 65
316 101 334 121 99 77
377 474 215 122 3 33
316 104 338 115 95 73
299 764 362 118 69 61
319 449 112 107 24 37
303 376 215 91 81 71
341 866 355 51 46 45
316 104 342 113 93 72
388 649 213 153 111 79
316 109 343 112 92 72
317 108 345 113 93 72
235 642 285 182 124 88
335 74 367 103 71 63
274 349 222 129 99 62
314 124 333 109 89 67
365 484 199 35 28 28
253 894 363 55 50 48
333 744 347 91 23 36
315 129 329 101 83 63
324 234 264 129 96 68
284 494 188 57 33 34
316 121 330 106 86 65
302 804 271 152 104 81
394 459 227 87 26 35
319 124 328 100 82 60
345 821 385 65 50 41
294 774 362 172 121 95
319 129 328 99 81 60
325 74 353 101 76 61
369 798 319 44 37 33
287 828 288 103 84 65
407 784 228 174 118 86
378 559 215 100 16 33
311 126 341 107 88 67
324 858 321 36 32 32
365 840 238 96 81 69
315 114 343 112 93 72
314 119 343 110 91 70
358 417 354 66 54 45
327 341 257 110 89 66
417 439 336 158 1 50
316 115 347 114 94 72
206 523 209 207 132 117
323 953 303 55 51 51
315 119 347 113 92 71
318 119 350 114 94 73
320 114 351 113 94 74
269 928 352 76 70 67
273 874 375 46 40 37
309 174 353 112 92 70
255 614 328 75 26 35
257 887 334 52 49 55
312 123 338 112 92 71
276 518 376 37 29 31
312 128 344 109 89 69
356 470 396 75 14 28
254 949 283 78 74 76
335 55 366 83 26 32
284 324 282 95 71 49
291 205 333 117 95 72
317 124 350 111 92 71
328 24 257 94 21 35
294 274 266 125 97 71
340 811 370 72 65 60
392 593 297 183 6 57
260 628 327 124 22 42
254 578 289 37 26 30
299 962 279 85 81 85
322 11 256 91 56 46
244 577 290 94 73 55
284 864 377 50 42 36
362 811 196 193 140 110
270 364 263 137 97 81
324 14 258 92 47 42
346 43 333 65 34 26
326 578 203 127 27 48
322 16 261 102 17 42
323 19 261 88 35 38
406 499 258 158 13 48
264 415 223 118 48 42
331 362 270 109 88 64
364 704 194 137 98 58
323 24 262 105 19 38
344 410 333 64 55 46
259 828 323 143 94 72
364 84 358 146 14 47
325 19 259 100 18 38
326 24 260 101 14 35
231 600 296 141 104 77
399 785 322 50 41 34
265 469 367 126 15 41
326 28 260 107 16 41
324 878 235 76 68 65
284 338 221 121 96 65
256 917 361 60 54 53
328 29 258 78 45 42
272 752 355 122 85 61
365 416 358 67 46 40
232 724 333 161 109 80
324 16 303 122 58 57
258 424 338 112 16 38
324 14 313 105 65 57
338 658 226 46 33 36
324 13 318 96 69 57
249 679 337 135 101 72
371 569 340 179 14 56
226 538 248 161 112 82
329 14 318 93 60 49
332 16 309 95 38 42
304 408 202 89 76 64
269 774 365 174 124 95
289 764 363 165 116 88
336 119 331 115 89 62
342 53 320 99 70 58
364 399 283 74 65 56
322 16 300 134 67 64
270 942 341 60 57 58
325 17 302 119 50 53
319 214 360 127 98 62
330 17 306 102 37 43
284 414 218 127 110 114
335 24 313 97 19 36
368 879 288 71 61 58
336 19 318 99 32 41
326 946 287 84 77 76
389 404 333 65 22 30
314 894 367 62 55 52
332 450 160 68 35 28
336 28 312 95 45 42
337 30 314 104 29 39
241 817 325 202 138 110
336 28 319 78 45 42
324 139 326 100 81 60
337 29 318 82 48 43
260 865 270 138 112 84
326 32 260 110 15 37
329 34 258 92 50 47
336 124 331 114 90 61
382 620 221 151 110 84
325 79 320 103 39 36
249 634 282 154 104 78
327 35 261 105 10 36
409 479 229 71 31 34
447 717 304 98 73 58
328 39 261 108 19 39
317 257 356 148 102 74
229 519 252 128 100 80
321 48 261 108 88 74
276 286 316 119 94 63
285 783 274 75 60 55
329 44 261 97 47 47
327 180 261 120 96 69
284 909 364 68 61 60
330 38 259 103 15 38
259 309 257 108 80 59
333 35 256 87 43 41
331 44 260 93 72 60
314 524 179 127 6 33
325 334 253 109 88 64
354 407 328 62 50 41
334 49 260 108 53 53
299 299 220 135 102 69
322 50 260 118 25 43
325 309 329 130 101 72
386 625 284 171 7 54
349 399 233 107 93 80
324 54 260 114 20 43
329 54 261 109 48 51
314 394 355 126 97 67
318 220 266 126 99 70
328 55 260 102 54 48
326 59 261 115 14 40
318 369 347 120 94 65
327 462 120 172 5 29
346 595 345 71 24 37
329 64 261 115 33 47
243 550 302 148 5 42
327 893 357 49 45 44
289 379 280 91 69 55
367 482 175 141 97 75
338 159 256 119 92 62
270 324 298 118 87 59
333 53 261 112 42 50
396 484 231 139 5 29
334 60 261 115 45 49
381 831 338 78 61 51
344 49 257 100 25 37
318 853 381 69 63 60
240 924 348 58 53 54
319 178 321 100 83 65
389 724 298 67 20 28
360 509 172 155 111 82
270 420 204 93 33 30
339 54 260 110 31 43
341 64 260 108 42 49
360 444 211 53 37 29
253 904 272 88 77 71
347 51 256 98 18 31
349 54 256 95 30 37
342 58 320 94 68 47
242 867 303 133 101 78
391 484 226 118 9 30
262 560 350 77 20 33
324 33 304 117 21 38
330 36 306 107 16 38
327 290 315 126 102 76
324 49 311 112 17 37
330 407 216 101 88 74
329 44 309 109 79 58
325 47 310 106 20 37
389 819 213 202 135 104
321 324 243 108 87 64
304 269 215 137 103 65
334 34 308 101 41 44
299 289 219 137 104 69
334 39 309 106 37 44
438 714 288 75 56 43
331 46 311 100 73 48
314 369 283 91 66 48
244 664 328 137 99 72
377 534 348 151 18 48
349 459 160 114 75 55
324 799 343 52 42 36
339 609 343 115 40 52
332 43 310 106 89 68
336 40 311 100 32 37
391 448 350 153 5 45
277 862 369 42 38 36
362 543 175 143 104 69
311 454 138 57 32 32
309 454 372 43 28 30
318 434 148 54 32 34
358 64 339 100 51 45
335 44 312 101 64 51
325 62 315 109 81 57
244 538 283 68 22 33
322 61 316 105 58 44
272 427 255 82 63 47
329 63 315 105 72 52
327 110 355 113 90 67
337 34 314 107 26 37
359 51 354 84 73 63
399 727 304 40 33 26
339 34 318 90 42 38
262 418 291 82 66 49
338 39 313 99 23 33
426 469 235 82 17 32
305 284 265 129 91 68
338 44 314 103 24 35
261 937 265 70 65 67
337 49 315 113 21 36
254 749 362 160 119 90
279 950 267 84 80 84
348 394 234 105 92 80
342 45 320 83 72 58
362 61 344 95 26 30
291 508 185 87 23 34
337 54 315 99 24 30
337 59 315 103 19 32
424 734 308 56 44 35
334 65 316 108 29 31
278 764 272 80 62 54
354 64 258 102 49 47
256 459 256 136 8 47
287 654 262 71 26 34
322 273 229 134 97 69
369 61 256 94 37 37
340 551 171 194 9 39
319 289 238 127 91 65
342 147 351 129 99 65
295 189 333 115 94 72
303 288 220 151 108 78
317 802 351 42 35 32
392 604 283 155 16 49
289 249 258 117 94 68
365 44 363 91 33 35
272 872 351 48 40 38
339 109 333 125 94 67
252 562 280 29 27 26
369 64 258 109 25 42
307 436 152 121 12 33
300 364 282 95 70 50
373 61 256 81 26 29
313 374 351 126 98 66
363 434 215 73 34 32
309 444 367 70 26 32
365 854 339 53 43 38
299 233 311 99 83 65
378 65 256 98 25 36
257 561 301 94 27 47
324 13 323 89 71 58
329 15 328 88 72 59
357 887 311 53 44 44
313 244 266 131 98 71
276 589 356 73 21 33
249 828 333 169 105 82
328 16 333 87 74 63
246 526 282 128 1 36
332 16 326 89 71 57
278 409 227 208 160 177
323 59 354 108 22 40
336 24 328 87 41 39
331 17 329 87 73 60
335 24 333 90 78 65
252 749 303 87 42 43
237 768 316 149 108 73
400 736 321 57 44 32
263 569 349 163 10 51
327 16 337 88 75 64
325 904 348 45 40 40
328 20 342 92 80 68
400 569 242 151 14 36
306 233 361 124 94 65
359 84 348 136 17 44
325 23 345 96 82 68
246 606 311 119 70 59
324 29 349 90 71 56
363 818 332 46 39 35
398 774 199 160 111 80
323 31 351 73 38 33
377 848 275 72 60 55
341 402 226 106 91 76
297 709 241 144 8 45
278 414 254 134 95 80
228 529 254 144 113 85
348 64 329 104 71 59
335 369 237 95 83 72
327 26 346 98 84 70
379 864 308 66 55 49
239 943 323 72 66 65
331 22 339 93 76 64
332 21 336 91 80 68
389 724 197 123 92 57
385 479 383 59 28 33
335 28 338 94 83 72
272 393 286 88 63 42
332 25 342 88 74 62
334 29 343 87 75 63
339 459 158 65 33 31
332 31 346 95 82 70
299 224 259 118 94 69
336 24 323 96 24 37
336 28 323 69 39 33
386 806 196 170 117 85
344 534 168 102 26 36
235 679 304 167 114 81
337 30 337 96 86 76
299 950 266 94 90 95
312 561 216 86 35 35
343 74 323 117 52 51
386 826 333 80 63 55
324 34 353 80 33 33
395 809 349 78 64 56
315 290 254 136 93 76
330 33 349 97 84 72
369 554 353 100 32 44
326 32 350 96 84 70
340 47 359 89 79 69
403 419 216 138 15 40
310 885 375 58 53 51
258 529 359 147 15 49
389 544 223 121 19 35
343 99 328 122 30 42
415 801 316 83 68 57
422 409 336 85 24 33
329 35 352 92 74 61
338 822 386 69 55 47
335 33 344 90 78 67
327 877 371 62 51 43
303 429 168 132 4 35
260 846 316 112 50 54
334 39 353 99 87 75
411 721 307 50 39 30
340 34 323 78 38 36
319 274 257 140 100 80
313 344 225 101 86 70
344 709 213 119 13 27
342 36 328 85 25 30
302 214 355 114 92 69
329 164 358 120 93 61
284 898 372 65 58 54
341 39 321 97 34 37
342 36 324 92 31 37
348 45 338 72 44 32
343 39 333 79 29 32
341 42 321 81 58 48
349 49 333 90 30 35
325 671 225 68 31 30
339 34 338 94 84 73
338 35 342 92 82 71
323 808 342 51 42 37
233 724 338 158 109 81
340 38 343 92 82 72
332 858 224 86 68 56
344 40 338 80 64 53
337 219 325 121 97 70
337 36 346 94 80 69
301 458 180 131 10 33
409 549 254 51 26 30
268 384 253 142 101 84
348 734 212 114 25 33
339 39 348 91 79 67
338 40 352 93 82 71
342 41 347 88 78 68
256 758 293 68 57 52
344 43 348 85 76 67
304 864 238 63 58 56
313 464 138 73 26 33
387 434 357 147 12 46
339 43 354 90 80 70
265 444 358 105 14 36
303 359 283 94 69 51
364 434 383 55 26 30
341 42 350 86 76 67
344 45 353 84 75 67
346 42 338 76 53 45
239 549 239 198 128 100
369 79 363 135 14 50
329 779 227 89 70 61
393 604 248 59 28 35
345 42 343 89 80 70
347 46 351 84 75 67
408 764 228 139 98 71
249 824 323 166 108 83
356 85 346 117 35 45
261 841 285 112 95 77
292 561 231 144 0 39
350 48 348 84 75 66
340 813 329 29 27 27
278 564 243 148 0 36
333 74 364 102 58 57
346 54 326 101 41 40
425 749 304 57 45 35
391 616 262 43 30 38
346 59 326 109 25 35
263 955 298 73 67 68
395 514 232 58 32 36
414 484 244 125 13 39
329 529 158 123 22 42
348 59 328 107 36 39
323 38 355 87 27 36
260 684 288 99 23 34
328 369 318 98 81 62
339 814 406 87 67 53
329 38 355 88 61 50
295 229 352 117 94 69
329 40 356 79 36 32
393 819 228 184 123 94
321 44 356 77 38 35
324 49 358 102 33 41
308 380 215 91 82 74
354 64 376 99 37 42
398 509 234 133 10 30
394 819 278 69 54 49
291 235 314 100 83 65
329 44 359 83 28 32
223 534 238 195 130 99
323 389 347 118 93 66
333 41 356 95 85 75
294 274 217 131 99 62
241 890 322 143 113 87
331 46 361 83 29 32
263 349 259 138 96 80
333 46 361 80 27 30
280 479 189 63 34 36
314 359 278 105 76 59
276 644 279 71 33 40
322 50 355 99 51 50
296 190 330 116 96 76
413 707 283 46 37 29
419 434 208 133 22 38
344 759 212 121 92 60
327 54 360 109 17 40
335 179 327 114 92 68
344 69 259 118 91 77
364 454 183 73 58 46
325 59 357 111 19 40
282 259 333 124 96 64
241 548 303 139 9 42
326 63 356 115 73 68
335 59 367 92 44 44
385 454 368 104 20 39
266 957 317 59 55 56
322 89 354 105 36 42
396 810 228 133 88 65
332 64 364 108 70 62
410 480 307 122 17 38
404 524 237 152 12 35
283 389 222 79 69 58
404 474 342 60 28 31
335 64 368 105 77 65
336 422 196 64 36 37
252 888 353 44 41 41
397 705 244 81 33 35
339 45 357 91 81 71
336 47 360 72 57 37
310 189 357 112 91 68
346 47 354 85 76 68
339 444 167 55 38 29
299 334 220 131 101 66
324 94 324 101 74 54
294 264 353 131 98 71
349 49 358 83 74 65
352 430 205 58 36 36
412 504 314 152 18 47
407 783 225 173 117 85
339 52 365 74 34 29
302 808 271 135 94 71
378 832 234 91 67 62
344 50 363 89 78 68
257 561 340 152 5 43
334 189 259 116 91 62
316 936 261 77 70 73
347 814 216 199 150 118
344 54 368 69 41 31
354 111 358 135 50 58
349 50 363 86 77 68
342 928 298 57 50 47
349 52 365 91 82 72
274 399 283 82 55 38
334 774 218 58 51 51
294 535 380 58 28 34
247 941 281 80 75 74
349 53 368 77 61 48
337 64 370 96 54 48
340 60 371 91 29 35
400 729 224 123 90 69
394 401 278 126 19 39
345 56 371 77 33 29
302 330 346 129 100 68
246 774 310 144 106 68
330 930 272 70 63 65
333 873 229 67 59 58
433 696 289 57 43 32
344 64 374 101 32 41
382 804 381 81 65 53
323 491 136 66 29 31
349 56 371 71 30 24
284 943 342 71 64 62
374 509 377 189 7 60
319 438 118 83 36 30
304 314 222 123 97 65
349 65 376 104 37 43
294 314 220 132 101 67
275 259 229 116 95 70
364 19 359 86 35 36
271 460 371 112 23 43
359 429 373 89 17 31
290 259 262 118 92 66
364 29 360 89 33 37
299 174 338 111 91 70
353 55 334 89 32 34
352 64 335 115 28 39
287 649 262 124 18 36
209 515 197 137 74 70
358 55 343 58 34 24
412 434 290 60 28 29
354 50 348 83 74 64
309 473 380 56 27 29
294 874 378 56 50 48
337 182 351 132 98 65
327 289 323 129 101 73
275 704 341 144 26 49
292 203 334 117 95 72
345 397 293 67 58 48
334 405 219 99 86 74
360 53 352 82 70 59
457 702 300 101 73 53
261 406 336 122 96 69
355 64 337 93 60 50
255 589 308 38 30 32
294 509 184 139 8 36
360 59 343 83 29 31
394 484 344 46 28 31
266 313 225 129 97 60
339 69 372 110 26 43
408 494 288 154 14 44
294 344 347 124 97 69
364 401 303 70 60 51
263 610 277 122 28 44
344 94 328 113 48 47
372 545 193 145 109 83
331 264 333 139 105 75
244 869 283 127 104 80
361 64 341 108 35 38
331 931 320 49 44 41
289 264 219 130 99 63
247 524 293 149 1 41
365 499 178 148 106 80
377 758 315 49 37 30
363 64 344 120 29 40
363 59 348 86 28 23
354 459 388 113 6 34
255 694 283 120 14 37
247 729 302 135 63 54
335 880 349 54 48 47
296 845 369 41 34 31
279 264 223 122 97 66
358 48 363 79 62 52
360 44 363 83 46 41
284 854 328 101 80 61
364 34 360 90 33 37
249 899 358 51 46 46
324 84 323 104 26 37
364 34 363 89 33 37
412 509 318 168 19 49
361 37 360 87 33 36
361 39 362 87 33 36
341 115 341 121 96 66
294 439 183 119 16 31
348 848 249 61 51 44
204 519 208 188 124 105
363 39 360 89 34 37
344 399 232 104 91 79
338 194 333 122 98 70
349 69 258 112 33 45
359 724 328 68 28 36
278 314 221 131 100 63
249 574 333 76 24 37
297 411 371 123 15 40
342 754 341 157 16 51
304 354 280 99 70 54
361 45 360 83 54 44
354 49 358 82 72 62
279 334 272 117 83 64
379 419 393 64 28 28
267 536 365 40 28 31
354 50 363 80 70 59
339 828 382 63 50 42
369 499 188 153 110 90
355 444 208 46 34 32
355 51 367 79 63 52
308 204 260 112 91 68
279 279 222 121 95 64
284 415 208 101 78 79
339 104 257 134 94 78
398 769 199 158 109 78
319 329 233 104 87 69
354 53 369 80 60 49
365 53 357 75 43 34
321 279 232 129 92 63
384 459 397 67 28 35
288 279 344 130 99 70
367 50 366 101 32 39
348 838 345 35 31 29
259 594 339 94 16 35
409 429 288 46 32 33
368 54 363 99 26 36
289 714 249 118 22 42
364 54 369 89 28 33
338 134 334 112 90 64
367 54 367 99 30 38
262 426 256 93 69 54
404 409 268 144 14 43
367 60 354 84 34 28
359 53 370 82 36 32
249 649 289 156 106 81
384 539 219 78 31 37
359 55 371 82 36 31
373 83 256 127 1 45
306 820 396 68 55 45
354 59 374 82 33 31
301 199 351 113 92 70
363 60 371 83 28 30
369 64 368 98 35 40
316 314 301 87 71 53
297 635 251 91 27 34
317 396 210 92 82 72
370 64 358 100 33 36
261 415 247 89 66 46
343 375 244 90 80 70
249 545 274 88 8 31
306 612 235 148 36 48
369 59 363 102 27 38
329 69 260 115 91 72
339 214 333 124 99 69
389 614 248 41 32 35
321 73 256 116 15 42
324 74 257 116 31 47
435 444 212 164 16 39
284 484 187 71 34 34
324 79 256 113 41 51
349 604 338 65 28 35
276 339 285 102 70 38
331 68 261 105 78 63
324 850 218 114 87 68
334 69 261 111 40 48
330 475 382 49 25 26
271 792 290 71 60 58
332 70 260 108 69 59
333 75 260 122 32 47
302 824 388 62 49 39
254 939 272 69 65 67
300 215 315 98 82 64
229 634 298 149 106 77
406 477 250 153 6 49
334 73 261 120 29 46
264 823 351 155 105 83
340 368 263 103 85 65
329 84 257 103 49 50
334 84 259 112 24 43
410 459 224 99 28 39
386 692 295 66 24 28
304 684 349 45 28 30
275 259 248 112 91 69
416 474 312 64 30 35
314 719 354 64 29 35
334 89 259 101 68 54
337 794 222 63 55 55
288 389 217 81 71 61
300 194 348 112 91 68
334 94 259 113 69 58
341 765 340 78 58 50
339 69 261 108 52 52
339 79 259 115 80 67
359 104 256 109 30 44
309 249 307 99 81 61
239 599 302 126 96 69
243 693 340 136 99 72
450 696 303 77 60 45
344 79 259 112 54 54
330 84 362 108 31 44
381 746 316 50 36 26
349 74 258 117 32 46
256 524 357 159 7 50
342 390 281 75 64 54
372 797 320 46 38 35
329 144 327 108 87 62
369 594 182 145 105 64
344 84 259 123 17 45
232 804 333 179 127 100
387 639 210 151 110 77
344 89 259 112 23 41
261 459 268 115 8 36
283 654 267 41 34 39
271 338 225 125 97 62
344 94 259 110 40 45
342 144 340 126 100 72
348 600 202 103 47 48
349 84 258 109 36 45
384 609 208 146 108 75
299 239 310 99 83 65
409 494 283 140 19 44
320 850 254 96 81 66
324 69 319 106 53 47
394 584 298 183 10 56
359 94 256 110 37 47
329 69 317 109 32 31
324 544 178 164 3 40
291 234 347 117 94 67
278 299 328 125 96 65
265 349 229 141 101 68
325 69 352 112 91 71
355 545 365 117 24 41
325 74 319 98 76 53
299 329 220 131 101 67
329 74 318 108 34 34
327 425 190 47 40 42
394 809 213 185 126 93
387 686 245 63 29 32
294 539 208 79 33 38
329 79 319 104 48 45
334 69 317 105 53 42
235 814 338 196 134 110
250 947 298 70 65 65
389 494 344 166 17 51
370 74 368 119 30 47
410 794 326 86 72 60
450 696 299 86 66 47
339 69 319 108 81 61
405 469 293 64 31 35
338 79 320 109 30 33
349 74 333 120 32 44
312 411 361 96 42 32
309 844 353 31 30 30
316 319 340 133 97 72
341 110 337 133 100 73
326 97 256 108 34 43
331 102 256 131 95 76
417 464 331 46 28 33
276 861 364 40 36 36
378 669 302 89 18 34
314 364 222 94 82 69
416 771 256 100 73 59
339 99 259 125 23 48
344 99 259 118 22 43
309 413 198 88 77 66
349 99 258 110 49 49
328 349 238 97 84 70
354 74 257 114 73 66
285 664 264 83 22 32
359 79 257 113 40 49
232 734 323 164 109 80
379 854 283 70 58 53
339 494 153 103 51 49
276 410 362 110 20 39
364 79 258 114 37 49
299 339 279 92 69 51
273 961 277 89 87 90
380 840 273 67 54 51
319 244 358 139 97 68
369 74 259 129 21 49
329 370 229 94 83 73
364 84 257 117 28 48
324 119 354 112 90 67
369 87 256 129 13 47
422 424 322 156 11 46
374 74 258 124 11 46
399 403 318 87 26 36
374 79 257 127 5 47
400 569 283 126 30 48
299 274 352 145 103 78
257 540 268 77 18 27
378 69 257 116 19 44
408 419 237 131 11 41
299 444 178 67 28 32
359 107 256 114 44 51
327 66 355 115 92 76
406 515 330 176 12 55
322 66 321 108 76 60
351 739 208 115 60 43
309 254 267 131 100 72
336 798 225 72 62 57
378 574 198 137 105 72
266 363 230 143 102 72
384 619 218 150 108 81
323 79 323 98 57 45
233 679 313 158 109 80
309 569 218 59 33 38
322 81 326 107 27 38
229 584 268 168 119 81
280 359 273 119 83 67
326 82 320 101 22 27
301 181 325 105 88 71
329 83 320 104 74 53
329 85 321 102 78 56
350 832 331 35 32 34
330 259 248 138 97 73
334 83 320 102 71 50
294 419 188 106 38 35
350 694 213 59 44 39
334 94 322 109 33 34
314 433 133 78 54 37
341 796 330 46 37 32
306 149 342 113 92 69
279 474 378 133 16 42
341 65 321 100 51 43
304 264 214 133 102 64
343 69 323 113 43 43
367 497 180 152 107 81
304 249 307 98 81 63
345 79 328 108 75 59
308 893 371 59 53 52
347 74 330 111 89 73
408 707 265 51 42 36
282 505 191 137 18 41
351 76 336 119 54 50
351 80 337 126 28 44
339 89 322 103 61 47
269 861 336 103 80 59
344 89 328 107 62 52
338 179 343 128 99 65
339 94 323 107 52 41
269 489 373 45 29 31
258 589 276 59 32 37
358 99 353 127 18 41
397 817 306 51 41 36
334 169 258 119 93 64
311 308 264 118 89 61
297 714 242 125 12 38
342 94 325 109 78 58
241 749 310 157 111 78
302 656 346 128 25 42
368 402 234 97 65 61
321 265 260 135 100 78
294 804 357 90 66 52
279 415 213 142 111 118
345 84 328 113 30 39
340 164 348 127 97 64
279 289 267 109 88 65
249 939 338 63 58 58
331 432 186 67 33 37
264 817 356 168 118 93
347 84 333 117 36 41
319 294 303 101 83 65
294 934 349 63 60 60
346 89 332 116 38 42
339 677 221 42 36 37
284 359 217 121 95 64
350 84 338 112 70 55
391 454 382 89 27 37
319 827 337 30 27 27
299 289 295 90 74 56
351 90 341 135 22 46
267 363 325 120 94 66
318 924 254 80 72 74
350 95 342 113 66 56
272 542 235 68 32 42
327 69 355 107 87 71
326 75 356 90 30 36
289 299 273 106 85 63
321 372 221 93 81 69
328 74 358 100 25 38
295 224 314 99 82 63
314 825 374 83 65 57
274 719 254 83 28 37
326 79 357 98 21 36
327 79 359 91 33 37
330 69 362 95 21 36
335 69 368 99 24 39
329 124 327 110 87 59
333 79 365 99 32 38
384 819 203 193 128 99
335 79 367 103 27 40
325 84 358 105 26 40
404 444 343 138 9 43
309 199 358 115 92 67
356 397 275 74 65 57
389 824 233 177 119 92
328 89 359 98 62 52
322 210 315 100 84 65
327 294 326 129 100 71
329 659 228 50 33 36
324 94 357 105 48 49
250 533 243 95 17 35
324 164 257 111 89 66
364 459 398 83 19 31
324 784 347 70 55 46
409 733 320 73 54 40
330 89 362 108 43 49
314 479 382 77 27 33
231 764 333 160 112 79
343 857 235 73 60 60
214 529 223 199 133 107
306 449 170 110 28 43
330 94 361 105 67 58
284 319 220 138 105 67
337 69 370 101 22 40
241 518 308 174 1 44
286 224 328 118 96 72
274 744 263 81 60 55
272 531 370 105 18 42
279 369 343 126 99 71
339 74 372 116 36 51
273 494 203 44 35 38
340 79 372 112 24 43
249 694 344 139 105 76
344 79 374 120 17 45
392 612 276 55 30 38
345 69 376 117 35 49
233 593 294 134 102 73
264 879 338 119 85 73
346 66 376 108 34 44
406 402 222 125 24 22
347 76 375 126 25 50
299 374 353 129 100 71
254 729 357 155 117 89
395 809 243 166 112 87
280 399 351 121 95 70
241 799 315 151 112 77
349 74 376 124 24 49
284 349 343 124 97 70
350 77 376 132 22 51
339 84 369 99 63 55
344 84 373 125 24 49
342 94 370 117 25 46
349 84 374 134 21 52
338 105 363 104 73 59
372 433 394 111 7 32
274 444 194 111 19 29
349 94 372 128 20 49
324 934 328 55 52 54
352 685 331 145 14 49
322 99 326 105 85 62
309 476 381 57 30 34
254 789 362 171 119 92
322 104 326 103 83 59
301 250 266 123 93 69
257 577 340 120 8 34
337 223 342 131 100 67
329 99 324 106 84 57
257 740 271 167 2 48
329 104 325 110 85 58
336 432 191 46 39 35
311 453 134 67 31 29
394 810 364 76 60 46
325 108 325 105 84 58
328 618 346 49 27 32
329 108 325 112 87 57
296 598 235 32 35 35
334 99 324 116 81 59
327 927 265 80 72 74
427 736 260 80 60 51
335 104 327 120 91 66
332 107 325 116 91 64
243 759 312 148 108 71
327 782 346 71 55 46
321 109 351 115 94 73
336 866 360 57 49 47
278 384 281 89 59 37
304 194 353 113 93 71
324 114 326 103 82 58
324 119 327 102 81 57
235 789 318 162 117 82
329 119 327 109 86 59
243 613 310 125 91 66
328 274 333 140 103 75
324 124 327 103 82 58
406 454 245 129 16 42
355 821 335 41 37 35
283 805 286 88 64 54
299 899 237 78 68 67
324 129 327 103 83 59
317 304 239 132 97 73
392 519 229 80 28 37
318 219 361 128 98 62
294 329 278 87 67 49
349 399 308 64 55 46
334 114 328 116 91 63
433 410 222 48 28 33
334 119 329 115 90 63
231 789 328 172 120 89
314 834 258 113 93 74
268 320 226 130 98 60
333 124 329 116 92 65
299 504 388 156 16 49
323 214 315 100 83 64
325 354 308 92 76 58
333 129 330 115 91 64
335 129 332 113 89 61
274 890 255 139 106 73
358 709 197 144 101 64
339 98 324 118 45 45
301 469 180 127 8 29
311 224 266 124 97 70
335 575 360 104 31 46
336 101 326 121 90 66
258 445 200 82 30 34
299 966 292 71 69 70
272 736 261 173 2 47
339 100 327 129 82 70
372 401 301 71 62 52
265 349 262 134 94 78
364 803 378 68 55 44
321 279 255 139 98 78
253 863 276 131 108 85
311 439 119 80 32 32
338 103 329 129 94 73
342 97 325 115 23 34
270 464 195 126 2 28
381 485 384 61 31 36
340 105 332 130 94 71
291 869 373 46 41 40
409 723 308 49 38 29
345 99 333 125 34 43
334 403 222 98 86 75
256 420 295 84 52 36
279 549 238 140 2 35
337 108 330 122 93 68
270 519 218 68 29 39
264 428 243 81 36 33
345 104 338 139 93 74
403 813 303 65 50 42
343 108 339 135 100 74
346 422 206 72 42 41
310 150 329 101 84 67
404 764 320 69 53 42
345 110 342 126 93 69
237 909 324 169 130 109
346 99 336 125 54 49
224 527 210 193 126 100
352 888 321 50 45 44
399 403 273 128 16 39
255 914 264 65 61 62
348 103 339 128 54 53
350 99 343 112 62 49
389 419 403 102 16 36
239 623 275 177 122 87
350 104 343 129 45 51
348 108 344 133 91 72
370 524 369 147 20 48
337 139 356 126 96 63
320 304 303 98 81 63
346 111 346 120 89 65
351 111 353 125 85 68
338 119 333 117 90 63
279 415 218 136 110 117
338 129 334 112 89 61
343 114 343 116 90 61
382 633 292 161 7 50
343 119 343 119 93 64
303 724 228 165 8 47
294 289 218 129 99 65
340 124 337 118 93 65
334 854 318 34 31 31
327 349 323 110 88 64
343 124 343 121 96 67
356 429 211 44 38 41
340 129 337 118 93 65
281 286 300 94 77 57
261 333 230 132 97 63
228 569 263 158 113 79
342 129 340 120 96 67
349 889 323 43 39 38
343 129 343 122 97 69
241 803 351 171 120 95
346 114 347 112 85 57
336 736 345 121 42 51
416 764 248 100 73 56
347 113 349 113 84 58
316 309 237 124 94 66
347 118 353 113 84 55
234 679 318 149 104 74
277 847 276 103 88 72
345 124 348 115 90 61
378 689 307 98 18 36
345 124 353 125 91 60
464 755 284 98 85 75
344 129 348 115 90 60
322 99 354 113 63 58
324 104 354 119 96 72
374 739 312 95 22 36
326 103 356 122 94 72
329 109 356 113 87 65
394 800 358 80 67 56
294 374 215 101 85 68
429 434 204 177 17 40
304 294 347 137 101 73
330 99 362 108 31 43
331 194 321 108 88 67
289 929 253 85 78 79
331 102 362 103 57 50
427 413 295 142 16 40
333 99 364 108 37 44
333 609 347 47 27 31
392 424 378 58 28 33
336 103 366 105 26 40
334 109 357 111 83 64
438 429 208 164 17 42
367 564 180 140 101 66
327 114 355 111 89 65
272 442 365 104 23 39
329 114 356 112 88 64
327 117 355 113 91 68
329 119 356 111 89 65
323 129 354 112 90 67
348 820 217 191 140 112
326 124 356 112 90 65
246 547 295 128 1 35
238 774 354 170 120 92
329 124 357 110 89 65
390 704 229 107 83 59
325 129 356 111 90 66
240 634 317 141 106 76
289 704 347 152 17 49
273 510 212 115 5 34
329 129 357 112 90 65
274 349 333 128 102 73
314 589 223 163 1 36
334 119 357 108 87 62
391 554 228 38 33 37
334 124 357 115 92 67
331 891 345 49 42 39
264 439 353 46 30 32
284 449 378 67 30 32
434 749 288 80 62 47
334 129 357 117 93 65
289 279 267 116 91 66
259 294 233 109 88 63
338 105 359 108 83 64
259 324 259 116 85 64
257 658 295 139 92 70
277 610 262 38 32 36
339 109 359 110 83 62
334 374 278 97 79 59
344 110 360 126 89 71
287 766 266 77 61 52
341 107 362 112 80 64
344 109 363 116 79 66
278 679 340 49 26 30
374 758 191 125 94 55
348 408 224 105 91 77
341 107 366 108 66 57
309 600 360 117 35 50
286 231 336 116 92 65
297 873 248 53 50 52
266 367 230 144 103 70
350 111 359 121 84 71
408 509 308 153 16 44
248 579 323 63 27 34
289 416 198 112 45 38
328 394 343 107 85 61
333 749 347 152 22 50
349 109 368 123 39 53
269 754 274 91 69 62
344 99 371 118 17 44
231 654 307 146 105 75
288 219 333 115 93 70
346 102 371 120 20 45
273 354 333 128 101 72
301 820 265 145 115 86
349 102 371 125 23 47
339 114 358 110 86 60
334 379 233 91 81 71
339 129 357 127 94 65
354 484 397 99 26 40
407 474 341 60 31 31
241 575 256 186 120 92
386 659 263 145 15 43
343 124 356 134 93 67
342 128 356 134 96 71
337 932 285 79 72 72
348 113 357 134 93 73
266 351 316 116 93 66
294 324 220 134 104 69
341 828 355 37 33 32
308 883 376 62 57 54
352 69 335 132 28 43
355 69 337 120 38 44
308 294 294 91 72 50
376 430 396 87 15 32
358 69 340 92 52 44
321 290 340 142 105 80
360 69 342 113 33 40
421 525 236 174 20 42
306 429 158 116 14 33
264 344 229 138 101 65
264 884 372 52 47 45
353 79 339 126 35 48
356 75 341 121 79 72
459 757 287 102 80 61
357 72 340 135 19 44
364 519 178 134 102 73
385 484 373 72 31 36
359 74 343 133 26 45
270 359 294 106 81 53
259 429 288 89 28 35
265 734 265 162 1 41
358 78 344 110 51 50
385 800 375 83 68 56
347 843 239 89 75 63
269 439 198 44 37 40
338 884 343 49 43 40
316 323 232 109 89 67
314 499 391 160 19 52
363 69 344 132 23 43
318 154 354 108 89 67
284 339 342 124 96 70
252 526 223 81 27 33
284 684 343 43 26 28
369 69 353 136 22 45
361 75 346 145 16 44
337 218 256 129 101 73
246 529 299 137 0 38
364 74 348 145 16 45
413 474 308 56 27 33
367 72 350 145 15 44
368 74 353 144 17 45
379 784 188 141 100 59
352 82 340 120 37 45
357 82 345 124 23 48
314 204 316 98 82 65
286 294 341 128 98 70
357 94 350 118 22 37
346 895 324 42 38 37
308 454 153 38 32 32
291 276 300 94 77 59
366 80 356 150 15 47
387 407 345 61 24 26
368 79 358 142 12 46
321 393 222 96 85 73
302 484 181 78 29 33
254 679 338 140 106 77
406 789 233 173 115 87
354 69 377 112 32 45
280 420 195 118 25 21
294 329 345 126 98 70
354 80 375 139 18 53
354 74 376 127 19 48
429 796 331 97 79 64
284 933 351 74 69 68
274 854 328 113 85 63
306 706 225 127 5 38
281 489 190 86 29 37
354 78 376 134 21 51
359 74 376 125 19 47
363 444 389 39 28 26
361 67 375 101 26 38
236 927 316 99 77 68
364 69 374 104 28 39
319 859 379 57 52 51
319 459 118 180 8 39
331 821 374 50 41 34
330 485 391 69 20 30
362 70 376 110 23 41
327 354 328 114 91 64
365 74 374 119 20 44
258 421 236 56 32 29
270 789 290 72 61 58
254 828 328 147 93 72
338 189 343 121 95 62
367 78 371 118 25 50
334 189 323 113 92 70
362 77 376 124 2 43
232 744 328 163 112 80
358 438 379 106 14 35
379 674 198 138 98 62
360 94 358 130 12 44
273 259 238 111 92 72
261 410 295 103 80 56
362 83 354 149 15 47
392 695 259 76 29 33
327 359 323 108 86 63
334 454 369 81 18 29
349 784 203 152 118 84
337 164 334 118 94 65
361 89 358 135 11 45
276 319 289 99 72 46
304 839 260 113 92 72
367 82 359 144 12 47
333 409 342 71 59 47
348 588 346 183 13 58
425 448 210 176 16 42
400 544 323 135 27 50
382 624 297 169 4 56
299 394 212 85 76 67
364 89 363 139 18 49
348 754 336 153 11 47
311 710 215 140 0 39
320 474 128 166 4 38
319 169 358 113 91 66
323 334 333 123 96 66
334 159 257 120 95 68
367 83 363 139 9 49
347 888 327 53 47 46
293 857 338 34 30 30
366 86 362 140 12 48
444 776 306 101 79 63
304 154 338 112 92 69
366 85 369 136 24 55
299 279 267 131 97 69
364 89 368 141 24 56
362 92 368 126 42 52
278 344 221 123 96 63
279 869 267 122 98 72
354 84 374 142 16 54
329 169 258 118 94 68
354 89 373 136 7 49
261 340 230 139 102 68
299 254 306 100 83 65
359 89 372 136 18 53
363 88 371 134 25 55
313 878 376 63 57 56
369 79 368 124 23 49
371 69 363 118 21 43
231 590 291 139 104 76
274 599 258 76 29 38
361 453 194 83 56 49
291 447 185 85 22 26
