ply
format ascii 1.0
comment Created by Open3D
element vertex 2204
property double x
property double y
property double z
property uchar red
property uchar green
property uchar blue
end_header
338 950 285 54 46 42
386 762 247 78 63 56
319 246 273 97 77 55
282 222 288 133 101 66
278 211 310 129 102 74
302 426 332 104 20 37
279 216 310 133 103 75
309 496 142 81 28 35
334 936 310 57 49 46
279 221 310 135 105 76
318 571 328 160 117 85
284 211 316 122 98 72
284 216 316 123 98 72
260 413 264 71 61 53
286 216 318 120 96 71
221 540 231 132 8 42
261 770 242 69 58 54
384 686 245 120 12 37
303 370 265 81 68 55
289 216 319 119 95 70
342 401 323 157 109 87
371 429 128 86 36 32
284 221 316 124 99 72
388 707 264 138 10 43
353 471 100 105 12 33
289 221 320 119 95 69
403 470 221 47 21 24
285 226 285 132 102 67
289 226 280 130 101 64
345 791 276 56 46 45
285 231 286 134 102 67
294 201 320 120 96 71
285 766 210 145 14 44
288 236 285 134 101 66
286 235 287 135 100 68
284 412 195 93 80 67
289 241 285 134 100 66
280 226 300 137 102 69
238 516 311 66 26 33
282 226 290 133 101 67
281 226 295 132 99 66
283 231 290 135 101 67
281 230 296 134 99 67
282 228 293 132 98 66
330 486 130 67 27 37
413 826 98 100 78 56
316 296 245 117 94 70
331 452 326 72 32 38
293 761 330 168 117 85
282 231 294 134 99 67
359 591 265 140 4 43
366 301 252 124 90 59
300 417 328 111 41 40
281 231 300 137 101 69
285 236 290 136 100 68
308 376 321 127 99 71
258 414 266 67 53 46
392 459 248 101 2 27
370 351 305 152 98 78
366 284 252 129 98 65
287 238 288 136 101 65
282 233 298 137 101 69
339 401 325 156 110 84
391 466 225 99 20 35
281 234 302 137 100 69
281 235 305 137 100 71
344 351 326 141 105 72
283 241 300 137 100 70
282 237 305 138 101 72
327 869 167 115 91 74
283 241 305 139 101 71
251 726 280 111 19 42
332 800 159 64 54 51
280 226 310 134 101 74
387 446 210 65 30 32
253 626 285 83 34 41
373 616 260 106 31 42
281 229 313 134 101 75
285 381 280 102 84 64
284 231 315 131 100 73
329 491 135 43 32 36
357 382 207 104 90 77
375 476 134 62 34 35
370 427 283 97 13 32
282 232 311 134 100 74
286 225 318 123 98 70
283 431 168 95 30 31
289 226 320 122 97 70
322 811 170 52 46 44
359 628 183 67 30 35
289 231 319 125 98 71
369 326 299 108 81 54
356 352 322 146 103 74
281 234 308 135 100 71
299 976 265 76 72 73
337 532 318 156 120 96
282 236 310 136 100 73
367 326 235 127 99 68
283 241 310 139 102 74
361 888 220 63 54 54
357 321 281 102 77 53
339 841 275 58 46 36
318 576 328 160 115 84
285 241 315 134 100 75
332 950 298 59 53 50
292 831 228 65 53 51
289 241 319 127 98 71
213 526 245 90 28 39
324 781 300 89 69 57
287 247 294 129 96 65
368 276 245 128 98 63
285 246 300 135 98 69
267 446 178 64 37 40
288 251 295 128 94 64
337 408 177 101 87 74
286 249 297 130 94 66
287 252 300 132 95 66
286 251 305 140 100 72
324 411 329 144 106 75
389 431 289 163 21 53
247 613 287 90 32 35
285 246 310 140 101 75
317 198 292 102 84 65
286 246 314 139 102 77
366 343 317 151 102 78
379 420 124 126 27 30
306 759 318 45 35 34
287 246 316 136 103 77
261 834 315 189 121 97
286 251 310 141 101 76
406 813 125 74 57 47
286 254 306 141 101 73
288 256 310 143 102 77
389 467 148 112 27 40
384 426 289 137 20 45
294 196 277 124 97 66
254 951 315 52 49 50
319 391 329 136 104 76
367 337 250 118 92 59
392 456 205 51 28 30
292 196 278 126 98 65
389 425 145 74 31 28
382 671 185 101 81 60
292 199 278 126 98 64
366 512 138 72 33 38
297 409 322 122 97 70
334 411 326 155 110 82
390 576 240 173 125 97
303 351 310 119 94 67
340 271 263 99 83 66
387 559 213 38 24 26
291 202 277 126 98 65
294 206 277 121 95 63
326 449 132 72 35 39
332 702 318 39 27 28
305 196 280 118 92 58
253 741 336 160 112 88
392 810 153 72 54 41
425 423 180 77 32 38
245 801 300 179 126 95
299 206 276 119 93 62
294 211 277 124 96 63
398 423 143 67 27 25
284 756 210 148 2 40
294 216 277 127 98 63
267 914 327 167 136 114
324 960 251 86 79 80
276 810 237 85 67 58
361 466 118 139 14 45
294 221 276 129 100 65
330 338 212 96 84 73
299 211 276 121 94 62
226 560 235 88 25 39
337 524 285 170 113 93
299 216 276 124 95 61
394 855 220 78 62 59
362 400 263 129 88 66
304 211 276 120 92 57
299 221 275 126 96 61
360 551 144 47 35 38
359 391 265 132 88 69
328 237 323 115 93 67
304 221 275 121 92 56
350 271 310 113 93 71
256 620 299 45 28 31
305 200 278 121 93 57
310 200 283 116 94 68
313 736 183 131 16 39
332 242 286 103 84 64
287 563 158 138 43 58
306 206 278 121 93 56
289 411 320 109 86 63
254 626 250 187 1 51
389 596 236 173 122 89
314 201 285 108 89 69
227 571 255 125 30 47
284 411 205 90 78 65
312 202 282 115 93 67
337 242 301 109 90 70
336 447 321 51 28 30
251 891 281 158 117 96
386 590 203 61 40 35
338 391 328 150 106 80
315 205 284 104 86 67
278 706 343 164 115 86
378 466 258 134 22 46
247 806 285 157 112 83
257 879 306 139 102 83
339 441 80 86 35 37
317 203 287 103 86 68
318 207 286 102 85 67
310 211 278 120 93 58
314 211 280 113 91 65
366 490 259 37 24 24
348 666 284 141 11 45
314 216 280 114 90 60
318 212 282 99 82 64
320 211 285 100 84 67
373 417 201 107 91 75
312 222 277 116 88 55
319 221 280 98 81 64
409 886 280 136 126 122
294 196 320 120 97 72
217 557 205 116 25 44
297 552 148 68 35 38
376 429 182 63 27 28
316 194 294 100 83 65
294 840 284 70 53 45
284 871 320 111 75 71
316 200 288 104 87 69
318 197 295 98 81 63
332 481 130 57 30 33
323 286 225 117 93 66
247 807 290 175 124 92
318 201 290 103 85 67
229 536 186 91 21 37
394 422 144 77 29 25
247 808 295 179 125 95
320 201 295 100 83 64
314 471 139 120 19 33
395 692 172 105 84 61
319 196 300 105 87 67
330 942 239 78 71 71
308 937 228 86 81 84
247 808 300 183 127 99
299 966 305 63 58 57
321 200 300 104 86 66
323 291 256 114 88 67
312 340 278 89 74 56
320 206 290 103 85 66
318 196 310 110 90 69
233 541 184 126 18 38
247 807 311 178 124 94
320 200 310 110 91 70
293 256 321 136 103 78
264 526 161 132 3 28
296 781 326 161 121 86
312 197 318 112 93 72
316 200 317 111 92 72
247 806 315 177 123 93
319 201 315 111 92 72
314 206 320 115 94 71
324 761 176 87 31 37
248 806 320 179 125 96
317 203 318 111 91 69
320 205 316 112 92 71
374 417 270 58 44 31
319 211 319 112 91 69
295 231 277 129 98 63
294 236 279 130 100 64
396 436 240 134 15 42
269 871 265 122 98 72
374 471 130 48 35 37
304 372 255 79 66 54
296 236 277 131 100 64
324 266 327 128 100 65
376 851 238 71 57 60
299 226 275 129 98 62
378 411 216 146 115 87
301 501 147 131 5 30
302 564 322 91 61 51
246 954 294 72 67 71
304 226 274 124 94 58
296 240 277 131 99 63
375 510 254 39 21 29
252 725 326 157 112 87
396 766 160 55 43 36
304 241 275 122 93 59
411 761 183 162 113 78
293 371 305 117 93 67
295 245 281 126 97 63
291 244 282 130 100 64
324 656 189 121 16 32
290 506 152 121 12 26
371 422 123 127 28 31
399 836 231 93 75 63
302 822 214 84 67 58
294 409 212 87 75 64
293 247 284 126 97 63
322 598 163 121 21 33
313 386 327 129 100 72
340 711 315 144 6 45
291 249 287 127 97 63
296 543 327 35 26 29
299 251 281 118 91 60
289 412 230 75 64 54
311 351 318 126 98 72
305 250 277 112 86 55
307 213 323 124 100 74
397 435 241 130 15 41
303 252 279 113 87 57
353 270 212 107 83 55
368 486 131 112 21 35
306 812 302 68 54 46
304 256 279 110 85 55
246 605 240 196 1 53
297 252 283 119 92 62
292 879 215 37 35 38
309 231 275 118 89 54
309 236 275 115 87 53
361 773 132 54 47 43
348 627 288 90 26 35
329 391 190 98 86 73
335 428 115 104 38 39
323 281 250 121 95 72
316 224 278 108 86 60
349 246 260 104 82 55
314 331 280 94 76 56
319 231 276 97 80 62
388 556 245 182 132 105
379 441 126 96 25 37
376 470 263 95 26 35
309 251 276 102 78 49
340 571 286 72 25 34
402 617 201 116 93 65
314 246 274 99 75 45
395 671 213 117 73 57
352 500 112 166 1 35
374 406 215 128 105 81
252 915 255 50 48 50
364 898 314 66 57 50
300 418 161 105 76 62
363 292 306 94 80 65
319 256 273 96 76 53
389 746 260 107 22 43
291 255 291 128 95 64
406 805 217 145 105 79
290 246 320 132 101 75
247 603 224 203 9 56
290 251 319 136 104 78
294 206 321 120 96 70
404 756 170 126 89 61
299 196 320 123 100 75
304 201 321 123 100 74
294 221 322 116 93 68
342 257 301 110 91 69
330 516 130 90 15 31
350 476 99 110 24 41
304 216 323 125 100 74
402 535 181 187 16 50
327 213 313 112 92 70
300 221 323 118 95 68
304 221 323 122 98 72
399 436 136 169 14 40
309 206 321 121 97 71
309 216 323 124 100 73
374 819 125 97 73 59
314 211 321 117 95 71
362 656 192 47 35 37
314 221 323 121 97 70
356 828 279 44 34 25
316 219 322 117 95 70
369 423 150 73 46 42
429 883 278 103 86 74
319 221 322 116 94 69
334 445 82 70 38 38
294 476 336 110 26 42
253 556 317 171 14 54
296 227 323 117 94 68
352 774 143 59 49 44
374 481 270 158 100 92
230 546 187 139 8 39
295 231 323 119 95 68
284 726 341 170 114 85
292 241 322 124 97 70
394 422 131 167 21 32
295 241 323 122 97 70
299 231 323 115 92 67
304 226 324 118 94 68
358 511 125 121 16 40
299 236 324 117 94 68
249 596 200 135 24 46
249 611 295 73 30 37
299 241 325 119 95 69
292 246 322 128 100 73
404 656 215 179 124 100
295 246 324 127 101 73
372 429 128 87 35 33
293 251 321 133 102 77
295 251 323 131 101 74
384 844 255 62 51 45
329 404 178 99 85 71
299 246 325 123 98 71
343 901 220 87 73 71
304 256 327 125 98 70
329 962 265 83 79 81
309 236 326 122 98 71
377 421 122 128 28 32
309 241 326 124 99 71
396 488 158 178 13 43
318 276 235 129 102 73
314 226 324 124 99 71
363 301 265 130 96 65
334 419 134 108 80 59
314 231 325 124 100 72
309 531 141 68 30 35
259 416 215 74 51 45
319 231 324 119 95 68
364 916 315 76 63 55
258 832 310 206 138 109
294 666 339 164 115 86
314 236 326 125 101 74
314 241 326 127 103 75
260 820 334 192 137 113
319 236 325 123 99 72
302 626 338 163 115 82
350 461 94 94 22 36
312 346 235 118 93 70
265 640 294 93 22 39
309 246 327 125 100 71
299 577 329 133 105 82
329 556 142 51 30 36
339 291 214 99 82 63
308 256 327 124 97 68
397 583 229 152 114 79
311 253 328 125 99 70
310 257 328 125 99 69
242 607 259 195 0 53
314 246 327 127 102 74
359 521 130 144 17 43
319 246 327 124 99 69
329 391 329 145 107 77
314 250 327 127 101 72
319 251 327 126 100 70
396 503 163 176 13 46
384 423 285 53 29 27
320 255 327 127 100 69
279 676 340 151 107 79
368 261 225 121 95 64
314 256 328 127 101 71
260 676 260 79 29 40
318 256 328 128 101 70
340 433 87 101 85 67
326 507 137 149 0 33
233 566 220 104 21 41
322 213 287 102 85 66
323 216 286 102 85 67
349 211 256 104 83 60
335 251 259 106 88 69
339 241 259 101 84 65
349 216 256 103 83 60
302 877 323 161 126 98
349 221 256 103 82 59
232 577 244 92 29 41
332 478 98 119 11 28
289 851 240 145 102 79
321 200 305 108 89 70
418 476 171 174 17 44
332 446 106 59 30 36
410 791 130 76 59 45
322 207 295 103 85 66
405 746 170 122 89 61
392 423 245 67 56 44
323 206 300 106 88 68
226 554 213 80 23 40
313 850 215 50 43 42
322 202 309 109 90 70
371 482 133 128 18 43
323 206 310 109 90 70
321 204 312 112 92 72
367 351 258 127 91 61
349 227 258 102 81 57
402 828 182 122 83 61
354 741 172 68 33 32
392 451 230 127 14 42
278 395 295 110 88 64
322 208 292 103 86 67
339 671 295 141 7 45
343 367 202 92 82 71
255 821 329 185 126 99
325 216 290 105 87 68
325 211 300 106 88 67
354 886 301 39 35 34
412 454 217 62 25 29
329 961 285 70 64 62
398 597 211 123 99 72
326 215 299 106 87 68
266 642 317 139 109 83
327 222 291 107 89 68
395 695 212 123 81 58
328 221 295 105 87 66
251 731 270 152 2 43
354 510 304 175 113 103
392 887 298 67 56 49
340 791 151 68 56 51
324 211 315 112 92 71
259 646 275 167 2 47
321 210 317 113 92 70
325 216 316 112 91 69
304 766 317 93 74 59
413 475 161 167 17 46
323 216 319 111 91 69
373 681 260 48 27 32
286 736 207 66 31 39
230 576 275 132 21 46
324 221 320 113 93 71
295 426 328 60 26 28
331 561 310 159 104 81
326 220 317 114 93 71
246 575 308 170 13 53
378 471 280 163 103 96
331 528 277 61 24 32
327 222 318 114 93 70
380 536 168 48 30 34
335 231 258 101 81 59
381 486 246 37 25 30
329 311 328 142 106 81
361 474 302 134 92 83
303 291 315 148 103 81
335 236 258 103 85 65
294 696 335 174 118 92
336 241 258 104 87 70
373 381 226 106 87 67
323 226 281 95 79 62
325 226 285 101 84 67
272 634 313 121 89 67
299 407 195 96 84 71
246 954 292 74 68 69
319 526 315 83 38 40
326 230 283 98 81 62
322 232 277 95 79 62
365 295 310 104 86 68
327 236 282 95 78 59
264 541 164 161 4 38
329 236 285 102 83 62
421 428 190 57 26 23
402 638 187 105 87 68
318 311 230 108 90 69
335 246 258 106 88 69
360 451 110 148 1 36
332 255 257 103 85 66
326 245 278 94 77 57
312 292 283 95 73 48
327 248 277 93 77 58
328 281 218 136 103 72
324 256 274 93 76 59
407 835 205 81 62 52
370 476 290 157 111 100
344 907 318 42 38 37
327 251 277 92 76 57
257 720 313 128 96 70
274 410 245 88 75 64
323 266 245 126 98 74
328 256 276 92 76 59
331 245 283 94 77 59
383 425 127 107 27 41
360 386 295 129 90 66
334 246 285 100 82 62
317 320 228 109 90 69
374 875 295 39 35 34
391 587 237 174 124 97
330 256 279 92 76 58
401 766 121 67 56 47
332 251 282 92 76 58
255 906 265 69 62 58
273 627 210 176 15 49
328 516 134 124 2 31
333 256 281 93 75 56
364 430 114 113 38 36
336 227 258 95 77 56
372 340 313 151 99 80
220 560 201 72 31 36
294 616 184 71 31 38
319 376 200 94 83 73
344 226 257 101 82 59
344 236 259 102 83 60
311 563 328 149 120 95
300 567 323 113 81 68
332 227 310 110 90 69
346 590 282 148 14 44
394 591 210 108 90 71
316 306 235 121 98 73
347 234 257 103 82 58
316 836 200 55 50 47
348 413 180 102 88 74
298 836 224 75 65 61
339 246 260 101 84 66
365 436 114 65 33 37
339 251 260 100 84 68
334 286 265 103 85 69
384 546 225 79 26 39
404 806 111 97 76 59
339 256 261 101 84 67
259 926 225 86 76 73
304 919 176 75 65 63
326 314 328 144 106 83
399 846 265 73 60 48
349 251 261 104 81 54
299 356 305 114 91 67
349 256 261 104 81 53
338 256 285 100 81 61
326 224 288 108 89 70
366 301 255 122 90 58
328 226 290 109 90 70
329 226 295 106 87 67
379 406 235 128 100 68
332 451 125 94 25 38
279 796 343 180 129 97
440 798 97 81 64 47
308 369 255 70 59 49
329 231 290 108 89 68
330 226 300 106 88 67
331 225 305 110 90 69
243 601 245 191 0 50
334 821 269 127 90 70
312 346 230 117 95 71
373 596 259 68 25 33
279 446 170 92 28 31
311 363 217 104 87 69
333 232 300 108 89 68
360 859 156 84 67 59
339 429 105 101 64 52
376 547 257 174 125 95
394 439 137 178 8 33
332 228 302 109 90 68
334 231 305 109 89 68
394 431 260 163 20 52
310 624 182 149 37 53
414 839 234 94 69 59
333 241 290 107 88 67
273 895 234 69 52 48
335 241 295 105 87 67
375 671 250 145 14 45
245 611 285 125 33 48
335 236 305 110 90 69
328 226 319 114 93 70
334 231 310 110 90 68
301 269 287 114 87 56
246 921 275 72 64 59
329 231 320 113 92 69
332 227 314 111 91 69
321 431 132 140 9 34
354 301 272 104 75 50
366 351 260 131 94 63
336 236 310 110 90 69
330 236 321 114 92 69
335 589 152 205 11 43
352 930 260 51 45 41
299 471 145 54 33 37
332 232 318 114 93 70
307 364 268 84 71 57
365 712 282 45 28 31
333 236 319 114 93 69
334 241 320 114 92 68
336 240 316 114 93 70
239 581 225 169 11 51
246 753 283 147 106 74
376 486 280 160 111 95
338 241 305 110 90 69
338 241 310 110 89 67
337 238 313 111 91 68
326 301 222 100 82 62
296 362 286 101 84 65
244 786 315 184 126 97
271 908 328 110 87 68
339 523 277 63 31 31
338 247 295 106 88 68
316 321 282 98 79 58
244 786 290 177 123 92
338 246 300 109 90 70
267 842 275 73 58 55
271 706 222 134 11 38
359 296 220 99 82 62
336 249 288 105 86 65
343 471 300 68 24 31
339 256 290 103 84 64
413 445 210 38 26 24
340 256 295 106 87 67
379 521 250 114 87 66
377 651 240 147 19 47
339 251 300 109 90 70
360 266 214 113 89 59
316 886 312 150 116 89
327 833 153 58 50 48
341 256 300 109 90 69
450 431 200 122 25 43
360 854 146 132 109 90
340 246 310 111 90 67
337 243 318 117 95 71
339 246 315 115 93 69
335 246 321 115 93 68
394 424 146 65 27 27
358 571 150 102 19 38
424 446 220 74 21 30
379 426 160 57 30 27
246 786 271 62 53 50
337 247 319 117 95 70
408 816 219 101 72 57
334 941 240 76 68 69
364 356 220 111 91 69
223 541 225 124 15 42
303 886 324 166 126 103
284 401 255 88 77 66
341 249 310 112 91 68
407 776 177 148 106 73
338 251 319 116 94 69
330 481 115 94 11 29
382 844 161 98 78 66
339 256 320 117 94 67
309 961 310 81 75 73
250 741 265 160 4 47
342 252 314 114 92 67
343 256 315 115 92 67
342 257 318 117 94 67
279 581 321 58 29 32
354 226 257 110 89 64
287 731 338 174 116 89
352 228 258 106 84 59
324 581 310 141 89 69
339 447 83 104 30 39
246 786 275 63 49 47
354 246 259 111 87 58
360 246 257 122 96 65
279 917 205 80 72 70
409 661 210 168 119 87
354 251 260 111 87 57
354 256 260 111 86 56
358 251 258 120 94 63
309 371 230 111 91 70
374 741 275 155 28 56
355 706 183 104 19 26
309 436 137 73 33 39
360 251 257 123 97 64
371 365 251 129 97 66
310 392 196 93 82 71
321 224 322 116 93 69
274 416 190 87 75 63
322 227 323 117 95 69
368 306 240 126 97 63
324 236 324 119 96 70
324 241 325 120 96 69
331 240 322 114 91 66
329 891 180 93 85 83
411 666 205 161 114 80
324 246 326 121 96 68
355 427 104 124 74 57
316 293 242 120 98 75
329 246 324 117 93 66
369 411 205 106 91 76
324 256 327 126 99 67
362 894 246 71 61 63
395 730 131 64 51 38
329 251 325 122 96 67
240 595 295 80 25 38
332 247 323 116 93 67
333 271 277 90 75 59
319 806 295 72 57 50
336 250 322 118 94 68
322 505 318 148 27 51
325 281 221 135 102 71
334 256 324 121 96 67
419 501 190 172 18 48
336 254 322 118 94 66
339 296 270 101 84 66
271 402 290 99 81 63
318 261 230 135 106 73
318 261 235 132 103 74
319 266 230 135 105 74
373 626 255 145 22 49
362 445 112 150 7 43
328 446 90 60 34 37
377 496 274 154 112 91
319 271 230 134 106 73
348 556 269 136 18 45
319 271 240 127 99 73
320 276 225 139 106 73
388 877 293 46 41 37
319 276 230 131 103 72
239 556 305 166 5 50
399 422 140 126 27 22
320 281 230 125 100 71
319 281 235 125 101 74
334 396 328 151 107 80
349 276 265 101 79 53
339 321 213 88 76 64
319 281 240 124 99 73
318 286 240 122 98 72
267 662 238 153 4 42
321 276 245 123 97 72
352 418 165 101 86 71
320 281 245 122 96 71
320 286 249 119 95 71
268 436 179 59 37 39
389 621 230 152 98 72
335 406 327 155 110 82
320 291 230 109 89 68
304 381 235 94 78 61
370 336 299 116 88 61
320 296 230 106 88 68
319 301 230 108 89 70
307 302 311 144 100 80
344 811 265 133 95 74
317 301 234 118 97 74
396 869 277 56 46 38
294 801 330 173 128 97
316 298 237 121 98 74
324 396 186 97 85 72
316 302 236 122 99 75
329 621 299 111 20 40
279 412 230 75 63 54
328 301 219 109 90 68
331 496 120 97 14 31
301 392 215 102 85 68
316 293 244 118 96 72
300 942 233 88 83 86
376 659 242 84 14 29
317 294 247 114 92 69
338 278 213 115 89 59
392 569 195 120 40 52
318 296 250 118 95 70
315 301 245 120 96 71
259 414 225 63 41 37
329 816 275 150 101 83
310 441 137 84 32 35
292 266 315 144 104 80
316 301 250 119 95 71
267 842 270 67 55 55
317 300 252 121 96 73
254 956 310 58 52 52
319 301 255 123 96 73
433 423 180 90 35 41
308 974 261 72 69 72
318 306 230 109 91 71
320 311 226 103 87 69
356 376 317 160 112 91
289 965 305 62 57 56
315 311 235 120 97 71
314 311 240 125 99 72
345 726 305 177 2 57
258 607 204 172 22 52
408 881 284 86 71 58
317 305 233 117 95 73
315 321 230 115 93 69
321 518 143 146 0 36
331 952 296 71 61 58
320 316 225 102 86 68
278 935 332 42 39 40
362 514 132 21 33 35
317 316 229 107 88 69
425 423 175 82 35 43
255 746 300 136 101 72
377 831 278 60 48 38
316 316 231 115 93 71
314 306 245 123 98 72
216 531 264 68 27 35
278 890 235 63 51 48
302 404 200 98 85 72
290 585 167 150 12 42
367 391 258 142 100 79
321 963 254 85 79 80
349 326 327 139 101 69
277 656 218 156 7 45
331 444 82 66 43 34
315 306 250 123 97 74
317 304 252 124 97 74
424 423 160 119 40 48
316 311 253 131 101 80
319 311 255 131 99 79
334 461 125 57 30 34
313 316 245 128 100 75
313 321 245 130 100 76
288 501 333 175 14 55
315 316 250 131 100 78
371 674 257 111 12 37
420 424 144 127 29 42
315 321 250 132 98 79
316 316 253 132 100 81
310 609 172 60 35 36
319 316 255 134 101 82
254 541 319 152 17 49
422 475 176 170 18 43
319 321 255 133 98 81
279 926 330 170 134 114
362 496 304 174 126 108
334 446 120 76 29 35
409 791 114 107 81 55
321 587 326 172 123 99
320 326 221 99 84 68
427 475 214 83 25 35
246 923 266 47 45 46
372 744 152 63 56 51
367 271 222 119 92 61
317 331 224 103 85 67
447 439 202 199 12 59
266 726 227 147 3 40
339 311 214 92 78 63
362 297 301 97 82 66
371 613 242 138 24 43
320 331 221 98 83 68
447 439 205 192 12 54
317 336 223 101 85 67
318 341 219 97 83 70
319 351 214 95 84 73
314 351 220 101 85 68
316 352 216 96 82 69
312 726 323 181 11 59
316 326 227 110 90 69
315 326 230 117 94 70
352 413 190 103 89 74
316 323 227 110 91 69
285 392 266 95 82 68
321 316 258 133 97 81
376 433 266 109 14 40
305 845 221 123 89 70
261 666 250 105 17 36
313 326 235 122 97 70
361 299 298 99 83 66
324 661 189 115 16 30
313 326 240 128 100 75
376 541 165 147 17 40
315 331 226 109 90 69
307 414 168 97 83 67
314 336 230 117 94 69
364 391 261 140 98 76
312 336 235 122 96 70
389 546 245 149 113 87
358 346 216 100 86 72
312 336 240 126 97 73
414 441 144 61 34 36
250 936 245 78 72 73
284 411 210 86 74 62
318 341 322 132 100 74
313 326 245 131 101 77
319 326 255 132 97 80
258 476 322 116 13 38
231 561 294 110 20 40
319 911 190 71 64 62
314 336 245 127 96 75
383 441 130 41 34 38
329 811 280 157 110 89
284 801 225 80 63 56
315 801 190 86 67 58
324 388 192 97 84 72
316 331 249 131 99 79
316 336 249 130 99 78
318 331 251 132 99 79
357 390 287 112 79 58
320 331 255 130 97 77
344 301 327 136 101 70
331 472 114 100 22 39
318 336 251 131 99 78
323 878 178 88 81 81
320 336 255 128 95 74
321 592 320 164 111 83
389 606 234 163 110 81
313 341 230 118 95 71
312 341 235 120 95 70
344 480 97 117 21 41
328 690 183 100 29 33
313 346 240 120 94 71
366 592 168 166 15 41
243 552 178 59 34 35
280 418 176 85 71 61
396 630 188 108 90 70
312 351 235 116 93 68
333 401 328 153 110 81
313 351 240 119 94 71
315 341 245 126 97 74
408 521 210 107 27 43
315 351 245 120 95 71
316 346 248 125 97 74
274 586 176 185 7 45
320 362 206 94 83 73
320 366 206 95 84 74
361 711 286 145 22 52
310 361 225 109 89 68
251 820 319 193 132 107
348 834 137 93 72 57
311 367 216 102 86 69
310 366 220 108 89 70
309 366 225 111 91 70
248 786 325 171 117 90
290 827 321 183 126 100
351 902 234 73 64 61
315 356 215 96 83 70
273 626 315 124 89 71
350 451 89 82 30 37
314 361 215 97 83 69
320 357 211 95 84 73
316 358 212 92 82 72
313 356 220 102 85 68
329 892 175 93 85 80
356 401 276 96 60 46
346 938 253 81 73 78
297 404 228 75 65 55
312 366 214 97 83 69
419 762 114 86 69 55
318 366 208 94 83 73
410 834 100 103 86 72
363 336 221 108 89 69
378 450 289 156 24 53
353 521 121 81 34 40
310 381 205 93 82 71
257 710 287 144 3 42
274 412 225 73 60 51
377 406 244 136 102 73
363 862 288 41 36 32
357 396 300 141 97 72
311 383 202 91 80 69
399 506 230 162 17 51
303 346 305 112 89 64
339 411 175 101 86 72
319 601 165 80 36 42
315 371 207 94 84 74
319 371 205 95 84 74
294 366 285 102 84 67
320 372 202 94 84 74
330 301 269 92 71 53
324 422 131 177 16 25
311 372 211 98 85 71
390 799 250 58 46 38
306 377 216 112 92 71
376 386 230 110 90 67
306 373 224 114 94 73
312 369 213 98 84 71
317 369 208 96 85 73
401 532 178 182 17 46
304 381 230 106 87 66
367 319 248 127 95 61
295 382 250 77 65 54
295 381 255 71 61 51
314 972 265 81 78 81
340 561 281 92 24 37
342 524 117 181 25 40
299 381 245 83 70 57
348 381 197 101 88 75
298 380 250 80 68 56
311 362 238 114 92 69
358 430 111 107 51 43
311 366 240 111 90 67
281 897 192 96 85 83
344 286 214 93 77 60
314 436 341 63 29 34
312 360 237 114 93 70
312 361 240 114 91 68
343 393 192 101 88 75
403 465 216 42 26 24
274 536 330 58 30 33
312 365 241 112 90 67
349 306 214 99 83 65
383 817 265 57 45 36
364 271 255 131 98 65
268 856 305 140 85 75
315 361 250 101 82 63
284 395 264 97 84 71
390 757 245 73 52 51
317 356 251 116 92 69
316 357 256 74 61 47
292 467 153 127 11 31
313 365 255 65 54 43
256 458 318 44 29 31
356 915 301 85 72 70
306 376 230 110 90 69
292 806 334 173 127 99
307 375 231 110 90 69
331 264 278 91 75 58
390 896 300 80 64 56
307 375 235 108 89 68
236 585 246 189 4 49
270 914 202 93 83 79
307 375 240 97 80 62
309 371 240 105 85 65
294 631 195 91 33 42
319 616 304 50 29 32
306 377 235 103 84 65
344 531 121 182 6 38
324 381 195 92 82 72
299 491 330 164 16 52
334 481 315 65 29 34
374 501 260 35 25 26
372 606 264 75 31 36
307 374 244 82 69 55
309 371 245 86 72 57
306 373 247 76 63 49
400 822 117 94 71 52
265 418 191 73 48 35
384 786 245 72 56 44
323 261 219 137 106 70
344 416 165 100 86 71
321 261 222 137 105 69
339 496 103 185 3 38
309 921 216 83 77 78
325 261 217 135 105 69
217 541 260 184 0 50
324 271 220 140 106 72
309 461 139 61 36 37
424 893 283 99 83 71
326 266 217 137 105 68
331 260 212 132 101 64
334 266 211 129 98 62
321 274 222 141 106 74
379 466 280 143 90 85
349 276 213 98 78 55
333 436 334 122 29 46
334 276 213 131 100 64
322 278 223 137 106 73
412 858 263 78 64 52
326 274 217 139 106 71
373 441 122 101 21 29
244 546 176 103 28 39
330 281 216 135 103 70
349 537 266 97 53 50
335 274 212 126 96 61
339 835 140 79 63 55
327 269 252 121 95 70
372 362 235 113 93 70
334 281 214 127 98 65
241 590 215 170 0 43
332 484 125 93 21 31
334 286 215 121 95 66
331 606 297 33 26 29
331 285 217 128 99 68
248 921 260 49 46 48
354 391 200 103 89 76
393 465 201 37 25 30
371 808 270 59 47 35
339 261 209 114 88 57
369 361 255 131 97 66
344 261 210 106 82 54
339 271 211 113 88 59
368 346 250 115 90 59
366 345 229 122 98 71
344 266 210 103 81 55
416 503 206 139 34 47
344 271 211 101 80 55
334 327 327 149 110 83
349 271 212 102 80 54
363 351 265 140 96 71
339 275 212 111 86 57
393 596 234 175 126 93
344 275 212 99 79 56
348 274 212 98 78 54
321 622 302 119 26 46
349 326 214 93 81 69
343 441 314 67 22 31
284 686 341 159 110 82
349 281 214 95 77 56
306 271 328 135 102 75
363 581 161 167 13 40
236 550 303 166 0 50
281 726 212 148 5 38
279 413 195 91 78 64
253 551 173 117 28 42
351 273 213 102 81 55
246 763 293 152 109 77
309 856 305 124 99 72
349 286 214 93 77 60
443 423 201 76 29 34
321 261 243 127 97 74
325 261 249 121 94 72
325 266 250 123 95 71
244 761 320 172 120 92
282 436 168 68 37 33
328 271 255 114 90 65
209 516 245 59 32 35
386 443 206 77 25 30
355 607 168 133 30 45
326 272 253 119 92 68
382 440 276 145 18 46
330 261 255 112 89 65
321 277 248 122 95 72
424 791 114 84 72 60
321 282 248 121 95 71
369 631 195 77 22 29
303 291 300 132 95 71
384 419 130 147 21 27
327 281 256 119 91 68
334 441 81 80 41 41
322 286 251 119 94 71
325 286 255 117 90 68
364 741 176 65 38 41
329 291 220 118 94 67
363 546 146 37 36 38
370 651 199 76 37 37
326 291 222 113 89 61
324 296 225 102 84 64
358 889 216 71 59 58
329 296 220 109 89 66
419 491 215 149 22 53
368 511 284 168 113 93
326 296 222 103 83 61
253 526 321 43 25 30
324 301 225 100 83 65
382 422 264 122 22 45
254 601 200 93 34 42
334 291 216 112 89 64
220 551 255 84 25 38
334 301 215 107 88 68
220 531 214 160 2 47
404 851 188 96 74 60
314 891 176 91 80 73
331 301 217 111 92 69
325 311 221 98 83 66
371 495 264 31 25 28
373 496 265 47 30 32
339 856 281 43 36 31
299 881 326 161 126 99
241 571 303 164 9 50
409 831 110 87 70 53
256 718 288 148 0 46
379 521 260 181 133 109
274 412 220 77 64 55
368 281 240 123 95 62
322 311 224 100 84 69
324 316 220 99 83 66
282 480 163 120 11 28
322 315 223 100 84 68
414 839 230 90 68 53
321 318 222 99 84 67
324 321 219 98 83 67
330 316 217 101 84 65
329 321 216 98 83 66
334 306 215 104 86 65
381 488 153 164 3 45
284 965 305 61 56 55
334 311 215 99 82 64
344 432 90 104 88 69
330 311 217 103 85 66
348 401 319 161 114 91
271 852 281 109 90 71
257 449 183 97 27 24
357 569 147 118 23 39
361 410 266 112 76 60
364 381 215 105 90 74
334 316 215 96 81 64
398 811 230 76 57 46
407 494 228 163 24 56
419 810 120 90 72 58
334 321 215 93 79 64
349 291 214 93 78 63
273 631 215 91 29 43
393 776 230 87 65 55
339 306 214 96 80 64
412 731 203 168 113 82
344 306 214 94 79 65
366 419 193 104 85 69
254 521 166 142 3 32
249 576 185 78 33 40
339 316 214 89 77 64
344 316 214 92 78 63
369 456 270 132 17 45
349 321 214 95 81 67
321 292 253 115 91 67
323 296 256 115 88 67
321 306 227 105 87 69
413 791 115 86 70 55
358 261 212 113 89 59
389 632 227 142 89 66
357 266 212 113 88 58
363 261 216 113 89 62
403 751 165 104 78 55
324 436 340 72 30 35
394 812 250 63 49 38
366 261 219 113 89 62
367 261 221 116 92 62
319 422 132 170 7 27
293 380 269 88 75 64
304 916 175 73 63 61
362 271 217 113 89 61
352 672 283 139 7 46
365 271 220 114 90 60
334 498 313 67 29 31
269 408 300 67 62 53
367 266 221 118 92 62
368 266 225 123 96 62
312 409 178 99 85 70
299 631 191 161 19 45
368 271 225 125 97 63
243 776 295 161 113 81
354 276 214 104 82 56
365 531 144 85 32 38
358 281 216 107 84 57
294 954 237 94 89 93
366 291 256 121 94 60
364 276 220 114 89 60
269 927 219 80 70 69
357 677 278 83 16 30
361 277 218 113 89 61
265 840 295 52 42 45
361 281 218 109 86 58
308 964 246 86 82 86
378 471 275 172 115 108
355 381 205 101 88 75
314 957 315 68 59 56
296 840 227 143 107 82
368 276 225 124 96 63
366 281 224 117 91 60
379 681 190 92 73 57
363 286 221 108 86 61
324 536 142 138 12 33
364 261 255 129 98 67
302 891 168 111 98 91
409 476 160 163 19 44
364 266 255 131 98 67
398 786 160 64 49 41
316 332 276 89 72 53
371 627 261 142 27 50
368 266 250 130 100 66
244 551 177 98 28 37
399 835 235 85 69 59
368 271 250 131 98 65
329 896 305 153 116 93
367 286 227 120 94 62
281 974 275 70 65 65
366 281 252 131 99 67
383 836 136 112 81 58
383 696 180 99 82 64
375 481 285 167 117 110
368 496 294 171 115 102
367 288 253 126 96 63
369 261 230 121 95 63
266 496 328 157 17 49
340 409 179 102 87 73
399 432 170 72 24 30
369 261 235 121 95 62
380 844 254 61 50 44
275 402 299 98 80 63
353 716 294 171 13 54
369 261 240 124 97 63
329 451 90 78 30 38
356 437 300 150 15 48
394 838 180 126 84 64
309 366 265 78 65 52
369 271 235 120 92 59
369 261 245 126 99 65
335 426 120 106 43 41
369 266 245 127 98 63
368 276 230 123 95 62
326 567 303 124 72 60
398 723 167 109 86 56
368 286 240 121 95 63
368 286 245 123 96 63
354 291 216 97 80 62
296 274 318 146 105 80
302 431 144 115 16 30
354 296 216 97 81 64
395 731 255 176 15 56
334 381 195 98 86 74
359 291 220 102 83 61
215 516 220 143 14 45
387 725 268 181 19 57
353 301 216 102 85 67
393 431 230 97 33 38
359 301 220 97 81 65
362 291 222 105 84 61
364 296 225 104 85 63
344 651 188 119 18 32
362 300 222 97 81 63
324 931 330 53 45 41
355 396 200 104 90 76
364 301 225 101 83 63
324 886 165 92 79 72
374 817 120 79 64 54
354 306 216 103 85 66
330 418 137 106 81 61
302 558 148 63 36 35
353 311 216 100 84 66
300 666 336 176 122 94
394 430 165 65 25 28
360 400 204 106 92 79
356 306 218 98 82 65
328 759 309 94 75 66
259 412 240 65 53 48
339 291 276 90 77 63
359 306 220 97 81 65
325 521 318 146 103 89
354 321 216 93 80 67
231 566 293 61 28 34
294 461 334 116 18 40
311 622 332 166 117 89
396 553 206 92 42 49
357 321 217 94 81 68
365 321 225 106 87 66
366 296 228 115 92 64
367 291 230 122 96 64
389 850 267 66 56 49
366 293 228 117 92 63
325 290 328 138 105 73
322 586 325 171 119 93
368 291 235 121 95 64
366 301 228 111 90 66
343 840 276 43 35 29
367 301 231 119 94 65
368 296 235 122 95 64
368 301 235 121 95 63
255 721 316 135 102 74
367 291 253 124 95 62
334 396 189 101 87 72
252 740 313 128 98 69
368 666 260 154 15 49
366 296 256 120 92 58
354 922 315 78 62 54
367 301 250 129 92 64
243 611 270 154 17 48
302 808 208 85 66 60
367 306 231 121 95 66
367 311 231 122 97 67
396 610 198 115 95 74
366 316 228 116 94 69
367 316 231 123 99 71
240 596 245 184 6 49
354 421 145 100 78 63
366 321 228 116 94 70
367 585 167 147 17 43
367 321 230 123 98 70
282 598 178 102 31 41
309 891 319 160 120 98
368 306 245 130 97 65
399 471 150 119 22 39
416 840 103 101 85 70
367 311 245 128 97 63
367 306 250 128 93 63
367 311 250 124 91 58
391 438 224 112 15 34
367 316 245 128 97 63
367 321 244 129 97 64
415 491 221 172 21 56
307 791 198 80 64 57
301 676 325 139 96 73
366 317 251 124 92 59
376 425 199 77 49 44
260 621 230 59 33 38
340 927 320 63 51 46
366 321 255 116 87 54
313 578 153 182 5 45
284 412 235 80 67 56
266 701 231 115 22 40
368 296 240 120 94 61
390 592 237 175 122 94
251 723 324 154 111 84
344 881 296 38 34 33
368 291 245 125 97 63
309 476 140 78 32 36
278 552 158 172 1 39
353 836 245 62 51 45
368 296 245 126 96 62
358 286 305 100 84 67
368 311 235 129 101 70
304 616 337 162 115 83
368 311 240 127 99 65
368 316 240 127 98 65
373 885 255 66 58 59
388 431 276 132 18 43
290 471 156 126 13 32
310 316 310 134 95 74
323 326 219 97 83 68
304 576 330 143 114 87
253 716 270 108 27 42
326 322 217 99 84 69
329 331 215 95 83 70
371 846 282 58 47 39
299 906 180 79 67 64
385 605 198 108 82 54
334 326 213 92 79 67
302 369 268 89 76 62
334 336 213 93 82 71
321 473 322 54 25 27
303 891 324 167 123 100
328 339 213 96 85 73
235 576 220 96 27 38
329 341 212 96 85 74
306 418 145 121 65 54
322 346 213 96 85 74
401 771 168 127 92 65
389 486 155 176 11 40
321 352 212 95 84 74
329 351 208 95 84 74
335 261 259 104 88 72
369 416 270 55 42 27
248 616 255 153 14 47
335 339 213 93 82 72
334 351 208 93 83 73
268 476 327 145 17 47
344 326 213 90 79 67
330 496 125 94 12 32
339 331 213 91 80 70
334 418 136 104 83 65
339 335 213 91 81 71
344 331 213 91 81 71
343 335 213 91 81 71
399 671 213 145 95 74
346 331 212 92 81 71
349 331 213 93 82 72
339 352 207 93 83 74
344 352 207 93 83 73
256 934 318 178 132 112
339 350 208 93 83 73
304 391 205 96 84 72
338 381 328 149 108 76
344 350 208 93 83 74
349 341 213 95 84 75
328 511 134 130 0 32
414 436 195 44 27 23
349 342 212 95 85 75
267 963 278 81 76 74
349 346 211 94 84 74
357 397 270 113 72 57
325 357 207 94 84 74
324 361 205 93 82 73
350 461 295 107 14 36
256 634 252 181 0 49
277 548 158 171 3 38
389 741 260 171 16 55
329 356 206 94 83 73
305 938 332 62 59 59
379 735 141 71 62 55
246 799 281 152 106 78
374 876 235 69 60 61
329 361 204 94 84 73
288 637 203 69 32 37
329 366 201 95 83 73
364 412 275 52 37 25
428 424 200 55 30 26
234 531 305 153 1 46
353 417 175 102 88 74
331 353 207 94 83 73
335 353 207 93 83 74
334 356 205 93 83 73
334 361 203 93 82 72
374 730 180 67 52 47
359 371 211 96 83 70
255 626 290 39 31 34
244 931 270 51 48 49
417 505 200 186 14 52
334 366 201 92 82 72
368 496 136 159 0 36
294 706 335 174 120 93
323 355 209 95 84 74
367 326 297 102 79 55
399 751 155 60 48 37
262 598 193 193 13 51
387 688 236 135 14 43
334 354 208 93 83 74
313 861 305 130 104 77
329 371 199 97 85 74
339 413 170 100 85 71
324 377 197 95 84 73
269 406 280 93 78 62
309 916 170 70 61 59
321 378 197 93 83 73
369 425 175 87 60 51
386 694 215 119 15 40
331 375 198 97 85 74
373 638 204 107 22 35
334 371 201 95 84 73
411 706 179 134 99 66
334 378 197 96 84 72
339 361 203 92 82 72
259 641 250 168 0 44
338 363 202 92 81 72
275 959 246 81 78 81
383 780 112 93 70 55
349 356 207 92 82 73
381 442 128 54 34 40
302 864 194 46 44 44
348 361 207 93 83 73
349 366 205 95 84 74
339 371 200 93 82 70
339 851 280 47 38 32
334 861 283 126 99 81
339 375 198 96 84 71
280 391 295 112 90 65
404 686 209 164 111 81
271 754 222 46 29 35
293 496 153 102 24 32
414 791 120 63 51 41
344 375 199 99 86 72
319 956 310 71 61 58
284 963 249 84 81 85
229 576 260 100 31 40
339 381 194 100 87 74
339 377 196 98 85 72
344 381 195 102 88 75
348 372 202 94 83 72
437 449 187 176 18 48
348 286 323 123 96 64
346 379 198 101 86 73
347 378 197 101 85 72
357 326 217 96 84 71
345 416 315 165 119 95
331 456 108 62 30 32
370 331 299 109 84 56
354 331 215 95 83 72
279 950 236 85 79 82
354 336 214 97 85 74
344 941 285 58 49 46
326 918 223 70 63 66
399 646 221 166 114 84
358 332 217 99 86 72
313 821 199 83 67 59
360 331 219 101 86 70
256 877 277 134 107 79
360 336 219 103 87 71
376 521 158 75 29 37
362 326 222 102 86 69
396 431 238 106 27 41
359 421 150 91 69 58
365 331 225 114 92 68
434 431 170 72 31 36
364 540 264 168 110 84
355 341 214 98 86 75
352 342 212 97 86 74
400 880 287 68 55 46
363 531 140 75 35 38
358 341 216 101 87 73
312 469 333 89 22 34
354 346 212 96 85 74
212 513 234 179 0 40
331 796 287 55 44 42
354 351 211 96 84 73
359 351 215 100 86 72
220 541 275 127 13 40
365 341 225 121 97 70
397 611 228 167 117 87
361 346 218 104 87 70
247 937 301 106 85 74
363 346 221 111 91 70
339 418 150 100 85 69
362 352 217 105 88 70
367 326 240 129 97 66
366 331 229 126 100 72
309 871 316 156 124 94
367 331 231 128 101 70
415 433 190 53 24 23
366 336 229 127 102 72
334 899 178 86 79 77
367 331 235 128 100 68
308 297 316 147 103 81
367 336 235 126 99 67
367 336 240 127 99 66
363 466 120 103 24 40
367 326 243 130 97 67
366 326 245 128 94 62
357 386 286 116 83 59
299 848 295 71 60 49
357 352 212 96 85 73
366 326 250 120 90 57
366 326 255 114 87 54
346 795 141 71 57 51
369 681 265 60 28 32
366 331 255 116 87 53
366 335 255 119 89 56
314 621 180 135 27 43
309 511 322 62 28 32
408 801 214 144 101 76
372 682 263 111 27 42
367 341 232 125 100 71
366 523 143 96 16 39
367 341 235 126 100 70
334 296 275 89 73 54
326 445 132 64 35 37
367 347 231 122 98 70
408 796 114 80 60 44
366 350 228 122 98 72
367 351 230 122 99 72
367 341 245 120 94 62
367 346 255 120 91 59
369 351 235 121 98 72
329 413 165 99 85 70
289 446 329 45 27 30
369 351 240 115 93 69
298 506 149 130 5 29
369 351 245 113 91 65
333 739 318 93 24 37
369 351 250 118 93 62
297 375 269 86 74 62
366 675 266 66 30 36
271 673 307 116 84 66
299 671 199 61 28 35
354 361 210 93 82 72
341 289 278 90 78 65
357 356 212 96 84 72
360 356 214 101 86 71
279 731 343 172 114 86
336 751 172 37 36 39
349 419 150 100 84 68
360 361 214 101 86 71
285 624 197 106 38 46
354 366 209 92 82 72
360 366 213 102 87 71
360 381 290 122 88 63
342 471 305 66 31 35
368 915 314 73 60 53
367 366 222 108 88 67
380 888 274 80 64 54
356 371 208 91 80 70
329 261 327 124 97 65
404 771 110 87 67 52
356 376 208 93 82 70
359 376 210 97 84 69
320 512 316 117 19 40
320 967 280 62 56 56
361 375 213 102 87 71
253 821 275 79 63 58
379 731 170 85 73 62
256 418 197 81 35 31
329 365 327 134 105 73
367 371 221 106 88 68
292 369 302 116 93 66
359 461 295 49 25 27
365 375 219 103 87 69
324 511 315 77 24 32
362 382 212 113 96 78
366 380 218 103 87 70
369 381 220 106 89 72
384 846 175 101 80 69
353 791 134 74 59 50
386 497 232 115 26 43
274 417 185 88 76 65
370 376 224 107 89 69
372 493 267 47 31 30
256 890 315 165 120 102
367 357 226 117 94 70
368 356 230 118 96 71
370 361 230 114 93 70
323 501 319 78 23 35
370 356 235 117 96 72
309 421 136 140 28 35
371 366 229 110 90 68
372 361 240 117 94 69
372 361 245 122 97 67
281 810 232 84 66 57
378 686 200 63 46 44
371 361 250 127 97 63
373 371 230 110 90 68
372 372 227 109 90 69
372 377 226 108 89 68
375 371 240 119 95 66
260 726 305 113 56 48
375 376 235 114 91 67
376 381 240 123 96 64
377 383 237 117 93 66
344 287 268 91 76 59
289 960 320 65 58 55
374 376 245 130 99 65
371 369 252 130 96 66
224 556 235 77 24 38
373 371 250 130 98 68
402 898 282 98 78 72
372 375 253 134 97 70
371 380 252 137 99 72
317 835 196 48 43 43
292 736 333 180 124 95
279 481 165 118 14 27
435 424 180 95 37 44
370 381 255 138 99 72
372 383 253 139 100 73
395 840 225 80 62 55
329 441 85 89 35 38
393 817 109 110 87 77
326 441 90 87 29 35
335 437 81 87 62 58
333 434 94 86 68 52
349 421 309 128 89 69
314 402 186 94 83 71
336 433 92 102 66 52
344 431 95 102 87 69
264 456 178 101 25 26
324 909 211 79 73 72
362 376 263 138 95 75
349 431 95 102 87 68
394 841 255 80 67 58
339 434 85 99 84 67
344 412 175 101 87 73
344 434 84 102 87 69
391 803 117 59 47 42
344 441 81 160 10 37
251 954 268 74 68 68
284 826 330 191 134 107
345 916 235 75 66 65
421 428 195 55 27 23
339 433 90 102 85 68
339 445 82 84 33 39
343 444 82 169 7 38
256 635 279 47 28 37
397 550 186 165 24 50
344 446 84 141 15 37
348 436 82 137 46 42
348 433 86 98 84 62
314 511 322 63 25 34
349 441 85 54 34 38
349 432 90 103 86 68
346 443 83 154 6 47
354 417 180 104 88 73
368 440 287 51 18 25
329 409 173 98 85 71
360 907 284 75 66 67
394 451 235 132 11 41
357 520 288 187 120 103
351 442 88 31 30 35
280 422 171 105 43 35
381 648 182 123 98 72
351 447 88 144 13 39
352 729 293 177 13 59
334 431 105 99 33 39
334 431 110 99 27 33
335 428 111 105 36 41
334 431 120 76 31 35
314 906 316 112 83 69
330 430 126 123 21 40
419 839 230 91 69 52
331 433 97 79 53 42
299 636 194 44 34 37
345 503 108 142 10 38
331 433 100 91 29 38
396 720 217 126 68 59
331 441 103 93 24 36
384 561 215 96 27 42
314 936 330 54 48 45
344 430 100 100 83 65
288 835 310 126 84 65
333 436 106 107 17 39
238 582 200 140 31 49
284 811 230 83 66 58
278 791 229 81 63 56
334 436 110 105 18 36
377 511 269 176 121 102
276 906 197 96 87 83
333 441 106 80 24 32
295 614 182 175 22 47
346 264 262 100 79 54
414 792 110 98 81 63
303 560 322 87 52 48
335 441 110 77 28 34
331 446 108 55 28 35
291 438 157 114 19 30
326 498 317 50 21 24
284 761 339 168 117 85
333 446 110 52 31 33
260 696 315 134 104 74
219 546 213 107 16 39
282 813 233 86 68 59
334 436 115 98 22 35
335 436 120 79 28 35
331 434 127 99 19 32
333 436 125 88 28 36
334 441 125 96 26 37
410 750 206 165 112 82
344 429 104 99 79 60
339 427 110 101 57 48
237 598 260 190 0 50
344 428 106 99 76 58
415 511 190 77 33 38
348 286 286 92 78 63
279 501 334 83 25 36
344 427 110 100 71 56
290 620 191 114 36 46
349 430 100 102 84 64
349 429 105 102 82 62
349 427 110 101 78 61
375 410 214 143 115 87
296 706 332 174 118 90
351 429 108 104 80 62
355 892 220 67 56 56
339 422 125 113 70 52
328 665 188 121 15 32
279 401 305 106 85 65
340 423 121 110 69 53
394 786 225 146 101 72
339 426 115 104 58 50
339 424 120 111 62 50
299 968 248 97 94 98
392 698 232 127 16 38
375 466 129 96 29 41
338 424 123 117 62 48
348 423 121 104 71 57
384 422 260 108 29 42
353 480 311 103 70 60
344 871 291 41 36 34
349 426 115 101 72 60
347 465 92 148 22 41
350 425 120 103 69 56
289 371 290 109 88 65
273 631 306 133 32 48
329 456 100 73 30 36
412 683 196 149 105 70
351 424 123 103 68 56
264 492 167 69 36 39
282 419 173 84 72 60
352 436 87 61 43 43
373 808 273 69 54 39
364 550 258 138 72 61
352 440 87 46 39 47
271 408 308 67 61 55
352 433 91 117 72 58
379 566 251 174 117 91
355 436 95 143 15 37
392 582 216 110 91 70
354 446 95 88 28 36
354 427 101 120 75 56
252 746 292 150 112 80
359 426 105 112 63 52
439 810 94 85 71 58
272 904 224 50 47 48
383 621 193 115 88 59
358 427 101 128 63 47
314 867 161 77 66 59
289 746 335 176 122 94
221 554 250 118 29 45
258 424 188 86 44 34
360 431 105 134 17 38
384 636 226 117 42 43
296 423 157 116 25 25
353 429 106 113 78 60
368 601 175 63 26 33
339 796 280 129 95 80
349 471 296 67 13 25
362 428 107 83 48 46
339 494 102 186 2 43
251 917 255 51 49 51
363 431 110 99 35 38
270 936 328 72 58 54
356 429 113 113 56 46
374 421 200 95 74 62
328 869 150 100 81 66
379 421 280 48 33 25
370 422 120 131 29 33
295 731 330 178 118 92
364 426 115 124 40 39
299 286 305 141 99 76
365 429 119 103 37 35
399 736 126 88 64 50
368 426 116 150 19 39
319 711 182 121 14 30
369 426 120 119 30 34
319 491 140 52 35 38
369 429 125 96 37 32
423 440 216 79 10 24
356 436 99 146 7 35
274 966 265 79 73 75
356 441 99 127 13 35
405 815 105 95 74 55
357 441 102 114 21 34
393 882 294 62 52 46
270 422 181 64 50 47
303 637 193 70 34 37
357 444 102 137 13 39
358 446 105 145 5 38
275 766 220 107 39 45
376 501 271 153 109 90
407 791 213 155 113 83
361 437 108 140 21 39
374 869 286 54 45 39
314 911 210 73 65 64
267 651 234 169 10 46
242 776 300 164 116 82
389 720 130 82 64 46
363 436 111 119 23 40
266 413 318 155 13 48
264 511 164 125 5 27
255 872 300 121 92 69
367 436 117 104 14 33
365 441 115 130 11 36
304 446 140 47 38 40
367 440 117 150 1 37
247 617 260 48 26 33
284 526 330 88 26 38
364 446 115 152 0 36
366 446 118 151 0 34
369 446 120 152 1 35
374 421 120 125 25 31
374 418 122 123 26 30
421 488 212 188 19 56
374 426 120 96 31 33
374 431 121 72 36 39
393 747 116 92 69 49
344 391 193 101 88 75
384 421 126 141 21 28
357 509 303 180 115 105
295 446 150 116 18 31
370 436 119 138 14 37
375 441 124 150 5 38
309 446 339 89 31 40
294 876 326 141 111 80
378 446 126 143 14 38
294 761 200 147 1 40
296 270 292 127 92 65
331 454 87 43 38 45
330 456 90 103 27 40
329 456 95 87 22 33
335 459 87 61 36 38
330 461 95 62 33 38
335 501 106 117 16 37
332 458 88 94 35 42
256 796 338 176 125 98
407 480 161 175 16 44
331 464 92 49 39 44
331 471 96 137 4 36
309 271 281 103 78 48
332 467 93 89 31 41
270 666 338 152 103 81
333 472 94 150 8 40
396 812 173 130 83 60
334 476 95 166 3 39
339 451 85 68 32 36
339 456 87 65 37 38
411 862 207 90 69 60
344 451 86 113 28 38
393 427 235 73 61 47
338 459 87 58 36 36
340 458 88 113 42 53
345 457 88 121 30 45
272 638 223 91 37 45
376 400 224 110 90 67
272 484 168 109 21 25
335 466 125 66 28 33
351 457 93 52 37 38
393 821 245 61 47 38
339 470 92 83 32 36
378 581 182 122 32 45
344 466 91 74 32 37
376 602 189 149 16 45
343 470 92 65 35 41
394 893 284 104 86 82
319 926 334 45 41 40
403 841 191 94 69 60
339 476 95 183 5 43
304 955 324 72 65 61
346 468 93 63 27 25
349 471 96 71 32 38
382 430 263 140 17 45
231 570 289 48 27 33
329 451 100 77 28 37
247 554 312 151 11 46
436 461 205 93 29 41
264 676 315 140 104 78
334 405 179 100 86 71
245 936 260 62 58 59
330 451 105 68 29 35
330 456 105 72 30 35
358 731 283 170 20 55
353 306 274 101 73 52
331 451 108 51 30 35
324 915 216 80 72 72
253 811 265 76 62 57
332 451 111 49 31 34
377 515 157 150 5 37
343 926 240 82 72 72
286 796 221 81 64 56
330 461 100 47 34 35
402 606 223 157 112 79
347 489 102 168 3 30
345 942 260 65 59 58
329 461 105 49 34 34
330 461 110 65 31 34
334 456 120 50 32 35
331 450 127 104 20 37
312 695 188 55 32 37
379 767 120 76 61 47
252 612 234 200 7 54
261 462 177 103 22 28
332 461 115 58 29 35
346 918 238 63 55 57
288 521 329 69 30 35
334 461 120 37 31 34
330 466 105 63 29 34
306 775 192 80 60 54
379 696 190 87 72 57
330 471 105 96 17 35
320 942 321 53 47 45
330 471 110 79 24 35
352 409 308 153 107 84
330 476 100 122 9 32
335 480 97 138 19 43
333 482 99 110 21 34
354 286 295 103 86 68
330 481 110 74 25 31
243 606 285 82 32 39
359 421 160 95 75 63
331 467 113 69 29 38
334 466 120 63 30 33
336 570 142 170 7 40
375 546 165 147 12 40
398 801 224 123 90 66
332 470 116 81 23 36
414 491 175 147 18 42
335 471 125 48 31 31
330 476 115 106 13 32
312 641 325 160 107 79
331 476 119 107 12 31
365 901 290 88 77 73
332 476 121 100 16 34
276 868 262 116 94 70
319 436 134 84 30 35
333 476 125 71 22 34
333 481 125 84 21 33
324 326 270 73 56 37
347 479 97 159 33 57
366 321 294 97 77 53
276 949 237 78 72 75
416 497 216 183 16 55
331 486 106 47 32 34
334 486 100 152 10 39
332 487 104 78 27 37
329 486 135 55 29 36
366 699 282 71 18 31
330 486 110 100 17 35
239 581 195 139 18 43
333 491 104 118 17 35
399 880 270 106 82 67
334 496 105 159 5 39
336 494 102 181 0 52
274 396 285 111 89 65
403 761 170 129 91 65
331 494 111 125 2 32
332 493 108 135 0 31
249 816 285 84 61 54
366 486 300 166 116 99
325 937 321 65 57 54
330 486 115 104 6 31
330 491 120 104 7 31
288 540 327 43 21 25
324 394 188 97 85 72
331 496 115 117 3 34
330 491 125 111 10 32
247 791 270 67 56 52
334 506 110 65 36 38
331 505 117 100 30 42
268 716 225 151 1 42
332 506 115 59 29 34
377 456 263 142 15 44
264 412 240 74 63 55
332 508 118 38 33 40
298 366 310 119 94 68
256 577 319 45 26 30
388 692 249 119 8 37
339 486 99 147 17 42
279 396 300 111 90 66
339 491 101 165 9 39
344 491 102 175 3 34
344 496 104 178 7 38
288 617 189 67 33 38
376 863 180 89 72 64
351 482 103 164 0 35
349 491 105 122 23 40
404 851 254 141 124 113
350 497 108 166 5 38
271 959 318 60 54 53
403 676 176 121 92 61
336 504 107 83 23 28
383 425 140 105 30 31
394 432 133 118 25 37
245 786 280 168 117 87
339 504 107 120 24 41
393 470 207 39 25 28
314 671 311 48 31 31
339 511 110 102 25 41
375 736 170 76 66 58
344 511 111 170 7 33
349 511 114 169 2 35
352 450 91 74 32 37
329 566 296 113 23 41
353 451 95 67 35 37
355 451 100 111 22 37
355 456 100 120 18 35
329 886 294 136 108 84
362 818 128 98 75 61
357 451 106 143 1 36
359 456 110 147 0 35
354 461 100 145 6 39
291 423 162 115 37 24
356 461 104 146 1 35
289 491 334 174 15 55
405 696 174 121 93 61
289 415 175 94 80 66
357 461 106 143 0 33
365 366 261 138 96 73
379 810 115 61 51 45
358 461 110 146 0 36
361 452 113 153 0 39
329 271 327 129 99 65
369 451 121 156 2 36
314 271 276 95 72 42
329 386 329 143 107 76
370 424 165 77 43 37
362 460 117 152 0 36
255 936 235 76 70 70
361 818 269 45 36 29
356 466 105 149 1 36
357 465 107 148 0 33
310 697 318 84 18 32
356 471 108 146 3 37
354 476 105 153 0 34
294 266 295 129 93 66
