ply
format ascii 1.0
comment Created by Open3D
element vertex 2212
property double x
property double y
property double z
property uchar red
property uchar green
property uchar blue
end_header
297 623 178 80 30 32
269 427 285 110 26 42
393 404 195 74 33 35
350 541 96 88 22 28
398 404 200 84 27 29
398 403 205 101 22 26
388 400 214 104 46 39
393 401 210 106 28 29
333 857 300 69 55 40
298 522 95 178 16 52
318 887 230 55 53 53
393 401 215 111 29 26
281 473 360 175 0 44
394 400 219 110 32 27
399 400 224 104 28 29
356 787 152 147 99 70
394 762 335 126 81 59
403 406 195 74 27 31
402 404 200 87 26 27
278 497 419 175 119 104
395 478 164 63 30 37
357 931 325 56 51 50
407 408 195 66 32 32
412 408 205 96 40 36
472 783 272 73 59 51
343 287 310 145 100 80
411 409 201 57 32 33
410 412 198 60 28 32
302 964 312 59 56 58
411 412 200 43 32 32
362 652 206 123 8 33
325 582 367 160 113 84
408 417 195 141 15 41
266 430 342 64 33 24
366 560 167 83 23 39
409 417 200 138 14 38
381 512 323 130 10 38
318 965 262 99 95 100
403 403 210 117 14 26
324 862 237 138 108 81
403 401 215 116 20 25
293 772 210 83 68 62
303 937 341 78 72 70
408 404 210 117 16 25
295 771 219 84 68 61
408 401 220 112 24 28
361 563 150 39 30 33
328 632 164 102 74 58
412 404 215 118 14 31
411 404 212 119 11 24
277 302 294 110 87 58
445 773 327 61 51 40
413 403 220 115 18 29
308 297 321 127 98 67
355 814 168 176 117 88
413 401 225 106 26 35
414 412 209 73 33 38
353 871 325 30 29 30
386 744 187 74 57 49
414 417 210 105 24 38
388 398 230 81 58 49
393 398 230 89 49 42
388 397 235 75 59 50
387 772 191 81 62 50
388 397 240 70 58 49
303 437 400 59 28 25
393 398 235 80 52 45
393 397 240 73 53 44
398 399 230 92 41 38
408 487 195 146 21 44
398 398 235 86 44 40
270 322 300 132 94 69
392 477 155 62 35 38
388 396 245 67 57 47
393 397 245 69 54 44
356 595 162 173 19 41
323 642 121 167 112 77
388 396 250 66 56 46
405 849 352 60 52 46
393 397 250 67 54 43
297 562 359 172 123 96
407 487 210 157 8 43
398 397 250 70 50 40
376 602 216 115 31 43
403 399 230 97 33 35
359 942 305 58 52 51
408 399 230 99 32 36
408 399 235 93 36 39
328 307 315 128 92 66
408 398 240 86 38 39
303 946 246 80 73 76
390 497 170 165 15 42
413 399 235 101 35 40
273 592 215 166 0 46
288 542 325 192 1 57
347 910 353 53 48 47
408 398 245 81 39 35
408 397 250 87 37 30
293 446 375 57 31 24
413 398 245 101 28 34
311 562 115 147 95 80
413 398 250 96 27 30
344 628 184 111 26 38
386 495 157 122 18 41
307 497 400 161 117 95
303 462 386 130 4 41
295 770 230 85 68 61
410 400 228 102 30 36
291 529 347 164 8 53
321 461 373 157 6 50
408 422 200 147 12 39
408 422 195 139 12 41
408 427 195 133 12 40
408 432 200 144 9 41
339 459 362 158 17 54
446 840 355 81 60 50
289 502 310 60 28 32
352 946 256 74 67 69
317 892 382 66 58 56
353 957 285 52 48 48
318 686 137 176 117 80
410 418 204 139 13 32
329 923 347 56 52 51
335 335 288 99 82 63
411 422 206 136 17 37
380 496 322 148 0 47
377 912 285 54 48 45
409 432 195 126 14 40
409 802 255 58 48 47
411 426 207 112 11 28
425 423 256 155 9 40
368 457 344 166 15 51
415 422 215 43 30 34
363 867 292 32 30 31
279 467 280 84 23 33
415 424 218 60 15 27
306 747 165 164 112 85
285 476 315 174 0 50
410 429 208 124 12 37
414 427 215 106 23 38
413 432 215 134 14 37
415 427 219 121 15 38
339 958 259 77 71 73
451 829 365 90 74 59
414 432 220 68 21 33
408 437 205 146 10 39
343 871 315 35 32 33
410 437 195 140 9 40
312 571 345 94 61 49
411 438 193 145 10 39
412 447 195 138 6 41
408 447 210 128 12 37
398 707 247 68 42 36
276 305 293 109 84 54
370 847 205 78 63 56
408 852 370 49 38 33
410 434 213 140 15 41
328 562 101 168 111 82
421 399 241 123 26 41
410 437 213 133 13 35
354 531 81 104 25 34
386 597 290 89 29 38
400 813 244 73 59 57
411 447 284 154 3 46
394 802 331 100 66 51
415 434 223 58 28 29
310 431 338 84 63 44
338 933 239 79 72 74
410 442 214 145 14 41
411 442 216 130 17 38
298 267 295 101 86 71
410 447 215 84 19 32
413 442 220 75 26 37
376 508 328 127 17 44
281 672 240 157 0 46
317 526 368 131 47 53
308 847 260 114 93 71
412 447 220 106 24 36
415 442 224 67 29 32
311 435 363 60 38 29
388 472 135 109 27 42
416 408 211 72 31 32
417 407 215 116 25 33
308 312 267 95 73 45
418 403 225 116 25 30
423 407 225 144 20 36
297 441 385 61 33 27
421 408 221 156 18 43
317 647 340 179 130 109
429 782 284 52 45 42
387 891 344 59 52 49
416 417 216 71 27 32
421 412 221 135 13 36
424 412 225 143 12 38
389 487 316 171 1 56
285 361 276 102 79 52
328 647 315 89 36 45
421 415 222 150 9 35
275 365 292 139 103 76
341 575 121 137 82 70
354 737 155 122 95 65
417 399 236 108 34 42
418 399 240 115 29 41
313 557 135 137 4 39
424 427 260 153 7 44
347 647 191 133 5 36
394 557 220 117 19 38
347 667 354 133 93 59
276 312 289 97 77 53
422 399 245 125 21 41
418 398 250 104 21 34
335 322 306 122 93 63
418 397 255 89 23 33
276 332 311 128 92 70
423 399 250 110 20 38
296 901 248 116 75 65
379 868 310 39 35 35
384 876 326 37 33 34
421 404 226 129 19 32
354 392 305 93 77 59
424 405 229 133 25 36
418 400 235 109 34 43
420 400 238 116 31 42
329 332 316 130 98 67
423 402 235 110 34 40
423 401 240 123 24 42
426 408 227 122 22 33
427 407 230 130 19 36
426 404 235 137 21 40
356 404 313 65 52 40
427 403 240 147 18 43
426 412 230 152 13 40
270 708 220 85 24 37
278 923 346 65 59 58
301 787 175 167 125 92
285 357 275 103 79 52
301 617 297 114 11 40
381 772 182 78 62 51
426 416 231 163 12 44
275 693 225 134 1 40
426 417 235 155 10 40
424 400 245 133 20 44
282 652 240 143 5 43
428 402 245 164 17 51
429 407 245 157 13 44
362 456 348 161 13 53
407 487 220 127 13 38
429 407 255 41 31 34
428 412 245 155 11 41
428 412 250 74 24 34
427 417 250 156 13 42
394 877 275 60 50 47
416 421 217 53 26 28
348 622 180 54 32 37
419 422 224 158 11 36
419 427 225 156 12 42
311 582 120 154 107 80
333 633 179 100 28 38
423 427 230 143 12 38
298 497 411 170 122 101
420 428 228 109 7 30
270 517 200 108 14 38
373 782 361 158 107 79
424 432 235 156 13 41
386 704 330 110 37 46
277 914 352 56 50 48
426 421 240 154 9 42
287 575 162 153 5 37
426 422 245 161 12 46
426 422 250 160 12 44
426 422 255 157 10 43
425 427 250 110 14 34
423 857 360 85 66 55
259 449 374 85 21 28
286 347 279 103 79 54
318 552 131 123 8 34
425 427 255 149 9 43
424 432 250 63 27 34
410 699 308 69 54 41
318 413 338 89 70 48
424 432 255 154 14 46
307 777 280 79 63 57
361 920 338 65 60 60
417 437 226 108 18 33
270 902 314 160 124 101
308 647 140 170 125 103
439 752 295 76 60 49
419 437 229 62 32 34
394 462 315 85 21 33
454 802 325 51 40 30
422 437 231 81 28 35
419 442 229 67 31 34
396 476 313 107 8 34
419 447 230 92 27 37
421 441 232 98 26 41
422 442 240 100 25 39
281 468 296 139 10 40
421 447 235 60 30 35
304 422 333 108 82 63
420 448 234 58 29 40
414 807 317 47 39 33
423 437 245 40 30 33
338 737 355 169 119 94
299 777 225 85 67 60
423 437 250 73 28 36
371 849 292 33 31 30
422 447 245 49 28 34
340 642 351 141 93 65
274 461 340 139 11 43
396 516 192 157 11 40
422 442 255 126 17 40
293 297 317 115 89 60
431 701 296 76 56 44
275 887 271 171 123 101
336 312 304 127 93 67
288 287 311 113 90 64
422 447 250 42 30 33
313 332 265 87 66 40
421 447 255 62 23 32
393 462 130 157 20 49
338 402 324 85 71 55
394 459 129 164 21 54
334 882 190 116 97 88
354 870 393 63 56 50
364 922 320 55 48 46
394 463 135 174 18 51
308 527 375 178 125 97
397 777 215 64 52 43
399 457 135 177 21 52
275 347 308 136 97 77
397 461 136 145 11 40
397 462 140 138 27 44
323 642 364 175 123 98
402 826 261 55 46 46
289 317 275 100 79 53
399 462 150 98 31 41
371 926 285 54 49 48
400 463 159 132 26 44
385 597 295 67 30 36
362 637 309 87 19 35
386 471 131 79 27 33
391 465 132 161 14 35
330 475 367 131 5 42
392 466 136 118 23 39
303 378 262 79 57 40
361 679 343 126 95 60
301 774 250 83 66 58
391 877 261 72 59 56
389 472 140 57 31 34
317 792 290 67 54 51
393 467 140 97 29 39
391 471 141 44 34 37
338 962 265 83 77 78
392 472 145 54 30 37
329 667 135 145 102 68
343 652 150 142 100 75
385 474 134 178 30 49
386 475 137 122 31 40
385 478 139 107 33 41
396 797 220 66 56 55
342 687 150 131 92 61
281 911 331 97 74 62
396 465 142 169 22 53
396 466 145 136 32 53
392 476 151 77 25 34
402 867 285 66 56 54
390 478 149 70 25 35
395 469 150 88 31 38
398 467 160 121 26 43
396 470 155 131 30 43
397 471 160 119 27 44
395 473 159 111 31 42
278 457 325 149 8 44
401 455 136 122 22 37
357 722 176 82 34 32
405 449 135 151 21 47
401 456 140 94 29 41
273 582 195 69 27 35
404 452 140 69 29 36
343 917 230 73 65 66
402 457 145 133 27 48
405 449 138 59 26 30
389 727 331 70 45 38
406 450 145 165 24 51
309 492 390 158 26 53
356 834 307 51 41 35
400 459 145 56 24 35
402 457 150 140 16 43
397 752 200 62 49 43
359 267 305 150 105 77
356 955 284 51 48 48
403 457 155 175 16 50
296 676 193 79 24 28
405 453 155 188 9 48
278 921 348 60 55 54
293 966 300 65 61 61
407 452 160 186 10 48
401 460 152 105 18 32
273 567 215 106 24 41
402 461 160 160 23 48
400 468 164 139 20 44
333 377 320 127 99 66
305 667 187 66 34 40
399 473 169 142 18 42
396 476 166 93 24 37
398 477 170 146 18 42
328 542 95 184 116 92
399 478 173 83 27 41
406 455 162 190 12 47
407 457 165 172 16 43
386 895 335 66 58 54
290 760 197 86 54 44
276 500 358 63 32 34
409 452 165 181 15 44
441 781 292 47 42 44
467 825 347 77 62 50
403 462 165 116 22 40
406 460 167 91 12 29
397 422 305 100 14 35
405 463 169 67 28 35
407 462 170 120 22 38
390 543 307 59 33 33
312 543 94 176 113 87
407 522 285 167 13 48
410 448 163 182 9 50
416 452 184 154 10 41
410 454 168 145 14 32
330 684 138 166 107 72
406 757 226 69 54 46
411 456 171 125 15 39
318 602 111 166 112 75
304 504 401 206 142 125
313 952 250 93 88 92
414 452 175 172 14 45
413 457 175 139 14 39
413 722 246 52 40 33
410 458 173 98 20 41
409 462 174 113 21 39
409 777 245 58 46 44
415 457 180 165 15 44
371 516 136 67 28 33
483 787 315 93 73 58
289 293 281 96 80 62
317 602 141 139 98 83
414 452 190 145 3 42
415 457 185 160 12 45
385 711 310 45 27 26
415 457 190 150 8 41
373 717 355 147 105 72
313 442 345 71 50 36
358 871 393 65 56 50
323 347 320 128 100 67
414 462 190 101 18 39
294 347 323 123 95 66
403 467 170 94 29 40
404 472 174 52 34 34
389 512 316 48 26 31
402 477 175 39 30 34
287 502 275 146 4 42
326 652 324 108 66 55
408 472 180 61 35 35
347 752 142 133 96 63
405 474 178 60 29 34
409 477 185 84 29 37
409 468 180 68 32 38
411 466 181 66 28 35
349 608 165 65 32 37
320 888 210 64 58 57
410 472 184 70 34 37
409 437 290 149 0 47
280 707 260 94 19 38
366 940 277 57 48 48
410 469 184 66 33 38
282 474 354 171 0 47
412 472 190 91 26 37
313 272 318 116 91 63
347 844 204 64 50 49
388 482 150 107 16 37
385 484 148 181 20 57
387 487 155 163 14 41
390 484 159 182 18 47
352 872 177 131 104 92
385 492 154 137 17 43
281 533 159 154 7 42
333 562 351 122 16 42
388 822 319 33 28 29
429 868 330 73 63 60
386 491 156 165 17 45
330 443 382 64 22 29
385 498 158 126 29 46
428 832 410 95 77 65
393 482 165 89 24 36
391 486 162 179 17 46
284 647 255 109 21 40
334 968 270 86 81 82
288 582 299 155 2 47
389 492 165 173 15 41
391 490 166 158 13 45
388 497 165 138 20 43
293 732 190 150 0 37
392 492 170 140 21 41
353 747 150 126 94 63
391 496 171 164 17 43
392 497 175 70 26 33
395 488 174 67 34 35
398 482 175 56 30 33
334 454 372 113 19 41
268 487 380 49 23 29
323 368 262 79 59 43
397 486 176 63 31 35
393 492 175 59 28 33
400 484 178 50 30 31
397 491 181 79 31 37
271 469 368 180 0 37
297 880 359 51 48 48
397 497 186 131 23 43
336 695 142 132 91 57
387 502 165 144 16 44
390 499 173 145 17 53
376 862 302 37 34 35
390 503 174 80 25 32
386 505 162 138 24 51
318 647 310 122 15 43
263 446 371 57 34 25
384 512 165 165 13 39
274 352 295 141 101 74
298 382 263 80 60 39
387 512 170 162 13 41
390 507 175 137 19 42
389 512 175 158 12 40
392 507 180 89 24 35
390 512 178 158 12 40
308 307 321 133 103 69
393 502 180 76 27 36
399 498 189 84 21 34
396 501 187 163 17 42
397 502 190 156 15 41
394 507 185 109 16 36
338 852 225 104 76 62
393 512 185 163 14 41
276 916 326 140 103 87
346 610 162 85 40 32
395 507 189 165 14 41
395 512 190 160 13 42
381 672 232 131 15 39
406 407 293 143 8 46
282 472 300 50 31 33
403 487 185 100 25 38
405 483 184 70 29 31
405 488 189 85 15 33
400 489 183 151 27 43
337 447 374 90 24 36
352 622 190 153 16 43
403 492 190 62 28 32
297 647 290 76 28 36
367 782 170 135 93 65
372 492 329 143 8 45
406 490 192 103 17 28
416 451 177 170 14 46
341 363 313 119 93 62
416 455 181 171 14 48
295 904 247 90 63 57
416 456 184 163 13 44
408 452 205 145 9 39
289 443 395 73 24 26
264 424 330 59 41 30
410 452 200 141 4 43
349 502 356 128 8 41
411 452 198 141 3 45
266 449 334 114 16 47
413 457 195 147 7 42
416 701 249 68 51 39
330 313 280 97 78 56
410 456 201 146 7 42
316 628 118 158 109 68
409 457 205 133 10 38
412 462 200 145 6 41
411 459 203 140 11 36
409 462 205 137 13 42
364 642 210 130 11 36
375 422 332 62 24 28
402 522 295 41 29 31
312 261 279 98 81 63
409 457 215 105 21 34
318 327 266 86 65 36
410 449 218 139 17 39
318 627 117 161 108 69
410 457 220 131 18 38
273 437 285 38 32 33
333 267 270 95 72 42
411 457 222 141 15 37
414 452 225 89 25 35
409 462 210 111 17 39
294 853 303 129 46 68
409 462 215 85 25 35
320 812 270 181 129 107
276 513 380 210 145 123
413 688 335 103 72 49
411 704 332 62 46 33
409 462 220 118 18 37
410 462 223 125 12 39
380 843 219 67 56 52
412 462 225 99 22 35
411 472 200 155 8 44
411 467 200 148 6 42
410 466 202 149 8 43
327 667 131 167 113 81
409 467 205 146 10 42
411 469 203 151 8 41
410 472 206 149 10 40
338 940 242 81 75 77
302 802 185 173 133 103
411 476 195 158 16 44
288 962 270 82 78 80
411 475 204 156 9 45
408 472 210 143 12 41
402 721 326 49 40 33
408 477 210 153 9 41
339 332 300 114 90 62
407 477 215 153 9 43
407 477 220 121 12 36
409 467 215 75 28 33
409 467 220 124 19 38
327 812 295 139 105 88
409 472 224 74 25 34
281 599 276 53 29 32
447 828 305 99 82 70
409 477 225 58 28 34
275 307 313 125 87 69
412 467 226 138 20 41
300 591 162 91 23 37
388 557 305 155 8 49
383 447 330 80 26 31
383 507 321 145 8 44
370 829 194 81 64 56
411 471 227 66 28 35
295 561 361 179 128 102
415 469 233 46 26 32
351 718 160 119 93 63
281 522 240 144 1 41
411 477 227 46 28 33
362 851 404 76 58 48
388 397 290 66 46 27
412 477 230 58 36 39
314 825 204 81 66 61
414 477 235 41 33 35
372 698 335 88 42 37
415 478 238 40 34 34
398 507 195 169 15 41
400 508 199 177 17 44
294 742 191 158 0 41
331 724 347 178 126 100
397 512 195 160 14 40
399 512 200 171 17 43
302 954 253 84 80 83
407 492 195 139 22 40
297 541 121 72 31 35
364 731 362 158 111 76
407 492 200 150 15 42
406 495 196 106 37 49
320 662 340 171 125 102
405 714 228 76 41 37
410 482 200 43 30 33
355 259 283 124 92 63
338 833 175 206 137 109
410 482 205 114 14 37
338 798 148 173 117 83
408 482 215 153 10 41
408 482 220 148 10 40
408 487 225 144 11 38
308 732 155 165 112 79
408 492 210 158 10 42
407 492 215 154 10 42
279 687 245 61 24 34
272 406 260 60 37 27
373 457 340 96 20 37
408 497 210 119 11 35
328 537 355 51 21 28
407 497 215 148 12 44
407 492 220 84 19 33
374 852 215 67 56 53
408 492 225 91 23 35
289 387 324 131 98 71
402 501 196 147 16 42
292 307 274 107 85 59
367 845 393 80 62 50
403 502 200 158 16 44
281 618 193 49 32 40
357 867 190 97 79 70
403 797 235 54 45 42
406 500 202 102 0 32
406 501 206 166 16 46
402 506 201 179 16 47
402 512 205 180 16 49
405 504 208 168 19 45
357 383 265 76 62 50
406 502 210 116 17 35
337 597 350 149 106 78
347 387 314 120 94 67
407 502 215 125 19 41
313 843 295 91 72 51
407 502 225 62 27 33
298 441 375 57 32 26
404 507 210 165 17 45
406 505 212 109 7 30
407 507 225 48 29 31
405 509 218 100 8 27
406 511 221 129 11 37
406 512 225 117 19 37
293 697 195 65 35 35
411 482 230 106 23 40
413 482 235 41 32 34
282 958 300 58 53 55
414 482 240 37 33 33
398 398 295 106 19 32
266 487 422 133 99 82
318 592 369 162 114 84
413 487 240 38 32 33
409 492 230 128 18 38
383 737 350 155 109 78
409 497 230 91 26 36
283 448 379 56 30 23
308 577 345 122 83 64
388 397 295 75 45 27
411 492 236 121 21 41
381 805 348 154 101 77
412 492 240 126 18 40
410 497 234 69 28 35
411 497 240 128 14 37
415 483 245 118 21 40
378 757 181 79 49 43
414 487 245 128 16 40
478 782 315 97 78 60
415 484 250 167 17 47
318 482 380 128 17 41
415 484 255 156 14 43
415 487 250 164 13 45
303 567 149 173 0 38
397 442 310 135 10 42
414 487 255 163 13 45
324 835 194 64 46 51
412 497 245 161 12 45
414 492 250 163 11 47
413 492 255 160 11 45
413 497 250 160 9 46
285 539 135 120 5 40
413 497 255 157 8 46
353 507 354 124 8 38
308 307 268 95 74 45
408 512 230 69 29 35
411 502 237 96 24 38
320 806 280 180 126 104
410 507 235 62 28 33
411 507 237 76 26 34
285 354 275 102 77 52
315 646 345 180 135 112
411 507 240 115 17 37
424 702 303 68 48 38
410 512 235 45 32 34
411 511 240 39 28 33
395 430 307 59 29 22
412 502 255 154 4 46
411 511 245 114 14 38
411 507 250 157 7 43
411 512 250 145 10 40
289 652 200 163 10 44
417 457 230 45 34 35
340 731 358 168 118 93
294 514 392 193 126 101
374 657 220 128 13 38
420 452 235 80 29 36
358 844 292 93 65 50
419 457 235 62 31 35
391 520 313 33 23 33
419 457 240 134 21 43
420 453 240 144 20 41
388 396 270 65 53 40
411 718 232 65 43 38
421 451 240 80 29 34
416 462 231 39 35 35
339 418 345 69 36 30
418 462 235 40 32 34
310 657 140 170 129 106
448 817 315 99 84 74
418 462 240 75 30 35
421 452 245 41 30 33
365 539 89 131 41 54
280 480 266 179 0 50
281 865 269 140 114 89
420 457 245 66 27 33
278 572 160 124 13 39
419 462 245 69 29 35
419 462 250 49 30 32
355 954 274 81 74 76
310 547 100 176 118 94
419 462 255 46 30 33
410 454 282 155 3 46
417 467 235 56 31 34
416 477 240 41 32 34
418 467 250 56 29 36
416 477 250 66 31 37
416 482 250 127 15 40
337 647 165 152 106 86
289 278 300 88 76 65
400 502 302 127 20 42
288 278 305 97 81 64
346 900 373 59 53 51
288 282 295 87 76 65
286 285 294 88 76 65
282 286 300 97 81 65
280 289 301 102 84 65
277 732 205 176 10 49
391 502 313 148 12 43
280 288 305 101 83 63
287 281 299 91 79 67
459 814 303 102 76 68
331 348 318 130 100 68
285 284 308 102 83 64
416 766 250 65 51 45
288 282 310 107 87 64
287 292 285 90 76 62
323 287 271 93 72 44
408 732 250 61 47 38
312 567 330 57 28 34
287 297 280 96 80 62
285 302 280 96 78 57
335 737 353 170 119 94
414 487 260 165 12 46
288 302 276 100 82 63
337 397 323 107 86 64
286 302 278 98 80 60
350 724 363 162 113 85
282 302 285 92 73 51
300 732 187 80 26 33
314 562 372 166 119 85
337 572 111 161 110 82
443 798 315 69 55 48
285 298 281 94 77 59
280 307 287 93 73 50
342 347 290 99 83 65
279 317 286 97 77 54
282 312 284 92 74 53
279 498 356 55 26 25
287 317 279 96 76 53
272 302 300 117 92 64
274 317 310 129 91 69
381 652 245 72 26 36
290 502 320 41 27 34
397 537 205 52 32 34
271 306 298 129 100 69
270 307 300 128 96 69
352 881 189 93 77 67
363 847 290 46 34 32
270 304 302 117 90 61
420 729 353 65 50 36
438 857 330 73 60 54
270 307 304 126 93 67
417 442 270 127 17 42
380 686 224 91 27 37
453 752 320 97 77 61
308 886 340 37 36 38
269 312 300 132 96 70
270 312 304 130 92 70
271 313 298 129 95 68
270 317 301 131 92 68
271 317 298 130 94 70
270 317 304 131 91 70
366 936 271 69 61 59
273 307 310 125 90 70
271 312 307 131 93 71
364 840 418 84 66 51
273 312 310 129 91 71
261 452 349 82 29 36
395 838 249 56 48 49
279 292 295 98 83 67
279 297 291 96 78 59
333 622 159 110 74 63
457 806 312 110 79 54
381 536 172 65 23 27
413 396 265 74 40 29
274 297 300 109 88 65
288 652 270 120 23 44
275 294 301 107 87 66
276 295 298 109 90 69
278 302 290 100 79 52
275 298 297 114 93 68
378 402 320 136 9 41
281 290 294 91 78 65
327 428 383 102 4 34
430 757 283 63 50 43
281 296 289 89 75 60
286 290 288 85 73 61
288 347 320 126 95 67
340 869 216 52 45 47
375 563 183 178 15 46
428 732 290 63 49 39
400 884 341 50 43 42
348 847 310 86 63 49
281 300 288 92 74 53
279 292 309 106 84 60
278 297 311 107 86 61
285 347 318 126 94 69
394 817 235 54 47 46
276 301 312 112 87 61
280 289 308 100 81 59
306 712 183 94 27 38
283 297 314 110 87 61
355 572 327 159 2 52
269 892 295 127 106 88
286 290 312 113 89 62
384 792 346 151 101 76
407 507 290 91 21 35
272 459 339 111 19 35
288 301 317 115 88 61
274 312 291 104 80 52
368 848 402 73 58 48
395 813 233 55 47 47
277 317 290 102 80 55
363 737 180 101 26 33
377 607 220 116 34 47
411 806 260 51 44 42
275 304 313 124 89 68
278 307 315 126 89 68
330 562 103 166 111 85
334 307 305 130 93 69
276 317 312 128 90 69
367 702 354 136 98 64
276 314 312 130 92 72
408 512 285 37 28 32
303 337 266 90 68 46
279 317 314 127 90 68
282 312 317 123 90 64
285 308 318 119 88 61
348 865 355 53 48 45
291 560 282 118 19 35
288 307 318 118 88 62
350 899 366 61 56 55
284 312 318 121 90 63
288 312 319 120 91 64
394 577 245 183 10 50
303 347 323 129 101 70
356 738 161 118 91 65
347 276 313 156 109 84
299 272 285 97 83 68
354 872 195 79 66 57
303 267 285 98 84 69
341 607 340 121 85 62
300 269 286 99 85 71
283 607 280 102 29 44
294 287 280 96 80 62
293 282 285 96 80 63
281 949 317 47 44 44
300 279 277 97 81 64
299 273 281 98 83 66
301 276 278 98 83 66
297 276 285 96 81 65
416 719 237 61 41 35
299 282 276 96 80 64
418 748 342 55 42 31
298 287 275 98 81 63
359 395 301 70 60 50
296 286 278 99 82 63
280 662 236 150 0 47
303 282 274 96 81 66
318 267 271 96 80 64
332 920 348 52 48 48
302 672 189 65 37 41
315 475 382 122 5 40
347 642 326 113 81 60
318 272 271 97 81 65
305 264 286 99 85 70
401 531 216 99 33 43
292 933 341 67 61 59
404 710 248 64 41 35
310 259 282 99 82 65
307 266 279 97 82 66
392 886 300 68 60 58
284 347 281 106 82 55
310 264 277 99 82 65
435 736 333 82 60 39
312 271 273 94 79 62
306 265 283 94 80 65
272 542 195 81 32 42
315 258 277 95 80 63
294 527 101 175 19 51
328 368 261 81 61 45
349 855 313 67 50 38
314 272 272 94 78 62
282 642 245 119 19 44
314 268 272 93 77 60
336 437 378 67 20 31
316 265 273 92 77 61
291 508 295 129 16 44
313 277 271 95 79 62
308 287 270 99 84 68
313 282 271 96 80 62
318 277 271 95 79 61
338 276 318 140 101 69
318 287 270 92 72 46
356 522 74 181 11 35
279 517 155 110 20 42
306 280 273 93 83 74
388 792 195 56 46 42
294 273 295 94 81 68
286 856 274 142 115 87
295 269 300 93 80 67
274 357 295 139 99 75
381 810 192 70 55 47
294 272 300 89 76 64
364 587 322 31 28 30
304 262 290 105 90 73
313 530 75 222 146 122
318 707 326 109 8 34
299 263 300 98 82 65
299 268 290 102 87 71
309 602 120 153 107 74
452 762 320 77 59 45
301 265 293 107 91 76
297 267 300 98 83 68
352 553 104 170 14 36
297 267 305 100 84 67
294 273 309 104 86 67
314 632 155 134 97 82
299 267 309 103 85 66
269 461 346 46 31 31
419 762 270 66 53 45
298 272 311 108 88 66
318 647 170 98 64 57
301 270 312 109 88 64
292 277 295 87 76 64
328 874 345 35 32 32
295 274 291 98 84 70
292 890 326 118 99 82
293 337 321 124 94 65
291 275 305 96 80 64
291 280 293 85 73 62
313 837 270 87 70 53
296 275 288 97 82 67
293 277 310 106 85 63
295 302 272 102 82 59
283 337 316 123 92 66
318 567 126 101 52 48
352 413 349 104 0 30
295 278 313 114 89 65
278 443 374 63 22 26
300 273 313 114 92 66
326 834 205 77 65 61
262 422 310 180 1 55
302 752 184 130 100 68
270 516 181 157 3 42
312 542 110 104 51 48
275 868 310 159 125 104
303 277 316 114 90 62
340 626 152 151 110 85
298 282 315 111 89 63
280 527 234 127 10 40
297 287 316 111 87 60
338 602 350 150 109 76
333 617 360 158 112 81
313 913 361 72 66 63
299 288 318 113 89 61
306 777 164 154 116 83
279 897 350 43 40 41
336 965 267 83 77 79
302 281 317 111 88 62
303 287 319 115 91 62
333 682 140 147 99 64
287 852 280 158 124 96
351 844 307 97 73 56
306 260 289 102 87 72
309 262 314 110 88 63
310 258 313 109 88 64
313 262 316 113 89 62
308 267 315 111 88 60
360 681 334 111 87 58
471 791 277 89 70 60
313 652 160 154 111 95
353 827 175 155 104 76
308 272 316 114 90 61
276 722 245 161 0 49
458 832 335 76 62 54
314 267 318 117 92 62
311 270 317 114 90 61
314 667 170 125 87 75
315 264 318 117 92 63
317 261 317 117 92 62
313 302 321 136 102 68
318 262 318 118 93 63
318 267 319 120 93 63
318 272 319 121 93 63
313 347 322 133 104 70
382 642 255 78 31 37
306 276 317 114 90 62
328 317 316 127 94 64
308 282 319 117 93 64
308 287 320 120 95 66
315 622 117 157 107 66
318 277 320 123 95 63
352 502 354 137 7 42
298 297 271 99 82 63
294 293 276 96 80 63
285 532 147 47 34 33
293 297 274 99 83 66
283 607 275 77 31 39
295 289 277 98 80 62
291 290 283 96 80 64
292 302 274 103 83 62
308 797 155 161 115 78
308 717 180 86 29 40
393 502 310 103 19 37
384 587 305 53 26 31
296 296 273 99 82 65
294 307 271 100 79 54
368 846 390 78 62 51
300 873 323 144 104 90
293 312 270 104 81 53
280 909 337 47 45 45
300 308 267 100 80 58
375 538 164 175 15 41
343 518 350 86 17 36
299 313 267 101 77 52
303 308 267 101 82 61
303 312 267 99 78 57
303 317 267 97 76 53
289 307 276 105 85 61
287 387 321 133 98 73
297 865 312 117 95 73
468 816 351 91 73 55
291 311 274 107 84 55
289 312 276 103 81 55
362 857 201 75 65 61
308 292 269 98 81 63
308 297 268 98 79 57
363 392 270 62 52 42
454 824 317 105 84 68
313 292 269 96 76 52
290 907 320 114 87 73
398 837 400 95 74 58
276 377 306 138 98 77
313 297 268 94 74 49
321 672 334 157 115 91
358 842 295 94 67 51
293 327 321 125 95 67
308 302 268 97 78 55
318 292 269 93 72 44
275 572 185 129 10 41
409 687 340 82 66 53
318 297 269 92 72 47
318 302 269 93 71 42
313 313 267 90 69 43
310 310 268 92 70 41
318 317 267 90 68 40
293 292 316 112 87 59
293 302 318 115 89 61
428 742 305 61 47 39
296 296 317 117 90 62
463 717 352 96 73 56
298 297 319 119 90 62
303 292 320 120 93 64
303 297 320 122 94 65
298 302 319 118 91 62
340 771 358 161 120 91
293 317 320 126 96 67
318 292 320 129 100 65
382 592 220 90 30 39
334 873 215 51 45 47
328 617 116 168 113 80
318 312 320 132 99 70
302 787 170 161 123 91
333 418 334 76 60 40
415 457 271 142 14 46
318 317 320 131 98 67
335 969 274 86 79 82
313 287 320 124 97 67
298 312 320 125 98 68
303 307 321 129 102 69
270 527 195 96 20 36
313 292 321 127 99 66
313 297 321 132 100 66
318 297 320 132 99 66
373 517 75 119 17 39
391 699 252 92 29 39
424 849 341 59 50 42
308 312 321 134 102 69
313 307 321 137 103 71
318 661 127 190 131 98
308 317 321 134 103 70
313 317 321 133 101 70
276 458 330 150 11 44
295 612 293 64 22 28
413 782 334 62 46 38
289 332 270 98 76 49
338 342 285 91 76 60
280 327 285 103 81 55
280 337 287 111 84 56
401 880 311 73 61 58
293 447 410 154 15 50
284 322 281 98 77 53
283 327 280 99 78 51
286 327 278 100 78 51
458 792 315 76 62 47
281 322 284 99 79 56
283 332 281 102 80 53
286 332 279 101 78 52
413 847 290 46 39 42
282 332 284 104 82 56
285 343 271 97 75 50
285 347 271 97 75 50
286 347 268 94 74 52
362 262 305 151 106 79
409 417 290 143 8 43
280 342 287 113 85 58
280 347 287 117 89 58
402 744 265 53 36 36
285 343 273 97 74 49
282 342 284 109 84 56
352 722 160 118 92 63
286 351 278 104 79 52
412 708 286 73 56 40
282 347 284 112 87 58
280 352 286 121 91 65
282 347 316 128 96 69
307 861 311 116 93 69
271 322 298 133 97 67
270 327 300 134 94 69
313 327 265 90 68 37
270 332 300 136 96 71
308 342 265 89 65 42
300 606 298 164 1 50
327 532 355 64 14 30
271 331 298 138 100 69
319 568 129 83 12 34
372 927 295 60 53 50
270 332 303 137 97 74
271 338 302 137 97 74
304 521 75 182 123 102
304 407 333 110 86 63
362 522 344 150 12 45
339 517 64 150 91 80
265 501 390 176 131 111
270 340 299 137 98 73
273 347 295 140 100 74
349 767 363 159 113 86
377 417 325 80 20 31
271 347 300 137 96 73
275 333 292 126 95 64
313 432 340 82 61 43
277 337 289 119 90 59
313 652 125 184 126 93
472 782 285 79 65 56
274 322 309 127 91 68
282 352 317 129 96 71
373 917 270 61 53 51
263 468 370 168 10 51
323 943 244 94 87 90
279 322 314 123 88 66
279 327 314 123 90 65
274 332 309 132 94 73
279 337 313 126 91 68
282 322 316 123 90 65
269 451 330 129 23 44
284 322 318 123 91 64
288 322 319 124 92 64
306 577 153 34 33 34
288 327 320 121 91 63
409 727 345 67 53 41
285 337 318 121 91 66
275 346 292 133 97 71
274 447 265 112 11 36
278 347 289 121 92 62
388 682 275 50 27 31
387 846 376 75 59 45
274 347 305 137 98 76
343 858 299 55 45 35
277 342 311 133 95 73
264 927 305 101 83 73
275 352 308 136 98 76
372 657 216 115 17 36
372 703 349 134 97 66
276 347 311 135 98 75
318 949 248 94 87 91
277 352 310 135 98 74
283 342 316 127 94 68
284 342 318 125 93 68
392 452 319 117 18 40
284 352 319 128 96 71
381 840 217 68 56 51
288 352 321 127 95 70
293 436 355 53 39 22
387 811 334 122 80 59
433 807 315 83 67 58
287 357 269 93 71 45
288 362 270 92 71 44
408 702 230 82 46 39
280 357 285 120 92 61
334 416 332 77 62 42
265 419 319 62 41 27
280 362 286 121 92 63
321 774 322 59 49 44
337 322 300 116 90 60
287 367 274 96 72 46
320 519 354 86 11 34
282 362 284 117 90 60
278 577 245 139 0 39
280 366 287 122 92 65
285 378 272 95 74 46
287 382 269 87 68 46
289 372 270 91 70 44
338 866 360 52 47 45
281 372 285 119 90 63
280 377 287 123 94 63
282 382 285 113 88 65
332 854 298 71 56 40
457 796 320 71 58 44
280 380 287 123 95 63
257 452 370 105 14 38
275 357 292 136 97 73
289 545 122 81 26 27
273 357 300 140 98 77
325 540 344 131 6 42
268 462 400 49 29 27
311 650 152 164 121 98
429 742 301 57 46 39
363 867 395 64 54 48
274 362 295 140 101 75
324 904 214 82 73 71
277 362 289 131 97 68
276 368 293 137 100 73
274 362 300 140 99 76
274 367 300 141 100 77
328 599 148 90 52 50
266 423 270 111 13 36
386 713 310 48 28 28
401 815 247 63 49 47
275 357 308 137 98 77
275 368 308 137 97 77
276 362 307 140 102 79
375 549 173 39 31 34
320 671 339 167 124 99
313 562 120 127 71 68
277 362 310 137 99 76
276 365 307 139 100 79
372 881 236 68 59 58
277 367 310 136 98 76
359 553 104 57 27 31
280 367 313 134 97 75
306 809 205 76 63 58
282 357 317 130 95 71
284 357 319 128 95 71
438 802 315 78 64 55
282 362 316 131 97 73
309 497 385 130 47 55
343 847 293 88 66 50
284 362 319 129 95 72
309 527 75 205 137 115
282 367 316 132 97 75
284 367 319 130 97 73
277 891 316 126 103 80
275 372 296 140 102 75
327 477 374 131 7 38
275 377 296 139 100 74
305 762 175 140 98 72
364 532 120 46 23 30
358 871 310 33 30 31
279 372 290 132 96 70
276 372 293 138 100 74
273 732 235 176 1 55
276 377 294 136 97 73
275 372 305 139 99 76
425 422 260 157 10 46
305 635 177 180 6 51
273 419 324 64 49 32
278 382 290 126 92 67
295 378 328 129 96 70
275 380 300 138 98 75
293 887 256 150 116 84
277 382 305 136 97 75
281 371 288 124 90 68
347 472 349 128 6 37
377 673 299 108 15 35
281 382 288 117 88 62
278 377 310 138 100 77
397 517 304 32 28 32
304 432 334 79 63 46
280 373 314 138 101 75
279 382 310 137 99 76
282 377 316 134 99 75
320 582 140 62 24 33
284 372 319 132 96 72
366 753 177 87 41 42
282 382 315 136 100 76
287 692 290 65 27 34
278 687 230 140 0 41
302 602 301 164 0 50
281 384 312 138 101 76
302 692 189 128 18 39
284 382 319 134 99 74
268 441 366 59 39 27
312 885 335 39 36 36
405 522 225 144 18 43
377 667 295 122 13 40
290 334 267 99 77 48
290 337 267 98 76 48
296 322 268 96 74 48
303 322 267 94 74 50
303 535 115 102 22 34
303 327 267 93 71 48
303 541 126 167 6 42
296 330 268 97 70 47
464 818 335 83 62 55
299 407 330 117 90 68
303 332 266 91 69 47
409 782 250 52 44 43
338 927 235 76 69 70
313 322 266 90 68 39
289 322 276 97 76 52
405 534 233 140 22 47
271 896 278 139 110 88
291 322 273 97 76 50
291 325 273 97 76 50
289 342 266 97 75 48
293 342 264 95 70 39
363 657 205 103 15 31
322 648 362 186 131 106
293 347 264 91 68 41
298 342 265 90 67 43
303 342 265 88 65 43
361 874 300 29 27 28
298 352 264 87 65 45
402 850 373 60 49 40
333 342 315 126 96 65
308 327 266 93 71 44
308 337 266 89 67 45
313 337 265 87 65 41
318 327 320 131 99 69
318 332 266 85 64 38
318 337 266 87 62 41
360 787 158 147 97 68
359 417 346 114 5 34
313 342 265 91 65 43
308 347 265 87 63 43
278 457 280 76 25 32
313 347 265 89 64 44
362 547 130 160 12 42
318 342 265 88 64 43
354 838 409 70 55 43
318 347 265 84 63 44
395 573 240 117 20 39
318 352 265 79 60 41
293 322 320 126 95 66
349 267 316 142 99 74
326 425 360 65 34 30
341 343 304 119 93 63
394 782 336 130 86 62
290 361 267 91 69 43
407 542 265 172 16 51
308 837 280 89 68 43
289 367 271 91 68 45
298 357 265 84 65 44
303 362 264 80 62 42
323 872 240 118 95 75
291 371 269 87 68 46
290 374 267 85 67 46
338 868 355 43 40 39
290 377 267 89 69 47
298 372 264 82 61 38
303 372 263 81 60 39
303 840 274 105 79 48
298 377 264 81 61 41
393 877 265 72 59 56
328 525 61 231 148 127
302 376 263 79 58 41
391 890 325 61 51 49
301 380 263 79 58 39
384 897 295 59 53 50
308 362 264 80 61 41
384 847 310 39 36 37
325 443 387 134 15 43
328 777 143 150 104 66
313 362 264 80 59 39
282 732 199 165 4 45
313 367 264 81 59 39
318 367 263 79 58 41
392 886 280 54 46 46
437 740 348 68 55 42
313 377 261 78 59 42
308 382 260 77 57 42
313 382 259 77 59 44
313 432 370 65 36 29
319 379 257 79 61 46
288 367 321 129 96 71
287 377 321 132 98 73
287 382 321 132 98 73
283 727 285 65 32 38
303 322 321 132 102 68
390 467 321 47 27 32
292 342 322 123 94 66
296 533 300 111 24 38
298 457 390 154 8 50
384 847 395 82 63 50
292 346 322 125 95 66
391 571 226 134 20 43
291 350 322 125 93 66
298 340 322 127 98 68
368 401 305 82 53 39
298 343 323 127 99 68
288 592 294 156 0 48
348 422 360 65 21 28
303 342 322 131 104 70
298 352 325 126 98 69
308 322 321 135 103 70
308 327 321 134 105 70
323 462 370 153 8 48
313 322 321 132 101 69
267 927 315 94 70 62
441 840 336 76 61 50
308 332 321 133 104 70
318 322 320 131 98 68
318 332 320 132 102 69
308 342 322 131 102 68
286 758 205 114 56 62
408 838 361 55 45 39
313 352 323 130 102 69
423 788 326 44 35 28
394 477 315 137 8 45
337 642 355 135 91 62
361 881 217 83 73 71
314 351 322 132 103 68
318 352 322 131 102 66
290 357 323 127 96 69
352 373 270 97 74 60
293 357 324 126 96 68
283 662 250 154 1 45
388 887 260 75 63 60
290 362 323 127 94 69
303 357 325 128 100 67
298 362 326 126 96 67
290 372 323 131 97 71
290 377 323 132 98 72
293 377 326 130 97 72
296 519 98 138 7 39
289 382 323 130 97 72
297 371 327 128 97 68
309 692 165 155 112 96
296 375 327 129 97 70
269 408 295 79 67 55
313 357 324 129 100 67
268 470 370 169 0 37
418 727 240 50 41 34
308 362 325 126 98 64
308 622 125 154 108 74
380 588 214 174 23 51
308 367 327 128 100 66
313 362 324 127 99 65
316 354 323 132 103 69
280 655 221 152 0 43
319 356 322 131 102 68
318 362 323 127 98 65
273 947 310 59 54 56
386 856 236 70 56 51
318 367 324 127 99 65
310 371 327 128 100 66
313 372 326 126 98 63
311 374 328 128 99 64
308 382 330 130 100 67
339 377 317 124 96 63
313 452 385 170 11 54
318 372 325 127 98 63
322 847 239 155 120 93
318 377 326 128 100 65
319 382 327 127 98 64
317 772 315 74 59 54
317 383 328 128 99 64
323 267 270 99 83 66
362 562 125 65 27 34
323 272 270 96 79 59
386 678 284 57 25 32
328 267 270 98 78 53
353 602 326 137 13 44
370 436 341 42 28 26
328 272 270 94 73 47
260 455 351 85 23 35
278 403 260 67 48 35
328 277 271 92 71 42
332 276 272 93 71 41
335 274 273 94 70 39
334 278 273 94 72 44
331 280 272 94 71 41
312 592 316 43 29 32
487 792 305 97 74 57
361 547 145 169 14 47
330 284 273 95 73 43
332 286 276 95 71 46
371 570 182 31 32 41
404 747 270 53 39 36
342 261 272 107 79 48
419 766 338 57 41 33
344 262 274 111 84 52
347 642 191 130 8 36
339 268 273 99 75 45
275 740 211 68 35 38
272 542 200 76 22 34
337 271 272 96 73 44
331 600 112 164 112 79
272 882 275 177 128 106
411 853 298 51 45 50
362 542 135 149 13 43
338 272 274 97 73 44
470 783 275 76 61 52
338 602 120 157 112 79
343 267 275 106 81 51
300 771 253 85 67 60
342 272 276 103 79 51
353 262 280 117 89 58
394 747 335 71 50 38
346 265 277 113 85 55
289 517 275 73 25 34
348 267 280 114 87 57
264 417 260 163 0 46
347 272 281 112 86 56
350 269 283 118 91 60
348 838 296 111 80 62
353 267 285 127 93 64
338 277 275 97 72 45
321 695 322 126 13 39
400 804 238 58 47 45
341 277 277 102 77 50
353 556 106 171 16 42
278 515 350 80 21 33
344 277 280 104 79 52
337 282 276 96 71 46
354 427 356 81 17 31
338 287 281 96 71 47
342 281 281 101 76 48
339 288 284 102 77 52
418 727 351 65 52 40
348 277 285 118 87 60
345 279 283 110 81 55
333 267 319 130 100 65
411 801 270 57 48 46
324 557 98 172 111 82
328 277 319 127 96 66
323 282 319 128 98 64
358 592 175 169 14 45
351 714 162 119 91 63
328 287 319 134 99 69
333 277 319 132 98 67
355 477 342 134 10 44
379 612 230 67 31 39
404 812 280 64 52 51
334 283 317 144 99 71
338 262 319 127 97 64
347 891 211 74 66 66
286 502 265 155 0 42
338 267 319 129 100 66
279 752 225 155 14 52
383 867 370 57 49 46
342 271 318 140 101 69
351 575 127 149 28 56
384 437 326 86 21 35
333 917 350 55 51 51
368 767 174 107 80 53
347 262 318 136 100 67
353 262 314 147 104 79
346 266 318 137 98 68
460 813 295 97 76 62
371 531 151 181 15 41
283 502 415 183 129 107
350 277 290 129 92 68
350 279 294 130 91 65
262 466 411 70 24 25
303 943 336 75 70 69
280 475 278 125 15 43
347 287 295 129 88 63
349 282 295 129 88 67
337 297 305 132 92 71
351 280 296 131 88 64
347 286 305 140 95 73
350 283 300 135 90 68
349 283 305 143 98 75
341 275 318 144 101 72
344 283 311 152 106 84
338 282 315 149 100 74
273 431 345 58 44 32
353 272 310 154 107 84
325 367 322 129 101 68
391 512 313 46 21 29
352 276 309 151 103 81
353 277 305 144 98 75
306 517 65 129 86 64
350 279 307 147 101 81
286 450 413 103 9 33
345 279 312 156 109 85
358 821 344 132 81 62
350 274 312 155 110 87
348 282 309 150 104 78
390 696 254 92 30 30
344 288 306 140 94 75
274 597 210 160 0 44
284 692 280 43 31 33
346 285 308 145 100 79
323 292 271 92 72 46
262 932 330 52 49 50
327 297 275 94 75 51
270 436 305 37 34 34
375 854 298 41 36 36
325 298 273 92 72 49
360 594 183 175 15 50
325 302 273 91 72 50
327 302 275 93 74 51
273 437 280 44 29 33
284 557 141 192 7 49
330 294 278 94 73 51
330 298 278 99 78 56
330 464 362 138 14 36
332 297 281 91 71 46
382 562 314 177 6 57
334 297 283 90 69 42
332 302 282 89 70 46
462 820 313 105 80 61
444 818 305 94 76 62
270 431 265 174 1 49
323 691 321 125 7 39
334 302 283 91 71 47
323 307 270 89 71 50
323 312 269 87 69 48
270 446 316 171 1 47
321 317 267 88 69 44
291 522 280 72 25 34
448 777 296 75 62 50
323 317 270 87 69 46
366 405 313 88 50 39
328 316 271 88 71 52
325 306 273 90 72 52
485 769 289 105 85 66
327 307 275 93 75 54
329 318 275 89 72 54
332 311 280 95 76 53
333 312 285 98 77 53
331 316 275 94 76 56
386 540 182 123 13 42
365 496 337 44 30 28
331 316 272 91 74 54
349 839 396 54 44 37
330 316 283 98 78 54
384 818 204 72 58 54
332 317 285 101 80 56
336 290 282 95 70 44
415 712 343 70 56 44
464 814 348 52 37 27
337 302 285 99 78 52
337 307 286 104 81 53
375 914 280 53 47 45
375 808 352 150 96 72
323 297 319 135 98 68
321 525 368 169 13 55
329 292 317 137 97 67
388 729 187 81 47 44
326 297 318 136 96 68
364 390 260 64 55 46
332 602 360 158 113 82
333 292 314 142 97 72
330 288 317 139 99 73
442 832 303 88 75 64
323 692 340 168 120 96
333 297 314 136 97 73
331 798 316 66 53 49
335 298 310 134 95 74
260 495 411 185 127 119
335 298 306 130 93 74
335 302 306 129 92 70
281 467 310 124 14 42
334 313 289 108 84 56
408 827 289 53 46 47
323 312 318 130 96 68
324 307 317 130 96 67
285 531 367 177 128 103
313 537 115 58 29 32
288 482 305 151 3 42
325 311 317 129 96 66
327 547 358 104 19 38
328 312 316 127 93 63
306 637 128 160 117 82
326 318 318 129 96 63
393 507 310 76 21 33
328 516 349 65 12 27
333 307 310 129 92 68
331 307 313 127 92 65
367 867 215 67 58 57
331 312 313 124 91 65
303 436 390 60 37 26
333 317 310 123 92 65
406 737 216 78 59 52
331 317 313 124 91 65
406 417 294 140 5 42
371 698 344 125 95 62
393 747 195 71 56 47
339 297 290 117 86 63
269 897 280 128 105 84
343 292 300 129 88 67
341 296 300 126 89 64
281 469 339 87 16 38
339 298 301 127 89 66
340 298 295 124 88 62
338 302 300 124 90 64
336 302 304 128 94 68
345 289 294 132 91 64
345 289 302 132 89 66
352 937 251 76 69 71
439 763 336 63 49 37
336 296 309 136 95 76
344 524 85 124 35 49
341 290 309 141 97 76
354 502 350 141 8 42
352 617 185 50 31 34
286 507 265 154 0 43
337 312 295 116 86 56
371 642 298 98 13 36
265 912 290 166 128 103
336 307 303 128 93 67
337 312 300 124 92 61
336 316 292 113 87 57
295 927 232 77 68 66
304 642 182 182 0 44
336 317 295 116 87 58
337 317 300 120 90 60
448 777 315 68 55 45
288 497 416 174 123 103
366 757 177 91 65 48
336 317 304 124 90 64
306 618 302 164 0 51
356 265 287 137 97 71
305 504 397 211 145 129
360 258 288 145 102 76
358 262 290 147 104 79
443 787 295 63 53 46
360 263 294 149 103 77
277 742 210 68 32 42
318 687 315 122 10 35
453 819 349 62 48 36
359 267 295 143 97 72
269 501 414 185 129 115
356 270 292 149 106 81
357 271 296 139 93 69
359 722 180 92 30 30
359 267 300 144 98 72
353 572 125 206 28 55
382 782 354 157 108 84
319 877 242 116 93 75
357 272 300 139 93 69
362 262 300 146 101 74
361 265 296 142 97 73
376 452 338 58 30 29
308 897 375 69 61 58
361 265 300 145 100 74
274 567 210 101 23 38
303 437 380 61 39 29
276 717 246 159 1 49
358 262 310 152 108 84
355 263 312 153 110 82
354 267 312 152 108 85
356 270 308 151 106 81
476 810 320 87 67 54
310 503 377 127 44 52
360 264 307 151 106 76
374 772 362 161 110 77
355 274 300 137 91 70
355 273 306 147 99 77
397 737 320 33 27 26
323 272 320 126 97 63
328 267 320 130 100 64
321 322 267 87 66 40
321 327 267 87 66 38
323 327 270 84 66 43
394 802 215 54 47 47
361 689 353 133 95 59
262 494 416 141 78 84
326 742 143 144 98 60
322 333 267 85 66 40
353 377 265 88 70 57
326 334 271 85 67 47
328 337 270 85 68 47
403 532 225 90 21 36
394 722 300 48 21 27
362 852 395 74 57 45
326 322 276 88 72 54
467 822 311 105 79 64
329 327 280 90 74 57
325 331 274 82 67 51
272 577 200 148 12 46
327 606 112 165 112 75
304 607 304 158 2 49
323 912 221 75 66 65
327 332 275 82 68 52
271 711 214 59 34 36
295 420 328 111 83 67
278 476 422 123 99 77
318 687 176 71 43 38
329 332 280 87 72 56
298 502 409 185 127 108
332 327 285 101 82 61
341 617 130 159 115 82
378 863 345 44 38 36
330 330 283 94 76 57
316 559 344 61 18 28
323 821 157 205 144 116
331 425 344 62 36 32
360 392 285 74 66 57
332 332 285 94 78 60
323 342 266 81 61 42
402 707 305 58 48 41
299 747 186 88 36 43
326 338 267 85 66 42
327 342 267 74 62 49
343 898 220 81 73 73
328 347 267 72 60 44
330 346 268 75 62 45
291 758 245 82 65 59
347 521 72 164 93 88
283 522 325 48 30 34
333 350 268 78 64 46
334 341 280 86 72 57
355 507 351 135 7 41
290 903 316 111 87 72
337 347 271 84 69 52
338 352 269 82 68 51
410 788 268 62 50 49
288 447 411 103 13 34
373 432 335 90 17 30
337 343 280 87 73 57
339 347 280 88 73 58
373 562 180 111 22 38
341 352 275 85 70 57
341 349 280 89 73 58
342 352 280 87 72 56
340 346 285 89 74 59
359 948 275 76 68 68
291 764 221 87 70 63
341 348 285 89 75 61
282 396 264 75 59 44
342 352 285 90 75 60
334 322 289 111 87 58
334 327 289 108 87 64
360 392 290 75 65 54
334 332 289 103 84 64
365 700 193 86 31 39
323 322 319 130 98 65
321 486 378 122 14 44
326 322 318 130 97 66
329 327 316 130 96 64
323 332 319 130 100 67
326 332 318 130 98 66
316 840 248 151 118 88
329 337 317 128 96 65
294 565 147 190 3 41
327 337 318 129 100 67
335 326 306 120 91 65
332 327 314 127 96 64
313 562 100 183 122 90
335 332 311 127 97 68
335 336 312 128 98 66
332 332 314 128 96 66
389 752 189 73 55 49
332 337 314 128 97 63
323 342 320 129 100 66
304 890 378 61 54 50
327 342 318 128 98 65
328 347 319 127 98 64
328 352 319 128 98 65
353 457 355 157 14 50
330 341 317 128 96 67
335 340 312 127 97 66
311 656 156 152 109 85
280 559 256 133 2 38
330 346 317 128 98 64
323 742 143 149 100 61
276 473 369 188 0 50
333 347 316 126 96 65
374 452 340 56 26 29
333 352 316 127 96 64
266 437 324 171 0 45
284 727 260 86 22 38
331 352 318 129 98 65
279 946 261 72 68 70
336 322 292 115 89 57
258 447 360 128 9 43
327 668 316 67 25 34
276 557 175 143 0 39
423 807 321 45 37 31
337 322 295 114 88 59
346 538 115 112 6 37
338 327 295 113 90 62
339 332 295 111 89 65
338 337 290 103 84 63
341 337 300 114 90 61
337 337 310 126 98 66
340 342 289 98 81 63
277 411 312 102 75 57
365 839 418 67 52 36
341 342 291 102 85 66
344 352 290 99 82 64
342 347 305 121 95 64
289 407 324 117 87 69
393 396 285 64 49 33
312 697 143 158 105 73
345 351 295 107 87 64
407 437 295 145 0 44
339 347 310 126 98 64
339 352 310 125 97 63
341 348 308 125 96 65
308 717 150 161 108 74
328 357 265 79 62 45
294 747 300 67 25 35
368 517 125 143 12 41
333 387 324 128 99 67
323 362 264 79 58 42
328 362 264 80 61 45
348 515 353 170 17 57
281 911 334 47 41 40
313 954 253 94 90 94
328 365 263 81 61 45
419 732 240 54 43 36
333 357 266 80 64 47
333 366 263 84 65 49
333 368 261 87 67 52
339 357 269 83 68 52
341 353 271 85 70 54
338 367 264 90 70 55
287 478 325 172 0 46
341 364 267 91 72 56
322 687 340 167 121 97
343 372 260 94 74 59
334 834 174 210 137 112
342 368 266 95 74 58
365 629 307 44 22 24
414 462 270 111 20 40
344 366 269 93 72 58
416 462 268 95 18 38
346 363 272 88 69 56
281 662 240 110 11 39
360 578 161 56 26 33
347 368 270 95 74 59
343 357 275 88 71 57
303 387 260 72 56 41
345 362 275 92 71 53
265 489 382 63 21 24
344 362 285 94 78 60
346 363 274 87 68 54
442 847 339 68 55 45
357 862 190 125 109 98
347 367 275 88 68 51
345 366 277 90 70 46
360 830 323 39 33 36
388 838 400 99 75 54
287 487 315 58 26 34
337 369 262 91 70 55
345 375 258 92 74 60
349 376 260 91 74 60
348 372 265 97 76 61
350 371 269 100 77 62
308 757 310 77 62 57
351 374 266 99 78 63
264 426 310 189 2 55
349 370 276 88 67 52
290 533 312 61 32 31
398 396 285 65 49 30
349 372 280 85 72 58
298 838 280 104 80 50
305 634 131 160 115 83
352 373 275 96 72 56
352 374 279 81 66 52
368 839 406 91 71 55
354 377 280 78 65 52
274 893 314 139 112 87
289 569 153 194 0 49
372 830 319 40 37 37
333 367 319 126 97 64
333 372 320 126 97 64
326 642 323 125 67 60
345 356 288 95 79 61
346 354 292 102 84 63
396 562 290 160 16 50
346 353 295 106 86 64
319 971 266 79 75 78
463 822 354 91 74 60
318 762 325 58 48 45
283 542 150 94 18 35
347 357 295 105 85 63
346 354 299 111 87 60
320 618 332 139 82 68
370 923 270 63 56 53
345 356 302 113 89 61
304 552 135 184 6 43
344 357 305 118 93 64
312 532 373 171 121 95
431 737 310 71 54 42
396 767 333 122 79 57
314 577 330 69 28 36
394 852 376 62 49 41
346 359 303 116 91 61
345 360 288 94 79 63
349 362 295 106 85 62
350 366 295 108 86 62
347 362 305 116 91 62
416 442 273 152 12 46
343 362 310 120 94 63
347 853 397 73 58 47
305 560 338 41 25 35
343 840 191 74 61 58
344 367 311 121 95 64
338 362 315 121 95 63
333 800 147 172 117 81
270 722 212 160 10 48
338 367 316 122 94 61
342 367 313 121 94 62
345 361 306 118 93 63
348 572 125 169 17 41
351 369 292 105 86 65
351 373 291 105 85 63
352 372 295 108 86 62
310 821 200 52 45 48
351 369 298 111 88 62
460 794 324 55 42 31
351 372 300 112 89 61
349 372 305 119 93 62
351 373 303 117 91 60
386 555 192 140 19 45
352 377 300 113 90 62
351 377 304 117 92 63
293 892 345 50 47 47
402 792 232 48 42 41
288 910 358 63 57 54
352 382 305 116 92 64
336 369 318 125 94 63
311 862 249 145 116 86
337 377 319 125 97 64
345 371 312 120 95 64
406 531 231 78 31 39
313 582 125 147 100 81
288 554 133 85 28 35
287 482 290 174 0 50
338 382 319 125 97 64
378 867 340 39 35 34
268 457 390 58 23 25
348 382 310 120 94 64
392 707 260 66 22 33
348 962 285 66 61 61
311 468 383 80 9 31
346 379 313 120 94 63
338 528 90 155 91 84
346 383 313 121 95 63
411 402 288 142 12 45
355 380 269 82 66 52
370 833 198 78 63 60
357 382 270 76 61 48
465 817 339 103 76 65
373 865 344 37 33 33
357 382 275 70 57 44
355 380 282 79 69 57
368 832 190 86 68 60
305 547 352 85 58 47
396 733 260 60 30 34
355 382 290 101 83 63
356 866 195 93 78 68
354 382 295 108 87 62
323 352 321 129 100 66
323 372 323 127 99 65
405 497 296 100 12 37
357 946 266 84 75 75
328 377 322 130 100 65
418 828 323 57 49 46
326 378 323 129 98 66
327 382 323 129 99 66
368 712 190 103 29 27
344 414 354 83 7 29
363 602 320 85 25 36
329 381 322 128 99 64
270 877 290 170 124 106
264 412 265 144 13 43
365 623 208 168 15 44
337 567 110 156 103 81
263 417 270 178 1 50
279 627 220 99 17 40
268 408 260 59 38 27
269 408 270 69 38 30
265 409 258 84 25 20
283 440 366 63 23 24
303 887 251 112 89 66
266 410 261 97 24 42
313 856 311 113 91 67
266 410 265 93 35 36
429 822 305 66 55 51
331 687 357 167 115 90
367 522 339 138 11 42
379 907 275 55 48 46
266 410 270 88 34 35
312 857 250 144 115 86
263 417 280 177 2 51
326 691 328 124 52 52
264 413 280 127 25 42
336 692 142 130 91 54
380 850 398 77 66 57
263 417 285 179 1 52
271 405 275 68 53 36
269 408 275 67 47 35
336 524 342 76 0 21
365 558 164 51 30 33
421 422 270 52 31 33
268 407 285 82 63 42
273 403 280 78 60 41
399 567 265 184 6 52
279 398 265 69 53 38
