ply
format ascii 1.0
comment Created by Open3D
element vertex 2208
property double x
property double y
property double z
property uchar red
property uchar green
property uchar blue
end_header
198 308 300 111 89 64
271 336 304 65 51 39
306 611 219 120 21 42
351 111 359 133 74 66
256 511 259 123 20 36
340 472 216 94 33 35
321 106 328 123 95 64
414 424 279 155 12 46
402 511 314 52 28 33
231 246 269 106 89 71
398 486 308 105 4 30
296 96 259 96 45 45
243 237 256 119 96 69
256 566 334 47 29 32
401 786 264 62 52 48
284 637 328 109 20 37
381 496 359 132 10 40
246 266 303 102 84 64
292 26 224 147 106 101
309 160 241 145 110 73
243 554 336 94 68 45
342 201 349 122 96 67
247 418 340 59 48 35
335 766 368 156 108 78
254 414 339 68 55 40
313 312 356 138 102 75
302 801 284 175 123 98
246 256 300 104 86 67
388 506 340 147 7 46
279 501 223 151 1 39
212 462 264 83 27 28
336 471 214 67 35 37
301 201 254 151 108 77
204 321 288 128 97 64
216 484 296 70 23 24
369 521 197 135 19 31
454 782 358 102 83 69
276 641 364 147 110 81
311 61 215 143 32 45
365 81 219 115 38 55
202 476 275 75 35 38
256 201 254 106 90 74
393 522 295 112 15 38
290 501 209 120 3 40
301 526 388 81 28 38
291 256 320 103 82 57
204 295 299 96 80 64
242 241 256 122 98 70
307 56 257 104 78 60
356 851 314 33 30 30
359 672 221 78 31 37
254 199 266 102 87 73
251 398 246 93 82 70
337 105 364 100 75 59
390 446 338 98 17 36
415 776 309 53 46 42
351 921 319 54 49 47
277 566 369 81 21 34
282 360 268 104 91 77
232 496 279 74 29 35
271 426 363 56 26 31
293 20 327 110 28 44
331 551 384 165 23 57
255 196 264 102 88 73
329 290 348 131 101 74
246 351 318 116 87 66
296 166 268 116 94 68
256 206 254 111 92 72
381 441 219 40 35 36
396 846 309 63 55 53
325 32 352 79 50 39
291 12 319 104 46 45
396 431 266 49 36 32
289 656 244 142 1 40
204 304 292 98 81 62
372 721 213 47 36 40
365 86 369 140 22 55
281 955 274 85 82 85
346 407 404 55 36 31
281 923 366 60 54 52
207 346 304 163 107 92
304 538 176 134 99 67
306 176 244 148 109 73
327 812 366 166 113 83
315 91 344 103 19 38
390 801 229 63 50 44
251 251 250 123 98 69
339 216 358 128 98 62
270 732 294 197 8 56
210 351 284 149 105 74
277 536 241 42 33 36
336 396 254 96 83 70
286 526 203 135 1 41
341 531 205 69 30 31
297 666 359 146 104 78
200 468 322 132 95 79
371 441 225 55 37 35
298 201 248 157 112 78
298 887 245 55 52 54
226 261 269 110 90 67
412 736 254 74 56 50
309 190 361 115 95 73
252 201 260 104 90 76
283 541 198 169 0 49
376 701 309 133 9 43
316 451 213 63 37 33
361 411 419 55 28 27
285 341 293 80 67 54
359 629 226 142 10 40
221 276 299 103 86 68
275 497 228 160 0 44
250 436 237 116 10 30
426 806 369 84 65 50
365 46 360 88 45 38
259 482 237 66 23 32
292 301 352 127 98 71
284 844 282 101 83 64
251 356 258 114 93 69
251 241 250 123 98 68
273 683 269 84 32 42
267 177 263 103 87 72
219 485 300 53 19 23
399 404 272 97 21 33
297 806 304 57 48 48
257 211 250 123 98 69
306 466 189 110 89 67
349 905 353 45 39 36
251 236 250 124 98 68
241 406 246 125 12 32
232 455 322 139 3 44
254 943 324 69 63 62
248 335 316 115 87 65
251 271 304 98 80 60
241 326 264 113 90 61
302 445 204 60 30 34
248 615 326 167 115 85
256 476 171 176 113 97
271 281 289 81 64 46
251 216 254 114 93 70
256 216 250 127 100 68
390 670 279 55 44 33
376 426 240 99 6 32
251 286 255 167 112 81
371 62 215 84 84 84
257 861 289 136 111 85
365 530 383 45 25 32
341 407 404 61 33 32
338 251 349 134 101 68
256 266 248 151 109 73
252 212 255 111 92 72
244 498 298 66 21 32
281 666 264 147 3 43
251 346 260 108 89 67
409 407 316 48 28 28
306 191 325 117 93 62
337 389 294 79 70 61
361 398 284 79 64 57
376 811 354 39 35 34
387 571 314 187 17 57
321 121 258 117 86 66
309 949 332 79 78 81
389 535 251 42 31 34
254 497 339 52 26 31
228 331 266 124 98 66
255 466 238 66 32 35
347 400 349 65 56 46
235 482 284 66 33 32
248 387 251 121 97 69
329 306 348 132 101 70
350 426 415 101 16 37
256 392 246 117 95 70
209 488 318 70 56 50
363 841 228 76 62 55
281 201 283 96 81 65
253 476 368 141 3 41
415 416 332 161 11 50
276 431 228 41 35 35
254 215 252 121 97 69
461 705 300 96 79 63
359 621 225 122 26 40
234 457 243 130 30 44
394 850 350 67 57 52
440 681 274 82 60 46
329 592 190 120 93 64
244 501 295 39 23 24
396 400 279 90 23 34
245 256 253 123 97 67
264 180 253 105 90 76
427 766 299 67 52 44
283 740 230 110 29 47
248 239 251 125 99 68
448 726 326 85 74 69
246 246 253 127 100 68
333 894 211 80 64 52
250 221 254 119 96 69
226 516 294 156 96 82
401 668 287 60 46 31
370 606 319 48 29 32
317 429 227 72 40 28
250 502 305 77 25 34
311 210 322 121 94 61
246 396 249 104 87 69
370 491 399 120 16 42
237 494 312 89 29 35
291 916 239 93 82 80
327 146 362 113 92 68
288 24 237 138 104 83
405 456 332 108 21 41
224 266 272 110 90 68
356 676 218 64 34 35
222 396 279 160 112 89
345 391 339 102 81 59
321 807 177 213 154 125
276 691 324 124 0 39
221 271 294 104 87 69
379 575 333 164 16 55
251 246 250 123 98 69
397 446 303 119 1 33
326 822 360 155 106 83
244 431 242 133 13 36
281 156 263 107 88 68
276 701 373 153 107 81
331 82 322 127 94 67
340 366 329 98 82 66
316 776 169 141 102 61
316 394 253 115 100 84
237 596 329 184 126 95
246 376 254 121 97 68
362 41 360 86 51 41
309 694 188 151 105 74
252 555 300 68 26 35
273 580 255 126 22 43
248 222 256 113 93 70
287 615 362 48 29 31
252 227 288 102 85 68
354 889 256 62 55 55
278 796 368 181 126 100
296 396 244 109 94 80
240 240 286 101 84 67
392 831 279 70 56 50
311 832 324 40 30 32
272 566 349 77 23 33
236 326 320 124 93 70
346 911 264 71 64 65
320 66 257 121 27 48
306 336 299 86 75 64
253 221 251 126 99 67
301 501 389 56 27 33
260 859 300 93 68 55
252 486 364 139 3 42
286 196 280 100 83 64
212 351 279 139 103 68
345 890 209 100 85 76
436 716 300 77 64 51
219 279 301 100 83 65
391 402 234 134 26 23
340 366 334 103 85 65
282 908 244 57 52 53
296 191 344 114 93 71
200 326 304 159 107 88
246 236 254 122 98 69
341 36 329 83 27 31
304 701 207 64 48 45
235 363 316 132 94 78
236 441 254 74 24 32
391 799 296 57 49 41
442 716 289 93 71 54
282 421 226 65 24 31
322 897 233 71 61 60
326 111 223 113 76 58
228 252 283 105 87 69
314 205 366 120 96 68
246 371 255 121 96 67
247 226 255 118 95 69
333 46 239 111 32 41
290 481 385 142 14 46
346 516 398 65 30 37
213 355 280 144 104 71
393 668 282 50 43 37
321 196 367 123 97 67
231 431 329 59 42 31
337 206 328 127 104 78
232 303 317 115 93 69
326 851 248 75 59 51
348 715 351 105 16 39
286 141 260 106 87 67
316 376 364 128 100 71
293 496 387 104 18 36
251 936 319 60 58 60
377 731 214 113 18 38
329 36 248 105 17 37
396 434 232 125 4 39
240 383 311 125 90 74
313 122 348 111 92 72
256 221 249 129 101 67
386 576 264 182 17 53
351 111 220 139 29 40
274 358 261 100 87 73
195 486 309 164 119 100
221 296 313 110 88 64
216 465 274 64 18 25
250 226 253 122 97 68
293 557 220 130 8 36
382 696 244 57 38 39
236 376 313 129 94 76
377 506 233 49 29 32
283 310 307 80 65 47
270 606 294 59 36 39
228 420 299 120 16 40
360 96 225 136 23 42
247 231 254 121 96 68
246 241 253 125 99 68
270 551 364 118 16 42
271 391 245 100 87 73
218 380 293 162 113 93
309 413 231 40 36 40
255 471 239 86 28 37
261 911 339 160 124 104
236 286 259 131 99 63
286 843 322 133 103 78
211 291 284 110 90 67
289 443 185 93 78 65
328 434 227 50 41 39
236 416 249 118 24 38
432 802 342 82 63 53
213 463 296 54 20 25
251 421 239 65 32 34
236 241 264 107 89 71
246 306 314 114 91 66
341 566 202 98 19 25
274 259 251 163 111 81
408 451 286 146 13 45
368 470 230 120 5 38
286 241 284 111 87 61
316 25 239 102 77 66
251 256 249 126 100 68
248 464 352 30 24 33
256 381 250 121 97 68
286 171 239 134 104 70
298 51 239 117 19 40
291 401 363 104 83 63
331 45 360 80 31 31
255 301 307 71 59 45
292 586 184 163 112 82
289 664 326 108 3 34
285 431 223 72 26 32
251 431 238 120 13 31
259 195 252 107 91 76
252 226 250 126 98 67
365 546 208 63 22 30
240 461 329 132 2 40
276 476 170 166 112 84
379 531 362 101 18 40
222 481 269 74 28 32
251 231 251 125 98 67
293 366 357 127 99 72
319 762 377 148 107 74
313 182 362 114 94 73
367 416 389 126 10 38
326 14 314 101 71 56
321 186 325 123 95 61
230 451 249 129 22 40
355 110 364 140 45 58
249 230 252 124 98 68
321 312 306 107 90 73
241 301 315 117 94 70
286 302 305 81 67 51
288 247 274 139 103 74
334 27 339 96 84 73
213 278 292 94 80 65
295 591 178 154 106 70
193 478 289 94 78 59
327 35 234 114 95 76
246 400 307 125 90 74
346 856 359 40 30 34
271 696 339 132 92 66
239 488 286 59 26 28
324 321 306 106 90 73
237 446 299 76 16 27
328 341 312 101 86 72
191 491 294 158 112 94
382 809 324 41 38 37
230 270 301 103 86 68
264 716 294 111 36 50
252 466 241 85 26 34
338 75 240 98 55 45
270 911 254 67 61 61
310 171 328 116 92 64
256 256 247 134 104 67
416 796 344 60 49 40
411 736 249 71 52 44
327 376 313 105 91 78
210 316 279 130 100 64
277 211 241 130 102 70
227 456 255 55 33 34
261 891 334 135 110 88
359 620 328 138 27 50
205 341 304 158 106 88
239 453 331 145 1 47
300 631 184 182 125 97
256 226 249 126 98 67
256 231 249 122 97 66
323 75 321 105 70 48
241 266 303 103 85 66
393 511 300 154 15 45
381 736 299 80 23 32
241 386 253 121 96 67
386 541 249 55 28 32
311 766 179 145 109 73
349 60 331 125 34 55
309 636 222 138 8 40
350 598 207 174 17 37
263 206 246 131 103 72
353 887 370 61 53 49
219 464 273 58 20 25
248 238 251 125 99 68
258 944 286 85 80 81
258 930 270 80 75 75
345 785 170 169 115 81
241 336 262 117 93 63
337 80 244 94 26 37
378 566 248 88 23 35
300 18 229 105 99 96
357 586 355 86 26 38
361 596 209 67 29 35
271 511 239 81 29 37
245 477 247 103 24 36
296 536 174 133 100 63
257 866 284 151 119 89
305 393 250 110 95 81
393 450 298 141 6 43
251 561 309 151 11 42
257 301 305 67 56 44
356 566 368 188 15 61
261 521 249 137 18 43
307 141 344 110 90 69
217 365 308 153 105 89
226 481 314 104 4 33
256 236 248 121 97 68
240 444 243 75 30 34
414 440 327 79 18 34
336 531 205 107 22 31
291 556 377 175 20 56
252 368 257 115 93 70
396 751 234 55 44 40
271 246 245 148 108 71
304 771 204 145 107 74
256 241 248 123 99 71
286 501 203 46 24 29
257 196 269 103 87 71
312 811 204 196 146 116
321 408 398 74 24 27
401 771 244 62 48 43
255 406 310 110 76 62
298 196 330 99 81 61
304 607 206 156 108 94
445 778 359 84 72 60
242 246 255 124 98 69
302 751 211 49 41 45
243 440 349 52 30 32
348 838 365 56 44 38
364 411 379 129 9 39
296 891 343 74 63 52
327 121 255 110 39 46
311 341 301 88 77 68
250 421 324 58 45 30
281 556 375 47 27 29
279 237 292 85 69 50
284 314 302 73 59 42
401 436 289 140 7 43
281 957 314 63 59 59
291 236 349 118 94 67
288 357 352 128 100 72
344 916 265 74 68 69
242 237 287 101 85 68
383 476 341 78 24 30
321 394 253 114 100 86
311 166 329 115 91 63
241 421 244 57 39 39
271 211 243 128 101 70
312 506 392 39 25 30
280 416 228 79 23 32
396 456 334 36 29 29
361 766 179 147 102 72
314 99 227 93 67 43
366 71 374 107 25 39
368 867 262 58 53 55
300 806 294 169 119 94
398 776 252 63 48 44
255 200 270 102 86 71
317 606 177 139 101 63
253 198 260 103 89 75
222 500 309 61 32 28
367 616 314 54 30 34
306 601 370 143 24 50
247 457 242 94 11 33
281 671 369 146 104 77
216 321 273 131 101 65
341 877 323 33 31 33
269 728 292 189 25 69
271 206 285 99 84 68
231 471 254 95 15 28
354 620 338 59 26 32
217 283 303 97 81 64
323 865 315 42 37 32
346 776 359 163 112 85
256 246 298 100 83 65
336 401 364 67 57 47
341 511 399 74 31 37
241 251 255 125 98 67
252 202 268 102 87 73
332 876 364 31 29 32
277 736 279 74 55 51
278 252 252 163 111 81
368 888 318 50 46 44
264 326 307 67 53 35
277 521 189 143 82 74
281 501 200 41 24 25
248 422 325 61 47 32
316 411 235 43 38 38
391 751 304 30 25 24
276 466 220 69 23 33
265 546 254 178 8 47
255 321 271 94 77 57
275 415 360 82 31 38
391 811 259 60 50 47
286 486 383 144 12 45
332 596 194 119 92 65
255 251 248 129 102 70
405 461 205 159 19 40
316 671 180 145 99 62
313 208 367 121 97 68
241 256 255 125 98 67
363 26 362 79 44 29
219 362 273 129 99 62
363 846 318 32 29 29
307 801 259 195 137 115
248 208 264 104 90 75
246 496 314 41 28 29
246 346 318 119 89 67
320 879 373 31 28 32
281 866 269 133 106 78
336 101 217 140 33 38
284 311 340 126 95 67
265 551 344 38 27 30
376 601 254 175 20 50
241 396 250 107 89 69
274 953 299 72 64 65
331 196 325 130 104 73
325 890 382 56 51 51
287 726 215 51 28 35
284 240 250 157 111 79
248 251 251 124 98 68
255 285 256 165 111 81
245 486 349 171 0 51
365 416 379 133 7 40
406 491 284 77 21 34
217 371 304 153 106 91
368 655 237 100 14 33
386 441 228 121 4 41
365 536 208 91 21 36
279 786 343 153 114 82
299 457 186 118 95 71
341 121 361 124 92 64
246 306 265 147 99 74
242 516 293 126 23 41
286 431 214 43 29 29
230 246 279 106 89 71
340 191 334 129 104 76
252 201 264 102 88 74
221 346 270 128 99 66
321 296 355 128 97 64
286 241 254 158 111 80
245 251 252 124 98 66
353 883 210 83 70 60
248 321 316 118 90 68
206 346 299 164 110 88
400 458 201 141 16 32
251 471 359 40 27 34
248 246 251 126 99 68
238 364 317 126 90 74
396 466 334 39 27 29
246 521 304 109 11 34
299 43 222 154 13 53
248 256 251 122 98 68
451 762 332 81 65 49
351 726 174 121 95 64
247 226 283 101 84 67
286 345 293 83 70 57
246 601 323 161 107 77
367 812 202 99 74 63
211 351 309 157 106 89
316 236 318 124 97 64
266 181 249 108 92 76
408 426 286 142 1 45
256 271 250 159 110 77
363 21 360 79 44 29
317 301 306 101 85 69
362 526 214 31 26 29
420 780 340 64 54 47
213 326 276 130 100 64
297 14 249 106 65 53
355 696 210 86 30 34
237 433 320 53 37 27
249 242 252 126 100 69
316 496 204 134 0 31
241 411 302 110 76 65
217 530 300 198 131 103
303 161 348 114 93 71
256 246 248 124 99 70
371 621 299 141 24 48
281 251 254 162 111 81
311 920 245 86 78 78
255 196 259 104 89 75
281 566 374 156 21 52
280 246 292 91 74 55
304 185 327 111 90 67
321 106 354 117 96 74
279 365 346 120 94 66
368 426 384 132 5 39
252 411 241 113 20 27
257 321 310 74 58 39
384 561 333 179 8 56
366 566 199 182 21 44
207 306 284 121 93 59
334 271 348 138 102 72
238 600 330 182 124 95
393 840 310 60 51 50
241 236 259 112 93 71
281 861 269 121 97 69
191 491 289 180 122 103
316 912 238 82 74 72
424 761 289 75 61 51
254 200 258 104 90 76
350 101 248 117 19 45
281 546 240 49 32 35
326 516 204 60 35 37
281 741 378 169 118 89
300 13 304 155 90 88
309 62 217 153 23 48
370 741 205 117 93 63
253 207 256 106 90 74
263 484 171 124 96 66
331 871 374 37 32 29
432 678 278 68 53 40
253 198 262 103 88 75
256 441 234 107 17 33
247 212 273 102 87 71
386 681 259 65 50 38
266 488 172 130 98 66
216 361 309 156 107 90
231 411 303 102 12 35
224 402 280 155 110 89
279 291 319 100 77 52
328 54 246 87 60 51
379 672 279 82 23 32
297 20 299 144 99 84
316 884 334 45 39 37
246 384 312 115 83 67
336 404 379 61 52 44
256 256 300 97 80 62
241 365 317 122 89 71
356 75 345 126 62 61
298 227 321 112 88 59
216 311 274 131 100 64
346 107 371 119 29 46
382 426 345 68 23 32
209 348 306 162 106 90
260 366 316 87 60 43
292 551 208 151 0 45
354 835 381 53 43 36
341 101 329 141 50 54
251 206 259 105 90 75
250 206 264 104 89 75
286 306 304 79 65 51
233 248 287 102 86 69
365 606 224 69 28 35
327 51 249 90 53 49
314 620 176 145 105 64
212 298 312 106 87 65
251 421 319 60 44 29
271 351 324 108 76 52
269 557 279 142 0 37
248 208 268 103 88 73
435 812 368 100 82 67
238 515 284 77 28 33
382 741 224 106 15 39
250 493 344 150 7 47
301 396 244 110 95 81
311 201 323 118 92 58
219 311 272 133 102 67
381 466 223 115 13 39
243 620 335 183 126 95
314 48 317 119 93 66
279 468 171 106 85 61
241 356 318 125 93 73
306 196 359 115 94 72
405 668 287 79 67 55
247 441 358 73 27 34
311 362 362 126 100 71
221 511 325 120 95 77
259 422 186 132 1 38
336 21 319 101 27 40
250 206 269 102 87 72
446 776 329 105 80 60
296 916 238 92 82 79
283 486 382 130 11 39
406 806 364 59 47 36
311 221 368 119 95 68
368 771 326 57 46 41
220 285 306 102 84 65
229 508 312 74 35 31
316 393 256 114 100 85
330 366 358 123 96 66
451 781 359 105 87 72
389 565 260 174 20 46
252 306 310 82 66 48
253 450 236 80 35 35
301 250 317 109 86 57
377 857 374 65 52 47
299 777 254 76 62 57
311 306 357 137 103 75
311 634 357 170 22 61
203 334 307 155 105 87
456 786 335 120 94 75
235 576 340 158 116 88
357 755 173 152 109 77
271 406 189 84 27 37
251 456 239 103 21 33
343 844 334 56 48 40
281 336 294 75 61 48
376 825 380 47 38 32
264 588 347 87 59 41
325 91 361 101 74 60
252 207 273 100 84 69
211 475 270 107 17 37
313 112 342 113 93 73
414 791 340 48 40 36
398 816 287 58 47 44
299 51 229 136 25 47
231 331 265 123 96 64
271 226 243 130 102 69
346 404 379 60 49 41
321 441 220 59 40 36
287 952 272 89 85 89
256 371 314 97 70 51
334 326 338 126 98 68
280 953 272 83 81 83
246 386 252 121 96 67
257 201 273 100 84 68
241 426 245 49 37 38
336 546 205 125 12 27
255 205 275 100 84 68
231 451 325 120 16 40
279 781 343 154 113 81
236 436 254 86 26 37
313 163 248 152 108 80
323 384 307 93 81 68
251 296 309 83 68 50
247 211 264 104 89 75
306 636 355 174 21 56
223 365 312 152 106 91
299 206 327 104 85 63
218 463 276 59 16 26
219 502 322 88 55 33
270 281 264 131 93 67
405 451 332 69 24 35
247 216 259 105 89 74
311 311 305 85 72 60
314 431 396 44 30 30
287 241 334 110 88 62
225 411 274 148 13 47
316 870 243 52 49 51
386 675 269 108 80 50
234 254 291 103 86 68
277 349 273 100 86 73
306 822 370 187 126 103
286 206 241 141 109 72
307 511 194 50 40 38
245 216 264 103 89 75
301 496 390 63 24 33
279 664 278 133 13 42
287 321 348 130 102 75
271 531 244 82 29 33
235 482 288 77 29 32
346 840 235 63 48 44
224 269 272 110 89 65
221 291 269 127 98 65
409 476 279 58 26 31
299 201 327 102 83 62
266 501 376 97 13 34
303 156 344 110 90 68
232 257 293 104 87 69
396 811 279 61 49 46
311 411 233 42 38 38
286 201 241 138 107 70
406 716 298 42 34 28
274 622 304 157 14 48
269 608 302 56 25 41
248 212 260 104 90 76
247 211 269 103 88 73
211 465 274 71 5 26
243 218 265 104 89 74
246 516 269 119 25 42
296 791 299 69 56 54
237 380 312 129 94 77
214 366 299 161 110 92
231 306 265 136 99 67
300 623 361 137 26 52
231 441 314 54 37 29
376 837 320 38 35 34
296 914 236 88 79 76
244 215 269 103 87 72
392 516 299 163 17 47
280 326 334 124 89 62
242 221 264 104 89 74
326 571 195 73 51 40
291 441 189 69 53 38
306 21 343 93 28 37
296 601 179 150 106 69
238 414 246 137 4 38
256 421 184 84 17 36
351 541 385 39 28 31
375 446 223 103 24 35
308 156 352 113 93 71
243 223 261 105 89 73
237 481 334 156 1 47
367 496 400 173 10 55
226 489 296 68 28 28
276 631 304 82 30 40
221 266 289 105 88 70
377 456 226 120 6 37
337 196 328 129 104 77
336 686 350 37 30 31
334 22 306 120 31 41
262 226 246 121 98 70
364 657 231 69 24 27
330 61 216 142 115 81
270 586 274 108 19 41
316 13 339 89 55 53
306 661 219 70 33 37
216 306 318 109 86 61
262 321 306 66 54 39
292 316 353 130 100 74
261 271 250 164 113 80
298 774 228 82 66 60
246 221 259 107 90 72
244 220 262 104 90 76
315 816 249 180 134 110
341 181 339 130 103 72
241 476 248 145 5 37
235 297 262 147 105 72
256 316 310 74 59 40
383 731 228 66 30 41
289 188 277 111 90 66
351 106 220 129 26 34
243 217 269 103 88 72
228 514 321 89 44 34
299 81 233 124 56 52
256 281 254 166 112 82
300 670 222 74 40 43
341 371 329 96 83 69
316 101 225 115 32 29
285 776 324 69 57 52
241 221 269 103 88 72
370 66 218 92 73 77
266 486 194 73 23 34
354 840 350 48 38 38
407 476 285 94 20 37
325 116 258 109 20 41
226 490 304 34 24 26
221 306 270 132 101 65
366 431 260 66 24 35
239 229 276 103 88 72
263 302 277 92 72 48
272 388 246 102 88 74
373 553 361 104 22 38
368 690 222 105 22 27
356 447 226 45 36 35
356 606 344 159 25 54
215 276 289 97 82 67
306 791 209 156 118 92
225 439 324 61 40 32
401 476 260 124 6 32
250 234 291 101 84 68
318 850 315 52 39 27
384 414 227 106 36 33
241 381 312 121 88 71
271 386 247 101 88 74
224 507 294 115 44 31
256 416 184 69 29 33
306 400 239 112 96 81
236 371 258 120 96 66
294 767 253 78 63 58
250 211 258 105 90 74
391 816 380 72 57 43
226 266 269 113 91 65
381 481 218 87 17 33
249 215 257 106 90 73
319 256 316 123 98 69
252 651 344 197 135 108
282 381 353 122 96 68
306 896 359 34 32 33
246 426 324 62 48 34
278 806 363 185 133 107
294 13 252 106 69 53
341 211 354 127 99 65
249 209 271 101 86 70
254 491 370 143 7 42
348 628 217 141 20 39
284 621 254 54 31 34
293 231 269 137 102 70
221 531 299 201 134 109
217 271 284 102 85 69
352 101 349 107 62 45
403 823 322 51 43 40
397 447 205 93 32 29
340 246 339 130 102 68
213 463 299 54 23 25
271 731 364 178 120 95
246 216 274 103 87 71
303 789 259 185 130 110
292 906 230 83 75 74
244 220 275 103 87 70
301 571 174 136 99 58
411 716 300 49 38 29
346 106 219 131 32 33
321 791 166 144 105 62
243 218 272 103 87 71
317 25 255 93 54 42
398 436 291 140 9 44
336 106 218 150 33 46
242 222 274 103 87 71
198 316 307 131 94 73
337 66 229 121 93 77
325 341 310 97 84 70
243 222 277 103 87 71
198 316 304 134 96 73
226 335 322 133 97 76
403 471 312 87 11 29
309 13 310 150 100 91
263 500 180 203 144 130
247 217 277 101 85 68
253 896 291 161 126 99
235 450 254 95 20 31
361 401 354 56 47 40
246 576 320 140 81 61
246 221 279 102 85 69
343 74 377 117 14 45
409 476 283 65 26 32
268 339 277 97 83 69
348 838 378 52 42 35
223 272 271 114 92 67
204 316 316 137 98 81
301 236 319 115 90 60
250 211 274 100 85 69
346 822 199 206 139 110
336 521 395 163 21 55
249 214 276 101 85 69
317 908 376 63 56 55
256 336 265 95 82 68
316 686 179 132 95 57
345 77 376 121 19 46
303 29 319 127 51 53
277 681 319 134 3 41
278 297 320 105 76 51
287 421 214 81 24 34
198 311 304 117 92 66
356 874 218 89 75 62
305 46 255 103 34 43
316 191 365 116 94 68
251 216 279 100 84 67
288 286 348 126 98 67
331 906 245 68 61 62
213 463 304 56 18 25
352 812 192 197 131 104
210 465 269 93 14 31
407 476 264 101 14 34
315 56 344 102 52 50
266 206 245 132 103 70
265 896 340 144 116 95
206 491 324 123 81 71
299 884 248 56 53 55
256 372 254 114 93 69
376 436 260 51 28 32
386 398 289 62 34 34
408 486 269 69 26 32
236 321 265 122 94 61
264 661 361 151 110 82
341 41 349 90 78 66
244 230 258 114 93 69
256 456 234 78 29 35
375 851 259 69 60 59
252 212 278 100 84 67
204 316 288 121 93 60
322 34 223 117 89 75
247 488 252 144 4 33
292 350 283 78 66 54
354 884 372 62 54 48
219 274 296 104 87 70
326 920 250 71 65 67
222 457 260 73 33 33
234 235 274 104 88 71
254 209 276 99 83 66
221 356 315 151 104 89
261 361 315 84 59 41
391 411 340 35 29 29
297 770 244 77 62 57
235 492 257 149 2 37
380 436 261 48 31 37
274 709 331 86 30 40
227 476 255 141 5 37
236 236 279 103 87 70
311 466 395 128 19 45
246 366 256 120 96 69
387 411 239 118 6 40
236 326 265 122 95 63
301 16 239 98 87 82
260 289 261 136 94 67
263 361 317 84 58 42
283 760 294 77 62 57
402 466 290 91 14 34
346 681 345 44 26 30
251 221 284 100 84 67
297 35 248 113 53 50
441 731 313 69 53 37
248 274 251 146 107 71
315 934 348 67 62 61
256 211 279 100 84 67
298 40 220 151 22 47
234 398 301 144 101 87
294 201 339 114 93 70
396 486 333 127 21 46
306 461 393 152 16 48
365 525 388 122 27 49
224 406 268 135 45 55
261 521 339 46 29 34
257 207 278 99 83 67
283 636 264 120 25 44
342 221 339 125 99 69
305 929 251 92 84 85
219 271 279 107 89 69
216 475 269 149 4 36
239 251 257 123 98 68
349 874 224 67 55 50
254 214 281 100 84 68
256 216 284 100 84 67
342 40 339 88 77 65
253 470 241 42 30 34
331 877 349 32 30 33
251 266 250 136 104 67
226 461 255 65 32 36
306 291 308 95 79 61
249 220 281 101 84 67
405 829 362 64 50 42
261 666 359 168 117 92
336 501 399 49 28 29
360 876 199 110 92 82
251 451 238 60 32 34
406 691 269 48 39 32
226 487 279 98 36 37
249 912 302 171 135 113
248 223 282 101 84 67
222 496 294 98 73 56
226 457 289 68 23 29
357 871 375 59 50 47
228 390 302 151 106 88
235 461 244 126 21 40
253 217 282 100 83 66
385 434 232 120 2 37
396 811 309 72 65 60
352 399 263 90 48 49
391 481 258 52 31 32
331 86 254 111 23 40
241 371 256 120 96 68
352 456 222 52 32 33
304 33 328 121 34 46
373 756 316 114 24 41
279 651 284 120 22 43
199 474 300 76 62 49
321 86 220 138 70 61
377 771 190 145 101 71
242 226 278 102 86 69
371 581 239 172 20 46
228 490 269 88 29 39
246 481 248 96 19 34
251 311 313 99 78 55
369 453 250 51 26 29
276 501 173 149 105 70
249 482 247 49 28 34
306 161 240 146 112 76
403 681 269 63 48 36
255 220 285 101 84 68
235 586 323 185 121 93
390 816 259 59 49 46
242 481 344 141 1 43
270 701 279 50 35 40
252 302 267 140 94 68
203 311 290 114 90 61
220 497 309 61 31 27
253 896 328 158 125 102
235 447 331 153 2 49
406 806 369 62 49 38
307 736 199 139 87 67
300 71 234 118 64 55
298 70 236 117 74 56
245 597 322 160 107 77
253 223 287 101 84 67
232 395 302 146 102 86
257 411 184 92 18 39
311 556 179 128 98 64
207 291 294 98 80 61
276 411 359 85 41 39
251 366 316 99 74 54
257 222 288 102 86 69
207 296 289 107 86 63
268 371 333 123 91 63
278 521 235 74 28 33
237 448 240 94 25 38
383 720 291 58 28 27
326 116 329 132 99 67
199 474 283 88 73 57
266 626 328 145 95 72
338 122 251 127 8 45
240 231 263 105 89 74
351 71 378 118 24 46
229 312 267 136 102 65
336 81 220 119 98 76
360 646 324 95 20 38
213 330 276 131 102 66
421 692 255 90 69 48
309 485 195 78 26 29
316 56 214 123 77 65
409 794 321 63 57 52
361 46 359 91 66 53
396 816 284 55 45 44
286 846 323 133 104 79
306 831 339 115 77 61
239 225 269 104 88 72
199 474 289 65 51 37
243 443 241 103 26 32
244 532 299 88 22 35
350 56 334 91 37 35
335 271 339 132 101 71
343 928 321 47 42 41
308 715 370 150 110 83
317 24 296 127 10 43
331 121 223 162 19 46
436 756 324 82 72 63
271 631 329 133 83 66
251 376 253 121 97 68
298 626 189 178 126 101
241 226 264 105 89 74
326 361 358 121 95 64
464 704 302 94 80 65
355 97 238 92 23 33
284 333 289 73 61 48
418 787 299 79 64 56
207 302 313 105 86 66
416 426 230 69 29 37
396 472 220 76 26 35
238 227 269 103 87 72
278 157 246 104 90 74
381 596 269 158 23 51
306 301 305 86 73 59
240 456 274 96 2 34
300 66 254 96 42 43
397 821 288 62 50 47
218 366 275 144 105 72
227 486 264 50 32 35
290 791 324 64 55 53
241 256 298 104 86 68
351 401 349 57 49 42
262 526 249 77 28 36
221 307 317 112 89 63
276 801 354 178 130 100
255 535 320 95 6 31
296 958 316 59 55 55
260 516 344 69 19 31
198 480 281 155 112 87
236 231 269 103 88 72
393 481 302 130 10 38
335 176 330 124 100 73
399 484 332 117 24 48
418 803 330 79 62 54
236 411 249 117 18 34
245 400 248 91 72 57
247 436 358 89 26 36
328 903 371 59 54 51
214 464 284 63 20 27
399 535 265 153 19 46
238 231 265 104 89 74
309 41 324 112 17 38
270 711 365 171 117 91
272 337 313 82 58 40
238 228 266 102 87 71
217 276 279 107 89 70
350 875 244 71 62 64
308 466 192 118 89 69
286 496 204 108 10 37
283 336 342 130 101 70
247 611 325 166 113 81
233 237 274 104 87 71
290 392 245 104 91 78
371 496 204 90 25 28
264 546 288 114 10 37
219 366 273 136 102 67
261 376 250 108 91 72
418 728 273 56 45 39
405 491 324 52 25 33
225 502 304 79 46 40
351 436 414 78 22 32
327 825 229 76 63 62
310 731 189 165 117 84
237 236 264 106 89 72
222 311 270 134 103 68
318 576 182 120 93 62
373 470 370 137 11 43
374 601 250 155 19 44
297 91 258 97 25 37
391 411 224 91 29 28
405 816 319 60 48 46
259 859 309 117 72 65
248 446 358 62 29 35
274 365 341 120 94 65
352 526 205 72 31 31
316 881 229 59 56 58
277 645 331 119 63 51
239 235 262 107 90 72
437 782 360 71 60 51
275 761 364 170 119 90
355 106 369 124 101 100
244 531 304 43 36 40
330 776 372 160 111 79
254 424 319 58 43 30
343 71 377 118 30 48
248 267 251 131 102 67
311 741 189 165 117 85
302 51 253 99 22 37
396 406 294 53 29 31
251 486 249 75 28 34
312 375 288 88 77 66
280 501 380 149 15 48
358 766 349 77 60 51
297 16 334 87 48 44
246 331 318 120 90 68
240 241 258 117 95 70
325 306 353 134 100 73
360 875 188 104 90 80
218 282 276 110 89 67
308 530 183 113 91 68
258 416 176 103 38 31
328 91 256 114 86 69
266 411 190 66 23 33
256 266 302 94 77 58
219 350 272 127 99 64
304 862 332 58 48 38
308 19 243 72 62 58
315 566 180 121 95 64
273 262 296 85 69 52
297 860 335 93 72 53
289 421 376 98 27 40
292 781 382 176 122 95
331 96 217 139 40 45
238 238 261 109 91 71
249 419 332 53 41 33
286 940 354 58 53 50
265 841 299 166 129 103
294 23 324 129 18 46
306 516 189 61 49 41
351 886 200 111 94 82
301 251 363 128 97 70
214 493 309 84 72 62
456 736 324 100 78 59
238 242 261 112 92 70
377 581 329 143 25 52
306 656 194 168 124 104
250 446 237 74 30 32
221 391 284 163 115 92
237 251 259 119 95 68
376 877 324 50 44 41
261 856 314 125 63 71
418 737 263 61 47 42
308 162 331 107 87 64
293 211 344 117 96 72
235 456 265 90 8 31
292 116 258 110 90 68
235 236 269 104 88 72
221 455 304 54 27 26
279 456 201 113 4 33
331 844 313 79 53 39
204 332 310 150 102 86
301 351 359 127 99 71
234 240 267 104 88 71
207 485 280 90 22 34
386 451 260 43 32 32
257 561 300 116 23 42
226 325 321 121 92 68
272 336 309 72 54 39
269 743 302 37 35 37
233 416 255 128 18 40
310 616 218 50 34 36
330 36 244 104 47 43
286 186 240 129 102 70
243 399 307 127 90 75
427 768 337 67 55 43
385 566 328 181 12 57
230 449 307 66 40 29
340 136 340 127 102 73
239 449 264 106 4 36
276 332 285 98 81 71
342 166 349 122 95 63
299 51 245 109 31 40
257 506 314 117 2 37
306 606 175 139 99 60
246 451 239 101 12 29
282 393 241 106 92 78
285 348 281 76 64 51
274 686 263 41 31 37
326 143 237 165 19 47
233 237 270 102 87 71
350 120 225 164 18 47
218 453 311 58 32 23
222 381 269 146 106 74
231 492 309 68 23 31
275 676 284 68 33 39
271 526 376 92 17 35
232 241 269 103 87 71
362 775 170 169 116 85
374 446 414 126 17 43
392 811 314 65 59 54
281 676 370 145 104 76
208 312 281 126 98 63
470 760 319 115 87 69
238 281 256 129 98 61
306 246 318 115 90 61
241 342 261 119 95 65
334 377 316 114 99 84
326 41 309 116 67 53
240 226 274 103 87 71
220 476 305 67 9 24
316 151 254 128 94 66
371 466 379 68 27 34
316 26 257 108 43 49
376 461 216 89 27 30
256 396 245 101 86 70
238 228 273 104 88 72
291 956 319 65 62 62
221 331 270 132 103 69
442 752 327 71 56 42
285 246 284 112 87 60
341 55 370 79 33 31
408 788 307 57 49 42
241 301 263 157 103 76
416 786 303 61 50 50
343 834 226 88 74 70
249 384 252 122 96 65
294 95 255 96 30 37
237 231 274 103 87 71
328 389 307 83 72 61
310 944 337 75 69 69
358 106 240 116 16 42
327 616 183 145 107 68
223 442 320 61 36 30
373 818 212 100 74 61
320 831 248 149 114 86
295 596 194 163 116 93
353 851 326 40 38 37
237 232 278 103 87 70
248 260 251 125 99 68
296 521 174 137 103 67
372 646 254 145 7 44
331 102 364 97 49 46
284 411 223 107 11 36
370 71 364 125 12 45
379 788 306 24 22 22
323 883 216 82 70 64
374 615 260 174 12 52
240 230 280 102 86 69
399 485 292 139 10 34
326 126 360 113 91 68
331 546 386 45 29 32
220 381 274 152 108 78
282 151 245 109 92 75
231 241 274 105 88 71
234 462 247 115 25 44
343 771 361 161 111 82
288 236 339 115 92 65
246 466 244 66 26 33
319 388 367 117 94 69
336 900 372 57 52 51
310 186 360 114 94 72
308 736 196 169 120 92
328 426 402 40 30 29
343 863 361 33 27 32
461 701 295 92 77 62
383 740 227 100 20 39
251 297 263 152 101 74
221 496 304 68 38 33
318 109 261 118 18 48
419 793 294 85 68 58
361 809 350 30 27 26
420 761 310 43 35 29
245 316 317 125 96 72
371 436 394 42 33 35
212 356 304 164 112 92
287 631 250 164 7 46
233 238 277 104 88 71
236 296 314 116 94 69
358 636 227 152 14 40
261 366 254 101 87 72
232 246 284 104 87 69
384 815 249 61 51 48
221 304 316 110 88 64
405 441 287 142 4 42
350 667 215 53 35 37
227 386 303 148 104 87
232 241 279 106 89 71
252 346 316 99 78 56
219 383 277 155 108 82
372 476 394 86 22 34
253 930 281 60 57 58
294 550 227 47 31 32
381 810 349 36 33 32
246 471 245 52 30 34
223 401 274 151 108 84
264 598 307 158 9 46
316 46 211 145 25 38
311 526 390 58 23 31
235 240 280 104 87 70
252 288 257 163 110 80
286 531 229 84 22 38
278 686 249 130 11 41
208 288 295 95 79 63
296 501 178 137 105 74
332 81 367 94 44 44
240 245 290 102 85 67
291 521 173 136 104 68
335 81 249 95 28 37
427 747 298 85 66 55
236 241 284 101 85 68
368 421 365 93 20 34
291 576 189 164 114 88
321 761 374 141 103 70
261 246 245 131 103 69
406 431 232 44 28 31
368 843 386 64 50 41
232 375 312 135 97 81
213 350 312 153 105 88
306 201 360 116 95 73
239 234 281 103 86 68
246 281 307 99 81 61
328 61 362 102 15 35
279 748 293 79 63 59
383 581 314 178 17 57
375 466 359 137 2 41
277 696 234 138 2 42
239 442 302 91 16 28
439 806 367 75 60 46
241 236 284 102 85 68
264 732 314 73 24 36
271 496 173 173 117 90
401 416 289 80 15 33
217 277 298 99 83 67
256 446 233 85 30 35
354 855 311 33 31 30
237 237 283 102 86 68
339 241 349 131 99 68
261 856 309 123 88 85
236 406 249 135 9 37
393 546 325 164 23 53
272 741 359 182 125 99
221 321 320 116 89 65
261 211 284 100 84 68
334 316 320 125 101 75
291 718 382 157 114 87
223 356 266 124 97 65
302 166 266 118 93 63
278 349 301 71 58 43
406 431 333 148 6 47
293 784 300 79 62 57
236 316 319 128 98 73
225 396 295 157 110 93
257 570 329 48 37 37
296 551 380 178 22 58
228 252 271 108 89 69
371 401 244 88 31 31
379 521 236 129 15 35
392 856 304 78 69 65
205 502 290 114 61 32
361 531 198 129 17 32
253 243 297 101 84 66
321 216 368 125 97 64
336 261 329 135 107 74
241 426 349 51 29 32
296 336 356 130 101 74
303 487 183 152 111 87
216 304 316 106 85 61
305 796 259 188 133 111
234 431 304 144 3 44
292 341 353 130 101 74
342 196 344 116 93 67
326 541 388 104 25 40
308 40 339 120 62 56
217 511 286 179 125 97
324 527 391 106 21 41
221 301 270 126 98 65
203 325 291 140 100 69
349 530 207 54 26 27
334 331 334 123 97 68
320 13 329 86 71 61
393 416 296 43 24 30
343 526 207 44 33 34
256 476 239 51 30 34
394 796 248 56 45 40
218 300 271 124 97 65
265 391 334 122 89 61
258 509 364 165 11 49
227 256 270 109 90 70
347 442 226 44 37 35
233 586 329 183 128 97
347 106 251 123 9 42
245 277 307 100 81 62
331 396 364 84 69 53
213 316 276 133 101 64
263 344 267 98 85 72
286 441 209 70 21 31
281 411 364 114 28 41
200 476 279 105 74 61
388 857 289 61 51 48
230 251 268 109 91 71
381 456 225 124 5 38
331 399 365 67 56 45
389 779 216 55 46 39
239 441 247 81 36 39
304 171 332 100 81 61
356 409 409 60 38 31
214 296 277 119 94 66
299 33 251 113 13 35
195 481 309 147 109 93
207 311 318 124 93 71
356 671 219 48 35 36
284 694 222 49 35 42
333 90 367 111 31 47
349 56 331 73 48 36
249 626 351 159 116 88
358 878 365 50 45 43
235 442 335 124 15 44
321 751 369 128 94 66
229 255 268 110 90 69
259 915 272 62 58 61
224 354 267 126 98 64
370 751 324 140 8 45
221 316 319 114 88 63
321 666 352 67 27 35
227 406 289 141 86 78
213 365 298 161 109 91
338 425 407 52 22 27
298 191 271 126 96 67
231 256 264 115 92 67
279 690 233 134 6 41
226 356 265 123 97 64
235 246 263 110 90 69
356 408 399 62 52 44
333 953 294 64 59 60
276 956 289 74 69 69
256 471 169 194 128 116
336 796 168 163 112 76
237 246 260 115 93 67
252 926 324 86 67 59
273 420 197 94 20 35
321 122 227 140 59 55
350 916 274 67 59 59
334 393 264 96 83 72
306 531 388 38 29 30
240 246 258 120 96 68
284 923 366 67 60 58
294 25 222 119 60 45
302 56 224 136 21 42
233 242 266 105 88 71
391 501 199 88 29 39
301 201 354 116 95 72
223 381 266 140 105 70
375 491 234 46 30 30
237 387 255 124 97 66
345 905 256 68 60 60
290 135 261 110 88 64
233 247 266 108 90 70
292 410 223 99 33 23
361 496 404 182 8 58
367 591 234 163 18 48
227 416 269 172 0 49
326 256 319 128 102 72
246 340 262 113 91 65
223 384 302 150 105 87
218 493 282 136 80 70
236 446 249 69 23 30
263 540 258 173 0 49
331 191 364 125 95 60
212 491 304 86 75 66
361 421 249 63 24 31
231 311 319 122 97 70
332 386 313 106 92 77
226 551 308 175 115 87
290 506 205 121 5 39
383 481 341 49 26 31
301 891 239 56 53 55
221 461 284 65 20 30
263 309 301 64 55 46
303 634 357 178 28 58
234 251 263 114 93 68
363 621 320 69 28 36
244 299 261 162 105 79
196 486 285 149 92 73
241 436 245 57 28 30
236 256 259 121 96 66
334 462 216 105 30 31
268 283 296 76 61 45
306 626 204 173 119 105
325 101 222 127 30 36
246 281 253 153 108 73
263 340 311 74 55 33
308 426 392 76 25 31
306 106 229 114 40 34
265 347 265 99 86 73
388 732 297 47 36 28
259 578 342 64 44 29
322 86 358 98 31 39
251 274 251 154 109 75
292 211 334 109 89 67
348 415 417 149 12 45
369 79 365 140 21 54
229 485 285 78 26 30
234 255 262 118 95 67
280 411 205 91 27 41
208 316 281 122 95 62
212 281 294 91 77 63
316 476 205 101 22 33
229 245 274 106 88 71
273 550 373 54 25 29
217 291 274 117 93 65
240 430 323 59 44 32
347 911 344 62 56 53
412 741 249 57 42 37
349 76 336 134 22 44
316 881 379 40 37 35
244 436 242 116 17 28
261 346 313 80 60 39
325 81 257 118 20 43
396 809 376 54 45 36
369 636 299 129 16 42
209 289 292 97 79 60
321 26 249 90 46 38
229 408 291 133 34 43
202 480 325 129 88 79
365 711 210 108 23 29
329 331 347 128 100 70
336 376 354 121 95 65
213 359 307 158 108 89
228 248 275 105 88 71
378 495 365 136 4 41
241 381 255 121 96 66
228 248 278 105 88 71
232 483 281 67 42 38
232 401 255 108 62 46
281 221 243 146 112 74
272 586 264 157 10 46
295 231 323 106 85 60
311 41 319 110 76 56
409 751 259 53 42 41
219 315 272 131 100 64
299 797 288 178 125 100
406 726 300 44 35 28
227 251 274 106 89 71
236 361 259 122 97 67
267 291 289 72 57 41
258 876 328 179 134 118
241 416 303 98 67 58
283 407 226 101 20 33
270 271 298 82 66 49
225 261 289 106 89 70
394 820 382 90 69 50
403 763 249 61 46 41
288 251 325 101 79 54
364 403 362 72 35 28
373 646 269 132 3 42
227 251 279 106 88 70
342 883 234 68 60 60
204 502 321 172 120 102
294 766 269 79 63 57
241 446 239 119 22 32
225 256 274 107 89 70
396 761 308 32 28 25
306 132 232 143 101 72
320 422 231 39 35 37
279 656 287 95 31 43
225 256 279 104 87 69
229 249 272 107 89 70
348 431 412 103 18 39
386 496 195 56 30 34
243 243 292 101 85 68
222 272 298 106 88 69
226 256 284 103 86 67
231 301 264 136 101 67
304 23 225 97 88 81
295 851 264 135 110 85
296 16 254 116 81 63
266 201 280 98 82 67
227 257 288 104 87 69
336 376 319 123 105 86
353 782 351 67 52 43
268 421 192 69 21 33
229 249 281 105 88 70
249 475 350 133 2 41
230 250 285 104 87 69
211 496 323 113 78 65
255 421 320 61 46 32
368 522 386 29 26 28
326 636 353 69 26 33
251 266 303 99 81 61
232 251 288 103 86 68
296 376 264 107 93 80
366 776 184 156 108 78
318 404 237 65 60 58
342 431 407 118 15 41
209 346 283 143 102 71
236 446 269 116 5 37
230 255 290 104 87 69
295 13 249 104 63 54
365 440 227 67 34 29
384 420 242 102 16 32
278 335 296 73 60 49
373 650 274 128 6 41
244 460 241 61 27 32
356 400 339 60 52 45
233 243 282 104 87 69
251 401 244 84 55 45
359 485 212 40 35 36
336 905 368 64 57 55
334 206 326 131 106 77
235 245 285 102 85 68
254 936 304 73 67 66
356 106 244 120 19 45
410 437 283 148 7 46
326 171 327 124 98 66
236 246 289 101 85 67
321 56 354 109 29 44
284 633 326 139 14 44
236 437 314 62 46 36
355 746 348 38 27 28
231 336 321 131 96 75
291 581 189 163 113 87
332 878 216 73 61 59
241 376 255 119 95 67
205 512 315 174 121 96
413 416 273 146 13 41
295 106 238 103 53 38
232 433 325 62 33 34
399 439 207 110 28 22
332 351 350 121 96 67
238 243 287 101 84 67
373 506 384 108 24 41
335 66 370 101 42 47
222 391 274 154 110 83
222 286 270 121 95 63
206 306 314 107 86 64
289 316 351 130 102 75
278 565 372 127 19 45
248 307 267 137 97 70
343 72 327 127 102 81
213 366 289 161 110 87
403 717 297 39 32 26
282 616 358 88 20 33
221 457 263 80 24 33
418 798 361 95 79 62
368 848 381 56 46 38
336 121 252 125 12 46
402 776 305 37 31 28
306 81 260 98 29 40
241 241 289 101 85 67
241 371 315 119 87 69
346 111 250 127 5 46
409 795 330 49 42 38
311 611 176 142 103 62
237 381 256 122 97 68
270 356 325 107 75 52
239 473 247 129 7 33
317 85 221 141 94 78
316 120 226 146 35 47
334 313 337 126 98 66
223 475 260 72 26 36
383 586 304 67 26 35
295 398 240 110 95 80
298 183 242 141 110 73
278 599 250 37 30 28
243 227 261 106 90 73
274 622 314 112 25 44
311 426 225 61 37 31
350 71 335 142 25 46
239 443 301 94 17 26
300 91 234 110 82 62
416 426 324 154 15 45
242 231 260 108 90 71
310 22 240 96 82 76
320 925 359 67 60 57
221 466 255 128 12 37
267 471 226 92 25 37
286 301 344 128 96 68
261 546 289 80 25 35
225 296 267 126 98 65
252 500 254 114 18 35
373 626 264 126 20 40
304 507 190 77 59 51
336 116 252 125 18 46
327 906 243 66 59 59
325 846 247 123 94 72
291 551 229 48 31 34
245 226 258 111 92 71
294 332 296 81 70 59
249 430 356 107 16 41
244 234 257 117 95 69
364 501 219 54 24 31
318 152 250 146 106 79
311 330 302 89 77 66
231 416 304 92 15 34
274 562 360 121 20 45
245 225 280 101 85 67
352 786 350 68 53 44
261 411 175 104 30 37
328 101 256 122 22 50
198 476 323 142 105 86
359 909 299 50 44 42
279 758 320 77 63 58
239 459 277 87 5 32
326 526 392 143 17 47
256 226 290 103 86 70
242 232 283 102 85 68
314 732 368 149 110 85
255 426 237 92 20 30
364 417 261 55 24 31
283 739 276 72 60 54
281 671 332 83 47 38
278 651 308 91 29 44
247 241 293 102 85 68
396 716 239 58 42 39
256 501 334 151 1 46
375 440 232 47 25 30
358 877 257 62 55 58
372 596 324 39 28 32
354 515 207 64 41 38
221 371 308 149 104 88
241 491 254 158 1 36
235 466 248 75 23 32
263 471 193 101 20 38
233 428 338 107 34 40
205 295 304 100 83 66
232 489 318 57 24 28
406 436 267 127 8 29
256 881 319 151 110 95
398 803 319 83 68 55
314 97 227 121 97 73
262 466 189 59 27 32
352 456 413 103 17 37
199 321 309 146 99 82
245 230 285 102 85 68
275 170 265 101 85 68
223 459 317 39 24 27
303 22 257 110 35 46
247 232 288 101 85 67
241 276 254 130 100 64
244 234 286 102 85 67
262 207 282 100 84 68
321 461 397 165 18 51
418 756 307 55 47 43
261 470 174 120 74 53
359 757 347 68 22 28
276 236 244 148 109 70
424 415 216 37 37 40
281 651 332 92 52 44
217 474 265 164 6 41
246 236 289 101 84 67
358 768 177 156 111 80
259 662 343 179 123 97
334 621 190 135 104 69
201 479 311 91 51 48
358 92 358 138 11 46
250 225 285 101 85 68
246 261 302 103 85 66
377 403 236 145 22 25
273 498 377 140 10 42
234 532 327 79 43 28
340 833 227 98 80 70
374 616 289 48 29 35
326 246 320 130 103 70
396 461 223 108 16 37
233 278 307 109 89 69
366 511 394 179 8 57
205 326 288 138 100 67
380 871 294 55 47 46
273 695 270 48 29 37
211 496 289 88 40 41
348 628 341 35 26 29
198 509 303 190 132 109
249 229 286 102 85 68
237 431 249 47 33 34
299 627 184 176 122 93
367 785 189 144 101 70
311 111 225 126 43 40
326 206 323 126 100 70
279 586 242 136 1 33
251 231 289 102 85 68
356 671 334 124 15 41
242 246 293 103 86 69
341 501 210 89 31 34
265 716 320 39 30 33
326 96 220 139 66 63
247 486 354 145 1 43
235 250 290 102 85 68
322 883 335 44 38 35
210 504 292 128 85 68
306 381 264 112 98 84
310 18 253 71 55 45
274 330 309 85 64 44
389 561 306 151 15 36
261 331 274 89 76 64
368 613 315 54 29 31
289 358 276 106 91 75
237 252 293 103 85 68
348 661 341 107 19 39
238 480 251 158 1 39
236 256 295 103 86 68
269 547 247 67 24 32
199 486 319 100 46 41
325 606 181 134 101 63
241 401 249 102 54 43
339 488 211 40 36 36
338 856 378 50 39 31
232 453 290 78 13 31
402 426 210 55 35 32
238 248 292 103 86 68
311 231 368 123 96 67
326 825 214 78 67 64
415 751 244 87 64 55
197 506 304 189 131 111
277 214 241 134 105 70
367 887 329 59 54 51
241 251 295 103 86 68
346 726 354 90 25 37
234 489 281 41 40 44
336 51 365 78 34 35
256 467 174 150 100 88
365 844 387 68 51 38
277 351 338 120 94 64
341 901 369 61 54 52
294 486 176 140 102 74
239 254 296 103 86 68
321 786 166 140 103 57
306 236 318 118 92 60
239 445 295 96 0 32
323 194 366 125 98 67
286 591 369 171 20 55
223 399 283 164 116 95
266 221 245 124 99 70
341 879 332 37 33 36
368 598 331 93 14 31
231 406 254 139 9 39
202 316 290 123 94 60
287 226 247 157 114 79
293 107 240 102 63 46
295 196 339 111 91 69
326 456 399 148 16 49
414 405 271 127 10 31
245 240 291 102 85 67
248 238 292 102 85 67
249 467 350 35 24 29
321 141 254 121 85 64
298 446 387 142 10 45
330 56 244 104 30 45
451 797 363 99 84 71
230 436 335 142 6 47
224 454 302 56 27 28
223 406 274 125 71 65
469 799 367 100 81 62
301 15 244 82 63 54
369 884 314 56 50 48
293 775 279 82 65 59
236 496 259 107 19 37
432 737 312 63 51 40
292 211 339 114 92 69
255 230 291 103 86 69
441 731 298 98 74 57
254 430 237 114 10 24
278 501 226 158 1 41
299 56 249 109 90 70
314 28 226 109 90 78
294 27 250 126 96 72
427 706 244 77 60 43
246 420 305 109 72 63
234 351 262 125 98 66
239 427 247 50 40 40
294 561 210 140 8 43
329 902 241 65 58 60
258 608 357 150 111 84
256 231 293 102 86 68
226 441 329 105 19 39
251 236 293 102 85 67
280 481 218 99 17 34
363 406 246 84 23 36
368 420 393 138 10 36
251 241 295 102 85 68
343 380 324 81 70 59
243 615 331 180 122 92
331 226 365 128 97 62
294 22 308 132 95 71
231 476 254 130 1 30
371 882 314 56 50 49
391 536 254 115 17 37
253 233 292 102 85 68
337 746 361 144 107 79
370 521 384 103 23 43
227 281 266 127 97 62
419 424 211 147 27 55
303 700 370 147 111 79
314 126 332 109 87 61
286 456 214 70 15 33
351 831 369 49 40 35
208 350 299 168 112 93
342 371 339 108 87 64
232 461 249 83 29 33
235 382 311 133 96 80
251 281 306 90 73 55
292 576 199 126 55 59
256 236 294 101 84 67
320 92 222 150 22 43
316 168 326 122 94 58
295 441 384 141 10 43
235 449 303 71 26 31
361 596 344 90 31 41
256 240 296 101 84 67
319 36 257 118 28 50
384 431 342 146 7 45
461 772 334 102 77 60
234 417 252 89 25 36
296 13 244 103 58 55
412 441 330 110 15 39
216 480 275 114 28 39
310 511 199 47 35 31
347 128 233 168 20 58
259 410 319 82 54 41
246 246 295 103 86 68
297 346 357 127 99 72
272 571 254 179 0 48
264 522 247 97 40 40
296 36 219 137 34 49
307 506 198 50 34 34
296 11 319 110 50 47
396 451 294 136 7 44
232 495 260 85 27 37
293 388 362 123 97 70
319 76 327 100 79 59
358 650 326 151 21 56
245 250 296 103 86 68
263 531 264 139 12 39
247 431 240 131 8 32
316 876 238 53 50 53
342 399 247 87 74 64
353 563 371 189 8 57
281 416 204 72 27 34
226 391 299 154 107 89
332 336 344 123 97 67
400 836 304 62 54 52
385 571 324 185 12 58
356 550 378 181 23 61
231 426 264 142 10 41
292 646 360 148 105 78
338 620 202 144 112 88
201 476 324 129 87 76
213 278 289 97 82 66
238 459 327 131 0 38
363 428 241 90 1 30
242 253 297 104 86 68
334 279 330 129 102 71
250 528 277 182 10 41
221 460 289 63 19 30
278 615 270 93 33 42
305 746 208 100 57 47
246 251 298 103 86 67
198 487 287 119 40 48
406 761 306 34 30 27
326 191 366 125 96 62
248 248 297 103 86 68
238 505 265 47 35 40
275 845 321 129 50 65
299 100 261 106 86 64
250 245 296 102 85 68
471 796 360 103 83 67
244 436 356 51 29 30
350 541 203 59 29 30
324 46 252 109 65 57
306 26 304 136 36 51
229 512 301 115 28 30
368 571 204 139 17 40
291 166 238 134 104 70
359 899 281 66 58 56
227 291 266 130 100 65
381 400 329 64 46 42
210 522 298 205 141 112
251 556 324 75 39 40
312 20 254 77 58 45
251 246 297 101 84 67
251 556 328 68 37 38
311 22 257 98 41 44
334 641 186 155 112 76
220 481 304 58 13 24
387 421 341 146 8 45
263 402 337 119 91 64
363 570 218 146 19 50
221 366 269 128 98 64
284 578 371 66 18 23
203 302 295 98 81 63
241 416 245 101 23 32
371 591 334 81 23 38
310 18 250 63 49 44
299 650 232 74 32 32
292 451 183 79 64 52
243 461 333 97 14 34
301 161 238 142 111 75
317 365 361 125 98 68
337 35 344 94 82 71
256 243 297 100 83 66
336 441 403 82 21 35
237 436 309 88 32 39
311 941 260 94 88 90
251 251 299 101 84 66
399 836 299 68 59 56
280 407 195 93 37 42
329 432 401 41 29 29
342 922 334 61 56 55
294 811 333 117 90 68
286 571 375 145 20 51
306 741 204 111 48 43
257 296 305 67 55 42
229 422 272 144 6 41
344 879 332 37 35 37
366 865 194 92 81 72
345 661 209 105 69 55
336 47 362 72 41 34
231 560 311 168 106 82
312 963 283 78 73 73
323 858 311 46 38 30
292 111 240 115 29 38
397 806 274 67 52 46
238 408 246 131 12 33
294 258 356 123 95 67
254 409 311 109 72 62
298 96 236 140 24 48
260 541 329 122 7 39
205 470 289 78 14 23
363 431 240 88 3 31
251 256 301 101 83 65
286 606 239 161 12 47
373 617 294 99 28 43
202 301 299 102 84 64
405 826 363 68 54 43
222 261 284 103 86 68
226 451 304 65 31 28
331 511 395 66 24 32
237 401 250 106 48 43
317 776 381 169 117 85
284 638 362 132 98 63
232 385 308 142 101 85
291 919 241 94 83 81
258 444 187 76 27 31
341 891 374 62 56 54
264 526 369 151 12 44
297 71 249 106 20 37
371 531 229 134 9 37
288 596 235 43 34 37
372 828 383 50 41 33
290 241 349 119 94 66
256 251 299 99 81 64
251 416 240 100 26 30
355 408 404 60 46 38
342 602 360 121 31 47
241 271 254 126 98 64
330 306 344 124 98 67
277 671 314 135 2 41
379 595 294 123 32 50
217 346 318 146 102 86
284 218 287 89 74 58
299 808 302 98 73 60
331 846 244 78 60 52
305 186 249 151 109 77
302 31 329 127 33 49
213 321 276 130 100 64
426 756 298 76 56 48
349 646 337 162 16 52
336 26 329 85 38 36
446 779 346 82 66 53
230 489 291 66 30 34
255 881 288 170 123 99
341 181 349 125 96 62
233 459 246 110 22 30
290 236 259 146 104 72
336 511 208 41 36 38
350 820 351 27 23 22
378 587 252 164 18 46
241 261 255 123 97 65
