ply
format ascii 1.0
comment Created by Open3D
element vertex 2205
property double x
property double y
property double z
property uchar red
property uchar green
property uchar blue
end_header
258 288 306 127 99 72
260 288 310 125 96 70
263 283 312 119 93 67
274 298 265 104 82 57
279 317 264 92 77 60
269 278 315 113 90 65
252 667 234 101 33 47
339 783 401 156 118 96
267 278 313 120 95 68
266 280 314 120 94 68
266 283 314 120 94 67
269 283 316 115 90 64
309 743 185 124 17 31
402 481 359 25 23 24
265 288 315 123 95 68
279 258 311 120 96 70
279 263 312 119 97 72
424 495 296 82 28 38
441 500 285 196 13 51
261 326 309 139 105 76
274 268 314 113 90 66
274 273 316 106 84 61
222 880 182 176 104 103
266 699 289 135 2 42
279 268 314 116 93 69
280 267 313 117 95 69
284 258 310 117 94 68
270 363 315 151 107 85
284 263 311 115 93 68
264 478 280 71 24 34
286 256 308 117 94 68
265 761 269 84 67 61
350 933 292 65 56 53
287 260 309 114 92 66
194 848 205 147 114 101
295 903 303 116 84 68
324 407 266 64 48 40
288 263 310 114 91 66
439 451 301 81 19 31
263 573 185 57 29 37
289 268 311 115 92 65
143 793 191 210 150 129
193 753 168 131 92 55
350 550 169 95 28 35
284 273 315 116 94 68
370 836 284 35 30 29
290 273 312 117 93 65
275 279 319 102 82 61
279 280 319 99 80 60
284 278 317 107 86 64
334 588 190 105 34 43
210 753 173 110 85 52
289 278 315 110 88 62
279 283 321 100 82 63
350 686 211 92 66 58
330 903 196 62 56 57
282 280 319 104 85 66
284 283 320 106 87 67
297 458 293 96 12 33
285 281 318 105 85 64
303 313 272 92 76 59
396 885 249 78 64 57
367 788 326 146 101 74
367 916 272 72 67 67
499 904 251 113 91 68
289 282 317 109 87 64
288 284 319 107 87 64
260 292 273 143 98 74
264 293 270 134 96 68
190 749 168 119 88 50
264 303 271 128 97 68
439 763 276 78 57 43
269 293 267 125 93 62
266 293 268 129 94 64
266 301 268 121 93 64
269 303 267 119 91 60
363 557 178 167 21 46
259 298 276 141 100 76
257 298 280 140 98 75
143 763 174 177 122 90
291 330 328 136 88 68
260 303 276 129 96 71
474 438 290 111 17 40
258 303 280 126 95 68
261 301 273 131 97 70
264 308 271 132 98 72
323 874 165 113 94 85
267 304 269 125 95 65
429 518 286 73 28 36
269 313 267 119 92 63
267 318 269 120 95 68
251 732 279 174 4 54
258 308 280 120 93 64
410 753 236 53 43 39
260 313 277 112 88 61
258 313 280 117 92 64
262 308 274 130 97 72
262 313 274 116 91 62
256 313 282 124 97 66
262 318 274 107 86 61
279 748 186 92 74 54
340 538 300 108 6 34
256 318 282 129 101 69
254 818 201 167 123 98
314 488 290 89 16 32
316 858 372 198 134 126
279 293 265 91 73 53
279 403 308 163 115 94
274 303 265 107 85 60
358 743 381 146 107 87
260 869 252 139 109 82
405 513 327 88 15 33
289 293 267 80 65 48
331 803 399 178 136 118
284 298 266 79 66 53
273 638 209 154 10 38
329 833 367 127 94 75
255 673 270 50 31 37
274 308 265 108 86 61
489 902 236 103 84 67
251 663 241 46 32 36
279 313 264 92 76 58
257 328 280 128 98 66
279 319 263 91 77 62
274 318 265 105 85 62
284 308 265 83 70 57
356 740 387 148 107 85
336 895 348 119 75 70
294 383 311 148 102 84
284 313 264 84 71 58
407 578 246 134 15 43
289 308 266 83 70 56
248 913 276 118 93 75
354 861 157 90 73 62
289 319 263 83 71 59
282 316 264 89 74 59
289 317 264 83 71 58
289 904 211 71 56 46
258 293 307 130 100 73
260 293 310 131 101 74
263 293 312 131 99 73
256 298 304 129 98 73
258 303 307 134 99 74
371 728 180 66 50 43
474 439 281 104 20 37
359 288 276 118 93 63
263 298 312 132 97 73
299 628 202 148 0 32
268 293 318 121 91 65
284 393 310 161 112 91
270 293 320 119 89 64
252 573 194 151 2 36
268 298 317 122 92 65
311 333 296 113 84 59
267 303 318 114 87 58
395 779 367 197 126 98
364 348 282 112 88 59
270 298 321 121 91 63
269 303 321 113 86 58
291 831 225 192 142 114
257 318 303 141 103 79
250 683 261 87 28 40
256 311 304 139 103 78
415 563 261 168 10 44
199 768 205 179 139 121
283 923 201 71 64 65
261 308 309 132 99 72
263 308 312 128 96 68
366 565 184 63 31 33
360 854 159 70 56 46
259 318 306 137 101 75
263 318 312 131 97 69
267 308 318 118 90 60
249 683 231 70 32 38
384 762 406 179 108 85
268 308 321 117 90 60
268 313 321 129 94 67
266 317 319 133 97 71
282 720 303 89 17 33
204 748 174 102 81 55
387 830 175 66 53 47
292 458 288 34 23 25
417 808 271 58 46 40
268 318 321 132 96 70
289 638 307 60 28 34
291 260 264 87 70 49
406 489 372 50 26 32
264 713 290 143 4 45
294 258 266 97 78 54
293 263 267 93 74 52
351 610 209 165 9 40
295 267 269 109 86 60
293 273 267 95 75 52
295 273 269 107 85 61
268 653 287 165 6 52
297 256 268 102 81 57
253 754 262 89 30 41
298 262 272 98 79 58
199 734 185 82 70 58
294 958 221 95 90 94
296 792 275 66 52 50
298 268 272 99 80 60
355 743 391 163 116 93
298 273 272 103 83 62
298 263 276 99 79 57
298 263 281 105 83 57
390 563 322 112 25 44
299 263 286 116 91 61
298 268 276 94 77 57
299 273 276 90 73 56
368 773 381 177 122 100
299 268 286 111 87 59
300 273 286 108 85 59
291 280 269 87 69 49
445 860 250 96 86 78
290 288 269 82 66 48
298 278 272 109 88 66
276 322 329 148 100 83
385 693 231 61 47 36
352 751 414 159 122 101
296 287 274 100 81 60
300 278 276 94 77 59
247 538 263 66 25 28
452 742 256 92 68 49
261 412 299 157 116 91
300 278 286 105 84 59
237 754 178 93 80 65
297 282 273 109 87 66
301 282 281 94 77 59
131 762 186 197 141 115
343 897 202 59 53 54
302 288 278 124 102 81
302 284 286 102 82 60
354 592 336 79 24 36
303 288 286 100 81 60
471 729 228 117 95 74
294 263 301 117 93 66
297 259 295 118 93 65
388 562 325 72 23 33
298 263 296 117 93 65
400 513 341 93 2 30
300 268 291 115 91 63
299 268 296 114 90 63
300 273 296 113 90 62
297 265 299 116 92 64
290 263 307 114 92 66
295 273 306 115 91 64
292 269 309 113 90 63
260 408 299 153 113 89
296 339 323 127 85 72
300 303 274 93 78 61
293 273 310 110 86 58
221 856 184 116 91 71
302 283 296 113 90 63
304 288 296 112 89 64
300 283 301 116 92 64
302 284 299 115 91 63
435 473 326 106 23 41
291 276 313 112 87 57
292 280 314 109 86 59
289 288 321 108 88 65
328 927 208 78 71 74
374 924 296 85 66 48
388 703 211 60 45 38
414 887 281 70 59 52
291 286 318 109 88 65
293 283 315 110 87 61
296 287 313 111 88 60
297 275 304 117 93 66
305 559 294 85 20 34
429 443 271 68 29 32
298 278 305 116 92 64
324 411 277 58 43 31
297 284 309 113 90 62
368 349 280 111 87 60
313 378 286 108 75 58
300 288 306 116 92 63
394 553 196 97 29 40
291 292 269 81 66 49
414 743 251 76 57 50
255 633 261 80 28 37
384 748 305 164 126 92
390 747 226 49 40 41
258 898 244 153 107 84
294 293 271 84 69 52
499 898 285 98 74 54
292 295 268 82 67 51
292 298 268 84 70 55
297 290 273 93 77 59
313 763 182 54 48 44
297 293 273 89 74 57
492 447 261 160 19 50
409 904 332 87 66 51
339 834 367 131 85 67
300 293 275 105 86 66
305 293 281 105 88 69
256 858 281 173 129 110
298 298 273 90 76 60
256 859 271 161 119 97
300 298 275 96 80 64
303 303 277 107 88 68
305 302 279 124 99 74
294 308 267 86 73 59
296 306 269 88 74 58
334 333 281 78 60 42
294 313 265 86 73 59
312 881 174 91 73 71
294 318 263 84 71 58
297 309 268 88 75 60
298 313 267 87 74 59
301 316 269 88 74 58
399 593 241 123 33 48
302 310 273 91 76 59
307 295 284 92 77 62
307 299 282 92 77 62
419 478 341 80 14 30
406 825 219 73 60 58
306 296 287 99 81 62
339 868 161 99 88 82
396 489 383 49 25 28
306 306 279 124 98 73
271 612 284 59 19 28
307 309 277 126 100 71
305 313 274 110 90 68
462 476 273 151 19 50
308 313 276 119 94 67
362 627 309 176 4 57
309 313 281 86 70 54
395 763 195 80 61 49
478 916 272 95 82 72
308 308 286 98 79 58
309 313 286 100 79 55
371 550 347 49 27 33
308 319 273 122 97 72
480 870 294 80 64 51
309 318 276 108 86 64
310 318 286 102 78 54
304 293 301 114 91 65
294 293 321 112 89 63
237 750 186 98 77 57
423 433 380 125 23 47
221 796 194 186 132 106
301 292 308 116 91 64
196 761 174 154 101 68
341 842 366 147 94 71
302 290 304 117 93 65
363 582 335 40 26 29
297 290 314 112 88 60
154 720 182 108 94 79
220 756 198 102 82 59
303 298 306 116 92 63
294 954 307 77 72 71
301 296 308 116 92 63
406 468 358 76 16 32
305 303 306 118 93 64
248 753 221 142 112 84
301 303 312 114 89 59
366 326 273 119 88 55
302 303 309 116 91 62
374 679 226 61 45 37
234 754 177 91 78 64
248 923 256 169 128 106
298 298 316 111 86 57
424 911 291 72 60 52
406 504 303 68 19 28
296 296 318 112 88 60
398 748 266 86 25 34
295 298 321 112 88 60
434 902 272 90 77 68
297 323 263 84 71 59
297 303 321 105 81 53
364 768 371 184 132 112
369 328 271 119 91 58
301 308 312 110 85 54
303 308 310 114 87 58
305 308 306 119 93 64
334 908 336 140 93 85
174 727 181 104 88 72
299 308 316 105 81 54
339 338 286 116 83 62
347 946 242 84 75 74
255 762 256 86 70 64
298 308 321 103 80 52
357 747 324 79 25 33
260 403 300 152 111 87
298 313 321 107 80 53
300 318 316 108 80 52
269 754 277 90 43 49
370 437 303 90 70 49
299 318 321 111 78 53
301 316 313 110 84 55
305 293 291 107 86 62
355 879 211 60 54 55
290 424 298 136 98 78
307 295 294 108 86 61
307 298 291 106 85 62
359 826 176 90 72 67
306 296 297 113 91 66
308 303 291 107 85 61
262 613 268 58 29 33
426 489 337 185 7 58
427 430 370 77 24 37
308 303 296 114 91 66
329 413 281 81 58 45
306 302 302 116 93 67
219 783 177 185 126 91
310 308 291 107 85 60
252 703 215 37 35 39
294 936 203 88 80 80
310 308 296 115 91 63
310 313 291 110 85 58
391 515 164 103 19 31
254 613 211 47 33 36
239 793 206 152 115 86
309 313 301 120 93 65
311 318 296 118 88 63
420 523 206 103 31 43
307 308 304 120 94 65
423 508 291 85 28 36
305 313 307 118 89 61
312 826 268 159 119 101
344 603 201 148 28 48
307 318 304 117 88 60
284 288 322 105 86 64
270 308 325 114 89 61
324 578 303 101 2 32
275 294 324 112 89 63
312 343 297 116 84 61
279 293 325 105 84 62
273 332 259 97 83 68
198 748 173 106 83 53
350 478 300 132 1 41
272 297 323 123 93 66
369 333 272 118 91 58
274 298 325 116 90 64
332 329 278 68 57 44
246 548 197 149 3 38
274 303 327 114 89 63
277 302 328 114 89 62
299 743 315 123 22 46
279 303 330 117 90 67
358 798 391 157 96 73
280 300 329 109 86 62
283 290 324 106 85 63
290 292 323 110 89 64
283 300 329 110 86 62
284 303 330 117 89 66
388 498 365 42 24 28
290 302 328 112 87 60
312 334 290 110 80 57
288 304 329 116 89 63
273 313 328 136 98 75
371 890 298 51 45 41
279 313 331 128 94 70
334 673 211 81 33 31
391 530 358 66 26 33
319 879 170 90 72 69
387 688 221 61 47 38
275 318 329 147 99 82
154 733 166 100 84 67
366 634 303 172 3 55
289 308 330 117 89 63
289 313 331 126 93 67
284 318 331 140 98 77
289 318 331 135 93 70
292 294 324 113 90 63
294 303 326 109 86 59
268 794 237 70 57 52
269 873 241 125 92 56
296 302 322 108 83 56
283 744 293 67 37 41
294 941 208 91 83 84
295 308 327 109 86 58
379 518 160 65 31 37
400 543 195 166 19 46
293 313 329 125 91 65
222 866 194 151 110 108
479 433 286 86 28 34
374 554 180 42 35 40
293 318 329 132 92 70
297 313 325 114 86 58
264 323 271 103 84 62
260 333 272 109 88 65
399 753 376 153 105 73
312 378 290 112 78 60
423 528 286 105 25 41
271 325 263 104 85 65
270 329 263 101 85 66
269 323 266 108 88 64
267 321 269 113 91 67
267 332 264 100 84 67
287 561 288 29 27 27
316 975 268 55 51 51
257 323 280 126 98 67
400 809 337 196 131 102
259 328 276 115 91 64
331 798 399 172 131 112
434 869 249 106 92 82
262 322 274 107 86 62
274 328 261 97 82 66
364 534 164 189 8 38
261 329 273 105 85 63
377 643 285 156 14 48
256 323 282 130 100 69
258 333 276 121 96 67
374 688 301 90 25 38
236 580 213 119 6 32
256 333 286 134 103 71
380 534 303 98 8 32
312 338 291 111 82 58
260 338 271 114 91 66
259 503 267 45 28 31
383 517 364 32 28 26
264 338 266 103 85 67
262 336 269 104 86 66
334 908 306 33 31 30
399 483 361 28 26 28
261 503 269 45 25 28
261 343 267 109 89 66
263 343 265 105 87 67
264 348 261 105 87 69
212 866 169 104 84 61
300 843 221 188 134 100
242 712 266 64 25 35
328 723 196 55 35 36
261 350 263 110 90 68
275 488 280 58 27 31
311 348 272 85 68 48
263 353 260 106 88 68
258 348 271 122 97 68
259 353 266 117 94 68
437 506 287 154 26 50
370 569 190 136 28 44
262 347 264 108 89 68
266 338 263 102 86 69
269 338 261 101 85 69
284 548 165 90 32 39
256 338 278 129 100 69
256 343 277 126 99 68
257 351 274 124 99 69
279 323 262 92 78 64
279 328 260 92 79 65
169 731 174 95 82 68
394 508 306 47 24 28
401 520 353 65 27 27
279 332 259 92 80 67
209 783 201 191 139 116
250 718 216 78 33 40
378 393 290 109 87 63
289 328 260 85 73 61
284 333 258 90 78 66
213 850 191 118 89 58
431 441 268 66 27 31
284 331 259 89 77 66
286 330 258 88 77 64
288 330 258 86 75 63
288 333 258 87 75 63
403 578 291 175 6 51
272 336 259 99 85 70
301 737 319 35 27 30
350 831 279 44 35 35
310 975 277 63 58 56
240 548 211 150 5 40
291 721 309 32 28 31
286 339 259 94 81 68
380 579 205 185 12 45
479 463 271 69 30 35
256 323 300 147 108 82
235 538 241 71 31 35
256 328 299 144 107 79
301 390 303 131 94 75
257 328 302 142 104 78
393 438 381 61 24 29
259 323 306 140 104 77
263 328 311 137 101 74
323 664 208 105 18 26
262 333 308 134 101 73
381 697 246 84 24 31
365 303 271 127 91 59
263 333 311 135 100 74
389 787 365 193 128 100
267 324 318 132 97 70
394 764 311 93 74 53
386 398 278 98 80 59
268 333 317 139 101 74
270 333 320 140 100 76
388 517 163 110 24 39
256 338 296 135 103 72
218 855 182 117 88 51
454 433 306 85 19 30
507 880 244 96 76 59
257 338 297 135 103 72
387 895 254 66 54 49
189 752 197 142 112 92
329 538 160 105 27 41
256 343 291 131 101 69
379 733 310 114 26 43
262 799 228 41 32 39
256 343 295 132 101 69
257 338 301 133 101 72
299 688 200 49 34 35
382 531 354 70 19 29
257 343 297 131 100 69
299 833 261 153 119 94
169 724 181 104 88 70
415 549 308 162 20 53
364 924 301 77 61 49
257 348 298 127 97 67
257 353 301 126 96 67
411 803 321 176 117 84
263 343 311 131 100 72
388 562 197 164 17 44
260 353 306 131 98 71
399 443 371 60 26 29
264 348 311 133 100 73
223 764 174 124 90 52
361 915 312 56 50 45
375 358 277 117 93 65
264 353 311 137 101 75
309 343 262 96 77 60
266 338 314 133 98 72
268 338 317 137 100 74
289 889 215 76 61 46
266 343 314 131 97 71
269 343 317 136 100 74
270 338 319 141 102 76
269 353 316 143 102 80
404 493 371 66 29 34
409 538 201 151 18 43
415 453 351 93 5 30
271 346 319 144 103 79
367 793 327 152 105 78
272 353 318 149 106 84
415 468 347 68 18 31
214 893 165 154 110 92
274 353 320 154 108 87
136 776 186 199 140 119
354 708 172 70 57 48
260 358 261 114 92 67
309 523 157 132 13 37
271 598 284 142 21 52
261 360 258 112 91 66
416 480 362 177 5 54
262 357 259 111 90 68
258 358 266 122 96 68
348 832 170 87 68 58
314 463 301 63 17 27
259 363 261 118 94 68
359 793 391 145 87 65
257 368 261 120 96 70
257 362 265 122 97 69
257 366 264 120 96 69
257 368 303 138 103 77
351 884 205 62 55 56
374 448 308 85 16 30
262 360 308 140 104 78
242 562 252 147 2 45
262 364 308 142 104 79
315 373 271 98 70 52
267 358 313 144 104 81
251 915 289 163 127 108
267 364 313 148 107 83
256 634 265 36 27 30
270 368 315 152 109 87
379 608 226 137 23 44
258 373 303 142 106 80
404 488 376 65 31 36
258 383 302 144 106 83
299 577 178 188 8 41
263 373 307 147 109 84
374 736 370 97 78 58
260 378 305 145 106 83
263 378 307 147 107 85
264 383 307 150 110 86
194 736 175 94 80 65
268 373 312 151 108 88
380 703 296 124 16 41
384 503 385 60 21 31
271 372 314 152 109 89
304 768 178 51 47 46
266 378 309 148 107 86
386 873 273 37 32 32
262 626 273 104 41 48
269 378 312 151 108 88
423 773 273 60 44 35
266 383 309 152 112 87
256 709 208 106 23 31
271 376 314 152 107 89
246 773 226 178 130 103
273 358 318 151 106 87
234 788 204 142 105 79
279 358 320 155 106 88
372 553 304 88 14 31
274 363 317 152 107 88
278 364 318 155 108 87
253 528 181 141 7 37
284 368 318 161 113 90
290 364 318 150 101 82
348 805 383 125 76 56
289 368 317 152 103 84
379 678 256 115 16 37
279 373 316 158 111 89
274 378 314 155 110 89
376 401 293 101 82 62
296 478 296 83 18 32
273 379 313 155 110 89
242 538 204 147 5 37
275 381 314 156 111 89
354 823 176 69 56 50
284 373 316 160 111 90
284 382 314 162 111 92
256 593 264 64 29 33
453 445 259 78 20 33
289 378 314 156 106 85
288 382 314 159 108 87
289 383 313 156 107 86
374 768 181 68 53 44
255 748 211 139 108 81
348 853 356 153 104 80
294 328 261 86 73 60
389 737 366 102 84 63
294 334 258 85 73 61
434 518 255 93 25 37
303 323 267 85 71 54
138 769 198 184 139 123
299 333 261 84 71 57
305 333 265 88 73 56
303 349 257 84 71 57
303 351 259 84 70 56
353 898 316 52 43 40
381 630 250 54 31 31
305 322 269 98 80 59
308 323 272 120 94 67
306 326 269 101 81 58
299 977 242 76 74 76
382 581 319 83 30 39
392 481 369 84 30 45
425 513 313 155 11 48
277 855 289 111 89 65
307 329 268 101 80 58
403 738 217 61 48 40
309 333 261 107 83 64
199 736 188 77 66 54
349 556 173 55 33 36
280 522 289 115 14 40
419 803 236 56 46 40
251 558 264 115 3 35
312 334 261 108 84 64
192 823 187 131 89 70
414 753 247 74 43 39
296 885 216 59 53 52
311 323 276 89 73 58
348 753 421 168 127 104
354 448 302 97 14 35
273 703 199 112 19 29
344 920 319 57 48 44
311 323 281 90 71 50
311 328 276 78 65 51
311 328 281 93 72 49
311 323 286 102 77 54
359 368 292 125 95 66
311 328 286 104 76 55
311 333 281 94 71 51
312 333 273 77 65 54
314 778 301 78 62 57
409 473 302 74 20 27
312 333 286 104 76 55
336 867 353 158 106 98
309 338 266 85 71 58
311 365 298 122 87 66
329 596 308 93 1 33
372 719 314 147 7 45
311 342 270 72 63 53
312 343 271 75 63 51
312 345 257 117 88 67
234 888 160 159 119 107
312 348 261 107 82 63
252 530 184 149 4 29
312 348 266 83 68 55
260 746 279 68 22 36
312 348 270 78 64 50
389 398 271 95 78 59
311 340 280 93 71 50
416 515 328 180 3 58
219 872 190 175 108 106
311 342 277 91 69 50
312 338 276 83 66 48
312 343 281 97 73 52
337 732 169 68 52 42
433 458 351 74 24 34
366 554 368 185 16 60
313 343 286 104 77 57
312 348 276 93 69 51
252 873 276 134 67 78
313 348 281 98 72 54
248 738 220 98 59 53
274 541 279 119 7 37
313 353 276 96 70 51
314 353 281 99 71 54
313 348 286 106 76 59
314 353 286 107 77 60
257 628 262 69 30 37
304 323 311 111 85 56
301 323 317 109 81 53
259 603 201 60 34 39
336 960 268 63 61 62
364 508 306 94 14 34
302 323 315 110 83 55
299 328 321 115 83 57
427 499 299 80 29 37
305 333 311 114 84 58
303 333 315 116 85 60
299 338 321 124 87 66
389 503 381 161 11 52
303 338 316 120 87 62
324 873 275 150 112 92
301 338 318 122 86 64
297 778 283 80 64 58
405 777 311 140 104 68
300 344 318 128 90 67
298 348 319 138 95 78
378 628 295 101 25 43
314 858 276 167 128 102
170 822 204 171 131 118
268 950 220 75 70 71
489 878 291 59 46 36
303 348 315 129 89 68
311 323 296 116 87 60
268 734 195 83 62 44
279 428 300 157 111 90
360 748 435 180 131 106
283 534 159 174 5 37
311 328 296 115 86 60
310 333 301 111 83 58
294 718 312 46 28 32
312 335 294 113 83 59
233 913 175 140 94 87
331 799 397 164 126 105
306 323 307 111 85 55
329 878 376 186 134 118
348 841 269 151 110 86
307 323 305 113 86 57
470 463 292 162 4 53
306 328 308 109 82 56
382 688 281 40 29 33
308 333 306 113 85 58
311 338 297 114 84 60
314 523 155 108 22 36
279 693 296 46 29 31
311 340 292 115 86 60
310 353 301 120 88 64
312 338 295 114 84 59
327 401 263 72 52 43
312 343 290 112 81 60
250 708 217 54 35 37
330 600 343 189 7 61
312 340 299 114 84 59
312 348 291 114 81 62
245 918 261 132 109 98
471 470 281 207 15 59
308 338 306 116 85 59
358 781 419 192 131 103
391 396 263 97 80 61
391 741 193 67 54 43
307 338 309 118 85 60
309 343 306 118 86 62
307 343 310 120 86 61
401 762 266 92 60 46
238 518 211 152 7 40
346 350 289 138 99 75
395 757 226 39 34 37
305 348 311 125 88 66
308 348 306 121 88 64
484 439 276 131 17 41
307 348 309 122 88 65
334 383 285 120 82 66
305 353 311 127 90 68
307 352 309 124 88 65
363 798 322 172 123 94
314 358 266 87 67 50
397 708 231 82 57 50
331 810 388 144 113 92
314 363 261 90 70 53
315 368 261 93 72 55
241 552 254 162 0 49
315 363 266 90 68 51
424 488 281 90 26 36
325 348 271 71 59 47
343 957 256 69 66 67
400 781 199 82 63 49
315 368 266 93 69 52
315 368 271 97 69 52
243 523 201 148 6 38
313 358 276 99 71 53
382 627 290 46 26 32
314 358 286 108 77 59
369 547 173 67 33 37
310 810 184 61 52 49
344 903 301 33 30 32
448 498 301 200 15 55
315 363 276 100 71 54
394 603 241 115 35 47
351 733 421 148 118 90
313 363 286 111 77 59
314 368 286 110 76 59
339 733 166 77 56 45
388 754 304 162 125 90
315 373 261 99 76 57
315 373 266 95 70 52
324 783 185 47 41 41
316 381 261 94 71 52
423 767 272 65 57 52
391 466 303 68 19 25
315 378 271 97 69 51
317 384 266 91 67 49
374 682 219 64 48 37
359 673 310 74 25 32
403 464 299 75 26 31
313 373 286 110 76 59
418 436 360 66 22 27
315 378 276 100 71 54
311 817 270 179 127 108
315 383 276 97 68 52
254 819 175 204 135 101
315 383 281 99 70 53
188 878 186 195 156 144
289 358 320 154 104 84
296 355 318 144 97 78
294 970 236 86 83 86
294 363 317 145 99 80
214 742 187 81 68 54
339 363 287 128 91 70
407 527 304 55 27 29
294 368 315 146 100 81
371 672 240 51 38 37
299 358 315 139 98 79
175 737 196 103 84 64
302 368 310 134 96 76
354 508 301 43 25 30
295 374 313 147 102 83
299 373 311 141 100 81
289 553 287 38 27 28
437 467 321 87 15 33
304 373 306 130 95 74
247 766 219 150 114 85
298 378 310 143 102 82
300 378 308 137 98 79
299 848 272 149 117 93
299 383 307 136 96 79
310 358 301 122 88 66
311 369 297 122 86 67
248 799 213 168 124 97
264 663 216 63 30 33
313 363 291 118 82 65
312 367 295 121 85 65
249 903 256 183 131 112
312 362 299 121 86 65
306 355 308 126 88 67
307 358 305 124 88 66
241 597 229 47 26 30
307 368 304 124 89 69
429 430 361 98 28 40
319 924 315 38 34 34
311 370 293 119 84 64
289 653 205 129 5 30
311 374 292 118 83 64
310 373 296 122 86 66
410 788 316 141 101 64
306 374 303 125 90 71
310 378 296 120 84 65
343 607 203 92 33 36
310 383 296 117 82 64
306 378 303 125 91 71
323 467 294 103 4 32
308 378 300 123 88 68
307 383 300 121 87 67
374 468 307 60 19 26
312 373 291 116 81 62
312 383 290 108 76 56
229 908 177 126 76 72
271 322 324 140 99 76
145 739 163 126 94 55
279 323 330 149 101 84
279 333 327 143 97 80
289 323 330 140 92 74
357 931 242 75 67 67
439 433 350 83 22 33
264 628 210 72 27 37
284 331 329 147 101 81
384 927 301 79 64 53
288 332 329 143 96 76
359 488 304 94 11 34
309 579 180 189 7 38
273 338 322 144 103 78
408 817 186 72 61 57
276 338 324 145 102 80
256 791 229 176 131 104
279 338 326 148 102 84
276 342 324 152 107 85
353 738 431 169 127 103
224 863 176 119 93 71
280 347 324 157 104 87
299 693 311 43 27 29
284 343 326 157 104 88
284 967 231 84 81 84
289 343 325 152 99 80
256 951 237 72 67 67
259 469 282 92 26 38
284 347 324 160 106 89
317 398 280 75 55 36
392 735 414 133 99 64
238 558 247 156 1 47
289 353 322 156 104 82
284 358 320 162 112 92
295 323 327 129 88 69
354 859 157 86 69 58
293 323 329 134 89 71
414 483 342 76 12 31
398 542 305 87 12 35
292 327 329 134 88 66
206 742 179 92 78 63
254 918 246 154 116 91
294 333 326 130 89 69
297 328 324 119 83 59
297 332 324 123 84 63
299 623 321 38 29 32
341 315 284 104 77 54
295 344 322 139 93 74
291 345 323 149 99 76
331 279 260 79 67 54
330 283 261 73 62 50
309 783 178 55 48 46
274 947 212 81 75 76
296 840 264 134 104 81
432 477 336 130 23 50
331 284 265 73 63 52
334 283 266 69 59 49
368 783 331 153 108 84
380 827 315 166 116 90
333 288 267 70 61 52
339 258 261 86 71 55
419 434 361 93 13 33
249 928 286 182 140 120
442 442 344 68 31 32
374 838 185 63 54 54
339 263 262 83 69 54
374 786 366 173 117 91
342 258 263 90 72 53
423 523 221 117 34 46
429 877 305 85 64 54
375 417 298 82 68 53
414 478 306 71 19 26
344 258 265 95 76 54
378 925 296 79 62 49
344 263 266 88 71 52
411 479 347 52 25 29
340 268 265 79 65 51
364 414 299 102 81 57
321 873 371 175 120 112
279 393 311 165 117 96
343 273 268 79 65 49
347 258 268 105 83 58
345 273 269 84 68 50
349 273 272 97 77 55
341 279 269 74 62 50
318 805 287 183 130 112
344 278 270 79 65 49
246 543 196 151 5 36
337 282 268 69 59 49
464 478 286 139 15 42
328 972 246 90 85 89
339 283 270 73 62 51
334 363 285 110 76 58
339 288 272 75 64 52
327 956 223 76 71 73
449 468 311 63 21 31
374 720 398 99 81 61
347 282 273 87 70 50
329 605 338 191 8 60
349 283 275 95 76 55
349 288 277 99 79 57
509 903 236 105 87 70
477 462 284 164 11 52
329 293 261 71 61 50
199 778 201 193 139 119
331 294 269 72 64 57
332 291 268 71 63 55
328 542 293 56 19 29
247 624 226 104 30 42
328 298 261 70 60 51
199 754 199 132 107 85
337 700 329 123 9 42
330 298 270 68 60 53
330 303 271 66 58 50
335 298 274 72 60 47
281 717 304 118 20 43
406 426 261 89 56 48
255 728 284 172 0 54
364 588 201 189 11 43
332 302 273 64 55 46
326 309 260 72 61 51
349 413 295 115 85 63
325 313 261 74 62 51
335 773 181 50 43 39
326 313 264 69 58 47
327 313 267 66 56 45
325 318 261 71 60 49
255 648 266 155 2 46
504 912 247 96 78 65
326 318 266 69 58 47
330 308 271 67 58 49
335 313 280 79 63 44
330 318 276 65 56 47
338 292 273 77 65 52
399 533 297 54 25 30
340 289 274 80 66 51
505 907 241 105 86 68
409 713 251 72 64 57
374 758 316 95 76 57
445 753 266 80 61 50
340 303 279 85 67 46
248 558 261 112 2 33
324 443 302 100 8 32
345 299 279 94 74 51
298 653 308 89 29 39
370 748 356 111 87 64
341 300 279 83 66 45
420 533 216 59 33 36
344 303 281 97 74 50
274 748 188 94 77 58
397 841 274 46 40 36
349 294 279 107 84 59
339 308 280 86 68 47
348 799 308 72 59 54
339 313 282 91 70 48
414 488 340 56 23 31
344 308 282 101 77 53
481 448 283 148 14 45
409 730 253 53 41 33
342 312 283 102 78 54
340 318 284 106 78 56
349 308 283 109 84 57
351 311 283 109 84 55
349 318 285 126 87 65
359 258 269 124 96 64
359 263 270 124 96 63
294 493 296 127 7 40
354 268 271 114 89 61
389 403 276 85 71 57
257 717 204 109 17 28
359 268 270 123 94 61
360 923 246 70 65 65
354 273 272 111 86 61
369 528 377 93 16 35
457 481 277 203 18 55
369 558 181 99 32 41
365 263 267 123 95 62
397 502 374 76 24 35
362 263 269 124 94 61
367 258 264 124 96 61
362 268 269 124 94 60
364 268 267 125 94 60
362 273 269 123 92 60
405 493 346 81 5 29
368 268 264 126 96 62
359 278 272 117 92 62
349 518 152 169 7 39
360 282 272 115 90 62
328 552 298 106 14 35
364 283 270 117 91 59
364 288 271 120 93 60
238 575 237 126 20 46
444 427 341 94 25 40
424 495 299 81 28 37
366 282 268 119 92 59
368 283 266 123 95 62
369 288 266 125 96 61
367 288 269 120 93 59
354 279 274 109 88 64
253 698 216 62 34 39
316 869 172 63 54 55
357 280 274 114 92 66
350 520 154 185 6 36
329 583 186 157 11 40
354 288 277 110 87 62
269 463 287 101 25 42
358 283 275 113 90 64
375 692 201 72 49 41
398 753 366 151 107 72
370 263 262 124 96 61
373 263 260 125 96 61
370 268 262 126 95 61
327 946 218 72 66 67
370 273 262 126 96 61
372 273 260 127 96 61
343 686 168 80 65 55
371 278 263 124 95 60
371 282 263 124 96 61
371 288 263 128 99 64
365 298 271 131 93 64
408 848 237 58 50 49
194 763 172 167 109 77
367 297 269 128 92 63
370 298 266 127 95 62
367 303 269 124 91 59
270 903 232 106 78 56
354 293 279 118 92 63
357 294 279 124 94 60
411 810 307 165 109 78
363 597 207 107 24 41
389 473 390 69 25 30
357 298 279 130 95 65
360 298 277 129 93 64
354 303 280 124 91 63
360 303 277 129 90 63
272 615 199 70 25 27
373 648 295 79 22 35
351 733 328 147 13 46
362 298 274 132 95 65
362 303 274 129 92 63
339 948 286 63 55 52
367 308 269 119 89 55
250 583 197 49 27 36
309 944 312 60 55 53
335 393 284 118 81 65
243 778 207 121 93 64
368 313 270 120 91 57
360 308 277 120 86 56
324 673 317 147 11 45
353 314 284 119 86 59
353 808 401 198 134 107
355 318 283 128 90 64
353 318 284 130 89 64
387 709 276 137 8 43
325 580 184 194 9 41
358 318 280 124 89 59
355 762 405 135 99 76
362 308 275 120 88 58
270 569 275 129 10 40
320 594 341 85 12 30
404 443 392 167 8 52
399 698 241 80 72 65
363 313 275 119 87 55
397 735 232 57 47 44
361 318 278 121 86 56
376 292 258 125 97 61
375 303 261 126 98 64
340 778 314 73 60 56
339 613 327 143 19 49
408 477 355 79 6 29
372 298 264 125 94 62
376 297 258 123 95 60
375 308 262 125 98 65
376 313 263 125 97 64
370 313 268 121 94 60
353 888 211 55 50 51
425 533 306 124 28 47
411 514 292 74 27 33
421 534 246 114 15 38
373 308 265 123 96 63
340 691 162 73 51 38
371 318 268 122 94 61
377 308 260 126 99 66
376 318 263 125 98 66
173 764 197 162 109 92
324 328 261 76 64 52
325 328 266 73 60 45
243 723 236 120 20 42
324 333 261 76 65 54
326 333 271 78 66 54
327 328 273 73 62 50
329 328 276 71 61 52
355 874 196 62 56 57
327 332 273 78 67 56
409 743 251 58 41 37
331 324 279 64 54 42
314 569 175 190 10 38
436 454 298 91 58 54
334 323 281 76 59 40
389 718 245 56 36 34
339 383 287 124 87 69
324 343 261 74 61 47
160 731 198 105 86 66
369 378 292 122 95 65
324 338 266 77 65 52
412 446 359 68 0 18
324 348 261 73 60 46
344 848 356 146 98 74
324 353 261 72 59 44
372 794 173 76 59 55
324 353 266 72 59 45
326 338 274 78 68 59
369 898 251 65 60 61
373 358 280 115 91 62
327 343 278 71 61 51
145 743 204 148 115 93
326 348 275 69 58 46
402 521 329 96 6 29
371 648 297 99 27 39
330 338 280 73 59 44
319 538 290 62 20 28
382 841 192 58 52 52
333 343 283 83 62 40
218 745 190 80 66 50
179 763 201 181 130 112
279 589 184 169 6 38
399 498 306 67 22 29
335 343 284 99 70 50
332 347 283 83 61 40
334 353 285 100 70 51
245 533 196 147 9 38
186 812 184 131 84 67
337 328 283 93 67 45
289 403 306 150 105 85
344 323 286 119 85 63
367 708 166 66 52 42
244 703 246 62 32 37
336 333 284 96 68 49
426 504 291 87 28 37
349 323 285 124 87 62
298 408 299 127 90 72
349 328 286 119 87 59
339 343 286 121 85 65
344 338 287 128 91 69
339 348 287 125 87 68
430 499 313 146 12 47
329 458 295 28 24 26
289 448 291 36 27 28
349 338 287 128 92 65
147 794 184 200 139 115
424 473 321 98 13 34
338 864 269 118 87 72
343 353 288 133 95 73
349 343 288 131 93 66
349 347 288 135 97 69
296 470 294 47 25 26
345 353 289 135 96 72
324 358 266 71 58 44
324 358 271 70 57 43
257 867 260 152 116 89
349 808 382 128 78 58
208 900 169 157 112 91
346 706 328 53 25 28
300 883 297 119 89 68
247 609 214 154 1 38
325 363 261 71 58 42
391 750 413 194 130 105
145 757 204 161 126 105
322 420 294 54 43 31
436 514 306 103 22 42
414 881 300 65 49 41
325 368 261 70 57 43
244 603 250 40 28 30
324 363 266 70 57 42
361 672 308 56 26 33
472 466 263 61 32 33
325 368 266 69 56 43
357 872 189 66 56 57
337 714 179 54 44 36
304 463 305 82 22 34
329 358 281 76 55 39
325 363 276 72 56 42
325 368 276 72 56 43
328 363 282 76 55 38
331 354 284 83 60 41
362 858 189 55 49 51
331 357 284 86 61 42
231 806 190 179 130 102
334 358 285 104 72 54
330 368 284 90 63 45
334 368 285 116 80 63
326 388 261 78 60 47
325 373 261 68 57 45
325 373 266 67 55 43
326 378 261 69 57 46
326 383 261 74 59 47
340 585 328 48 20 25
326 382 266 73 57 46
372 390 294 120 95 67
327 384 266 75 58 47
400 814 332 196 131 102
325 373 276 70 54 43
318 476 294 94 13 30
290 815 179 178 122 92
326 377 279 71 53 44
352 882 355 180 117 103
326 381 274 73 54 45
330 944 220 71 64 66
327 380 276 72 54 45
245 708 271 58 28 34
330 373 284 95 66 48
320 789 184 52 45 44
264 743 282 77 22 39
334 373 285 118 81 64
398 598 246 72 32 38
384 698 276 37 28 31
235 518 231 45 31 35
334 378 285 120 82 66
339 358 287 129 91 70
330 903 295 70 53 47
242 592 239 126 19 39
343 363 288 131 93 71
330 899 347 113 68 56
345 363 289 131 94 72
454 741 248 104 73 60
455 474 261 163 23 52
349 358 289 134 96 70
349 368 291 130 95 70
344 373 290 128 92 71
224 756 174 102 81 56
408 507 330 79 15 32
380 728 189 64 47 39
244 793 172 164 110 73
379 834 177 64 52 46
341 378 289 126 89 70
337 851 379 194 132 102
353 323 284 125 87 62
353 328 285 117 85 57
412 512 320 67 22 31
358 323 280 122 88 59
359 328 280 119 88 57
342 791 394 125 97 72
272 697 293 133 8 41
239 533 211 142 4 36
354 333 285 120 88 59
185 731 188 79 67 54
359 333 281 118 89 58
412 723 232 59 44 37
364 323 275 121 88 56
404 503 366 104 19 40
253 938 291 184 136 115
484 440 272 128 17 40
418 538 281 91 30 42
361 323 278 120 87 56
361 328 278 118 86 56
375 609 224 58 28 33
369 323 270 120 91 58
364 333 276 117 89 55
367 330 274 118 90 56
393 918 296 75 57 45
367 333 274 117 90 56
374 758 427 183 123 94
387 527 369 70 27 37
398 892 253 77 67 65
354 338 286 123 91 62
354 348 288 128 94 65
408 493 340 65 19 31
492 445 261 141 12 42
214 878 164 147 109 91
166 768 198 134 93 73
359 348 285 118 91 60
416 771 244 54 45 41
293 838 251 160 120 93
359 353 287 120 93 60
364 343 280 112 87 56
345 696 323 133 8 41
366 342 278 111 87 57
369 343 276 112 88 59
360 880 274 35 31 31
273 893 235 126 92 63
231 573 231 58 29 33
361 346 283 115 90 61
349 708 166 66 50 41
416 554 278 130 30 48
314 398 286 82 59 41
364 353 285 116 91 61
300 698 315 37 28 30
451 485 274 133 25 52
304 728 187 93 26 30
301 895 187 63 57 57
315 398 282 78 57 38
366 352 283 113 89 61
268 668 214 116 21 32
374 328 267 125 97 65
314 493 287 53 24 29
392 740 183 68 55 48
372 329 269 124 97 65
375 333 267 124 98 66
379 323 261 124 97 66
317 670 203 47 37 34
361 570 333 60 27 37
379 328 261 125 98 66
370 338 272 117 92 60
255 788 231 171 128 103
373 338 270 123 97 66
512 910 256 96 76 57
429 463 326 91 10 34
375 348 272 118 94 66
390 488 367 70 16 31
400 739 215 66 51 43
356 554 304 112 0 35
380 338 261 124 97 66
264 878 241 141 103 73
382 340 259 123 97 66
412 703 232 63 42 33
305 732 324 166 16 55
334 842 356 134 95 76
382 344 260 121 96 66
242 598 231 57 29 34
318 759 317 77 62 57
376 341 268 123 98 69
204 867 196 172 120 114
377 344 269 119 94 65
382 348 261 120 95 66
384 353 261 118 93 65
269 903 301 133 96 83
379 348 266 121 96 68
377 348 270 119 95 66
274 608 195 126 30 42
304 943 210 93 86 89
235 518 246 52 29 33
380 353 266 120 95 66
224 908 176 161 103 102
371 351 278 113 89 63
209 748 175 98 79 57
300 618 325 64 31 36
367 571 324 32 29 28
372 344 274 118 93 64
373 349 275 117 93 65
352 350 289 133 96 69
360 357 288 122 95 63
367 355 284 116 92 64
368 359 285 116 92 62
379 358 271 117 93 64
381 357 267 118 93 64
383 358 265 118 93 64
384 363 266 117 92 63
381 362 268 117 92 61
382 364 270 116 92 62
381 367 272 116 92 64
383 368 270 116 92 63
385 368 266 116 91 62
255 868 271 147 107 86
333 819 174 54 47 45
336 878 353 137 85 75
204 768 206 173 134 115
370 367 287 119 94 66
366 768 358 169 125 107
375 367 282 116 91 63
377 354 274 119 95 67
144 733 165 104 85 63
377 359 275 118 93 65
378 363 276 115 91 63
315 868 196 48 45 46
376 362 278 116 91 62
377 364 279 115 91 63
379 368 276 116 92 63
309 523 282 108 3 32
401 916 280 74 61 49
312 872 201 47 44 45
155 743 159 135 93 58
383 373 271 117 92 62
384 378 271 118 94 65
389 568 320 90 27 39
374 373 286 118 94 65
381 545 358 171 15 55
375 378 287 118 94 66
380 373 277 117 92 64
377 374 284 116 92 65
289 699 198 85 28 31
328 408 276 83 56 47
242 543 204 146 4 37
381 377 277 116 92 63
380 378 281 116 92 64
386 560 328 71 24 34
407 567 305 53 27 33
383 383 276 116 92 64
344 684 201 90 51 38
370 688 196 69 50 38
382 383 280 115 91 63
287 506 282 52 26 27
379 383 286 115 92 65
381 383 282 116 92 64
359 358 289 123 94 62
331 733 181 53 44 41
386 585 214 107 33 48
317 858 370 189 126 118
381 436 298 66 54 43
367 365 289 118 93 65
364 548 356 35 28 27
359 373 293 127 96 68
283 748 184 81 62 47
283 702 303 35 29 32
353 383 293 130 96 70
359 377 293 127 97 69
413 784 231 53 44 40
359 383 294 127 97 69
369 373 290 122 95 64
389 723 246 51 37 32
364 380 294 126 97 68
443 448 336 70 24 33
364 383 294 126 97 68
204 878 186 152 106 100
275 563 281 66 23 34
370 383 293 122 95 66
415 523 321 178 4 56
373 378 290 119 93 65
364 888 277 35 32 33
374 383 290 117 93 66
323 818 186 51 45 46
249 608 211 155 6 39
257 398 298 149 108 85
361 544 363 36 25 26
419 553 276 114 26 43
379 749 346 95 74 54
259 398 300 151 110 86
394 583 306 81 22 33
262 398 303 152 109 87
266 738 198 90 72 51
431 529 259 48 31 38
261 388 304 148 107 85
254 923 246 129 99 79
268 393 308 154 111 89
255 668 270 38 29 32
294 589 184 126 18 43
393 613 266 141 24 48
258 403 298 149 110 85
263 403 302 154 112 88
264 408 302 156 113 91
385 549 326 32 29 30
259 413 297 154 113 89
329 698 191 70 52 43
419 823 256 66 52 44
410 818 306 178 118 89
267 410 303 160 117 93
435 448 322 129 10 40
269 403 306 157 113 91
406 739 254 44 33 27
386 722 249 91 30 35
270 704 294 99 18 40
451 445 292 122 15 40
266 407 304 158 115 92
269 408 305 159 114 92
393 527 360 60 28 31
274 393 310 160 114 92
279 768 176 97 79 58
274 397 309 161 114 93
279 398 309 165 118 96
284 388 312 163 114 92
246 530 260 53 27 30
330 845 353 130 93 78
289 388 311 156 107 87
362 699 314 147 9 46
289 393 310 154 106 87
272 415 303 162 116 95
406 569 225 61 36 39
393 533 336 83 14 31
285 415 303 153 106 87
274 403 307 163 116 95
279 408 306 162 113 92
279 413 304 162 114 92
284 403 307 156 107 89
353 901 333 166 116 107
214 864 197 165 123 121
444 453 292 100 24 35
259 418 296 155 112 89
179 753 171 157 106 72
257 420 293 153 111 89
350 680 196 80 53 40
262 419 298 156 112 91
265 418 300 157 112 92
392 400 264 91 75 59
263 423 298 155 111 90
259 433 296 128 36 48
304 938 206 92 85 86
264 428 297 148 107 86
171 759 169 182 115 84
243 558 256 151 2 47
264 433 297 119 69 59
269 418 302 159 113 93
334 818 377 117 83 64
420 499 332 185 9 59
479 434 282 114 26 40
265 423 299 157 111 91
413 453 381 178 1 56
269 423 301 159 112 92
269 428 299 159 114 92
409 708 247 82 72 63
259 438 295 76 28 36
252 938 249 72 62 59
264 438 297 109 25 42
260 442 294 66 28 35
396 604 276 97 35 45
264 443 295 81 29 37
440 469 313 100 15 37
262 445 293 128 31 44
264 448 292 106 30 44
331 586 354 148 10 45
269 438 298 90 27 37
265 447 294 101 18 35
239 543 216 153 3 41
412 457 380 178 1 57
397 805 193 74 60 55
254 758 206 125 99 71
274 418 303 162 115 93
279 418 303 160 113 92
389 753 336 98 77 54
279 423 301 158 111 89
457 448 304 150 9 47
274 428 300 160 115 92
274 433 299 152 111 90
284 418 302 153 107 87
284 423 301 149 105 85
249 703 221 69 32 38
289 418 301 143 101 83
289 423 300 140 100 80
334 573 181 185 11 41
261 938 226 62 57 59
284 433 297 143 101 82
400 523 331 93 1 30
282 431 299 148 105 83
285 429 298 143 101 81
256 741 279 185 9 59
373 668 247 73 32 33
279 416 304 162 114 93
274 438 298 81 42 41
279 438 298 77 57 47
291 923 193 81 71 67
274 447 294 48 26 30
279 447 294 36 28 28
250 558 192 152 13 42
392 592 304 145 9 44
284 443 295 46 29 32
362 752 182 54 45 41
369 608 314 134 16 46
284 448 292 42 28 31
288 442 294 75 28 35
286 445 293 53 31 33
290 444 293 70 29 34
294 553 165 135 22 42
173 725 182 104 88 70
317 388 271 89 64 49
378 567 331 71 25 33
319 393 266 75 57 43
248 693 261 71 28 37
320 610 199 44 33 41
366 802 324 180 129 99
169 735 168 94 79 63
414 713 236 69 46 38
318 393 271 77 57 42
320 398 261 68 54 42
207 740 189 81 68 54
333 692 176 73 56 44
319 398 271 66 51 35
316 387 277 92 65 49
317 384 274 94 67 50
316 386 272 92 66 50
262 702 288 135 1 41
274 568 281 64 28 35
317 389 275 89 63 49
405 554 312 61 26 33
274 923 211 64 59 60
220 746 188 80 65 49
318 403 280 69 51 34
279 854 271 96 73 47
314 403 286 74 56 37
314 408 286 70 53 35
316 406 283 70 52 32
316 412 287 66 52 35
349 918 318 71 56 50
317 541 158 54 38 43
339 814 169 68 53 46
388 458 381 108 0 31
320 413 282 61 47 31
304 388 301 122 88 69
300 394 303 130 95 75
304 393 300 121 89 69
303 398 300 117 86 66
434 453 306 83 41 49
294 463 291 78 27 35
294 393 307 145 102 84
291 395 308 150 103 85
299 388 306 136 96 79
297 397 304 137 98 80
454 428 326 108 19 41
455 456 271 86 17 28
295 403 303 137 97 80
381 676 271 45 28 31
294 408 302 138 97 80
463 734 239 108 88 66
291 409 303 146 103 85
300 408 298 118 84 65
304 408 296 101 74 55
347 457 298 25 26 29
297 412 299 127 90 72
236 521 218 145 3 34
284 573 177 121 25 39
296 414 298 128 92 74
276 826 209 44 36 37
369 393 295 120 94 66
292 406 304 146 103 85
335 841 359 134 94 74
311 388 292 105 74 55
401 534 337 179 14 59
301 460 299 37 28 31
310 388 296 111 79 61
462 443 299 122 5 43
310 393 292 98 70 51
404 801 199 82 63 50
315 752 319 39 30 34
309 393 296 105 76 56
308 394 299 107 78 59
421 529 216 64 32 39
305 399 298 109 80 59
312 388 290 101 71 53
257 691 214 55 38 39
310 412 292 72 56 39
479 874 301 67 54 41
288 560 169 74 38 43
309 413 295 81 61 45
312 408 289 72 55 36
295 418 298 126 91 73
293 433 294 116 84 65
299 423 295 88 65 47
255 688 217 63 35 38
304 423 297 73 56 37
299 596 188 179 3 38
289 503 295 140 3 43
298 426 294 90 67 47
296 430 293 98 72 52
414 788 236 55 46 43
412 516 188 195 16 47
353 751 411 154 121 97
398 541 298 94 7 29
304 428 296 70 48 35
407 822 281 129 84 60
214 783 178 193 130 97
198 739 173 90 77 64
178 743 200 128 102 81
304 433 292 81 32 31
413 430 266 75 46 37
475 440 277 109 17 39
291 438 293 100 73 57
267 497 273 62 22 29
299 443 290 85 17 29
299 448 292 102 11 33
400 435 377 89 22 32
378 719 431 122 98 72
303 443 292 107 8 33
377 735 194 58 42 40
346 695 174 76 62 49
305 443 296 69 17 29
434 468 341 59 23 32
304 448 301 60 27 32
251 879 284 154 87 90
306 423 299 65 51 34
309 423 301 70 47 36
306 428 300 65 44 33
307 433 302 109 32 40
397 758 206 48 40 38
315 417 292 62 49 34
277 644 209 161 0 38
313 419 295 65 50 35
416 500 318 80 15 38
319 418 291 59 47 33
319 420 294 59 46 33
315 421 297 62 47 33
215 779 178 191 128 96
312 420 299 66 49 33
255 658 226 48 34 38
255 653 226 50 34 39
314 422 301 60 46 35
386 832 168 71 60 55
434 513 291 151 22 47
247 713 224 128 25 47
330 908 301 35 31 31
314 424 306 61 42 33
401 505 368 62 18 28
314 428 309 134 6 42
246 568 260 122 7 37
319 428 309 123 10 38
376 504 384 34 28 26
308 434 296 68 24 29
411 774 234 54 46 41
438 513 266 92 28 40
307 437 293 57 24 29
252 888 250 144 104 80
465 445 278 95 17 36
218 774 204 166 126 106
307 437 296 54 27 30
306 438 301 69 28 33
289 463 287 41 24 27
437 518 265 66 30 35
305 443 301 57 28 32
309 438 307 120 13 39
306 439 304 102 25 40
350 787 314 60 50 47
311 436 309 139 4 40
305 448 305 111 22 41
309 448 307 117 15 40
145 738 204 149 113 92
320 434 308 112 12 36
319 438 307 84 16 31
439 880 298 72 58 47
317 436 309 120 7 36
338 723 334 71 29 35
314 443 308 78 23 32
205 737 181 97 82 67
314 448 307 88 23 34
319 443 306 49 23 27
351 893 352 184 124 108
258 454 288 69 29 35
411 754 260 54 46 39
259 463 285 120 19 43
252 945 283 169 122 104
263 460 288 71 29 36
264 463 287 38 26 30
257 465 283 111 16 34
260 467 284 129 28 48
149 760 203 157 122 103
259 473 281 55 28 31
258 479 278 165 9 52
260 477 279 138 19 49
269 468 285 82 24 37
269 471 284 41 27 30
391 398 266 93 77 59
274 688 292 36 28 31
269 474 283 52 26 30
375 748 313 150 115 87
349 433 300 86 29 31
388 552 306 36 29 30
284 463 287 61 22 33
285 459 288 32 26 28
250 958 261 71 68 70
274 468 285 96 22 39
381 926 291 86 69 54
435 463 297 86 33 37
344 683 191 82 55 44
279 468 285 120 15 42
329 778 189 41 37 38
274 474 283 66 29 34
425 533 296 110 31 43
284 473 286 35 26 28
288 468 287 65 23 30
374 728 436 163 120 91
407 521 320 95 13 28
411 435 368 92 20 37
284 478 286 89 27 37
259 453 290 53 27 31
264 457 289 85 29 39
329 892 355 111 69 61
269 453 292 61 29 34
270 461 289 43 28 32
274 450 293 82 29 38
139 763 200 178 137 118
340 762 173 54 42 36
339 858 267 138 99 80
369 863 271 41 36 35
279 449 293 41 27 29
279 453 292 45 28 30
439 877 306 68 53 41
274 458 290 48 28 31
250 723 216 109 26 42
410 718 230 76 52 43
278 461 289 40 26 30
289 453 289 50 25 28
298 750 307 77 61 57
283 457 289 43 27 29
281 460 288 38 28 29
251 679 260 77 32 41
252 658 236 38 31 35
288 456 289 44 23 24
257 949 288 71 53 48
288 478 288 62 25 31
374 703 306 142 11 43
356 843 179 80 65 60
264 493 272 51 28 30
256 724 203 110 22 31
457 426 324 160 11 47
259 483 276 72 24 36
259 489 273 68 25 34
325 717 199 87 25 29
259 487 274 53 30 32
263 480 278 157 20 54
264 483 277 90 27 40
262 490 273 105 35 49
130 724 194 140 111 90
159 768 166 173 114 84
266 481 279 97 17 25
422 810 232 67 57 53
154 758 204 146 111 91
269 481 279 59 33 35
269 488 276 43 27 29
345 792 310 71 58 54
316 624 204 54 37 38
266 491 274 48 24 30
445 443 336 48 29 31
269 493 276 55 25 29
320 959 224 80 74 78
258 499 268 57 25 32
260 497 269 91 31 41
264 498 271 81 24 34
264 503 271 79 20 32
258 508 266 43 25 28
256 514 265 65 26 32
324 693 326 119 12 37
294 713 191 81 29 28
346 634 313 176 3 56
258 512 267 47 28 30
261 508 270 72 26 35
378 517 369 41 23 23
250 763 211 117 92 66
262 508 272 115 23 42
420 489 342 152 11 53
265 508 275 145 10 46
479 458 281 128 15 43
263 513 273 63 21 31
436 504 280 162 16 48
265 513 274 117 12 39
269 498 276 102 22 38
140 787 191 206 148 127
169 738 200 121 96 75
424 876 251 107 87 76
266 504 275 133 14 45
269 503 277 121 16 41
389 593 306 164 7 51
271 499 279 116 11 34
360 743 322 98 24 39
334 718 186 61 46 42
271 502 279 145 10 47
269 513 274 113 6 35
280 483 284 63 28 35
386 737 204 66 53 47
274 493 280 66 26 32
244 543 201 145 2 37
279 493 282 89 22 35
284 483 286 70 25 34
290 853 241 134 99 75
147 736 164 112 88 58
284 488 285 55 25 30
289 488 286 39 26 29
284 493 283 65 23 30
414 758 263 45 36 30
383 398 286 100 81 59
281 491 284 106 29 41
479 898 287 89 73 57
284 491 284 73 25 31
390 757 303 154 118 84
274 504 278 41 23 30
369 720 398 97 79 58
279 498 281 55 24 31
377 551 340 41 28 30
279 508 277 72 22 31
149 748 204 140 109 88
340 832 369 129 82 63
284 498 281 63 24 30
289 498 283 71 25 33
309 648 312 33 28 29
289 503 286 58 24 31
284 508 281 52 25 29
158 720 186 95 82 69
282 512 278 40 27 28
380 739 181 105 79 61
283 512 281 43 25 28
294 663 204 68 29 36
316 859 181 51 46 44
329 768 315 69 57 53
284 508 286 48 25 27
286 505 287 41 23 27
287 506 284 51 26 28
314 573 302 106 0 32
288 503 291 86 19 34
232 805 193 171 126 97
243 733 236 153 6 48
393 733 261 76 27 36
285 508 291 116 12 38
213 753 173 107 84 55
289 509 293 133 3 40
289 513 291 115 4 36
334 553 302 106 4 33
371 595 318 170 8 52
429 447 276 72 29 32
334 773 315 70 58 54
290 455 288 38 27 28
448 740 259 87 71 57
294 453 290 55 21 28
258 744 278 169 13 56
292 455 288 25 26 28
291 464 289 63 28 32
391 785 194 75 56 41
396 758 196 68 53 44
300 453 295 84 14 29
402 526 321 94 1 31
303 453 301 40 27 29
403 583 236 124 26 45
300 458 296 63 20 28
299 463 296 44 25 28
439 483 286 91 27 36
384 758 186 74 57 46
302 456 298 53 26 29
303 458 301 38 28 29
338 788 407 181 137 117
275 812 230 68 56 52
302 462 302 51 27 30
344 488 295 131 2 39
290 468 289 55 27 31
294 468 291 41 25 27
317 739 188 69 29 31
189 758 201 166 128 110
294 473 291 61 24 30
302 486 299 99 10 34
294 478 291 58 23 29
298 468 296 45 26 29
295 728 310 108 25 42
354 579 327 45 25 30
297 473 296 69 27 32
252 950 250 79 73 73
401 761 282 137 98 68
236 540 249 49 29 30
299 473 301 62 27 32
396 742 376 124 94 61
399 458 366 87 6 26
296 479 299 123 14 42
311 593 304 120 1 39
378 814 332 180 127 100
308 598 303 122 2 38
425 899 306 70 56 46
420 808 262 53 44 39
304 478 302 53 23 28
479 913 281 90 78 68
301 465 304 66 16 26
376 676 250 103 24 34
161 726 193 86 73 60
219 853 186 121 95 68
459 898 281 120 96 71
301 468 304 127 16 42
433 440 265 65 23 29
302 476 304 87 25 36
264 771 174 92 77 59
311 464 303 69 22 30
338 763 175 55 44 37
444 468 312 65 21 32
319 453 301 88 18 33
320 449 303 97 14 34
390 393 266 104 84 61
310 594 189 183 5 38
362 534 303 118 0 38
315 458 302 61 20 28
388 424 289 68 58 48
317 462 299 87 15 33
297 832 258 161 124 100
319 463 297 93 13 32
305 453 305 60 25 31
309 453 307 100 18 36
309 463 305 88 20 33
474 872 296 60 48 39
317 451 304 38 24 24
312 461 304 45 25 22
309 473 301 63 17 27
305 474 303 90 26 37
311 475 298 84 7 26
273 913 221 79 60 49
358 680 182 75 52 43
303 612 311 57 17 25
345 809 169 91 70 50
310 479 297 85 9 29
319 468 295 96 5 32
313 468 300 85 11 27
316 920 199 88 79 80
387 695 236 52 38 27
214 853 201 101 77 62
315 469 298 87 8 28
320 473 293 99 11 33
307 472 304 88 19 40
450 448 312 63 21 31
292 493 287 51 22 27
490 887 268 112 93 80
291 499 286 54 25 29
292 498 286 47 24 27
328 836 364 129 97 77
296 509 288 87 9 27
294 903 206 58 53 52
219 747 191 88 71 53
304 503 286 56 19 26
299 508 286 52 18 26
298 512 284 85 10 29
279 668 296 159 10 50
246 695 260 26 30 34
303 507 284 27 24 26
301 510 283 61 17 28
309 583 303 120 0 37
319 493 286 55 24 29
241 578 255 40 26 29
319 488 288 38 26 28
373 522 370 37 25 27
220 901 163 188 138 128
309 502 284 42 23 26
309 513 281 99 8 32
314 498 285 75 21 32
319 498 284 63 22 30
320 502 284 66 25 33
239 814 186 192 136 103
317 513 283 28 26 28
298 668 308 134 21 48
269 762 270 83 66 59
367 908 251 71 67 68
466 430 293 133 21 44
379 787 366 181 120 96
320 513 284 29 26 28
292 484 288 47 24 29
428 768 253 107 77 55
295 483 296 93 14 32
294 488 291 68 19 29
295 488 296 101 13 35
390 609 240 64 34 39
