ply
format ascii 1.0
comment Created by Open3D
element vertex 2240
property double x
property double y
property double z
property uchar red
property uchar green
property uchar blue
end_header
257 878 361 91 73 56
246 888 365 105 87 70
251 888 365 97 80 64
380 578 292 122 23 44
391 833 290 65 45 37
250 890 367 98 82 67
251 893 367 86 73 60
395 897 353 65 55 52
252 892 366 86 72 58
254 895 367 83 70 58
223 898 301 165 121 97
221 898 304 172 126 102
223 903 301 149 109 88
221 903 304 163 120 96
223 908 301 99 82 72
341 836 297 39 34 33
222 913 300 74 66 64
331 876 410 63 53 47
210 903 319 158 128 105
215 903 313 159 121 95
279 935 272 83 75 73
210 908 319 167 129 105
214 913 313 152 117 92
217 903 309 162 121 95
219 908 307 156 120 94
217 908 309 158 122 95
223 919 295 65 60 61
286 893 244 72 64 64
219 917 303 65 60 60
222 923 294 63 58 58
220 923 299 59 55 56
380 852 285 89 74 71
219 921 302 55 51 52
216 918 309 71 62 59
301 718 214 71 48 40
210 918 319 142 114 93
213 918 315 106 88 76
215 923 309 58 55 55
371 798 234 82 62 54
215 928 309 55 51 52
211 923 319 101 85 75
213 928 314 58 53 53
326 653 330 92 30 41
218 914 306 90 75 63
223 929 291 64 59 61
339 742 198 66 49 46
223 933 290 68 64 65
219 932 298 60 55 56
368 875 386 60 52 55
223 938 290 73 65 64
221 938 294 75 68 68
223 942 291 74 66 66
219 938 297 69 63 64
220 944 298 78 73 74
216 943 304 72 68 68
214 933 309 54 51 52
213 930 311 51 48 49
372 603 295 150 17 47
214 938 308 55 52 53
350 896 289 70 60 60
212 923 354 167 121 102
213 938 311 55 51 52
212 938 314 53 50 51
210 938 319 53 50 51
222 947 299 74 69 69
217 947 305 76 71 72
391 858 379 59 46 42
221 949 304 72 66 67
340 733 343 35 28 29
216 948 309 71 66 66
305 627 336 32 29 30
213 947 314 62 58 58
336 623 239 90 31 40
216 953 314 72 67 67
214 950 318 67 62 61
216 953 319 66 61 60
217 952 310 74 69 69
221 953 309 70 66 67
220 954 313 73 69 69
218 956 319 62 58 59
235 903 288 137 107 80
264 682 331 159 20 50
404 743 268 125 83 54
237 898 284 177 136 107
241 962 348 65 63 64
336 889 334 39 37 37
240 900 281 165 116 87
236 908 284 101 72 60
235 913 283 90 70 57
238 904 281 183 131 106
229 917 287 65 57 54
228 920 286 61 56 57
231 928 279 68 62 61
226 923 289 68 62 61
228 923 286 68 62 62
227 928 285 65 58 59
390 782 229 61 48 42
396 728 225 89 66 47
225 928 289 65 59 60
229 928 283 66 59 60
381 693 291 116 83 64
235 923 278 89 62 54
360 638 269 72 30 35
237 924 275 54 46 48
234 926 277 62 56 55
241 923 274 51 45 47
306 833 300 112 89 71
240 928 272 64 57 57
257 898 269 56 51 52
467 873 310 88 71 60
256 903 264 58 54 56
373 528 318 142 20 51
257 903 259 62 57 58
255 908 259 61 57 58
254 907 264 60 55 57
253 909 265 59 54 57
252 913 264 59 54 55
254 911 262 58 52 55
355 568 350 136 14 42
246 898 284 92 68 42
244 896 287 89 68 43
246 901 282 92 60 32
246 908 278 94 62 46
247 913 274 68 55 48
245 913 277 92 63 51
250 903 278 101 80 62
301 758 334 69 57 53
252 903 275 71 61 56
405 738 249 83 64 47
253 899 276 75 65 61
365 837 250 80 61 56
254 902 273 61 55 55
249 897 282 120 95 72
346 778 322 66 54 48
250 908 274 71 60 55
285 828 234 61 52 51
249 906 277 95 75 59
248 923 265 72 65 64
296 693 235 79 30 31
251 928 265 83 73 71
253 922 256 84 75 73
256 927 260 83 74 72
245 918 274 59 50 50
278 518 342 57 27 32
244 916 277 79 56 47
231 903 293 119 92 69
313 809 207 92 69 56
226 898 299 155 116 89
228 898 296 144 110 80
226 913 294 69 61 60
439 581 274 173 116 88
230 907 293 93 75 63
229 911 292 73 61 55
225 908 298 97 80 71
234 898 292 140 110 82
228 914 291 65 58 55
225 918 293 69 63 62
306 878 249 68 61 62
224 923 292 66 60 59
231 933 279 66 59 59
227 933 284 62 56 57
225 938 288 70 61 60
226 943 289 77 69 68
381 583 269 163 22 45
382 638 274 76 53 36
228 942 285 81 73 70
361 701 248 71 42 46
231 943 284 81 73 71
321 548 188 70 34 39
232 942 280 84 74 72
234 935 277 73 66 65
236 939 278 86 75 72
236 942 280 84 75 73
241 939 277 87 76 74
315 700 235 82 32 35
236 944 283 80 72 71
230 945 288 78 71 70
231 947 289 78 72 72
425 568 280 94 63 48
237 946 286 74 68 68
236 957 353 64 61 61
241 947 285 74 67 68
252 932 266 88 79 77
256 932 265 89 80 80
246 935 272 91 80 77
246 943 279 84 74 74
286 813 230 59 49 48
251 935 272 83 74 73
254 935 272 81 73 70
251 938 274 85 75 74
252 942 276 86 77 76
256 942 275 87 78 79
258 882 361 83 67 52
245 945 282 82 74 74
244 950 287 76 69 70
246 953 289 73 67 68
251 949 283 81 74 74
284 516 161 181 6 37
388 886 337 68 62 60
251 952 285 81 75 75
256 949 282 85 76 76
228 946 290 76 70 70
364 680 297 50 28 32
224 945 293 78 71 71
226 949 299 75 69 69
373 550 339 135 30 51
336 904 414 71 64 61
224 950 302 71 65 66
229 950 297 71 64 67
231 953 299 70 65 66
230 954 302 70 66 67
235 950 292 71 65 67
236 952 294 69 63 64
270 799 227 77 60 54
235 954 298 69 64 65
292 747 338 81 46 47
236 958 300 71 66 67
235 959 303 70 66 67
228 957 306 69 66 67
251 958 294 84 78 79
405 862 294 94 77 67
256 957 290 92 86 88
256 959 293 93 88 90
207 903 329 116 99 89
266 596 211 120 26 45
208 908 329 181 142 122
208 908 334 179 138 118
425 613 260 154 108 73
231 933 379 55 52 53
208 923 334 146 112 97
210 898 329 116 97 82
208 900 329 139 119 100
440 573 278 177 121 97
208 900 334 105 89 77
296 523 359 180 17 57
209 908 322 169 131 108
209 913 323 167 129 105
208 913 329 172 131 110
210 898 339 88 75 66
208 903 338 149 125 108
364 581 236 118 19 42
209 903 340 140 116 100
214 897 350 133 108 85
301 752 338 85 46 49
208 913 339 170 128 107
210 913 349 165 123 102
209 923 324 129 101 86
434 578 261 163 117 82
265 831 236 67 57 59
209 922 327 148 115 98
305 911 404 65 59 56
310 853 230 70 59 58
209 928 324 79 68 63
208 918 339 172 129 108
209 923 349 174 129 110
209 928 345 121 97 85
210 928 349 121 93 81
374 717 220 97 72 52
216 898 354 149 117 95
375 892 319 64 55 52
213 903 353 163 126 105
215 903 355 159 124 103
366 833 300 135 94 72
212 908 353 161 123 101
214 907 356 159 123 101
347 783 218 66 51 47
216 908 359 156 121 101
216 913 359 160 121 102
345 866 394 41 36 34
341 663 319 125 22 45
219 896 356 140 112 89
218 910 362 153 118 100
276 893 374 35 35 37
404 775 234 55 46 45
211 918 354 170 126 108
214 912 356 159 120 101
213 921 357 166 121 101
216 923 359 151 111 94
223 918 367 132 99 86
220 923 365 103 77 69
222 923 368 60 50 49
209 933 324 59 54 54
209 930 327 81 69 64
269 515 336 141 19 48
208 933 330 69 61 60
208 933 334 78 69 66
209 938 324 58 55 56
210 943 329 69 65 64
208 936 333 76 69 66
209 938 334 68 61 59
211 943 334 66 61 61
210 933 344 69 58 56
210 933 349 60 51 51
330 730 202 73 55 44
209 938 339 59 54 54
209 937 344 50 47 48
208 940 341 58 54 55
208 939 344 53 51 52
321 773 198 66 54 46
208 941 344 57 55 56
212 947 329 68 63 63
246 963 349 66 63 65
213 951 322 62 58 57
216 953 324 63 59 59
214 950 325 65 61 61
217 952 329 66 62 62
383 798 306 141 108 82
216 949 334 68 62 61
218 951 333 65 60 59
293 915 389 55 51 50
218 956 323 60 56 56
221 957 324 62 58 59
212 947 339 66 61 62
371 843 293 46 35 30
276 568 325 42 25 28
404 678 261 136 95 62
212 947 344 63 61 63
216 949 339 66 62 62
216 949 349 61 57 56
266 758 220 95 41 43
221 953 339 65 62 62
368 580 242 168 18 45
324 878 404 53 44 39
218 951 344 65 61 61
371 717 291 89 30 30
212 943 354 54 50 51
218 933 368 49 47 48
221 938 369 50 47 48
270 883 233 84 72 67
219 940 366 51 48 48
317 924 308 75 66 65
220 933 370 52 50 51
222 933 373 51 49 50
223 936 372 49 47 48
213 946 352 56 52 51
321 813 310 45 39 39
214 945 356 56 52 52
217 947 358 59 54 53
221 948 359 60 55 54
382 893 310 74 64 62
222 951 354 62 56 55
219 945 361 61 56 53
222 946 362 60 56 55
261 837 240 161 122 101
224 896 361 119 101 85
226 903 365 151 118 98
230 897 366 135 113 95
229 901 366 146 116 96
356 683 264 47 36 41
345 548 331 62 22 32
228 904 367 145 112 92
270 783 221 73 59 51
224 907 366 145 111 92
226 908 368 141 109 90
360 698 303 143 21 48
231 908 369 130 104 83
360 856 388 48 44 41
231 913 370 121 95 79
236 903 370 128 101 80
241 903 371 116 93 72
234 912 371 111 89 73
322 573 331 157 21 52
236 913 374 59 48 44
240 907 371 113 91 71
226 918 370 103 78 69
232 914 372 70 55 48
228 919 373 48 40 41
225 922 370 51 44 44
226 923 374 43 41 42
229 922 375 39 37 40
231 923 378 44 42 43
228 924 377 45 43 44
228 928 377 48 46 47
231 928 379 50 48 49
241 913 379 36 34 36
316 863 300 35 33 34
235 923 380 43 42 43
237 923 383 48 46 48
234 926 381 49 47 48
236 928 384 54 51 52
240 922 385 48 46 48
251 898 369 87 73 59
396 734 228 98 74 56
256 898 368 75 64 54
326 643 330 87 27 38
246 898 370 100 83 65
276 758 220 79 38 40
243 905 372 106 85 66
325 918 324 62 54 52
246 913 384 38 36 38
251 903 370 78 66 54
256 902 370 55 48 44
356 778 320 100 76 63
256 904 374 35 33 35
254 906 374 36 33 34
251 908 384 38 36 37
343 885 272 73 62 59
389 826 297 168 114 91
253 905 380 37 36 37
260 893 264 50 46 48
224 955 331 65 61 60
226 957 334 71 65 65
230 959 329 70 63 63
230 959 334 69 62 63
224 955 344 58 54 54
227 957 344 60 57 57
226 954 349 57 52 52
229 955 351 56 52 52
236 959 349 56 52 52
240 960 350 60 58 59
280 588 331 53 25 28
226 942 369 63 57 55
226 933 375 50 47 49
228 941 372 66 61 59
232 942 373 65 60 59
331 747 342 156 15 51
233 929 382 52 50 52
233 931 382 53 50 51
234 934 381 64 60 59
297 828 215 85 65 51
241 933 385 67 60 59
236 943 374 59 54 54
236 939 379 67 61 60
241 938 383 63 57 55
241 942 379 56 51 50
372 663 274 65 49 34
321 889 268 62 54 55
226 953 354 57 52 52
226 949 360 67 62 61
226 951 358 63 57 56
406 678 263 148 101 69
231 952 359 63 59 58
227 947 363 65 61 60
229 945 366 62 58 58
232 951 362 66 61 60
331 638 245 110 29 42
236 947 368 63 59 58
236 953 359 64 61 62
332 886 321 35 33 35
236 949 365 68 64 63
429 618 274 170 117 86
241 948 369 60 56 55
266 568 189 74 34 37
393 673 257 131 94 61
241 950 366 60 56 56
241 958 354 64 61 62
326 710 206 71 46 48
242 956 358 68 65 66
235 945 371 56 52 53
288 855 224 78 66 59
294 872 224 103 86 77
242 946 373 59 54 53
246 938 384 59 53 52
250 941 382 72 65 62
256 938 384 76 70 69
380 847 295 56 47 40
282 925 386 60 54 52
246 949 369 59 55 55
245 950 366 59 55 55
290 578 336 33 28 30
246 955 360 63 60 60
246 959 355 56 53 53
246 957 358 63 60 59
251 951 367 69 63 62
346 823 239 78 63 59
251 957 359 53 48 48
251 960 356 55 52 52
256 954 364 65 60 60
256 956 362 68 63 63
251 945 376 71 65 65
394 892 357 54 46 39
275 942 275 85 76 75
251 947 373 70 65 63
251 949 370 73 67 66
256 944 375 89 82 80
236 963 304 72 68 70
242 962 301 76 71 73
378 538 359 153 25 54
291 883 239 70 62 64
241 964 303 78 74 76
227 962 319 68 64 64
231 964 314 77 73 74
231 964 319 69 65 65
233 961 306 71 67 69
378 895 361 50 45 42
234 964 308 72 68 70
238 966 306 78 75 76
314 855 438 47 38 30
241 966 305 78 74 76
261 833 299 129 98 73
241 969 309 80 77 79
233 966 315 74 69 70
369 563 339 117 30 46
234 965 312 72 69 71
236 968 314 79 75 76
240 970 313 85 80 81
311 801 201 94 69 48
239 970 320 72 68 69
242 971 314 88 82 84
373 585 252 171 21 46
241 971 319 76 71 71
276 943 370 58 52 49
256 963 299 90 87 90
251 967 305 87 83 86
256 967 304 90 86 90
246 967 305 83 79 81
360 653 275 100 31 34
321 703 234 67 39 38
246 969 308 78 74 77
368 835 252 97 71 62
243 971 311 88 84 85
381 722 296 130 91 68
246 971 310 79 75 77
246 973 319 76 71 72
251 970 308 81 77 79
251 971 310 77 74 77
251 973 314 77 73 75
229 960 326 66 62 62
232 961 334 57 53 53
374 607 292 146 16 45
235 964 325 61 57 57
236 963 329 68 63 63
234 965 321 65 62 62
261 529 163 167 17 43
375 784 227 78 59 50
237 967 323 59 56 56
293 767 213 59 49 44
239 965 329 67 61 61
271 768 320 65 55 50
330 817 220 68 56 52
241 968 324 57 53 54
407 753 264 99 72 50
236 964 334 61 58 58
361 623 314 172 12 55
241 968 334 61 58 58
233 961 339 54 51 52
233 961 343 57 54 55
406 753 254 113 79 58
236 962 344 59 54 55
346 688 319 60 23 30
238 966 338 61 57 57
239 965 340 62 57 56
443 554 262 184 128 96
241 964 344 62 58 57
309 729 212 66 50 42
234 960 346 55 51 51
242 971 323 62 59 60
244 970 335 64 60 61
251 974 329 70 67 69
255 975 335 51 48 47
242 966 342 56 52 52
288 885 238 75 67 66
246 969 339 56 52 53
246 967 344 59 56 56
251 964 350 55 53 53
251 968 344 64 61 62
248 966 347 72 69 71
251 966 348 62 60 61
256 967 348 55 52 52
251 972 339 59 56 56
250 970 341 58 54 55
252 971 342 61 59 59
253 976 326 69 67 67
480 798 383 109 85 64
256 976 329 55 52 52
251 962 353 56 53 52
241 928 388 60 55 54
249 911 385 38 37 39
388 558 269 78 27 35
250 912 390 42 41 42
256 907 389 39 38 39
252 913 393 48 46 46
253 910 392 43 42 44
468 865 338 96 81 65
256 908 394 42 41 41
370 817 241 72 56 48
243 919 388 47 46 47
419 652 266 157 108 76
246 923 390 58 53 53
248 923 392 60 54 53
257 913 397 51 47 45
257 918 397 58 52 50
256 928 391 67 62 60
362 553 358 136 19 45
251 923 393 63 56 53
307 614 332 85 26 37
336 872 374 40 35 35
256 923 394 64 59 57
256 926 392 67 62 59
242 931 387 68 61 58
251 933 388 69 63 61
350 891 378 50 44 44
256 933 389 79 72 70
251 936 387 68 62 60
261 517 156 100 32 40
261 519 157 89 33 41
261 523 160 75 32 38
271 518 159 166 18 44
266 523 160 81 37 41
271 522 161 116 30 42
276 518 160 177 11 41
333 910 327 75 65 63
267 525 162 82 33 40
266 528 163 152 23 44
271 524 162 106 29 38
271 528 164 163 15 43
261 538 169 203 12 43
341 853 255 77 65 64
271 532 166 189 9 43
286 758 228 81 35 38
316 806 206 90 69 55
271 534 168 200 11 43
266 541 171 204 11 43
258 899 256 63 57 58
266 543 173 203 11 42
271 540 172 203 12 43
271 543 174 202 11 43
280 849 317 90 75 60
275 521 161 94 24 38
276 523 163 91 26 39
276 528 165 175 14 42
278 520 162 175 13 49
372 523 219 107 24 41
281 527 166 177 15 42
286 528 168 123 26 40
426 564 266 120 93 63
283 560 187 87 29 40
274 531 166 197 10 43
276 533 168 197 10 41
367 878 298 80 63 58
276 539 172 200 11 42
281 536 171 196 10 41
287 534 172 163 13 40
284 536 171 195 10 37
286 544 177 195 10 40
261 547 175 157 23 46
261 553 179 126 27 42
261 556 181 192 11 47
330 803 206 80 62 50
266 863 264 142 105 81
261 559 182 164 21 45
266 550 177 68 28 36
266 553 179 135 28 46
271 553 180 107 32 42
391 713 294 156 111 83
266 559 183 112 26 41
271 558 183 84 35 40
261 562 185 103 33 42
356 828 304 124 91 72
261 565 187 181 25 54
261 568 190 129 28 44
266 563 185 65 36 38
391 875 299 105 91 85
271 568 189 47 34 39
271 571 191 74 32 34
399 806 282 142 92 66
276 548 178 127 27 42
276 552 180 81 35 39
281 552 181 141 29 49
276 558 184 114 32 45
281 554 183 145 29 45
281 558 185 129 27 43
379 597 280 111 21 36
341 533 195 65 30 36
286 553 183 133 24 42
261 557 333 167 20 54
276 562 186 121 31 42
276 564 187 138 29 46
276 568 190 118 33 42
422 563 274 89 62 41
290 583 336 83 31 41
280 561 186 102 28 43
371 758 225 60 46 38
281 563 188 72 35 40
274 571 191 106 32 40
346 593 228 42 35 41
286 563 189 79 34 39
292 519 167 123 23 38
284 859 243 52 47 50
288 529 342 133 16 46
315 918 294 84 73 72
294 516 166 81 24 31
266 593 209 177 9 42
399 758 283 155 105 74
296 518 168 99 27 39
289 521 166 181 8 38
258 872 276 161 121 92
291 523 168 168 13 41
296 523 170 89 31 39
372 719 219 93 67 50
295 526 171 77 29 36
296 528 172 72 34 37
357 643 304 170 9 55
386 758 229 60 47 40
301 518 170 119 18 39
302 524 172 102 29 41
271 778 315 64 53 49
351 583 350 148 17 46
290 532 171 85 27 36
291 533 173 95 26 38
396 828 267 92 72 65
349 891 324 40 36 36
293 530 172 145 38 51
299 946 352 62 57 55
276 868 259 64 54 54
296 533 175 79 34 40
376 678 289 74 53 36
296 537 176 157 20 42
301 533 175 52 35 39
291 543 178 173 12 43
339 881 316 33 33 34
293 540 177 190 10 38
337 687 247 67 36 33
301 538 178 110 32 42
302 830 301 122 96 77
301 543 180 116 27 40
311 518 173 125 21 38
321 518 178 155 0 35
312 529 177 167 6 38
321 523 178 161 0 34
307 534 177 57 37 40
271 890 237 82 69 67
306 538 178 60 35 37
306 542 180 71 36 38
311 538 180 75 36 43
307 629 337 37 30 31
310 542 181 103 39 48
307 545 182 90 38 46
311 543 183 101 33 41
409 840 287 64 49 36
320 533 181 168 3 36
276 763 323 66 55 50
322 533 183 172 4 37
316 543 184 119 29 42
321 538 184 165 8 39
291 547 180 193 10 42
336 899 407 82 75 72
355 587 231 57 33 39
451 878 349 87 72 62
288 550 182 193 9 41
345 767 327 71 58 53
292 550 182 192 9 41
354 894 427 68 58 51
295 547 181 186 13 42
301 552 185 99 37 44
298 555 187 40 35 41
306 810 311 145 109 89
302 554 187 135 34 50
361 822 307 137 104 83
383 850 407 47 40 34
290 566 191 166 33 51
296 562 190 154 22 42
281 893 369 33 33 36
306 548 184 98 35 41
401 528 287 40 25 27
310 551 186 113 33 36
306 554 188 45 35 40
306 558 190 45 36 42
312 550 187 123 31 39
316 553 189 99 31 41
321 552 190 142 27 44
319 556 191 143 26 46
260 570 192 191 17 50
363 738 309 103 26 44
386 818 264 85 59 50
261 573 193 167 18 45
271 573 193 90 35 42
281 570 192 121 30 45
301 653 333 74 31 38
391 698 292 154 112 82
281 573 194 147 28 47
323 915 371 61 54 51
286 573 195 132 27 42
291 568 193 132 22 40
296 568 194 163 21 45
301 564 192 115 40 48
345 753 332 67 28 33
386 897 340 70 61 58
301 571 196 78 30 40
306 918 380 49 44 42
312 560 192 71 36 38
321 558 194 125 27 43
336 673 248 85 28 33
429 602 261 157 111 78
416 832 399 91 76 62
271 587 205 203 10 42
261 923 394 57 54 54
306 568 195 92 34 42
311 567 196 183 17 45
306 573 198 137 36 51
307 570 197 58 32 35
340 907 383 57 50 49
416 588 259 128 98 66
311 569 197 163 27 50
315 566 196 188 8 42
316 568 198 131 24 42
317 574 202 145 33 50
320 571 201 120 33 42
262 582 201 201 11 46
408 684 268 168 112 84
261 587 205 199 9 43
261 589 207 198 9 44
430 833 411 85 68 53
266 577 196 89 34 40
266 579 198 120 28 44
271 577 196 78 35 39
271 579 198 134 33 46
271 582 200 179 15 45
266 587 205 202 9 45
291 618 331 59 27 33
299 866 225 87 72 64
271 584 203 204 10 45
261 592 210 198 9 45
271 593 209 177 10 42
261 598 214 195 8 44
261 603 218 165 14 45
357 894 370 47 41 39
258 606 221 189 7 40
261 607 221 192 8 46
399 778 287 150 106 74
262 601 216 188 5 44
266 601 216 194 7 46
333 734 346 151 18 55
345 715 219 66 46 44
368 608 300 161 21 50
266 604 218 85 25 38
266 607 220 152 17 44
271 608 220 118 32 44
371 833 254 97 70 59
276 579 198 93 35 42
351 875 360 60 54 51
281 576 196 159 28 50
281 579 198 156 27 48
420 653 278 187 129 103
366 778 227 70 54 48
281 584 203 200 9 42
416 873 300 78 62 55
276 593 208 185 11 46
281 593 208 184 13 46
301 723 214 66 47 40
285 576 196 112 25 38
286 617 226 64 31 38
286 578 198 167 15 44
286 582 201 203 11 44
286 584 202 203 10 42
286 590 207 153 15 39
286 593 209 138 24 45
281 596 211 111 29 43
281 599 213 90 36 42
281 602 215 100 33 40
281 605 217 157 30 50
281 608 220 95 27 37
285 596 211 132 29 43
286 598 213 105 33 43
286 602 215 80 32 39
266 613 225 114 23 39
276 613 224 104 28 41
380 642 269 71 55 37
277 779 222 68 54 48
281 613 224 91 34 42
286 613 224 88 34 41
257 611 226 185 5 41
261 612 226 174 8 41
261 614 227 128 19 41
261 618 229 41 34 37
368 574 237 169 17 44
381 898 339 70 61 58
259 620 232 126 20 44
261 623 233 167 4 41
386 523 295 125 2 38
266 615 227 66 32 40
267 622 231 120 30 43
272 616 226 79 26 32
271 622 231 90 28 39
266 624 233 170 3 36
292 677 236 72 30 32
347 614 340 188 17 61
293 786 222 64 52 45
262 627 236 163 1 38
260 629 238 162 0 35
261 633 238 143 7 36
261 638 239 132 11 34
365 593 324 124 30 49
266 631 236 68 33 36
370 567 235 107 20 39
266 634 237 62 33 35
266 638 239 66 33 35
336 723 188 82 59 44
271 634 237 61 37 39
271 638 238 49 36 36
276 619 228 108 29 41
391 893 453 78 65 51
393 824 286 117 74 57
281 617 226 103 25 39
392 823 289 150 98 77
281 619 228 54 33 40
276 625 232 49 35 39
276 633 236 44 36 37
281 625 232 46 35 36
281 633 235 108 27 40
341 688 248 64 33 34
274 635 237 50 38 38
276 638 237 52 34 37
281 639 237 126 16 36
398 770 243 85 67 54
284 625 232 54 28 24
385 768 226 70 57 50
286 639 237 82 33 40
291 578 199 203 12 44
376 743 220 74 57 44
296 578 200 192 10 43
294 581 201 202 11 39
388 800 247 97 69 59
291 587 206 190 13 46
380 528 230 140 18 38
296 587 206 97 25 39
282 539 344 63 24 29
435 743 263 120 87 62
296 589 208 75 35 42
341 908 354 69 61 58
301 577 200 186 16 49
266 903 245 89 77 75
301 583 204 190 11 46
300 586 206 121 31 42
412 853 269 98 85 79
301 588 208 112 24 40
291 593 210 88 37 44
301 592 210 138 25 45
343 594 227 41 33 42
290 596 211 115 30 44
293 595 212 61 28 37
296 598 214 90 35 40
296 601 216 122 28 46
296 604 218 149 23 47
344 866 391 39 35 37
331 872 301 33 31 33
301 594 212 186 18 47
301 598 214 106 27 42
301 601 216 63 41 44
310 576 201 191 21 48
306 588 209 197 11 45
307 585 207 197 9 42
316 583 208 193 9 45
321 577 206 116 22 43
321 579 207 172 12 45
318 580 207 194 10 42
296 818 306 143 103 85
321 583 210 189 8 42
306 593 213 196 9 44
311 593 213 195 9 44
351 869 309 37 34 33
316 588 210 193 9 44
316 593 214 193 8 43
319 586 211 191 9 44
321 592 215 192 10 44
375 523 304 76 26 37
306 598 215 166 16 44
311 597 216 194 9 45
311 599 217 194 9 44
266 768 220 66 54 47
306 603 218 92 31 43
308 600 217 188 7 48
311 603 219 117 24 41
310 606 221 49 35 39
315 596 216 193 8 43
322 594 217 192 12 43
269 886 270 47 37 39
450 817 374 109 85 62
317 605 222 61 28 35
348 831 302 38 32 34
301 610 222 167 16 46
301 613 224 124 20 43
306 609 223 169 17 44
276 738 224 61 37 37
291 617 226 141 24 46
267 554 329 129 14 41
291 623 230 177 7 42
296 617 226 111 22 38
286 692 233 92 25 26
296 619 227 111 26 42
301 616 226 188 9 37
322 828 229 61 51 50
301 618 228 169 13 43
301 622 230 51 32 38
288 626 231 109 15 24
371 878 349 65 58 54
291 626 231 84 15 26
296 628 233 116 23 40
296 633 235 133 20 39
291 637 236 112 18 36
291 639 237 70 25 33
296 639 237 136 14 37
282 604 337 99 22 37
301 625 232 46 34 41
301 633 235 91 36 42
302 954 319 76 69 67
301 635 237 69 34 38
301 638 238 85 28 37
306 618 228 148 18 43
421 839 398 98 84 72
306 622 231 143 27 45
311 618 229 65 34 40
306 624 232 118 29 40
311 624 233 73 35 38
409 857 378 64 53 53
316 612 226 49 37 40
376 868 406 69 57 47
321 613 228 52 35 38
316 620 232 84 44 43
321 619 232 124 42 48
311 628 235 73 37 42
311 633 238 50 36 37
306 638 238 122 27 41
311 638 239 62 35 37
395 783 244 84 64 53
313 630 237 51 33 38
316 633 239 101 33 41
326 908 380 57 50 48
321 628 238 99 29 39
261 844 324 102 81 59
321 633 240 40 34 40
301 695 337 41 29 27
316 824 306 122 91 75
321 639 242 117 20 37
328 518 182 142 0 34
330 518 185 138 0 34
334 517 191 134 6 34
329 523 185 130 1 31
332 523 189 127 2 31
306 653 333 33 29 30
329 528 186 141 0 34
334 528 191 132 4 31
323 530 182 168 1 35
322 544 187 101 21 36
299 881 246 73 66 66
325 538 186 176 5 39
302 848 301 80 67 54
327 539 187 176 6 37
361 728 208 78 55 43
324 541 186 179 7 37
329 532 186 151 0 34
332 533 188 140 1 33
334 533 191 126 7 28
271 818 302 168 123 101
326 548 190 101 30 40
306 808 204 97 77 56
324 551 191 133 44 55
330 547 191 141 31 49
339 876 412 84 69 58
336 518 193 124 3 28
336 528 193 116 10 30
311 918 289 76 67 68
337 533 193 122 14 34
321 904 384 55 48 47
337 538 193 147 2 33
406 518 269 56 30 31
276 908 251 85 74 74
332 544 192 128 10 35
285 788 223 64 51 47
336 543 194 167 7 38
424 643 274 173 119 88
343 516 197 32 38 41
341 523 195 120 14 32
346 518 198 41 37 40
351 518 200 80 27 35
347 528 198 54 35 39
350 528 200 101 30 38
340 538 195 148 11 37
298 920 272 75 68 69
340 542 196 163 5 37
326 733 347 186 6 60
343 539 197 145 12 40
346 533 198 42 36 40
350 533 201 54 33 37
346 538 199 69 27 38
401 774 253 117 89 67
345 543 200 166 5 38
347 543 202 164 4 36
284 874 328 64 56 49
344 752 196 76 59 49
349 537 201 39 34 40
351 543 205 157 6 40
327 550 192 53 33 40
322 554 192 110 32 44
326 557 195 113 32 44
327 559 197 169 25 48
331 548 193 69 32 39
335 547 195 140 18 40
334 551 196 54 23 30
337 549 197 153 11 39
332 554 197 105 24 39
329 556 196 104 36 42
331 558 199 86 29 39
361 628 309 174 10 55
420 793 272 77 58 43
326 563 199 171 14 42
325 567 201 161 18 44
325 572 205 179 17 45
330 562 201 170 17 44
332 564 203 179 10 43
376 543 354 133 21 46
396 882 308 79 66 62
337 559 203 169 16 45
330 571 206 187 10 43
331 573 208 187 9 41
332 570 207 187 8 43
336 573 210 176 8 44
337 574 212 184 8 42
338 658 252 103 16 27
341 548 199 168 7 38
340 552 200 168 8 39
264 886 250 49 45 45
343 549 202 169 6 38
341 553 203 162 7 38
344 546 201 168 5 38
346 548 204 168 5 40
352 548 208 159 5 37
370 867 291 81 68 67
347 554 207 169 6 39
351 553 209 143 21 43
350 557 210 79 34 39
340 562 206 128 17 39
338 565 207 173 23 54
299 818 212 75 60 48
349 663 312 55 26 29
342 563 208 97 31 41
319 921 306 72 63 63
324 705 230 75 38 39
341 573 214 181 9 42
345 563 210 89 37 44
347 564 212 67 31 33
346 568 214 86 32 43
351 563 214 148 21 45
301 823 304 133 98 80
352 568 218 52 34 39
345 572 215 153 16 43
352 574 223 145 20 46
406 683 264 147 100 69
353 523 202 99 27 35
261 913 248 88 76 76
356 528 204 65 32 34
359 523 206 118 35 45
361 523 208 82 34 40
362 518 208 69 34 39
365 518 210 137 16 40
367 518 213 57 30 37
364 522 211 120 24 40
261 673 330 159 20 51
321 873 309 32 33 35
364 527 211 61 30 31
356 533 205 68 34 40
358 530 207 58 29 34
361 533 209 53 36 41
357 538 208 89 33 40
359 542 211 45 35 40
363 530 212 43 35 39
377 835 296 93 53 41
363 533 212 40 35 41
422 864 283 86 74 64
365 533 214 40 36 40
368 534 217 37 33 37
362 538 213 42 37 40
375 774 307 152 112 84
365 538 215 42 37 40
296 678 334 142 21 48
293 523 347 101 5 35
364 542 216 49 32 37
431 883 354 82 69 61
367 538 218 41 35 39
326 838 238 72 58 55
366 543 219 69 35 40
369 518 216 74 37 38
321 833 299 93 70 61
372 518 219 89 26 34
374 518 221 131 10 33
376 518 224 144 8 36
339 631 332 185 20 60
369 523 216 43 32 37
373 528 222 35 33 40
367 579 238 157 17 43
387 829 295 142 90 71
370 533 219 106 27 40
373 534 223 124 23 41
375 533 225 79 30 38
361 705 230 79 51 38
370 537 220 64 31 37
372 538 224 106 27 42
379 518 226 142 9 36
381 518 229 141 8 33
260 889 362 77 63 50
378 520 227 150 10 34
378 523 227 149 12 37
378 528 228 80 30 35
383 524 232 160 14 38
307 868 414 61 49 44
382 528 232 140 14 35
374 537 226 83 22 34
376 538 229 61 29 38
373 543 228 40 35 41
300 833 302 118 95 75
375 543 230 39 33 39
382 533 233 155 15 38
376 707 253 103 79 51
379 536 231 105 18 37
381 538 234 88 23 36
355 548 210 137 22 42
354 552 211 101 34 37
358 545 212 30 32 34
359 552 216 45 34 39
353 554 212 101 34 36
355 558 215 58 35 39
310 833 219 88 67 58
361 553 219 61 36 39
357 559 218 64 30 35
360 558 220 60 38 40
363 545 217 127 35 48
362 549 218 123 35 46
365 548 220 132 28 46
364 552 221 49 34 35
363 554 222 100 37 44
362 559 223 69 32 37
365 558 225 99 29 41
354 562 216 133 16 35
356 563 219 134 24 43
353 564 217 166 11 43
367 573 339 71 30 36
359 562 221 103 36 44
341 882 319 37 35 34
361 563 224 60 35 39
360 568 225 72 36 42
356 573 224 155 18 43
368 554 227 73 29 39
326 829 233 66 54 53
349 720 210 67 48 46
359 572 226 154 24 47
358 575 227 173 12 45
330 858 465 96 79 65
361 573 229 106 22 40
332 909 309 70 62 62
366 563 229 93 32 44
367 568 233 165 19 45
284 526 351 148 28 50
364 571 231 153 18 47
363 575 232 164 14 37
296 693 336 61 28 32
366 573 234 172 16 43
369 547 225 69 34 41
372 548 229 116 31 44
369 551 226 42 25 37
370 553 229 94 33 42
376 553 234 64 31 37
370 558 230 105 24 38
372 558 234 131 23 41
383 554 242 70 25 32
369 562 231 80 37 46
368 564 232 61 24 34
370 875 367 60 53 48
372 569 238 167 18 42
297 608 331 65 32 36
270 648 331 123 23 46
467 799 392 101 84 67
371 573 239 166 19 41
440 528 285 111 76 63
373 574 243 170 19 43
375 572 245 173 20 44
356 717 224 74 51 38
392 836 291 64 50 41
378 564 242 168 20 41
381 563 244 157 19 41
382 573 254 181 20 46
324 576 206 187 22 54
326 578 209 189 11 44
314 936 316 75 68 66
325 581 211 188 8 43
431 758 265 101 71 53
326 583 213 189 9 44
326 588 215 190 9 45
359 616 251 73 29 34
331 579 213 184 8 45
331 583 215 186 8 42
331 587 216 166 17 47
328 590 217 112 17 31
332 589 217 80 33 39
331 593 219 52 35 41
326 598 220 90 32 42
327 600 222 56 31 36
330 596 221 51 39 41
320 709 206 69 49 32
331 598 223 47 35 39
336 598 224 79 38 43
340 577 216 182 8 42
338 580 217 183 9 44
375 807 240 77 58 51
343 585 222 109 28 42
349 577 221 163 19 50
350 583 225 63 28 37
325 607 226 171 16 45
336 603 228 45 36 41
336 608 230 66 34 40
344 592 226 42 33 37
347 589 227 42 35 41
352 584 227 91 30 38
350 593 230 52 32 36
339 597 226 58 39 42
338 600 227 41 37 41
342 604 232 91 43 50
346 598 230 56 33 37
350 602 235 122 34 47
351 608 239 98 36 44
322 610 227 36 34 39
326 618 233 75 35 40
330 612 231 144 28 45
286 668 236 104 23 33
337 610 232 66 32 39
374 542 362 112 31 44
331 618 234 50 35 38
327 624 237 51 36 38
331 623 238 57 37 38
356 763 214 55 44 40
337 619 237 111 34 47
333 620 237 81 35 38
326 628 239 139 22 41
326 632 241 116 24 39
331 628 240 97 28 40
330 631 241 171 17 40
331 633 243 84 31 39
335 627 241 62 35 38
332 630 242 86 35 36
336 628 243 95 40 46
336 633 244 62 34 38
337 639 247 63 33 37
316 764 200 74 58 46
368 553 309 73 24 38
340 612 235 70 35 40
342 614 237 88 32 41
339 616 236 40 35 36
316 818 210 101 77 55
450 543 279 175 118 90
341 618 239 118 27 42
321 738 204 63 48 42
360 737 210 64 49 41
332 882 261 69 61 61
340 622 241 127 27 42
346 613 239 101 34 42
342 624 243 138 28 45
352 613 243 44 31 37
351 623 249 93 30 36
353 619 247 39 31 36
340 632 246 101 37 45
312 705 208 79 57 43
342 634 248 74 35 39
341 638 249 59 33 38
348 625 247 87 43 46
346 633 250 52 33 38
281 873 214 106 86 73
350 628 250 87 29 39
351 633 254 118 29 42
335 867 418 53 45 39
345 637 251 57 35 37
350 638 255 104 27 38
355 577 226 171 10 41
319 716 346 159 13 51
286 888 379 35 34 36
356 583 229 158 15 43
358 585 232 119 31 46
360 588 235 43 36 40
359 591 236 55 31 40
311 810 311 113 89 74
365 578 235 167 16 42
366 583 239 67 27 37
343 890 290 70 62 64
361 593 239 107 29 40
365 588 240 107 26 42
366 593 244 161 19 43
357 598 238 100 33 44
358 594 237 139 33 48
353 600 237 63 33 28
355 607 241 84 29 36
281 657 237 115 12 28
359 601 241 54 27 31
361 603 244 63 33 40
357 608 243 84 36 43
360 607 245 44 30 35
365 598 245 135 28 45
377 874 398 83 65 63
362 608 248 58 33 36
370 577 240 165 19 42
371 578 244 171 19 42
369 582 245 170 19 42
371 583 249 171 20 44
373 579 248 171 20 42
375 578 249 171 21 44
377 578 253 176 21 46
371 588 249 168 21 42
368 590 247 128 11 31
370 593 249 124 25 40
266 958 294 88 83 86
373 588 252 169 21 43
372 593 253 171 23 44
374 592 255 174 22 44
380 578 255 180 21 46
369 597 250 34 33 35
371 598 254 126 25 42
423 754 261 111 77 54
321 879 258 69 61 61
332 523 333 50 17 25
368 600 252 36 30 38
355 613 245 115 30 43
354 616 246 36 29 36
356 618 249 60 33 39
358 619 252 154 48 62
300 707 228 81 35 32
376 873 408 85 67 53
363 610 252 70 30 35
365 613 255 80 29 39
353 625 252 171 20 43
355 628 255 110 30 41
419 806 269 85 66 50
354 632 256 54 26 30
376 878 444 81 64 46
323 525 340 89 21 33
266 648 239 121 12 32
271 643 239 80 26 32
271 648 238 124 9 29
271 653 238 126 4 30
258 643 241 120 12 31
258 651 241 152 0 33
262 652 241 148 1 36
303 874 408 54 44 37
261 672 237 44 33 37
266 668 239 49 32 35
260 658 242 125 7 29
259 662 242 110 14 29
276 643 238 89 22 32
281 643 238 122 17 34
281 648 238 126 8 30
281 653 237 117 11 28
286 643 238 100 19 32
286 648 238 124 9 31
286 653 237 115 13 28
276 658 237 128 4 30
278 660 236 125 5 30
268 887 236 91 77 74
281 663 236 118 14 31
276 673 238 108 15 28
279 665 237 136 3 33
280 668 237 135 7 35
285 659 236 109 17 27
370 613 264 58 33 37
458 520 263 196 130 105
286 663 236 91 26 29
287 673 236 82 25 30
285 674 237 114 20 38
345 781 322 65 53 46
261 674 236 52 35 37
264 675 236 46 31 38
266 683 234 114 20 32
266 688 233 101 27 32
286 857 234 61 54 54
261 798 228 74 60 53
388 833 291 67 43 37
271 683 234 69 30 33
271 688 233 58 30 35
261 692 232 53 32 36
261 698 230 42 34 37
261 703 228 69 30 33
433 588 262 169 118 86
265 694 231 48 33 33
266 693 232 86 28 30
268 696 232 56 32 33
283 518 348 72 30 35
271 698 232 78 32 36
276 677 237 92 21 25
282 678 237 102 21 28
280 679 236 95 23 26
331 621 342 178 20 59
281 683 235 75 28 29
281 688 234 79 30 32
286 678 237 105 23 31
282 681 237 94 24 24
286 684 236 86 26 30
276 693 232 105 23 34
276 703 231 79 29 33
281 703 231 97 26 32
273 701 232 50 36 40
270 657 331 168 21 54
342 716 204 67 54 47
401 738 230 86 65 50
401 803 260 66 51 45
276 701 232 66 31 34
393 549 272 56 30 33
280 701 232 112 24 28
282 698 231 117 21 31
286 698 230 113 21 27
286 703 230 109 23 33
291 643 238 122 19 34
296 643 238 117 21 37
296 648 239 131 12 33
301 648 239 105 23 34
292 662 237 91 26 29
291 668 236 81 29 32
296 668 236 56 35 34
419 646 282 182 129 98
296 673 235 56 35 36
301 658 239 63 32 33
299 670 236 62 37 35
301 673 236 48 35 35
302 672 237 48 36 36
311 643 240 75 33 35
366 748 223 67 48 41
311 648 240 103 26 34
315 643 241 73 33 40
387 534 237 163 17 38
446 819 378 93 75 59
316 648 241 44 35 38
318 640 242 131 23 47
321 643 243 94 23 34
306 673 237 42 35 39
352 893 289 69 61 61
306 658 241 67 33 36
409 682 270 176 117 90
311 664 241 77 30 31
312 659 242 106 25 36
312 662 242 99 23 30
316 657 241 55 32 34
316 658 242 116 21 36
316 663 242 95 22 29
406 844 414 70 55 41
321 663 243 112 18 29
305 907 269 73 64 64
314 665 241 59 30 27
316 668 241 49 32 35
319 670 241 84 22 25
333 865 390 38 34 33
319 673 241 82 31 31
288 676 236 65 20 27
290 684 236 94 25 29
339 869 416 52 42 37
292 686 237 90 26 26
297 682 236 88 27 34
296 688 237 94 29 29
301 678 235 56 35 37
322 634 336 174 30 60
301 683 236 82 30 35
300 688 237 101 26 31
302 688 236 100 28 32
375 797 235 85 63 55
290 694 231 88 26 25
295 690 236 83 31 30
291 699 231 89 29 30
291 703 229 99 24 31
296 703 230 63 35 35
301 703 230 78 34 34
414 837 379 73 59 48
304 675 236 43 34 38
306 678 236 52 36 37
311 678 238 41 34 38
309 680 236 40 32 40
306 689 237 103 27 31
311 683 236 46 34 38
312 682 237 43 33 39
311 687 236 60 33 33
316 678 240 44 34 38
311 689 237 81 33 33
316 688 237 48 35 38
305 693 236 87 30 31
364 543 361 82 26 36
307 693 238 89 31 29
306 704 224 92 40 36
344 901 411 75 67 63
311 704 224 90 41 37
419 657 270 182 125 97
306 698 234 81 30 37
299 886 372 35 33 36
307 696 237 89 30 32
306 701 232 80 28 36
311 699 234 88 27 35
321 693 240 46 36 39
366 703 254 77 62 61
316 703 229 84 40 41
321 704 229 71 39 42
276 749 331 56 46 45
316 698 238 76 31 36
317 701 234 72 40 36
322 702 238 68 37 39
307 766 190 64 52 44
306 765 190 74 59 53
311 765 189 75 57 48
313 870 396 49 43 39
311 767 190 68 54 45
320 768 190 70 54 47
261 708 228 119 16 30
261 718 228 124 15 30
266 708 228 96 23 30
266 713 226 114 20 28
266 711 227 107 21 29
271 708 229 100 24 30
271 713 228 103 23 27
260 728 227 72 29 35
263 720 226 124 13 29
260 733 227 58 32 35
262 733 226 85 32 38
336 843 289 36 32 32
266 723 225 122 16 30
276 708 231 114 20 29
276 717 228 109 29 30
281 718 229 119 27 31
451 514 262 157 112 92
286 708 230 98 28 34
281 908 404 60 54 51
286 713 231 87 31 32
283 713 232 114 23 34
286 718 229 124 26 33
276 733 225 62 35 36
286 894 364 34 33 35
281 733 228 73 32 35
286 723 226 123 22 33
316 528 345 155 23 53
286 721 227 121 28 31
286 729 227 116 20 33
286 733 229 106 24 32
261 743 224 76 34 37
271 573 324 97 26 40
261 748 222 64 35 34
261 753 220 82 34 36
271 743 222 67 33 36
281 628 332 115 31 45
267 748 221 81 34 37
322 863 248 76 63 61
266 753 221 80 36 37
264 751 222 84 32 38
271 748 221 58 36 39
261 758 219 82 43 44
261 763 220 63 51 47
261 768 221 65 53 47
271 758 220 92 41 43
270 873 349 81 68 55
266 763 219 65 52 47
271 763 219 67 53 48
271 768 219 69 55 47
275 749 221 41 37 43
277 748 222 60 34 40
276 753 221 51 38 40
278 753 222 67 37 39
278 758 222 83 34 38
281 758 224 82 34 36
278 763 222 63 49 44
340 673 250 66 31 35
281 763 224 60 45 42
279 768 221 65 53 44
301 749 224 93 33 36
281 768 223 64 51 44
261 738 225 74 31 34
279 744 225 69 34 38
426 768 264 97 74 57
414 857 401 88 70 67
282 743 228 65 34 38
362 835 247 72 57 53
286 738 231 75 30 33
322 715 347 155 12 50
285 743 230 57 34 36
288 740 232 97 26 32
288 743 232 79 31 38
282 748 227 62 34 40
286 748 229 52 36 39
283 756 227 92 33 37
287 762 228 72 39 43
286 768 225 56 44 41
298 710 225 99 30 31
297 713 224 84 37 36
326 658 244 80 26 31
303 710 216 83 53 47
303 715 211 86 68 55
257 896 366 76 65 55
376 823 254 73 55 49
303 718 210 73 51 40
299 718 219 69 42 39
295 724 223 75 44 39
302 722 210 67 47 36
303 726 216 71 51 43
300 724 218 63 48 43
297 727 225 76 36 38
298 726 221 62 45 40
301 728 224 64 35 37
296 759 331 68 57 54
301 833 214 117 89 66
307 708 209 75 54 49
307 713 204 88 64 56
311 706 209 83 52 44
310 713 202 78 51 39
312 709 201 74 55 33
307 718 205 84 59 43
305 718 208 77 53 42
405 851 389 79 63 60
310 718 203 77 55 42
313 705 205 75 59 43
315 705 206 77 54 42
314 709 201 71 55 33
315 714 201 72 53 28
317 713 203 76 53 40
321 707 209 67 52 36
321 713 205 72 50 41
336 573 333 46 27 30
370 888 430 88 71 56
321 718 195 72 54 39
321 717 199 80 58 43
321 716 202 82 59 47
362 528 358 53 29 31
305 712 214 74 53 46
311 708 214 80 51 43
271 946 280 93 86 85
306 707 219 81 45 34
305 706 222 90 41 37
311 706 218 86 46 40
314 705 216 77 52 42
420 638 283 172 121 93
316 704 224 87 43 39
320 705 221 72 43 41
320 705 224 76 40 40
375 709 239 100 74 49
312 722 205 80 60 47
373 804 237 77 58 51
311 724 208 75 55 43
318 726 200 76 60 49
313 721 201 66 51 39
316 728 208 71 54 44
320 729 204 79 66 58
319 733 208 69 54 48
312 728 210 67 50 41
313 733 211 60 46 39
310 733 213 57 44 39
308 732 216 58 43 40
424 626 261 155 108 72
306 733 219 61 42 38
305 734 223 57 36 36
296 708 228 88 31 34
291 718 229 108 32 32
290 721 227 121 30 33
297 593 335 165 16 54
291 728 227 116 21 35
295 729 227 105 29 36
391 869 408 93 75 61
301 768 209 58 47 44
293 764 210 63 52 46
296 764 210 65 51 47
293 764 213 62 52 47
261 678 331 157 20 50
289 946 362 58 54 53
292 766 210 62 51 47
296 767 210 64 52 48
296 763 224 72 50 48
335 712 242 83 36 37
296 768 223 63 52 48
396 898 344 76 67 63
298 755 221 94 35 43
298 758 221 93 38 43
301 758 220 80 48 48
299 760 222 93 45 46
301 763 219 72 55 55
299 762 222 85 50 47
321 743 204 64 52 45
423 644 268 169 116 84
399 744 287 168 111 83
316 748 209 57 44 38
380 522 367 57 28 32
318 749 206 62 50 42
317 754 205 67 53 42
308 736 216 58 44 42
270 855 257 137 94 73
309 739 217 57 38 40
309 743 218 52 39 38
308 743 220 49 40 40
307 750 216 60 43 40
306 753 216 62 44 41
381 707 252 122 91 55
310 753 213 56 43 40
306 748 219 63 42 40
305 747 224 62 38 39
309 746 217 53 42 39
313 743 211 51 41 36
313 748 211 53 42 37
305 764 193 72 58 51
304 764 198 68 57 50
307 768 204 58 47 42
316 823 214 101 75 58
305 942 344 54 46 43
306 764 209 65 54 51
307 765 205 62 51 46
312 758 209 65 51 47
320 759 195 77 58 48
321 758 199 76 56 46
356 878 403 70 57 48
317 763 195 75 57 48
316 768 199 66 51 42
335 568 331 43 26 28
321 763 199 75 56 46
266 713 338 148 22 51
361 697 259 63 47 54
315 762 202 75 59 45
308 757 216 65 48 47
306 763 214 71 57 55
306 762 218 73 58 59
291 737 231 104 21 32
348 717 336 62 26 31
291 740 232 80 30 35
294 740 232 50 37 43
411 678 274 184 124 95
400 698 288 165 115 84
297 749 230 107 26 34
295 753 228 104 27 34
291 748 232 91 29 34
295 747 232 110 24 34
343 809 227 68 55 50
424 623 282 170 121 94
300 738 227 59 36 38
301 738 226 62 38 38
301 743 228 91 31 36
291 763 229 72 46 44
291 768 225 61 50 45
295 763 228 72 48 43
311 880 334 31 31 32
294 766 227 63 53 46
304 746 227 87 29 32
326 648 244 66 34 38
326 653 245 70 29 34
330 643 246 106 27 36
330 648 246 89 29 38
332 648 247 112 24 34
311 863 444 85 66 48
336 648 249 80 26 33
330 653 246 124 18 33
304 911 274 71 63 65
336 653 250 112 17 32
331 663 245 89 24 29
336 663 249 84 26 29
331 673 246 78 30 32
300 908 265 72 63 64
342 644 253 50 31 35
342 648 253 84 27 33
339 651 251 29 31 29
362 880 413 77 65 56
341 653 254 103 22 35
445 547 260 184 126 99
338 654 252 101 14 27
326 637 333 75 32 38
341 658 255 104 18 30
338 662 252 97 21 27
296 798 315 61 51 48
342 668 254 71 33 34
345 669 256 61 33 31
345 673 255 79 31 30
302 783 210 58 48 45
326 683 242 50 34 37
324 684 241 47 35 39
326 689 241 44 35 37
367 696 262 75 59 49
391 528 237 121 26 39
333 677 247 62 28 30
331 683 245 42 33 37
334 683 246 69 35 37
326 703 240 66 35 40
332 693 243 52 36 36
331 698 241 46 37 40
331 703 240 67 36 40
333 696 242 51 37 36
351 806 312 57 47 40
304 871 236 69 61 61
336 698 243 53 38 42
340 678 250 85 26 29
343 678 252 99 24 28
341 683 249 87 28 28
347 683 253 86 28 27
345 688 250 65 33 34
326 907 285 80 69 68
347 688 253 83 32 32
350 688 255 61 33 33
342 704 234 77 45 39
346 704 229 75 46 40
346 703 234 79 47 37
346 703 239 83 41 37
369 608 298 141 19 44
351 704 234 84 44 38
341 872 261 66 56 55
351 702 239 91 41 30
340 693 246 46 37 41
342 693 247 43 37 41
340 698 245 56 37 43
341 702 244 80 38 38
351 693 254 50 39 40
351 701 244 92 37 29
316 778 324 67 55 50
481 863 329 95 77 63
346 698 250 68 35 39
271 758 325 64 54 50
348 697 252 78 30 38
352 700 250 87 31 34
382 659 256 107 78 48
348 728 336 83 29 37
372 893 324 60 52 48
382 668 256 111 83 52
271 879 259 54 48 50
356 704 234 82 48 39
361 703 234 80 54 43
366 703 239 83 56 45
356 701 244 66 38 40
306 858 299 63 53 44
355 701 247 61 34 41
361 701 244 72 47 49
358 700 246 55 42 41
361 700 250 63 42 44
356 699 254 54 41 44
364 700 255 85 57 63
382 678 256 108 81 49
382 688 255 109 81 52
334 786 203 83 59 51
371 704 254 90 69 47
382 693 255 111 84 51
385 866 303 83 68 56
382 700 251 114 85 52
299 809 212 65 53 47
316 762 332 68 55 51
382 702 251 118 88 54
331 718 189 84 60 42
397 533 249 171 22 44
335 715 190 77 60 43
336 718 188 82 59 40
332 722 190 74 52 41
336 728 190 69 51 41
340 719 189 76 58 37
338 720 186 86 60 37
339 720 186 89 67 43
340 722 186 91 68 46
341 733 190 74 55 43
411 638 285 175 125 97
345 723 190 76 57 42
345 733 190 79 58 42
327 748 190 89 63 43
331 748 189 77 58 42
334 745 191 60 51 42
401 723 229 81 62 48
335 747 190 55 45 37
342 736 191 71 54 43
344 736 191 81 62 45
326 709 209 65 37 40
326 714 199 76 55 48
324 716 198 77 56 34
324 716 202 72 53 40
328 874 257 67 58 59
271 833 305 117 92 68
330 710 206 80 52 44
301 568 338 164 20 53
331 710 209 79 43 40
356 887 293 70 60 61
440 523 258 159 117 96
336 712 204 79 57 51
331 713 194 83 54 41
331 712 199 83 57 42
272 746 332 31 30 32
326 708 214 71 34 42
322 706 224 75 42 41
331 708 224 77 37 41
336 710 224 71 41 42
320 726 196 76 57 45
284 895 352 44 38 34
326 723 195 78 58 46
328 732 202 73 55 47
332 728 194 69 54 43
375 728 229 83 63 45
329 725 197 69 49 36
331 728 199 71 54 42
335 729 192 71 56 42
332 733 195 69 52 48
336 733 194 70 56 45
330 732 203 72 55 46
339 715 199 67 53 40
338 716 192 70 52 40
341 718 194 70 56 43
378 528 338 170 15 53
340 714 204 72 56 50
346 719 204 64 50 46
346 718 209 68 51 48
341 712 219 70 47 43
281 613 336 62 26 33
379 892 435 97 80 67
341 713 214 67 47 42
346 708 225 68 45 39
295 779 223 62 50 45
347 716 219 62 44 42
351 717 219 64 45 41
382 798 243 91 64 52
351 717 224 66 44 40
347 722 198 68 52 45
350 724 200 72 53 48
352 727 198 71 55 45
348 721 203 68 50 47
308 801 201 104 79 54
351 723 204 69 53 45
351 722 209 67 50 43
351 733 199 73 58 46
352 735 203 72 56 45
326 706 229 74 40 41
324 705 234 73 40 37
390 542 241 172 20 41
327 707 234 78 37 41
361 882 344 60 54 50
327 708 239 78 35 38
336 709 229 73 41 41
331 709 234 83 36 41
331 709 240 92 31 36
336 710 234 76 41 40
386 823 300 166 115 92
332 711 236 82 37 40
336 711 236 78 40 37
336 712 239 80 39 37
329 705 242 77 32 41
335 710 242 86 33 34
342 708 226 75 49 44
341 709 229 71 43 40
341 711 227 72 47 42
343 705 226 74 48 43
343 705 229 77 47 42
339 708 238 78 42 32
340 708 234 75 43 37
370 623 294 59 25 31
396 902 455 101 83 63
346 705 225 75 50 42
346 709 227 70 44 40
349 708 226 68 41 39
350 705 230 80 42 39
351 713 229 68 39 38
348 716 228 55 36 41
352 715 232 72 38 38
352 718 233 66 41 41
306 793 317 60 50 45
323 738 200 70 54 47
322 743 199 75 61 53
421 783 249 93 70 57
398 698 257 127 93 58
370 698 285 48 32 25
326 743 194 75 57 48
323 745 196 74 58 48
323 748 195 80 61 48
322 748 199 67 54 44
321 753 199 71 54 42
324 748 193 86 64 47
301 912 388 57 52 51
331 738 197 64 51 44
331 738 196 62 48 44
336 736 196 61 48 44
336 738 198 59 48 41
336 744 194 62 46 49
333 742 197 59 49 42
332 750 192 71 55 41
324 755 197 96 72 58
324 761 196 84 63 50
326 763 199 73 56 46
326 768 198 64 51 43
376 878 408 89 71 58
332 757 196 61 50 42
331 758 198 65 50 44
336 758 195 63 50 43
331 763 198 62 49 41
331 768 199 64 51 41
336 761 196 69 54 46
336 763 199 70 55 44
333 769 203 70 53 45
368 777 311 142 104 75
337 765 203 72 54 44
265 543 335 46 29 30
339 653 322 166 19 55
313 875 381 35 33 35
334 766 201 61 50 41
339 739 198 65 51 44
341 743 195 66 50 44
341 748 194 62 49 42
341 753 195 60 48 41
346 738 194 74 55 42
345 743 195 74 56 45
347 743 198 79 60 49
395 884 455 93 78 65
348 738 202 69 57 48
351 738 205 73 58 48
304 770 326 66 54 48
349 740 201 67 53 44
349 743 200 78 61 50
350 743 204 74 58 50
352 743 208 68 53 46
344 748 196 73 54 46
285 537 344 110 24 41
347 748 198 85 62 51
346 753 199 86 63 50
262 817 231 71 58 53
349 753 201 87 66 56
350 753 204 69 54 49
340 762 200 78 60 47
341 764 203 82 61 50
346 758 200 86 65 51
369 826 245 72 55 49
349 756 201 79 58 47
352 758 208 56 44 41
360 882 379 62 54 51
347 766 204 67 54 45
351 768 201 69 54 47
360 713 223 81 54 44
365 881 390 76 66 62
359 716 217 76 55 35
298 735 342 64 24 32
359 801 231 75 57 52
438 884 341 96 81 64
366 712 223 88 58 43
366 714 214 93 65 45
366 713 219 87 60 43
356 729 199 66 51 41
351 858 259 69 56 55
357 728 204 66 51 43
356 723 209 69 50 42
359 730 200 71 53 41
356 735 204 60 48 41
360 730 204 73 54 43
361 733 204 66 51 42
362 734 208 64 49 41
361 723 210 75 53 38
371 713 214 107 74 53
371 710 216 108 74 57
374 710 226 70 53 37
371 710 219 106 73 55
371 710 224 105 76 55
373 711 222 88 65 46
375 713 224 77 58 42
371 718 214 93 67 49
374 714 216 99 72 55
375 718 224 82 60 46
369 728 215 71 53 42
403 728 229 80 62 47
372 728 224 79 59 45
357 859 307 34 31 31
371 733 219 72 54 44
373 732 223 77 57 45
356 708 229 76 45 37
368 884 302 83 67 60
356 713 229 74 46 37
341 743 338 45 27 31
358 709 226 75 50 37
285 933 270 90 81 78
355 717 229 74 49 38
355 718 237 70 46 39
366 705 230 82 56 45
354 721 234 69 45 41
371 708 229 100 71 50
453 529 281 185 129 101
369 705 234 93 64 46
371 707 234 99 72 47
479 863 341 101 83 63
374 710 234 96 72 46
326 789 200 88 64 51
378 711 239 97 74 51
379 715 231 88 66 48
380 714 234 95 72 50
345 900 421 66 58 55
276 893 354 40 36 35
381 714 239 112 83 52
382 717 234 111 83 54
331 881 353 35 35 36
376 709 244 105 80 51
363 639 294 166 19 53
389 646 257 117 89 55
381 712 244 121 89 55
383 712 248 127 94 55
351 883 319 42 38 36
270 961 357 92 91 95
374 722 225 81 61 44
401 884 459 94 79 67
375 723 229 74 56 41
373 728 227 79 60 43
376 728 234 90 66 47
400 719 250 109 82 55
377 732 229 79 58 47
381 723 230 104 77 50
380 724 233 102 77 50
306 658 333 39 26 30
381 733 229 93 69 48
311 861 301 33 31 31
377 731 234 87 65 49
378 729 237 95 71 49
379 729 238 97 73 49
355 737 206 60 49 43
353 748 208 59 47 44
353 753 208 54 43 41
357 744 213 55 45 39
360 743 214 57 45 39
266 578 324 133 22 46
354 748 210 55 45 42
356 753 213 55 45 41
291 663 334 51 30 34
365 736 211 74 55 45
367 741 216 80 59 46
363 740 217 67 52 43
419 861 370 79 65 59
362 743 218 62 46 41
366 743 219 77 57 47
346 593 348 161 18 51
365 522 344 68 23 33
362 748 218 57 44 39
362 753 218 55 43 40
365 747 221 65 49 40
327 875 370 37 34 35
364 753 220 57 45 40
360 758 215 60 48 42
359 766 216 57 47 42
360 768 219 65 51 45
362 758 219 58 46 41
318 635 336 174 31 64
366 763 224 63 49 43
366 768 225 65 51 46
316 673 332 167 16 55
370 738 215 79 59 48
370 742 216 80 61 49
371 748 221 83 63 54
378 736 223 71 56 44
381 738 224 81 61 46
379 740 221 69 54 41
378 744 222 68 54 42
367 874 294 74 59 59
406 628 254 135 100 65
381 743 224 75 58 44
264 901 390 41 39 41
346 843 291 34 30 31
381 748 224 72 56 43
408 840 404 64 50 39
371 768 225 54 44 39
263 629 332 148 19 48
380 758 226 57 46 40
405 519 287 144 13 45
380 763 225 61 49 40
386 518 233 154 13 38
405 688 283 171 116 88
391 518 235 141 17 39
384 521 231 152 13 38
386 523 233 154 15 37
391 523 236 55 27 35
