ply
format ascii 1.0
comment Created by Open3D
element vertex 2219
property double x
property double y
property double z
property uchar red
property uchar green
property uchar blue
end_header
330 408 182 88 77 66
330 413 180 89 77 66
362 915 290 60 53 50
335 413 180 91 79 66
335 415 179 87 79 63
451 758 321 95 74 55
340 393 188 93 82 72
424 738 217 146 105 74
376 884 353 62 53 52
343 385 189 90 80 71
280 383 292 117 92 65
325 602 178 195 9 43
343 388 189 93 82 70
233 515 226 159 0 49
345 388 191 91 80 69
284 610 210 175 37 60
345 393 191 93 82 71
345 398 192 94 83 71
321 524 137 111 22 42
347 424 330 37 27 27
415 731 304 45 36 30
351 944 302 50 45 45
350 388 192 90 79 68
317 904 223 88 75 71
350 393 192 93 81 69
260 908 271 162 120 96
337 402 185 93 82 71
338 866 336 31 29 30
417 830 321 70 59 54
342 401 190 92 81 71
377 503 313 120 21 43
345 403 188 94 83 71
345 408 186 99 86 73
340 413 181 96 83 69
338 415 179 97 82 65
345 410 184 101 86 70
360 678 297 126 9 40
355 403 312 59 48 41
350 402 190 95 82 70
325 446 142 92 76 59
324 494 335 140 16 43
327 445 143 92 76 59
230 528 247 143 0 40
330 447 132 93 76 57
412 423 259 143 15 45
428 485 205 129 14 38
329 446 136 93 76 58
331 445 137 93 76 58
326 679 204 109 14 26
335 443 137 94 77 58
328 446 140 92 76 59
302 351 264 115 89 60
459 703 321 89 74 57
335 443 142 93 76 58
394 807 309 42 36 33
285 903 353 45 42 41
325 445 147 91 75 58
335 888 221 75 61 58
322 445 149 90 75 58
285 272 290 160 107 83
484 808 367 116 90 63
335 440 157 92 76 59
330 443 147 92 76 58
334 441 151 92 76 59
365 453 351 96 29 40
330 441 157 91 75 59
467 691 326 105 82 63
462 734 331 92 69 53
333 441 155 91 76 59
331 623 309 86 32 41
340 442 132 95 79 60
245 693 306 131 101 71
340 442 137 95 78 60
344 441 132 97 81 63
248 590 275 132 6 41
286 777 249 81 63 56
250 558 302 100 21 40
443 776 344 103 98 96
407 433 269 84 20 33
343 441 136 96 80 62
345 440 137 97 81 63
341 440 143 94 78 59
345 439 142 96 80 61
390 836 209 230 141 109
350 438 137 99 83 66
350 437 142 99 82 64
346 440 132 97 82 65
345 402 317 60 45 40
389 446 144 173 7 39
305 542 335 53 31 34
345 438 147 96 79 60
385 788 187 139 106 67
340 438 157 93 77 60
393 841 326 38 32 33
339 441 146 93 77 58
350 437 147 98 81 63
446 839 381 104 83 61
335 431 176 93 77 61
285 783 252 86 66 59
325 423 182 93 78 62
325 433 177 91 76 60
265 637 252 150 15 39
379 693 202 88 64 48
324 424 185 92 78 63
324 426 185 91 77 64
331 418 179 92 79 65
371 598 288 126 27 47
330 423 180 93 79 64
336 417 180 95 80 63
378 825 200 218 160 135
331 429 178 92 77 63
335 428 178 94 78 61
325 439 167 93 77 58
327 435 174 92 76 58
353 790 205 76 64 60
324 441 165 92 76 57
326 440 163 91 75 59
330 438 167 91 76 60
272 675 249 118 12 33
417 508 219 129 22 45
335 437 167 92 76 59
394 588 252 173 18 55
230 577 208 136 78 63
330 434 173 91 76 60
307 388 278 82 68 53
416 411 243 31 27 26
335 434 172 92 77 61
255 758 338 156 116 86
328 441 160 90 75 59
336 776 209 85 68 61
281 488 340 159 18 51
409 478 247 48 26 27
339 418 179 96 82 66
350 893 227 84 70 65
385 493 156 115 22 36
340 418 180 97 82 67
345 418 180 99 85 70
235 591 249 99 78 57
334 798 221 83 66 60
345 423 180 98 83 67
340 432 176 95 80 64
342 425 180 96 81 66
330 924 236 78 70 67
392 691 240 55 30 35
192 521 196 194 136 116
345 428 181 97 82 66
295 952 258 88 85 87
344 430 179 97 82 66
345 433 176 97 81 64
362 558 313 161 18 53
350 417 180 100 85 70
350 423 179 99 85 70
366 574 299 175 13 55
340 763 321 79 54 49
349 425 180 98 84 70
350 428 180 98 84 68
351 431 180 96 81 65
340 436 167 94 78 60
345 437 162 96 80 62
244 618 272 99 45 42
375 858 232 103 81 64
337 435 169 93 77 59
342 436 172 96 80 62
220 593 222 185 125 90
260 948 272 73 67 67
345 437 172 97 81 63
435 468 170 50 36 33
346 437 176 96 81 64
413 473 262 86 25 37
438 450 165 35 30 40
351 435 162 98 82 65
410 461 246 55 28 31
283 630 314 33 22 26
349 436 167 97 81 64
352 435 170 97 82 67
244 585 196 128 35 47
225 588 248 127 101 74
350 437 176 97 82 67
338 497 132 183 5 43
388 603 256 172 12 53
441 488 167 76 58 45
355 398 192 96 83 71
309 408 337 123 14 39
356 408 191 99 85 71
359 403 193 99 86 72
355 413 182 101 86 71
242 531 218 42 23 29
356 411 186 100 86 72
358 410 188 98 85 72
302 971 279 93 90 93
276 439 315 63 25 31
310 653 213 88 25 36
396 832 370 55 43 35
360 409 193 100 86 72
361 411 190 99 86 72
365 414 183 102 87 72
365 412 192 101 87 74
443 720 294 76 57 44
343 848 304 40 36 35
478 759 339 106 85 59
380 468 150 83 33 36
345 606 179 108 30 37
365 412 187 102 87 73
262 641 295 161 15 48
403 498 275 133 22 44
285 860 316 126 97 70
370 412 192 103 89 75
407 698 229 147 103 75
369 415 184 103 89 75
375 414 188 104 89 75
261 273 282 137 101 74
315 798 332 73 57 48
380 415 188 97 79 67
241 822 312 213 144 115
262 384 285 122 96 69
380 414 192 95 77 64
255 883 267 148 116 87
365 432 147 100 84 67
446 758 317 81 62 51
360 432 157 100 84 68
407 743 252 125 35 46
257 288 271 134 99 71
428 473 237 168 16 51
385 413 197 91 55 49
362 430 159 100 85 69
345 593 173 55 37 39
366 430 158 100 85 69
415 738 232 153 106 83
367 430 154 100 84 68
320 668 209 144 1 35
398 591 240 165 18 55
405 407 242 75 43 44
355 437 132 100 85 68
355 437 137 101 85 67
360 435 137 101 85 67
354 436 142 100 84 66
231 773 307 165 115 83
409 453 252 42 25 26
270 957 317 58 54 54
357 435 138 101 85 67
360 434 142 101 85 67
365 433 142 100 84 67
364 703 198 52 37 40
393 452 149 118 17 36
355 434 152 100 83 66
400 643 227 141 100 75
360 434 147 101 84 67
410 448 247 60 24 28
370 432 132 98 82 63
310 653 317 155 18 49
375 430 137 94 69 53
254 613 297 167 11 53
385 427 137 108 44 39
385 429 132 129 42 44
318 735 200 163 5 48
384 430 129 145 48 44
400 483 159 68 34 35
416 698 217 144 98 69
370 431 147 100 83 66
370 430 152 100 83 66
368 431 151 100 84 67
434 543 187 157 110 84
486 820 400 103 91 79
375 430 147 97 76 60
255 658 256 146 97 77
375 429 152 97 79 62
430 739 282 75 56 50
296 653 223 38 34 38
275 762 339 143 105 76
375 427 157 97 80 63
380 428 147 93 63 49
385 427 152 95 54 43
380 426 157 94 71 56
430 414 202 141 20 46
381 425 158 94 68 54
384 426 155 93 62 48
223 614 230 179 120 86
385 424 157 95 56 47
239 538 267 130 8 40
260 673 263 118 67 54
375 448 132 190 7 45
265 578 157 109 31 43
274 478 333 139 15 42
383 441 133 188 9 44
383 446 139 186 9 40
360 422 176 101 86 71
424 618 207 161 114 83
412 819 223 140 92 68
360 424 173 101 86 71
355 433 162 99 83 67
417 824 334 79 69 62
359 431 161 100 84 68
249 903 292 148 119 95
388 882 302 55 48 46
258 273 277 130 98 68
355 432 167 99 84 68
374 673 209 48 35 37
360 428 167 100 85 70
359 428 172 100 85 71
237 521 222 143 0 41
357 430 170 100 85 70
250 594 217 137 22 44
354 390 255 77 66 54
358 431 173 100 85 71
365 419 177 103 87 71
372 619 279 172 15 54
365 427 167 101 86 70
365 429 162 100 85 70
360 848 238 88 66 60
363 426 170 101 86 71
431 453 222 109 28 44
355 419 179 101 86 71
380 738 301 48 36 30
360 417 181 102 87 71
352 428 179 99 84 69
290 881 329 87 70 55
424 468 212 94 19 37
356 427 178 100 85 70
390 678 232 52 29 30
354 428 180 101 85 69
230 628 233 184 124 91
388 410 327 59 42 36
355 433 177 99 84 69
432 454 198 107 27 45
370 858 231 122 92 66
365 417 181 102 87 72
250 678 260 141 96 71
249 628 278 103 40 39
353 436 173 98 83 68
370 421 175 102 87 71
370 425 168 101 85 69
375 422 172 101 85 69
285 873 326 119 92 72
375 419 177 102 86 71
280 311 275 138 100 71
374 421 175 102 87 71
321 915 226 57 50 47
399 410 223 74 42 41
370 427 162 100 85 68
376 425 163 98 79 64
372 425 164 100 84 68
263 846 280 144 116 90
231 783 307 174 120 90
228 628 264 145 108 79
380 424 162 95 71 58
380 419 177 101 81 66
418 709 274 65 48 40
313 439 330 135 13 43
380 421 171 99 78 64
377 880 345 66 56 58
236 718 273 173 115 84
277 739 330 98 15 34
376 420 174 102 85 69
380 420 173 100 79 64
365 783 308 44 36 31
263 769 261 79 67 63
385 420 172 97 64 54
383 421 170 96 70 58
370 419 178 103 87 72
446 864 403 100 79 68
364 886 231 76 66 61
370 417 182 103 88 73
344 468 333 116 17 39
375 416 185 103 89 74
236 753 287 175 119 89
385 417 182 100 57 52
320 392 258 48 40 31
325 392 257 59 52 45
326 391 254 61 54 47
450 463 187 113 80 66
333 391 254 65 55 44
304 864 311 75 63 51
398 418 276 138 15 44
340 387 254 81 68 54
345 387 254 87 73 59
345 388 255 79 67 55
290 413 308 106 11 34
340 393 257 67 58 48
350 393 257 69 60 51
222 536 163 144 26 48
355 388 197 92 80 68
354 393 193 94 82 70
354 390 194 93 81 69
236 808 302 182 128 97
433 428 240 134 20 45
320 917 355 76 68 63
359 389 198 93 80 68
359 393 198 94 82 72
250 782 284 154 109 76
361 388 201 94 83 71
411 762 252 118 81 59
360 398 197 98 85 73
363 388 203 96 84 72
361 393 201 97 84 72
364 393 203 101 87 74
366 388 207 101 89 76
325 413 321 126 13 40
366 398 202 103 89 74
367 396 205 106 91 77
265 348 278 122 96 68
360 408 195 100 87 74
364 404 198 102 88 73
443 427 217 160 19 49
367 401 205 103 90 76
232 734 315 157 109 82
402 584 234 68 24 32
259 308 268 128 96 71
370 393 208 113 97 80
370 398 206 112 96 80
418 725 204 138 98 67
424 483 246 117 17 41
374 398 208 101 87 72
290 518 338 143 26 52
373 389 212 86 74 62
372 386 216 90 76 63
243 646 244 177 118 93
410 458 257 57 23 31
370 889 352 64 56 58
373 393 209 104 89 75
295 653 317 119 25 43
375 393 212 84 73 63
375 393 217 79 69 59
305 615 319 104 29 44
376 398 217 76 67 58
393 512 295 166 11 52
265 428 308 57 28 30
376 398 222 73 65 58
226 527 209 54 19 23
370 403 206 109 94 78
235 538 208 40 23 26
369 405 202 102 88 75
376 407 206 100 83 70
213 550 200 177 117 87
370 411 196 103 89 75
295 903 247 99 78 57
380 413 197 96 74 63
377 411 200 102 83 70
380 411 202 96 67 58
270 633 306 105 25 41
252 943 317 53 51 53
303 784 240 88 68 62
381 411 207 90 60 55
385 412 202 89 51 49
386 658 232 60 30 34
365 489 344 40 30 31
421 818 317 74 59 58
377 402 211 79 69 59
325 878 358 42 37 35
422 513 214 32 29 30
378 508 310 165 12 51
447 744 337 74 58 42
377 401 217 76 66 57
419 513 216 63 30 35
225 658 257 180 125 97
264 373 283 121 95 68
378 404 213 78 67 58
378 405 209 81 68 59
386 473 307 141 18 45
381 408 217 79 63 53
418 512 224 146 18 41
434 782 343 68 58 48
377 401 222 73 64 55
379 403 222 72 64 55
429 793 337 54 48 44
381 407 222 78 60 48
382 411 210 87 58 54
270 587 162 171 21 47
377 406 253 64 54 42
385 410 212 87 54 50
345 418 328 46 27 29
386 411 211 88 51 49
409 817 252 86 64 54
228 673 267 180 123 95
385 409 217 81 57 50
284 628 227 70 33 38
236 514 88 68 28 39
321 934 245 91 83 83
386 438 327 160 11 46
414 718 198 136 94 61
355 388 253 91 76 60
354 393 256 69 60 52
349 518 153 43 35 39
260 823 332 195 133 109
356 393 254 73 63 53
388 536 295 135 22 43
361 388 248 105 85 64
338 506 144 169 0 35
357 396 253 68 60 51
466 769 356 97 76 61
257 440 310 113 11 32
356 398 258 66 58 50
359 399 256 66 58 49
262 616 305 25 29 32
366 388 243 106 86 64
452 835 396 101 88 77
344 906 360 65 58 58
234 543 137 90 27 37
367 392 244 88 75 61
362 392 249 93 77 62
441 433 212 154 20 47
363 394 250 78 67 56
337 758 324 141 21 48
320 932 244 90 82 82
387 439 323 161 13 46
362 401 254 65 57 48
269 774 260 84 68 64
390 813 307 43 38 36
250 578 252 57 24 30
367 401 249 67 58 47
229 618 263 141 107 78
371 388 232 98 81 62
459 483 172 169 119 100
364 857 359 35 31 29
371 392 232 86 73 60
365 693 296 122 10 40
246 524 74 147 2 30
453 727 308 85 64 47
373 389 227 91 76 60
289 966 273 76 73 74
374 393 227 79 69 59
372 391 229 87 74 60
415 808 232 189 126 95
369 388 237 100 82 64
370 393 237 81 70 59
374 394 232 78 68 58
269 452 319 102 7 31
376 398 232 72 64 55
320 538 336 142 20 50
371 397 239 71 63 55
324 748 330 125 20 43
375 398 237 70 62 54
267 864 264 131 108 84
290 283 282 149 101 77
368 388 241 102 84 64
345 723 316 75 25 35
285 938 242 96 85 83
440 427 167 108 33 24
369 393 242 82 70 59
335 488 330 134 14 41
370 398 242 70 62 54
369 399 246 69 61 53
402 634 184 152 106 74
401 618 227 55 32 34
374 399 241 69 61 53
259 523 77 168 3 34
350 623 190 63 34 39
419 513 227 109 23 39
377 401 228 70 63 55
422 513 231 59 26 32
348 650 300 68 24 28
377 401 232 70 62 55
406 488 160 61 34 37
310 633 316 42 27 31
379 404 232 68 61 54
248 623 239 154 92 76
385 407 232 75 53 45
465 788 367 107 86 69
379 404 237 67 60 52
385 878 357 67 56 55
381 407 237 67 59 49
370 403 247 67 60 50
305 881 327 51 46 42
330 528 337 178 14 57
372 401 244 69 61 55
336 870 328 31 29 29
466 790 379 109 90 69
360 508 341 169 14 53
419 513 245 64 26 30
275 593 322 80 27 38
263 570 150 57 39 41
375 405 247 66 58 47
345 593 312 75 28 39
292 865 254 136 113 90
370 405 252 67 59 45
425 488 232 69 25 36
290 863 256 132 109 86
370 404 257 68 56 42
378 405 241 67 60 51
209 515 205 59 43 31
357 475 140 117 15 41
423 472 212 105 19 40
380 407 247 65 55 43
378 405 252 64 54 43
385 407 252 71 50 42
322 450 128 91 75 57
335 503 137 189 6 43
325 473 328 139 10 42
286 463 341 68 27 34
331 508 132 182 4 42
331 818 233 200 144 122
436 510 165 175 120 91
329 513 132 182 4 42
332 509 137 192 6 43
283 307 275 136 94 70
333 506 132 183 5 42
450 458 182 103 80 58
414 678 207 151 100 69
337 504 141 191 6 41
332 510 140 190 6 44
272 281 285 157 108 83
271 558 325 168 17 53
233 540 250 130 0 36
331 514 141 181 4 39
334 513 143 168 1 35
341 493 132 184 5 42
376 703 288 75 21 30
394 832 341 36 32 31
252 947 298 64 59 59
341 494 136 172 5 42
345 493 142 77 28 37
347 485 130 186 5 41
329 876 312 31 30 31
346 489 137 186 6 44
231 553 177 55 30 35
350 483 137 185 6 43
194 529 187 202 138 113
350 588 312 113 26 44
352 480 136 182 5 45
348 486 134 187 6 45
257 258 267 121 95 66
348 486 138 180 6 41
279 473 338 81 25 35
350 488 142 110 23 38
347 495 145 107 18 36
375 633 203 63 31 37
351 489 145 52 33 37
350 493 147 111 23 41
310 837 316 48 40 36
238 540 245 141 0 40
355 693 197 85 29 34
403 547 266 53 32 34
337 499 132 183 4 43
341 499 141 192 7 44
339 503 143 178 4 39
344 497 143 185 12 45
275 843 297 129 101 83
342 500 145 151 3 47
343 512 149 150 10 33
379 829 201 219 158 130
445 483 170 64 32 32
349 497 149 107 18 37
433 497 200 126 11 38
351 498 151 71 32 38
348 501 149 69 33 43
241 679 296 133 98 69
350 503 151 115 23 39
346 508 150 146 7 33
417 508 222 149 18 45
362 464 132 181 6 43
447 444 174 103 33 49
304 892 359 45 40 38
415 424 157 116 26 33
418 548 231 164 11 52
364 462 132 160 12 44
396 663 193 122 95 67
366 459 132 138 19 40
367 460 136 101 31 43
299 318 261 120 91 61
395 623 242 40 28 31
365 463 137 104 28 40
416 783 293 49 38 35
290 623 217 83 33 40
269 754 240 54 43 45
450 433 177 93 20 35
366 464 141 87 37 43
360 468 132 184 6 44
358 471 134 185 6 44
359 472 137 162 9 41
260 858 282 156 118 94
361 468 137 147 15 43
399 828 327 40 36 35
270 959 307 62 58 58
356 474 137 181 8 47
353 476 132 186 5 46
390 406 252 75 45 41
356 478 141 101 29 40
412 440 155 165 1 37
359 477 144 76 33 40
300 933 237 95 84 82
362 465 135 169 8 45
365 468 142 65 33 38
312 737 209 153 11 47
418 493 222 152 19 52
350 884 216 84 68 61
363 472 144 139 26 46
275 602 182 221 13 50
361 479 146 73 35 40
340 708 317 131 17 44
362 475 145 70 27 28
370 453 132 142 18 42
372 450 131 188 6 43
314 754 216 81 64 57
425 747 309 72 60 47
373 451 134 168 3 40
374 452 137 131 20 42
376 454 141 96 26 39
370 458 137 72 35 40
405 763 306 44 38 33
292 840 264 110 90 69
371 459 141 58 35 39
368 461 139 69 31 36
275 663 308 87 29 39
408 502 270 131 23 45
370 463 142 82 34 39
375 463 146 102 28 39
276 873 326 148 108 91
437 765 337 49 40 31
381 454 145 92 26 37
242 536 234 40 29 32
383 451 144 170 8 44
389 418 352 135 26 47
261 298 271 137 100 78
385 453 146 119 20 38
377 459 145 62 36 40
394 587 199 94 32 39
380 463 148 83 30 36
385 458 148 72 35 40
384 462 149 68 35 38
245 590 250 71 20 28
300 693 324 157 18 50
368 466 144 75 32 35
425 453 163 136 17 34
370 473 148 59 35 41
341 692 314 128 13 42
375 468 148 110 23 37
382 565 175 174 6 40
374 472 149 41 37 41
243 563 283 60 25 31
369 478 149 57 36 40
441 433 207 131 24 45
371 478 150 45 35 39
420 683 287 81 55 43
362 827 214 52 49 53
421 834 358 74 56 48
443 442 180 135 17 46
375 478 152 44 36 39
377 470 150 45 35 30
380 473 151 82 33 38
385 468 151 70 35 38
414 788 193 148 103 67
385 473 153 119 25 40
385 788 305 44 37 33
380 478 152 76 35 40
382 681 274 55 29 28
225 562 228 117 92 68
264 738 326 141 103 78
384 478 154 89 32 40
390 407 302 95 32 41
330 958 317 56 51 51
354 482 143 123 19 38
353 486 144 128 28 42
355 488 147 87 34 39
237 812 321 187 128 105
360 483 147 103 28 39
234 723 312 147 104 75
240 528 87 106 32 45
395 838 237 101 75 63
387 434 337 124 22 44
396 469 155 94 31 38
359 487 148 103 28 40
354 492 149 125 28 42
413 458 159 69 32 35
356 494 151 134 21 42
325 828 242 160 124 98
357 490 150 88 28 37
415 417 177 90 30 31
360 489 151 112 22 37
360 493 153 151 16 41
366 484 150 147 21 42
365 488 152 163 13 42
364 492 154 147 13 38
425 783 252 62 52 48
276 483 336 142 16 43
295 543 112 81 33 41
362 495 155 121 25 45
209 539 187 216 149 114
354 503 154 100 30 40
356 503 155 98 28 38
287 841 308 45 35 37
359 497 154 57 31 34
360 499 155 58 35 38
357 500 155 69 40 45
325 708 324 139 21 47
355 598 303 144 24 48
360 503 156 99 27 37
330 918 232 70 63 61
353 508 154 125 34 39
352 510 155 85 33 39
352 513 155 55 38 38
420 503 171 120 40 43
368 612 285 69 33 37
247 604 235 121 63 56
355 513 157 60 36 39
409 603 232 124 28 45
232 703 273 173 116 86
360 508 158 91 29 37
300 918 232 78 71 70
390 422 157 90 44 37
410 583 212 105 56 52
365 498 156 89 32 40
355 568 166 145 0 31
365 503 158 44 34 39
370 488 153 121 26 42
360 528 163 59 33 35
448 742 337 73 58 44
377 792 189 148 115 79
375 489 155 96 28 37
368 491 154 149 16 45
246 578 292 110 22 40
360 763 307 62 45 39
371 489 155 92 23 35
284 291 280 153 104 78
285 618 318 85 29 40
379 482 154 79 33 39
377 485 155 92 25 30
369 513 332 84 28 39
399 528 177 93 27 38
267 854 269 127 105 81
383 481 154 50 30 31
425 559 175 163 108 78
254 733 247 47 36 39
385 483 156 83 30 36
370 503 157 117 17 36
380 653 262 148 13 46
237 816 308 205 142 114
375 503 157 140 10 34
370 508 159 91 26 37
251 728 262 66 31 40
380 503 156 114 16 34
379 868 223 97 82 72
385 503 157 99 21 37
340 402 317 65 48 42
352 935 276 81 75 75
380 513 158 117 14 34
385 508 157 149 2 31
476 819 388 100 89 79
357 904 334 46 38 37
385 513 158 149 3 33
370 510 160 89 31 41
422 794 216 186 125 95
370 513 160 80 36 42
386 653 242 149 14 46
390 414 192 78 50 50
395 415 187 73 44 48
219 603 242 157 112 82
263 878 260 150 119 89
400 415 187 74 38 44
251 883 272 156 118 92
405 415 187 79 35 40
406 735 270 67 48 44
435 743 288 87 64 49
405 414 192 78 38 42
410 414 192 84 35 40
387 434 130 127 21 40
389 433 133 109 27 38
408 599 222 88 34 38
429 763 327 49 40 32
390 425 142 88 35 44
411 848 335 59 51 49
395 428 138 108 39 44
257 895 315 120 96 72
395 425 142 86 33 39
396 427 140 107 38 44
399 425 144 125 36 43
435 488 163 114 89 61
260 748 333 148 111 82
400 428 142 108 35 39
397 434 140 122 27 42
390 424 152 95 39 40
390 425 147 99 33 41
388 426 151 98 43 42
386 425 154 97 50 40
267 454 320 101 7 30
400 424 147 97 30 35
297 362 279 112 89 62
400 422 152 87 26 35
395 421 157 88 33 32
309 413 336 133 11 42
400 421 156 88 30 33
400 420 158 87 32 32
361 653 288 137 12 43
416 503 248 78 23 32
386 440 136 190 9 45
390 438 137 177 12 44
386 444 140 184 9 42
249 813 333 185 131 108
464 798 368 106 86 68
388 441 138 192 10 46
405 553 247 56 28 33
393 436 139 147 23 46
395 438 142 181 13 46
399 437 143 133 12 36
419 778 198 148 105 69
383 648 252 153 11 47
394 441 144 189 9 44
396 835 222 220 147 116
392 444 145 171 8 33
319 556 148 117 33 45
325 718 192 137 2 36
397 440 145 189 10 45
394 448 148 150 12 34
399 442 149 169 4 37
396 449 150 143 13 36
401 444 151 143 8 34
405 424 148 135 33 33
410 410 223 54 32 32
405 421 156 86 23 37
261 498 325 66 27 33
405 420 159 87 20 43
339 668 310 59 31 33
236 533 117 110 20 40
406 428 146 91 37 38
369 482 345 58 30 35
405 433 147 130 21 38
401 523 172 86 31 38
392 455 150 45 36 40
305 483 336 144 11 44
410 424 152 139 28 27
410 422 157 109 27 36
408 429 149 102 32 37
410 428 151 103 31 35
400 468 156 91 30 37
457 722 345 84 69 52
411 433 151 158 12 36
383 572 285 176 10 55
320 728 329 130 22 45
414 425 154 112 28 32
416 428 155 109 27 33
414 433 153 152 4 32
420 415 192 103 31 37
404 437 148 185 10 43
455 798 367 98 83 68
385 738 191 138 98 61
250 688 261 138 95 68
405 448 153 91 31 38
414 437 154 167 1 35
453 447 170 60 23 33
411 443 155 138 12 33
410 448 156 125 20 35
272 688 310 45 28 29
415 443 157 156 4 34
415 448 158 153 6 35
426 433 160 148 11 31
390 421 162 88 48 39
390 419 172 93 42 40
243 535 95 125 24 50
390 418 177 94 42 41
257 913 274 164 126 100
365 523 162 52 34 36
393 414 337 93 34 41
340 883 218 103 82 74
395 419 167 87 33 35
401 727 252 96 24 37
420 448 160 155 6 35
394 421 161 86 38 32
400 419 167 86 26 34
395 417 177 85 33 36
310 738 333 85 29 39
395 416 182 77 41 43
400 416 182 74 37 40
367 406 277 55 47 39
502 777 385 108 91 78
405 419 162 87 26 37
290 708 217 41 37 40
370 603 287 118 27 45
228 629 235 183 125 91
405 418 167 87 26 33
427 763 325 62 52 44
335 858 243 105 86 66
405 417 177 82 30 35
384 887 306 52 45 43
410 420 162 88 24 34
233 768 322 169 119 90
284 779 250 85 65 58
411 421 160 93 20 42
275 852 266 102 85 66
305 972 277 83 77 78
410 418 172 88 29 33
374 658 209 51 36 40
378 786 190 144 112 76
415 418 172 89 30 31
437 729 321 51 40 30
405 416 182 79 32 38
406 416 185 79 33 40
410 416 182 84 32 34
305 974 287 58 54 55
231 538 257 149 2 43
324 962 267 84 79 82
430 412 222 111 37 37
410 416 185 86 33 36
403 504 159 141 2 34
300 558 331 151 22 52
415 416 186 94 32 33
290 463 343 64 27 32
419 424 158 126 34 29
433 486 165 105 84 61
370 748 198 92 43 38
420 428 157 117 24 34
420 433 157 150 8 33
424 433 159 143 12 34
315 758 336 100 30 41
279 945 250 83 74 74
262 776 269 72 56 53
423 436 159 149 8 37
290 753 339 98 25 37
280 323 274 125 95 66
419 443 158 157 4 34
417 803 281 71 55 45
418 447 159 158 3 35
305 962 267 93 90 93
440 433 158 114 31 31
367 716 299 125 9 39
292 423 327 60 29 35
441 438 158 64 34 38
446 439 154 74 42 42
414 778 247 163 109 83
442 442 158 90 35 39
251 908 316 168 130 109
290 648 227 64 33 39
275 458 323 75 20 30
245 557 132 238 17 60
420 768 272 52 41 38
444 443 157 62 32 35
420 420 168 95 21 28
232 538 138 181 8 48
361 883 222 91 77 70
411 801 271 69 52 47
421 421 166 100 12 30
361 843 356 66 52 41
425 422 167 105 14 25
420 418 177 94 30 29
425 420 172 102 22 25
425 418 177 102 26 28
278 810 275 67 57 56
424 420 169 100 20 30
430 425 163 158 12 19
364 673 204 50 34 37
430 423 167 110 18 23
430 888 397 90 78 70
426 421 170 102 20 31
430 419 177 108 24 28
427 713 289 63 46 35
230 518 127 168 0 44
429 420 173 109 17 27
420 417 182 98 30 30
274 923 251 72 66 66
265 813 287 98 78 64
425 417 182 104 30 30
272 931 345 60 55 54
258 437 309 90 12 32
426 416 191 113 30 38
312 520 96 122 32 46
380 829 357 37 31 28
430 417 187 113 31 37
430 416 192 121 28 41
365 808 306 35 30 28
422 440 160 151 7 33
282 966 306 71 66 65
422 443 160 152 7 34
310 473 333 44 27 31
425 443 162 148 10 36
330 867 299 56 46 39
285 488 342 163 17 51
406 588 187 122 83 58
430 438 162 141 15 36
406 583 188 119 79 56
374 478 342 107 29 42
253 793 339 166 116 89
430 443 164 143 15 38
430 873 392 91 75 63
340 688 313 137 14 44
255 553 127 199 7 42
435 424 167 105 19 24
435 422 172 108 22 24
252 723 257 95 33 45
290 338 273 114 89 60
434 420 178 105 27 31
375 872 377 51 44 39
357 414 340 43 28 26
436 421 176 105 31 28
389 867 384 61 52 44
440 424 172 112 29 26
437 426 165 114 24 18
439 432 160 123 35 32
240 748 328 159 118 89
444 425 173 73 39 37
444 430 163 87 34 32
446 431 161 78 27 35
246 598 282 134 3 40
332 814 314 57 45 37
435 419 182 107 30 35
439 420 183 98 29 36
441 421 181 94 30 38
459 698 327 89 76 62
435 418 187 116 29 40
300 768 340 60 49 45
435 417 192 127 26 44
440 418 192 133 26 47
390 738 190 138 98 62
418 794 286 54 44 41
423 818 323 81 65 57
446 423 187 116 26 41
430 558 177 165 111 82
315 538 142 139 4 34
446 433 182 88 22 36
443 432 192 130 24 44
241 812 298 174 123 93
370 634 201 139 21 43
390 433 317 87 29 39
446 428 187 98 24 38
444 433 187 78 25 33
435 447 164 78 32 35
435 449 165 91 23 34
440 443 161 78 32 37
419 852 373 97 79 67
230 723 302 155 107 78
444 449 161 64 35 39
453 430 175 86 14 35
441 448 182 110 16 37
438 448 187 134 17 43
438 446 190 65 18 24
442 440 184 138 18 47
442 435 188 80 18 31
260 518 78 111 13 32
442 434 192 134 19 44
300 408 341 86 22 36
332 891 365 62 56 52
441 438 187 119 20 41
456 498 172 212 138 119
354 587 311 78 27 36
443 437 186 93 24 39
441 438 192 146 22 49
442 444 179 97 16 31
390 413 197 78 45 44
390 412 207 78 43 47
425 718 273 74 55 50
394 672 196 119 92 63
395 413 202 61 43 44
250 602 232 85 34 40
395 412 207 62 43 44
265 303 273 133 97 75
304 278 262 130 92 67
357 894 251 73 63 63
400 413 202 61 42 43
315 878 332 39 36 35
267 934 258 67 63 65
390 410 217 85 51 47
325 927 346 58 53 52
391 411 215 87 44 42
390 409 222 82 53 48
321 703 324 147 18 49
395 411 212 67 45 43
327 481 329 135 10 42
379 773 190 132 102 67
395 411 217 73 44 43
396 411 220 77 47 43
276 899 336 65 55 50
405 414 197 70 42 43
433 415 240 137 24 45
405 413 202 65 43 43
405 412 207 62 41 40
238 575 186 34 32 40
261 418 305 55 27 31
415 413 202 86 33 39
324 754 201 141 27 48
255 565 155 68 33 32
415 412 207 85 34 36
405 412 212 58 39 39
241 572 273 95 18 38
412 448 264 108 20 37
442 740 296 90 65 50
322 732 194 167 6 45
405 411 217 56 38 38
405 411 222 57 36 37
275 748 236 172 12 46
405 410 223 58 36 37
320 884 360 41 38 37
415 412 212 78 35 33
386 643 237 141 19 47
415 411 217 69 35 31
409 411 221 54 33 33
335 933 336 60 55 55
415 411 220 61 34 30
390 408 232 88 48 45
432 450 217 75 24 34
252 782 340 169 118 91
390 407 237 79 48 43
474 818 367 99 78 57
390 409 227 86 52 46
280 348 281 120 95 66
395 408 237 81 45 42
395 409 232 82 44 41
230 698 287 151 103 75
390 407 242 74 49 43
390 406 247 73 48 42
389 406 257 73 42 38
395 407 242 76 44 41
395 406 247 70 40 38
400 407 242 79 38 39
303 730 220 56 27 32
400 406 246 79 40 36
395 405 252 73 39 38
415 679 287 81 58 41
392 405 254 76 42 40
262 399 290 106 87 66
411 808 243 182 120 92
391 405 258 75 41 37
395 404 257 79 40 38
400 405 252 83 36 34
444 512 196 187 132 117
283 668 235 155 1 40
413 511 179 160 18 42
405 410 227 69 35 37
269 600 181 68 35 37
368 523 322 107 21 41
380 808 304 39 35 34
405 411 226 67 34 36
405 409 232 77 40 41
395 702 282 73 51 46
288 799 260 70 58 53
355 898 347 54 47 45
410 409 232 64 31 31
415 409 232 56 29 26
229 523 242 138 0 39
402 405 244 78 39 40
405 405 248 87 36 41
406 406 246 83 40 44
405 405 252 96 32 38
291 868 254 136 112 89
410 408 242 72 43 42
410 407 247 88 44 43
444 842 397 100 89 80
253 583 303 161 10 51
409 405 253 107 27 38
388 406 267 88 33 32
413 408 257 126 18 40
244 559 256 43 28 30
414 413 252 104 18 34
413 418 257 137 18 43
413 423 257 141 18 45
320 400 292 63 54 45
416 428 248 67 17 28
265 514 92 114 20 37
310 628 316 84 33 40
383 698 281 39 30 25
416 433 248 76 18 31
413 433 257 99 24 37
360 843 337 31 29 30
404 444 239 69 21 31
330 574 169 90 27 35
402 444 241 68 17 31
405 444 242 64 15 30
299 262 290 153 107 83
353 936 278 76 70 70
402 448 241 72 25 33
405 448 242 70 22 36
412 439 253 50 22 27
335 683 200 77 31 35
413 438 257 73 27 36
412 439 255 49 22 30
411 443 252 46 25 28
409 448 252 46 25 26
412 443 255 49 23 29
423 743 226 160 112 83
359 928 287 60 54 52
411 448 256 80 19 35
415 443 248 83 15 28
410 558 192 82 42 37
413 442 250 75 26 33
420 414 197 106 27 41
365 698 201 48 36 36
415 843 336 63 52 49
288 840 301 42 33 35
425 413 207 135 21 44
429 415 193 123 27 42
348 851 347 40 32 32
421 773 267 79 61 50
435 414 232 119 33 38
430 414 207 145 20 46
420 411 217 89 35 32
425 413 212 129 26 43
405 823 267 96 71 54
209 543 197 204 137 107
435 415 202 146 20 48
435 414 207 145 21 45
438 415 204 146 24 48
439 415 208 145 21 45
410 548 192 104 22 34
435 414 217 135 25 47
220 524 210 72 37 31
439 415 212 152 21 50
250 733 267 140 33 47
440 415 217 141 19 47
252 733 263 161 12 46
228 523 247 153 0 43
439 415 222 143 21 49
342 789 314 81 64 56
353 942 297 61 56 55
420 411 226 57 35 27
270 678 252 115 6 33
425 411 227 70 39 27
253 629 283 131 29 44
424 410 232 53 34 26
425 411 237 45 26 26
335 618 188 58 38 40
381 698 197 113 82 56
430 412 227 87 44 30
430 413 237 80 26 28
425 413 242 49 26 29
265 548 322 150 17 50
432 793 357 46 41 38
303 340 260 117 88 60
430 414 242 87 25 32
326 884 228 62 58 58
349 547 164 189 8 36
435 413 227 105 39 36
434 414 237 133 21 43
475 763 367 115 91 68
419 766 300 62 46 40
432 416 195 130 25 45
436 416 196 138 23 47
437 416 201 149 21 50
254 668 258 145 96 74
374 873 257 62 53 53
440 417 202 150 23 49
441 416 207 154 21 49
233 638 274 139 108 77
444 419 197 128 21 46
444 419 202 141 22 47
315 827 321 53 43 38
444 418 207 166 18 53
444 423 202 124 24 44
444 423 207 106 27 40
290 744 335 97 26 37
459 763 342 97 76 58
444 428 197 117 26 42
395 663 228 135 91 70
305 353 262 111 84 58
443 432 196 109 22 39
442 434 197 88 23 37
443 427 207 127 18 41
286 771 244 81 63 57
442 430 203 134 27 51
332 960 276 82 77 79
442 433 202 84 26 37
237 576 188 38 21 40
444 418 217 157 18 50
277 622 315 44 28 30
443 423 217 164 18 49
442 416 222 155 22 54
240 548 272 129 13 41
443 419 222 155 19 51
405 718 268 66 49 45
474 757 342 107 83 64
355 493 342 153 19 49
443 427 212 159 18 47
265 958 282 79 74 75
415 473 163 111 22 36
440 433 217 138 25 46
282 425 310 72 25 30
250 788 337 170 119 94
325 738 193 172 10 45
422 483 212 162 9 51
270 823 291 48 40 43
442 424 223 104 25 41
460 743 351 90 71 55
442 428 222 69 28 34
440 438 197 124 23 43
437 444 197 46 26 29
299 955 260 83 80 83
453 502 200 155 107 92
438 442 197 80 22 32
436 444 202 46 25 31
434 448 202 81 25 35
434 448 207 93 25 39
438 442 201 70 27 32
251 826 326 197 134 109
438 441 207 140 30 53
266 607 193 212 16 54
438 437 217 88 26 37
382 878 385 67 58 54
438 436 221 52 25 31
245 598 256 62 30 31
437 440 212 73 13 30
283 624 226 55 34 38
434 443 222 113 27 43
433 447 222 124 21 43
262 515 86 54 26 32
420 418 248 41 29 27
265 318 273 122 93 68
345 898 232 75 64 63
190 518 167 183 122 102
420 423 247 70 24 31
425 418 246 41 29 30
411 493 267 56 26 33
420 428 247 98 19 34
420 433 246 105 16 36
408 599 235 79 28 36
331 870 347 34 31 31
424 433 245 126 9 39
234 523 107 53 31 37
428 418 245 42 30 32
266 761 248 90 70 65
430 423 243 76 26 36
427 428 244 119 19 43
384 837 313 37 34 34
426 433 244 137 12 42
430 428 242 126 19 42
271 572 143 39 34 37
278 790 265 96 73 63
420 438 246 112 8 37
420 448 247 116 2 36
426 438 244 137 5 42
414 793 247 177 116 90
427 449 244 144 5 46
429 448 242 153 4 49
441 418 227 121 25 43
439 418 232 99 28 41
439 423 232 104 29 43
436 418 237 136 22 45
436 423 237 115 24 42
335 423 323 72 25 33
437 416 234 124 18 40
438 422 235 127 29 48
296 274 283 149 104 80
440 428 227 90 29 39
438 428 231 109 30 43
439 433 227 70 28 34
436 433 232 153 23 52
300 703 326 81 26 37
418 839 338 62 51 49
408 450 244 68 21 36
338 916 239 70 64 65
434 433 237 149 16 49
316 818 244 152 109 83
408 473 252 39 24 29
384 633 252 162 20 51
227 668 267 169 119 91
443 419 225 136 24 46
332 831 239 168 130 106
245 577 177 72 34 38
434 418 241 137 21 44
433 423 240 118 21 43
433 432 240 143 13 44
432 434 239 152 11 47
343 928 253 70 63 63
304 817 330 70 54 47
433 438 236 168 9 54
330 523 338 155 19 51
434 443 227 80 24 35
433 447 231 158 18 49
275 708 316 134 15 42
445 453 162 51 31 37
320 400 302 62 53 45
309 625 200 102 42 48
432 445 234 170 13 55
222 638 247 173 121 90
390 453 148 99 23 37
373 405 266 70 55 41
391 459 150 48 36 39
248 739 271 137 60 55
299 653 221 100 25 37
395 458 151 48 35 40
395 463 153 62 34 39
365 833 217 67 58 59
393 868 371 83 73 65
400 458 153 67 32 39
310 972 306 53 50 50
399 462 154 63 33 39
400 464 155 102 27 37
390 468 153 88 33 39
389 472 154 104 25 38
260 598 307 71 29 35
391 474 155 137 19 39
400 478 158 108 29 38
404 453 154 88 28 37
275 518 334 159 19 50
406 453 155 97 29 38
405 458 156 98 32 38
387 671 254 71 26 35
402 460 155 52 35 36
415 453 159 136 12 34
245 573 237 40 26 27
410 458 158 84 28 37
459 488 177 136 98 75
410 463 159 102 29 37
448 772 323 83 67 53
248 558 237 36 25 27
408 471 159 131 28 43
417 454 160 127 19 37
425 488 170 64 38 39
415 458 160 75 33 36
325 738 328 121 23 43
407 474 160 86 30 36
411 468 160 73 31 38
261 928 337 45 43 45
410 478 162 99 27 36
420 703 276 75 55 41
390 483 156 64 35 39
239 678 293 135 98 69
314 648 210 145 7 37
344 423 328 39 27 27
395 483 157 52 36 38
395 488 157 65 34 38
475 757 348 99 72 55
205 537 187 217 147 114
293 825 275 104 68 55
316 372 259 79 60 41
400 488 158 103 26 38
390 503 157 124 12 32
410 693 292 73 57 42
240 643 281 126 98 68
410 851 334 68 59 56
390 513 157 119 14 33
455 829 371 85 72 59
400 498 158 128 7 29
412 815 269 82 64 53
248 558 247 92 12 36
267 596 315 62 24 29
435 826 369 81 70 62
400 503 159 135 4 30
276 942 248 86 76 74
395 508 158 136 8 29
400 508 158 143 6 32
403 483 159 76 37 37
405 483 160 59 36 39
410 488 161 57 35 38
375 418 359 145 20 47
413 748 194 134 96 58
382 845 317 33 30 30
415 483 163 57 35 38
410 493 161 86 28 35
236 668 286 136 97 68
415 493 163 79 32 39
328 639 310 31 29 32
345 853 304 39 35 35
406 498 160 136 6 31
404 513 162 148 18 41
410 498 162 152 5 33
350 399 262 67 57 48
410 503 163 168 6 36
330 463 325 139 14 43
414 497 164 164 12 36
411 855 347 92 71 61
416 498 166 164 10 37
295 473 341 80 27 36
425 838 377 74 60 48
414 503 168 169 9 36
416 504 171 161 27 40
410 508 167 185 9 39
408 511 169 178 3 35
411 509 172 181 5 35
353 528 159 155 2 33
409 512 177 167 9 38
412 510 177 174 25 41
414 507 172 180 19 42
454 767 351 96 83 71
420 463 163 111 23 38
425 463 166 63 32 39
464 694 318 93 80 68
427 454 165 116 20 30
345 773 313 80 63 54
426 458 165 56 35 37
241 538 277 56 27 35
430 458 167 53 34 37
400 723 257 101 20 38
418 472 164 87 28 35
420 473 166 111 18 30
422 464 165 150 15 47
420 478 166 64 31 33
425 478 168 73 31 34
429 472 169 68 33 36
273 901 334 112 93 80
427 480 170 87 41 40
398 714 262 83 27 41
221 528 152 74 34 37
345 631 194 63 40 42
414 773 247 159 107 78
430 478 170 74 40 36
435 453 166 147 17 38
330 948 326 56 51 50
228 545 156 157 21 51
310 667 319 103 25 39
440 463 168 77 53 44
438 463 170 52 35 36
442 452 164 52 32 36
331 788 323 82 64 55
444 455 165 96 20 37
335 723 322 119 23 43
446 453 177 68 32 35
444 458 166 114 23 38
355 833 304 35 32 32
447 462 164 119 27 39
241 658 286 136 101 71
438 455 190 108 34 43
378 877 274 65 57 56
238 534 112 51 31 33
443 450 180 75 23 31
445 458 187 111 73 62
275 823 332 195 138 114
443 460 191 69 34 32
445 462 192 86 63 48
448 511 182 184 124 103
436 473 168 98 73 50
354 623 296 65 33 38
432 465 170 43 35 35
376 638 267 162 14 51
432 468 170 41 36 37
210 514 161 121 68 61
418 527 229 140 16 40
458 701 327 88 76 64
434 472 170 61 42 33
436 469 169 82 61 43
446 784 333 65 52 44
435 478 167 108 79 54
337 950 319 64 60 62
450 443 153 47 37 41
444 478 169 84 48 41
446 479 170 77 34 34
275 963 287 66 63 63
420 483 166 48 38 38
419 484 164 47 36 40
325 944 251 90 81 84
322 524 140 183 10 41
364 405 302 69 49 41
419 488 164 52 39 40
358 516 159 134 33 46
439 757 293 91 64 49
421 488 167 54 40 41
270 954 323 58 54 53
450 768 322 88 71 55
345 603 308 177 19 58
418 492 164 52 36 41
417 495 165 136 24 46
429 488 167 86 64 44
295 758 232 79 63 56
263 851 294 146 99 81
431 484 168 80 59 40
426 483 170 68 39 40
429 482 170 59 36 33
330 541 335 175 22 58
426 493 168 96 65 48
420 498 170 87 34 35
400 808 186 151 106 67
423 498 170 102 59 48
424 503 167 129 88 67
422 504 169 128 75 57
367 826 299 33 30 29
302 285 264 135 94 71
258 585 180 105 38 43
427 500 164 138 98 75
301 549 132 177 1 42
427 503 164 145 105 81
430 498 163 151 107 83
427 512 164 178 126 101
414 578 232 159 17 50
430 508 164 166 118 91
430 512 164 179 129 102
250 673 259 143 96 73
418 513 181 92 25 34
295 633 316 101 32 45
435 485 164 119 92 65
365 878 222 97 80 71
269 943 256 77 69 68
438 488 164 110 86 61
376 827 203 212 154 127
327 798 224 66 53 51
439 493 163 91 70 47
260 888 313 131 98 81
444 483 169 68 36 31
450 857 374 109 92 78
325 400 292 61 52 44
324 882 241 55 52 53
442 487 170 70 44 39
440 498 163 117 89 59
440 503 163 165 114 90
213 558 217 166 119 89
397 606 239 56 21 27
435 508 164 172 119 91
270 393 293 111 89 65
287 710 325 133 14 43
287 840 287 66 58 55
434 511 164 172 119 90
488 827 403 99 84 73
440 507 164 182 123 99
441 509 165 188 126 103
345 933 262 80 73 73
440 513 167 186 125 99
295 598 187 213 15 44
446 504 166 198 131 109
443 512 168 197 132 110
446 509 171 199 135 112
444 513 172 197 134 110
446 513 177 200 132 110
395 692 190 130 95 57
369 593 291 126 23 47
401 453 238 61 24 27
404 454 239 58 19 27
383 448 332 170 15 48
401 457 238 71 25 37
401 453 241 61 25 26
406 450 245 60 25 35
402 458 241 54 25 29
219 557 223 134 105 80
405 463 243 54 26 31
251 948 312 62 60 63
265 828 327 189 129 104
430 839 357 77 62 51
350 528 157 158 1 34
405 463 247 52 28 30
383 666 205 114 86 64
407 460 252 37 30 28
405 703 191 141 97 60
388 658 200 126 94 67
448 482 170 67 35 31
406 463 252 60 28 31
317 565 165 62 36 34
415 453 247 87 12 29
415 463 246 67 23 30
396 698 252 107 16 37
406 468 243 45 27 27
405 468 247 61 26 31
406 472 246 58 26 30
406 468 252 52 27 31
407 471 251 40 28 30
305 823 257 156 117 90
342 783 209 90 72 64
414 468 244 41 29 31
416 468 246 37 26 28
307 777 234 86 67 58
408 468 254 51 27 30
410 468 257 54 24 29
410 478 243 56 25 32
263 610 201 204 12 52
263 945 265 74 70 70
416 478 246 40 25 29
455 697 311 105 78 52
443 788 336 78 59 51
248 557 228 42 25 26
411 478 257 109 21 38
280 959 318 64 59 59
415 483 247 60 23 31
335 808 222 64 54 54
411 483 256 116 15 40
412 488 252 129 15 42
412 487 255 120 14 38
412 486 249 122 18 35
413 749 235 142 94 73
413 489 250 131 17 46
413 493 252 137 15 44
401 717 239 119 30 41
412 491 252 139 14 46
413 493 257 147 16 46
345 688 311 132 14 41
416 498 248 67 23 32
240 587 248 58 35 30
413 498 257 156 16 48
238 524 231 117 5 38
413 503 257 163 19 50
250 643 283 117 88 63
416 508 248 40 26 28
343 914 213 83 80 81
299 323 262 120 90 62
350 708 191 106 20 27
415 513 247 44 25 29
413 508 256 96 25 39
413 512 255 51 29 28
357 565 319 186 16 57
431 453 202 51 23 31
431 453 207 38 28 30
431 459 198 61 23 29
407 858 380 93 80 69
292 308 269 128 93 67
430 463 197 91 23 34
427 460 207 123 17 45
250 653 288 129 95 72
425 518 212 80 28 38
285 804 339 182 129 102
427 463 202 99 20 36
325 400 302 60 51 44
265 643 261 125 23 38
373 886 355 61 50 48
427 460 212 108 18 38
426 463 212 143 21 48
426 728 306 46 37 30
357 930 308 48 42 40
426 463 217 117 19 41
301 835 319 54 45 42
397 447 279 141 9 43
420 778 326 58 48 39
428 457 217 137 19 46
428 458 222 125 23 46
428 462 223 79 21 35
357 903 260 72 64 63
427 468 199 110 17 40
254 948 292 73 68 67
426 468 202 77 19 31
425 468 207 110 23 42
439 748 288 90 64 50
312 851 305 102 73 54
426 473 203 127 17 43
347 870 310 34 32 33
415 708 271 70 54 44
430 473 201 112 14 35
425 478 207 116 16 41
245 547 112 174 15 47
430 478 202 117 9 36
424 468 217 141 18 49
371 513 322 73 24 34
266 538 326 147 19 50
423 472 217 164 12 52
341 604 309 138 21 48
424 468 222 119 19 41
422 478 212 165 11 52
423 476 210 159 18 48
390 683 237 65 28 36
422 479 209 163 13 52
423 477 223 150 17 45
349 839 236 171 132 107
433 451 201 96 29 40
335 633 306 75 28 35
432 450 208 28 30 33
435 458 196 98 54 53
265 338 276 123 96 68
439 783 312 74 58 48
436 457 194 111 80 70
442 461 194 98 73 55
444 464 196 117 88 67
432 450 212 34 25 30
434 466 199 69 26 30
435 469 201 94 59 54
252 757 273 95 40 45
370 493 341 47 28 32
420 733 227 156 110 82
439 469 201 96 64 57
367 826 209 196 148 122
275 903 342 37 34 35
363 405 297 66 48 42
419 813 302 68 54 49
440 473 202 109 74 63
440 478 203 105 58 55
444 474 201 84 50 43
445 478 202 115 86 67
249 603 262 62 24 30
368 683 290 40 25 26
431 453 232 163 18 53
429 463 227 66 27 34
280 593 324 98 25 41
242 526 79 136 3 22
429 463 237 153 15 50
425 453 246 136 7 42
420 458 247 103 8 33
420 463 247 69 21 29
450 768 347 92 76 62
230 638 238 184 123 91
424 463 246 97 18 36
383 458 322 167 13 50
427 458 243 152 11 47
413 479 265 154 18 45
422 479 225 165 17 48
425 468 227 94 25 39
391 543 288 137 25 48
259 323 269 125 97 69
304 572 157 163 2 38
427 465 226 94 22 40
427 469 230 123 27 44
425 473 227 86 23 36
427 473 231 137 21 48
273 940 339 73 66 64
270 343 279 119 94 66
240 663 252 184 131 106
389 577 189 44 32 38
428 468 232 89 20 35
378 653 266 146 13 45
427 470 239 171 12 52
427 474 237 168 15 51
407 742 238 103 70 55
428 468 237 163 15 51
414 713 227 145 105 75
427 478 237 167 13 51
420 473 247 38 25 27
267 675 305 39 26 27
424 473 246 79 23 34
420 478 247 48 24 26
424 478 246 108 21 37
427 468 242 152 14 48
434 793 347 85 78 71
428 468 240 169 11 53
426 478 242 157 11 48
248 549 298 53 25 30
365 748 197 108 16 31
432 450 227 80 20 31
387 879 287 76 64 61
430 483 202 130 10 41
409 703 193 141 97 62
232 614 265 129 99 71
429 489 206 131 12 38
429 493 206 116 19 42
456 483 192 153 108 90
310 488 337 151 12 47
424 493 211 130 11 41
421 493 213 145 12 42
440 747 297 94 65 48
431 503 202 103 26 41
325 833 243 151 122 97
386 478 307 129 21 45
429 503 207 56 27 32
427 509 208 43 28 30
349 762 315 69 52 46
227 671 264 187 128 99
427 513 207 47 27 30
428 508 207 72 27 34
240 584 246 59 32 27
410 869 377 90 74 63
234 703 271 171 114 83
419 503 216 136 18 44
244 814 329 182 126 100
421 498 214 133 15 43
232 517 107 94 22 37
421 809 357 43 37 34
421 502 214 99 22 38
425 503 212 68 26 35
417 499 218 150 17 47
280 534 101 151 22 45
319 804 236 177 124 101
417 499 221 56 21 32
418 497 223 74 22 35
417 503 218 157 18 48
422 508 214 37 29 32
417 513 218 129 22 47
402 825 338 48 39 36
416 513 222 151 17 46
420 827 368 61 51 42
285 448 327 78 29 35
427 496 209 64 15 29
428 498 210 47 24 27
325 418 321 105 16 36
428 801 349 63 54 47
428 503 210 50 28 32
230 528 132 168 0 43
408 822 258 96 70 58
437 488 199 118 12 42
256 578 177 64 32 37
439 488 199 74 16 26
420 723 270 50 42 38
435 483 201 97 9 31
440 483 202 68 31 32
274 611 198 48 35 38
436 493 199 86 11 29
233 534 131 168 3 42
268 890 260 167 125 99
440 493 199 58 25 27
453 430 172 73 27 34
442 492 200 59 30 31
232 532 133 168 3 44
367 553 164 141 0 30
317 723 199 150 0 42
435 503 199 61 26 28
454 435 159 71 35 31
249 583 247 47 26 29
236 547 253 132 4 38
353 891 238 65 56 59
440 498 198 61 38 36
435 508 199 102 59 54
432 768 300 96 75 51
432 510 199 111 68 56
323 516 108 61 27 32
431 514 199 114 70 64
385 412 342 69 59 48
440 510 199 150 116 102
418 806 226 190 126 95
275 820 334 193 136 109
455 863 402 96 81 68
440 513 197 168 125 111
264 298 274 138 100 79
309 542 122 116 22 42
442 498 200 69 40 34
386 707 283 64 32 29
445 498 201 110 68 62
445 503 201 136 96 85
306 862 308 73 61 49
378 607 276 108 19 42
446 509 198 177 125 112
302 549 127 168 5 42
295 840 313 49 40 36
445 513 192 193 135 117
467 760 357 105 84 61
296 794 339 96 71 58
445 507 200 158 116 102
423 483 228 87 18 34
421 488 226 76 23 34
423 492 229 62 26 32
424 493 232 89 27 37
422 494 230 118 32 52
427 483 237 164 14 51
418 786 278 69 52 44
420 483 247 79 23 34
375 883 367 73 62 55
231 773 302 165 115 81
420 488 246 44 27 27
424 488 245 98 25 39
270 298 276 139 100 78
420 493 246 39 25 28
290 328 271 120 92 60
423 493 245 74 27 33
425 493 242 93 24 38
420 498 227 42 26 30
413 688 202 154 103 73
422 498 230 117 22 42
423 503 233 97 26 40
423 508 233 50 27 32
262 845 282 151 117 90
444 738 328 63 51 39
425 503 237 69 29 32
290 948 337 69 64 63
290 773 243 82 63 57
424 508 237 64 27 34
420 498 246 84 24 35
420 503 246 94 19 36
457 436 161 80 34 38
424 503 242 66 27 32
283 928 240 71 62 63
423 513 241 101 24 38
450 435 158 79 38 34
450 437 156 69 35 38
417 768 294 74 56 49
450 439 153 48 39 45
460 737 356 95 76 59
455 439 153 87 36 44
455 443 153 106 35 43
450 448 153 70 33 36
448 449 155 70 33 37
378 851 321 33 32 33
454 448 153 115 26 42
458 443 157 103 28 44
375 882 362 64 54 53
267 612 310 54 30 32
450 433 162 68 34 35
450 429 168 65 34 39
448 430 164 53 42 39
451 431 166 63 32 43
450 427 172 80 33 38
398 821 314 34 31 32
448 425 178 96 33 41
423 583 179 155 106 71
453 430 169 73 33 38
455 433 172 86 26 37
448 424 182 102 30 40
426 583 182 154 106 72
455 434 162 70 33 37
452 435 174 60 27 29
291 782 249 83 65 57
449 438 176 63 24 30
455 438 171 95 26 38
436 798 307 84 65 62
448 442 175 139 33 51
450 448 172 93 26 39
454 443 170 50 25 31
230 553 172 109 23 42
458 435 164 96 30 46
458 434 167 105 27 46
410 613 181 137 98 61
459 438 162 109 26 40
459 438 167 116 27 43
360 403 317 56 48 41
320 616 189 56 34 38
381 558 293 84 26 37
254 830 311 203 132 106
295 828 326 61 50 47
457 440 169 88 26 37
260 453 316 67 25 31
458 436 170 130 18 44
458 442 166 69 28 34
457 449 162 99 30 41
216 527 169 148 87 75
458 447 162 116 27 45
454 452 157 86 32 40
373 878 267 59 53 56
280 412 304 89 15 27
453 456 159 66 39 30
336 908 233 75 69 70
341 554 165 136 27 43
334 775 210 86 68 60
455 453 162 79 33 40
450 453 172 45 27 30
430 833 352 75 59 50
408 862 320 62 54 52
448 454 176 77 54 49
379 410 292 63 40 39
452 450 169 128 26 42
452 452 169 77 26 39
450 459 161 79 33 38
360 533 163 81 26 33
434 813 369 80 69 59
451 463 165 79 35 37
286 673 316 38 28 29
454 457 162 80 32 36
292 906 245 86 61 38
454 463 168 79 53 42
452 457 173 64 43 36
450 457 177 91 69 54
385 407 262 77 40 34
453 459 177 99 76 57
456 463 177 107 86 65
452 461 184 124 100 77
450 468 166 95 35 39
262 528 97 124 13 40
455 468 168 110 79 59
221 518 147 46 33 34
448 479 170 71 32 35
325 703 196 110 15 27
459 469 169 116 86 64
304 687 216 50 32 36
459 468 172 123 95 71
409 759 262 72 37 41
458 465 174 119 97 74
458 465 177 105 85 64
459 468 177 109 86 64
357 753 309 132 11 42
263 955 280 77 73 74
224 638 262 156 110 82
387 670 199 119 91 61
460 473 172 163 114 98
429 798 336 75 66 60
460 473 177 139 99 85
460 478 172 170 119 101
460 478 177 146 104 88
285 613 320 104 29 41
451 467 192 88 67 52
453 470 192 81 60 44
325 589 170 192 8 44
435 773 343 66 53 41
458 493 169 169 108 88
457 495 170 212 136 123
456 473 188 116 75 68
271 831 298 48 37 43
457 466 183 111 87 63
269 653 252 138 6 36
459 468 182 125 93 73
460 478 182 158 113 95
418 643 187 165 112 81
441 728 331 61 48 37
457 478 188 117 77 68
391 608 247 114 23 42
233 565 182 53 31 31
458 478 185 162 124 108
360 407 338 78 36 37
455 483 166 126 95 66
279 774 250 84 64 57
454 488 164 134 102 76
456 488 166 139 102 78
235 618 268 125 96 69
454 493 164 154 107 84
273 721 319 127 13 40
456 493 166 160 104 84
237 692 264 161 107 75
458 483 168 148 103 81
459 483 177 142 101 83
458 493 172 177 118 100
229 523 132 166 0 42
460 483 182 159 114 95
457 483 188 126 85 75
458 483 186 157 117 103
457 487 189 133 100 79
406 692 229 145 101 75
325 723 326 94 27 38
458 493 187 150 108 86
275 533 101 215 15 53
347 409 330 44 26 30
263 284 279 150 104 82
441 799 370 86 74 63
452 500 166 209 136 117
274 668 247 137 5 38
450 503 167 208 138 115
442 813 365 94 79 63
240 718 317 141 103 76
453 496 164 192 123 105
250 663 255 150 101 80
454 498 167 214 139 122
253 600 299 64 20 28
348 942 311 49 45 44
454 503 177 198 133 109
450 508 177 198 133 110
357 900 260 70 63 62
452 505 177 197 132 109
224 555 195 187 120 93
458 496 173 197 128 112
371 633 277 91 23 36
458 497 177 186 122 99
455 503 187 191 129 110
451 508 182 186 127 107
221 578 241 132 104 76
453 506 182 188 131 111
448 511 191 187 128 108
231 668 277 133 94 66
453 506 192 189 129 113
457 499 182 202 139 119
457 499 187 177 119 102
255 618 237 134 28 38
271 850 269 104 86 67
458 497 187 152 103 79
458 496 190 150 106 85
306 569 152 147 24 45
365 404 327 61 51 44
449 469 196 121 96 74
460 794 375 91 80 69
300 401 302 75 60 49
350 538 335 113 30 46
309 803 246 190 132 106
266 898 263 161 118 92
450 473 197 118 86 71
362 423 345 127 17 41
453 473 196 135 98 80
250 593 267 76 22 34
450 478 198 101 67 59
286 362 284 118 93 64
454 478 196 154 111 97
418 807 217 176 115 85
449 483 201 122 88 74
