ply
format ascii 1.0
comment Created by Open3D
element vertex 2209
property double x
property double y
property double z
property uchar red
property uchar green
property uchar blue
end_header
405 624 313 112 64 55
233 638 186 158 108 73
176 524 165 174 118 96
442 700 239 58 44 29
169 526 168 177 111 88
160 525 180 193 128 112
162 528 186 194 131 117
163 527 190 176 124 111
457 828 262 80 68 63
167 528 191 178 125 108
336 778 183 69 55 50
168 531 177 240 154 133
208 568 200 168 115 94
230 643 196 171 119 91
290 921 259 64 60 62
172 532 176 238 157 133
165 530 181 233 153 136
167 531 186 220 147 128
294 956 305 54 50 51
177 534 181 225 149 126
425 619 303 81 65 46
172 533 186 220 147 125
177 534 186 216 145 122
299 746 179 122 96 65
177 534 191 208 142 121
178 518 163 134 106 79
207 523 210 106 0 30
317 959 316 66 61 60
182 518 162 117 92 66
379 515 342 40 30 27
178 523 163 153 110 81
282 568 266 83 22 33
191 526 163 232 156 146
302 838 211 126 66 63
182 533 176 227 148 128
187 530 170 230 151 132
483 793 252 119 90 66
439 549 283 116 25 43
192 531 172 230 153 132
184 536 182 225 148 125
292 933 332 59 55 56
183 536 186 218 145 121
183 536 191 209 140 117
187 535 180 227 148 125
427 868 261 70 60 59
192 535 179 226 147 122
230 550 174 155 34 58
187 536 182 228 148 124
187 537 186 222 147 120
424 594 245 116 28 44
168 518 195 163 114 98
168 523 195 139 87 75
170 519 198 165 115 103
177 518 201 151 115 101
362 963 296 62 59 59
171 523 197 167 116 99
172 528 196 167 117 100
177 528 200 181 126 108
177 532 196 195 136 117
176 530 198 183 129 111
181 518 203 122 90 81
232 608 180 151 109 71
183 518 204 128 59 66
184 523 204 166 123 110
192 514 204 92 0 25
283 606 188 66 32 32
192 518 206 108 2 32
188 527 204 182 133 119
192 523 207 160 34 62
192 528 206 167 107 101
456 738 292 136 104 70
179 531 199 184 128 110
183 531 200 186 129 110
440 603 331 161 113 80
184 536 194 204 140 117
307 718 195 98 22 28
193 537 200 182 123 103
194 517 164 104 75 54
194 524 165 193 132 119
202 518 171 81 34 38
442 743 251 46 34 31
255 696 213 165 120 98
200 521 168 136 109 84
202 523 170 146 113 92
407 728 320 127 75 66
197 531 172 235 160 141
197 538 181 218 143 120
243 561 173 201 10 40
196 540 184 216 140 116
362 693 322 139 11 42
379 929 317 51 45 43
194 541 188 222 142 120
360 835 209 85 63 54
197 542 186 206 133 110
194 541 191 210 137 112
368 882 293 38 34 32
202 538 181 202 135 111
429 819 234 66 54 50
203 543 183 179 116 94
221 514 170 111 23 39
252 673 186 144 101 65
206 539 179 174 116 94
431 578 281 158 7 47
208 537 178 168 117 95
361 763 193 63 52 51
207 543 180 176 116 92
258 598 205 42 32 31
446 872 292 78 64 59
212 523 172 75 30 35
212 529 175 110 55 55
402 588 335 131 24 45
215 524 173 49 35 32
436 797 208 87 66 49
223 517 171 137 17 42
229 616 183 156 109 74
221 518 175 56 26 30
223 522 177 42 33 31
212 533 177 124 84 70
216 533 175 73 42 39
349 888 308 53 46 39
222 530 173 46 38 38
222 533 171 69 33 38
217 538 176 114 50 48
222 538 171 127 21 35
222 543 176 104 38 42
209 542 178 161 108 82
290 916 264 99 82 66
400 906 267 70 61 62
217 543 178 136 94 77
199 547 192 190 122 97
438 538 231 98 30 41
207 548 181 190 127 105
202 553 191 172 111 84
434 609 343 176 122 92
206 553 185 174 113 88
204 558 191 174 115 88
205 559 190 170 111 84
322 847 266 97 72 50
206 563 191 172 113 88
361 917 222 68 62 63
208 568 191 173 115 88
242 583 202 77 35 34
292 823 185 194 132 102
210 545 179 178 119 97
213 547 178 174 119 95
293 594 184 118 25 39
216 551 178 164 114 87
217 553 179 159 110 84
212 558 182 169 113 86
220 545 179 116 73 57
222 548 179 121 79 63
392 864 351 44 37 33
224 547 177 84 48 39
425 612 271 147 19 46
211 563 185 161 108 78
209 567 188 164 108 81
226 608 185 159 109 75
216 565 184 159 111 78
476 744 238 78 64 49
352 886 203 78 67 64
217 568 184 161 111 78
212 573 187 163 109 81
205 560 198 173 118 97
210 570 190 167 111 84
216 573 184 161 109 78
222 563 181 152 109 78
487 800 265 84 72 60
222 568 181 157 110 79
311 538 288 134 4 40
219 573 183 159 110 79
257 517 158 61 29 36
459 778 240 72 59 49
252 523 160 87 25 34
257 523 159 68 33 37
232 519 165 67 34 34
347 683 201 80 31 33
353 758 189 93 39 40
392 728 325 178 12 56
233 523 167 92 28 37
428 733 251 57 29 28
227 528 175 60 26 34
427 874 341 56 46 39
232 528 171 65 32 33
297 837 206 194 129 97
236 520 164 78 28 30
238 522 163 116 28 37
387 881 291 31 30 31
231 529 174 88 27 39
402 877 286 39 37 37
227 543 171 122 27 41
239 531 168 106 18 39
342 737 320 172 19 57
242 523 162 93 26 36
312 747 290 41 36 36
243 526 163 95 18 33
412 708 326 161 115 93
242 528 165 123 15 37
247 523 161 104 26 38
429 736 248 39 28 33
247 528 162 120 23 37
242 534 170 103 15 35
450 821 253 82 65 60
240 535 174 145 2 39
277 733 241 166 1 49
247 535 169 178 14 49
243 536 172 104 15 30
242 543 176 100 9 28
257 539 166 141 7 35
252 538 171 188 6 39
255 540 169 188 9 45
397 598 221 45 35 40
242 558 172 180 7 41
256 543 170 185 9 44
247 543 177 147 6 35
247 608 182 133 99 64
484 784 248 98 69 48
232 548 172 178 7 41
473 870 311 81 67 61
421 877 257 64 54 55
247 628 212 144 111 92
228 552 177 88 30 32
237 548 171 127 4 28
237 553 171 128 15 35
238 562 177 132 20 39
357 523 163 140 5 34
227 568 181 138 100 70
346 713 327 144 13 45
347 978 281 69 65 68
232 563 182 112 74 53
232 568 182 124 87 60
449 804 275 52 36 27
235 560 180 88 33 38
290 878 296 150 109 91
237 569 184 106 57 43
248 588 235 138 14 47
240 545 173 107 0 30
382 518 358 55 24 29
348 824 200 76 62 56
382 793 307 61 53 51
243 548 175 110 2 27
245 554 173 121 0 26
246 558 173 141 4 32
248 558 174 126 0 28
258 548 171 179 5 41
216 583 202 167 115 92
252 553 176 122 0 27
310 696 293 71 16 23
252 558 175 117 0 27
257 558 175 130 0 31
242 563 175 201 17 51
252 563 174 135 3 27
361 967 266 86 78 81
257 568 175 134 1 28
349 900 353 61 54 50
443 850 327 51 43 37
242 568 181 128 14 36
435 811 238 65 53 47
517 843 301 90 76 65
242 573 186 93 34 37
243 575 189 130 51 52
221 523 213 129 2 38
330 620 308 36 28 32
451 717 247 52 43 34
245 574 185 47 31 33
197 518 207 100 0 28
202 518 207 111 1 31
194 524 209 156 10 49
330 743 307 136 29 53
197 528 211 158 23 57
198 520 209 101 0 24
202 520 209 104 0 29
337 973 257 88 85 90
382 588 205 93 34 41
202 523 211 101 3 28
208 521 208 117 2 36
207 529 214 51 21 29
195 530 207 152 89 87
291 955 301 58 56 57
195 535 203 187 131 112
195 540 198 177 114 96
434 653 305 129 99 66
466 721 234 76 59 39
197 543 196 183 119 97
284 653 244 68 23 35
198 543 200 166 110 90
203 542 205 156 110 94
203 533 215 72 25 31
207 539 211 67 40 39
208 538 215 54 29 30
208 541 209 74 46 42
344 846 283 111 86 62
212 523 210 121 3 36
212 527 212 69 12 25
217 527 213 118 0 34
212 529 214 50 21 26
299 962 291 76 72 72
212 533 217 68 15 30
217 533 216 105 2 31
429 523 209 140 14 38
210 538 217 55 26 30
364 795 199 68 55 50
217 544 211 48 26 30
217 544 208 46 25 28
217 543 222 54 25 30
462 753 262 59 49 40
218 536 218 99 9 28
222 537 217 105 5 34
287 781 173 166 111 79
222 539 220 97 10 31
322 849 262 99 79 57
448 875 326 63 54 51
222 543 222 72 19 29
202 548 201 166 115 95
204 546 204 159 114 96
203 558 196 177 119 96
277 583 179 116 8 25
204 557 200 168 115 93
204 561 196 179 123 99
206 563 196 180 123 99
377 648 220 62 31 31
378 885 306 31 29 31
212 548 206 103 66 58
217 548 206 58 31 31
411 622 247 87 32 38
332 703 312 61 24 31
210 560 203 156 111 91
209 556 204 152 107 88
348 835 204 60 51 52
215 545 215 50 28 32
471 738 260 59 45 34
220 545 208 91 24 40
221 549 215 89 22 37
212 568 202 162 112 92
397 653 307 49 35 34
237 618 180 149 107 68
217 563 205 128 90 74
212 573 201 167 115 94
216 573 203 161 114 93
437 643 316 159 110 79
223 563 203 102 55 51
376 775 313 66 59 58
221 563 204 113 70 60
222 568 204 122 82 68
224 572 203 122 81 68
227 528 215 100 10 34
234 528 219 99 17 36
237 528 221 53 26 28
337 818 192 81 64 58
227 543 221 95 7 31
397 713 320 138 23 45
546 842 296 100 85 74
232 543 221 116 1 35
259 613 189 115 85 59
234 533 219 106 6 34
237 533 221 52 22 27
217 578 185 160 109 76
237 543 222 106 9 35
384 858 273 34 29 27
240 523 223 44 26 31
240 533 223 45 28 27
240 544 223 71 8 25
427 603 347 179 125 96
248 517 230 91 17 35
252 528 231 145 0 44
242 543 225 61 20 29
297 923 337 48 44 45
247 543 227 115 5 37
248 533 230 124 3 38
435 881 277 91 74 66
252 533 232 145 0 44
249 538 229 135 2 41
249 542 229 141 0 42
417 593 236 64 35 40
312 539 164 97 26 35
327 946 329 71 67 66
252 543 231 146 0 45
257 538 236 146 0 44
304 633 284 56 26 32
257 543 236 147 0 45
232 552 200 76 15 32
379 896 229 70 63 64
351 976 286 69 67 69
226 545 202 55 25 29
322 618 196 161 8 39
226 545 204 75 25 32
279 946 292 75 71 72
451 813 290 94 61 44
227 553 201 57 16 30
512 846 292 117 93 77
231 549 206 69 22 35
237 567 198 96 9 34
227 558 200 75 25 33
298 963 271 79 76 78
232 558 198 79 18 32
233 553 198 113 12 45
236 558 198 68 22 29
383 538 185 138 10 35
236 554 206 151 13 50
232 553 211 155 1 48
413 673 295 49 41 37
229 546 223 102 3 30
231 648 196 178 124 98
232 558 216 155 0 49
440 723 324 170 111 81
225 555 220 88 22 44
332 959 317 86 83 84
252 638 182 154 107 70
255 713 213 174 122 99
355 739 328 182 11 58
372 598 323 106 24 42
434 741 256 48 33 28
313 688 295 42 27 30
224 556 222 89 24 45
235 554 209 164 0 53
236 560 214 159 0 46
230 564 199 98 49 45
242 553 227 115 0 36
272 663 188 138 97 65
232 568 200 100 47 47
227 568 202 109 61 56
227 573 203 117 72 64
232 573 201 108 62 56
237 563 197 75 18 32
417 548 205 127 19 39
239 562 204 34 19 32
233 562 217 156 0 49
327 793 182 82 64 54
392 673 310 75 24 33
465 856 338 79 65 58
237 568 221 154 0 47
431 618 311 117 91 61
239 566 218 157 0 53
239 571 223 154 0 49
367 573 331 168 11 54
331 936 334 61 55 53
387 862 273 31 29 30
240 560 207 162 20 60
443 738 210 68 52 47
240 565 198 90 27 32
343 768 300 81 65 58
246 569 207 130 22 46
414 865 239 64 54 49
242 564 215 167 0 52
282 708 226 90 24 37
243 567 217 165 0 54
242 572 222 152 1 48
250 574 211 60 21 34
312 972 261 90 87 90
227 548 225 67 17 29
232 553 227 111 2 33
227 558 226 73 25 36
455 731 205 78 58 42
231 555 229 118 3 36
237 549 224 111 0 30
237 557 228 114 0 33
488 847 288 113 88 63
231 563 226 150 9 48
304 854 286 119 82 68
237 563 230 130 0 39
234 567 230 173 5 55
347 934 230 83 75 76
442 558 261 172 16 45
452 834 280 80 67 54
238 572 230 166 9 52
234 572 228 156 13 48
246 553 228 121 0 34
332 748 185 118 21 31
355 538 308 77 26 33
242 559 230 113 0 33
245 556 228 116 0 36
467 758 265 56 43 32
252 553 231 135 0 41
254 547 234 150 0 48
409 648 261 148 20 47
257 548 236 151 0 47
255 550 233 149 0 48
327 803 270 170 126 108
252 558 232 122 0 36
242 568 232 127 0 38
458 772 241 85 66 55
296 835 217 181 133 111
246 563 233 115 0 35
357 948 242 84 76 77
248 564 234 115 0 35
242 573 231 146 1 44
429 608 310 108 85 58
389 886 297 32 31 31
242 572 234 128 2 35
250 561 233 116 0 37
252 563 235 117 0 34
257 563 237 127 0 37
424 710 213 62 50 44
252 573 237 97 8 33
254 574 239 105 14 40
214 577 187 164 111 81
217 583 186 165 112 79
401 668 307 57 36 33
215 584 191 182 122 93
409 836 289 41 34 32
222 578 181 157 111 77
220 580 184 159 110 76
430 567 237 176 19 47
223 593 183 154 107 70
387 813 196 62 50 46
268 773 182 158 107 72
216 588 191 180 121 92
472 790 261 82 61 45
218 593 191 177 119 89
402 878 361 85 70 59
221 593 185 161 109 75
429 870 303 47 40 37
224 598 183 157 109 73
219 596 188 173 116 88
219 597 191 176 118 90
448 733 207 101 70 54
220 599 191 173 117 87
435 552 237 96 26 36
224 603 204 161 115 91
291 648 215 122 15 35
227 583 182 151 107 71
232 578 181 136 100 67
227 588 181 149 107 71
236 583 182 129 96 60
238 583 185 124 90 56
237 593 180 135 101 63
227 603 182 155 109 72
232 603 180 150 107 70
237 603 179 142 104 66
237 608 179 146 107 68
467 775 269 57 45 37
440 598 327 166 120 86
392 893 336 64 55 51
243 577 189 111 48 44
246 579 189 112 43 44
243 592 203 99 61 53
244 582 189 96 62 42
242 588 186 123 88 53
291 703 282 136 7 43
248 587 189 104 56 42
394 885 343 62 51 42
364 643 214 125 4 30
257 578 177 197 13 42
398 668 235 75 31 30
257 583 181 151 6 38
297 588 286 143 1 44
251 580 185 111 35 42
496 790 256 88 68 55
230 620 184 157 109 78
315 658 293 43 28 29
252 582 186 100 20 33
256 584 185 170 5 42
250 590 188 113 47 43
347 893 205 78 69 66
415 679 257 104 23 36
256 589 190 118 15 35
242 598 180 132 99 63
302 863 296 116 71 72
490 841 322 64 46 42
247 598 182 126 94 60
242 603 180 135 100 63
247 603 182 130 98 64
252 598 186 121 77 51
392 913 311 58 51 48
365 571 188 185 8 44
254 596 189 111 55 48
257 598 191 99 39 35
256 599 188 119 57 42
249 606 184 129 97 61
257 603 187 118 69 47
254 718 206 178 121 96
332 948 237 92 85 88
229 613 182 155 109 73
276 623 241 77 28 34
232 618 181 155 109 73
319 525 289 97 0 24
233 623 182 158 110 74
224 616 191 173 119 89
228 623 187 160 108 77
323 752 290 75 60 54
229 638 192 170 117 86
230 638 190 162 111 78
233 627 183 158 111 72
426 806 211 67 56 50
475 855 309 105 83 62
409 700 324 151 106 87
411 738 322 161 113 93
238 638 183 163 111 73
242 613 179 143 106 68
247 613 181 136 101 65
247 623 181 143 103 65
251 613 182 131 99 63
253 613 184 127 95 62
252 623 181 137 101 62
255 619 183 130 99 63
257 618 186 123 94 60
257 703 216 164 119 98
242 628 181 150 105 66
247 613 210 121 91 74
453 734 259 42 34 29
242 633 181 153 106 67
247 628 181 148 106 69
247 633 181 153 108 69
385 631 314 183 10 58
432 783 328 173 127 96
242 638 182 157 108 69
367 883 331 35 34 34
252 628 181 142 103 65
257 638 183 143 104 65
212 578 196 180 121 100
317 928 340 73 68 67
214 581 200 170 114 93
424 710 204 76 56 45
402 843 276 31 28 29
365 961 295 60 56 55
215 584 196 181 122 97
222 583 204 151 110 88
220 593 203 161 114 87
443 753 220 65 51 43
223 593 204 159 114 90
219 597 196 175 120 95
432 520 373 202 138 104
221 598 201 168 118 93
223 598 204 160 114 90
434 520 308 53 10 23
222 603 201 167 118 94
224 612 200 167 118 92
427 808 226 62 51 50
228 576 203 118 76 64
227 578 206 119 80 66
227 583 207 130 90 74
232 583 205 113 74 61
259 743 201 176 118 91
227 593 206 150 110 89
232 593 206 130 94 76
237 578 201 90 42 41
386 684 314 49 28 30
237 583 203 101 61 50
235 583 205 109 69 57
367 884 350 53 45 41
237 588 203 109 73 61
380 537 183 75 29 34
233 581 221 125 63 59
232 598 207 139 104 85
227 603 206 156 113 89
327 974 297 65 61 62
232 603 208 149 110 90
232 608 208 156 115 92
229 592 210 137 101 83
448 736 208 95 71 57
237 601 208 129 97 79
397 693 311 104 5 30
234 608 209 152 113 92
415 523 358 111 76 66
237 608 209 141 107 87
247 578 200 41 27 27
453 850 307 86 73 61
247 583 200 64 24 30
327 964 251 93 89 94
332 688 198 55 33 36
341 578 312 124 4 38
242 588 202 91 49 45
251 578 206 43 29 29
267 678 187 129 91 55
251 583 202 78 24 30
253 582 206 69 22 33
296 728 288 177 14 57
255 584 207 110 24 39
252 588 201 100 24 40
322 842 211 80 64 61
256 594 196 80 48 49
318 613 299 62 27 33
452 803 296 122 80 51
252 593 200 80 50 44
255 589 203 136 10 45
376 709 329 52 24 26
256 593 201 83 25 36
248 577 222 146 4 48
451 727 253 45 37 30
422 648 337 189 139 114
255 580 213 106 17 43
247 599 204 99 63 52
251 603 205 82 43 38
377 748 326 52 27 29
267 698 219 130 94 79
253 602 203 70 22 27
257 603 201 80 43 42
247 608 209 113 80 66
236 579 226 140 26 50
237 583 226 132 17 47
401 857 218 65 55 52
234 582 224 141 37 47
340 883 314 70 59 48
238 586 225 120 9 49
243 577 226 113 12 39
337 738 187 85 28 33
397 523 187 61 32 39
242 583 231 77 15 36
245 578 232 153 4 46
252 583 226 103 13 37
445 856 310 48 43 39
253 579 239 36 24 27
250 585 229 68 19 30
347 958 246 92 86 89
374 875 345 40 35 34
252 588 231 105 12 40
242 658 186 143 102 64
302 663 209 71 31 32
257 593 231 61 24 32
235 629 208 163 121 96
267 693 219 130 95 80
395 532 188 68 28 42
251 589 236 105 18 40
252 588 241 100 22 37
357 938 236 79 72 73
254 591 233 66 0 35
256 594 242 77 26 35
256 594 236 47 27 35
422 728 328 182 129 100
225 610 203 163 117 92
224 616 196 170 117 90
226 623 201 169 121 94
232 618 207 159 117 92
402 726 220 70 50 46
487 783 251 97 72 52
387 879 352 76 63 53
237 613 209 150 114 93
234 618 209 159 118 94
237 618 210 155 117 94
227 628 201 169 120 94
228 633 201 167 119 93
229 633 204 168 121 96
229 638 196 169 118 89
230 639 202 168 121 96
279 826 193 212 143 116
236 638 208 166 122 97
397 883 355 65 55 46
317 845 271 103 79 55
238 633 210 161 118 96
356 884 300 45 40 35
356 891 325 32 30 33
254 612 208 89 58 48
289 658 261 148 0 46
257 613 206 80 42 38
242 623 212 149 113 93
449 749 226 54 44 38
247 618 210 130 100 82
334 656 204 127 10 27
247 623 212 137 105 87
397 568 202 178 8 41
297 582 178 49 27 31
252 613 210 103 71 60
255 614 209 93 61 52
338 822 269 176 132 111
422 857 288 35 33 33
247 633 212 150 113 94
339 569 309 101 7 39
280 927 284 110 89 77
247 638 213 156 115 96
441 753 266 66 34 31
252 628 212 127 96 79
257 638 212 130 100 83
362 752 324 169 18 57
231 643 191 161 110 76
445 786 324 170 115 89
238 642 183 162 112 74
270 754 179 148 100 64
233 643 187 154 104 69
339 828 269 159 122 98
237 643 185 160 109 73
502 793 241 109 82 64
288 943 256 74 70 72
233 653 191 176 120 89
237 653 187 153 107 68
389 876 278 35 32 34
482 821 282 57 46 38
235 654 190 167 113 80
236 658 191 178 124 91
272 823 211 192 134 107
246 645 184 160 108 71
247 648 185 158 107 70
365 685 319 147 6 43
242 653 186 148 103 64
408 633 250 42 33 38
289 930 253 64 61 64
252 643 183 157 108 69
392 808 194 60 51 45
257 643 183 151 107 72
257 646 183 160 110 77
417 578 346 170 120 97
252 653 186 159 105 70
426 544 323 71 19 28
241 668 191 190 130 100
252 658 187 151 99 66
257 668 188 110 81 44
275 649 192 94 75 54
257 673 187 126 91 53
246 678 191 185 123 94
248 683 191 184 121 92
249 678 188 174 116 83
257 678 187 139 97 60
293 704 284 137 8 43
252 683 188 171 114 75
453 744 264 36 33 31
252 688 191 174 114 83
253 698 192 161 106 76
357 848 211 63 51 49
229 641 193 170 117 86
229 641 196 170 119 91
423 848 246 63 51 51
229 641 200 167 118 93
279 732 275 181 10 57
230 643 201 170 122 97
232 643 205 168 122 97
298 873 262 141 112 84
232 653 196 189 132 105
237 643 207 166 122 98
234 652 204 178 128 102
234 657 196 193 136 108
234 656 200 187 134 108
238 663 201 190 135 111
360 558 332 117 12 37
239 666 200 194 137 113
240 645 208 167 123 99
433 835 288 45 40 38
242 648 210 165 122 101
247 648 211 166 122 101
252 643 213 156 118 98
254 649 214 162 121 102
246 663 208 159 120 101
243 668 205 172 128 106
247 673 206 168 127 105
245 659 208 163 122 102
252 658 212 172 129 108
465 791 253 72 58 47
252 663 211 160 124 102
254 656 214 172 130 110
257 658 215 161 121 102
419 695 283 77 0 25
313 693 295 50 28 30
255 663 213 165 125 104
376 518 351 53 26 29
252 668 210 157 122 100
439 577 330 157 117 82
252 673 210 160 121 99
244 677 196 195 134 107
244 677 201 182 131 105
418 648 335 182 137 114
245 679 202 178 126 103
457 873 317 64 54 49
407 788 320 167 127 101
245 675 203 179 130 108
247 678 206 168 124 102
247 683 196 190 126 100
246 683 201 177 123 99
248 688 196 188 125 95
248 688 201 179 124 99
248 683 206 166 120 97
397 733 206 58 46 42
399 895 327 54 46 43
252 678 211 158 120 98
277 803 226 167 129 101
255 677 213 158 120 98
250 680 208 158 120 97
252 683 211 157 118 95
249 688 209 163 118 95
257 683 215 157 120 98
256 688 213 159 119 97
250 694 194 176 116 89
424 590 309 85 26 29
366 882 336 36 33 34
249 696 198 183 122 96
251 703 196 176 117 87
388 772 319 62 55 53
251 703 201 177 119 93
250 698 206 174 121 96
251 703 206 177 121 97
414 838 229 60 52 51
249 692 209 166 118 97
252 693 211 164 119 95
297 558 281 113 11 38
293 836 214 189 132 107
250 695 208 170 120 97
429 544 215 158 15 39
255 693 213 162 119 96
412 768 322 169 123 96
252 698 211 169 120 97
252 703 211 173 122 98
482 832 316 68 54 42
252 708 196 176 117 88
252 708 201 177 120 93
430 807 228 60 49 45
254 712 193 169 111 82
252 708 206 176 121 96
257 718 191 162 107 76
254 718 201 176 119 92
253 713 211 176 123 99
255 723 196 171 113 84
440 548 341 170 122 89
254 721 197 172 114 87
352 668 205 58 36 37
254 721 201 176 119 92
255 723 201 175 119 91
285 902 275 128 106 86
256 728 201 176 118 92
255 723 206 178 122 96
262 524 159 119 21 39
262 528 160 138 11 34
272 517 158 139 1 33
267 528 160 158 1 35
447 698 231 65 49 35
269 520 159 157 0 30
542 847 286 104 88 75
467 737 262 64 51 41
272 523 160 157 0 32
373 563 332 148 12 46
277 517 158 132 6 30
283 519 159 57 33 35
287 518 158 89 27 36
394 754 201 54 46 44
286 519 159 48 34 37
287 523 160 64 35 37
368 817 290 154 114 93
272 528 161 157 0 29
262 533 161 105 15 35
466 857 291 76 61 50
312 591 183 180 3 36
258 537 163 50 31 38
262 538 162 68 29 32
262 543 165 161 5 36
271 788 222 162 124 94
267 533 161 155 0 29
272 533 162 154 0 30
267 538 162 155 2 34
379 727 209 108 23 31
289 905 268 148 117 91
267 542 163 156 0 30
272 538 162 131 4 31
446 846 335 55 46 37
272 543 163 150 4 34
419 900 296 74 62 59
419 721 329 176 126 99
277 528 162 136 8 34
282 528 161 80 21 36
445 552 263 173 16 47
287 528 161 74 30 37
277 538 163 118 6 31
454 746 290 122 92 63
277 543 163 87 24 34
278 544 164 69 30 36
316 733 189 41 33 39
287 533 162 167 2 31
283 538 164 154 1 34
392 879 312 33 31 32
286 918 271 128 104 84
284 951 296 66 60 61
280 541 163 51 30 26
288 537 163 169 0 40
479 789 272 60 46 39
287 539 164 166 0 32
287 543 165 121 8 34
310 876 313 150 113 92
262 548 167 46 29 33
259 546 168 87 15 27
285 730 218 75 49 52
258 552 173 182 1 40
326 748 296 77 62 56
350 961 248 75 70 72
262 553 171 174 5 41
262 559 174 159 1 35
267 548 166 56 29 37
268 552 168 51 27 38
270 545 164 145 3 32
378 918 236 68 60 61
272 548 165 61 33 34
421 582 232 89 41 52
295 938 240 77 70 69
266 554 170 147 13 47
267 558 172 187 3 38
262 563 176 132 4 27
262 568 176 115 2 25
262 573 174 129 1 27
267 563 175 142 8 36
362 648 212 123 7 28
268 561 173 179 0 24
272 562 172 135 13 40
322 874 319 146 111 88
267 573 176 111 11 24
357 648 313 106 19 40
347 538 302 102 12 34
342 778 186 70 58 52
267 568 177 128 9 28
281 548 262 37 28 30
272 568 176 153 10 39
344 606 324 178 15 57
277 553 166 113 21 41
282 553 166 97 22 37
287 548 166 60 29 35
287 553 167 49 33 37
367 763 316 75 62 57
282 558 168 80 28 35
425 580 308 83 20 32
317 823 251 152 112 94
282 560 169 63 31 32
277 563 171 117 26 42
337 903 205 85 73 71
442 728 281 71 23 32
278 567 173 82 21 33
309 515 284 127 6 36
277 569 175 140 14 37
312 668 291 156 8 48
277 573 177 66 33 40
418 584 230 47 32 37
282 563 170 85 30 39
282 573 175 60 28 35
284 571 173 109 27 47
287 574 174 134 24 40
276 575 179 95 20 36
365 897 213 77 68 66
293 518 159 69 31 34
347 578 185 190 8 42
348 559 309 77 23 36
296 519 159 75 31 34
292 523 159 52 34 37
392 878 227 67 58 58
292 528 160 59 32 36
302 518 158 66 32 33
384 696 318 141 12 45
268 718 183 127 89 51
297 523 160 61 33 34
302 523 159 73 29 30
286 548 267 43 28 33
303 521 158 86 29 29
454 725 254 43 37 32
307 521 158 55 28 34
307 524 159 89 21 33
312 521 158 134 28 42
312 523 159 158 4 34
317 518 158 51 34 37
318 520 159 53 27 33
297 528 160 54 34 36
302 528 160 86 25 34
383 909 328 62 58 58
292 533 161 156 5 35
292 537 163 171 0 33
292 540 164 168 0 34
444 738 250 46 36 31
347 943 326 59 56 56
421 867 247 67 54 53
292 543 165 164 0 34
297 539 164 169 0 31
297 543 166 168 0 35
302 539 164 167 0 32
457 877 311 93 79 72
302 543 165 169 0 36
465 716 253 68 58 49
312 528 161 161 0 33
448 743 285 91 73 52
312 533 162 158 0 31
307 539 164 140 5 34
307 543 165 128 14 35
312 543 166 78 31 36
317 533 163 159 0 34
300 578 288 139 0 41
467 793 262 76 58 48
317 536 163 141 4 37
317 543 166 94 26 35
408 648 256 134 16 41
292 548 166 145 3 31
297 552 168 114 10 35
323 778 279 72 60 53
291 556 168 124 23 42
292 558 169 81 32 37
294 555 169 60 29 33
297 554 169 74 25 37
297 558 170 55 34 38
302 548 167 168 1 36
302 554 169 133 13 38
390 932 286 64 58 55
357 573 186 185 7 41
292 563 171 48 35 39
292 568 172 48 36 39
440 851 268 76 63 59
297 563 171 50 35 39
262 584 180 197 6 43
487 858 316 74 57 48
297 568 173 43 37 40
292 574 174 143 18 41
297 573 174 93 21 38
302 563 172 66 34 37
302 568 173 59 33 37
303 570 174 101 28 39
439 540 288 122 11 37
302 573 175 107 27 40
312 568 175 76 32 35
307 548 167 126 14 35
307 551 168 124 25 42
406 906 305 61 51 48
435 528 332 163 15 48
312 551 168 69 35 36
307 558 171 76 31 33
427 873 363 71 56 45
312 553 169 61 34 35
352 903 352 62 53 48
312 558 171 57 34 36
318 550 169 170 4 33
317 558 172 79 33 36
307 568 174 104 27 37
312 562 173 88 31 38
309 565 174 115 13 28
307 573 175 52 35 39
389 895 337 64 55 51
317 562 173 67 28 34
317 564 174 111 26 39
317 568 176 111 23 38
472 733 246 61 49 35
317 573 177 96 29 37
439 746 264 69 33 30
262 518 241 154 0 46
258 523 235 150 0 45
258 528 235 146 0 43
294 658 213 104 14 28
263 523 241 153 2 47
264 518 245 144 0 43
335 713 318 125 17 43
268 518 250 154 4 47
264 522 244 116 4 33
307 968 281 85 80 82
436 749 256 44 31 30
322 845 268 84 62 41
265 524 243 153 9 51
267 528 246 108 15 40
269 522 249 49 24 27
269 526 249 40 25 30
257 533 236 144 0 43
310 770 273 76 62 55
260 538 238 145 0 44
260 543 238 144 0 42
262 543 241 139 1 40
267 533 246 131 7 41
270 533 248 89 19 34
272 533 251 69 25 33
267 543 246 128 6 41
272 538 251 45 29 32
272 543 251 79 22 36
274 523 254 100 19 38
276 533 256 115 21 41
276 538 256 40 27 30
260 548 238 149 0 46
262 548 241 141 1 43
260 553 238 158 0 50
263 553 241 152 0 45
417 715 201 66 49 42
260 558 238 159 0 49
267 553 246 117 10 39
270 548 248 54 19 30
294 638 274 49 27 29
272 548 251 89 18 36
269 553 249 65 25 31
327 888 322 111 83 68
265 560 243 167 0 53
357 583 332 163 14 52
372 913 331 48 44 43
266 558 246 148 0 44
332 911 349 69 63 60
547 841 299 92 79 67
269 558 249 131 9 39
398 780 188 61 51 44
271 558 252 113 14 38
260 561 238 144 0 38
402 868 235 70 62 62
262 563 240 151 0 46
262 568 241 135 0 39
402 624 313 142 22 48
262 573 242 127 0 38
456 773 306 160 108 76
265 563 243 163 3 50
267 563 246 166 1 51
265 568 243 146 0 44
346 718 328 158 15 51
267 568 246 161 0 49
442 726 248 51 40 35
269 567 249 170 12 57
427 708 285 67 17 33
527 840 287 104 81 63
271 568 251 136 14 46
265 573 243 130 0 40
267 573 246 135 2 40
367 558 181 77 31 36
270 570 248 164 0 51
272 573 251 126 8 42
276 558 257 100 17 36
273 563 255 47 26 30
273 568 255 68 27 36
319 709 304 55 24 31
407 726 225 79 56 51
274 572 254 123 11 40
262 578 176 178 2 38
267 578 176 132 2 32
262 581 178 199 8 48
303 903 252 111 87 69
322 978 271 88 83 85
259 586 183 190 6 46
262 587 182 192 6 42
263 592 187 185 3 42
454 799 292 116 77 50
273 738 178 124 92 52
317 969 301 69 66 67
261 594 190 170 3 38
278 938 296 53 47 47
267 584 180 187 3 42
270 578 178 112 8 29
272 582 178 137 1 28
362 623 210 75 35 39
418 895 285 56 50 50
348 718 329 159 15 51
272 583 179 141 4 30
362 968 271 88 81 83
267 592 183 172 4 35
475 768 261 84 73 65
272 588 180 182 3 36
410 696 323 152 109 90
410 673 323 154 115 93
272 593 182 185 4 43
263 597 192 168 4 35
259 602 189 93 38 37
259 606 189 104 55 47
371 948 306 53 47 45
306 770 268 82 65 59
389 865 347 41 36 33
260 603 192 83 33 31
346 759 307 83 67 60
261 608 191 98 56 39
268 597 187 158 19 46
266 599 190 154 17 44
270 595 184 163 23 58
272 598 186 98 24 35
268 602 192 155 11 40
456 877 316 73 60 56
272 603 191 101 21 37
357 648 211 124 7 29
297 632 202 68 28 35
287 578 177 165 17 49
379 940 302 49 42 38
278 576 178 156 26 55
277 588 179 133 7 34
329 899 217 61 56 56
277 593 180 113 20 37
282 577 177 85 18 32
282 579 180 161 15 42
412 838 226 60 53 53
286 580 179 203 9 45
287 583 181 179 4 37
282 593 180 45 36 38
270 649 188 111 86 56
302 633 202 138 17 41
287 588 182 140 1 33
415 566 213 181 15 40
277 718 219 96 66 54
287 593 182 82 20 32
277 597 182 72 30 35
492 803 256 109 86 63
276 599 185 84 33 33
377 738 207 75 34 36
274 601 188 102 25 41
277 602 187 131 24 43
276 604 189 91 29 28
273 607 193 177 12 45
287 598 183 64 32 37
280 600 184 155 22 53
282 603 186 164 16 43
287 607 187 67 32 34
393 619 229 48 36 41
263 623 191 107 83 56
259 627 184 132 99 63
357 678 205 105 24 28
262 628 186 125 95 61
337 748 310 129 39 56
262 633 185 129 97 60
260 639 183 129 96 54
262 638 185 127 95 59
328 733 305 93 13 35
265 624 192 103 80 50
264 627 190 110 86 59
382 653 310 107 23 40
266 628 191 102 80 56
266 634 187 123 93 59
428 533 210 151 13 35
266 638 187 126 96 62
270 639 192 108 86 61
279 943 286 67 62 63
286 610 189 56 32 39
283 612 192 122 27 44
297 958 306 50 46 46
438 864 296 47 39 33
297 584 179 123 22 44
357 688 202 107 24 31
292 593 183 121 20 34
297 592 183 81 16 31
308 772 270 79 63 57
302 585 179 157 10 40
437 847 356 63 51 41
302 591 183 179 11 47
374 743 204 67 36 36
291 597 183 57 33 38
293 598 184 52 35 35
297 594 184 78 27 36
288 600 184 101 30 43
292 608 187 70 35 36
415 816 204 72 57 50
297 603 186 63 33 37
265 732 184 139 92 61
297 608 187 93 27 35
302 598 186 141 10 36
302 607 188 108 19 34
307 578 177 42 36 41
368 779 200 59 50 47
307 582 178 49 30 35
354 965 303 56 51 49
311 581 178 61 34 32
395 918 271 61 53 50
307 592 183 197 9 43
398 663 235 90 24 26
312 588 182 152 4 34
444 800 229 60 45 39
314 580 179 60 20 27
318 579 179 78 30 36
317 583 180 59 31 35
445 709 203 79 60 39
332 838 266 117 88 65
317 588 182 160 8 38
312 593 184 190 7 39
351 653 208 123 8 30
392 518 186 75 29 33
317 593 185 179 3 37
307 598 186 105 13 34
312 598 186 186 6 39
307 603 188 105 19 35
316 922 225 54 51 54
427 717 190 72 54 42
303 609 189 122 27 40
438 718 215 91 66 47
306 606 188 134 16 42
312 602 188 174 1 36
312 604 189 170 0 36
367 723 334 45 30 30
317 601 188 184 5 38
317 603 189 183 5 38
317 608 191 117 22 38
292 613 191 88 32 37
289 696 195 100 79 55
296 611 188 129 26 43
299 610 189 128 11 33
302 617 192 90 28 35
438 809 240 59 48 45
258 593 206 68 20 31
349 569 315 82 18 32
259 587 215 52 27 32
457 852 341 71 57 48
259 591 209 100 15 28
261 593 211 81 22 35
260 590 212 99 32 41
263 593 216 127 15 46
261 588 221 84 20 41
263 592 221 90 11 36
327 718 192 110 19 28
261 599 195 136 15 37
260 594 208 49 22 25
307 653 286 152 10 48
261 598 207 29 27 27
296 927 245 64 59 61
262 603 196 105 36 43
260 600 200 104 33 49
261 603 201 98 29 47
262 608 201 88 48 47
408 663 321 161 116 99
262 603 206 72 28 35
454 814 255 75 61 57
263 607 205 120 5 41
266 604 195 154 14 40
268 607 197 163 22 43
266 609 200 149 22 47
436 873 272 74 60 56
272 609 195 167 9 39
265 608 206 91 17 35
263 598 211 51 22 31
417 743 196 67 51 44
302 883 310 149 112 95
264 602 210 32 24 26
264 596 214 103 7 40
266 598 216 126 16 43
265 599 213 86 27 34
265 595 217 151 10 57
265 594 221 160 3 49
267 603 216 54 26 30
265 605 208 112 13 54
268 603 221 71 25 36
328 843 246 170 123 96
442 827 252 73 56 50
269 606 221 100 26 41
342 583 187 184 6 41
414 671 265 109 12 39
270 608 221 90 21 37
392 887 297 32 31 31
261 590 225 43 23 30
263 592 226 123 15 44
392 522 350 100 6 34
262 578 242 103 9 35
262 583 242 48 26 31
286 945 318 62 56 55
258 593 244 63 24 33
547 832 300 101 84 71
312 953 246 77 72 75
259 590 244 78 27 29
264 584 244 40 29 30
281 944 316 59 54 54
308 849 272 131 108 85
262 593 245 71 19 29
267 578 245 54 26 30
392 868 277 37 34 34
270 578 248 76 14 33
434 563 329 121 93 64
418 850 347 47 40 33
427 847 346 51 41 33
452 773 316 169 117 85
412 876 304 37 33 34
270 583 248 32 30 31
272 583 251 60 29 32
267 588 247 32 28 28
266 593 247 40 28 28
269 588 249 32 28 28
269 593 249 44 29 27
272 593 251 41 29 31
261 594 230 125 17 50
259 596 233 46 29 34
455 725 202 134 93 65
382 885 306 33 31 32
258 597 236 70 28 34
261 599 235 112 10 42
260 600 240 119 27 45
263 602 237 33 30 34
265 595 226 156 2 52
267 598 226 87 23 40
268 603 231 80 17 36
262 768 196 162 113 79
337 518 162 103 20 35
318 783 179 138 96 62
271 608 226 126 15 44
265 600 234 0 38 52
436 724 207 86 63 45
267 608 241 89 20 39
262 603 246 69 31 37
264 606 242 65 36 39
436 668 326 174 117 87
264 603 249 66 28 33
264 607 249 124 30 49
306 871 308 106 83 62
266 597 248 75 25 36
268 598 249 57 27 31
266 609 246 108 28 42
267 603 251 55 28 30
271 603 252 37 30 30
271 607 253 36 27 27
276 578 256 128 10 41
276 583 256 59 28 32
276 588 256 49 31 32
340 597 318 121 6 38
357 853 286 111 90 69
274 593 254 61 22 28
274 598 254 44 32 35
276 608 257 120 15 42
420 622 267 96 28 39
259 614 203 74 25 26
259 616 203 76 36 26
426 608 271 143 24 49
259 623 208 90 57 48
263 618 201 82 34 34
260 619 205 79 38 32
261 624 205 85 49 43
270 610 199 167 17 38
415 539 352 117 77 66
273 612 198 162 13 37
389 702 318 138 6 42
268 613 206 102 24 40
270 615 204 118 11 42
265 619 197 101 63 46
265 620 199 95 48 47
269 612 210 68 22 32
272 613 221 113 13 42
284 797 234 165 119 93
477 839 329 79 60 44
272 618 211 77 24 33
273 618 216 98 23 37
270 633 196 93 74 52
454 739 215 52 42 34
271 633 201 82 62 44
452 743 221 51 41 33
265 625 204 74 31 29
394 899 239 75 65 64
267 628 206 78 45 34
277 763 176 155 106 71
268 632 207 76 41 34
271 634 206 80 52 37
297 648 276 154 3 47
270 634 193 97 77 56
329 847 231 195 139 107
273 638 206 81 51 37
262 633 210 102 69 56
262 638 211 115 83 68
432 872 296 42 37 33
266 634 209 84 45 39
318 618 299 129 19 44
267 638 211 91 52 44
271 639 210 79 34 30
323 534 164 148 1 32
347 973 261 88 83 84
277 613 196 172 4 38
276 615 199 164 6 37
279 611 193 158 13 34
277 618 201 157 11 39
351 891 330 31 30 32
283 908 276 155 124 102
279 616 198 171 1 37
276 620 205 85 24 32
278 623 206 50 24 35
282 614 195 147 10 38
282 617 197 137 14 40
281 619 200 82 20 35
282 623 202 106 28 38
287 618 196 80 31 40
287 624 200 58 33 33
274 622 215 58 28 36
275 623 216 70 22 32
432 583 276 163 12 47
274 618 221 107 21 40
278 627 208 80 28 45
392 782 200 59 48 44
273 638 201 86 67 47
282 628 206 73 29 36
284 626 203 102 33 34
288 627 202 77 34 44
439 870 358 93 66 45
286 629 205 57 34 37
436 658 331 182 125 96
287 633 207 57 33 35
277 628 211 83 35 41
277 628 216 81 23 33
279 631 216 121 17 42
278 628 221 120 15 43
366 552 178 44 36 38
279 631 221 153 6 46
397 765 199 57 45 42
352 793 195 74 60 53
282 633 211 112 28 41
386 599 328 98 24 37
407 878 362 79 63 53
284 631 208 78 27 33
427 598 281 53 27 32
280 633 221 151 6 47
286 634 209 106 31 43
376 881 324 32 30 32
287 638 211 93 25 37
285 640 214 152 17 37
272 613 226 91 26 41
313 713 299 37 25 30
272 613 236 132 17 46
492 823 257 79 65 56
270 610 240 111 6 28
409 643 325 182 131 113
269 611 242 156 8 47
381 587 203 56 34 35
270 614 246 119 22 45
268 613 251 71 25 35
269 612 254 126 25 47
270 615 251 109 28 43
272 618 251 69 31 38
309 674 289 156 6 49
273 618 256 52 31 33
416 873 247 65 53 50
272 613 231 77 21 36
275 620 226 90 27 41
274 617 231 66 27 33
276 623 226 39 28 32
275 620 231 63 27 32
274 617 236 101 26 41
274 618 241 67 26 36
275 620 236 62 22 29
274 621 246 50 31 31
331 548 298 101 7 33
276 623 246 118 21 45
431 892 291 95 77 69
276 624 251 97 26 39
279 632 231 38 27 32
279 632 236 139 11 44
279 632 241 153 16 52
280 634 231 57 19 31
352 803 195 77 61 54
281 638 226 158 1 49
280 634 236 150 5 45
280 634 241 151 7 48
281 638 236 161 0 48
409 661 255 70 24 29
281 638 241 164 3 50
278 628 251 137 22 49
280 630 248 21 38 35
280 630 251 38 30 34
283 633 256 89 29 40
282 638 246 143 9 46
284 636 254 74 33 35
285 639 253 64 21 28
430 583 281 164 11 48
292 618 195 129 31 47
432 697 220 99 67 42
292 623 197 52 34 38
297 619 194 141 27 43
401 903 251 76 65 63
297 733 288 186 12 60
297 623 196 78 30 35
302 620 194 49 30 36
278 718 241 118 23 44
290 625 199 51 34 33
467 723 257 54 43 32
292 628 201 43 34 38
293 631 203 46 32 33
362 643 313 128 16 42
292 633 205 59 34 36
405 673 312 124 84 71
292 637 207 120 26 41
297 638 206 116 25 39
473 728 251 64 52 37
302 636 203 63 29 35
289 636 208 68 29 31
398 893 240 73 61 59
441 706 243 54 42 33
291 639 210 122 23 42
307 623 196 44 36 40
311 617 193 130 29 44
312 623 196 55 34 40
332 768 182 57 50 48
314 615 194 72 35 33
317 623 197 118 20 37
307 627 198 76 23 35
356 779 303 73 60 56
317 543 291 81 14 32
307 629 199 164 6 38
312 627 198 79 28 41
301 543 282 140 3 40
307 633 201 69 29 37
312 630 199 174 8 40
312 633 200 79 24 34
317 627 198 64 27 36
317 629 199 163 7 36
317 633 200 153 5 36
317 638 202 153 2 33
322 518 160 68 27 34
332 929 338 60 53 52
322 523 161 98 16 35
352 578 187 189 8 42
317 908 231 115 83 65
347 518 160 172 2 37
327 518 161 142 2 34
421 549 357 174 123 100
327 523 162 145 3 34
326 527 163 157 0 32
444 763 323 165 113 79
281 553 262 33 29 31
327 528 164 156 1 31
300 960 281 97 90 90
285 688 226 48 31 35
331 522 163 149 1 32
333 524 164 148 1 29
332 783 282 74 59 54
338 522 163 95 20 35
336 524 164 142 7 35
337 528 165 147 3 31
327 867 312 129 103 77
322 543 166 126 17 34
327 538 166 161 1 34
327 543 167 142 7 33
337 533 165 54 32 36
332 538 166 154 10 40
282 768 175 159 110 73
342 518 161 152 7 35
342 526 163 158 1 32
342 529 164 153 2 32
392 883 346 71 57 46
347 523 162 158 5 36
347 526 163 170 0 30
384 924 312 51 45 44
447 793 226 55 47 44
347 529 164 171 0 38
352 523 163 169 0 35
342 533 166 82 21 34
342 538 167 41 35 39
352 533 166 131 13 35
308 962 253 74 71 74
407 883 336 57 47 43
347 538 167 88 23 33
383 878 216 69 61 63
352 538 168 115 21 38
292 758 173 133 99 64
422 734 200 61 49 41
347 541 168 92 32 40
352 540 169 94 10 33
322 550 169 83 23 37
322 553 170 122 17 38
352 919 216 71 64 63
377 913 231 66 58 58
327 549 169 56 34 37
419 610 249 56 25 29
322 558 172 101 28 36
327 558 172 69 33 37
405 566 344 51 37 31
377 808 297 59 50 47
332 546 168 102 12 33
332 548 169 104 16 36
332 553 171 138 12 36
335 546 168 169 0 35
376 663 217 59 32 35
386 938 291 64 57 53
468 715 254 69 57 45
337 548 170 168 0 33
337 553 172 170 0 36
332 558 173 153 12 38
337 557 173 172 0 37
333 560 174 118 23 36
337 559 174 159 6 35
322 562 173 82 38 42
327 564 174 84 34 38
327 568 176 109 24 39
332 563 175 86 23 37
285 901 279 109 90 72
332 568 177 148 8 37
337 563 176 147 11 37
322 573 178 125 25 42
327 572 178 106 27 35
420 622 284 49 28 38
327 574 179 167 11 41
285 663 241 51 28 34
337 568 178 177 2 35
341 868 221 48 42 43
332 573 180 141 12 36
337 573 180 180 4 38
341 556 173 177 1 38
347 548 171 132 12 39
337 958 246 93 88 92
347 553 173 149 9 37
292 954 276 78 74 75
352 548 172 110 23 39
352 552 173 120 25 37
348 554 174 100 24 40
345 556 173 175 0 43
347 558 175 108 19 38
418 863 291 34 32 31
352 554 174 139 18 37
382 638 312 180 9 56
342 563 177 181 8 38
444 688 306 139 102 65
342 569 179 179 5 41
338 570 179 178 1 35
309 858 299 135 81 91
347 568 180 115 18 37
349 565 179 36 28 36
352 564 179 104 26 37
421 877 297 38 35 35
352 568 182 172 14 43
351 572 183 184 6 40
320 814 258 169 124 105
472 743 251 65 52 37
258 728 191 165 108 79
352 574 184 185 6 39
282 718 231 99 23 40
357 518 161 158 0 33
357 528 165 59 28 33
363 518 165 148 0 34
432 889 286 90 73 67
317 873 249 127 97 67
365 517 167 139 0 31
368 518 170 137 0 30
360 522 163 150 5 33
312 758 282 78 63 57
335 868 239 129 98 73
322 924 342 71 66 64
365 523 168 145 2 32
367 523 170 141 0 31
357 533 167 111 26 40
357 537 168 124 17 38
457 768 246 75 58 53
360 536 168 106 13 33
366 542 173 88 29 37
373 518 175 127 0 27
442 877 355 94 74 60
370 523 173 142 1 34
372 523 175 136 2 32
376 518 177 122 3 29
450 720 292 109 85 58
376 523 177 128 3 28
327 848 256 124 95 72
378 523 179 124 4 29
413 569 215 181 14 44
378 528 180 127 11 33
381 523 182 122 4 25
381 528 182 136 3 32
384 528 184 135 6 28
370 532 173 105 25 38
369 539 174 70 34 35
372 538 176 74 31 37
371 543 177 92 29 38
376 533 178 87 29 37
409 829 211 72 60 55
375 537 178 97 29 36
377 538 181 108 27 38
373 544 179 84 26 35
374 540 179 73 31 23
443 558 266 175 14 46
377 543 182 99 29 38
356 551 173 118 32 43
357 553 175 121 22 38
358 550 174 128 26 42
404 880 349 88 73 58
362 549 174 67 33 35
362 553 176 64 32 36
367 548 176 48 35 38
264 778 188 164 113 80
357 558 177 164 13 40
361 557 178 137 21 37
363 559 179 137 26 45
292 820 184 188 128 98
364 555 179 68 39 44
377 733 329 85 17 35
375 876 348 53 45 41
356 561 178 102 24 31
350 572 317 62 25 29
357 563 180 78 31 38
362 563 181 100 32 41
361 566 183 160 21 47
366 562 183 66 35 37
362 568 185 151 15 39
368 564 185 81 35 37
364 565 184 148 55 66
367 568 187 121 21 41
401 728 201 69 54 48
482 803 256 98 74 57
386 880 290 31 30 31
367 573 190 185 7 42
370 547 178 126 28 42
283 733 280 177 13 56
387 723 327 59 26 33
430 566 354 185 121 94
373 548 180 92 27 36
461 851 278 94 73 60
371 557 183 117 29 42
377 558 186 106 29 40
379 544 184 72 37 42
382 548 186 92 26 35
332 713 192 99 23 31
337 768 183 60 53 49
379 560 189 148 27 47
381 557 188 65 32 37
407 837 286 40 34 32
382 558 190 137 13 37
414 552 349 105 75 63
433 538 296 47 26 33
370 567 188 109 17 34
319 646 203 136 6 36
422 738 327 183 130 101
376 562 188 108 25 37
308 844 281 134 109 85
377 568 192 178 7 40
372 573 192 184 7 41
375 654 218 117 17 31
299 883 258 147 111 83
382 563 192 175 6 36
376 571 193 182 7 41
413 659 294 55 47 40
373 574 194 182 6 41
377 573 195 179 6 40
405 723 193 71 54 51
380 567 193 178 5 41
342 653 205 125 8 30
383 565 194 175 4 41
379 570 194 179 7 40
382 573 196 171 9 41
320 576 178 117 15 23
320 682 298 148 13 48
322 583 181 48 35 39
327 583 183 109 18 34
322 588 183 79 23 34
326 586 183 50 34 39
323 590 184 113 17 36
328 584 184 126 15 36
337 577 182 186 6 40
402 886 366 70 60 52
414 598 339 168 118 96
332 583 184 172 3 37
334 580 184 182 5 41
332 588 186 163 3 37
331 592 188 165 1 34
384 821 294 52 44 40
336 587 187 174 1 37
431 714 271 80 15 31
338 589 189 174 0 37
262 688 187 128 91 54
335 591 188 169 0 37
337 593 190 171 0 37
327 597 188 169 0 36
320 601 188 186 7 43
322 603 190 184 5 38
438 728 249 46 35 29
327 603 190 177 3 38
327 608 192 142 12 37
332 598 190 169 0 37
326 858 246 143 106 76
396 527 188 62 33 34
337 598 192 169 0 37
342 576 183 190 8 42
342 586 188 181 5 39
411 888 256 71 61 59
274 768 224 138 96 70
392 698 220 92 26 28
342 588 191 179 3 39
552 833 291 104 87 71
342 593 192 175 1 39
294 573 280 88 18 35
347 582 188 186 7 41
348 584 190 185 6 40
350 581 188 189 8 45
356 577 188 187 8 43
357 579 190 186 7 40
332 868 240 136 103 74
367 577 192 185 8 42
330 607 193 175 4 38
337 602 193 171 1 38
307 839 216 56 51 53
468 854 336 77 61 51
333 605 194 173 2 36
322 678 300 81 17 33
347 592 193 176 6 39
344 595 194 175 1 39
341 597 193 170 0 36
348 594 194 175 10 41
358 738 194 106 25 30
346 607 198 88 26 34
307 923 342 62 56 54
351 602 198 169 3 39
352 603 200 115 20 37
352 608 201 55 34 39
321 612 193 47 35 39
322 614 195 79 28 36
327 613 195 158 10 39
382 852 204 89 67 55
322 623 197 140 7 35
264 798 196 180 126 94
327 618 197 173 3 38
327 623 198 167 1 37
329 610 194 151 8 33
417 818 316 150 108 86
332 613 197 175 3 38
337 613 198 170 2 38
328 624 199 167 0 38
423 553 215 169 17 43
330 621 198 169 1 38
448 804 235 61 49 43
407 904 306 63 53 46
332 623 199 167 1 38
333 620 199 169 1 38
297 868 281 103 79 64
337 619 199 168 0 37
322 628 199 160 2 36
322 633 200 145 9 37
327 638 202 145 4 33
368 884 326 33 31 31
332 628 200 161 0 35
337 628 201 158 0 35
282 773 173 165 111 76
337 633 202 150 1 33
332 638 202 139 5 32
344 610 199 38 34 41
343 613 199 128 16 39
352 613 202 70 31 39
348 623 204 124 15 39
333 793 280 51 42 44
292 828 226 169 126 103
351 617 203 161 9 38
341 633 203 149 1 34
344 628 204 154 6 36
343 633 204 147 4 34
338 639 204 132 10 32
345 626 203 157 9 40
347 628 205 81 27 35
347 633 206 80 29 36
352 628 207 55 37 39
351 638 208 95 24 33
322 608 302 65 27 33
356 586 193 141 21 41
353 589 194 183 4 40
312 837 226 66 53 51
357 588 195 140 18 42
353 674 314 160 14 50
368 579 194 184 6 41
365 581 193 181 5 43
405 680 238 48 36 34
362 588 196 60 33 37
366 587 197 59 32 37
397 779 191 62 51 44
365 591 198 57 28 27
400 523 188 53 36 40
397 753 323 137 28 48
374 880 328 34 32 33
367 593 201 122 29 42
283 777 173 166 112 76
357 599 199 134 24 42
359 595 199 69 34 39
282 703 185 117 89 55
356 607 203 84 31 37
358 609 204 131 30 45
377 860 192 99 76 62
362 594 199 114 26 42
399 610 229 113 32 42
412 853 231 56 48 48
362 598 201 94 32 40
357 702 327 127 5 39
368 599 204 100 26 37
361 602 203 96 33 41
352 613 322 173 16 57
363 604 204 78 33 37
360 606 203 96 23 28
362 608 206 128 24 41
367 608 207 71 32 40
372 582 197 142 23 42
376 581 198 101 31 41
373 585 199 117 28 43
370 586 198 147 41 58
372 588 201 91 32 41
372 593 202 84 28 36
477 853 296 111 84 59
376 591 203 174 37 61
491 837 316 87 71 64
435 542 333 122 83 56
379 580 199 126 59 67
381 577 198 140 18 40
383 579 200 105 36 45
377 593 205 170 17 43
384 585 204 87 25 32
382 593 207 111 26 40
289 663 261 125 9 39
410 663 256 80 29 36
370 596 203 172 25 45
372 598 205 148 20 43
392 573 337 90 20 37
377 598 207 155 16 43
368 609 209 44 36 40
440 608 331 157 110 75
302 763 177 125 96 64
373 604 209 83 31 39
372 608 210 120 28 42
377 603 210 122 29 45
378 599 209 147 20 43
384 604 214 110 21 37
487 843 316 70 54 44
382 608 215 167 11 42
355 611 203 74 44 40
357 613 205 75 35 41
357 618 207 76 33 40
357 623 207 45 37 41
338 713 320 137 14 45
362 613 207 57 36 40
422 858 246 64 52 51
361 617 208 51 37 40
359 624 209 46 36 39
365 612 208 41 36 42
285 945 264 71 65 66
363 618 210 55 38 43
447 877 351 100 80 64
360 621 208 50 37 38
301 739 288 186 13 59
366 623 212 64 34 40
459 769 272 53 42 37
356 627 208 50 38 40
358 628 209 45 37 41
362 713 200 120 16 30
355 631 208 50 39 41
357 633 210 45 35 38
303 914 340 44 40 40
357 638 210 112 15 32
362 633 212 125 20 38
332 573 307 111 5 35
366 627 213 88 29 36
368 624 214 68 34 39
368 628 214 104 28 43
365 631 213 51 26 36
279 745 224 88 58 42
367 633 215 83 31 39
364 638 214 125 11 32
364 634 214 119 26 44
367 638 215 120 12 31
371 617 213 130 23 41
373 618 215 100 20 37
402 859 346 44 38 33
376 623 218 131 19 38
381 613 217 78 27 39
383 614 219 78 26 37
429 564 293 168 8 51
380 617 218 43 37 43
423 708 216 57 46 42
382 618 220 87 32 41
382 623 222 84 35 39
372 628 217 138 15 39
371 633 217 88 25 37
323 858 251 110 85 60
432 798 328 171 126 96
375 628 218 152 10 37
316 950 244 81 76 79
377 628 220 122 19 38
358 599 323 170 8 54
373 638 219 121 13 30
292 933 246 76 69 70
381 628 222 62 30 37
444 709 202 82 60 40
380 633 223 60 31 34
377 755 323 156 27 52
380 638 223 88 28 38
384 624 224 57 34 38
383 628 225 86 31 38
397 738 322 127 19 42
430 724 257 44 33 32
337 847 287 105 82 56
383 638 225 78 30 35
441 748 256 45 29 29
260 644 183 142 104 68
260 646 183 152 107 73
458 793 251 75 57 48
487 798 256 105 85 66
262 643 184 127 95 60
419 826 309 129 90 68
262 648 184 150 105 71
262 653 185 164 110 80
302 837 216 83 45 52
267 648 186 127 94 61
272 648 190 103 80 53
267 653 186 142 103 69
373 570 328 100 9 32
271 653 188 124 93 59
370 719 334 83 21 31
262 658 187 160 104 73
261 663 189 125 83 52
259 666 189 120 85 50
262 668 189 127 88 51
262 668 188 125 87 51
295 955 270 79 76 78
262 673 188 121 86 47
267 658 187 157 109 74
267 663 188 145 100 67
267 668 188 127 90 57
378 949 286 53 47 44
337 643 307 40 29 31
265 669 189 126 88 56
267 673 188 126 90 53
271 667 188 126 92 57
273 669 189 125 91 57
271 674 188 127 91 57
441 747 206 69 54 45
273 673 189 124 89 56
427 649 338 200 143 114
273 652 189 105 80 55
277 653 191 94 72 50
352 748 320 117 19 44
275 658 188 141 99 70
277 663 191 118 87 56
274 664 189 130 96 62
277 668 190 123 90 57
277 673 190 121 88 52
280 669 192 99 75 49
281 673 192 107 81 52
262 678 187 128 89 52
267 688 185 125 89 50
272 688 185 123 90 52
258 693 188 139 95 60
262 693 186 129 91 52
258 703 188 143 96 62
272 693 184 124 89 53
272 703 183 130 93 57
299 741 184 117 91 60
267 698 184 130 92 53
267 703 185 132 94 55
272 698 184 125 91 52
427 714 182 97 64 49
346 902 354 68 61 57
277 683 186 123 90 53
277 688 186 122 90 54
280 680 188 125 94 56
488 845 288 115 92 67
281 683 191 115 88 58
322 803 266 94 74 66
281 688 187 119 90 55
283 688 191 110 86 61
273 700 183 126 91 54
282 693 187 120 91 54
284 693 189 117 89 57
285 690 192 110 87 59
282 698 186 117 89 53
347 758 187 110 32 37
286 703 187 111 87 57
410 822 202 81 61 52
430 685 268 71 45 39
286 700 188 113 87 54
288 703 190 108 85 57
444 744 255 45 31 29
262 648 216 135 105 87
267 643 213 98 61 50
