ply
format ascii 1.0
comment Created by Open3D
element vertex 2195
property double x
property double y
property double z
property uchar red
property uchar green
property uchar blue
end_header
235 660 250 62 32 37
323 826 277 73 62 51
236 666 246 53 35 36
409 803 302 41 34 29
234 671 248 66 33 38
235 671 246 80 28 33
238 666 243 94 20 32
238 671 243 111 19 33
372 782 134 99 73 51
244 656 239 134 2 34
280 817 235 69 56 53
247 656 237 114 12 31
312 603 215 126 26 41
250 656 235 87 23 29
253 656 234 102 26 33
242 646 243 131 0 33
165 513 266 60 32 34
246 646 240 129 2 32
242 651 242 134 1 35
372 526 326 180 20 59
240 653 245 151 0 40
245 650 240 126 2 30
243 666 238 127 5 33
243 671 238 110 12 31
324 913 280 77 69 70
246 671 236 127 8 32
252 666 232 87 26 33
252 671 231 129 9 32
292 611 336 65 28 35
272 515 362 48 27 27
292 821 327 130 105 78
249 666 234 125 15 35
373 686 192 117 89 56
241 666 241 122 8 33
321 842 201 94 74 63
241 671 240 112 14 30
239 678 239 40 37 38
239 686 239 113 23 34
229 682 254 47 35 41
229 686 253 88 39 46
237 676 242 118 19 40
235 681 245 115 19 40
238 701 238 117 15 35
337 584 324 160 20 52
232 691 247 49 36 40
231 696 247 61 36 39
227 696 257 43 36 39
184 721 317 168 115 88
230 690 250 98 42 49
226 701 257 83 34 41
229 701 249 132 18 40
275 639 325 172 18 54
277 924 370 89 85 85
301 822 226 82 65 59
234 691 244 47 34 41
236 696 241 56 32 37
312 551 341 113 28 45
242 676 237 43 34 38
220 803 339 181 128 103
245 675 235 92 18 28
247 686 232 128 6 33
342 597 322 139 23 42
218 824 312 203 132 105
241 686 236 121 16 37
244 682 234 118 24 42
346 626 233 135 20 41
252 676 231 124 11 31
320 843 303 56 50 44
251 681 231 120 11 30
254 677 229 127 7 31
255 674 230 127 11 31
308 893 384 49 46 47
272 806 309 47 41 38
252 686 228 127 7 31
365 749 170 69 62 56
322 890 247 79 72 71
257 686 226 88 26 33
230 550 373 147 110 86
387 551 310 145 21 49
247 696 231 109 18 34
433 803 276 83 64 57
244 691 234 126 11 36
209 561 335 92 23 37
367 841 371 57 47 38
243 696 234 111 16 37
243 701 233 131 5 35
249 697 229 56 32 35
257 691 226 84 26 36
257 696 226 119 20 36
249 701 229 83 26 32
252 701 227 107 25 38
417 528 314 60 28 35
357 696 183 124 92 57
256 701 225 108 27 38
337 832 182 97 76 62
223 736 253 50 35 41
363 547 319 181 11 58
220 741 256 51 35 41
223 741 253 60 31 38
220 746 256 148 8 45
255 518 341 45 22 28
224 760 254 69 56 49
237 721 237 140 7 40
231 706 246 145 3 41
282 726 340 167 25 57
233 706 243 153 4 43
244 834 282 66 56 58
307 907 253 85 76 74
229 706 248 131 13 39
229 711 248 150 8 43
356 770 265 75 59 52
232 711 243 152 3 42
226 706 257 78 37 42
219 691 310 73 46 38
228 706 252 56 35 38
225 711 256 87 26 38
225 715 255 135 7 39
226 721 252 140 2 39
223 716 258 143 7 42
257 666 325 121 27 45
235 705 240 147 4 42
235 711 240 151 4 41
409 803 298 42 35 29
237 726 237 69 30 38
179 649 320 171 111 93
237 731 237 124 24 43
228 726 248 109 21 40
233 726 242 84 32 40
233 736 243 134 16 40
225 731 251 131 5 36
404 833 332 84 66 56
225 736 250 72 28 35
235 726 240 60 29 37
235 736 240 134 17 45
363 696 252 122 10 38
247 711 231 136 1 36
362 576 323 115 18 40
357 706 183 127 94 57
303 771 303 67 53 44
241 711 236 136 1 35
247 721 231 117 15 36
241 716 235 139 1 36
242 721 233 124 16 38
452 551 272 85 57 39
447 776 267 90 72 56
241 810 326 150 107 81
282 756 212 75 56 52
257 706 225 73 28 36
257 711 226 142 8 36
252 721 228 141 7 37
257 716 226 134 11 38
247 726 231 80 30 36
217 566 347 113 17 38
247 731 230 92 30 38
240 736 235 80 30 37
307 701 326 158 20 52
249 723 229 128 26 44
387 741 192 76 61 47
252 726 228 116 19 37
298 711 333 156 0 50
252 731 229 94 30 37
257 731 227 127 22 39
224 627 327 121 71 63
238 746 238 70 34 38
238 751 238 104 31 42
230 746 245 74 29 36
341 790 176 53 46 45
258 941 322 67 63 65
404 591 255 151 101 93
233 751 243 109 26 39
236 751 241 122 26 40
231 756 246 69 50 48
367 831 232 82 66 61
226 757 251 77 50 49
377 536 318 186 8 59
233 761 248 66 53 49
381 514 340 36 25 31
230 766 250 68 56 50
238 761 243 67 54 49
302 826 317 92 75 58
243 741 233 48 33 38
317 836 197 79 65 61
247 746 232 83 28 37
241 746 235 50 35 39
243 746 234 38 36 42
383 741 197 109 81 55
242 751 236 97 38 46
257 741 227 78 33 37
251 751 231 97 36 42
253 751 229 121 34 44
289 868 249 61 57 59
257 751 228 96 35 41
358 681 272 117 9 36
242 756 238 76 54 50
337 861 223 86 71 65
258 756 228 76 57 50
212 791 277 170 116 82
256 757 230 75 59 53
185 656 334 153 102 78
257 766 232 79 61 53
182 526 322 130 14 44
240 757 241 67 54 51
242 766 242 68 55 50
167 521 262 52 33 34
321 740 195 48 37 39
165 516 272 70 32 36
272 616 223 65 35 38
166 521 267 55 32 33
166 521 272 63 31 33
376 655 215 141 94 71
168 526 262 67 29 35
167 526 272 61 31 37
165 513 277 147 2 39
165 516 277 148 10 43
462 583 277 218 156 140
166 521 277 91 25 37
281 859 364 111 92 74
167 526 277 51 32 34
170 532 267 100 26 39
169 530 272 58 32 35
170 533 272 47 32 34
330 879 239 76 68 68
173 541 262 167 6 47
385 734 145 73 56 43
170 533 276 55 21 28
372 613 208 106 89 71
392 541 257 142 8 35
169 534 278 102 21 41
216 736 267 133 15 43
209 625 307 66 35 38
168 531 282 84 25 38
272 537 397 195 130 114
168 531 287 119 13 40
341 641 197 135 102 74
169 535 282 173 4 46
367 841 346 67 59 52
170 537 282 178 1 47
169 521 302 136 7 41
168 526 297 164 2 46
480 562 259 140 100 71
383 726 207 136 93 60
169 516 306 97 17 38
257 521 347 47 23 27
170 516 308 32 27 32
170 521 308 131 15 45
173 521 312 61 29 34
216 817 296 212 141 110
187 586 297 188 0 53
372 841 367 60 50 40
176 516 317 97 30 40
175 521 314 80 32 38
335 642 290 90 25 38
177 521 317 91 26 38
169 531 292 161 7 47
170 536 292 175 1 48
398 775 199 71 54 41
170 531 302 165 0 46
322 726 198 86 32 34
174 546 277 184 0 49
172 536 302 160 3 46
171 541 292 109 19 41
173 541 302 167 11 50
175 543 304 129 28 51
262 566 346 153 15 49
327 735 305 64 51 45
176 531 313 38 29 31
211 626 277 69 31 41
176 536 312 112 16 42
382 615 206 103 87 69
174 540 306 166 2 49
302 756 308 72 57 47
437 831 207 79 63 51
175 538 309 110 9 37
412 581 247 111 91 68
178 531 316 111 16 41
181 536 318 161 0 48
182 541 317 160 2 49
282 948 349 52 49 48
176 551 272 179 2 48
174 546 282 184 2 50
173 546 287 101 22 39
347 825 168 93 73 60
315 836 301 74 63 53
175 552 282 166 10 47
175 552 287 57 32 35
181 561 262 54 35 36
330 920 346 56 48 46
177 556 272 139 21 47
179 559 264 54 34 34
194 775 303 191 128 100
437 584 281 185 128 114
179 561 272 98 34 44
322 621 302 114 29 46
177 556 282 108 26 43
315 900 375 41 36 32
177 556 287 79 31 38
281 520 411 168 107 102
389 739 164 46 36 28
268 840 258 184 125 99
180 562 271 91 33 42
267 556 202 174 1 36
182 566 267 84 33 39
185 568 260 92 29 36
185 577 272 46 33 36
201 665 345 175 124 97
287 796 306 96 73 62
441 568 305 103 14 35
273 866 277 164 123 92
179 564 277 45 29 33
179 564 280 51 35 39
340 524 340 33 28 28
213 806 282 187 128 97
282 901 387 63 59 60
182 571 282 37 32 36
182 571 287 47 28 34
180 562 292 60 33 37
180 557 302 119 24 44
356 810 250 32 29 28
237 591 342 52 29 31
301 757 200 69 56 52
178 546 311 39 28 32
178 550 307 64 26 34
179 549 310 100 19 33
182 551 312 166 3 51
261 646 230 85 26 35
180 552 308 150 17 51
362 841 307 35 32 32
217 635 312 67 39 40
184 560 311 154 8 49
189 560 316 165 0 50
249 533 337 64 17 27
273 726 340 144 24 51
190 553 319 168 0 51
181 566 292 49 29 34
184 576 292 108 24 41
184 575 297 58 28 34
262 776 231 77 60 54
352 826 252 30 27 27
238 815 258 84 65 57
402 522 246 185 0 42
184 571 302 71 23 35
184 566 307 133 13 45
359 813 172 91 73 61
257 796 238 79 63 56
185 567 309 167 8 52
189 565 315 149 0 44
415 811 310 79 61 52
191 566 317 150 0 44
185 571 308 129 13 46
188 571 312 153 2 45
185 573 304 34 26 31
190 571 314 150 0 43
179 516 320 67 29 33
209 748 274 114 83 59
314 603 317 78 26 39
179 521 320 124 33 50
181 516 323 77 27 36
292 621 321 92 30 41
445 518 267 86 30 24
184 516 325 98 23 36
184 520 325 86 27 37
192 516 333 50 27 31
287 706 341 155 19 49
184 524 325 85 31 37
291 533 378 113 23 42
254 736 330 155 19 50
367 581 326 36 29 30
190 527 329 159 7 48
183 536 321 162 2 49
397 520 326 57 25 32
188 531 326 111 14 41
191 531 328 160 7 49
278 825 239 191 140 112
190 542 324 168 1 51
191 546 323 164 0 50
384 736 207 133 93 58
189 550 320 164 0 51
193 556 322 159 0 48
193 561 321 153 0 46
321 524 386 205 3 65
189 580 263 111 29 42
356 624 200 98 81 64
188 581 267 117 32 44
186 581 272 38 32 37
398 604 221 116 93 66
264 934 299 74 67 68
212 746 338 168 121 91
191 587 266 72 31 38
189 590 273 82 25 36
379 833 289 48 39 33
190 591 272 129 16 44
342 736 297 86 46 47
185 578 277 94 30 44
185 578 282 158 17 49
185 581 287 43 31 36
443 559 299 155 11 48
189 590 277 170 11 50
240 767 330 132 97 63
190 592 277 185 7 54
187 586 282 102 24 41
272 527 408 190 130 116
188 591 282 179 9 51
192 596 272 187 2 50
476 841 217 91 77 68
189 594 284 179 17 59
477 585 277 212 153 139
189 595 287 85 19 35
187 586 292 184 5 52
191 581 313 164 0 49
192 591 312 134 14 43
192 601 292 54 33 35
190 597 297 47 31 34
192 601 297 94 30 42
257 791 238 79 63 56
191 630 316 105 85 61
183 642 313 97 74 49
428 580 250 134 102 64
191 621 327 117 93 64
193 617 328 113 89 61
190 620 332 128 99 65
334 639 289 59 26 28
192 616 337 135 101 69
181 641 327 148 104 78
183 641 332 161 113 88
188 626 327 126 99 68
186 641 337 158 110 85
294 543 344 33 21 27
376 828 351 72 59 48
188 626 332 131 100 67
307 516 398 94 20 35
186 631 332 135 101 71
189 626 337 143 106 73
397 541 308 137 19 46
184 633 330 132 99 70
328 711 309 80 26 35
467 536 320 146 25 51
185 640 334 162 114 89
190 625 339 147 108 78
189 628 340 150 109 81
190 631 343 153 111 81
268 692 335 49 28 32
189 636 340 153 109 82
189 641 341 156 109 84
195 571 319 163 1 52
195 576 319 164 3 51
195 516 334 58 28 31
198 521 335 134 15 45
298 706 333 147 3 46
339 902 348 58 50 45
277 551 199 162 6 38
282 938 359 67 63 63
202 526 336 154 9 47
208 516 340 142 13 46
208 521 340 91 24 38
207 526 339 128 18 45
197 531 333 159 8 49
235 561 379 158 113 90
405 611 223 152 106 72
194 535 330 162 6 49
398 831 302 74 59 56
232 796 257 75 60 56
439 581 261 143 101 66
197 536 331 154 10 49
195 538 329 166 6 52
287 912 379 64 62 65
198 541 331 150 12 48
448 553 273 93 63 38
200 532 334 159 11 48
207 536 337 40 27 29
204 540 335 37 26 26
207 531 338 89 22 38
262 706 223 88 29 37
212 516 341 116 20 42
212 521 341 43 26 31
217 516 342 77 28 36
287 571 343 102 30 43
363 802 156 92 73 61
217 521 342 46 28 31
400 568 271 82 24 31
209 526 340 85 31 40
222 521 343 45 27 29
296 842 355 125 98 75
380 829 363 73 58 48
222 526 343 37 27 29
213 531 340 58 26 32
211 536 339 66 28 33
212 541 338 95 27 38
217 541 341 84 28 36
215 542 339 106 33 46
222 536 342 70 26 33
193 546 326 159 0 47
197 551 327 160 1 49
369 701 277 81 27 37
195 552 324 161 0 50
221 676 317 90 68 53
253 812 319 68 53 46
197 556 326 158 1 49
206 571 332 67 26 34
196 561 323 157 0 48
198 561 325 155 1 47
307 831 322 82 69 55
202 546 331 156 5 48
208 546 336 152 9 47
207 551 333 105 18 40
202 556 328 155 4 48
323 576 210 55 30 37
287 902 256 85 76 75
202 561 328 154 4 48
204 555 330 154 5 48
207 556 332 105 16 39
322 766 192 65 53 49
204 561 330 156 5 48
271 685 220 118 17 31
207 561 332 145 10 47
194 565 320 154 0 46
257 547 389 188 124 105
382 841 267 83 71 62
198 571 321 159 0 49
200 567 324 155 2 47
299 573 334 147 39 57
204 564 330 158 7 49
207 566 332 146 9 46
200 572 324 159 5 51
340 656 285 151 14 47
202 571 327 125 14 44
201 576 323 109 20 41
277 535 397 193 127 112
292 641 218 116 15 29
206 575 332 36 28 30
208 572 337 62 27 31
209 550 335 131 18 46
382 633 229 134 83 65
199 594 259 96 22 37
477 562 309 106 32 45
209 556 335 29 26 30
212 556 337 78 25 35
212 546 338 109 21 41
290 514 359 51 24 29
215 546 339 67 29 34
217 546 340 57 26 31
216 561 339 94 30 39
313 626 308 67 30 34
222 546 341 49 27 30
222 551 341 67 28 35
191 751 328 176 119 93
352 812 161 101 78 65
218 561 341 72 24 33
222 556 342 47 27 29
222 561 347 92 17 34
224 558 346 57 22 29
365 764 260 72 57 49
365 864 327 67 56 51
210 560 334 48 18 24
212 566 338 87 25 37
215 565 339 87 29 38
216 566 342 77 23 32
209 573 341 62 28 35
208 576 341 56 30 30
211 576 343 62 36 31
213 572 346 81 35 33
216 571 352 96 53 44
265 894 280 81 67 59
213 576 352 106 82 56
215 574 352 103 76 53
394 823 328 55 46 39
362 853 229 79 64 64
218 567 352 110 30 41
257 836 262 192 131 104
221 565 352 120 28 41
213 576 357 129 100 71
367 746 262 76 60 51
216 571 357 121 92 66
219 567 357 113 82 60
223 562 357 105 70 51
357 836 277 30 29 29
479 558 309 118 28 47
220 566 362 133 103 77
216 636 302 93 31 39
222 566 367 144 108 83
218 571 362 138 105 77
322 701 205 61 34 36
219 572 366 144 108 80
272 851 356 140 105 87
218 576 366 142 107 80
220 569 364 144 109 82
224 566 370 145 109 84
225 697 326 124 81 66
220 576 369 145 108 81
362 726 182 115 87 55
227 516 343 61 28 32
323 706 313 92 26 38
387 821 307 38 33 28
227 521 343 62 28 34
232 516 344 87 20 35
224 666 307 95 36 37
227 526 343 51 26 29
242 516 344 65 18 25
305 828 310 79 66 52
232 526 343 69 22 30
211 686 340 158 110 81
237 516 344 67 19 27
238 523 345 58 20 26
238 526 345 57 21 25
227 531 342 51 26 30
232 536 344 42 23 26
227 541 342 59 25 29
236 531 344 49 18 26
237 541 347 52 24 27
352 676 232 88 22 38
272 835 342 99 53 49
238 541 352 49 23 27
239 538 352 65 21 29
255 525 332 47 21 28
332 746 193 100 53 39
255 525 337 56 21 28
432 543 275 60 30 36
254 527 333 54 18 27
247 516 343 57 22 27
375 767 245 153 113 80
247 520 344 52 22 27
247 521 346 49 23 26
486 537 277 125 11 39
227 822 282 80 64 60
242 526 346 50 21 26
242 525 344 46 21 26
246 525 348 53 21 26
248 526 352 53 23 27
252 516 342 47 23 28
252 519 344 44 24 28
252 521 347 50 24 28
256 521 337 46 23 27
257 521 352 47 23 28
248 536 333 54 21 27
305 569 335 56 32 33
242 541 337 42 22 26
244 541 334 42 23 27
319 738 304 70 57 48
244 538 337 42 21 26
252 531 332 65 15 28
249 533 334 64 16 28
194 760 330 175 122 92
430 565 265 110 82 44
258 526 328 47 21 28
336 850 213 91 73 65
257 531 329 67 16 30
257 536 331 80 14 31
252 541 337 66 21 29
282 756 322 78 61 51
240 828 275 81 65 62
312 606 216 124 24 39
282 945 351 56 53 53
256 539 333 77 17 29
256 539 337 69 19 30
224 649 310 49 24 27
242 531 347 57 20 27
202 606 267 197 9 52
242 536 352 55 23 28
342 600 327 144 18 41
372 790 147 80 63 51
311 924 283 81 73 71
245 529 349 62 19 26
380 720 194 125 92 61
246 531 352 52 24 27
352 825 177 118 88 65
243 541 340 45 23 26
248 537 341 55 21 27
244 538 340 42 21 26
312 524 391 124 16 43
436 577 310 107 21 39
253 532 341 70 17 28
256 536 340 57 22 29
251 540 341 62 19 28
255 539 340 60 21 28
457 533 259 49 37 39
238 536 362 35 27 27
238 537 367 49 38 31
236 541 357 38 29 28
236 540 367 55 41 33
232 556 377 153 112 89
312 926 286 75 67 66
234 542 368 70 56 42
237 536 372 71 57 42
261 583 215 178 0 38
237 536 377 119 97 75
235 540 378 142 110 89
237 541 381 147 112 89
238 537 381 126 99 73
248 527 357 47 25 26
297 781 302 55 45 40
247 526 367 60 22 26
256 519 362 53 26 29
198 786 302 191 129 101
329 786 194 71 53 45
252 521 367 75 27 33
255 519 365 69 27 32
253 522 357 46 25 28
252 522 362 59 25 29
379 661 202 159 107 74
247 516 382 130 105 85
246 521 377 112 91 73
397 575 257 81 31 35
336 691 207 91 26 29
445 780 251 116 89 65
302 806 291 124 94 73
245 521 382 142 111 92
251 901 292 169 114 90
243 526 377 118 96 77
244 527 373 94 76 58
248 521 372 62 47 38
344 896 315 43 37 36
246 525 371 76 56 41
245 524 376 109 90 71
244 526 381 142 113 92
487 531 302 86 27 30
244 523 378 131 108 90
327 874 222 103 87 77
245 526 383 150 116 94
228 551 367 121 96 72
252 516 372 73 54 44
251 520 371 57 44 36
254 513 374 77 57 45
243 532 357 48 25 26
241 535 357 39 26 26
246 530 356 48 25 27
275 794 310 73 58 48
207 741 287 95 71 45
242 531 367 55 32 30
240 535 361 37 27 26
332 731 197 79 30 32
240 534 367 46 35 30
244 528 362 50 24 27
245 529 360 48 26 26
244 528 366 56 21 30
223 696 267 127 16 41
241 531 377 117 94 74
240 534 379 129 105 82
260 826 304 109 77 60
248 566 367 160 99 86
266 895 383 43 39 39
242 536 382 140 110 86
385 742 203 126 90 57
245 531 383 154 120 96
240 541 384 138 104 81
312 836 327 67 57 48
258 940 317 71 67 69
227 546 341 38 27 28
327 845 302 46 41 37
227 551 342 31 27 29
233 546 339 32 27 28
208 806 297 198 134 104
232 546 340 33 27 28
294 886 223 111 94 81
232 552 342 34 25 28
267 526 408 184 125 108
230 554 344 28 24 26
227 556 347 60 23 29
227 556 352 113 14 37
232 551 347 46 25 28
401 785 197 82 59 48
259 843 343 107 67 55
302 940 357 65 61 61
230 554 347 51 27 30
232 551 352 54 26 30
392 591 312 58 33 37
237 546 342 39 24 26
292 611 216 82 37 41
327 831 267 51 45 39
236 546 347 44 24 26
312 571 206 138 12 35
235 549 345 35 24 25
329 753 294 72 55 45
234 548 348 50 24 27
239 576 347 81 24 34
241 546 337 38 24 26
243 546 334 39 26 27
242 549 334 36 27 28
339 893 282 60 54 52
242 550 337 36 25 27
247 546 333 54 23 30
262 756 330 58 48 45
269 799 234 79 61 54
247 546 337 59 22 28
246 549 334 42 26 30
407 616 227 187 126 97
245 549 336 45 26 29
244 545 340 49 23 26
324 684 210 62 25 36
246 545 341 54 21 26
252 561 347 155 11 47
252 560 352 157 10 44
256 559 352 157 10 46
243 566 347 153 13 48
243 566 352 148 18 52
357 536 327 122 19 44
247 562 347 155 13 52
247 565 345 149 14 49
245 564 352 162 16 56
243 572 344 129 17 47
365 614 211 99 82 64
242 576 344 104 22 41
240 576 352 109 53 53
252 566 345 102 17 37
248 866 342 93 77 71
250 568 344 101 28 38
372 575 282 111 25 43
257 566 346 127 18 44
250 570 344 97 26 34
252 571 345 69 26 30
330 828 180 85 68 58
249 574 345 111 23 38
322 916 362 46 42 42
252 577 344 85 24 34
232 546 367 93 74 54
230 549 366 104 85 64
228 557 357 97 47 41
232 551 357 48 30 31
230 554 357 91 36 41
226 556 367 136 104 79
397 568 272 72 23 31
225 559 360 105 83 62
323 776 289 62 48 42
224 558 366 133 104 78
350 666 232 40 28 33
225 560 368 145 109 83
382 586 325 48 27 31
230 554 360 76 60 41
235 546 357 56 27 29
427 561 272 85 31 33
235 545 361 68 29 32
277 906 252 83 72 71
235 544 365 64 49 36
231 546 372 134 104 80
210 726 291 49 37 37
229 552 372 143 108 83
233 546 377 157 116 96
367 546 236 114 17 34
232 551 377 160 116 95
227 561 372 148 110 85
237 551 381 159 114 92
324 704 205 105 23 29
372 716 231 143 96 73
237 556 381 157 112 89
302 546 198 51 35 37
237 561 381 161 114 92
232 566 377 157 113 90
371 551 315 171 14 54
227 576 373 158 113 90
232 571 377 162 115 93
453 762 253 92 71 53
401 574 258 93 29 38
232 576 376 170 118 98
235 566 379 162 114 92
238 566 380 167 116 95
237 571 379 173 121 100
286 816 231 83 66 60
237 576 377 180 124 104
254 558 358 168 23 59
321 566 209 133 7 31
257 558 357 171 18 56
357 802 150 95 73 59
251 560 362 104 38 45
447 515 277 67 32 30
251 561 367 153 92 82
257 555 362 147 31 51
257 552 367 97 32 40
267 831 332 146 97 102
255 554 367 100 46 50
384 629 200 120 93 56
240 546 384 150 109 86
240 551 384 157 111 90
467 580 301 127 27 50
241 556 384 164 116 94
242 561 383 173 120 100
497 540 258 171 116 101
254 557 371 168 108 94
252 561 372 164 103 88
253 561 377 171 109 91
255 559 378 166 101 86
252 561 382 182 121 102
352 576 226 126 19 30
405 774 164 98 72 58
253 557 383 182 122 103
391 790 172 81 61 53
243 566 357 125 44 52
247 566 362 140 72 68
244 572 361 148 86 78
243 576 362 158 99 85
243 577 367 174 111 94
282 831 336 116 73 76
249 563 365 151 89 77
250 565 368 161 100 87
242 566 381 180 125 104
242 575 376 180 120 101
196 615 326 105 82 56
332 531 212 45 35 39
243 577 372 178 116 98
247 571 372 177 114 95
242 571 378 185 126 105
250 565 372 168 106 89
307 541 197 79 34 40
250 565 377 176 113 96
250 564 380 181 119 99
297 562 344 139 26 50
223 651 302 88 22 35
194 584 258 55 27 34
196 591 262 82 25 41
198 596 262 185 15 49
259 519 405 168 120 97
193 595 268 189 6 50
198 601 267 194 10 52
337 571 322 164 16 51
194 599 273 195 3 51
196 601 272 196 3 52
199 604 268 197 8 51
277 553 200 169 2 33
198 605 272 199 5 54
202 601 262 191 13 49
367 566 242 40 28 31
199 781 331 179 123 93
298 762 309 68 53 43
203 605 263 194 14 50
355 683 239 146 12 46
205 603 260 191 13 51
350 651 219 96 66 57
208 606 258 191 13 50
200 602 265 195 14 53
194 600 277 151 8 46
469 774 228 118 90 68
266 825 322 147 104 88
195 603 276 156 13 48
195 603 280 40 26 35
358 701 298 149 10 46
194 604 284 121 24 44
196 606 287 63 31 37
196 581 319 160 6 50
259 842 336 152 114 96
193 600 302 149 21 51
320 899 259 80 73 73
196 607 292 77 35 41
362 691 184 122 91 54
197 606 297 83 32 40
200 607 303 46 30 34
189 744 299 153 107 76
193 595 311 118 32 47
195 598 308 76 29 35
197 601 307 119 29 46
197 597 312 68 28 35
199 599 315 67 19 31
272 791 227 79 62 56
199 604 306 63 32 39
201 601 317 173 13 52
200 598 318 161 18 51
447 576 267 165 109 75
201 602 312 126 24 45
200 603 308 85 32 43
201 606 307 109 29 43
203 606 317 168 7 48
204 610 268 190 8 51
205 613 270 55 32 36
427 576 252 132 101 62
336 541 335 70 22 32
199 609 278 168 12 49
198 610 287 136 30 47
200 608 275 201 3 51
204 614 273 49 33 36
327 566 326 177 7 56
289 898 255 70 61 60
203 615 277 103 35 45
200 613 287 109 27 42
205 618 276 88 35 41
208 620 273 76 28 37
207 621 277 79 34 42
204 620 283 166 26 53
204 620 287 71 29 38
205 622 287 44 32 37
208 625 282 38 35 39
382 817 376 67 55 45
207 626 287 85 32 43
209 609 259 192 13 51
213 610 258 190 12 48
212 616 262 185 13 49
424 597 245 168 113 86
216 617 260 185 11 49
211 617 266 167 18 51
198 646 351 172 123 98
214 619 264 187 12 49
202 653 349 179 124 98
217 621 262 181 11 46
212 621 267 189 13 48
209 619 269 164 30 60
348 706 304 29 28 32
215 622 265 183 13 48
210 623 275 196 24 56
327 737 304 66 52 45
370 839 264 51 45 39
213 626 272 127 17 42
281 806 231 81 64 57
215 628 271 180 12 52
216 631 272 192 6 50
371 540 320 186 3 58
218 625 263 179 11 46
307 691 206 112 21 28
295 823 326 119 95 69
224 625 259 172 7 44
222 626 261 175 9 45
347 583 325 157 20 50
222 631 262 176 9 45
227 731 332 153 100 76
218 631 267 184 11 48
220 632 265 180 12 47
326 844 378 40 37 36
222 636 267 186 11 49
282 839 348 100 82 64
224 635 264 178 10 49
223 641 267 154 4 40
220 637 271 193 8 53
300 833 235 163 115 91
221 641 272 165 6 45
209 624 278 87 32 40
288 893 250 72 62 58
214 629 274 191 13 58
267 641 228 89 29 35
215 632 276 190 8 49
212 631 282 146 21 47
470 833 169 102 81 63
216 636 282 104 27 44
257 601 337 85 32 40
452 541 316 95 28 42
394 788 172 86 67 56
214 635 287 38 32 37
216 637 287 62 31 40
219 639 274 195 14 48
218 641 287 161 11 47
372 822 216 80 61 55
200 612 292 136 35 48
201 611 297 61 31 35
358 801 254 35 32 32
202 616 292 112 30 44
202 611 302 74 30 35
204 615 302 101 29 43
204 620 292 134 33 50
282 726 212 86 26 35
204 619 296 112 31 46
205 621 297 64 31 38
205 622 292 108 35 46
382 823 216 76 62 56
205 617 302 48 31 35
347 592 330 144 14 44
205 621 302 44 32 34
333 724 200 49 35 32
362 596 272 53 29 34
197 621 317 91 66 44
194 622 319 94 75 53
198 618 319 94 62 39
199 623 314 85 61 39
203 611 307 134 26 49
400 819 319 67 57 47
367 831 256 36 32 29
204 611 312 165 14 48
367 726 272 115 26 44
204 615 306 143 29 50
205 616 307 82 27 36
203 611 317 145 24 46
202 616 317 101 44 39
204 616 314 127 25 43
207 621 307 60 31 36
201 620 315 91 53 40
202 622 314 84 51 39
207 626 292 85 31 42
208 626 297 39 32 35
257 521 332 42 24 28
208 626 302 44 31 34
298 543 361 137 21 44
196 625 316 95 74 50
322 631 301 69 31 39
197 631 313 101 78 53
338 917 322 65 59 58
198 626 314 93 70 45
337 852 216 90 73 65
277 691 216 125 12 31
386 567 249 56 30 30
326 860 385 53 49 49
197 636 311 109 81 54
197 641 308 117 84 57
197 701 300 124 92 59
196 639 310 114 86 57
235 818 265 85 66 61
202 631 311 93 67 47
207 626 310 74 48 42
301 865 388 40 37 36
202 637 309 111 74 54
206 636 309 104 68 52
208 636 310 102 65 50
202 741 292 118 88 58
206 641 309 115 70 54
211 631 297 54 31 34
210 628 303 37 31 32
392 781 152 85 67 57
209 629 300 37 29 31
315 671 310 118 24 45
212 631 302 43 31 34
213 635 292 103 28 42
197 746 294 133 99 65
214 634 296 136 30 46
216 637 292 91 27 41
216 636 297 121 27 47
214 634 300 67 25 37
218 641 292 150 19 48
364 788 254 57 45 41
218 641 297 69 28 35
219 640 302 67 27 37
210 627 307 51 33 34
331 651 296 132 20 46
212 631 307 62 38 39
210 628 310 72 48 46
314 876 214 117 90 72
371 841 302 39 34 32
248 813 319 137 98 73
214 631 315 119 77 69
209 789 279 170 115 82
217 632 317 96 51 53
216 632 313 81 53 51
312 852 372 34 31 32
208 641 311 111 66 52
291 781 210 80 63 55
207 746 338 166 119 90
216 637 307 73 35 38
376 830 307 34 31 31
211 641 313 119 70 59
487 535 273 117 19 39
213 636 315 124 76 65
217 636 317 120 75 68
213 641 315 134 86 72
313 864 214 88 70 64
216 641 318 127 85 73
225 604 365 179 122 99
274 538 380 115 80 73
221 632 318 118 22 43
219 640 307 106 31 43
221 637 313 90 23 36
381 696 207 143 98 65
223 641 312 79 17 32
330 678 305 39 28 29
466 583 284 197 135 117
222 635 316 125 19 43
225 632 260 171 7 42
245 881 326 165 126 101
225 636 262 172 8 46
226 641 262 154 4 41
227 636 318 137 16 45
226 642 313 111 19 38
228 641 316 113 13 37
231 637 319 124 12 40
198 581 321 134 16 46
319 631 304 120 27 45
277 791 226 80 63 56
344 882 272 60 52 49
197 591 322 174 9 52
198 586 327 95 25 40
272 621 224 67 37 40
377 736 187 132 98 77
282 811 231 82 65 59
348 825 258 31 29 28
199 589 330 84 29 39
382 706 217 151 102 71
417 579 275 76 40 40
201 581 327 56 28 31
202 581 332 58 28 33
204 578 335 55 27 32
200 584 328 48 31 34
203 586 336 130 22 43
292 581 206 86 32 38
202 591 332 94 29 38
339 607 289 85 32 40
428 831 223 126 101 86
204 590 335 85 32 33
211 691 340 163 113 84
206 581 338 69 27 32
208 581 341 60 34 32
211 817 307 213 142 109
206 590 342 102 77 53
359 798 254 37 33 30
203 592 343 113 88 61
207 586 352 127 98 68
386 639 225 168 110 83
199 602 338 119 91 63
199 608 328 101 74 46
201 597 322 184 9 55
202 596 327 161 18 50
367 851 252 76 63 60
356 514 367 55 28 31
202 601 322 168 11 49
203 601 327 123 33 42
203 596 332 77 41 36
369 671 190 124 92 57
364 852 246 72 61 58
201 600 337 112 86 59
201 606 327 102 55 40
199 598 344 127 98 67
447 553 299 171 18 54
199 598 346 131 100 69
366 855 366 54 47 43
248 852 312 160 119 92
196 606 342 133 101 69
197 606 347 141 105 75
200 599 341 120 93 63
202 596 352 138 105 74
200 599 349 135 103 73
211 581 343 69 46 35
211 581 347 85 66 47
209 582 352 121 94 65
425 834 251 82 66 56
329 933 317 66 60 59
437 536 313 85 30 39
282 666 219 51 35 37
210 584 343 75 58 39
208 586 357 137 103 75
333 523 352 97 29 43
203 601 356 148 112 84
206 596 358 146 109 82
205 600 359 148 111 84
208 591 361 145 108 81
317 891 377 53 48 47
321 546 208 136 2 33
278 602 329 138 18 45
208 601 361 150 111 84
338 786 182 57 48 45
202 606 357 149 110 83
218 751 258 78 24 36
340 666 201 121 90 68
211 581 357 134 103 73
217 581 367 145 108 82
342 516 382 140 21 49
214 582 365 144 108 81
210 585 358 139 105 76
299 888 219 109 88 71
309 696 324 122 23 42
328 771 288 72 55 47
209 588 360 142 106 79
214 586 365 144 107 80
217 591 367 155 111 86
222 581 371 157 112 88
365 711 291 118 24 44
220 586 369 156 111 87
222 586 371 161 114 89
221 592 369 166 116 92
223 590 370 167 116 91
211 596 363 150 110 84
213 596 365 156 113 88
296 614 331 119 32 47
213 601 365 161 116 90
217 601 367 166 118 92
205 802 301 196 133 103
463 553 264 98 80 58
211 606 364 160 114 89
213 606 365 163 115 90
217 606 365 171 120 95
222 606 365 180 124 101
387 605 215 101 86 71
408 611 227 170 117 84
194 612 333 122 95 64
262 896 382 46 42 42
193 611 337 129 98 66
368 829 254 36 32 31
200 609 326 99 64 41
194 608 340 134 101 69
195 610 344 141 104 75
497 560 259 187 128 113
193 616 342 143 106 75
196 611 347 144 106 77
195 616 348 149 109 80
302 536 377 175 25 59
198 611 352 149 109 82
197 616 352 152 111 84
193 621 347 152 111 83
302 746 312 75 59 48
195 620 349 153 112 84
197 621 352 153 112 84
261 537 195 68 27 33
193 626 347 154 112 83
197 626 352 153 111 83
197 631 352 154 111 84
193 636 347 153 110 81
252 810 320 119 90 70
195 633 349 152 110 80
195 641 349 158 115 87
219 629 320 108 23 37
223 628 323 102 19 36
221 791 265 69 56 54
222 631 322 119 28 43
260 918 369 57 52 52
264 593 339 129 46 57
222 631 327 132 81 69
219 637 322 112 63 59
436 805 287 89 68 58
218 641 322 118 77 67
249 934 332 56 54 56
219 637 327 136 87 72
218 641 327 137 89 73
220 634 322 114 47 52
203 716 340 170 117 92
220 635 327 135 85 72
219 637 331 149 96 80
331 795 186 61 53 51
218 641 332 150 97 80
219 641 337 161 106 87
221 636 332 152 98 83
221 636 337 163 106 88
262 515 367 60 35 34
337 781 277 62 49 43
220 639 334 158 101 85
507 852 197 91 79 74
312 891 382 52 48 48
333 926 327 75 69 68
220 639 337 164 107 89
467 531 267 73 28 31
224 627 342 165 108 90
223 626 352 177 119 96
397 595 226 102 87 71
221 631 351 178 120 96
437 786 252 103 75 51
221 636 342 172 114 92
218 641 347 176 117 93
219 638 349 178 119 95
290 714 340 162 15 52
221 636 347 178 118 95
220 635 350 178 120 96
220 639 346 177 117 94
199 616 355 152 112 84
200 610 354 151 112 84
202 611 357 151 110 84
202 616 357 152 111 84
205 611 359 151 109 84
321 776 291 64 49 43
190 742 329 173 116 92
205 616 359 157 112 86
427 828 244 77 61 54
207 611 361 156 111 87
208 621 360 166 116 92
359 603 267 129 23 47
200 631 354 157 112 88
207 631 358 171 119 94
201 641 354 171 121 96
210 778 275 164 109 78
203 640 355 171 119 95
207 636 356 174 122 97
207 640 355 176 122 98
212 611 363 166 116 91
217 609 365 174 123 97
217 616 362 181 127 103
212 621 361 175 122 98
217 621 361 180 124 101
306 827 226 62 54 52
222 611 362 180 122 97
220 609 365 180 126 102
223 617 358 175 119 93
224 622 353 177 119 97
184 681 309 153 107 77
316 889 381 56 52 51
220 619 360 182 122 98
269 716 219 39 35 40
242 761 327 136 97 68
212 627 359 178 125 100
212 631 358 179 126 101
212 641 353 180 122 96
214 637 354 179 121 97
218 632 353 177 119 94
239 582 344 66 28 33
305 539 371 188 15 59
239 578 350 101 46 49
239 581 351 121 73 66
238 586 343 51 28 33
238 586 352 133 85 74
355 615 262 183 8 58
237 591 352 146 95 80
268 628 329 129 26 48
231 606 337 116 66 60
278 637 324 172 17 54
216 796 272 74 58 53
368 578 258 106 22 42
318 831 194 71 57 56
237 605 335 62 29 31
232 601 342 132 89 75
230 606 342 144 96 82
231 606 352 168 109 93
233 596 342 104 65 58
375 702 225 151 102 77
235 594 342 83 40 42
297 548 200 68 25 25
234 597 347 139 92 79
235 595 352 156 103 85
233 601 352 164 108 91
234 597 352 158 104 87
322 711 201 41 36 41
324 908 275 73 66 66
354 671 257 50 28 33
358 761 268 82 65 59
247 581 343 92 24 34
240 579 345 66 22 28
247 586 342 56 27 31
352 840 332 32 30 31
257 581 343 91 27 37
257 591 341 104 32 45
242 601 336 32 27 28
242 606 335 65 26 31
241 608 334 66 24 29
362 686 272 103 18 38
252 606 336 123 28 46
242 592 339 71 27 35
242 596 338 80 27 38
252 597 339 56 28 33
266 821 317 156 116 99
216 671 332 134 93 71
252 594 340 77 28 37
252 601 338 84 31 40
257 595 340 65 31 36
355 676 252 117 24 43
257 606 336 69 28 35
239 586 357 157 102 86
237 591 357 165 109 90
239 586 362 172 111 92
326 651 301 59 30 36
238 586 367 178 116 96
237 591 362 175 116 95
232 581 374 180 124 104
289 636 219 75 27 32
232 579 375 177 121 101
227 590 370 176 123 100
232 586 372 184 126 105
282 616 336 153 21 52
236 579 375 183 125 107
242 646 322 52 27 32
237 581 373 180 119 102
236 585 371 181 119 98
282 938 296 88 81 82
197 781 327 184 126 98
227 596 368 179 124 101
230 599 366 183 123 100
230 606 357 177 118 97
296 898 255 84 77 77
228 602 364 180 122 98
227 606 362 177 119 96
234 598 357 174 114 95
404 773 161 104 77 62
235 595 361 174 113 95
240 581 357 146 93 79
241 581 362 164 106 90
241 581 367 177 115 96
240 584 358 153 99 84
409 818 335 65 50 38
240 584 365 176 113 94
367 721 233 122 81 64
257 651 324 108 22 42
241 580 371 179 117 100
229 612 337 137 92 79
229 612 334 107 65 58
253 516 397 153 109 90
232 611 333 70 36 39
230 609 337 131 84 75
322 605 332 125 21 44
228 616 332 115 69 63
232 615 331 57 30 31
227 621 328 82 45 43
332 571 216 132 10 33
232 621 327 50 28 30
228 618 329 83 45 46
225 621 337 154 104 87
324 831 277 67 58 50
232 618 329 75 33 39
237 611 333 98 29 41
287 696 211 110 23 33
238 619 330 44 27 28
367 645 220 139 91 72
229 612 342 153 103 87
228 616 342 160 107 90
229 612 347 168 111 91
230 609 352 172 114 95
405 619 232 185 124 98
228 616 347 169 113 92
294 636 319 153 23 52
226 621 342 163 107 88
297 846 248 116 81 69
226 621 352 176 118 96
226 625 326 85 42 42
227 631 321 139 19 46
232 626 326 38 26 28
231 628 324 86 31 37
229 634 320 141 17 48
234 629 325 34 24 27
238 630 325 77 23 36
264 693 335 110 39 49
237 636 323 117 13 36
237 641 322 127 20 44
225 624 342 163 106 88
225 624 347 173 114 93
242 611 333 107 26 42
355 619 256 180 0 56
244 609 335 108 22 38
349 776 269 68 53 47
247 609 335 123 23 42
247 616 332 59 27 31
242 621 330 58 28 31
252 610 335 88 25 35
256 609 335 50 27 34
237 829 306 82 45 40
409 544 304 158 19 54
251 620 330 86 23 36
252 622 329 143 28 51
357 672 225 88 56 51
257 617 329 39 26 28
311 915 370 56 53 53
257 621 329 81 25 34
362 766 162 48 41 40
301 871 226 72 63 62
242 631 326 139 23 47
317 581 208 127 27 41
247 626 328 81 27 36
370 750 156 55 46 39
245 624 330 58 21 28
242 641 323 146 24 49
247 636 327 160 22 52
333 513 393 118 35 47
247 640 325 160 20 52
282 731 212 62 32 38
272 552 200 174 2 37
257 626 331 62 25 30
219 736 258 55 34 39
314 568 329 130 19 46
254 628 330 40 25 28
257 631 331 86 31 39
252 636 328 125 24 45
507 561 297 83 33 39
331 910 287 80 70 69
257 636 327 98 21 39
382 820 243 50 42 34
462 541 318 92 32 41
327 571 212 138 4 34
226 610 361 176 119 95
248 526 387 152 115 93
350 536 330 165 16 50
251 516 392 155 113 94
255 516 399 156 112 92
253 521 397 155 112 92
368 638 224 132 86 69
256 526 398 166 116 97
257 516 402 158 113 93
247 531 387 152 114 91
342 761 282 70 54 46
245 534 384 147 114 91
246 536 387 149 110 86
243 541 386 142 106 82
501 551 301 107 28 43
246 541 388 161 116 94
477 526 282 124 19 40
249 531 390 157 113 92
251 531 393 159 113 91
437 795 289 82 65 50
249 536 390 163 116 94
252 536 393 174 122 101
254 535 395 179 126 106
249 541 390 173 123 103
252 541 392 178 123 104
237 796 252 77 60 54
247 551 387 168 117 97
247 556 386 177 122 102
236 822 271 85 67 62
366 776 256 66 53 48
247 559 385 183 125 107
252 547 389 175 119 98
252 551 388 178 121 101
369 705 261 38 30 34
338 686 202 91 67 50
257 545 390 191 131 111
432 786 257 78 60 48
257 551 386 183 121 101
337 886 257 84 72 71
252 555 386 185 125 107
422 801 257 85 66 54
182 646 312 131 93 67
415 601 239 173 120 84
179 646 317 154 100 83
180 645 316 146 98 79
482 531 268 110 20 27
182 651 312 144 98 72
198 791 322 191 131 102
182 656 312 144 99 71
186 646 310 126 94 61
188 646 309 130 98 66
362 561 232 97 26 34
340 781 180 53 45 43
273 939 299 85 77 76
184 651 309 136 97 66
187 651 308 136 99 69
185 649 310 132 96 62
317 532 372 191 5 60
187 656 307 139 100 69
184 656 309 134 96 66
192 656 305 144 103 73
182 661 312 143 99 72
263 534 400 184 128 110
398 596 251 158 107 98
282 746 332 71 31 38
181 661 317 166 113 89
182 666 312 151 105 77
181 666 317 163 110 86
181 671 317 165 114 88
328 830 264 45 40 36
187 661 307 133 97 65
187 666 307 131 96 64
322 852 386 46 42 40
241 731 324 48 26 30
184 666 309 133 96 67
224 701 329 135 91 70
184 671 309 144 105 73
437 831 217 98 79 62
192 666 305 130 95 62
192 686 303 129 97 63
182 676 312 162 113 83
429 783 267 46 36 28
182 686 317 165 112 87
372 517 337 132 30 50
281 685 215 87 25 30
187 676 306 140 103 69
187 681 306 140 101 70
186 686 306 140 102 70
184 686 309 152 107 77
189 686 304 134 100 65
371 691 225 143 94 71
188 691 304 135 101 66
192 691 302 129 97 63
188 696 303 136 101 67
511 576 296 73 34 38
188 701 303 138 101 69
182 691 312 164 115 86
397 585 302 75 26 34
224 662 292 48 30 34
184 692 309 155 111 81
182 691 317 166 114 88
184 701 308 159 112 82
316 795 285 144 103 83
402 821 377 71 55 44
183 701 312 163 114 89
183 701 317 168 116 91
279 877 262 51 47 49
186 696 306 145 106 74
448 767 266 92 76 60
185 701 306 150 107 78
179 646 320 160 105 86
180 646 323 159 107 85
377 622 198 105 88 68
181 646 327 163 110 87
183 646 332 165 112 88
180 651 322 172 114 92
346 880 277 61 53 51
181 651 327 165 109 87
367 551 237 48 32 36
282 791 222 79 63 56
184 642 335 163 113 87
185 651 334 153 102 78
190 646 343 159 112 84
423 812 282 88 69 61
193 646 347 160 115 87
191 651 343 161 114 87
189 656 340 157 110 83
191 656 343 166 117 91
283 518 343 39 23 25
193 651 346 167 119 93
301 710 205 92 28 32
182 661 327 162 109 83
181 666 322 163 111 85
182 671 322 165 112 86
184 666 331 165 113 85
184 671 331 166 113 86
185 661 334 164 114 85
272 751 332 72 57 52
187 661 337 165 115 89
330 604 300 69 32 37
391 806 222 115 85 71
187 666 337 169 117 92
185 671 334 168 114 87
418 584 294 90 24 33
189 661 340 165 117 91
190 667 339 172 119 95
412 751 167 75 59 45
329 917 291 85 74 73
191 671 339 174 122 96
193 671 341 174 120 97
182 676 322 166 115 86
387 840 267 63 53 45
182 681 322 168 115 87
183 681 327 167 114 88
454 530 260 46 39 38
182 686 322 168 114 90
186 676 333 166 115 88
188 676 336 168 115 89
290 695 210 125 14 30
188 681 335 165 113 90
184 686 330 168 115 89
186 686 333 165 114 88
189 686 335 164 113 89
191 676 338 176 123 96
192 686 338 168 116 92
183 691 327 171 116 92
184 696 327 172 118 93
211 746 272 97 31 38
183 701 322 175 121 95
184 691 330 169 114 92
187 696 332 167 114 89
290 749 325 70 55 49
189 691 335 164 114 89
442 535 262 121 16 36
385 854 287 76 67 63
267 538 195 139 16 37
192 691 337 166 115 91
189 695 335 164 113 88
185 697 329 171 118 92
270 514 365 52 32 29
187 701 332 167 115 89
188 706 303 144 104 72
188 711 303 148 107 76
192 706 300 134 100 66
188 716 303 149 105 76
188 721 302 151 107 79
191 716 300 141 102 71
192 721 298 140 102 70
317 821 287 92 75 59
184 706 308 162 113 84
383 564 314 55 30 30
183 706 312 163 114 89
402 515 331 116 27 44
184 711 308 166 115 87
183 711 317 170 116 91
267 936 352 60 56 56
183 716 312 168 116 91
185 706 305 154 110 80
185 711 305 159 112 82
258 871 298 165 128 101
185 721 305 162 112 84
187 726 302 152 107 79
189 726 299 144 104 74
189 731 299 143 102 73
357 536 221 101 32 42
192 731 296 138 101 70
189 736 299 144 102 73
192 736 296 138 101 70
363 726 287 127 24 46
185 726 306 163 113 85
184 726 308 165 114 86
271 901 256 93 83 82
184 726 317 168 114 88
185 728 319 169 115 91
185 731 306 162 112 84
185 736 307 163 111 86
184 736 309 164 112 88
304 856 227 64 59 59
362 711 237 136 18 46
184 736 312 168 114 90
302 816 221 85 67 58
289 764 209 72 58 51
286 776 216 75 60 54
184 731 317 170 118 91
185 732 318 172 118 92
184 735 315 171 117 91
273 753 329 80 64 55
185 736 317 173 118 92
357 746 277 75 59 52
310 793 205 82 63 56
189 741 299 149 105 75
347 836 197 119 89 64
351 832 267 29 26 28
188 751 302 170 115 88
192 746 297 145 104 73
190 752 300 164 113 84
184 740 311 170 116 91
185 741 312 171 117 92
185 738 314 171 115 92
185 746 312 176 120 96
302 811 217 83 65 57
186 751 307 176 120 95
186 751 312 181 123 98
186 746 317 179 120 97
188 756 303 178 121 93
448 831 233 99 81 66
191 756 301 172 117 88
189 760 304 183 123 96
189 761 317 188 128 102
190 766 307 189 129 102
214 660 315 150 100 85
189 765 312 191 131 104
190 766 317 188 129 101
385 849 351 66 56 52
184 706 322 172 119 94
185 711 327 164 111 87
188 711 331 165 113 88
314 722 314 129 18 43
190 706 334 166 115 89
190 711 334 166 115 90
406 737 148 88 67 50
184 716 321 168 115 89
186 716 327 166 113 87
366 561 237 65 28 32
302 571 202 78 34 39
449 788 275 92 74 62
184 721 320 168 114 88
185 721 322 169 115 89
188 716 332 166 112 88
184 726 320 169 114 90
185 726 322 170 115 91
232 676 313 50 25 28
187 726 327 174 118 95
188 726 331 171 115 92
378 569 245 38 31 39
185 731 322 173 118 93
442 583 292 131 50 52
185 736 322 176 120 95
187 736 327 177 120 96
192 731 332 174 119 95
187 746 322 183 123 98
188 746 326 181 121 95
187 751 322 184 124 100
336 839 367 44 40 38
189 751 326 181 121 96
193 746 331 174 120 94
370 687 225 141 91 70
188 756 322 185 125 102
191 756 327 178 122 95
190 758 324 184 125 101
216 686 336 142 99 72
192 761 327 179 124 95
191 766 322 185 126 100
382 827 237 73 62 56
223 646 272 190 7 53
359 583 294 158 20 45
220 642 282 128 5 33
222 646 282 174 1 49
224 651 277 136 1 37
292 832 336 126 101 75
224 667 277 84 20 33
223 671 277 73 26 34
223 666 282 52 30 33
221 671 287 54 30 35
344 819 254 28 26 27
272 596 217 49 35 40
197 646 307 123 85 60
202 646 307 124 79 60
415 738 165 65 51 37
206 646 309 124 74 58
208 646 311 122 69 57
202 656 307 128 81 59
399 817 316 58 48 38
206 651 308 128 76 59
250 918 352 76 69 69
452 828 191 109 84 64
208 651 311 127 74 60
197 671 305 125 88 58
202 661 307 128 82 61
380 681 207 147 102 67
276 837 250 190 132 108
207 666 308 123 79 58
207 671 308 122 81 59
270 660 225 44 36 39
220 643 297 84 31 43
221 646 297 114 24 41
235 694 319 44 22 22
372 636 191 127 95 58
221 646 302 116 19 41
223 656 302 61 24 32
214 646 316 150 104 88
209 655 310 124 73 57
277 951 342 54 51 52
217 756 339 166 123 90
211 651 313 139 90 76
212 656 312 133 83 68
214 651 316 152 107 91
382 642 223 152 99 77
215 651 318 131 93 78
287 856 362 69 59 53
391 837 351 60 47 40
214 656 315 153 104 88
355 701 300 155 16 50
319 942 333 56 50 47
222 646 307 72 24 31
224 646 310 65 25 31
282 531 194 145 10 36
224 663 288 49 30 32
482 582 266 177 113 93
222 666 297 79 22 37
362 751 172 66 57 52
222 671 297 84 19 35
243 906 312 56 53 54
223 671 302 73 21 33
209 661 310 119 72 54
360 825 207 96 77 71
212 661 312 124 75 61
216 661 317 124 88 72
393 751 183 46 36 30
212 671 311 117 74 57
367 791 252 115 91 71
223 661 307 86 34 37
223 671 307 81 40 37
219 671 317 106 76 62
220 672 318 93 66 50
223 676 272 92 24 38
223 681 267 141 21 47
470 550 261 100 83 63
223 686 267 59 33 36
223 676 277 85 26 37
502 848 202 88 82 78
222 676 282 71 31 38
239 829 278 80 64 61
476 774 230 107 84 65
221 676 287 58 31 36
377 681 217 152 104 73
221 686 277 84 27 37
221 686 282 51 30 35
221 696 272 114 13 36
260 619 329 36 25 26
306 807 290 130 99 76
224 701 263 108 23 40
437 566 262 127 95 59
222 701 267 130 13 40
282 541 196 92 35 40
376 849 258 79 66 63
221 691 277 111 10 35
222 691 287 80 22 35
491 545 258 174 112 103
215 720 276 125 9 36
220 695 282 91 16 31
220 695 287 91 13 32
237 731 323 51 35 31
219 698 279 107 11 35
219 702 278 79 23 33
219 703 274 75 27 30
314 603 320 59 21 36
220 700 276 108 21 39
345 880 262 74 61 58
219 701 282 50 29 34
219 697 287 70 23 32
218 701 287 80 26 37
197 681 303 122 90 58
350 646 247 76 29 38
420 814 282 89 70 62
198 675 305 122 87 56
344 897 306 46 40 35
202 676 305 121 83 57
200 678 304 120 84 57
379 824 219 72 58 52
203 681 305 117 81 55
292 552 345 57 23 29
204 685 305 116 81 57
337 842 292 37 34 32
207 686 306 116 78 56
197 696 301 123 92 59
202 696 302 120 86 56
207 696 303 116 78 56
207 701 302 116 78 54
208 691 307 115 77 56
353 876 317 63 56 54
208 694 306 115 76 57
221 676 292 36 30 34
222 681 292 55 28 35
223 681 297 33 29 31
272 761 323 78 61 51
223 676 302 39 27 29
223 681 302 44 26 29
222 686 297 48 28 31
221 686 302 55 30 32
211 676 309 117 76 59
212 681 308 112 75 57
371 741 252 100 51 49
217 676 312 126 80 69
214 679 310 108 67 55
217 681 311 108 66 55
216 682 309 93 54 45
223 681 307 74 57 52
395 839 312 79 65 59
430 819 366 79 62 48
219 674 315 119 87 75
439 588 267 208 138 112
220 677 314 116 83 73
221 681 313 94 68 58
222 686 307 64 42 39
327 616 221 67 30 35
223 686 317 65 50 40
315 849 362 33 32 33
216 691 302 68 46 34
403 581 319 53 28 33
215 695 301 75 45 33
211 700 301 107 70 51
217 701 297 85 26 34
219 697 292 88 18 35
222 691 292 86 20 34
221 691 297 49 26 30
221 695 292 87 9 32
220 694 295 84 22 35
247 776 327 151 110 79
220 689 300 41 30 31
219 701 292 107 18 36
212 695 306 97 65 48
213 700 305 105 69 50
267 536 194 94 25 37
221 690 309 62 40 34
227 646 262 181 9 50
202 801 317 198 136 107
224 645 268 195 6 54
225 648 270 179 2 49
437 826 242 85 68 58
470 779 241 109 80 55
322 892 252 76 69 68
228 651 262 163 6 44
229 650 259 158 6 42
230 652 260 161 4 46
372 531 323 180 12 57
230 655 260 119 7 34
226 651 267 158 3 43
225 651 272 139 4 38
307 816 218 83 65 58
451 527 258 49 38 38
227 656 267 89 20 36
224 650 273 153 3 41
224 655 277 149 1 43
355 544 325 190 9 61
388 787 147 100 77 61
349 883 316 62 55 51
224 655 281 143 0 45
313 820 293 95 78 61
226 656 287 128 4 38
377 541 316 186 1 59
224 654 287 132 4 36
367 825 361 61 51 44
228 661 262 90 29 40
227 661 267 123 22 46
311 534 357 154 16 49
417 523 251 185 1 44
229 666 258 74 31 40
267 846 356 150 116 94
228 666 262 109 32 47
302 706 205 115 19 29
228 671 262 49 34 37
227 666 267 55 32 38
226 671 267 75 27 37
225 670 271 103 20 35
225 657 277 151 0 43
226 661 282 106 11 36
226 661 287 87 16 35
225 665 276 98 16 36
224 649 292 161 13 50
225 652 292 132 10 37
225 652 296 104 26 40
207 701 341 171 120 94
225 656 296 54 27 33
402 517 241 167 7 44
224 656 298 36 31 34
340 839 184 156 121 87
226 646 313 56 20 27
378 840 357 61 51 43
229 646 315 71 19 29
314 755 194 68 51 47
225 656 309 44 32 33
229 649 315 27 25 27
232 651 316 29 25 28
230 652 314 30 26 28
356 865 253 76 63 59
231 656 314 30 27 27
345 750 285 75 57 50
341 605 224 37 30 35
462 566 299 126 10 39
233 656 316 29 27 28
347 751 282 76 58 50
237 651 318 54 29 33
237 656 318 33 27 28
226 660 292 90 21 36
227 661 311 59 23 27
225 667 309 103 28 34
296 538 374 61 26 30
227 666 311 69 19 28
225 671 309 85 34 34
440 828 205 81 64 50
228 671 311 54 22 25
233 661 316 33 25 25
234 666 315 58 23 25
284 514 365 44 23 27
234 671 316 57 25 31
240 662 319 64 31 33
226 681 262 65 33 39
417 535 263 65 35 39
225 675 266 58 28 37
267 596 338 57 31 35
282 928 280 85 78 77
224 673 269 121 11 32
195 662 344 175 119 96
226 686 262 53 34 39
293 741 328 136 22 47
224 684 264 73 28 31
225 690 265 41 32 34
224 692 264 38 37 37
225 676 309 75 53 50
225 680 309 69 63 64
417 536 307 143 27 53
227 686 312 42 23 25
231 686 314 39 23 25
234 682 315 24 24 26
233 686 315 26 25 26
237 686 317 33 25 26
227 691 313 35 24 24
225 691 317 48 38 32
227 696 317 40 31 27
366 796 251 100 81 63
230 691 314 28 24 23
232 696 317 58 19 24
277 950 312 84 79 82
352 706 183 137 100 65
228 700 318 37 28 27
236 690 319 36 26 26
306 796 291 137 97 78
241 681 319 133 22 46
240 689 319 57 32 35
322 601 335 178 20 58
196 646 349 167 120 93
308 612 314 133 26 48
197 651 348 174 123 99
194 656 345 174 122 97
197 656 347 177 123 98
199 650 350 177 125 100
202 656 348 179 124 98
207 650 351 182 124 99
317 851 207 91 71 63
208 652 348 181 122 95
197 661 346 177 122 98
299 713 204 62 34 38
197 666 344 173 118 95
310 875 220 111 93 78
197 671 343 172 117 94
198 665 345 176 120 97
305 842 346 73 62 51
202 661 346 177 125 98
359 583 298 162 20 49
206 660 345 174 121 95
204 663 344 168 121 94
202 666 344 171 121 94
216 651 322 123 82 69
215 651 327 137 91 75
296 939 360 64 59 60
214 653 328 141 95 77
287 939 360 85 83 86
215 650 332 144 96 79
402 731 152 89 68 49
215 651 337 146 96 79
214 653 332 142 95 79
214 656 332 135 92 74
390 804 230 125 88 70
446 820 235 92 74 62
214 653 337 141 94 76
213 656 337 137 91 74
216 646 322 123 84 70
281 847 256 182 126 101
217 646 332 148 98 80
300 790 300 137 98 81
217 646 337 155 102 83
327 931 342 51 45 43
216 656 322 121 80 67
448 782 243 107 79 55
213 647 348 176 118 92
379 710 196 129 93 63
216 645 347 174 117 92
212 656 342 157 110 87
215 650 342 159 107 86
212 651 347 175 117 92
210 649 350 181 122 96
210 654 345 173 116 91
219 642 342 172 113 91
216 661 327 133 93 73
214 660 332 131 91 72
212 661 337 134 93 73
217 666 327 130 89 70
214 666 334 133 89 70
219 670 322 115 79 64
220 672 322 113 77 62
210 660 340 152 104 83
287 646 219 112 18 33
209 670 339 149 103 79
343 891 348 41 37 37
194 675 340 176 121 97
330 574 214 134 5 32
197 676 342 172 118 94
207 676 341 159 110 84
207 686 342 167 115 89
195 691 339 168 115 92
262 591 218 46 37 42
274 698 340 45 28 26
197 691 341 169 116 92
195 696 339 170 117 93
348 886 312 60 53 50
198 696 340 169 116 92
196 701 339 170 117 93
