ply
format ascii 1.0
comment Created by Open3D
element vertex 2220
property double x
property double y
property double z
property uchar red
property uchar green
property uchar blue
end_header
404 399 206 91 77 64
289 818 213 181 123 92
229 449 320 155 20 52
323 99 209 122 95 72
173 498 275 135 103 80
309 433 179 94 26 25
172 473 300 47 38 35
207 479 264 61 29 30
194 499 302 54 25 28
308 689 292 47 27 32
380 289 237 111 88 61
385 129 236 112 85 60
329 139 217 134 105 71
314 220 224 136 104 64
272 478 209 45 32 30
284 729 216 104 83 57
509 469 341 61 37 34
365 800 197 70 58 52
188 478 309 159 23 55
245 679 251 193 132 106
429 489 183 139 5 30
334 981 276 59 57 58
213 437 306 48 38 24
320 108 212 142 76 66
475 714 176 74 56 41
168 469 310 67 29 34
334 669 303 169 19 54
314 499 304 44 25 31
296 674 270 48 23 31
254 494 310 135 13 40
408 552 183 139 16 42
249 619 272 178 130 104
467 737 158 96 71 51
275 284 286 112 89 63
343 119 230 115 81 56
329 204 227 130 96 57
239 589 276 170 119 98
370 424 177 97 26 31
389 760 307 76 62 58
413 700 310 132 9 42
166 466 312 63 30 26
426 229 246 116 93 66
470 724 282 171 113 84
293 909 296 122 103 87
309 49 221 139 51 60
176 527 277 233 156 137
420 334 272 126 96 61
244 489 310 72 25 32
484 518 336 206 141 115
162 503 289 124 91 73
266 445 223 103 26 28
165 469 311 52 32 28
491 468 285 146 16 41
308 806 268 65 57 52
399 767 304 83 66 59
380 55 206 92 76 60
454 814 211 68 53 47
169 469 306 54 33 31
489 734 206 68 55 44
385 385 222 93 80 67
374 699 204 55 36 37
316 90 222 103 31 38
295 568 198 83 32 36
416 515 321 61 26 32
438 414 271 111 88 60
189 480 308 74 19 30
344 514 172 125 6 25
413 319 232 102 84 65
419 424 300 118 86 62
382 224 253 113 91 67
472 782 224 76 47 37
256 737 254 175 119 93
199 459 317 181 10 56
329 729 309 184 0 59
294 399 304 140 102 81
159 499 332 56 20 30
445 564 220 162 18 37
503 434 251 85 28 33
404 24 271 130 25 49
164 474 311 57 32 28
344 399 231 99 80 58
429 829 206 64 54 53
294 407 210 103 82 66
161 508 312 95 20 37
319 375 232 98 83 69
379 629 213 74 32 36
306 47 239 108 60 45
364 400 216 93 73 55
487 731 208 65 52 43
185 454 301 79 33 24
287 209 251 112 92 71
244 654 266 191 140 116
453 706 178 77 56 45
494 425 251 47 22 21
389 43 215 107 92 71
201 483 309 64 27 31
284 319 312 131 92 73
234 489 311 78 25 33
478 454 202 73 39 42
168 474 306 62 38 27
379 844 275 128 103 83
299 544 186 81 24 34
304 474 303 44 27 30
334 69 201 128 73 60
379 314 236 113 90 63
166 475 307 62 34 36
464 604 306 179 127 94
370 369 246 122 94 80
170 474 312 145 14 48
283 374 244 109 90 67
161 475 316 81 16 32
310 34 213 125 49 46
313 74 226 118 74 60
265 584 226 191 4 50
239 423 266 55 39 32
338 154 241 111 86 58
477 499 247 47 35 38
179 474 291 71 37 27
189 497 274 63 37 30
459 869 266 82 62 52
479 559 301 163 116 81
164 474 316 117 16 42
163 480 320 139 14 45
254 423 281 61 48 39
272 674 264 172 127 108
523 839 309 101 79 61
314 549 308 116 21 42
167 479 314 149 10 49
335 219 261 118 92 64
290 384 238 97 83 68
303 945 245 76 71 72
459 849 246 96 74 66
490 454 226 51 37 38
329 794 199 78 62 54
360 844 218 141 98 77
189 464 315 177 11 57
199 511 268 81 43 26
384 119 241 116 85 64
307 187 263 111 92 71
444 869 327 64 51 40
254 423 261 68 44 37
224 456 318 173 16 55
330 847 222 184 132 101
172 468 304 64 36 31
389 64 188 105 39 24
303 884 261 141 108 81
469 649 296 195 133 107
382 174 241 107 85 61
408 884 180 99 85 76
236 426 318 95 39 34
289 204 256 110 91 72
312 297 248 123 88 60
174 469 313 112 17 41
420 490 179 125 20 38
167 497 284 106 87 66
440 817 284 154 112 86
294 689 271 99 27 42
208 468 270 71 34 30
277 269 256 127 96 63
325 229 272 122 98 70
174 479 311 115 10 38
349 455 184 120 10 24
377 214 231 123 96 62
421 212 253 121 98 72
275 594 221 55 30 34
187 456 318 133 10 42
470 669 276 129 94 62
394 209 262 113 91 66
262 679 234 126 93 55
465 861 264 93 72 60
321 291 254 130 92 67
271 827 245 212 147 118
282 801 263 186 142 113
298 29 226 153 58 65
440 860 235 66 57 56
240 426 305 55 43 33
430 374 271 111 88 62
394 404 191 90 76 62
174 474 312 155 16 49
466 851 319 55 45 35
189 488 304 28 26 29
189 454 296 71 28 33
415 254 219 140 100 60
180 506 303 139 89 78
376 244 237 128 98 65
419 404 297 124 94 63
191 455 293 80 32 36
342 912 209 65 59 61
375 74 250 121 15 43
332 238 238 131 93 60
230 426 276 48 34 30
399 564 315 126 16 41
293 689 266 102 20 38
209 469 266 93 29 23
380 84 250 114 56 57
405 99 201 131 25 42
493 453 261 62 35 36
383 179 246 109 88 65
189 450 301 59 24 24
190 450 297 95 14 29
285 14 256 133 48 52
318 129 248 115 93 68
310 129 231 112 94 75
225 599 266 178 124 99
448 506 323 84 18 29
367 962 243 77 71 73
266 411 233 84 31 28
179 494 276 105 91 77
329 69 249 116 31 46
389 294 281 110 88 63
262 698 229 129 94 57
252 422 315 61 38 26
393 51 193 123 36 19
372 906 199 86 71 69
399 883 301 32 30 31
284 489 195 124 14 32
188 459 295 67 30 33
234 428 316 52 40 33
263 524 220 164 7 40
249 609 273 169 124 101
407 76 193 133 21 43
319 134 249 115 92 67
464 444 186 103 23 37
162 486 324 127 9 41
324 398 206 99 84 68
428 259 231 126 97 61
167 492 299 48 35 34
299 280 239 151 104 71
312 574 309 64 27 31
308 669 286 38 28 31
395 229 265 116 94 69
365 874 207 50 46 47
189 464 291 74 35 27
494 844 296 101 85 74
322 16 259 106 45 50
474 504 336 113 83 75
219 430 276 54 35 34
419 809 176 66 53 46
423 863 332 48 40 36
187 462 294 86 34 28
189 531 291 209 144 125
499 433 276 58 33 30
215 436 311 57 31 25
426 324 246 109 89 65
335 634 304 61 30 34
190 459 292 73 29 28
388 675 213 42 34 38
427 729 305 178 16 57
339 529 169 105 18 32
378 424 328 121 24 44
208 484 265 81 28 33
470 474 205 60 36 38
179 454 311 44 26 27
319 509 167 143 11 39
284 669 256 75 52 42
360 419 188 96 28 31
388 234 220 131 99 59
169 499 281 101 82 63
439 819 282 146 104 80
180 455 307 60 39 28
286 17 246 192 151 154
331 362 254 89 75 62
455 485 330 95 10 33
430 854 221 70 57 57
423 664 286 60 26 30
401 56 248 105 24 37
185 501 267 108 92 76
414 204 261 122 98 72
385 41 218 105 90 75
213 459 270 107 20 24
370 339 261 108 83 60
183 496 273 91 73 53
219 434 306 48 39 25
239 609 242 134 102 65
308 35 252 143 33 57
499 438 291 69 41 36
178 453 317 61 23 32
204 440 286 80 25 32
195 449 292 96 20 29
180 454 319 55 25 32
377 314 272 106 76 53
390 864 268 41 35 29
309 54 231 137 25 48
494 489 361 122 21 45
470 436 265 66 32 29
254 464 311 122 25 45
285 674 246 65 49 41
474 421 231 58 23 27
337 195 255 114 89 60
323 334 257 97 79 59
379 899 186 84 71 65
392 129 214 131 90 57
220 502 304 90 26 38
408 344 290 124 91 64
240 466 313 123 24 43
429 369 246 108 88 67
180 451 319 54 36 36
444 413 231 70 54 45
300 924 315 164 127 107
367 907 324 34 32 34
336 37 226 83 42 30
379 729 320 74 30 37
416 906 260 76 67 65
299 419 313 149 19 48
303 474 185 54 29 34
464 509 321 70 29 33
184 449 320 125 19 45
407 26 242 86 60 50
501 446 290 195 24 62
456 805 204 67 53 45
330 245 240 130 93 60
304 154 246 109 91 72
412 324 284 126 89 58
371 381 274 112 79 62
361 15 276 107 34 45
392 72 254 110 50 46
177 458 309 62 32 26
412 917 289 64 54 54
379 599 311 122 21 43
320 119 218 134 107 75
477 732 168 95 73 54
177 462 304 83 36 23
456 541 252 52 26 33
302 154 241 110 91 73
399 124 250 119 95 67
283 349 250 116 93 66
382 660 213 59 36 37
444 869 251 95 82 80
252 520 234 68 25 33
379 19 241 84 68 55
427 473 178 155 1 37
179 459 317 114 23 42
337 219 246 113 85 55
426 669 245 41 33 36
305 404 207 101 86 70
337 223 250 113 84 56
257 520 225 158 6 40
492 421 217 109 25 37
419 524 181 88 22 36
317 546 179 164 0 36
175 509 303 100 57 53
404 832 269 86 67 58
204 505 276 62 34 35
261 542 228 36 31 30
189 449 306 44 22 26
189 454 320 147 19 49
189 459 318 167 15 53
299 12 231 154 105 99
365 534 174 144 6 31
441 600 245 89 28 38
263 799 252 182 131 102
179 469 296 63 39 27
388 344 293 122 91 67
324 624 302 137 21 48
180 470 292 59 37 26
406 90 199 141 26 48
167 499 316 55 20 23
349 118 211 117 74 62
207 444 279 84 27 36
304 334 247 91 78 65
425 394 292 126 98 64
304 409 191 88 71 57
245 554 233 117 8 23
263 409 271 87 70 51
178 468 300 57 34 24
213 534 259 114 85 56
194 454 291 104 25 28
429 885 241 67 57 56
387 349 293 123 90 68
351 99 227 108 36 46
176 476 293 86 34 20
402 16 253 101 67 61
224 479 310 109 23 40
299 292 243 149 102 72
399 573 192 184 7 40
494 840 314 88 70 53
182 473 290 57 40 38
209 479 312 89 27 37
181 477 288 39 35 34
292 434 196 92 28 41
267 516 209 95 19 37
184 469 314 170 17 53
484 421 236 50 26 25
425 844 206 58 50 53
417 215 218 126 100 67
460 754 288 169 119 88
169 489 296 60 33 31
249 474 309 155 16 50
301 837 223 71 47 53
442 877 289 44 38 37
184 479 311 166 18 54
439 715 221 69 49 47
321 58 208 131 59 51
455 731 173 79 58 44
184 474 313 176 16 57
188 468 314 177 11 57
499 451 321 75 22 28
346 102 198 149 20 42
497 789 235 82 61 46
232 427 291 50 36 26
339 644 210 126 13 35
306 140 240 110 91 73
319 845 231 58 53 57
454 414 191 185 38 30
208 438 280 84 19 28
322 233 228 138 100 64
354 604 201 76 34 37
314 34 256 131 89 77
266 523 213 130 9 34
175 509 271 146 112 88
379 84 216 124 38 50
441 453 277 89 71 52
167 488 314 133 11 44
225 589 252 150 109 75
351 72 199 128 19 24
189 474 311 175 15 57
304 24 215 132 23 41
349 113 225 113 60 54
306 753 294 62 30 35
169 494 286 102 89 76
174 495 277 109 90 69
447 826 219 51 38 36
385 229 222 132 100 60
253 530 303 69 20 29
161 508 292 168 116 105
398 884 201 71 63 63
449 414 176 157 40 34
236 606 243 137 105 69
314 490 304 33 29 30
304 249 229 143 104 68
171 491 288 111 95 78
454 884 271 91 70 62
369 499 301 159 14 47
472 762 188 80 61 51
281 250 274 115 94 70
504 464 346 59 33 25
200 474 272 73 37 30
437 410 246 96 80 62
179 504 304 126 73 67
504 432 271 59 18 28
482 532 314 176 114 88
407 421 316 71 56 41
406 79 237 106 40 47
251 539 238 111 7 31
175 491 282 88 76 62
354 600 199 77 32 36
399 723 324 186 9 59
489 439 211 81 35 38
481 790 213 98 70 52
369 89 206 132 17 38
379 544 302 65 29 34
369 444 320 73 25 34
199 444 291 80 19 30
462 644 268 133 100 67
514 798 226 101 82 63
407 324 289 127 87 64
329 953 325 62 58 58
254 624 238 131 99 61
309 398 211 95 81 67
403 929 261 71 63 62
419 349 236 97 85 73
364 649 210 118 13 30
399 259 272 122 96 69
168 509 281 146 108 90
259 699 231 134 96 60
349 64 201 95 64 43
418 219 260 121 97 69
279 599 221 130 23 45
479 464 360 74 28 34
298 734 215 44 37 39
316 62 249 125 98 79
325 204 225 135 101 61
179 489 306 84 20 37
329 204 265 117 95 70
431 821 193 58 48 51
319 99 245 112 87 67
353 855 290 130 101 71
171 500 277 101 73 54
384 59 259 131 14 48
287 611 225 68 22 27
184 489 281 77 65 54
219 484 310 79 27 38
386 114 223 112 76 50
172 504 274 153 112 89
454 860 301 59 51 43
484 834 261 100 83 71
410 139 246 114 92 67
398 888 186 100 85 75
276 265 266 119 94 65
162 498 296 102 81 64
209 439 311 52 29 23
227 427 266 44 41 43
170 509 276 117 85 68
385 26 232 96 83 69
374 58 216 89 36 32
442 529 313 113 0 34
307 50 236 134 21 46
392 193 258 114 92 68
183 483 309 158 22 55
449 784 176 80 61 52
164 509 316 79 24 37
364 600 200 150 14 40
387 292 278 106 85 62
475 854 318 80 62 48
278 599 226 150 19 46
329 69 206 134 25 41
362 59 218 68 52 44
408 278 223 143 104 66
319 319 256 97 77 54
172 509 274 155 111 92
334 659 302 139 20 48
287 606 219 107 23 39
348 920 343 67 63 62
454 443 352 71 32 28
184 484 286 52 40 41
364 404 261 64 53 40
278 369 302 134 98 76
309 11 231 127 76 66
359 649 308 50 25 32
332 395 280 107 84 63
184 488 305 74 22 35
319 405 197 97 83 69
183 487 284 76 68 62
330 199 262 116 93 68
295 412 174 69 35 38
466 760 180 75 54 44
390 890 178 104 82 68
471 748 278 167 113 84
407 78 193 136 20 45
344 564 180 105 34 42
274 524 312 127 20 43
373 79 211 113 38 45
417 273 223 143 101 63
399 279 223 139 103 67
344 109 235 117 57 56
179 490 281 83 69 54
263 609 247 101 49 37
315 238 278 123 99 72
314 244 280 125 100 72
292 759 278 138 25 54
325 104 208 126 40 44
182 491 278 104 92 81
359 779 293 76 62 58
184 506 303 142 75 75
299 829 255 103 78 68
446 866 328 57 47 41
214 544 285 164 110 92
383 451 323 41 30 31
314 194 221 133 103 68
284 830 225 216 144 114
333 164 250 110 88 63
180 496 273 106 88 68
320 358 244 97 82 65
462 774 182 73 56 49
366 72 199 106 36 32
378 289 241 104 83 59
259 644 236 122 91 57
390 139 217 128 94 57
442 426 256 96 79 59
386 129 241 114 85 65
189 504 305 112 20 40
464 853 281 81 69 57
407 568 314 183 6 58
189 484 281 40 31 32
399 94 192 129 56 55
359 819 207 75 61 54
294 259 235 140 103 67
413 324 281 126 90 58
361 15 271 108 49 47
186 492 279 97 83 69
178 504 270 108 87 66
442 447 309 89 67 49
379 834 201 56 49 49
429 529 186 45 31 38
184 499 271 79 63 50
348 55 211 94 77 64
306 679 284 52 30 32
389 89 253 122 20 45
257 774 226 166 112 80
285 410 191 149 9 38
180 505 267 96 73 55
383 953 251 89 79 78
430 639 256 73 33 37
325 895 241 105 85 66
301 15 218 136 58 47
410 89 221 125 24 46
163 499 291 111 89 68
369 929 336 67 58 53
399 199 215 122 96 64
473 784 280 170 119 87
330 75 248 114 72 61
312 119 231 112 94 76
349 794 201 77 61 53
181 511 263 138 110 84
224 504 261 56 28 31
377 32 269 136 36 59
302 938 322 44 41 43
376 94 244 105 22 39
394 869 271 32 30 30
384 13 266 130 72 78
179 509 266 109 86 64
391 926 318 55 50 48
462 452 188 103 22 36
239 444 319 113 25 42
316 314 298 134 100 73
389 509 302 72 28 34
378 239 246 117 90 65
503 443 266 56 34 39
422 219 223 117 94 69
299 459 306 72 26 33
336 123 238 114 86 61
490 484 276 111 18 33
335 852 298 148 119 89
308 334 304 124 90 63
299 11 241 164 119 119
337 164 245 111 87 58
346 951 323 63 58 57
177 508 269 121 100 80
373 367 244 123 95 77
194 489 280 40 35 35
310 964 257 86 83 85
310 952 247 71 65 68
189 498 271 86 70 53
448 568 226 184 20 49
189 504 265 113 79 64
188 510 263 93 73 52
319 489 166 62 30 34
190 508 265 70 47 37
424 849 265 34 30 29
409 44 241 119 83 68
404 314 290 122 86 62
186 497 274 69 43 52
334 794 280 67 56 52
204 494 305 119 23 46
529 850 252 116 96 84
271 339 296 130 97 66
221 431 295 46 35 25
413 354 233 92 82 71
308 329 248 91 76 61
165 484 302 83 28 33
429 865 312 43 38 34
255 518 309 41 26 30
254 421 316 69 31 27
444 474 325 148 19 48
404 368 225 88 78 68
420 229 220 123 96 63
165 489 302 80 30 33
206 488 268 72 18 26
246 482 308 152 13 42
408 24 251 98 37 38
389 539 176 70 34 38
344 864 236 168 120 86
484 424 196 153 23 40
167 484 299 82 18 28
438 411 186 109 54 49
368 64 223 89 33 40
263 609 265 85 52 46
167 489 299 62 32 32
452 563 257 159 18 45
319 59 252 127 95 77
246 584 254 114 66 46
427 284 241 128 96 62
456 871 264 78 60 52
375 78 217 120 52 53
211 471 263 106 25 24
389 34 266 124 47 55
426 694 288 136 15 43
164 494 301 42 32 35
338 108 240 127 89 73
444 524 206 107 28 41
184 499 305 62 20 28
200 484 272 104 21 32
343 405 266 72 58 43
289 449 309 172 19 54
399 659 220 108 18 27
225 503 257 59 26 33
432 603 227 39 32 41
454 864 256 71 57 55
345 99 236 103 62 53
381 36 228 63 39 28
436 427 286 119 89 64
262 422 274 68 56 44
449 729 292 177 124 97
271 354 296 131 96 71
354 564 181 129 24 43
170 484 296 96 16 30
400 417 326 65 53 39
406 514 304 79 29 36
192 463 289 82 34 21
373 402 199 87 72 56
259 609 267 127 88 78
335 43 210 103 88 73
477 729 253 136 100 68
175 484 292 91 22 27
239 424 271 51 40 35
317 436 183 97 23 26
374 890 300 43 39 36
428 259 241 120 93 62
359 744 307 69 52 49
403 878 201 72 64 66
295 554 192 53 32 33
172 483 294 107 13 23
508 844 307 100 81 63
294 494 186 117 11 29
392 547 178 149 22 39
471 693 265 136 99 63
222 500 260 62 18 30
388 179 221 131 98 58
404 439 335 174 20 57
389 84 253 117 28 44
173 488 291 84 64 50
219 489 310 51 29 31
384 594 312 149 14 46
262 419 234 113 19 31
170 490 291 90 71 54
346 82 233 116 8 42
235 545 238 113 11 28
310 865 295 141 119 113
264 479 306 159 11 50
321 319 293 135 99 75
163 484 306 97 29 38
454 554 309 48 32 32
299 414 176 46 42 46
205 440 301 49 27 27
162 482 309 47 28 38
308 134 236 110 92 74
335 229 241 125 92 59
417 176 249 115 93 70
432 584 303 69 25 34
383 954 296 57 50 48
293 19 225 127 66 57
500 464 321 109 14 34
299 439 169 87 28 33
162 489 304 85 32 34
360 429 319 158 21 51
272 318 269 134 102 70
328 254 243 129 91 61
282 414 186 165 5 49
167 484 314 146 12 46
379 24 281 142 104 82
199 454 320 102 17 38
309 201 269 114 93 71
301 277 293 117 95 70
386 139 241 111 86 61
374 75 216 119 44 48
293 194 241 117 95 72
324 124 217 133 104 71
358 860 290 132 104 75
166 484 317 145 13 46
367 407 291 58 46 34
474 803 250 50 37 30
334 509 168 111 16 26
163 484 321 142 14 45
311 130 244 108 89 69
432 720 295 144 11 44
354 474 181 119 10 26
168 489 311 132 7 41
236 614 243 143 107 70
389 679 213 52 35 35
235 624 270 176 127 102
384 14 246 76 65 55
403 934 276 65 59 57
166 489 316 126 9 39
327 273 256 120 85 61
359 822 274 174 127 104
274 354 301 138 100 77
322 28 259 110 60 55
445 455 292 91 72 53
330 155 219 136 104 65
411 276 224 144 103 68
438 497 332 73 21 32
319 709 307 145 16 46
162 494 304 55 30 33
306 870 271 143 113 87
168 494 310 109 10 38
428 431 327 60 48 35
439 419 261 103 83 60
166 490 313 134 9 44
166 494 313 125 8 41
434 714 201 83 63 51
410 49 231 121 33 43
167 495 317 92 13 39
383 914 340 68 57 50
354 439 185 106 21 32
442 732 186 49 42 41
408 265 274 122 95 63
478 861 336 108 86 69
331 32 215 91 78 66
289 19 256 170 116 102
434 574 305 54 24 31
441 800 179 86 65 47
504 498 356 135 74 78
167 494 321 51 20 27
199 469 313 142 16 47
239 504 310 82 26 36
390 119 249 117 94 69
414 209 217 126 99 64
332 30 217 88 76 64
375 529 173 85 29 33
203 442 306 45 25 26
378 37 230 69 43 31
345 104 237 109 35 45
339 424 188 58 35 36
170 484 312 134 9 43
408 184 259 118 96 71
354 799 202 76 61 53
299 369 308 146 101 78
454 858 271 37 32 30
184 504 304 143 39 58
368 89 201 133 23 40
489 854 316 78 60 47
342 89 239 104 20 39
314 11 241 104 55 55
320 255 234 136 95 63
364 574 308 152 14 48
482 832 253 91 70 57
244 579 252 110 64 44
433 530 308 126 13 41
360 869 297 130 101 75
174 484 310 55 22 29
338 69 245 101 41 44
419 429 162 155 4 32
384 429 165 125 7 29
316 12 246 100 39 45
172 487 309 95 12 24
491 456 236 136 30 47
308 904 255 155 116 91
170 490 308 120 5 38
394 406 188 90 76 61
170 494 307 63 16 26
289 830 252 194 142 118
223 574 255 156 113 78
219 433 301 48 35 25
354 584 190 136 18 38
304 519 177 145 2 32
244 544 300 140 17 46
275 309 261 132 102 69
317 257 233 138 95 64
216 435 272 47 38 37
470 734 281 171 114 86
394 59 190 105 35 22
408 504 178 153 1 32
174 494 306 64 20 28
282 769 263 113 77 53
399 154 214 130 98 58
161 501 292 117 97 81
452 902 315 93 72 58
334 483 174 44 36 36
495 449 266 56 32 35
470 719 282 171 113 83
274 799 262 188 140 113
399 409 303 92 72 51
161 504 291 122 92 73
369 669 209 70 34 37
161 500 296 112 91 73
377 269 241 116 90 61
434 820 205 64 53 50
315 509 171 149 2 35
379 927 335 67 57 51
244 434 321 123 19 41
280 244 266 115 93 69
399 509 303 82 26 36
336 407 283 78 63 46
160 504 296 126 95 75
349 874 236 125 95 69
404 419 321 68 55 40
374 930 331 57 49 44
199 443 296 59 31 29
409 424 306 77 61 42
387 100 200 143 14 45
162 498 300 61 51 44
294 29 241 164 25 57
359 99 197 152 16 41
415 865 180 93 77 67
375 17 244 99 60 40
162 511 296 193 130 121
306 660 284 146 11 43
377 244 235 130 98 65
279 404 236 97 84 71
373 449 175 113 20 33
359 759 197 76 45 45
316 74 244 117 93 72
278 539 205 161 7 40
383 403 292 65 51 34
285 504 192 61 35 34
290 15 236 175 132 132
326 264 273 124 94 65
161 508 299 167 98 95
376 78 249 113 21 43
325 33 209 108 88 64
440 847 258 44 36 32
295 899 281 88 76 72
340 99 242 106 42 48
229 426 266 45 41 41
378 634 213 112 27 40
334 875 315 137 108 80
354 444 185 120 10 26
467 488 237 104 20 35
314 14 216 108 79 62
282 314 254 123 96 65
342 900 319 134 101 81
329 934 337 74 70 69
161 503 307 74 32 40
162 505 305 108 33 42
414 599 303 50 27 32
344 468 304 153 19 51
168 499 311 81 21 31
266 817 227 194 132 104
323 134 249 115 92 66
313 114 236 116 96 76
250 421 300 54 46 38
493 454 236 107 29 44
294 28 236 160 41 64
404 319 229 92 77 62
449 744 291 179 126 97
471 471 204 69 36 38
427 406 221 99 83 65
432 863 223 65 54 52
274 434 222 116 11 28
166 498 312 127 13 44
353 117 206 144 81 72
268 403 251 90 76 62
335 54 247 111 20 43
374 812 202 66 53 49
168 504 311 106 39 49
266 765 213 157 109 76
214 469 262 104 21 25
410 669 225 78 29 32
287 412 174 128 42 41
351 57 214 89 72 62
477 726 269 157 105 69
363 79 220 84 17 31
424 903 271 65 57 59
396 210 264 116 94 70
389 239 220 132 99 60
403 538 311 47 26 27
273 434 314 161 16 50
168 504 316 43 24 27
334 953 324 76 72 72
373 55 257 128 71 67
394 18 246 95 81 67
289 799 266 194 145 115
407 110 240 115 94 70
163 509 306 103 35 46
300 174 232 119 96 70
161 507 320 102 25 41
301 169 233 116 95 72
388 26 232 100 83 61
307 46 242 125 99 76
467 822 274 142 93 75
167 507 319 39 20 25
323 384 291 129 96 75
254 454 313 53 27 30
168 509 311 92 36 40
516 500 330 195 135 117
293 444 200 42 32 36
389 799 196 56 47 45
291 476 193 45 35 41
274 284 266 119 94 65
324 129 217 133 104 71
468 609 272 125 98 66
421 485 179 44 33 41
507 466 349 59 32 24
170 499 308 48 37 32
159 504 326 74 26 35
435 609 236 136 23 43
170 504 307 150 118 108
460 519 225 125 15 34
365 27 270 140 99 85
228 429 261 52 41 42
374 629 311 160 30 57
379 504 171 104 26 34
324 534 172 154 7 36
192 504 268 87 54 50
224 594 266 178 124 98
381 78 197 139 7 36
174 499 306 74 37 39
314 94 226 110 33 41
342 54 236 95 21 36
174 504 305 140 108 95
185 497 303 41 25 28
434 404 281 116 92 62
344 459 182 104 18 26
370 339 246 94 76 56
474 524 291 126 34 43
407 88 198 147 24 47
312 118 236 113 94 75
190 527 263 241 171 157
309 11 256 114 48 52
173 509 304 96 61 59
314 79 226 124 45 51
299 464 191 76 28 35
295 444 186 64 30 35
224 599 261 172 122 93
442 517 198 117 28 29
299 823 259 98 76 66
253 422 311 54 39 30
290 734 220 75 61 47
180 494 303 73 19 29
296 496 183 116 10 28
339 957 238 92 85 89
479 503 275 156 13 48
384 554 180 125 24 39
495 510 304 168 126 102
234 429 311 47 39 33
432 494 313 127 9 40
181 491 303 102 18 41
388 16 242 84 73 60
256 598 268 67 20 25
394 20 241 101 83 61
194 499 271 97 74 51
184 494 302 59 24 27
408 74 196 134 30 44
331 129 243 116 91 62
324 604 201 179 4 38
271 574 218 108 12 34
294 234 277 110 90 69
249 584 281 57 25 26
360 971 250 78 74 76
239 425 301 58 43 35
189 490 303 32 25 27
447 583 304 95 26 31
493 454 271 75 34 38
399 579 195 184 7 41
316 96 218 115 99 80
179 484 310 82 23 34
434 629 286 129 38 50
358 789 203 70 57 50
180 486 308 74 17 33
299 30 246 148 88 77
299 904 306 147 118 93
377 389 283 112 81 66
387 922 228 77 69 67
382 80 196 145 8 41
451 558 279 88 9 28
314 438 309 101 25 40
439 516 313 144 15 46
473 778 226 70 48 40
424 499 182 134 5 31
449 641 263 88 73 57
414 754 196 54 45 40
184 484 307 92 22 39
204 453 319 175 16 57
489 503 350 188 131 118
207 463 274 42 34 31
394 64 187 101 37 27
194 445 311 43 26 25
393 514 173 150 0 30
189 484 306 34 25 29
186 481 308 133 17 40
282 243 272 114 93 71
329 574 304 147 15 46
379 724 203 80 32 38
328 689 303 154 18 49
214 539 287 158 104 86
384 149 226 116 89 57
379 11 291 140 27 51
415 859 195 66 57 55
339 649 210 132 6 31
251 475 308 171 13 54
374 709 317 80 21 35
181 497 303 47 24 26
179 509 302 144 97 86
294 284 241 152 106 73
334 39 212 97 83 69
260 589 246 91 25 36
244 454 316 92 25 38
184 509 303 156 108 95
199 535 276 220 145 121
463 890 296 92 76 68
316 124 223 118 95 70
189 498 303 40 25 30
276 295 300 108 87 63
453 499 196 172 19 43
433 622 289 183 19 59
298 493 184 115 13 27
179 499 305 103 19 39
383 169 241 106 84 60
249 444 317 65 28 32
426 835 187 85 68 58
178 507 304 138 94 80
273 294 276 126 97 66
434 879 241 75 63 64
189 500 304 51 26 29
465 734 236 48 37 32
507 442 286 60 31 41
271 309 286 120 92 59
407 507 178 148 0 30
268 609 271 60 25 33
407 675 299 149 16 46
381 212 223 124 96 61
478 504 341 137 101 90
379 894 331 37 34 34
271 803 259 189 139 115
254 439 317 122 25 45
424 759 176 50 42 40
361 100 200 151 23 53
345 59 231 68 34 32
390 40 263 118 35 48
527 792 210 98 77 56
389 443 329 54 27 33
319 259 280 123 98 69
402 53 249 123 12 46
432 385 247 106 86 63
244 449 317 92 26 38
263 579 226 183 1 46
389 49 260 119 31 46
186 507 304 126 60 63
465 519 321 145 108 94
254 719 256 177 121 96
278 254 256 119 94 65
304 524 307 67 30 36
399 359 295 134 99 70
156 485 325 126 8 43
317 11 246 99 36 44
424 419 161 64 39 37
504 504 351 183 124 112
357 895 309 72 60 47
155 489 326 97 1 32
304 174 256 106 88 69
239 474 310 172 19 56
221 502 263 80 22 24
267 474 214 100 16 33
301 214 228 126 99 66
159 485 325 128 8 39
381 107 240 126 91 72
446 661 258 80 65 48
399 899 221 60 53 55
304 299 246 123 90 62
421 669 288 79 26 33
507 445 306 70 55 44
321 68 212 131 29 43
459 751 167 89 67 49
336 220 257 116 88 59
159 488 327 106 7 33
293 744 281 167 15 53
490 459 241 75 35 41
219 504 267 69 27 32
154 494 326 80 12 32
159 490 329 99 4 33
305 11 226 139 79 66
377 234 241 120 93 65
343 74 240 110 77 65
359 494 178 117 11 24
240 508 309 63 22 26
156 502 326 101 14 41
209 454 276 94 28 32
321 17 219 95 82 68
155 499 330 63 15 28
388 53 195 104 30 22
354 499 178 109 17 28
300 879 267 130 103 78
409 394 298 135 100 67
413 139 236 113 93 71
364 589 311 130 23 46
261 587 243 140 10 42
303 414 181 67 37 38
417 379 294 128 97 64
268 409 287 103 81 62
218 459 265 108 17 26
383 94 211 126 24 42
156 502 330 73 19 34
504 458 326 66 29 36
374 19 242 92 41 32
284 434 312 160 20 51
163 494 330 95 17 36
483 774 241 114 81 60
384 309 232 120 96 68
319 64 250 132 102 83
159 503 330 48 28 32
291 660 238 93 24 35
207 437 286 66 28 27
244 529 300 52 26 28
309 39 251 130 26 50
422 504 308 94 21 35
298 184 257 107 90 72
469 674 271 126 95 60
327 272 265 120 87 61
283 283 297 100 84 67
164 489 326 103 3 35
206 466 273 46 35 35
366 484 178 123 7 29
295 11 247 153 100 98
166 493 327 70 18 28
296 934 261 59 55 57
334 609 202 64 29 37
384 613 208 91 29 36
244 444 318 100 25 40
163 491 329 123 12 45
167 499 325 72 25 31
437 737 184 51 44 42
452 416 229 60 39 33
166 499 328 43 26 26
319 729 202 92 25 31
474 844 291 86 76 65
261 804 227 177 120 88
545 830 294 105 81 63
438 449 286 93 74 53
203 490 275 113 18 32
458 539 313 80 44 42
440 412 231 83 66 54
352 117 211 141 68 70
214 444 321 135 19 45
274 329 306 130 92 70
260 411 246 63 38 31
167 503 325 88 25 38
482 479 263 113 15 29
314 114 241 113 92 71
437 622 258 48 35 31
163 502 330 82 30 39
375 464 172 121 14 28
313 873 255 132 103 73
223 458 260 106 13 23
299 644 231 100 19 35
402 768 199 51 43 40
420 279 267 126 97 62
165 506 322 66 27 30
451 781 174 72 55 44
355 462 309 125 27 48
298 31 241 150 37 58
416 184 253 118 95 70
370 955 239 74 69 71
328 16 227 84 67 59
343 129 221 146 98 72
217 448 269 112 12 26
300 33 236 119 72 61
485 474 271 157 18 43
395 314 228 105 85 62
339 49 241 90 43 42
498 832 307 99 83 66
459 473 336 152 16 47
414 289 228 137 100 65
304 484 303 111 28 43
391 124 249 115 92 68
298 764 204 114 86 50
294 719 286 152 10 47
200 444 287 106 14 33
381 424 329 145 20 48
205 444 282 54 35 35
395 412 307 72 57 40
310 268 288 120 97 71
280 664 239 87 64 40
319 674 296 155 17 49
364 479 304 174 13 55
239 464 315 129 26 47
317 104 243 111 92 72
273 554 220 73 31 34
311 53 218 144 15 48
205 449 282 83 31 32
270 594 236 70 24 31
370 394 275 73 56 39
399 249 271 121 97 70
209 484 311 133 22 47
207 449 279 73 33 30
219 564 280 178 123 102
259 464 310 111 20 40
249 424 311 67 40 27
421 586 209 44 36 42
267 405 288 114 87 67
270 339 286 125 97 65
339 399 216 95 77 58
231 637 253 168 116 88
414 429 341 148 19 48
438 729 196 55 44 40
294 274 237 149 105 71
319 12 236 90 55 51
368 669 308 146 25 49
474 849 260 96 73 58
224 428 276 49 34 30
329 79 248 119 31 48
322 586 194 178 3 38
293 25 251 148 109 82
319 524 172 148 5 37
499 868 276 92 75 65
409 249 216 137 101 60
221 431 268 46 37 33
252 679 239 134 93 56
437 419 163 76 36 38
224 428 271 54 39 39
251 708 246 173 118 91
216 431 281 51 35 34
327 215 269 120 97 70
476 786 273 163 112 82
424 499 309 68 19 32
305 174 227 123 98 69
239 484 309 127 13 39
297 449 191 113 20 39
348 856 294 129 101 70
334 84 246 113 16 40
350 815 204 79 63 54
496 791 230 82 61 48
224 428 281 48 34 30
239 604 275 174 124 101
366 841 213 81 58 48
466 465 194 139 23 42
441 455 179 158 0 34
408 43 246 120 88 75
304 464 304 66 28 35
388 169 220 127 95 55
224 519 262 47 30 40
219 430 286 48 35 31
389 405 300 84 65 47
417 174 226 119 98 75
374 644 212 106 20 31
224 429 286 48 35 26
215 444 271 89 26 33
463 730 236 60 44 37
214 433 291 55 33 29
480 861 310 72 58 53
290 19 231 152 95 98
341 117 208 136 93 76
419 865 180 87 73 64
472 886 302 90 68 58
308 539 180 163 2 36
340 59 242 98 41 42
334 599 306 73 24 35
490 849 281 97 76 62
182 526 269 224 145 132
225 434 262 45 40 37
224 559 283 143 97 80
214 435 301 48 33 24
424 859 266 35 32 31
314 354 242 96 82 66
274 654 262 160 117 101
349 464 306 174 18 55
399 239 270 121 97 72
199 509 307 68 24 32
375 369 281 116 86 65
248 458 314 48 25 27
218 434 270 43 39 39
385 124 226 116 85 58
334 149 220 136 101 60
359 498 179 116 11 26
381 72 254 109 65 52
370 379 251 89 72 54
220 439 267 54 32 36
217 438 269 40 38 43
415 904 251 69 61 63
437 409 266 108 87 63
364 464 180 94 24 28
329 774 195 70 57 48
297 831 219 201 141 111
366 20 247 131 25 28
288 629 235 38 32 35
374 539 301 92 30 40
222 439 264 99 24 32
461 739 225 48 32 30
224 444 261 127 4 31
314 397 210 95 82 69
390 259 222 136 103 65
436 435 281 113 87 59
220 444 267 105 15 34
373 808 197 68 55 49
405 905 326 67 54 47
387 159 248 108 87 64
366 24 247 115 26 22
421 194 231 121 98 73
469 850 276 89 77 65
309 233 278 121 99 74
304 809 266 57 49 47
384 834 272 155 122 98
217 444 269 78 21 30
466 640 274 159 114 88
219 449 266 118 13 27
224 524 303 143 15 44
213 439 275 95 25 27
461 751 224 44 36 31
489 423 246 47 22 23
456 860 340 69 51 43
210 436 281 86 29 32
428 274 241 126 96 61
196 446 296 66 25 26
214 434 276 90 20 34
408 878 338 47 40 36
440 710 200 94 71 56
309 519 175 122 15 37
231 628 264 176 126 98
259 434 231 112 14 27
498 512 308 212 148 123
214 433 281 63 31 33
386 412 318 60 47 32
299 393 225 98 86 73
404 59 241 112 47 52
218 432 292 48 32 28
199 530 265 230 159 140
194 494 280 73 60 45
420 861 322 44 38 36
296 179 237 118 98 76
373 89 226 113 24 43
267 469 214 48 31 32
214 433 286 52 36 30
239 424 291 53 40 32
288 774 271 181 132 102
424 794 175 63 50 45
467 506 233 106 14 29
234 425 281 50 36 29
426 363 277 114 90 63
210 444 277 103 20 32
384 659 307 64 26 33
325 919 227 81 58 53
450 460 184 163 8 37
209 449 276 61 36 35
212 448 274 91 30 34
372 701 203 94 30 36
477 804 264 134 87 58
324 149 251 114 92 67
257 417 239 77 30 31
369 364 261 101 76 56
399 229 214 133 100 59
449 674 292 175 131 102
239 434 322 159 18 52
194 449 296 87 18 24
234 539 242 83 22 30
372 60 252 125 92 75
423 219 251 118 95 69
324 849 296 157 125 101
234 467 314 153 17 51
295 709 227 92 26 28
310 54 246 122 98 75
315 285 244 131 92 62
219 504 303 119 25 45
427 724 305 97 21 39
324 795 199 79 62 53
499 460 341 67 33 27
365 15 256 106 48 41
464 739 212 40 33 27
388 119 221 116 82 52
364 410 316 58 47 36
293 615 220 100 32 41
209 524 305 172 20 56
249 423 281 58 46 36
287 487 194 130 11 36
350 88 193 153 6 39
314 329 252 93 77 58
469 619 302 179 124 95
389 684 212 74 29 31
228 609 251 158 113 79
288 449 205 43 34 36
331 552 303 159 5 54
287 280 244 149 105 73
269 414 296 73 57 43
466 871 303 59 49 43
253 472 309 155 19 54
344 479 177 97 22 28
197 448 290 97 21 31
314 339 248 92 78 62
484 423 241 49 24 24
196 446 292 94 13 21
322 131 249 115 93 69
444 734 290 149 103 82
424 434 165 83 29 37
409 124 226 111 91 68
324 848 231 164 124 101
403 494 173 138 13 39
320 285 250 130 93 66
193 447 301 48 29 27
289 649 246 97 20 36
489 464 351 59 15 27
420 860 329 45 39 36
195 446 301 50 29 29
289 404 305 125 90 72
337 168 228 129 95 58
304 324 305 119 90 61
257 525 229 47 26 30
369 389 231 102 85 67
460 468 354 65 22 34
467 685 262 116 89 60
310 59 226 118 50 50
373 373 239 106 86 67
199 444 301 50 28 30
497 787 222 130 94 68
400 104 247 121 97 70
479 474 231 167 24 52
465 431 250 63 22 25
204 439 291 65 36 30
447 720 225 46 38 36
403 473 168 52 36 40
511 510 331 191 128 107
392 199 258 113 92 69
469 786 218 75 59 49
204 440 296 51 33 29
379 494 170 129 11 30
415 480 174 98 35 42
378 339 281 110 81 58
329 423 189 100 25 23
314 814 205 84 67 60
379 214 226 124 96 62
244 504 312 115 25 44
504 489 311 89 29 33
434 399 256 105 86 64
424 863 202 66 57 55
364 13 266 108 50 47
304 534 180 119 9 34
454 549 251 124 20 42
475 845 269 92 81 72
250 421 296 58 45 36
210 493 267 112 20 37
314 394 300 133 99 75
375 89 221 124 31 46
254 424 271 64 51 40
209 438 301 44 29 23
458 659 263 109 86 61
243 594 274 163 115 95
319 249 232 138 97 63
202 442 298 51 27 31
420 840 181 94 71 54
447 507 193 163 16 44
310 217 273 118 97 74
281 664 258 105 73 62
401 677 303 145 5 42
392 430 333 50 30 35
363 94 197 152 20 45
409 314 286 124 89 61
488 422 238 49 24 23
319 13 256 106 37 48
282 684 233 89 69 46
304 239 227 138 103 65
372 65 248 113 47 48
369 20 286 186 136 138
309 664 221 124 7 30
370 606 204 134 27 40
196 466 313 180 16 57
299 729 296 174 16 55
383 114 231 127 88 69
224 430 296 48 39 28
449 564 310 82 31 37
349 118 206 153 57 63
334 84 202 111 44 41
334 239 256 116 85 57
304 429 312 65 26 33
195 446 306 45 24 24
311 906 319 58 57 60
458 438 256 72 46 37
319 164 219 129 103 71
192 447 309 45 25 26
378 264 236 123 93 62
421 740 308 181 16 55
365 24 251 108 32 31
474 768 211 83 62 51
389 460 317 46 29 31
304 12 220 135 72 57
394 74 185 126 38 40
357 109 216 118 14 41
277 378 249 114 92 68
199 445 306 45 26 24
230 430 257 56 42 37
192 501 268 130 95 72
169 515 301 121 75 73
438 902 286 78 62 58
219 435 311 59 36 24
383 489 169 43 37 39
440 484 319 133 11 40
444 412 221 112 92 74
318 59 210 137 28 44
328 15 246 95 27 40
373 413 175 71 51 48
374 939 317 58 55 56
194 444 316 56 14 26
338 45 211 95 80 64
438 583 222 148 24 46
194 445 321 124 17 48
384 424 166 121 10 28
324 964 246 76 72 76
210 436 295 56 30 25
199 444 321 97 18 38
296 292 243 152 104 74
369 759 199 93 42 42
314 12 256 109 40 50
271 314 301 137 93 72
255 694 236 136 95 62
339 99 201 132 31 39
205 441 312 50 27 24
438 878 272 36 33 34
234 524 300 53 27 30
368 389 251 75 62 47
307 877 259 144 113 85
419 754 306 143 28 50
203 442 310 45 31 22
209 438 316 95 19 29
385 124 236 116 84 63
270 314 291 128 94 64
329 149 218 136 104 68
454 479 327 128 14 40
304 11 246 144 93 95
421 514 329 99 27 41
329 104 208 114 47 40
471 692 273 144 98 64
302 182 258 106 89 70
204 440 320 117 20 43
314 189 221 134 104 69
440 489 320 124 8 36
304 904 261 161 119 96
319 84 216 99 52 42
209 439 306 45 33 24
394 98 193 134 57 57
201 441 317 55 27 33
279 279 291 98 81 64
303 961 291 64 60 61
357 112 206 114 88 76
310 12 224 121 75 59
367 88 198 128 18 39
392 578 313 42 25 28
224 494 310 120 25 43
301 20 218 138 30 34
391 234 218 134 101 61
295 28 227 165 16 51
384 24 281 130 93 72
227 427 276 47 34 30
323 319 291 133 98 73
202 442 314 53 29 25
208 541 282 196 131 108
329 49 205 108 39 30
369 903 306 55 44 40
452 857 268 35 31 28
488 494 271 168 20 46
319 214 272 122 100 77
304 229 226 133 101 64
483 783 220 104 80 63
313 320 253 97 77 55
394 379 221 87 77 67
296 239 233 130 101 67
256 533 233 134 5 37
449 413 196 176 45 35
268 399 256 95 79 62
279 679 232 100 77 48
220 431 291 48 33 28
349 410 315 65 39 34
354 103 198 152 16 41
339 974 257 96 93 97
304 19 266 141 110 87
224 430 291 47 36 28
405 79 241 116 16 42
249 539 240 97 16 24
336 224 251 113 84 56
204 449 321 145 20 50
231 637 256 169 119 89
436 439 349 41 31 32
225 431 301 50 41 30
210 436 291 57 34 29
388 369 229 87 76 65
446 861 270 35 32 31
357 778 198 65 56 50
219 459 317 177 10 55
214 434 296 52 30 26
212 437 302 45 36 25
297 883 288 158 116 98
239 554 236 181 2 45
454 809 287 165 121 94
317 89 220 106 47 42
414 429 160 157 3 34
223 432 301 50 39 28
370 734 314 102 22 41
294 389 306 147 105 80
402 592 203 39 31 41
337 189 232 128 93 57
330 482 174 40 36 39
369 774 201 69 57 49
469 434 261 64 28 27
306 47 231 127 89 68
194 494 301 70 25 31
342 400 261 82 65 47
299 244 230 136 103 65
277 611 239 154 11 39
372 69 230 85 48 46
425 734 306 173 9 54
215 436 306 49 38 26
212 468 265 99 27 22
434 704 288 94 20 32
213 437 311 55 31 21
289 414 172 118 22 28
389 547 178 92 34 38
359 529 303 78 27 36
313 79 231 134 21 45
444 789 291 172 128 99
394 794 291 67 55 51
304 404 306 115 86 68
443 883 256 83 71 72
301 229 228 130 100 64
317 95 243 110 50 50
297 956 289 75 69 73
314 469 303 162 18 50
450 514 320 57 22 27
214 435 316 79 23 30
466 684 288 176 118 90
212 437 316 96 14 35
477 484 253 98 12 30
296 401 218 110 84 69
219 469 315 157 17 52
369 54 246 108 17 39
214 439 321 90 23 36
334 976 260 89 85 89
322 111 214 143 106 77
444 784 291 171 127 96
459 500 336 109 21 40
495 793 230 94 72 60
306 144 232 110 92 72
284 819 215 183 123 94
377 219 241 113 90 65
311 68 235 126 104 78
419 455 332 121 30 48
326 382 283 124 92 73
337 907 232 83 70 60
349 849 286 119 95 68
224 432 306 51 41 29
204 469 271 61 35 32
472 888 302 86 67 55
401 500 174 156 0 34
425 294 261 126 98 63
292 193 246 111 92 72
296 191 259 108 91 73
354 514 301 159 14 50
244 494 311 73 22 34
252 571 245 66 31 40
324 174 258 114 94 72
442 492 323 107 0 33
224 433 311 62 36 25
276 538 208 160 5 41
303 389 304 139 97 74
219 434 316 86 23 35
239 439 320 120 20 43
219 434 321 112 21 38
419 439 311 83 62 43
364 906 340 39 36 36
301 159 236 113 94 73
226 430 263 43 38 40
399 15 276 124 80 84
280 569 300 184 18 58
389 774 202 64 51 45
250 421 291 65 46 40
337 194 232 122 90 53
290 717 229 76 55 36
360 401 245 74 62 49
363 938 330 58 51 50
270 544 217 59 29 38
433 739 296 144 22 50
272 379 255 116 93 68
324 44 206 122 34 34
230 426 262 43 40 43
199 494 280 53 40 34
239 423 261 54 38 36
232 600 273 174 124 100
324 929 221 68 62 61
253 674 239 125 90 48
302 204 229 124 99 69
332 44 249 105 18 38
234 425 261 48 38 39
386 706 319 149 13 48
234 424 266 57 39 35
334 404 296 67 55 40
488 834 286 91 70 53
443 720 229 40 32 34
425 254 226 128 98 61
336 209 235 122 90 54
228 427 281 48 33 27
484 499 290 105 4 29
373 913 198 88 77 75
267 614 260 59 35 36
394 489 169 64 35 39
211 456 273 117 14 21
421 189 236 117 95 71
237 427 315 60 45 36
199 499 302 111 20 38
369 12 271 114 50 52
456 555 231 136 19 43
344 410 315 102 36 41
230 426 281 49 34 27
285 519 192 56 33 35
224 503 305 124 22 46
410 144 247 115 93 68
229 427 286 49 34 26
494 864 295 82 65 53
374 824 276 164 119 95
313 134 225 117 95 72
231 426 285 50 34 27
315 694 212 76 29 34
198 468 280 46 39 33
234 425 276 49 36 30
497 447 265 49 38 33
419 189 226 118 97 72
234 629 246 151 107 72
383 99 211 118 39 45
459 799 290 165 121 92
239 424 276 51 40 33
309 354 242 95 82 68
450 519 320 52 24 28
374 54 260 122 21 46
302 411 182 55 38 46
470 431 255 60 24 25
296 11 242 164 118 117
276 649 239 107 77 48
479 500 286 103 6 35
203 459 281 43 36 40
308 951 318 59 53 52
422 204 241 114 93 69
443 738 165 73 55 46
369 19 291 184 126 133
307 702 298 95 21 35
234 426 286 50 35 28
319 12 231 90 65 57
364 19 281 148 98 83
329 854 261 96 74 51
239 424 286 52 39 31
338 116 210 154 107 84
229 489 311 68 28 32
399 274 276 114 91 66
227 433 260 50 40 38
229 428 296 51 41 30
333 379 271 120 88 68
307 314 248 97 78 57
291 196 254 111 92 74
424 894 251 70 60 60
235 513 304 41 27 30
449 429 172 114 19 35
290 220 269 108 89 71
289 334 249 99 83 66
254 669 239 119 85 47
470 699 281 165 111 78
227 444 259 128 14 34
420 384 293 124 96 61
354 773 294 75 62 56
385 139 236 109 85 60
318 349 247 98 82 65
427 374 284 117 92 62
287 254 239 130 101 67
405 611 214 42 35 41
442 411 211 111 81 65
241 446 318 98 18 33
178 525 270 229 154 137
300 11 236 163 118 116
251 529 238 126 9 32
455 539 313 61 26 28
271 570 218 43 31 35
227 448 259 128 0 37
370 69 236 97 46 45
249 509 311 119 25 43
305 953 315 60 55 54
245 669 242 137 99 63
374 49 261 112 25 42
218 540 288 147 101 86
313 69 226 141 27 47
324 299 276 106 83 56
319 669 296 159 17 50
245 421 261 60 35 32
281 278 248 141 104 71
383 694 208 89 25 32
416 329 234 103 86 68
364 13 276 112 50 51
215 476 313 81 33 38
314 534 307 43 29 31
364 89 216 95 10 33
249 669 262 189 140 119
419 504 181 133 5 27
250 422 262 64 38 34
409 859 185 102 79 66
489 494 281 50 29 33
336 397 219 94 78 60
324 834 215 91 70 63
309 249 229 144 103 68
201 472 314 64 29 38
244 422 266 56 40 33
313 903 317 117 95 76
435 510 322 48 28 29
367 29 245 107 38 31
316 359 298 129 95 70
244 423 271 54 42 34
280 284 251 138 104 71
320 30 208 99 32 20
403 28 265 140 55 66
309 534 308 46 31 30
342 51 208 100 84 67
330 354 276 119 84 63
368 13 291 127 58 52
429 765 170 71 55 47
249 423 266 62 43 36
408 104 216 120 43 48
275 618 247 61 31 36
244 423 276 54 43 34
265 465 308 99 27 41
371 380 270 109 78 62
349 908 321 49 43 41
400 879 196 82 68 64
208 511 267 71 25 37
244 423 281 54 43 34
364 924 206 95 87 86
258 585 246 54 29 34
244 426 324 178 19 56
249 422 286 59 47 38
273 344 301 142 101 76
325 230 229 135 98 62
381 386 223 93 81 69
344 504 300 162 14 50
249 434 320 115 20 41
377 666 309 173 20 62
408 892 185 88 76 70
309 889 255 145 109 82
403 884 186 89 75 67
508 465 345 63 25 31
323 874 249 127 98 67
209 449 320 95 14 33
428 244 236 123 98 68
305 803 269 66 56 51
415 774 177 54 45 42
254 421 287 64 49 40
454 549 256 86 22 35
376 224 240 116 91 64
425 239 256 121 96 65
275 674 263 165 120 104
424 832 269 43 37 36
423 544 305 147 16 47
449 817 284 154 108 82
410 84 211 118 43 52
339 914 211 62 57 58
452 863 285 53 45 39
254 422 285 62 49 40
509 479 352 99 63 51
369 403 201 84 65 50
304 644 226 138 8 35
390 412 312 66 51 35
312 139 224 120 97 71
229 428 291 51 39 27
305 39 221 136 35 49
313 40 253 128 24 49
199 464 315 180 9 59
384 759 307 74 61 57
375 459 172 121 12 29
436 605 234 94 29 38
229 429 301 51 37 28
194 504 306 82 21 30
326 905 233 158 106 85
235 426 296 52 38 30
493 814 255 87 70 56
422 366 233 91 81 71
335 38 241 74 38 33
383 204 251 112 90 67
239 424 296 57 41 34
426 794 173 66 51 45
378 873 195 54 48 49
394 144 215 133 99 59
305 464 167 62 31 35
354 805 204 76 60 54
339 474 177 52 39 39
235 426 300 54 41 33
229 430 306 52 40 32
408 104 236 118 94 68
338 389 241 115 89 60
440 865 241 63 54 52
194 469 281 52 37 33
477 613 292 159 110 75
234 428 306 52 42 31
226 451 258 118 6 30
402 794 189 50 42 42
344 799 200 81 64 55
318 970 266 89 84 85
503 479 312 52 28 30
252 422 307 52 42 31
400 74 246 119 40 52
309 169 257 109 90 69
469 445 326 59 29 25
275 440 218 79 25 26
239 427 311 56 42 36
494 435 286 65 39 35
368 424 180 111 19 28
368 44 246 96 49 47
255 709 260 175 121 97
439 503 335 141 33 54
240 426 312 74 40 35
500 450 301 171 21 50
219 526 253 49 44 47
427 359 271 118 94 67
354 406 260 66 54 41
329 914 326 83 69 57
239 425 316 76 35 28
413 244 269 122 95 64
174 514 271 152 115 91
460 870 316 58 48 43
335 34 221 93 69 49
484 484 352 65 24 32
236 426 320 129 22 42
319 854 266 110 88 67
334 95 203 115 50 41
259 584 241 140 8 38
466 689 288 174 118 90
327 39 254 121 18 44
443 724 190 64 52 45
282 319 254 123 97 67
408 588 203 79 32 38
434 394 256 105 85 63
279 816 258 187 138 111
316 459 174 99 27 27
487 432 268 64 32 30
314 129 246 110 90 69
381 790 199 70 56 51
482 863 273 83 65 54
227 432 308 49 42 30
489 424 206 136 23 42
259 464 222 115 11 28
256 714 233 132 91 60
327 64 204 146 19 43
410 453 330 153 23 54
306 291 244 138 95 68
283 559 307 179 19 58
449 634 296 172 124 105
432 420 290 125 93 67
486 426 254 57 23 26
227 432 311 48 38 22
238 448 319 57 26 30
311 64 236 126 100 74
203 484 270 105 20 32
292 26 247 139 106 79
363 29 261 119 69 67
380 254 256 112 89 66
367 403 276 61 49 34
309 11 236 126 81 76
384 679 211 80 28 32
399 429 160 136 0 30
244 423 291 57 44 36
248 422 290 61 46 39
288 729 266 65 26 32
281 532 198 163 8 43
294 474 192 46 36 37
457 442 263 80 57 44
383 194 224 122 94 59
247 422 296 64 45 39
400 559 316 139 17 45
289 424 313 152 17 49
364 99 206 135 16 41
289 494 190 69 27 30
370 53 255 115 21 42
492 484 281 146 18 39
323 899 245 123 101 78
410 69 221 113 20 40
319 12 226 92 71 60
194 509 306 72 28 34
384 13 256 86 64 56
422 439 343 149 18 48
338 74 245 110 33 44
378 224 246 111 87 62
371 314 242 101 81 58
244 424 301 62 44 37
309 129 236 111 93 74
292 635 234 95 28 37
394 179 256 113 92 69
394 144 251 115 92 66
489 434 281 63 36 32
474 494 246 46 34 35
415 329 277 124 89 59
249 422 301 55 46 37
324 408 195 82 71 62
446 744 153 86 64 46
254 420 301 53 44 33
410 134 226 110 91 71
244 424 316 74 36 26
461 471 194 38 33 39
309 399 302 134 99 78
383 104 246 118 93 71
359 619 309 82 31 38
394 875 273 33 31 31
404 309 228 114 90 64
479 714 206 68 54 41
407 295 284 125 98 64
329 194 225 133 98 58
492 452 228 48 40 39
282 234 251 115 94 71
249 423 316 69 37 28
465 704 288 176 119 90
249 424 321 142 20 46
309 369 238 95 83 70
370 334 256 111 87 63
379 204 241 114 90 66
390 896 197 77 67 65
404 189 261 119 96 72
244 426 311 85 40 34
254 420 306 52 42 32
418 274 269 126 95 61
336 141 219 137 102 67
428 349 261 121 96 68
420 759 186 49 42 40
400 48 211 105 89 70
243 443 319 98 20 37
394 13 266 111 69 67
435 442 314 86 64 45
255 421 311 53 40 28
411 596 209 45 34 43
329 568 183 84 26 36
251 421 318 61 34 26
384 888 296 28 26 28
487 485 268 67 25 30
302 192 263 109 90 71
436 754 293 165 122 96
440 900 286 85 70 64
424 489 311 100 16 35
336 129 238 114 89 62
331 549 303 158 10 49
363 439 318 87 23 35
315 104 241 114 94 74
465 493 344 57 29 31
325 334 260 100 80 58
309 236 279 121 98 74
290 584 300 83 31 39
295 406 212 101 86 71
251 421 319 85 10 37
364 928 340 67 61 57
394 84 251 110 64 56
234 509 305 76 25 34
254 429 320 161 18 52
299 312 248 99 81 60
244 439 320 100 26 40
510 489 356 128 96 75
435 450 308 94 70 50
307 209 224 131 102 67
249 449 316 55 28 33
391 882 272 33 31 33
384 119 231 120 85 64
299 959 296 75 67 67
419 434 342 153 18 49
253 433 319 124 19 43
239 539 301 125 15 41
255 435 318 94 23 36
393 250 219 135 102 62
383 561 304 108 20 39
315 69 221 128 39 47
367 39 246 98 21 34
288 384 239 99 84 68
353 69 200 102 42 21
393 938 300 54 47 43
314 24 209 114 32 32
252 437 319 104 23 45
411 99 226 117 32 42
400 544 311 36 28 30
392 258 268 117 95 71
500 445 281 179 24 54
510 500 352 198 131 119
489 458 341 72 43 42
304 664 226 98 16 31
394 61 188 101 32 27
260 444 227 112 15 27
378 234 231 127 97 63
346 74 233 96 33 41
219 444 321 121 19 42
384 459 165 87 29 33
474 446 321 64 32 28
364 824 211 67 55 51
315 59 250 116 55 56
204 455 318 184 9 57
366 56 208 113 29 20
254 444 316 96 25 39
450 878 327 55 43 35
401 925 255 72 64 63
333 29 236 77 38 35
407 701 314 130 6 41
469 496 342 81 35 36
194 449 322 80 25 35
199 449 322 77 20 33
372 387 273 100 74 55
441 850 230 66 53 51
444 639 292 173 128 109
204 444 321 88 22 35
306 700 218 112 14 28
325 739 198 61 31 38
404 204 214 123 97 64
327 74 209 120 50 46
344 549 174 44 34 39
310 704 212 95 22 30
224 439 322 47 27 29
358 109 206 118 78 69
199 484 307 49 25 29
329 824 267 167 126 106
370 459 177 119 16 32
337 486 173 79 32 34
437 410 256 104 84 62
219 449 320 167 16 52
366 39 251 111 17 42
381 184 227 124 96 60
319 154 253 113 92 69
449 474 327 148 17 45
317 286 289 119 94 64
224 444 321 84 22 36
464 834 263 63 50 42
444 544 315 43 29 32
288 254 282 111 90 67
339 554 176 80 31 36
333 34 216 89 75 60
479 418 201 121 24 27
224 449 320 165 18 52
349 489 177 57 33 34
234 434 322 167 19 54
294 439 171 97 27 38
384 379 291 127 93 74
241 426 324 178 18 56
477 599 291 149 107 72
405 48 221 76 58 37
354 415 192 85 37 37
470 644 280 114 84 52
198 474 275 81 38 31
328 239 270 125 98 68
434 859 226 60 49 49
409 159 217 120 96 66
296 909 305 158 124 100
243 427 324 178 19 59
358 524 173 117 14 26
439 868 341 71 53 42
386 87 193 154 14 43
384 594 200 112 25 41
244 429 323 165 20 52
436 540 200 93 33 44
451 560 266 130 13 43
449 684 293 176 129 101
310 59 231 123 89 67
455 529 284 49 29 29
199 454 286 78 31 33
223 506 303 147 26 51
420 294 267 130 98 64
199 459 286 55 37 34
380 649 214 85 33 38
426 364 240 94 81 68
489 519 311 200 135 109
380 915 216 75 68 69
514 843 310 95 78 64
305 448 169 77 33 32
384 411 316 59 47 31
