ply
format ascii 1.0
comment Created by Open3D
element vertex 2224
property double x
property double y
property double z
property uchar red
property uchar green
property uchar blue
end_header
345 505 349 72 25 28
193 393 275 116 93 66
310 303 354 136 102 70
392 587 315 95 24 35
194 392 273 119 94 66
193 389 288 113 90 66
176 543 259 150 13 44
334 28 287 110 80 56
262 348 354 144 105 85
196 408 264 106 86 63
198 408 261 109 87 62
268 784 321 75 56 50
299 216 331 106 89 72
194 408 267 101 82 62
367 473 207 126 14 33
195 413 263 100 82 62
361 878 319 61 53 49
307 294 318 103 77 52
197 413 260 102 84 62
305 562 365 135 81 77
404 591 332 74 36 40
205 401 257 112 89 62
355 454 219 114 15 38
324 143 274 119 94 66
281 803 229 80 63 57
210 388 257 105 85 62
257 808 245 80 63 55
311 16 262 75 66 57
213 385 256 100 82 62
335 98 239 124 31 46
321 893 234 74 67 65
301 938 349 55 51 51
361 514 379 73 28 28
210 396 257 104 85 63
316 657 217 95 18 25
301 193 320 105 88 71
259 373 330 107 75 59
491 583 268 161 110 86
222 385 257 91 77 63
196 393 299 119 95 68
456 533 344 114 25 44
173 538 309 169 4 50
322 493 197 144 2 30
220 778 267 57 48 49
197 388 298 120 95 67
289 202 316 106 88 69
296 10 279 86 48 34
266 723 223 63 33 39
201 388 304 122 96 67
199 391 301 121 96 67
421 517 299 76 18 29
306 222 281 135 100 60
210 594 336 28 27 28
200 393 304 120 96 68
421 518 304 75 26 30
193 394 293 116 92 65
259 842 299 144 110 85
360 633 226 107 67 56
388 511 310 80 42 32
193 398 294 115 92 66
301 408 244 112 69 40
194 397 296 119 95 68
193 400 297 117 94 68
335 448 313 137 100 74
318 647 311 30 28 33
258 405 197 90 32 37
351 542 209 151 26 47
195 398 299 120 95 68
250 523 337 90 9 30
344 47 263 124 80 67
316 53 278 119 96 69
198 394 302 119 94 68
197 398 303 122 96 67
321 38 280 123 68 61
208 463 342 55 30 32
203 388 308 121 95 66
388 865 262 80 69 66
281 488 194 113 15 27
306 683 325 130 17 42
204 392 311 120 95 68
258 348 339 132 100 76
206 388 314 121 96 68
201 453 338 141 15 44
258 129 248 126 90 64
276 38 284 124 29 49
416 808 209 96 75 61
208 389 317 120 96 69
281 553 379 137 108 87
368 730 276 51 33 35
317 382 289 110 91 69
207 393 318 121 96 69
345 876 230 83 72 71
179 554 309 104 28 43
246 468 345 129 22 45
204 398 315 120 94 66
206 398 319 121 95 68
193 403 298 119 95 69
436 805 254 51 42 34
323 118 275 117 94 68
399 794 214 76 56 44
194 403 300 122 97 69
316 413 211 148 15 34
259 153 259 106 81 56
348 638 269 138 22 47
196 403 304 122 97 68
193 409 303 120 96 69
301 628 222 70 31 35
194 406 301 121 97 69
210 422 341 81 26 36
365 588 274 48 30 33
438 829 264 100 79 61
200 403 310 122 96 67
420 591 323 84 28 37
380 603 234 105 61 49
261 123 269 110 83 61
329 425 256 92 78 62
439 824 263 101 82 63
403 820 302 46 38 31
197 408 308 122 96 67
391 778 153 94 69 51
199 407 311 123 97 68
200 408 314 124 97 68
291 578 346 139 20 46
383 747 231 159 112 80
325 398 289 118 96 72
448 571 306 141 17 43
202 513 343 50 28 32
295 120 259 101 59 46
260 88 220 148 4 39
387 581 311 120 20 42
194 412 306 117 93 68
193 414 307 113 92 69
286 33 285 133 28 51
230 809 269 78 63 59
199 412 315 121 96 67
371 668 220 149 96 74
276 405 224 130 49 39
198 415 318 111 91 71
284 310 382 138 100 80
381 598 334 86 33 39
201 413 319 118 94 68
229 748 252 150 1 40
202 403 314 122 96 67
425 524 230 51 34 33
203 404 318 123 97 68
380 678 214 152 103 71
202 408 319 123 97 68
327 943 294 81 74 77
211 388 319 119 95 68
302 512 196 41 36 40
210 393 320 119 95 69
313 323 329 118 93 64
301 198 323 106 89 72
204 700 346 171 118 93
290 299 377 118 93 64
309 848 214 63 58 58
197 418 260 84 68 52
239 633 252 63 26 31
436 488 233 107 28 38
194 421 262 80 43 19
214 626 322 80 53 43
323 188 284 126 100 70
260 323 274 92 74 54
199 421 257 78 58 43
192 433 260 102 8 30
219 585 242 183 6 47
194 437 257 76 22 30
312 419 222 111 10 33
297 12 273 96 50 31
193 420 312 75 28 34
410 582 254 117 69 33
476 843 270 90 72 58
211 503 346 152 16 47
170 523 254 48 32 39
367 773 161 64 54 47
326 873 204 101 82 72
195 418 314 86 56 48
230 386 257 96 81 65
328 396 308 118 96 71
266 428 205 90 31 36
276 475 315 86 45 40
311 393 348 143 101 76
245 385 256 98 81 63
310 87 218 92 32 25
326 564 414 185 123 113
393 506 281 83 16 30
316 473 318 116 78 63
276 404 229 120 59 45
337 708 200 89 35 32
426 498 248 90 20 33
251 392 258 96 79 61
188 663 338 166 115 90
402 506 275 86 16 31
298 137 265 110 84 57
326 593 334 147 20 48
253 387 262 91 76 59
373 854 330 61 51 45
295 93 254 103 50 47
351 533 379 54 22 33
257 391 263 82 68 53
380 703 194 122 90 59
207 403 323 122 96 69
208 536 342 37 28 30
392 549 252 132 17 42
293 292 371 125 98 67
249 917 282 60 56 57
204 407 321 124 98 70
221 393 328 121 96 68
271 463 203 100 22 28
346 38 269 135 28 49
206 408 323 121 97 70
266 634 331 114 27 44
419 821 220 102 85 71
326 859 319 45 40 37
307 343 360 138 101 72
206 413 325 113 91 68
294 161 286 99 80 60
271 678 224 113 17 29
214 386 321 119 94 68
390 494 263 80 10 30
216 388 324 120 95 69
250 708 233 133 3 34
267 338 309 89 73 57
324 243 304 120 94 64
216 393 325 119 94 68
427 479 222 123 24 40
261 473 345 100 23 38
321 543 200 208 10 46
296 377 273 107 91 74
211 398 323 121 97 70
343 530 341 170 21 59
220 388 326 121 96 69
307 492 323 70 34 32
219 392 326 121 96 68
218 394 327 121 96 69
251 753 234 79 53 52
438 521 285 77 13 29
217 398 328 120 96 69
321 368 329 119 95 66
221 398 330 121 96 68
356 663 224 97 64 53
306 179 313 105 88 69
301 412 206 161 11 36
212 408 328 117 93 67
216 408 330 119 94 67
219 407 331 120 95 67
199 589 330 175 11 53
221 498 347 151 14 47
223 400 332 122 97 68
408 829 264 72 59 48
221 408 333 120 95 67
244 898 319 166 127 104
434 535 331 90 26 35
478 586 312 81 16 28
218 410 332 120 95 67
200 417 324 53 45 39
315 353 314 121 98 71
197 423 324 36 31 31
199 421 326 34 28 27
296 188 275 130 92 55
416 592 324 138 33 54
398 824 215 87 74 67
199 423 329 38 29 32
195 433 324 124 15 39
197 433 329 88 19 36
200 428 334 97 22 37
199 433 334 110 22 39
269 874 277 142 110 88
261 463 203 65 34 35
206 416 330 76 61 48
326 388 309 118 95 70
323 123 275 120 97 70
201 423 334 114 16 36
203 420 337 135 13 39
287 198 309 110 90 70
346 552 409 63 24 33
206 419 338 114 27 39
232 778 341 164 120 88
257 628 332 35 24 27
231 623 364 165 116 92
440 519 249 77 26 25
251 553 209 76 29 37
273 684 221 101 19 26
409 745 146 79 57 43
350 753 283 85 65 56
446 564 275 104 52 24
202 428 338 99 18 35
319 189 312 117 95 71
288 478 352 40 24 26
286 488 193 122 10 27
206 433 340 69 28 36
302 168 266 139 97 63
258 292 268 123 97 68
193 439 322 128 8 38
195 438 324 130 9 39
291 384 356 166 118 98
296 9 289 109 44 48
197 438 329 133 11 39
372 563 239 71 27 33
301 222 281 133 98 58
271 429 207 63 37 38
366 620 196 101 84 67
198 434 332 118 15 41
198 438 333 127 12 37
223 678 317 87 56 45
194 443 325 131 9 40
276 278 359 106 88 69
196 443 329 134 10 41
326 33 245 113 92 73
194 446 326 132 9 41
301 38 273 94 45 46
298 54 259 110 84 83
393 773 204 79 56 43
195 448 329 133 10 40
356 868 350 49 44 40
201 443 338 147 16 46
206 438 340 126 24 46
441 526 324 64 29 29
294 493 359 119 17 41
279 465 320 70 39 32
206 443 340 110 20 41
221 668 319 102 57 43
206 448 340 97 22 37
246 427 340 99 53 44
310 328 354 134 101 69
301 173 268 137 96 61
211 416 334 73 61 48
216 416 335 86 70 52
312 38 254 73 35 27
396 843 254 71 59 49
251 493 343 89 21 36
211 418 339 73 45 40
290 247 346 109 91 73
212 423 342 68 26 34
285 243 293 126 85 51
168 532 289 128 21 45
304 348 362 146 104 79
265 453 319 70 24 31
216 419 339 79 49 42
385 763 234 153 113 81
266 468 346 50 26 29
212 428 342 40 26 30
211 433 341 103 30 42
420 456 215 114 7 37
298 128 245 119 24 42
282 203 304 111 90 69
480 503 247 110 32 45
215 430 341 82 32 39
306 108 282 109 91 71
322 502 380 80 35 35
221 419 338 81 61 46
327 554 213 162 2 36
201 543 224 109 25 39
324 380 332 126 98 65
345 618 235 73 31 42
222 421 341 91 33 36
221 428 342 139 20 47
306 251 291 139 96 64
416 572 270 67 39 37
276 78 269 100 41 44
241 443 343 68 25 32
331 427 234 106 28 37
216 438 341 52 30 33
332 808 180 66 55 51
216 448 341 57 29 31
221 434 341 132 24 48
336 658 223 80 25 29
222 443 342 113 26 42
219 446 341 37 26 31
285 498 308 73 26 32
329 926 271 87 76 77
286 283 370 103 85 66
282 328 306 87 72 57
226 798 342 182 134 106
261 537 201 140 17 40
392 808 235 61 47 39
411 459 214 117 4 35
392 635 225 187 126 97
421 823 294 66 53 41
217 449 342 57 29 32
411 503 235 69 28 28
226 388 329 123 96 67
226 393 330 123 96 67
286 947 281 92 86 89
279 232 325 112 94 74
266 402 244 82 61 52
231 388 331 127 96 68
240 599 237 56 33 35
275 228 299 115 89 61
230 391 331 127 97 69
226 688 315 52 37 34
331 618 228 112 31 40
168 526 265 76 24 31
345 34 250 126 100 77
427 822 276 60 49 40
231 393 332 127 97 68
336 555 404 90 25 39
227 394 332 124 95 66
225 397 331 123 96 67
226 398 333 124 96 67
322 492 359 93 56 49
361 458 239 105 15 34
306 157 261 145 100 69
259 293 269 123 97 68
231 398 334 128 98 69
276 568 378 187 131 112
297 178 308 105 87 69
294 308 377 134 96 71
344 680 302 63 35 36
337 933 304 68 63 61
237 392 331 131 98 67
232 390 332 129 97 68
241 388 330 130 95 64
416 512 384 186 21 62
276 10 289 107 69 55
241 393 331 131 96 66
436 512 255 82 15 29
266 508 195 116 14 31
281 894 363 92 75 61
260 29 286 107 72 61
236 398 333 130 98 67
296 878 354 61 52 44
239 395 332 133 98 67
303 241 286 139 99 62
240 399 332 133 99 66
426 491 231 102 31 36
226 408 335 125 97 69
321 505 315 59 30 28
231 403 335 128 99 69
349 544 422 86 30 40
178 558 294 79 33 38
321 498 329 67 34 32
267 373 348 151 109 91
236 403 334 131 99 68
261 408 209 91 39 37
506 588 289 138 98 90
340 638 230 90 25 39
227 414 337 128 98 70
246 753 328 127 88 62
196 553 329 169 12 52
291 213 284 125 90 51
231 414 337 130 98 70
302 93 225 114 19 38
234 414 337 131 98 69
246 723 328 57 27 33
278 902 235 93 83 82
314 47 248 75 39 25
250 569 217 180 1 41
246 393 329 127 88 65
250 888 299 162 120 96
330 112 239 144 30 51
242 398 331 132 96 66
301 234 342 111 92 72
296 528 374 33 27 29
279 227 321 112 92 72
236 498 346 150 16 48
246 398 330 131 91 65
232 523 206 73 34 39
386 484 230 85 25 36
389 525 211 71 36 35
251 393 328 118 80 61
369 732 273 64 30 36
261 298 284 99 79 56
256 388 328 93 61 45
263 909 260 61 56 56
283 235 332 110 93 74
306 358 358 148 105 81
256 393 328 95 63 47
302 858 224 56 53 55
256 398 328 102 67 51
243 402 331 132 96 65
415 515 299 75 18 28
191 738 324 178 122 96
291 964 304 57 53 51
301 68 274 109 82 63
246 403 330 130 91 64
244 404 332 131 94 66
190 568 319 149 6 42
245 408 332 129 92 64
221 648 359 176 123 99
246 413 333 129 91 64
256 408 328 121 78 60
321 793 284 150 105 83
224 416 336 124 96 69
288 259 352 106 89 71
226 418 338 117 90 65
316 893 233 74 65 64
231 418 338 127 96 70
271 49 281 119 26 45
226 433 342 143 19 46
371 578 309 172 20 55
320 952 295 88 81 84
231 428 341 119 21 41
236 418 337 127 95 68
511 598 299 98 33 45
236 423 340 115 62 51
411 568 319 89 17 34
276 443 208 112 14 24
322 828 190 71 62 60
240 419 337 125 92 65
324 123 273 123 97 68
481 596 289 163 107 97
455 819 234 91 71 45
201 673 314 125 90 60
371 793 149 97 72 52
351 511 308 63 35 27
241 423 339 108 74 55
281 443 339 88 49 39
279 480 346 88 30 41
267 405 203 106 38 39
311 623 224 96 31 39
236 433 341 99 26 38
264 410 326 120 83 68
346 683 189 148 109 76
320 492 196 147 1 31
241 428 341 82 30 34
263 415 197 120 25 42
375 743 163 77 60 45
455 521 362 170 23 60
226 438 342 134 19 45
216 598 335 33 27 29
200 609 284 176 14 52
226 443 342 113 21 40
384 510 318 98 41 36
226 448 343 92 23 36
304 76 238 102 45 35
249 529 202 153 28 49
258 610 354 166 105 84
231 443 343 74 25 34
306 262 295 120 87 57
301 12 304 121 35 51
302 303 365 125 94 62
236 438 342 101 24 38
284 811 302 128 83 65
242 585 344 54 30 31
373 708 274 52 30 36
238 435 342 133 20 42
209 625 294 99 36 47
373 535 409 186 19 63
241 434 342 124 23 43
236 443 344 53 28 30
220 477 346 107 23 41
441 514 259 75 18 30
261 478 344 80 24 34
236 448 345 62 29 33
241 448 344 102 23 38
304 105 227 129 9 43
264 122 263 114 81 61
332 423 274 111 91 68
251 418 330 127 85 63
224 685 291 46 37 32
407 575 269 91 28 30
406 853 259 79 65 57
303 304 317 99 79 56
332 423 269 107 88 67
249 419 332 125 87 64
264 317 366 122 92 66
252 422 330 126 86 64
316 233 288 139 103 64
319 803 282 147 104 84
256 418 328 124 80 62
251 427 334 123 87 65
256 428 329 124 82 64
380 433 203 102 26 38
243 422 336 124 91 63
485 538 263 130 16 43
242 429 342 67 27 32
272 324 311 82 68 53
211 463 342 84 26 36
251 518 200 135 7 31
246 429 342 108 29 41
274 291 371 107 89 70
281 513 340 62 24 31
307 313 359 136 102 71
335 25 260 94 87 81
268 314 316 99 80 57
244 432 341 77 30 34
251 538 204 126 24 40
258 330 268 94 77 60
205 738 297 121 91 61
353 528 202 39 36 41
246 433 342 93 24 37
272 889 264 86 69 57
437 816 245 85 63 48
251 428 339 111 66 52
251 813 324 156 113 87
491 573 318 114 22 43
215 628 319 76 46 43
251 430 342 121 35 42
261 198 269 99 78 55
266 593 369 186 127 106
321 513 197 89 23 34
406 587 311 85 17 33
251 433 343 127 25 44
355 596 293 194 7 61
255 430 342 95 45 40
246 438 342 71 23 30
361 623 224 88 48 41
341 478 199 167 6 36
404 811 201 93 72 56
246 443 343 109 21 39
377 874 269 75 65 63
378 860 315 56 47 40
340 852 210 104 81 63
176 553 299 120 29 46
297 759 315 80 60 50
251 438 343 70 23 31
311 564 374 183 122 106
453 546 260 171 11 44
320 499 325 63 32 30
326 568 344 156 21 52
256 438 345 97 21 37
300 390 261 108 91 72
251 448 344 80 23 33
332 595 337 150 17 49
341 527 279 55 40 29
256 638 238 128 8 32
361 508 334 76 26 28
385 728 209 136 94 60
259 807 322 144 115 88
256 443 345 64 22 30
256 448 346 77 26 33
250 913 344 140 106 90
278 880 357 78 63 53
281 38 284 128 29 49
325 78 214 141 47 37
244 784 247 73 58 52
341 513 285 57 43 29
193 449 327 131 9 40
195 453 334 130 11 39
193 455 332 133 11 41
258 143 271 109 84 59
195 463 335 128 12 38
213 622 319 63 31 36
299 206 326 105 88 72
446 804 249 71 55 43
198 450 337 134 12 40
296 563 361 105 53 53
198 453 337 135 13 40
206 518 214 161 1 35
415 608 239 185 126 96
197 463 337 142 14 44
304 22 267 117 36 34
265 472 318 92 23 36
201 463 339 147 16 46
258 194 247 125 99 71
206 453 340 110 22 40
206 458 341 110 19 38
206 463 341 78 21 33
279 882 249 48 45 47
324 911 357 56 51 47
310 229 337 113 92 70
195 468 336 132 12 39
194 473 336 139 12 42
382 804 169 86 66 56
264 118 267 113 82 63
234 638 257 101 27 43
346 552 404 133 67 74
194 478 336 142 13 45
461 518 264 74 24 33
201 473 340 65 27 34
197 478 338 140 14 42
408 780 161 74 62 50
201 478 340 107 24 40
205 468 341 56 27 30
376 812 180 91 67 51
207 468 342 75 30 34
410 489 243 88 9 26
301 423 210 139 10 32
268 52 232 85 70 50
301 412 239 109 58 36
340 521 289 55 38 27
205 473 341 41 25 29
311 73 279 108 22 41
207 473 342 64 27 31
211 453 341 73 26 34
303 351 297 101 87 73
215 452 341 88 31 41
457 838 245 115 97 81
251 549 339 76 9 30
213 455 342 103 29 40
210 457 341 69 28 34
266 53 278 112 61 57
300 133 284 106 86 64
263 133 259 125 87 64
318 905 242 77 69 70
209 461 341 42 27 28
216 458 343 94 27 40
286 703 213 130 10 35
221 558 343 68 26 32
339 429 228 118 10 37
216 463 343 67 28 33
416 743 184 85 64 46
297 518 369 100 21 40
277 88 264 87 63 47
190 593 289 164 14 48
221 458 344 52 29 33
256 813 248 82 63 56
328 393 319 120 96 67
221 463 345 41 28 30
266 494 341 33 25 28
216 703 303 91 51 39
309 479 349 109 71 59
211 473 344 67 27 33
216 468 344 104 21 37
243 704 327 63 25 30
211 478 344 123 20 42
311 173 266 147 104 70
306 959 299 88 83 86
221 473 346 125 23 44
274 495 317 78 25 33
222 479 347 116 26 44
246 798 249 75 60 52
324 122 249 115 84 67
193 494 337 131 19 45
200 603 309 90 29 39
456 493 245 84 31 39
291 903 370 55 50 48
327 11 289 126 38 54
340 903 265 82 72 71
203 483 342 86 21 37
202 493 342 71 22 32
266 32 288 132 34 54
209 803 304 190 130 100
321 823 284 119 94 74
340 509 373 66 35 27
196 498 339 71 29 35
193 503 337 63 28 31
196 503 339 119 24 43
200 498 341 74 30 36
275 536 340 68 15 24
192 508 337 104 26 39
256 693 229 127 13 33
311 177 311 108 89 70
326 463 195 62 35 35
193 513 337 73 26 34
251 533 202 119 29 42
196 513 339 57 29 33
254 790 242 75 59 53
242 753 240 95 48 51
297 462 349 95 61 52
378 712 226 158 107 81
261 633 334 71 28 35
324 208 294 121 96 66
255 878 335 98 78 66
302 278 360 122 96 65
278 215 307 111 91 69
311 58 244 69 38 29
199 508 341 29 29 29
308 60 246 52 44 35
178 552 264 109 31 41
199 513 341 47 26 31
183 561 261 118 15 22
202 498 342 57 26 29
381 428 203 84 34 37
371 539 214 46 34 39
346 867 356 51 43 38
172 523 249 159 13 45
226 648 358 176 116 91
206 498 344 118 22 43
206 503 344 137 19 46
311 498 319 66 31 31
436 456 216 110 0 31
206 508 345 88 22 38
286 503 194 95 29 35
382 793 240 150 111 88
338 432 289 122 98 70
466 532 259 85 10 28
211 483 345 145 17 46
300 21 299 153 104 92
211 488 345 152 17 48
256 613 338 86 29 36
323 188 294 119 94 65
236 713 244 149 2 43
216 488 346 157 18 49
391 833 324 46 39 34
304 303 362 128 94 64
371 524 340 79 27 34
275 888 259 61 56 55
301 393 352 154 107 84
364 860 242 70 60 58
296 153 284 100 81 59
229 643 262 186 10 50
336 423 214 72 33 33
211 493 345 148 17 46
260 53 275 101 53 49
216 493 346 154 17 49
384 834 248 82 69 57
219 482 346 80 33 42
221 483 347 77 24 36
390 490 257 85 8 27
343 898 330 47 42 40
371 733 244 135 100 75
323 193 289 122 97 68
220 493 346 153 16 48
221 493 347 154 16 48
416 513 234 83 22 27
211 498 345 139 18 46
381 793 144 111 83 60
371 838 314 34 32 32
216 503 346 158 16 50
351 628 190 120 93 62
216 513 346 121 21 43
337 818 176 71 58 51
280 218 314 111 92 72
310 843 224 53 49 51
272 405 219 148 38 31
351 738 184 149 112 77
362 683 259 143 17 46
188 581 312 146 0 42
222 498 346 152 14 47
318 357 324 121 97 68
214 815 326 200 137 109
218 502 347 156 14 49
261 203 269 99 79 55
411 824 284 44 37 32
220 501 347 160 15 52
306 183 315 106 89 71
206 598 260 184 11 46
221 508 346 128 19 44
274 244 302 141 108 77
386 758 229 152 110 77
307 333 359 134 101 69
446 499 248 52 30 33
226 458 345 50 28 32
306 418 219 107 8 30
264 417 326 97 64 51
261 444 206 68 33 34
334 418 309 126 99 68
209 800 331 188 128 97
311 718 202 94 28 32
386 452 205 119 6 36
361 597 331 149 19 41
226 463 346 33 29 30
231 458 346 91 27 35
236 453 345 40 29 30
317 243 293 139 102 64
199 779 314 189 129 104
241 453 345 79 26 34
351 828 179 81 65 55
223 541 216 81 34 35
386 858 304 57 48 43
241 458 345 53 27 31
260 45 230 116 99 82
241 463 345 101 26 40
225 472 347 120 21 45
202 633 349 135 102 70
231 473 346 114 26 44
456 503 254 93 28 39
242 815 331 168 121 95
225 478 347 93 23 37
454 535 341 56 26 29
476 544 341 198 16 64
292 173 275 116 87 51
275 53 240 83 40 26
266 423 203 73 36 35
302 179 312 104 88 70
231 478 346 69 25 33
395 480 247 97 3 30
236 468 346 69 29 34
201 663 350 162 116 91
413 771 151 82 72 65
291 398 249 110 92 69
236 473 346 94 30 41
335 747 297 79 60 50
309 314 321 93 77 59
257 773 235 74 59 53
241 468 346 90 26 36
406 438 203 110 17 34
241 473 345 97 25 38
401 488 228 118 25 39
431 522 339 63 30 33
421 488 228 88 27 38
236 478 345 127 23 46
241 478 345 151 20 51
256 453 346 117 22 41
212 788 284 166 112 80
246 473 345 129 21 45
406 595 324 140 30 54
375 466 205 192 24 48
360 877 329 63 55 51
320 20 260 80 71 63
281 453 205 113 14 26
324 205 304 119 95 67
251 468 345 111 19 38
286 348 369 164 110 92
202 547 226 51 36 38
371 783 249 151 115 91
251 473 345 89 23 36
256 468 345 82 26 35
206 518 344 158 16 50
213 632 289 145 23 48
256 473 345 53 26 30
317 273 339 128 96 63
395 857 250 85 73 70
246 743 235 56 32 39
373 825 242 46 40 37
234 744 247 96 20 32
256 478 345 53 28 30
225 483 347 101 31 42
355 674 288 124 11 39
227 483 346 83 25 36
277 228 319 112 92 72
224 489 347 109 26 45
356 526 370 66 22 32
329 556 401 85 23 24
231 488 346 150 17 48
250 857 304 145 109 81
318 283 324 121 85 58
247 903 339 170 128 107
231 493 346 147 15 47
253 614 343 135 87 72
236 488 346 150 15 46
292 913 365 59 54 53
241 483 345 154 18 49
241 493 345 151 17 48
198 516 216 162 2 36
356 508 354 65 22 25
292 193 313 104 86 67
226 498 346 154 14 49
380 548 240 55 32 37
226 498 347 154 13 48
321 203 314 121 97 70
316 113 218 161 28 51
322 909 248 80 72 73
408 615 246 194 125 98
260 223 264 112 88 60
408 536 231 175 8 50
412 827 213 105 86 73
229 498 347 154 14 48
231 503 346 143 16 46
193 644 342 145 104 78
353 618 252 155 16 47
341 512 309 56 33 25
223 683 293 88 26 37
226 513 346 59 30 34
329 556 385 175 108 101
252 703 231 111 18 37
236 503 346 149 16 47
246 748 235 55 34 38
450 565 306 140 16 44
241 503 344 141 15 45
260 428 328 111 73 57
236 508 345 140 16 45
246 483 345 83 24 37
364 591 279 56 29 34
246 488 345 108 21 40
271 589 370 185 126 104
246 493 344 133 18 44
426 550 311 144 19 49
256 488 343 76 25 34
318 240 292 138 102 64
377 843 234 72 64 60
345 882 358 55 50 48
251 483 344 41 29 29
294 189 277 127 89 51
251 488 344 37 26 29
339 15 288 117 58 58
274 892 254 51 47 50
256 493 342 108 17 38
246 503 343 131 13 42
339 73 254 135 21 47
316 633 224 92 25 34
297 98 278 95 52 47
248 505 341 115 12 36
248 677 327 40 28 32
201 728 299 108 80 57
247 508 341 119 13 39
247 513 341 102 11 33
251 504 341 106 14 34
321 423 244 77 48 43
255 497 342 123 13 41
297 513 374 99 18 37
256 503 341 108 12 36
335 708 202 88 27 28
251 508 341 85 18 33
323 198 304 120 96 68
251 513 340 84 19 33
329 566 216 144 5 35
257 24 256 107 93 78
261 24 255 100 87 74
439 460 222 98 0 38
474 825 252 100 77 57
261 27 253 102 87 72
315 772 297 71 54 46
262 29 250 102 87 71
276 583 354 121 71 62
273 259 337 118 96 74
266 23 255 104 90 77
367 829 199 110 83 67
271 23 255 101 87 74
302 187 271 138 99 62
266 29 250 103 89 74
377 540 229 96 23 36
292 208 323 105 87 68
276 23 256 95 56 36
302 33 264 105 61 56
369 716 287 61 36 40
456 527 354 148 25 52
275 34 251 58 37 29
324 121 240 161 27 57
200 688 345 170 118 95
261 318 324 101 78 55
280 28 256 84 34 29
260 53 220 109 91 71
341 34 250 124 104 81
486 553 314 89 30 31
316 931 266 73 67 68
430 515 269 79 9 29
413 843 317 76 60 46
294 96 264 91 49 46
259 50 221 119 103 89
301 10 294 113 42 51
324 257 310 118 91 59
262 53 223 118 101 84
266 328 294 63 54 44
302 123 283 107 88 67
233 660 256 42 33 29
259 59 216 87 41 21
261 63 214 113 34 33
261 58 219 80 40 23
356 453 206 119 8 37
263 56 222 93 74 49
231 563 353 137 16 45
262 61 217 93 43 22
316 223 329 119 96 70
175 523 239 136 11 39
384 821 196 90 69 56
265 54 225 114 97 78
341 533 341 137 15 46
311 488 194 144 9 35
266 63 219 107 36 25
270 63 224 104 36 29
261 43 234 115 98 82
244 898 324 172 131 109
405 444 201 88 30 34
291 233 339 108 90 73
261 41 238 114 98 82
261 39 240 113 97 82
460 470 227 99 19 35
265 40 240 112 96 80
441 528 343 37 28 30
499 565 287 103 55 50
420 580 293 93 26 37
458 842 258 88 73 57
324 253 314 121 95 65
337 687 310 58 27 30
260 223 259 119 94 65
267 47 238 106 92 76
261 35 246 109 93 77
411 513 399 125 20 44
261 37 243 112 95 80
321 398 339 141 106 79
324 134 277 121 96 66
436 474 222 204 18 44
345 753 188 87 66 43
266 34 246 109 93 76
266 38 244 111 95 79
271 38 248 77 52 36
461 813 239 87 66 47
296 233 284 133 94 57
317 192 315 115 94 70
420 813 215 108 88 68
413 516 243 81 18 29
331 554 399 135 55 63
290 690 337 130 12 40
277 264 348 108 91 73
267 42 242 111 95 79
320 405 211 117 23 28
374 768 249 156 112 85
271 43 244 79 47 34
207 592 255 185 10 46
274 232 304 105 83 58
270 45 241 76 55 38
366 538 209 59 36 41
390 631 232 173 113 87
422 554 272 71 22 29
326 448 203 65 33 34
370 733 269 103 32 42
331 12 289 130 40 55
311 153 298 107 88 67
296 294 313 91 70 44
381 572 289 81 24 33
266 53 229 103 82 63
421 758 164 85 65 51
331 103 224 158 32 55
275 233 319 114 93 72
289 541 374 73 47 38
296 563 348 102 21 38
269 54 231 77 35 28
271 53 234 64 43 29
300 282 306 94 71 44
270 50 236 76 47 37
268 56 228 85 43 26
240 788 338 159 121 88
323 96 271 96 31 28
269 59 225 90 48 18
288 64 264 92 48 39
272 57 233 77 36 31
306 487 385 116 20 41
276 38 250 79 40 29
278 295 377 110 89 66
376 528 335 131 22 49
280 39 251 92 39 29
282 38 254 88 30 26
293 302 376 117 92 62
230 518 207 89 31 35
261 93 223 135 12 34
273 46 242 81 43 32
315 129 287 109 88 64
325 128 264 131 102 72
278 46 247 85 42 28
266 488 305 93 20 37
226 578 233 176 9 44
381 858 254 87 71 67
280 43 250 96 49 37
221 643 360 168 118 94
284 39 256 107 29 29
333 436 250 74 42 32
281 468 201 109 14 25
282 43 253 105 35 27
305 67 243 85 39 24
309 853 213 68 61 61
368 836 223 83 71 68
266 803 238 81 64 57
237 589 344 57 30 30
245 923 334 63 55 55
322 522 298 57 32 27
294 158 284 99 80 59
473 521 250 138 19 44
283 48 253 95 50 29
376 827 245 37 32 30
285 43 255 98 71 49
329 89 220 99 36 23
285 759 212 71 57 52
311 353 354 137 103 72
341 803 178 59 49 46
402 788 170 88 69 55
342 478 294 111 85 62
273 52 238 74 41 30
231 639 324 126 62 66
321 948 289 87 80 82
339 64 241 114 69 39
274 63 235 91 52 42
329 430 244 82 48 44
393 601 222 101 83 62
276 63 239 107 32 30
329 923 338 43 38 36
336 512 309 57 31 26
277 53 244 86 42 31
296 24 294 142 90 79
334 423 314 129 99 66
279 49 246 102 30 27
316 463 324 128 89 72
280 58 245 101 34 30
216 523 214 160 1 34
280 63 245 119 43 40
406 503 259 83 10 31
349 886 349 60 53 49
351 414 213 100 19 34
344 439 234 109 24 37
301 563 364 124 70 67
473 839 273 89 75 64
282 53 249 101 39 30
252 898 289 60 55 54
307 475 316 105 69 58
284 55 251 116 32 30
257 278 269 123 97 68
282 58 248 118 28 29
344 781 182 62 50 45
361 523 203 120 14 27
177 543 314 84 21 38
304 756 312 81 63 52
303 331 307 102 87 71
284 59 250 110 46 31
471 536 347 173 23 59
311 23 255 105 72 48
310 28 254 111 30 29
262 520 336 46 22 26
386 466 230 97 6 29
456 833 274 100 81 64
311 33 254 93 28 27
311 198 274 148 108 69
282 422 337 138 99 82
316 33 249 90 45 35
321 30 246 109 93 77
321 33 245 118 91 74
281 293 316 90 68 46
333 104 239 120 80 70
396 754 145 93 69 51
319 32 247 109 91 74
313 28 251 106 55 34
293 99 264 82 59 48
401 793 169 82 66 56
321 25 251 100 86 71
302 49 256 92 30 30
236 698 323 53 27 27
361 573 337 43 27 29
416 513 380 191 20 62
301 53 255 79 38 40
261 48 278 113 49 54
296 449 330 99 67 53
301 58 254 74 56 42
286 406 243 113 67 45
210 743 289 123 90 60
342 880 233 82 71 68
298 64 255 90 34 33
299 118 244 108 30 37
287 379 275 106 89 70
351 830 188 96 73 55
320 198 280 140 105 67
408 840 243 81 66 55
311 43 254 71 60 49
298 619 325 114 29 47
311 48 249 75 47 31
311 46 252 81 69 56
292 103 259 101 28 41
315 38 249 79 30 28
324 242 300 129 100 65
356 613 259 168 5 52
318 35 246 94 68 43
296 38 274 101 42 47
284 782 312 71 55 45
307 23 259 118 53 43
266 118 259 128 88 67
436 454 214 121 8 37
416 753 183 66 49 36
280 46 282 128 92 77
321 38 243 114 79 62
381 510 319 100 40 37
358 709 301 160 20 54
331 88 224 96 46 24
313 38 251 79 34 28
313 486 342 98 63 51
297 28 267 106 31 31
316 48 244 66 42 28
458 497 246 101 0 19
319 47 242 84 60 44
281 22 302 141 94 78
313 43 251 67 37 26
301 788 208 83 65 56
375 577 294 153 19 56
317 448 214 75 52 51
321 48 240 110 71 54
315 63 238 84 65 46
353 657 260 93 24 38
288 411 207 104 21 25
301 422 342 151 109 87
317 63 235 102 86 70
204 727 297 111 82 57
321 63 233 107 69 53
339 931 299 61 57 56
310 53 247 78 33 25
307 63 245 73 43 28
324 223 304 120 96 69
298 885 367 39 35 35
307 58 249 76 36 29
295 778 307 68 52 42
336 36 283 140 23 55
309 57 247 72 34 29
244 584 227 134 31 46
356 543 214 97 28 40
330 519 387 82 56 41
310 62 243 62 41 32
372 585 337 63 26 30
305 57 252 80 46 40
404 786 154 87 71 57
356 508 349 65 22 25
276 383 353 163 115 99
318 50 241 77 59 47
313 59 241 70 39 26
295 508 359 91 20 36
260 69 211 142 15 33
260 73 211 147 13 37
416 746 148 100 70 49
389 851 318 66 53 45
353 456 213 118 15 37
291 828 319 121 97 71
262 74 213 146 10 38
259 76 211 147 3 40
327 58 238 101 86 70
305 78 234 72 43 24
360 684 293 130 8 40
256 683 329 44 27 29
261 78 214 148 4 38
261 393 329 97 65 51
287 572 211 44 37 41
262 80 217 150 4 41
304 119 232 125 13 38
333 870 215 88 72 68
270 492 197 108 16 26
484 540 339 84 17 30
276 493 315 80 23 33
496 589 306 174 21 60
203 611 276 177 18 56
251 663 238 117 16 34
269 64 221 114 18 31
402 498 232 86 25 33
270 68 224 110 31 33
268 74 218 135 11 35
281 935 267 87 80 80
269 76 221 139 17 42
269 77 224 132 18 43
450 574 307 138 13 44
259 82 215 147 0 38
263 85 222 149 1 35
258 95 222 142 6 36
281 391 263 105 88 69
266 83 224 143 12 40
323 153 289 114 92 66
415 546 261 167 4 45
264 88 225 141 18 40
305 144 258 130 87 55
276 433 330 91 65 48
272 68 229 90 47 34
306 143 294 106 87 66
192 648 343 156 110 84
272 594 359 165 102 84
312 303 329 108 83 56
271 73 229 107 46 40
272 73 234 96 59 45
272 78 234 105 34 36
391 809 184 98 74 57
269 81 230 122 27 34
271 937 275 76 69 70
268 85 233 80 51 27
217 803 284 183 124 95
345 597 226 63 27 27
267 88 233 109 44 41
298 81 241 96 23 33
410 472 216 198 15 41
381 488 259 85 21 28
249 928 345 52 50 51
313 835 215 57 54 54
270 83 234 105 43 35
284 192 294 100 81 60
270 89 235 117 33 28
324 64 208 141 44 40
470 479 230 74 34 38
270 92 235 114 37 36
191 558 323 165 10 50
271 93 239 100 57 39
361 462 195 165 18 41
332 510 291 55 36 30
272 94 242 93 51 31
466 533 324 87 38 36
317 924 350 52 49 49
508 573 274 159 117 98
353 451 240 108 26 37
277 64 276 112 16 42
273 68 233 105 43 36
311 114 218 158 27 52
277 262 306 108 83 58
282 385 271 103 86 68
274 68 235 101 43 32
288 179 289 95 77 57
387 482 251 96 4 29
275 68 239 119 30 36
311 68 279 110 18 40
274 71 236 113 36 35
222 663 339 118 76 61
337 698 204 89 31 32
274 73 239 118 40 41
442 588 269 158 104 75
326 48 277 117 20 43
273 74 237 86 51 34
326 578 340 95 24 41
272 794 316 67 53 46
273 78 237 119 28 41
401 839 339 84 66 50
280 88 254 108 31 41
274 78 239 124 31 37
276 73 244 129 35 39
277 68 244 125 36 40
265 338 313 88 72 55
278 68 247 123 75 59
476 508 250 122 26 44
252 582 221 125 22 40
295 224 282 131 96 57
454 530 315 84 22 31
281 68 249 115 69 54
326 872 365 50 44 42
280 73 250 120 90 66
302 143 293 104 86 65
242 663 245 120 9 32
276 78 244 130 28 34
215 619 268 185 12 48
352 599 290 195 12 62
265 950 315 61 57 57
283 70 252 115 20 38
387 594 336 61 29 33
283 74 253 117 38 38
396 849 314 69 55 45
285 68 254 118 37 41
326 468 315 131 94 75
327 603 310 36 28 32
339 556 416 82 26 33
321 793 200 75 59 53
284 73 255 114 55 43
311 358 354 140 105 75
282 78 254 117 38 43
225 648 299 124 19 43
266 673 330 78 30 37
274 83 240 112 43 37
321 858 203 75 62 59
310 222 281 138 102 61
439 555 311 154 19 50
275 88 240 122 27 31
206 712 303 122 86 57
261 937 343 64 60 60
223 729 261 150 7 45
277 88 244 117 26 34
279 84 246 119 29 38
279 88 246 113 36 35
351 858 219 74 63 60
306 228 338 110 91 71
279 88 249 119 44 48
306 688 328 125 17 44
416 528 339 91 25 38
274 91 241 116 66 54
292 287 370 117 93 67
276 93 244 108 44 37
328 454 321 139 101 80
382 858 250 84 67 66
320 108 278 110 24 43
260 318 354 119 93 67
260 738 227 88 30 37
278 90 247 107 54 45
328 115 254 139 55 59
322 198 309 121 97 69
278 94 249 105 51 40
376 483 214 143 9 34
404 837 268 71 55 43
279 92 249 104 61 55
257 573 368 131 102 77
278 94 254 85 33 32
316 93 279 104 43 48
203 786 332 186 128 98
299 92 276 106 86 64
281 83 254 119 23 34
321 507 298 53 35 25
384 477 216 98 26 37
184 564 263 104 36 46
261 103 224 141 13 40
260 188 249 121 96 69
263 104 227 129 24 37
414 762 177 69 52 41
464 590 292 188 132 116
258 110 234 143 94 71
320 494 335 75 40 36
331 663 305 93 21 37
312 495 197 138 20 40
258 110 238 137 91 68
264 98 226 136 30 41
391 459 197 104 33 43
267 103 233 128 33 36
351 840 198 118 89 68
293 620 334 110 27 44
270 103 235 126 20 34
278 218 294 120 95 65
271 103 239 128 47 44
266 874 347 131 101 82
265 107 230 135 35 45
266 108 234 141 81 67
266 107 239 141 93 72
326 388 329 128 100 66
269 106 236 141 75 68
391 789 144 106 82 58
296 509 197 42 37 38
259 111 240 131 88 62
260 113 245 128 86 63
356 830 187 114 86 64
262 109 244 135 87 66
262 113 248 137 90 66
266 104 248 150 96 76
378 734 165 89 71 56
416 738 154 98 77 58
253 809 326 157 118 92
265 106 243 141 92 70
329 813 182 67 56 51
293 488 357 140 15 48
392 758 209 130 91 57
268 105 241 143 93 73
266 533 199 77 29 37
266 105 245 144 93 72
266 108 249 148 94 75
332 595 318 100 35 51
276 13 264 101 88 77
379 552 240 84 34 36
407 778 164 80 66 53
260 148 269 104 78 55
289 548 394 169 124 108
265 113 250 143 92 71
268 110 252 146 94 76
371 758 163 59 46 42
269 112 255 140 88 73
316 21 257 90 80 70
249 798 332 147 115 83
258 114 242 124 85 61
257 118 242 128 90 61
394 774 210 128 88 56
260 118 245 127 89 62
260 123 245 126 91 63
262 123 249 129 89 65
329 536 361 124 16 43
273 471 347 121 21 53
277 395 256 101 84 65
260 128 249 126 88 63
265 123 259 131 89 68
263 124 253 131 87 65
294 167 295 103 84 64
252 943 309 69 64 64
266 863 279 157 119 90
265 118 250 137 90 68
421 543 319 74 24 34
224 692 286 68 23 30
265 123 254 136 91 68
307 890 234 74 66 66
330 25 256 81 72 64
264 127 256 129 87 66
496 563 323 63 35 39
261 458 319 69 34 33
274 102 244 115 39 29
302 69 245 82 33 31
276 643 329 180 10 56
263 358 282 78 66 53
273 104 254 134 86 70
321 618 309 106 28 44
291 224 333 107 89 72
276 98 254 106 40 42
213 570 342 81 26 41
223 606 251 79 32 36
370 728 274 69 31 36
297 914 235 93 84 83
366 839 339 50 39 32
216 533 344 101 29 42
302 89 225 101 27 32
247 908 339 171 129 111
297 198 276 135 95 59
179 534 237 188 9 51
325 500 329 64 33 30
312 78 224 108 94 78
309 628 317 105 36 48
321 748 303 76 60 50
461 523 354 164 27 57
208 566 337 138 13 45
212 618 324 89 30 40
315 77 223 120 86 58
193 597 279 194 0 51
321 77 219 143 39 26
368 718 243 45 30 34
307 84 225 81 40 22
322 128 254 139 57 58
275 487 197 104 18 28
307 89 220 91 32 29
311 83 219 90 52 30
348 637 242 63 26 33
323 218 310 119 94 65
310 82 223 88 60 37
312 88 215 115 28 29
273 238 301 126 97 68
436 521 353 121 25 46
312 405 212 128 20 28
311 93 214 126 33 33
361 448 203 121 12 39
308 94 216 111 33 29
306 93 219 113 27 35
309 91 217 105 33 35
361 537 205 84 39 44
275 428 331 101 73 58
316 88 212 137 27 34
314 82 218 113 64 33
494 554 324 76 11 28
252 547 206 102 19 34
316 93 212 135 28 35
321 93 212 134 24 35
445 578 270 135 93 59
189 704 325 165 114 90
271 293 364 108 88 66
300 565 390 191 128 111
301 78 239 84 40 32
302 74 240 80 41 30
460 564 320 167 21 58
271 404 204 135 38 36
440 514 374 176 27 62
300 67 248 85 26 29
382 562 331 147 16 46
275 228 309 109 88 65
341 653 209 89 62 53
290 824 232 179 130 102
300 73 244 65 41 32
362 723 182 127 94 58
458 832 271 100 81 64
297 73 249 89 34 37
297 68 254 94 47 46
361 468 254 85 49 33
361 458 193 165 18 39
298 78 244 87 39 36
306 889 372 58 53 51
299 77 243 65 48 32
276 49 281 117 87 67
401 540 248 177 13 49
297 78 249 96 33 35
439 512 251 72 30 28
302 84 230 90 38 30
258 68 272 104 37 41
301 88 229 100 30 33
300 88 234 81 42 35
180 558 304 116 30 45
291 16 307 141 73 75
295 880 222 79 67 63
318 156 296 109 88 64
280 342 298 88 73 57
299 88 239 73 40 30
343 633 281 161 17 49
300 93 229 110 19 37
461 818 249 91 72 58
284 445 344 79 42 36
364 867 338 58 49 46
261 623 235 103 25 40
276 18 259 106 91 76
299 93 234 98 32 36
208 768 285 159 108 78
298 94 235 107 23 41
296 88 254 91 65 52
202 562 236 124 30 45
388 640 220 184 125 96
298 88 245 110 24 39
406 483 244 94 1 29
274 686 336 34 28 31
299 88 243 105 24 38
299 93 243 104 44 45
261 188 264 104 83 59
247 913 289 55 51 52
368 724 281 106 32 41
311 298 324 112 83 59
298 93 245 104 42 42
296 93 249 111 31 40
187 583 284 127 25 44
317 494 197 150 2 31
365 832 199 105 79 65
316 238 334 121 96 67
307 69 240 83 38 25
340 18 288 114 52 51
359 587 302 176 16 56
431 588 321 125 24 44
311 67 238 79 40 24
309 71 237 78 36 26
269 836 326 119 27 51
251 553 357 53 28 31
301 778 204 76 61 52
307 79 230 75 51 33
377 723 188 103 80 52
312 74 230 106 91 76
315 67 233 105 90 74
379 749 237 148 104 73
314 71 232 105 91 76
278 728 216 101 30 40
322 67 232 102 53 37
313 75 226 116 100 85
305 82 229 82 36 30
376 513 389 81 22 29
306 488 324 80 43 38
307 382 278 112 94 76
304 81 232 84 44 31
166 523 294 94 29 41
251 873 299 178 130 106
424 752 173 75 54 42
303 102 225 127 8 39
308 98 216 132 20 40
311 98 213 128 31 33
305 308 363 130 97 65
308 102 216 142 16 42
306 98 219 131 13 41
406 617 244 193 124 100
193 733 333 178 120 97
323 460 321 134 95 76
307 53 277 98 33 37
220 633 361 158 114 87
306 103 219 133 13 40
304 104 223 129 10 41
305 113 224 136 14 41
311 883 370 53 48 46
311 111 216 157 26 51
246 703 329 44 28 31
320 107 216 161 23 47
213 812 305 203 136 106
315 111 216 155 24 48
324 128 259 133 89 69
247 932 299 70 66 66
281 358 365 164 115 97
455 579 307 139 9 44
344 440 214 108 21 38
318 110 217 159 28 50
322 109 218 166 23 48
397 503 228 100 11 27
398 775 196 60 46 34
321 112 220 172 23 50
359 868 348 56 49 44
359 596 245 64 30 31
222 604 354 126 98 70
343 29 281 112 75 68
390 517 385 146 23 53
395 841 342 83 62 45
308 116 221 153 25 50
335 623 231 130 17 33
245 683 238 120 16 38
349 628 241 82 18 35
361 539 399 179 20 55
311 117 220 166 27 54
311 119 223 171 28 56
313 278 346 128 97 62
315 117 220 169 31 55
260 178 269 98 78 55
296 483 194 129 7 28
230 571 348 93 10 28
286 848 250 172 122 98
322 114 223 179 21 55
301 98 229 120 12 39
279 481 311 85 45 41
299 98 239 97 52 48
315 408 342 142 100 76
315 463 211 75 65 65
404 447 206 120 6 38
303 108 229 130 10 42
195 584 263 99 23 41
265 482 313 91 21 37
411 757 145 92 68 50
302 488 384 129 17 44
303 112 226 132 12 41
264 329 366 138 102 79
456 589 289 180 124 109
300 108 239 111 23 38
371 809 174 81 61 50
264 309 295 79 63 44
301 108 234 126 12 40
301 113 239 105 28 34
331 48 242 118 96 71
296 98 249 112 32 42
367 462 234 103 7 33
296 103 249 99 44 43
341 563 223 140 7 32
275 733 218 139 6 35
406 513 394 108 21 39
293 103 255 109 25 38
294 102 253 111 29 38
221 638 361 162 114 90
213 631 298 118 26 44
266 23 298 131 22 50
286 393 254 108 91 72
296 108 249 112 32 41
294 108 252 110 40 42
312 492 385 98 20 36
295 113 249 110 48 46
302 379 356 151 103 80
306 659 216 102 19 25
322 76 227 86 60 37
318 144 262 137 105 68
299 98 242 91 49 41
330 103 259 114 24 43
323 411 267 98 83 68
299 104 243 111 35 45
299 108 244 83 47 36
326 418 264 99 83 67
318 257 335 123 96 63
298 109 246 101 44 38
412 586 306 94 1 31
301 123 239 121 22 38
441 539 244 203 10 48
238 826 280 81 65 61
261 397 254 70 59 47
231 518 206 53 35 37
301 128 239 128 25 41
295 549 405 176 123 114
293 112 251 105 51 45
286 663 220 51 35 38
265 118 264 114 79 60
300 369 281 106 91 76
297 118 249 100 54 44
215 788 279 165 113 79
256 658 328 47 26 32
413 736 181 62 49 37
321 553 418 183 129 120
378 470 212 148 12 30
296 119 254 112 38 43
489 515 251 141 33 54
349 714 187 151 110 77
298 117 245 103 41 37
296 908 369 62 58 57
299 122 243 112 35 43
298 123 245 107 39 42
275 753 218 76 53 49
298 123 249 108 35 42
239 698 242 104 23 38
299 129 243 124 23 42
298 127 248 111 24 40
431 493 234 62 32 33
287 53 274 105 38 43
228 564 352 123 20 44
286 824 309 82 66 48
298 121 255 99 40 37
431 467 214 199 17 42
367 618 229 98 50 45
261 43 279 123 100 80
181 533 234 180 7 44
300 129 250 103 60 55
204 724 297 118 84 58
302 128 254 111 74 59
311 122 225 163 30 56
311 124 228 141 75 71
282 837 245 185 129 104
270 408 196 50 39 42
305 128 233 132 39 48
309 515 386 51 20 26
314 126 231 172 30 60
231 593 354 112 87 63
224 657 328 103 67 54
318 120 227 179 21 57
457 828 270 100 79 60
320 121 230 174 21 52
471 829 239 92 74 61
312 129 233 143 66 68
321 123 234 171 22 54
413 499 237 107 19 35
317 125 233 175 22 56
296 606 336 139 16 43
270 83 272 105 38 43
234 591 349 85 63 45
264 754 227 73 58 52
326 24 254 89 79 70
213 627 309 41 33 35
282 898 239 88 77 77
326 28 249 100 86 72
281 448 353 66 31 30
386 528 210 79 34 39
209 653 356 163 117 90
271 923 364 69 63 62
324 30 246 109 92 76
242 584 354 102 77 56
266 11 279 88 53 50
324 25 251 99 86 74
224 758 342 170 123 91
327 26 253 90 80 70
197 758 305 163 113 82
281 563 208 85 29 38
279 352 293 88 74 58
331 28 254 91 81 70
316 944 279 85 79 79
428 829 247 91 72 60
331 33 249 117 98 78
361 748 174 58 49 43
341 29 255 103 90 78
284 895 238 81 72 70
301 903 370 62 58 58
323 198 294 119 94 66
261 378 334 119 84 66
342 32 253 112 96 80
424 456 216 116 15 37
252 923 274 76 69 68
406 572 279 76 22 33
346 33 254 124 80 67
334 453 313 138 100 76
326 48 240 110 82 62
259 346 317 69 56 41
276 508 339 65 23 29
271 783 320 83 64 54
331 42 277 122 89 68
490 848 267 92 76 59
326 38 244 108 88 70
271 98 264 115 79 64
322 40 241 124 82 68
324 40 241 115 84 60
302 940 346 54 52 51
327 42 242 109 91 73
402 517 222 98 23 30
373 713 264 167 17 50
336 48 274 113 54 54
366 527 374 88 21 37
331 38 245 123 102 79
446 524 284 77 17 31
391 455 207 115 1 33
406 758 145 91 67 51
186 523 330 81 30 37
332 36 247 125 104 81
254 783 327 151 110 79
346 888 349 61 53 50
336 38 245 124 102 77
297 508 364 109 20 39
466 583 305 110 5 34
328 46 242 113 93 76
321 55 236 117 72 55
326 53 239 107 80 62
326 63 234 101 83 66
332 63 237 113 96 79
322 183 279 134 104 68
336 58 240 130 108 85
257 338 268 92 76 60
267 813 241 79 63 56
336 63 239 129 108 84
335 53 241 132 109 83
301 178 269 137 96 61
337 53 242 136 112 85
201 648 350 152 107 81
322 228 294 137 105 67
340 39 246 130 107 79
336 831 255 38 34 31
341 43 245 134 109 81
385 857 309 56 46 40
336 605 333 142 21 43
461 591 308 111 26 41
397 496 260 80 6 30
341 48 244 136 110 81
343 41 247 129 107 82
255 604 232 97 26 37
230 614 252 175 5 41
301 268 358 111 87 60
306 816 221 86 68 60
346 43 249 131 61 53
344 44 246 135 111 79
461 533 254 90 12 27
345 48 249 128 38 41
391 582 310 115 19 41
274 656 227 44 34 39
347 43 254 142 26 49
301 22 294 145 102 82
296 513 379 64 22 31
341 53 244 131 94 67
206 618 299 147 31 53
427 488 247 112 103 96
343 54 254 94 67 56
442 462 221 99 6 26
413 609 237 184 125 96
338 58 242 135 113 89
291 898 234 88 78 78
340 63 244 123 37 39
192 653 343 150 102 78
342 58 249 125 28 41
380 495 267 76 34 27
262 298 349 117 95 72
371 483 209 59 31 39
266 398 254 76 63 49
509 588 279 150 107 86
361 488 262 75 47 30
343 58 254 124 33 44
359 742 282 76 63 57
391 826 214 93 83 81
256 568 214 172 0 37
390 600 220 103 83 59
311 273 305 102 77 51
229 640 321 134 72 74
341 63 254 124 30 43
253 909 275 65 57 56
330 927 333 48 42 39
327 443 324 138 100 78
319 268 337 127 98 64
323 68 210 151 38 34
314 271 306 108 83 56
314 335 330 123 97 67
323 70 212 161 29 24
323 74 213 157 33 26
367 733 279 51 30 33
319 179 307 115 94 70
343 453 289 130 100 69
465 823 229 105 82 63
325 70 212 155 33 26
231 538 344 86 24 35
216 613 354 133 102 73
325 79 225 98 79 59
188 586 304 189 0 55
329 73 214 143 44 31
296 219 333 105 88 71
325 88 215 128 37 33
314 288 344 128 98 64
326 83 219 96 67 42
327 82 223 105 88 69
301 460 201 48 37 35
326 93 215 127 33 33
258 328 264 96 79 61
386 425 206 79 34 31
268 391 342 139 100 83
328 93 217 116 36 32
214 629 309 41 32 36
330 93 219 114 37 35
360 791 162 67 54 46
282 10 271 105 76 56
402 820 208 87 73 64
286 404 245 108 78 56
385 641 223 174 115 88
324 70 231 99 81 60
411 514 404 132 19 42
326 73 230 101 88 74
416 823 219 97 80 66
383 703 214 152 103 69
454 525 331 97 18 38
291 484 310 89 54 45
296 183 275 129 91 54
319 417 337 139 98 75
331 68 235 107 93 78
331 73 233 108 93 78
324 163 284 118 94 65
266 488 200 118 11 27
333 67 237 113 97 79
386 521 352 42 23 26
189 589 299 195 0 56
335 73 235 108 91 72
329 75 231 105 92 79
370 474 252 92 35 32
332 77 232 110 95 80
335 78 234 110 73 52
421 567 273 68 29 34
265 328 303 76 63 51
261 303 349 119 96 71
278 215 304 108 88 66
333 86 227 88 44 21
335 88 229 107 37 37
363 495 267 71 49 30
343 658 195 142 105 75
361 509 319 90 34 31
334 89 226 95 29 23
286 48 279 104 52 50
264 323 291 69 58 46
336 93 229 133 39 47
349 901 323 60 53 51
286 26 298 150 113 87
337 83 249 134 38 51
396 751 195 40 32 26
333 85 255 132 87 77
334 86 253 130 81 75
264 328 290 69 59 49
432 554 278 38 31 33
412 813 222 66 55 43
305 278 358 121 95 64
336 88 244 121 43 52
334 93 248 133 20 46
354 690 302 137 8 44
238 663 250 55 36 38
333 93 250 128 27 49
464 590 285 183 126 109
268 274 334 116 94 69
339 68 241 101 29 25
387 820 198 89 69 56
339 73 241 121 30 38
227 673 299 57 27 32
340 68 244 105 38 40
313 501 317 63 30 29
316 523 197 42 36 41
341 68 249 76 39 34
340 73 244 132 31 43
408 759 190 70 53 39
284 217 321 108 90 71
259 858 287 144 111 82
340 73 249 136 27 49
340 68 254 135 29 50
339 77 244 132 29 44
339 77 248 123 46 51
352 559 227 132 8 32
400 772 163 121 86 59
195 703 340 167 116 91
338 74 255 128 28 46
280 237 330 112 93 74
315 833 214 56 52 53
337 78 254 131 69 69
337 83 239 94 37 38
288 390 260 108 91 71
337 88 234 125 35 46
262 363 284 81 66 52
276 343 299 84 69 54
266 828 249 187 129 105
301 212 330 106 89 71
345 502 283 62 50 35
337 88 239 122 41 49
336 93 234 129 41 49
387 520 388 191 18 54
501 581 266 144 103 76
301 398 350 153 107 84
337 83 244 133 23 45
325 102 215 145 27 43
324 106 216 157 20 40
301 497 303 70 30 31
326 108 219 167 23 50
327 109 224 169 21 53
330 98 219 131 34 42
330 102 220 150 36 53
456 513 259 61 29 35
329 106 221 157 24 50
330 107 225 165 22 54
299 67 271 97 73 57
334 98 225 145 40 52
270 322 313 84 69 53
335 98 229 148 34 54
336 633 228 135 18 29
333 104 228 161 34 59
311 543 349 66 20 32
509 575 279 118 92 67
262 138 259 118 83 60
506 583 299 79 17 29
336 98 234 139 32 52
509 579 270 152 112 91
334 102 234 151 28 55
322 438 330 137 98 75
262 600 366 185 121 99
332 108 239 132 42 52
307 754 310 81 63 55
299 333 367 137 98 70
218 782 271 57 45 43
297 73 264 87 24 35
333 99 245 122 70 66
334 96 247 124 20 43
251 618 239 69 30 40
347 673 224 77 66 70
269 11 290 100 64 55
469 494 248 60 35 36
333 103 244 120 79 70
261 572 215 189 6 44
311 58 278 110 73 57
306 58 278 102 21 40
331 103 254 118 35 46
331 108 244 138 28 51
332 837 265 40 36 33
331 108 249 122 59 61
209 577 340 54 26 31
324 10 292 126 33 51
330 112 244 118 75 68
330 113 249 130 54 57
285 222 325 108 90 71
331 108 254 123 47 53
330 113 254 145 29 52
356 594 328 142 20 40
220 628 361 152 111 83
286 9 289 112 51 47
266 632 333 65 28 33
328 114 234 171 25 60
347 511 371 73 29 26
326 118 239 155 32 58
414 774 156 86 70 60
396 494 258 80 7 29
322 124 239 165 24 55
257 253 279 100 79 56
268 560 368 110 88 68
344 722 307 33 29 31
312 382 283 112 94 74
328 114 239 145 46 61
220 579 238 180 7 46
194 724 336 173 117 94
327 118 249 147 44 58
391 596 330 110 23 46
281 379 280 97 81 64
327 118 254 133 91 75
323 124 249 113 58 51
323 125 252 147 32 50
328 115 249 153 27 55
267 499 196 128 5 30
276 378 355 163 116 99
261 538 335 104 0 33
322 103 275 103 29 39
351 748 184 128 98 66
258 133 248 124 89 62
257 138 248 121 89 62
358 789 256 69 54 47
257 143 248 118 89 61
350 653 220 109 79 67
259 138 251 118 85 60
260 143 254 111 82 57
261 138 254 117 84 59
317 142 291 110 89 66
323 193 294 119 94 66
257 153 249 114 89 60
259 147 251 112 84 56
290 872 234 60 56 58
259 148 254 108 82 55
258 154 253 108 83 56
317 128 285 111 90 66
257 163 249 114 89 61
220 656 357 182 125 99
289 632 327 175 18 58
318 233 330 121 96 68
324 149 283 117 95 69
301 473 374 106 23 39
373 778 156 71 56 48
421 528 225 122 22 38
258 163 252 109 85 58
326 442 208 45 31 33
261 399 250 69 58 46
274 570 376 185 130 111
260 168 254 107 84 57
258 173 249 118 93 65
345 922 304 66 60 57
421 594 314 60 27 32
266 401 247 80 66 49
380 673 214 151 101 71
289 743 207 131 12 37
327 549 379 154 18 47
259 173 251 114 91 64
341 37 278 134 39 55
258 178 248 119 94 65
411 768 154 84 66 51
260 183 249 119 94 66
261 178 254 110 86 60
356 447 198 90 33 34
306 363 289 104 89 73
366 818 238 37 30 28
261 183 254 110 87 60
269 272 330 116 93 67
276 573 345 113 26 43
301 483 315 86 52 44
258 190 247 125 99 71
210 589 252 185 10 46
324 481 196 151 9 34
281 408 199 94 27 33
301 583 342 146 22 51
297 733 335 127 21 46
472 563 266 130 91 64
260 188 254 113 89 63
415 598 265 182 124 111
265 944 324 68 62 63
306 132 235 124 62 58
344 643 283 154 18 47
311 132 235 133 76 73
306 136 240 167 91 97
382 744 156 57 45 42
181 553 314 153 9 47
311 136 240 167 85 87
272 248 305 121 92 66
343 447 264 106 82 54
