ply
format ascii 1.0
comment Created by Open3D
element vertex 2235
property double x
property double y
property double z
property uchar red
property uchar green
property uchar blue
end_header
428 561 299 97 29 41
419 561 308 164 14 54
422 560 307 175 11 53
439 547 290 80 34 41
435 553 290 132 29 48
435 553 295 145 24 50
434 548 305 137 19 49
433 551 304 36 27 30
363 818 315 163 113 86
437 545 300 175 18 54
399 541 324 43 27 30
345 833 425 192 129 101
399 537 334 56 25 27
389 541 339 36 25 26
390 543 345 138 15 49
386 540 350 39 28 29
285 849 289 130 101 72
387 540 346 44 28 32
390 537 350 43 27 29
396 535 341 41 27 27
397 535 337 42 29 29
400 533 340 52 25 28
400 528 350 69 19 28
398 531 349 61 25 28
400 543 340 189 10 59
395 543 350 194 9 58
401 540 345 202 6 63
335 843 420 197 137 108
416 524 335 72 17 28
411 519 350 44 26 25
416 514 351 49 28 29
415 518 345 61 24 29
411 524 340 66 22 26
411 529 345 87 20 35
413 521 344 64 20 28
417 520 341 66 12 26
415 527 350 66 27 34
402 535 332 56 27 30
405 534 330 62 23 29
405 532 335 64 18 28
404 536 329 55 24 29
410 534 325 68 19 27
416 530 326 73 17 26
412 535 322 45 21 24
409 532 329 68 20 28
415 542 325 180 18 59
409 541 334 196 16 62
413 541 329 199 14 62
412 540 332 196 16 62
401 529 346 54 23 26
407 535 346 202 11 63
406 534 350 203 13 62
404 537 350 202 11 61
303 858 397 188 141 120
411 534 341 123 24 47
363 892 251 63 59 60
413 531 343 57 25 34
416 529 341 49 26 31
416 534 336 68 27 32
361 785 345 98 80 61
409 532 350 202 16 60
412 530 350 173 26 58
409 537 339 172 16 56
399 527 360 78 17 29
399 528 365 65 23 29
391 534 360 40 26 30
324 873 274 145 108 88
391 534 364 46 27 29
386 539 355 46 28 29
386 539 360 57 26 30
390 538 365 60 25 31
390 543 365 97 28 40
398 532 367 45 26 29
399 542 364 183 19 61
400 533 369 52 26 29
397 534 368 43 26 27
397 536 368 48 27 28
400 536 368 73 26 34
350 918 240 71 64 65
405 523 355 57 25 28
264 809 231 67 54 50
404 522 360 60 22 26
301 853 390 159 123 101
402 525 356 59 20 25
401 524 360 76 17 29
402 525 364 81 22 32
408 521 353 50 27 29
415 527 355 148 22 48
406 524 369 58 24 28
380 878 270 56 49 44
414 517 371 68 21 29
416 519 374 53 27 28
411 527 373 87 22 35
415 527 373 151 22 54
407 535 367 184 17 60
402 540 355 189 10 51
375 803 175 66 54 48
283 906 198 65 58 59
404 537 355 192 11 54
405 537 365 184 14 58
412 530 355 185 20 55
410 533 360 188 11 52
415 529 360 189 15 50
410 534 365 187 10 57
347 785 392 103 84 64
405 533 370 89 25 37
410 533 369 179 19 59
388 551 324 39 29 28
450 898 317 63 48 36
389 547 329 40 26 29
391 559 331 141 30 53
303 871 210 48 46 49
396 545 321 40 28 32
395 553 335 41 29 31
399 552 334 33 26 33
398 556 324 53 31 34
429 522 370 124 24 47
394 556 333 47 24 33
400 553 330 46 29 33
398 556 328 35 27 29
318 856 192 43 39 44
485 868 301 98 81 65
463 895 252 89 67 54
386 550 345 196 15 62
515 463 299 85 9 29
390 549 340 178 19 58
389 552 338 91 24 37
270 934 214 89 78 79
390 548 350 157 15 51
393 546 343 185 9 54
392 550 337 129 37 58
380 788 375 141 101 70
393 546 351 187 10 54
387 565 326 140 36 56
390 563 325 110 33 47
388 566 324 87 33 40
386 560 332 125 20 42
344 817 439 198 137 113
403 551 324 104 38 48
474 882 299 79 61 47
405 548 330 74 29 37
345 778 160 76 57 42
403 551 328 76 34 33
407 545 331 86 19 33
409 547 325 41 28 30
391 549 355 121 17 42
388 551 352 62 21 34
290 873 304 159 118 93
267 930 313 54 40 43
394 546 363 78 29 37
423 526 324 79 15 24
369 847 190 65 56 55
425 524 325 77 12 28
420 522 335 70 19 27
420 524 330 73 16 26
417 525 332 73 17 27
280 911 338 126 91 73
419 526 329 75 15 25
423 521 333 69 18 29
431 515 336 58 23 27
430 522 325 77 17 30
426 520 332 71 14 32
429 521 329 77 16 28
331 816 278 150 108 91
431 524 336 112 36 47
518 480 338 104 16 38
422 515 342 64 19 29
425 515 340 62 18 29
420 522 339 60 24 29
420 528 340 58 28 31
445 877 239 109 89 74
419 526 344 46 27 30
424 527 339 62 27 31
426 524 341 96 24 38
424 521 349 156 25 57
427 515 337 67 18 29
430 518 345 181 15 57
425 529 335 79 30 37
430 522 340 152 16 51
425 533 325 100 29 43
420 533 335 64 28 33
420 538 325 192 17 62
369 792 312 113 87 60
423 536 324 97 15 41
419 537 330 153 20 53
428 531 324 70 31 37
431 529 325 62 29 35
418 531 338 58 26 32
422 530 337 64 28 31
436 519 335 158 16 52
440 518 335 208 9 64
436 525 325 159 19 51
436 524 330 111 26 43
441 520 330 212 10 66
442 520 326 211 11 63
447 515 332 205 14 73
435 519 340 194 13 59
435 517 344 160 20 56
443 516 338 207 13 60
420 523 355 118 25 44
418 526 355 170 23 54
421 524 360 193 16 49
419 526 361 191 15 50
423 521 355 101 17 38
380 833 285 104 69 53
424 522 360 195 17 51
420 527 365 189 13 53
411 793 245 51 42 38
422 525 364 192 14 53
423 526 366 191 14 54
403 769 265 138 97 68
432 515 355 197 17 60
429 516 355 214 18 62
295 964 240 88 86 88
428 521 366 93 19 39
413 581 282 163 14 43
422 518 378 61 28 30
425 518 379 102 28 43
420 523 375 80 28 39
420 527 370 174 15 55
425 523 375 131 25 48
275 824 189 151 101 78
423 526 370 193 15 59
299 878 386 206 151 129
429 521 374 161 26 55
436 514 370 109 25 40
437 515 374 105 34 44
343 796 378 160 119 97
442 874 245 106 88 72
435 516 379 141 34 53
440 514 380 140 27 50
438 516 376 143 18 46
438 516 378 170 31 59
398 607 260 71 33 40
453 899 292 74 57 54
400 603 265 115 31 45
400 603 270 126 28 47
309 910 303 45 41 42
398 607 275 123 29 46
398 606 280 161 20 48
266 792 249 68 55 51
398 606 285 157 17 45
407 589 260 195 14 54
405 593 265 62 25 35
404 593 270 56 29 34
411 578 260 185 10 55
409 583 260 185 11 54
413 576 258 191 13 57
272 919 207 66 59 58
409 578 270 188 12 54
408 587 260 191 13 52
408 586 263 184 11 50
315 862 404 207 153 130
402 593 275 152 21 50
315 847 384 115 81 61
404 592 281 167 13 45
395 863 230 63 55 55
486 867 303 109 88 65
325 926 321 40 31 32
405 593 285 156 16 43
320 858 379 126 81 65
407 590 284 163 14 44
409 578 275 190 13 51
360 818 330 173 117 92
410 583 280 165 13 44
415 578 285 153 16 43
402 600 260 66 27 36
403 597 265 37 31 36
401 598 270 78 33 40
403 596 286 116 24 41
390 583 308 62 26 34
389 587 308 30 26 29
399 582 308 90 33 44
331 919 223 73 66 68
288 810 257 183 125 106
392 585 307 27 28 30
382 804 377 173 114 86
284 921 328 71 50 41
355 808 335 149 103 83
395 593 306 46 26 32
386 609 301 95 26 40
390 603 304 181 13 59
391 609 295 161 24 56
388 606 303 159 11 51
396 599 301 159 19 54
393 607 294 190 15 61
396 604 291 172 13 51
399 602 290 179 13 54
398 601 294 174 11 51
393 601 303 172 43 72
397 600 296 190 10 59
390 598 306 142 18 49
405 583 305 46 28 33
404 592 294 173 11 49
406 588 295 135 22 45
404 588 300 123 22 43
418 895 253 75 64 54
410 578 305 130 27 50
411 579 301 133 21 47
375 873 230 69 62 59
409 582 300 77 30 37
408 581 304 53 26 32
414 577 300 175 19 54
308 846 388 116 91 67
412 580 296 92 25 36
409 587 290 136 30 50
408 586 294 68 27 31
403 596 289 174 16 53
390 623 270 54 30 36
396 613 265 89 32 41
426 912 256 149 129 115
397 610 270 118 25 44
393 617 260 128 28 45
392 620 270 37 30 36
392 619 275 54 28 36
389 623 280 159 19 51
391 618 285 170 13 54
389 623 285 181 11 54
394 613 280 168 16 49
395 613 275 123 22 43
393 616 280 98 22 39
387 629 265 88 29 40
385 633 265 113 30 44
387 629 270 95 29 40
388 627 270 151 35 51
388 626 280 89 31 43
389 613 295 86 30 40
388 612 298 82 21 34
387 619 292 96 30 44
389 618 290 107 22 41
388 616 293 46 28 32
338 809 389 167 113 91
352 821 380 170 115 92
393 612 289 170 14 54
274 819 230 61 51 50
450 528 282 59 30 33
455 523 282 59 30 36
454 527 282 58 28 33
460 518 282 132 12 33
460 522 282 90 20 31
461 524 284 102 22 37
463 521 282 124 13 32
464 522 285 165 16 45
453 531 282 44 28 31
454 533 285 83 29 38
400 898 249 77 66 62
449 537 285 108 30 43
453 536 287 144 22 51
455 528 300 176 14 53
454 527 305 162 18 52
459 527 295 177 18 54
464 522 295 180 18 55
382 886 137 95 83 72
460 528 290 160 20 49
462 525 292 193 17 52
456 525 305 58 26 32
464 521 300 155 26 53
465 518 305 196 16 59
407 815 223 79 65 60
463 521 304 156 24 51
456 514 316 199 6 63
449 521 314 185 7 57
460 518 310 183 6 55
461 514 312 179 2 54
352 915 323 41 36 34
459 522 308 159 15 54
452 534 296 163 16 50
450 533 300 141 19 48
410 794 205 77 60 50
449 532 304 167 16 52
453 531 299 180 10 52
450 538 290 136 31 49
315 808 190 54 45 44
453 536 294 181 16 54
466 519 295 161 18 49
466 519 300 164 21 52
290 929 209 88 80 80
505 897 325 96 81 68
471 515 300 164 20 52
471 514 305 191 13 58
468 516 305 195 14 58
473 516 290 152 31 62
449 516 324 206 11 59
300 927 206 93 84 84
448 516 328 214 12 61
384 693 265 39 32 34
384 693 270 64 32 37
385 698 260 52 32 35
350 818 365 194 133 110
386 698 265 47 30 34
386 703 265 108 24 40
385 698 270 142 25 47
384 698 280 94 27 40
388 709 260 124 26 44
388 709 265 134 17 42
291 884 220 64 58 56
390 713 270 142 9 44
390 718 260 123 22 43
311 965 239 87 83 85
391 718 265 130 19 43
391 718 270 128 18 42
408 777 207 52 42 37
388 709 274 139 5 44
389 713 275 138 9 43
386 708 285 145 9 45
412 793 255 59 47 39
392 723 260 92 28 36
392 727 258 78 34 34
393 724 261 96 26 33
290 888 215 55 50 51
393 724 265 112 26 39
395 728 265 119 23 42
395 733 270 132 23 44
390 723 280 143 22 47
389 723 285 146 23 47
450 858 260 84 68 54
392 726 272 135 19 48
391 838 270 44 31 29
394 733 275 135 23 45
411 735 258 85 43 34
282 821 238 166 112 95
413 735 258 80 46 35
411 902 261 86 73 62
387 718 290 137 27 47
388 719 288 142 25 48
326 812 438 189 139 119
389 728 290 151 17 48
388 725 293 131 27 53
386 733 296 91 25 36
390 733 290 120 23 44
388 733 294 105 23 41
397 738 260 67 37 37
396 738 265 67 34 33
397 742 262 66 36 34
396 738 270 115 53 52
396 743 270 133 95 71
399 748 260 76 55 44
398 748 265 119 85 62
399 753 265 127 91 64
308 862 214 57 53 54
397 747 271 143 104 74
398 753 270 144 103 73
391 738 285 161 121 95
394 738 275 148 88 74
395 743 275 155 114 82
394 748 280 160 117 85
397 751 272 147 106 74
397 752 276 153 111 80
393 748 284 164 121 88
392 751 287 166 125 92
400 918 295 61 47 43
312 903 345 161 112 92
398 754 274 151 108 78
399 768 285 159 116 84
404 744 257 66 54 46
406 738 259 68 56 49
341 789 390 142 111 86
409 736 257 72 55 46
410 738 259 65 50 41
298 845 218 145 104 74
409 742 258 66 52 40
402 758 260 95 68 48
403 758 258 70 48 36
338 782 173 54 45 38
401 768 275 152 107 76
386 738 295 111 74 65
387 743 292 165 124 95
388 736 293 65 33 37
270 788 177 115 87 50
389 743 289 167 128 96
391 753 290 167 126 93
327 791 293 73 58 54
390 768 296 160 121 88
388 769 298 156 116 82
393 754 288 165 124 89
394 768 294 158 122 88
416 763 258 72 56 45
424 764 258 63 51 41
425 768 260 66 52 42
390 822 201 79 66 61
429 768 261 73 56 45
346 873 126 100 79 69
351 875 116 107 97 89
351 877 116 104 94 85
351 877 120 101 89 77
346 872 122 100 85 75
346 876 127 96 79 71
355 808 160 71 56 49
354 879 115 98 94 91
354 878 120 100 91 83
354 878 124 98 92 87
355 882 110 99 95 93
355 881 115 102 97 93
370 878 126 96 85 76
265 774 182 101 81 57
260 778 180 95 78 58
260 782 178 99 80 57
260 784 177 104 82 56
374 812 182 53 47 46
264 784 177 108 84 54
269 771 183 108 85 56
270 778 180 109 85 52
260 788 175 111 86 56
260 793 174 115 86 49
265 793 175 117 87 49
260 798 174 125 91 51
265 798 173 124 90 50
270 793 176 121 88 48
269 784 177 111 85 53
275 773 180 116 89 56
363 903 251 62 56 57
275 778 179 117 88 52
275 783 178 116 88 51
282 784 177 49 44 45
286 783 178 51 47 47
275 788 177 119 89 50
275 786 178 117 88 50
279 786 178 114 87 54
280 793 177 112 84 54
277 793 178 126 91 52
280 798 177 121 88 53
385 858 216 72 63 60
410 798 250 61 48 42
435 908 240 101 83 68
286 788 178 49 45 46
285 793 178 48 45 46
260 803 175 139 96 58
265 803 174 135 94 56
296 883 195 48 45 45
260 809 178 165 109 75
260 813 179 182 121 91
337 904 218 59 53 56
265 809 178 163 109 75
265 813 180 182 122 92
270 806 177 145 97 62
350 892 286 39 35 34
270 809 179 160 107 73
260 818 181 194 128 103
260 821 182 198 129 106
305 778 289 79 62 56
333 936 232 76 68 68
260 823 185 197 125 99
264 821 182 194 125 101
280 863 301 151 118 87
458 860 268 90 76 63
260 827 190 184 111 77
265 826 190 185 112 77
270 823 185 188 122 95
385 843 272 36 31 28
271 825 189 184 120 92
270 826 191 180 112 81
280 802 177 128 91 55
277 805 178 139 97 59
274 811 182 174 118 87
280 812 182 136 99 77
285 803 180 56 50 49
266 943 315 71 51 51
285 808 181 68 57 52
275 818 184 182 121 92
274 822 186 179 118 91
285 818 186 61 53 54
355 803 335 141 101 82
330 917 312 32 29 29
284 821 187 64 56 55
290 773 180 56 49 47
290 778 179 57 50 47
288 780 177 58 50 47
288 782 177 58 50 48
437 916 261 110 91 86
300 778 181 61 53 48
304 777 182 59 50 47
304 783 182 61 52 47
305 848 385 117 91 68
290 788 178 58 51 48
492 873 305 87 67 55
290 793 179 56 50 47
295 788 179 57 49 46
295 793 179 57 50 47
295 798 180 58 50 48
300 788 181 62 52 47
304 798 182 57 50 46
359 931 295 94 78 66
306 783 183 61 51 46
314 773 187 53 44 40
313 778 187 52 45 40
319 778 192 49 41 41
320 783 192 43 37 39
307 793 183 57 49 46
306 798 183 56 49 45
310 798 184 56 49 46
313 789 187 45 38 42
315 788 190 45 38 41
282 946 222 90 84 86
314 794 187 46 40 42
470 872 274 86 70 54
320 788 192 44 39 39
320 793 190 47 40 42
335 922 320 34 31 30
318 795 187 47 41 40
306 970 244 85 81 84
320 798 188 48 42 42
295 803 181 59 51 49
295 812 187 74 60 54
305 943 220 93 87 90
301 804 183 60 51 49
283 878 233 91 73 53
300 808 185 65 54 50
303 801 182 59 50 47
305 807 185 68 56 51
301 810 188 71 57 52
385 845 273 41 33 30
410 803 210 79 65 59
305 810 189 70 57 52
360 918 270 64 61 62
289 817 187 76 61 57
291 819 188 74 59 56
295 823 191 75 60 56
300 822 192 67 55 51
274 888 230 88 62 33
310 803 185 59 50 47
309 807 186 63 53 48
310 813 191 61 49 47
314 802 187 52 44 43
316 804 188 52 44 44
320 803 189 48 42 42
335 898 210 61 55 57
320 808 190 50 43 44
314 812 192 54 46 45
258 775 252 76 61 57
258 784 246 68 54 51
261 778 254 78 62 56
257 781 248 70 57 53
260 783 250 76 61 55
264 779 256 74 59 54
262 782 253 74 59 54
265 783 255 72 57 52
341 863 179 74 64 62
260 793 240 65 54 49
259 799 236 60 52 47
260 788 245 71 58 53
258 790 242 66 55 51
263 790 247 74 59 53
264 793 246 70 56 51
265 788 250 69 55 51
263 795 242 79 64 57
266 797 244 68 55 51
270 793 251 71 57 51
268 790 252 68 56 51
271 797 249 71 57 52
273 789 256 71 56 50
349 787 389 110 89 68
355 822 390 160 104 83
275 793 255 70 55 50
274 798 251 74 58 53
276 797 254 67 52 48
260 813 225 58 49 48
270 873 305 123 96 72
260 828 195 177 110 78
265 828 200 129 81 59
305 877 389 204 149 126
260 828 205 146 103 83
270 827 195 163 102 71
270 828 200 103 68 60
270 829 205 60 53 55
260 823 215 135 99 78
326 838 267 158 120 96
260 818 220 92 70 57
266 817 224 53 43 42
265 819 221 41 34 35
265 822 219 40 34 34
265 824 215 61 49 47
259 825 212 158 122 101
265 827 210 103 75 68
420 898 253 79 67 55
265 826 213 93 74 67
270 822 220 52 42 39
272 821 223 59 48 45
270 828 210 48 43 45
271 826 214 49 42 40
275 828 195 75 52 49
275 829 200 56 50 52
276 831 206 58 55 59
290 947 329 190 131 117
285 826 192 74 60 56
460 898 261 88 73 58
275 824 220 60 50 47
275 829 210 54 45 45
275 827 215 60 49 46
280 832 210 58 55 60
278 830 212 61 48 49
279 829 215 58 47 46
281 832 214 65 56 54
264 945 229 75 69 71
306 830 268 156 116 94
348 808 353 175 125 105
273 825 217 55 43 41
277 826 219 61 51 48
279 825 226 50 40 43
281 827 224 86 67 61
324 814 276 146 100 84
284 834 216 145 109 87
283 830 221 147 120 100
437 880 248 101 82 69
353 927 323 68 58 53
284 829 225 164 125 101
286 833 225 167 123 97
259 804 231 48 42 42
260 808 229 50 43 43
335 838 391 132 83 63
262 801 238 69 56 50
262 806 234 66 55 51
259 810 227 47 40 41
280 969 255 80 76 78
262 811 228 56 48 48
267 806 238 66 55 50
270 808 240 69 56 53
270 814 230 60 49 47
390 919 280 74 62 55
271 813 235 68 56 53
272 807 243 69 56 53
387 851 233 52 41 41
275 813 240 55 46 46
274 804 246 73 58 53
275 808 245 60 49 48
276 803 250 67 53 50
277 807 249 45 39 42
280 803 255 62 49 49
273 810 242 68 54 53
281 812 249 170 120 100
350 778 308 64 53 48
281 822 235 152 110 91
285 823 240 167 119 96
282 826 228 161 125 103
286 828 235 162 116 92
383 880 134 99 85 71
287 828 240 163 117 91
287 833 235 156 113 89
287 833 240 156 114 88
281 817 244 172 117 97
283 820 241 169 116 97
286 823 245 169 121 96
282 816 248 177 120 100
286 817 249 180 126 104
287 833 245 156 114 88
287 834 254 153 114 89
290 832 200 58 50 51
296 825 193 69 55 53
304 821 192 64 53 52
305 823 194 55 47 50
300 830 198 96 72 59
300 832 201 155 108 81
321 813 190 53 46 46
309 817 192 58 48 47
310 819 193 47 42 46
310 827 197 123 84 63
315 823 195 84 60 51
319 818 193 60 50 47
315 826 197 79 57 50
305 883 295 150 108 84
315 828 199 77 58 51
319 828 195 62 50 49
295 909 194 81 70 70
318 828 198 70 54 49
318 832 199 65 51 49
289 814 256 181 125 104
288 815 252 181 126 104
288 828 250 161 118 91
289 828 255 159 119 92
311 901 297 94 69 59
288 831 252 159 119 91
288 832 256 157 118 93
316 837 186 56 48 46
321 843 180 62 52 48
318 848 185 49 46 46
319 848 190 48 44 45
316 858 175 57 49 48
318 857 174 65 54 53
317 860 172 66 55 53
317 850 183 53 49 49
403 775 278 155 108 79
317 855 177 55 48 49
318 852 186 45 42 43
316 858 185 41 39 40
360 918 324 63 54 48
314 863 180 44 41 40
314 863 185 42 38 40
311 864 190 46 43 44
320 873 152 114 90 77
320 874 155 116 94 82
293 877 376 172 132 111
317 875 156 118 98 89
301 878 185 51 48 47
302 879 181 64 58 56
300 878 190 46 43 44
305 873 185 46 43 44
302 875 187 46 43 44
294 893 185 90 78 77
329 952 275 65 59 58
292 894 187 94 84 83
304 883 179 80 67 64
347 806 352 162 117 97
300 888 181 82 68 65
357 803 431 171 119 92
297 890 182 90 76 73
301 894 184 82 69 68
305 895 188 72 62 60
309 872 175 58 52 53
306 878 175 81 68 63
307 877 172 90 73 64
308 880 173 86 70 67
316 870 166 62 53 52
320 868 165 61 54 52
315 868 170 56 49 50
312 870 172 54 48 50
316 874 161 102 82 70
316 877 161 112 92 85
417 918 312 75 61 52
312 876 167 95 75 64
308 871 179 52 47 48
307 869 190 46 43 43
309 867 190 48 43 44
312 865 177 49 44 42
368 803 409 161 110 81
306 882 176 80 68 64
321 883 160 91 76 68
318 883 164 90 77 70
317 886 166 95 80 74
355 798 340 136 101 82
315 883 170 94 83 79
276 887 233 88 66 42
313 884 173 97 84 81
317 886 170 88 74 71
320 888 175 76 68 64
308 885 178 78 64 60
310 889 180 78 65 60
320 883 180 79 71 66
320 888 190 64 57 57
371 780 336 93 74 53
315 889 185 69 62 61
285 888 310 156 107 88
313 891 187 67 60 58
315 893 190 66 58 58
284 835 209 92 82 77
287 841 218 169 119 85
257 855 256 132 108 82
261 855 251 107 82 54
265 854 251 110 82 46
265 859 247 109 80 44
265 863 245 116 86 50
344 941 280 78 70 70
257 860 252 121 95 68
258 856 253 117 93 68
259 862 249 121 91 59
265 857 248 110 80 42
300 803 270 164 112 94
270 851 253 110 82 50
270 858 246 107 77 41
269 856 248 110 78 41
385 818 350 190 121 92
287 838 230 154 113 86
287 838 235 152 111 86
286 838 240 150 111 85
287 844 226 153 111 82
286 843 230 151 111 82
287 848 227 149 108 80
285 848 230 141 103 75
283 848 235 133 100 74
283 847 240 125 96 70
383 788 181 65 53 48
284 843 240 137 103 78
401 898 266 66 56 46
285 838 250 139 103 78
283 846 245 112 86 63
280 848 255 89 73 56
286 853 230 131 98 68
284 853 234 125 95 66
282 850 237 123 94 68
282 853 237 120 93 64
281 853 240 111 87 61
282 858 237 122 94 62
299 850 278 133 100 72
280 863 240 113 85 54
276 855 247 105 78 42
280 853 245 98 77 53
279 852 249 93 74 54
277 850 252 100 80 57
287 895 201 49 46 46
287 894 205 48 44 45
272 895 222 137 89 64
386 834 214 60 49 48
350 928 324 65 55 51
355 822 360 189 133 110
274 895 222 123 80 49
286 889 220 70 62 57
285 888 225 86 74 62
286 894 210 48 46 48
306 838 405 170 129 109
321 804 420 141 113 86
282 895 221 83 70 59
365 828 305 166 115 90
362 831 274 37 28 29
284 893 220 75 65 59
311 842 201 58 48 46
354 792 350 127 100 78
265 873 241 132 98 65
265 878 240 132 98 66
270 878 238 111 86 61
257 869 247 132 99 68
260 868 245 129 96 63
260 873 244 134 98 66
264 866 243 125 94 60
262 873 242 133 98 66
258 866 248 128 96 62
259 878 244 135 98 66
362 895 253 59 56 58
270 868 241 121 90 58
390 906 281 60 52 47
261 888 241 118 88 57
264 893 235 97 75 52
400 893 250 73 63 58
262 895 236 87 68 47
265 883 240 126 95 64
266 888 235 105 84 62
270 883 235 101 78 53
267 893 232 104 84 61
268 893 229 118 90 66
259 883 243 130 95 63
362 803 422 164 114 85
320 833 425 191 139 116
258 892 243 111 83 56
279 868 239 109 82 51
279 873 238 100 76 48
275 878 239 88 70 48
286 868 232 109 84 58
281 868 236 112 86 57
284 873 234 101 80 55
275 865 242 107 75 41
275 868 241 112 81 51
406 804 218 71 57 50
275 883 235 84 66 44
280 888 231 90 71 49
290 834 205 75 63 61
295 836 206 165 111 81
305 837 206 115 79 63
289 835 208 135 108 91
290 837 210 178 125 93
290 839 215 178 124 93
350 888 281 40 35 35
289 838 225 160 117 88
295 842 215 165 116 85
289 841 217 177 125 93
290 843 220 164 117 85
294 844 219 163 118 86
300 841 211 145 98 73
305 843 210 101 73 59
304 844 214 109 78 59
300 848 219 127 93 65
294 853 224 124 91 63
295 858 224 115 86 61
303 850 218 114 87 63
301 857 222 115 88 64
300 858 223 115 87 63
363 820 328 178 122 96
305 858 220 101 79 62
303 864 223 102 81 62
350 913 240 71 65 66
307 841 207 89 66 57
315 843 200 51 45 44
306 891 353 117 83 68
386 843 219 67 57 54
318 844 194 47 43 45
295 949 326 164 114 106
319 848 200 45 41 45
316 846 202 49 44 44
318 849 204 46 42 44
309 844 209 73 57 53
310 848 210 60 50 48
310 863 205 50 46 49
317 855 196 46 41 44
319 853 205 47 44 47
329 861 404 201 137 111
315 858 200 45 42 43
313 861 194 45 42 43
318 856 193 44 39 46
315 858 205 45 42 46
308 854 214 61 53 50
307 858 216 75 62 54
285 859 299 151 120 89
311 858 210 50 47 51
309 858 214 57 52 52
309 863 210 53 51 53
288 854 228 130 96 66
350 803 345 149 108 90
293 864 228 107 83 58
299 878 200 45 42 43
401 862 232 65 56 54
304 872 195 45 41 43
302 874 200 46 44 44
304 872 200 46 43 44
293 877 223 78 68 58
301 873 210 45 43 44
331 884 199 60 54 53
300 873 215 54 52 53
299 867 224 100 80 62
304 867 220 71 62 56
332 950 275 68 60 57
298 876 215 52 50 52
295 883 200 45 42 44
293 886 200 47 44 44
293 886 205 43 41 43
291 893 195 53 48 49
375 832 325 174 122 97
288 892 205 46 43 44
298 881 194 46 43 43
365 872 210 64 56 54
292 884 216 56 52 52
294 883 210 50 48 49
292 885 211 50 49 51
288 887 220 63 57 56
288 892 210 48 45 46
364 843 257 26 24 24
288 891 213 55 50 50
306 869 200 48 44 45
308 866 200 49 45 45
365 824 365 168 109 85
306 868 205 49 45 47
355 848 183 70 58 56
307 865 211 54 51 54
317 895 193 64 57 56
284 903 355 199 155 136
320 893 194 61 54 54
291 874 226 93 76 59
285 878 309 158 115 92
288 882 228 87 72 58
345 773 159 67 50 40
350 773 158 72 55 44
348 775 157 73 55 40
350 778 157 79 60 42
350 778 158 77 58 43
347 860 190 56 49 50
353 826 423 192 130 101
351 782 157 87 66 48
345 793 160 81 62 51
350 793 157 98 71 54
285 954 228 95 89 94
350 798 156 87 66 51
336 773 175 48 42 40
332 773 185 45 41 42
330 872 149 112 87 76
333 772 183 47 42 42
332 775 182 45 41 43
330 783 185 47 43 45
349 788 375 117 93 71
359 802 329 138 99 79
334 778 180 45 42 42
344 878 206 56 51 52
310 928 211 86 79 80
336 778 175 50 44 39
332 784 181 48 43 44
329 778 190 45 41 42
351 934 305 90 77 71
328 783 190 49 44 46
331 793 175 54 48 46
334 788 175 53 47 43
332 793 172 58 50 44
330 798 175 52 46 46
327 783 192 45 40 42
326 788 191 44 41 42
327 798 182 51 45 45
324 798 188 47 42 42
329 788 185 49 45 46
328 792 184 50 46 46
328 791 188 50 46 46
340 773 165 62 50 42
341 773 161 73 56 45
339 773 170 53 44 38
370 908 295 36 33 32
338 773 173 50 42 39
341 778 165 64 51 43
341 783 166 63 52 44
339 778 170 54 45 40
338 778 173 52 44 40
322 854 172 67 53 51
341 788 165 59 51 48
340 793 165 52 43 42
338 788 169 48 42 41
338 793 168 51 46 44
342 794 162 59 47 43
341 798 161 68 56 49
338 796 168 49 43 41
350 803 160 81 64 54
336 803 166 60 49 43
331 803 171 61 52 45
330 803 175 55 49 46
331 808 171 66 54 48
329 808 175 58 50 49
334 813 169 62 50 43
325 803 185 48 43 43
326 804 181 48 44 46
435 918 275 91 76 68
270 944 224 81 75 76
326 808 180 51 46 48
324 808 185 51 47 47
350 808 440 185 128 104
323 803 188 46 41 41
323 813 185 53 48 49
325 813 180 55 49 48
323 811 188 56 50 49
322 814 187 53 49 49
327 817 176 55 47 44
440 893 255 92 78 65
335 818 169 58 47 43
330 828 175 66 54 48
334 828 173 64 53 48
331 914 219 70 64 66
336 833 171 62 52 48
322 823 187 58 49 50
325 833 179 64 51 47
304 918 323 85 56 50
326 828 180 55 46 45
328 823 179 57 47 44
305 973 255 66 62 61
385 868 268 44 38 36
328 827 179 56 46 44
340 803 164 58 49 45
340 808 166 55 46 43
444 916 246 104 85 74
345 804 164 70 56 48
352 814 161 77 60 50
340 818 167 62 51 44
340 823 167 64 52 46
346 818 166 76 57 47
338 820 168 59 49 43
339 824 168 62 50 45
342 828 167 64 52 45
345 828 165 78 60 49
341 834 167 66 53 49
315 938 326 50 42 41
347 824 162 83 64 52
350 823 162 87 65 49
345 817 168 71 54 46
367 826 335 182 126 98
355 783 156 76 59 50
355 780 157 77 60 53
358 784 156 73 57 47
355 798 156 88 67 57
335 882 150 91 77 72
380 835 320 169 117 92
361 787 160 74 56 43
363 789 161 83 59 47
430 908 270 136 129 125
363 798 157 83 63 46
366 798 159 96 71 45
358 770 162 77 57 49
361 773 163 86 64 48
362 778 163 82 63 47
366 792 165 100 74 52
304 809 267 155 105 87
366 786 168 90 64 51
372 771 173 59 52 52
374 773 175 58 50 48
391 778 199 67 51 44
373 774 171 58 49 46
370 778 166 82 64 49
347 910 314 33 31 32
370 783 170 70 56 47
374 778 171 61 51 46
332 800 402 163 118 90
376 778 175 55 48 47
381 773 183 82 63 52
384 773 186 84 66 58
379 783 180 66 54 49
377 781 183 69 58 52
380 783 184 78 61 50
383 778 187 68 52 46
384 784 186 87 66 56
370 788 165 85 66 50
370 793 164 94 72 52
409 827 245 76 59 48
374 789 165 70 59 50
374 793 165 71 57 45
365 784 395 114 90 63
372 786 173 62 52 47
322 792 193 46 40 42
369 798 161 101 79 57
376 793 170 67 58 52
375 798 170 68 56 48
377 799 173 72 58 51
379 798 175 67 57 52
385 788 185 72 57 50
381 793 180 65 53 49
383 798 182 76 60 54
355 803 159 77 62 53
356 800 158 102 81 73
375 844 200 65 56 54
359 803 158 93 75 65
353 866 158 104 88 78
361 803 157 84 63 48
363 807 157 104 77 46
334 787 415 127 102 78
363 811 161 100 76 53
365 813 170 72 53 43
362 815 175 68 56 51
367 810 168 83 58 44
367 810 176 54 45 43
366 813 179 55 46 44
367 810 178 54 43 44
354 822 162 105 78 54
360 818 170 82 62 49
360 818 175 69 55 50
354 827 166 91 67 53
352 830 168 75 55 48
357 825 174 66 54 48
358 828 176 65 53 49
361 819 179 61 51 48
340 862 165 89 68 59
356 833 178 68 55 53
413 788 255 55 43 35
360 833 180 67 56 53
364 816 177 57 46 45
365 823 185 59 50 49
367 822 188 64 53 52
363 833 182 61 50 48
352 816 351 190 130 106
366 833 184 67 54 52
369 803 161 96 75 56
370 803 165 79 62 49
368 806 162 93 75 59
369 807 165 87 69 52
371 804 170 69 55 45
372 800 168 69 55 45
374 802 171 69 56 46
373 811 175 56 44 45
349 826 397 133 80 61
378 802 176 63 52 49
370 813 181 55 47 46
377 805 178 60 54 51
379 807 181 57 50 47
345 838 260 128 94 73
385 808 185 66 55 49
400 868 240 80 69 67
324 843 268 158 120 93
377 810 183 60 53 53
360 783 310 124 95 77
380 813 190 72 59 55
385 813 190 81 66 56
369 817 182 57 47 46
391 887 272 58 49 42
369 824 189 70 57 52
335 788 435 116 95 75
375 833 190 69 58 55
379 822 192 79 66 61
325 773 194 42 36 37
322 778 193 49 42 42
325 778 193 47 41 42
325 783 193 44 39 40
324 787 193 42 37 39
323 791 193 44 40 41
381 818 194 89 73 63
490 863 315 76 61 49
380 833 199 75 61 56
377 833 201 75 61 57
380 833 205 76 61 59
381 830 204 76 63 59
350 857 151 101 78 63
346 860 161 102 78 66
346 864 155 109 82 65
345 863 160 113 84 74
350 859 160 109 93 84
330 848 171 56 49 49
397 789 217 53 44 40
335 843 170 59 49 48
333 841 173 65 55 52
335 848 170 60 53 51
322 834 181 63 51 49
323 837 178 71 56 51
326 835 177 68 54 47
322 842 177 69 55 48
323 846 178 70 55 47
325 853 171 58 48 47
318 873 371 144 96 76
323 851 173 68 54 50
325 859 166 57 50 50
321 863 166 55 48 49
325 857 169 54 46 47
335 859 166 82 62 52
335 857 169 73 56 48
345 843 169 103 77 60
352 834 174 70 54 49
375 779 355 93 76 56
355 863 269 37 32 31
346 849 175 74 59 54
350 843 175 72 57 52
350 848 180 72 58 57
340 853 170 101 75 59
340 863 161 99 76 63
342 860 162 90 66 63
385 900 311 46 39 36
345 860 164 86 65 53
345 863 166 78 66 59
411 803 280 135 97 62
341 863 170 86 72 61
345 858 180 78 63 63
347 850 178 76 61 59
346 854 179 81 63 60
345 863 185 64 54 55
349 857 182 70 58 60
350 858 185 58 48 52
347 860 186 59 49 51
335 873 144 142 123 113
331 874 145 109 84 69
331 878 141 92 74 63
394 798 191 57 49 46
330 878 146 106 83 68
336 873 141 136 116 106
325 869 152 109 88 73
321 870 152 113 89 74
326 868 155 92 73 58
326 873 155 119 93 76
444 863 245 97 76 57
325 873 158 117 92 75
325 878 150 107 87 77
326 876 159 114 91 74
329 869 156 102 81 62
330 867 159 91 72 59
329 872 156 112 91 73
328 878 150 110 91 82
335 879 151 92 73 64
332 882 139 82 67 55
333 882 141 77 61 49
325 882 150 101 83 73
440 903 314 80 63 50
322 882 156 97 80 73
325 883 154 97 81 73
325 888 160 87 74 67
329 882 146 92 70 59
330 886 160 94 86 83
343 870 135 98 78 61
344 872 134 96 76 60
340 868 139 96 74 55
337 869 141 127 111 103
340 872 140 97 75 61
341 873 135 95 74 60
341 875 130 94 73 59
344 872 130 98 76 66
340 879 141 112 94 82
340 874 144 126 108 98
340 877 145 103 81 71
346 870 130 102 80 74
340 890 284 39 34 33
399 772 211 55 44 41
348 870 129 103 83 78
348 871 128 103 83 79
348 872 144 100 86 80
341 870 151 106 86 77
342 873 151 101 84 73
337 870 155 129 109 95
341 868 155 150 132 128
343 873 152 101 83 76
345 872 154 99 82 72
343 877 150 92 74 67
349 867 159 128 107 98
349 869 155 117 96 89
323 866 163 60 54 52
321 869 161 79 65 57
326 865 162 64 53 49
327 875 170 80 67 64
326 878 170 85 72 63
330 865 162 80 61 50
299 858 385 153 118 97
334 871 161 110 90 76
335 871 165 88 69 60
336 869 166 84 70 59
333 871 171 83 67 55
330 879 165 94 81 71
292 834 264 126 97 73
326 880 184 63 56 56
328 876 176 65 55 59
329 877 181 62 51 55
334 876 186 66 57 60
331 879 190 66 58 58
336 875 190 65 57 56
334 877 190 66 57 56
324 882 174 83 74 68
324 887 170 88 80 76
326 884 171 89 81 75
323 886 173 88 81 76
331 883 165 87 77 69
329 886 164 94 85 78
333 882 163 79 69 64
329 882 169 82 73 67
479 911 266 96 75 70
322 880 177 69 54 56
373 807 399 184 122 96
321 884 184 66 58 57
323 881 182 65 55 54
323 886 191 64 56 56
340 868 161 111 90 74
340 868 165 88 71 58
339 866 169 88 72 61
348 866 164 94 77 62
338 871 176 72 62 63
387 781 331 117 92 63
320 919 313 33 29 31
343 867 184 67 58 59
342 865 187 69 58 61
355 855 150 94 74 57
355 855 154 90 74 60
361 863 146 89 72 56
359 862 149 86 70 56
355 862 156 100 81 65
359 858 155 101 82 67
358 859 158 109 87 61
358 861 158 115 93 71
435 918 310 80 72 67
365 853 150 96 76 60
366 853 153 89 75 63
361 860 147 95 74 56
353 837 177 74 58 55
442 905 240 96 81 70
354 849 182 71 59 58
362 840 183 64 55 54
365 843 186 64 53 51
364 848 186 65 55 54
354 853 182 69 58 58
357 855 190 60 53 55
354 856 186 56 47 50
365 893 255 63 58 58
354 856 190 59 53 55
363 851 187 61 52 52
364 852 190 62 55 55
369 838 186 68 56 52
368 841 187 68 54 51
370 843 190 66 55 54
373 842 192 65 54 55
379 837 192 73 62 57
365 872 144 102 83 64
367 875 129 99 80 66
358 866 156 86 86 86
370 873 140 100 81 65
371 874 135 99 83 69
371 877 130 98 84 73
375 879 130 99 85 72
372 876 133 100 83 71
374 874 141 96 84 74
375 876 144 102 89 76
378 880 135 97 84 73
381 879 131 97 86 76
379 878 143 98 86 75
380 879 141 99 87 76
384 880 139 103 89 76
377 881 129 98 85 74
380 882 135 97 85 75
384 882 135 102 87 72
272 786 258 72 57 51
376 882 138 92 83 76
349 862 200 63 58 59
350 863 205 62 57 56
351 864 209 60 55 54
346 844 256 125 88 67
331 879 195 65 57 57
326 884 194 66 59 58
322 895 198 57 50 51
332 880 198 61 54 55
334 888 201 59 53 54
328 891 197 57 53 53
333 892 202 61 55 54
343 867 196 59 53 55
315 938 220 80 73 76
340 873 195 60 53 55
345 868 200 58 53 53
343 872 200 60 55 56
265 942 221 80 73 74
339 877 201 58 52 53
336 915 314 32 30 29
345 873 205 58 54 54
342 875 203 57 52 53
346 868 205 63 58 59
348 868 207 62 58 58
348 871 207 56 51 52
347 879 214 56 51 50
361 803 320 136 95 73
350 878 216 62 56 55
339 882 206 59 54 55
338 887 206 59 53 54
343 881 207 60 53 56
385 838 195 77 64 59
341 884 209 58 53 53
344 882 211 58 53 52
345 883 215 58 54 54
337 893 208 61 55 56
339 893 211 59 53 53
346 888 219 61 57 57
403 800 314 143 106 66
348 881 217 60 54 52
348 832 402 157 99 75
351 884 224 64 57 55
347 894 224 68 60 61
350 893 226 70 61 60
351 895 228 70 60 60
357 855 193 58 51 54
355 857 195 62 57 58
355 858 200 64 58 59
358 856 196 64 58 58
264 949 234 70 66 68
355 859 205 61 56 56
360 858 205 57 50 49
361 863 207 53 47 47
365 852 195 62 54 55
406 892 261 65 57 49
367 850 194 62 54 53
367 854 203 64 55 56
359 864 208 55 50 50
370 848 195 64 56 55
370 848 200 64 54 53
376 840 194 69 59 55
380 838 200 75 63 58
385 838 200 74 62 59
376 834 204 75 62 58
377 836 205 77 65 62
380 842 201 74 62 58
380 844 205 69 59 57
385 842 201 75 66 64
382 834 209 72 58 55
385 833 210 64 54 52
385 838 216 62 52 50
380 842 209 71 58 54
380 843 215 72 60 56
380 848 215 73 62 57
384 842 209 71 58 54
369 853 205 64 56 54
370 863 206 64 57 56
329 922 317 32 29 29
371 853 209 65 56 55
372 857 208 65 56 57
376 863 209 68 57 54
376 851 213 65 56 54
384 853 216 69 60 57
389 871 230 71 62 62
378 858 212 76 62 58
381 863 213 77 64 58
355 843 254 43 33 29
355 848 256 31 26 25
359 847 256 29 26 26
364 872 207 61 54 52
355 868 211 54 49 48
288 897 194 60 54 55
356 871 212 49 43 42
354 870 213 58 52 50
359 868 209 49 44 44
355 874 219 57 50 49
355 878 219 61 54 52
365 874 220 64 55 52
364 876 221 64 55 52
365 877 225 61 52 49
355 883 224 62 54 52
377 901 247 86 68 58
360 883 225 66 57 55
370 865 208 63 57 56
370 867 210 63 56 53
370 868 215 62 55 53
489 913 256 83 70 63
375 867 210 62 53 50
371 869 220 61 55 53
369 872 221 59 52 50
320 797 288 43 37 40
370 874 225 59 53 52
375 868 220 59 52 50
379 867 211 69 59 54
380 868 215 72 61 54
385 869 215 71 61 58
455 854 264 86 74 64
380 869 225 67 57 51
385 872 220 74 63 60
386 869 224 73 64 60
355 888 226 66 57 55
356 894 235 66 59 59
289 916 333 85 59 46
359 892 236 61 57 57
361 889 235 62 57 57
357 895 239 62 56 58
363 882 231 59 53 51
390 907 285 60 53 46
366 884 240 65 59 58
361 889 240 63 58 59
365 888 245 63 57 57
367 885 244 62 57 55
381 798 380 157 107 77
365 889 250 63 57 57
358 818 290 69 53 48
371 875 228 65 59 58
368 876 227 56 50 50
448 851 256 100 81 66
296 883 302 156 112 90
373 876 231 68 61 59
380 872 231 73 60 57
279 850 293 153 119 86
381 870 229 70 59 55
383 870 228 70 56 53
405 828 305 172 114 84
381 878 238 74 64 58
383 879 238 70 62 58
370 882 236 64 57 57
375 884 240 62 55 52
378 881 237 65 57 53
370 885 243 60 53 52
370 886 246 59 53 50
374 885 244 56 50 49
376 887 245 62 54 51
370 887 250 58 52 51
370 889 255 63 56 53
374 889 255 67 59 55
404 905 274 74 64 58
377 887 242 65 56 53
378 890 244 67 58 52
379 893 244 71 59 53
385 893 240 85 69 59
315 778 295 73 59 53
287 903 192 81 72 70
296 897 182 85 71 69
290 898 190 78 69 69
290 908 191 81 70 68
295 906 191 82 70 71
298 896 182 83 71 67
328 802 409 103 80 55
305 898 189 75 64 62
310 900 187 81 69 69
305 906 192 83 73 71
309 906 192 73 66 66
313 898 191 69 61 60
313 902 191 74 66 66
261 908 225 69 59 56
329 867 390 201 140 110
262 913 221 65 58 57
259 913 225 68 62 62
264 907 224 82 67 55
262 910 222 67 57 52
267 904 221 113 86 64
271 905 217 111 75 59
263 917 218 66 60 61
265 918 215 66 60 61
416 883 251 75 63 53
258 928 224 68 55 55
261 923 221 67 59 61
263 923 218 66 57 59
265 923 215 67 59 59
265 928 215 76 67 66
365 823 375 180 119 95
263 928 218 71 61 62
270 918 210 64 58 57
287 890 356 141 112 90
267 923 212 70 62 61
267 928 212 81 71 69
270 928 210 88 77 74
280 908 200 67 60 60
280 913 200 75 66 63
284 898 205 49 44 45
446 880 236 107 87 76
285 913 195 79 68 66
282 912 197 79 69 66
275 898 221 102 67 47
279 903 220 79 67 61
275 908 210 56 49 49
318 947 227 75 69 71
276 905 215 65 53 51
278 906 208 61 53 52
340 778 306 65 54 51
282 900 211 57 51 49
390 868 265 57 49 44
277 914 202 70 62 61
278 919 203 84 72 70
420 917 314 82 65 54
272 926 207 85 72 68
275 926 207 96 82 79
280 927 206 91 80 78
284 914 198 78 69 67
287 917 197 86 75 70
281 922 202 96 83 81
285 927 206 89 81 81
275 929 209 93 82 79
261 904 231 76 64 57
264 902 229 83 69 56
264 897 234 90 73 55
266 899 230 97 80 63
263 901 233 86 71 60
258 913 228 71 65 66
258 906 234 70 63 63
267 900 226 85 69 57
258 922 228 71 64 67
385 835 290 116 76 59
263 934 218 84 75 72
262 937 221 83 74 73
271 932 211 93 82 81
266 937 216 85 76 76
270 938 216 84 76 77
275 937 216 82 74 76
310 863 280 148 105 81
285 930 209 90 83 83
285 932 211 91 83 83
285 935 213 91 82 83
284 940 218 87 80 83
285 943 220 90 83 86
287 941 217 90 82 84
275 945 224 85 78 80
280 948 225 87 81 85
260 943 230 76 69 70
258 945 234 74 68 69
271 952 231 74 70 73
265 957 240 77 73 76
319 863 273 153 112 90
267 956 237 77 73 75
270 958 236 74 71 74
269 959 239 77 74 75
264 959 245 81 77 79
260 959 255 87 81 80
275 948 226 84 78 80
280 954 229 90 86 90
275 957 231 82 79 82
280 957 231 90 86 91
274 959 234 81 79 81
291 910 193 79 68 66
300 913 196 88 78 76
305 912 196 83 74 73
289 917 197 90 79 77
291 919 199 90 79 78
392 866 261 61 52 46
290 924 204 86 78 78
290 927 206 87 79 79
305 914 199 83 74 73
305 918 201 88 78 78
300 920 197 88 80 80
300 924 204 95 87 87
304 922 201 89 80 81
349 916 322 39 35 34
304 928 202 92 82 84
305 927 205 87 79 80
310 907 195 74 67 66
363 816 414 199 129 101
309 912 201 77 69 68
315 898 195 66 59 60
319 896 196 61 55 56
444 903 245 97 78 67
317 899 198 64 58 58
320 903 201 62 55 55
315 908 200 71 64 64
315 913 205 75 67 69
320 908 205 68 60 62
309 922 206 83 75 75
408 817 266 124 86 65
308 928 205 87 80 79
314 917 207 77 70 71
305 929 209 87 80 81
310 924 209 83 75 76
320 918 210 69 62 65
316 929 214 79 71 74
290 935 213 92 84 84
312 914 342 182 122 102
295 930 208 92 83 84
295 935 213 95 86 88
290 941 217 95 87 88
294 941 217 95 87 88
300 929 209 91 83 84
300 932 211 94 86 87
305 931 211 91 83 85
305 933 214 92 85 86
306 939 219 93 87 89
290 946 222 97 89 91
420 777 190 72 59 50
294 946 222 98 91 93
300 945 223 92 87 90
305 945 223 94 89 91
308 931 212 87 81 84
354 782 385 91 75 60
310 933 214 90 83 85
310 939 219 89 83 85
383 780 340 108 86 60
315 933 215 80 72 75
357 821 351 188 131 106
319 932 217 73 66 69
320 933 219 78 70 71
314 936 217 81 73 78
316 944 224 75 68 71
321 939 224 68 61 63
310 944 223 92 85 87
310 948 225 92 85 88
315 948 226 77 70 73
295 952 227 97 91 94
290 958 231 97 93 97
295 954 228 95 89 93
295 958 231 95 91 96
300 954 228 96 90 94
310 952 227 89 83 87
315 953 229 77 72 74
320 948 229 75 69 69
394 854 222 66 60 59
315 957 231 80 75 77
315 959 235 83 77 79
385 898 245 74 61 54
319 957 235 82 75 77
410 922 270 78 68 62
320 958 240 83 77 79
272 961 237 81 78 81
270 962 240 83 79 82
316 782 293 72 57 52
262 961 250 87 82 83
266 961 246 85 81 84
270 963 245 90 86 87
270 964 250 94 88 89
280 964 240 85 83 86
273 965 245 93 89 90
303 905 303 72 60 54
275 966 245 91 87 89
280 966 242 85 82 84
280 967 250 84 78 79
284 966 242 81 79 81
285 968 250 83 78 80
285 972 255 62 58 58
300 963 235 92 88 93
301 966 237 86 82 85
300 969 240 75 71 73
305 960 233 90 85 89
294 965 243 95 91 92
289 969 249 83 78 80
292 971 247 89 86 88
290 973 255 61 57 56
300 971 242 72 69 70
292 817 258 178 127 103
304 971 245 80 76 79
310 963 236 81 77 80
314 962 236 85 80 82
315 962 240 87 83 85
309 971 250 79 74 74
310 971 255 72 65 66
316 964 245 87 82 84
366 786 396 128 99 67
355 907 305 33 30 31
388 789 187 65 52 46
314 966 246 89 83 86
320 962 245 83 77 80
315 967 250 82 76 80
320 964 250 88 83 85
321 964 255 84 81 84
318 966 252 91 87 88
302 914 326 83 54 45
324 897 201 60 54 55
326 899 204 64 57 58
325 903 205 64 58 59
323 907 207 68 61 61
336 819 397 101 67 43
328 896 202 63 57 58
328 901 207 54 48 49
326 904 208 55 50 50
325 908 209 61 56 57
330 903 210 59 52 54
332 904 213 58 52 54
335 903 215 62 56 59
336 900 214 62 55 58
329 907 212 65 59 61
331 908 214 63 57 58
333 911 217 70 64 65
323 917 212 64 57 60
325 918 215 71 65 67
305 969 275 70 64 63
322 920 213 63 55 58
325 928 220 76 68 70
326 923 219 77 69 71
365 818 405 202 131 104
327 920 218 75 68 69
328 917 217 72 65 67
304 793 281 96 80 73
336 913 224 72 65 65
333 916 222 72 67 68
335 918 225 72 65 66
328 926 222 76 67 69
330 928 224 65 58 60
340 898 215 61 55 55
344 897 216 59 53 54
340 903 220 60 54 56
344 897 220 60 54 56
345 898 225 65 58 59
342 900 224 63 57 59
398 816 197 68 57 54
408 880 258 61 51 44
341 902 224 62 57 59
343 906 222 61 55 57
334 923 226 65 58 59
339 912 227 70 63 64
446 900 248 95 75 66
342 910 228 63 57 59
407 818 311 161 110 77
345 908 230 68 61 62
313 896 368 203 138 114
344 912 231 65 58 59
346 903 230 71 64 65
348 896 226 70 61 61
351 899 234 70 62 60
351 904 239 68 61 61
348 908 237 74 67 68
348 913 237 72 65 67
382 900 248 72 59 53
338 916 227 74 67 67
337 919 228 66 58 60
343 916 232 63 56 58
336 929 229 75 67 68
335 798 445 146 106 88
342 923 233 71 62 61
348 916 237 71 64 65
348 922 241 71 63 64
348 928 246 71 64 65
285 903 310 115 87 70
352 925 249 70 64 66
351 928 249 71 64 66
322 929 218 78 70 70
324 932 221 73 65 68
326 934 224 66 59 61
323 941 227 73 67 68
322 944 228 73 66 67
325 943 230 75 67 68
326 940 228 74 68 67
335 933 230 76 68 68
305 908 329 102 72 61
336 934 234 77 69 70
329 937 227 74 66 67
328 942 232 79 70 70
332 939 233 81 72 72
276 931 338 203 148 133
331 944 238 81 72 71
324 947 231 78 70 70
322 955 238 81 74 76
328 946 236 78 70 71
325 958 245 84 78 80
329 952 242 76 69 71
333 947 242 79 71 70
334 952 255 64 59 59
328 956 246 90 83 83
331 954 250 81 73 75
329 957 250 82 75 78
411 888 241 91 78 69
338 931 232 73 66 68
344 932 241 77 67 66
345 933 245 77 68 68
346 934 250 73 65 66
338 942 242 87 79 79
340 943 250 70 63 66
342 939 250 72 64 65
341 943 255 68 62 64
350 818 370 196 134 110
342 940 254 69 63 65
347 935 253 73 66 66
338 947 255 66 61 62
337 949 255 64 58 58
359 898 245 61 56 57
353 906 242 70 64 65
354 908 245 68 62 64
352 910 243 70 64 65
360 908 250 68 63 64
357 910 254 69 64 65
349 785 424 116 95 73
356 913 255 72 68 70
360 909 255 66 61 61
361 898 250 61 56 57
362 896 253 60 55 57
362 903 249 62 57 58
363 906 252 61 57 58
363 907 256 63 59 59
353 914 242 70 64 66
353 916 242 71 64 67
354 918 246 70 63 67
355 918 255 76 71 73
295 818 260 173 127 104
353 922 247 71 64 68
354 928 255 73 66 68
324 798 425 138 111 85
373 898 253 61 54 49
375 908 255 82 64 55
380 898 245 89 72 59
385 897 241 84 69 59
380 902 250 76 59 53
385 900 249 70 58 52
385 902 252 69 57 53
380 908 256 71 58 52
285 863 301 154 120 88
353 931 252 73 66 68
355 931 256 71 64 66
386 773 189 89 73 64
386 778 190 79 60 53
386 783 189 75 57 48
263 901 307 89 79 74
388 777 192 89 70 60
389 784 191 65 53 47
326 853 384 135 86 67
387 786 188 81 64 60
390 788 190 62 52 49
389 793 187 67 54 48
393 789 192 68 59 54
394 793 191 65 55 50
262 941 308 75 53 55
408 887 135 101 88 75
411 784 190 57 47 44
410 785 187 45 42 42
415 786 191 62 50 45
386 803 184 61 51 48
389 807 187 58 48 45
395 808 190 55 50 48
399 808 192 61 53 49
390 817 192 74 62 56
404 812 192 57 49 47
421 774 185 73 60 50
421 775 189 73 61 51
417 779 187 65 54 49
419 783 190 71 57 48
389 773 195 77 62 57
391 782 194 68 55 47
392 772 297 151 115 83
395 771 196 64 51 48
398 772 197 61 49 46
400 773 200 57 47 44
395 783 196 57 47 43
396 781 198 56 48 45
397 770 213 45 36 36
401 778 220 55 43 40
396 793 194 60 52 49
401 788 205 60 48 43
399 798 196 58 49 47
489 878 309 86 68 54
305 874 391 202 147 124
396 793 224 58 47 46
401 783 223 65 51 45
397 793 217 61 48 44
396 797 220 57 47 43
403 772 202 50 42 41
404 783 201 62 50 42
405 783 205 55 44 40
393 846 228 57 48 47
408 773 207 58 49 44
405 773 214 47 38 34
403 773 221 52 43 40
406 773 224 54 44 40
405 778 215 54 43 35
403 776 222 56 46 43
402 779 223 62 48 45
405 783 225 66 51 46
410 809 201 60 51 45
408 774 213 45 36 34
410 778 211 53 43 40
409 782 212 57 45 39
409 783 214 61 48 42
403 786 201 61 51 42
402 798 198 52 46 43
415 792 200 78 63 54
304 789 282 62 48 45
415 798 200 70 59 52
293 881 363 130 106 82
405 793 214 60 48 44
404 798 214 65 53 47
406 798 212 70 57 51
408 790 212 73 59 51
410 793 213 65 53 47
414 798 210 80 68 62
414 800 216 78 65 56
411 800 218 68 55 51
398 798 226 62 52 48
521 468 305 125 16 40
397 798 228 64 54 49
407 778 228 59 48 43
410 778 229 63 49 41
409 783 227 59 48 44
411 783 228 63 50 44
296 802 269 165 114 96
311 903 350 188 129 106
406 772 256 83 59 43
415 783 254 52 42 35
345 883 276 40 36 34
406 792 227 72 58 51
405 793 228 73 58 50
270 898 310 79 64 59
406 788 228 73 57 50
405 798 229 69 54 48
410 787 228 69 55 48
410 790 227 72 56 50
413 793 226 66 52 48
408 795 228 68 54 50
408 798 228 66 53 48
410 793 250 60 48 43
415 793 240 61 49 41
414 792 244 57 46 40
411 789 250 55 44 39
410 798 245 51 41 35
400 803 195 60 51 48
395 813 195 59 51 48
400 813 196 61 52 48
399 813 200 57 47 45
400 813 205 62 53 49
400 803 220 61 49 45
400 807 224 61 49 47
390 818 195 68 58 54
391 824 204 74 62 58
388 830 192 77 64 58
389 833 192 75 62 58
395 818 200 66 57 53
394 821 202 74 63 57
397 819 205 61 53 48
398 817 205 62 54 50
408 804 300 142 102 66
399 824 206 65 53 51
388 831 210 67 55 52
389 832 216 69 56 53
391 829 215 81 67 61
396 823 210 67 56 51
397 820 209 62 51 48
397 824 215 63 54 49
399 824 210 62 51 47
393 826 210 78 65 60
405 803 200 68 56 52
404 807 201 64 55 50
401 813 192 62 54 50
404 812 195 61 52 48
489 878 301 88 66 54
402 810 203 51 48 47
410 803 201 63 53 49
410 804 205 71 58 52
409 807 205 62 50 44
289 893 308 141 96 78
412 811 201 58 52 48
410 813 206 54 46 41
413 814 204 58 51 49
406 802 212 74 59 51
405 808 210 66 54 49
402 814 209 59 51 49
404 813 210 62 53 48
402 815 213 68 57 53
405 813 215 73 59 54
405 808 225 67 53 48
409 806 209 71 56 50
413 801 208 85 71 65
415 803 216 76 63 56
410 806 217 74 60 51
409 808 219 73 58 51
410 808 226 67 53 50
403 826 221 64 53 47
403 826 225 57 47 45
411 817 211 59 49 49
410 821 214 53 47 46
413 819 210 58 50 50
419 933 324 90 72 56
408 820 220 62 51 48
397 801 226 59 48 46
396 833 235 62 52 49
399 832 240 60 51 46
401 806 228 67 53 47
405 806 228 65 52 46
425 893 251 78 64 51
411 803 226 67 54 50
416 803 229 63 50 45
413 807 227 66 52 48
415 808 230 65 52 47
370 863 273 47 42 40
415 803 240 55 44 36
415 808 240 58 46 37
411 803 245 53 43 36
412 808 245 54 45 40
315 818 270 143 101 82
409 808 255 58 47 40
411 813 246 56 46 39
414 809 244 55 46 40
416 813 240 67 52 42
410 813 250 60 49 42
409 813 255 64 51 43
401 825 229 60 49 44
406 825 234 63 51 47
404 826 236 60 49 46
407 825 238 71 57 49
411 819 229 65 52 48
409 822 231 64 52 47
411 823 240 73 58 50
415 818 235 69 56 49
414 818 240 77 59 48
413 821 235 73 59 51
413 821 239 76 59 49
258 846 287 156 122 99
408 826 241 66 53 46
400 833 245 66 55 49
403 831 246 67 55 47
420 905 275 91 82 79
401 833 255 73 56 48
405 828 255 65 49 39
411 823 290 155 103 73
407 824 256 57 43 37
411 823 245 82 62 51
412 820 242 82 62 50
408 826 250 84 63 50
420 779 195 75 61 52
420 783 195 69 53 47
419 782 198 74 60 54
360 892 281 37 34 34
418 794 199 89 76 65
422 775 239 65 51 43
335 832 429 194 137 110
420 778 235 77 60 50
419 783 235 76 60 50
419 783 240 62 49 41
421 774 251 55 41 33
422 778 245 61 48 38
423 776 245 61 49 38
420 778 250 56 42 33
418 786 240 62 49 43
416 793 235 67 53 44
416 798 235 65 51 40
418 800 234 67 52 39
417 785 241 54 42 36
418 786 249 60 45 38
417 808 235 65 51 38
417 813 235 66 52 44
369 829 325 184 128 101
394 880 131 105 87 69
387 886 139 106 91 76
390 887 137 99 89 79
395 883 135 108 91 75
400 887 134 106 88 69
400 886 138 104 85 66
407 889 132 105 87 69
407 891 133 102 88 75
409 884 134 93 87 81
388 834 198 70 56 53
390 838 195 70 59 57
390 842 205 63 52 49
393 842 202 63 51 53
392 834 224 70 58 54
392 843 223 65 55 54
386 852 218 66 57 55
402 781 286 156 111 78
387 856 218 67 59 58
404 879 259 62 52 43
388 858 217 67 61 62
391 863 220 72 64 64
