ply
format ascii 1.0
comment Created by Open3D
element vertex 2235
property double x
property double y
property double z
property uchar red
property uchar green
property uchar blue
end_header
392 876 248 69 58 56
392 591 193 185 14 45
397 585 193 182 14 45
313 897 260 69 51 48
398 582 192 183 14 45
450 811 245 63 50 46
402 586 198 185 16 44
387 596 192 179 16 45
391 595 194 183 13 45
390 599 195 140 20 43
385 604 196 83 37 44
387 606 198 84 29 39
388 602 197 146 22 42
390 604 200 68 31 39
448 747 254 60 47 42
394 594 195 185 15 45
396 595 199 184 15 45
393 597 197 186 15 49
350 944 357 59 54 52
397 596 202 182 15 45
331 875 249 38 33 35
400 599 206 177 15 42
393 602 202 174 13 50
386 515 378 129 74 68
397 606 208 48 34 39
402 601 208 179 17 44
407 581 197 184 16 44
406 585 199 189 17 47
411 580 199 185 17 43
411 585 204 175 18 46
262 795 226 174 117 84
414 578 201 188 18 47
416 580 204 187 18 45
415 584 205 147 18 42
412 591 208 46 31 37
407 596 208 63 32 39
411 595 210 51 33 37
406 605 214 176 21 48
407 602 213 84 24 39
331 973 314 67 62 61
407 606 218 135 19 42
409 598 211 39 34 39
324 972 310 59 55 54
411 600 214 41 33 39
414 593 211 115 23 31
415 594 214 95 38 47
417 591 213 53 33 39
412 601 218 42 34 40
395 585 369 175 125 103
383 523 389 171 118 100
417 596 219 54 34 38
414 603 221 49 28 34
387 611 203 182 18 47
389 608 201 136 31 50
421 580 314 47 27 34
389 613 206 165 26 52
387 616 207 159 19 45
399 608 312 150 10 44
392 611 208 56 38 42
425 786 231 60 50 43
384 618 206 182 15 45
394 608 206 43 36 39
390 618 210 45 36 37
391 620 214 71 36 42
395 614 211 53 35 38
326 595 300 37 28 31
398 611 213 49 33 38
399 614 215 76 33 41
347 780 217 69 54 49
420 580 364 159 114 81
393 617 212 47 33 38
395 619 215 67 35 41
403 917 313 63 56 53
396 620 219 89 35 43
395 624 220 58 35 38
398 617 217 85 21 27
309 950 345 52 45 45
399 619 220 80 37 44
397 625 223 127 31 45
400 624 225 98 26 40
385 629 215 76 28 37
388 627 217 81 41 47
384 634 216 46 30 38
385 640 220 79 29 36
391 635 224 72 34 40
388 636 222 65 32 38
395 629 225 51 30 37
403 611 217 83 33 41
406 610 219 113 27 42
408 611 223 154 28 49
342 868 341 152 121 86
458 734 274 67 51 43
406 615 224 51 33 38
424 728 231 50 38 36
403 617 223 52 35 35
416 812 229 54 43 35
409 608 221 168 29 56
402 625 229 139 21 43
394 634 226 51 34 39
396 635 229 88 28 40
395 640 230 129 13 36
399 634 231 78 34 41
401 635 234 121 21 39
407 616 228 121 39 52
404 618 226 54 34 40
395 575 374 177 125 103
404 624 230 60 29 35
406 625 234 82 35 43
291 785 288 68 56 49
409 613 226 88 42 47
271 805 279 187 145 114
410 614 230 86 33 43
412 616 234 133 25 45
401 750 334 80 53 43
261 580 280 66 45 41
416 615 239 89 29 40
410 620 235 103 29 41
409 623 236 85 40 45
344 831 222 54 49 48
410 625 239 102 34 42
412 620 238 136 28 47
413 617 237 175 24 50
413 626 243 77 34 40
415 624 245 71 32 40
408 626 237 65 30 31
405 630 235 56 32 37
407 630 238 54 32 37
403 640 237 81 28 37
406 635 239 73 32 40
408 636 243 49 35 40
411 630 244 58 35 38
403 755 202 71 54 46
417 625 249 90 34 43
413 631 248 87 33 43
414 628 246 50 31 38
341 595 310 98 26 42
415 630 249 92 29 42
416 630 254 123 27 44
417 655 318 78 61 40
402 571 351 103 61 50
409 640 246 73 33 38
396 920 284 59 52 50
412 640 254 103 26 41
413 636 253 115 30 42
431 710 248 54 39 36
420 579 205 187 19 45
418 582 207 176 15 54
422 580 209 179 21 49
420 584 210 80 27 39
423 582 213 119 34 46
409 650 250 133 16 41
420 589 215 72 38 44
421 590 219 44 34 39
423 586 218 41 35 39
426 725 229 50 38 37
422 591 224 44 33 38
370 949 266 74 67 69
456 745 309 94 67 47
425 580 214 164 24 50
424 584 216 54 37 41
351 965 334 89 84 84
428 577 218 176 19 50
427 580 219 60 28 36
426 585 224 44 33 37
429 579 225 177 22 52
381 825 308 96 74 66
418 592 217 41 33 39
420 594 220 50 36 39
406 545 315 98 16 35
420 595 224 76 33 40
423 592 228 122 30 45
430 580 229 107 26 43
428 582 228 43 32 38
429 583 230 43 34 38
431 580 234 42 33 38
432 580 239 95 25 40
430 585 239 135 21 43
399 744 195 60 48 40
425 590 229 130 35 48
425 590 234 122 31 46
427 590 239 91 28 39
431 585 244 161 15 42
342 910 351 146 113 87
429 588 241 152 16 42
428 591 243 61 29 29
431 590 249 58 30 36
420 599 229 85 34 42
422 596 234 96 32 42
346 830 214 70 61 55
421 600 234 107 37 47
334 853 230 45 41 43
468 723 306 82 67 55
440 554 323 177 15 56
423 597 237 90 24 28
418 607 237 76 40 44
391 865 244 64 54 53
424 594 235 58 31 35
425 595 239 58 33 38
424 599 240 95 38 45
308 906 268 155 112 93
404 707 341 168 122 100
423 606 243 143 33 51
396 910 341 55 48 43
427 595 244 66 33 36
427 600 249 74 34 40
431 595 254 73 31 36
429 598 250 129 29 43
428 601 253 62 35 40
433 577 242 187 16 54
433 580 244 178 13 48
433 581 247 158 7 42
410 550 383 168 118 89
433 585 249 85 20 35
435 580 254 168 9 45
418 611 238 58 32 37
423 616 254 107 33 44
419 618 246 126 24 40
420 620 249 159 31 52
419 623 251 110 32 39
410 710 346 181 129 103
421 620 254 99 31 42
424 609 250 102 35 46
424 614 255 96 32 42
416 665 294 57 29 34
449 515 189 177 14 46
454 736 256 64 52 44
454 695 285 64 50 37
449 518 191 153 12 41
308 635 287 156 3 48
450 515 199 153 6 44
449 519 194 67 24 35
449 518 199 128 18 43
460 750 303 63 48 37
449 515 204 65 27 32
448 520 204 85 25 39
449 518 207 65 39 29
371 860 304 143 106 83
449 514 214 149 4 42
346 930 358 45 42 42
448 520 214 145 8 41
411 641 361 196 137 112
449 514 219 159 0 42
449 513 222 158 0 44
448 515 238 73 24 35
451 785 259 62 49 46
449 515 249 53 30 35
449 519 241 101 26 40
449 520 244 48 29 32
449 520 249 122 17 41
449 515 254 121 18 42
386 833 302 117 92 75
448 515 256 163 12 47
449 520 253 165 6 44
336 945 358 56 52 51
449 523 245 143 15 48
448 526 249 165 7 44
437 705 254 56 43 37
387 645 222 112 26 36
390 645 225 53 31 39
385 650 221 97 27 36
384 667 221 55 36 35
386 670 219 55 40 40
387 668 222 54 35 37
412 650 259 73 26 35
391 670 224 51 39 38
389 671 221 59 46 39
390 655 225 40 32 36
401 645 234 65 31 36
393 650 227 38 33 40
395 655 230 81 28 33
398 650 232 66 37 42
366 909 244 61 56 57
290 679 280 40 30 31
398 655 232 77 30 33
415 600 335 108 73 50
392 660 227 100 22 28
296 880 304 159 121 94
356 770 215 70 52 46
395 660 229 105 19 26
396 665 230 89 24 28
400 660 234 105 16 30
398 665 232 100 19 26
400 665 234 99 19 28
396 670 229 77 30 32
394 672 226 59 37 36
398 669 232 93 24 29
401 670 234 84 28 30
381 640 310 115 2 35
403 650 237 132 10 36
403 655 237 107 14 33
404 650 240 139 8 38
404 655 240 116 12 35
394 681 215 55 42 38
406 650 244 144 12 42
406 655 244 129 11 38
403 734 337 140 89 76
408 655 248 140 13 41
409 644 246 70 25 32
402 715 338 151 103 86
285 679 269 39 27 30
410 645 249 133 23 45
275 755 280 92 63 51
408 646 247 80 26 37
412 645 254 159 17 47
409 655 250 132 16 40
326 615 300 72 24 33
410 655 254 109 19 36
403 660 237 99 17 30
403 665 237 87 23 31
405 660 240 93 21 33
408 665 247 41 30 32
410 665 249 52 30 32
412 665 254 77 29 31
440 565 314 106 26 42
400 732 196 76 55 43
409 671 246 65 35 33
386 674 213 66 50 44
390 676 215 66 49 43
392 680 213 58 45 38
391 675 219 64 46 40
390 684 211 56 45 37
440 841 271 74 63 53
395 676 224 59 42 37
361 715 339 175 14 56
313 635 292 122 13 42
393 678 218 55 38 36
357 774 322 67 58 55
394 677 220 58 40 38
396 680 219 55 39 40
450 859 288 69 56 49
398 684 218 49 37 41
401 685 224 53 41 43
366 914 345 31 30 31
391 703 194 70 51 42
396 802 224 48 40 38
386 704 199 66 50 42
386 701 204 67 44 43
423 600 360 154 107 74
391 700 204 67 47 40
390 698 207 67 48 43
392 702 200 66 46 43
396 704 194 81 56 43
444 842 280 65 53 43
396 703 199 70 48 38
395 702 200 68 46 39
346 830 308 157 124 99
319 883 277 121 97 75
395 697 206 71 51 40
397 700 208 69 48 43
400 699 208 71 48 46
401 705 199 78 57 42
386 688 211 56 42 36
381 775 329 66 58 57
386 690 213 61 44 38
454 852 278 68 55 43
391 690 215 61 46 37
391 693 213 62 46 38
396 690 214 59 41 37
400 691 215 57 39 39
383 783 327 68 59 54
401 696 210 68 52 44
461 800 279 81 62 52
401 694 213 59 45 41
406 685 220 63 47 41
411 684 223 68 50 41
415 686 224 72 53 41
406 700 209 79 55 47
485 845 278 85 70 54
394 590 364 172 125 102
408 703 208 96 70 52
411 703 209 87 61 45
331 855 259 90 61 52
391 850 238 67 55 52
416 705 204 86 64 45
318 847 311 103 82 60
411 705 204 83 59 41
416 704 208 88 66 47
406 692 216 60 47 41
372 905 326 76 55 44
321 847 337 165 131 109
366 678 326 91 15 32
402 688 222 51 40 43
406 690 219 60 47 41
416 696 214 81 58 41
411 690 219 65 48 41
410 692 216 64 48 43
411 700 212 86 60 44
481 860 264 79 69 60
416 700 209 96 68 45
414 699 212 88 59 40
413 632 296 175 11 55
397 675 228 71 37 35
434 863 287 87 75 65
278 702 282 132 16 39
400 680 229 50 40 39
403 674 237 52 35 32
332 620 302 86 28 38
402 680 233 52 41 40
416 745 204 81 58 43
405 675 239 64 39 37
404 676 236 47 38 39
403 684 233 60 44 38
406 683 234 60 42 39
407 683 237 71 39 36
400 725 336 121 46 46
411 680 239 104 44 31
416 678 239 94 52 40
411 681 229 77 48 40
436 816 254 69 54 47
408 682 226 64 48 47
414 682 226 79 53 42
415 681 229 82 55 45
417 684 229 71 51 42
258 755 272 169 123 95
411 675 244 104 35 30
412 673 248 99 32 30
411 678 242 123 29 23
416 674 249 124 39 29
481 898 284 97 85 76
415 811 335 181 130 105
417 699 239 40 31 33
417 699 242 42 31 33
416 702 206 90 68 45
421 696 210 91 66 48
421 695 219 57 45 37
445 705 265 75 49 37
419 691 225 55 44 37
420 705 209 85 65 49
422 705 214 62 49 41
423 703 217 56 47 39
373 947 267 77 68 70
424 696 219 51 42 38
425 700 219 51 43 38
420 680 239 77 56 43
331 918 357 148 126 108
419 686 230 60 47 41
420 685 239 63 46 37
419 587 346 125 97 65
420 677 245 85 58 42
355 741 331 92 49 52
423 679 247 81 49 37
321 520 295 45 25 26
421 685 244 62 42 36
302 823 282 53 45 48
424 680 246 80 52 38
424 677 250 79 51 37
431 680 255 66 46 37
426 685 250 67 43 38
327 861 234 38 34 35
428 684 252 70 48 40
418 688 227 69 54 44
432 685 254 65 46 38
406 910 314 49 41 36
420 690 239 53 42 35
420 695 234 49 39 36
422 700 229 52 43 37
422 698 226 54 43 35
386 745 337 114 38 50
419 701 239 43 32 33
422 704 235 50 32 35
421 705 239 52 32 34
307 650 288 147 0 45
418 703 239 49 29 30
426 701 228 51 42 36
429 702 226 51 40 36
430 705 229 57 42 36
421 690 244 49 36 37
431 755 234 63 50 46
418 692 240 54 37 36
434 863 286 83 69 59
346 969 329 60 55 54
418 692 242 59 36 39
421 695 244 46 36 36
436 565 274 170 10 47
423 689 247 50 38 37
422 704 242 51 39 36
426 690 248 55 43 38
424 692 246 49 39 38
381 894 326 46 36 34
426 695 246 55 39 36
427 694 247 57 41 35
431 695 249 64 45 37
430 691 250 68 49 39
431 690 254 61 45 37
426 705 243 53 40 37
432 699 247 62 46 37
477 750 267 73 55 38
279 756 285 59 48 45
434 696 250 64 46 37
433 693 254 58 41 35
435 700 249 62 46 36
434 704 246 59 43 38
361 900 234 67 58 59
436 705 249 64 47 38
387 706 190 70 51 42
387 709 190 75 56 45
333 882 227 68 60 61
401 710 184 88 63 47
396 705 189 93 60 49
295 935 279 64 60 61
396 707 186 93 59 45
429 690 347 167 107 79
396 711 189 72 56 42
401 706 189 87 57 49
396 785 209 71 56 46
401 710 189 78 57 45
404 707 191 83 53 47
404 709 185 87 62 44
386 711 193 72 52 43
347 826 201 85 70 60
386 714 195 65 47 40
386 716 198 62 46 39
390 712 192 67 52 38
311 935 255 78 70 73
391 714 195 64 50 40
401 706 194 86 60 44
396 714 194 66 51 40
397 712 192 69 54 41
312 529 305 33 25 24
384 722 202 56 45 38
276 824 235 206 142 115
391 725 201 56 45 38
470 841 195 85 74 67
386 735 198 65 50 41
391 730 199 62 49 42
263 578 282 61 25 29
391 735 195 68 52 43
388 736 196 60 46 39
401 725 200 66 51 43
394 726 202 58 47 41
436 825 279 67 51 43
396 730 198 65 50 43
411 615 328 105 52 37
393 732 194 66 52 41
414 550 327 88 32 41
396 732 196 75 56 46
440 540 309 139 10 38
396 735 194 82 60 47
394 733 197 70 55 44
439 873 302 57 48 40
396 860 303 40 36 35
293 890 306 165 121 96
421 630 324 115 90 61
403 711 197 74 52 43
301 886 348 125 97 76
405 706 195 83 58 48
405 706 198 83 59 47
406 710 199 79 57 43
391 775 204 66 52 46
406 715 199 81 58 46
369 834 216 63 54 48
406 720 201 75 57 45
412 711 203 82 62 46
414 708 201 82 62 47
415 710 204 83 62 46
416 770 344 179 134 104
414 715 206 73 57 45
278 705 284 134 14 43
414 720 206 72 54 40
406 725 201 67 52 45
403 733 197 76 57 45
412 725 203 72 54 41
374 882 236 61 53 53
410 726 201 68 52 41
410 735 200 66 50 39
411 730 204 74 56 44
413 731 207 69 53 44
413 733 207 68 52 43
429 660 334 143 100 65
416 736 204 69 52 42
387 741 196 69 53 42
367 855 310 149 114 89
385 746 197 66 51 41
387 744 196 68 51 41
391 745 195 71 54 42
450 715 279 62 47 38
389 747 197 72 55 44
391 750 196 61 47 40
389 750 197 65 48 37
396 750 195 64 50 42
336 909 235 79 70 71
398 751 197 71 55 45
401 750 199 72 55 45
396 540 369 128 85 70
385 753 197 60 48 40
386 760 195 68 54 47
388 752 196 61 47 38
386 765 197 75 58 50
391 765 199 76 57 50
317 847 337 171 134 114
316 835 274 187 134 110
392 761 197 82 63 54
394 754 196 74 55 45
400 755 200 73 54 45
426 760 219 59 47 42
399 758 201 69 53 46
401 760 204 60 47 41
396 765 204 60 47 43
400 763 205 57 45 40
397 766 207 57 45 41
401 765 209 56 45 40
405 739 196 64 50 41
261 560 294 103 26 41
406 740 199 65 49 40
405 744 200 66 50 40
403 751 202 78 57 46
406 746 202 71 50 40
410 739 201 71 53 41
412 741 202 75 56 43
356 664 316 113 10 38
411 749 205 80 57 46
286 835 249 152 100 84
412 751 207 68 50 42
433 809 242 69 51 42
415 749 206 80 58 44
397 620 339 161 114 97
301 746 306 76 54 52
416 751 208 67 50 42
416 740 219 58 47 43
415 740 224 55 45 43
410 894 295 79 64 55
416 750 224 55 44 43
406 755 205 64 49 42
406 760 209 55 43 38
437 685 329 143 101 66
409 754 206 64 48 42
411 755 208 62 47 41
356 670 320 41 29 32
404 764 210 57 45 40
406 765 213 67 52 43
262 780 278 168 131 101
408 761 212 61 48 41
354 791 316 123 95 83
415 759 211 61 48 42
411 765 215 76 57 45
417 761 213 65 49 40
412 767 217 88 67 51
416 766 219 78 58 47
415 645 316 95 71 46
416 740 229 58 45 44
371 950 268 75 67 69
415 750 229 56 45 44
428 587 306 80 27 32
422 710 213 66 52 45
419 720 210 61 48 41
422 715 213 65 50 43
422 720 213 64 49 41
313 625 292 59 24 30
431 711 220 66 41 34
395 804 213 65 51 45
431 530 345 118 23 45
431 716 216 66 42 36
431 714 217 71 39 37
421 736 205 75 56 42
421 734 209 73 54 46
426 734 209 80 60 45
431 736 206 82 60 42
422 730 213 67 53 43
417 736 219 55 44 42
461 730 259 59 47 40
422 731 225 63 50 46
431 722 211 78 59 42
431 725 210 76 56 42
426 730 214 68 55 46
411 875 321 46 42 40
481 725 279 103 75 52
427 732 211 78 59 47
431 735 220 56 45 38
335 850 229 45 41 41
451 730 319 149 102 71
436 709 224 62 46 36
439 711 220 67 55 46
439 710 224 57 43 32
351 860 329 139 108 76
436 715 216 80 44 37
393 554 383 177 125 103
347 531 297 62 23 31
437 715 218 72 47 37
437 715 224 66 52 41
438 719 219 70 54 41
437 720 225 54 41 37
440 721 223 65 51 41
416 760 344 180 133 104
396 555 364 135 90 75
435 725 210 78 56 43
437 724 212 75 55 39
439 722 216 74 53 38
442 724 219 77 59 42
337 595 308 159 14 52
440 730 211 87 64 43
292 754 297 79 65 58
442 730 213 81 59 45
439 733 211 88 65 52
437 736 213 64 47 43
436 735 220 64 50 40
436 733 222 60 47 35
414 545 373 173 125 95
440 730 223 54 43 39
440 734 218 58 46 39
440 733 222 57 50 42
441 725 224 69 56 49
444 727 218 71 56 43
457 819 194 91 75 63
444 729 215 72 55 42
443 730 220 58 47 39
426 680 264 55 35 31
444 729 218 61 48 38
416 555 364 148 113 78
424 707 237 52 32 33
426 710 239 52 39 36
437 849 300 56 49 44
431 710 234 59 40 37
429 712 237 53 41 37
427 720 230 55 43 38
431 717 230 64 48 41
431 720 228 58 45 40
428 720 232 58 42 39
319 884 238 55 50 50
427 714 240 51 41 37
430 720 235 55 36 37
431 720 239 57 36 36
423 712 247 65 37 38
318 948 266 79 72 75
422 714 245 66 30 36
426 715 248 65 34 37
427 719 247 66 33 37
431 715 249 59 35 38
420 730 229 55 43 41
433 679 340 153 104 72
418 731 229 54 43 41
431 817 254 58 47 43
464 748 266 80 63 49
417 735 229 62 49 46
419 735 230 57 41 43
316 550 310 150 5 46
422 735 233 52 38 40
377 850 233 63 56 54
427 726 226 51 40 37
426 730 234 51 41 37
426 735 235 53 43 39
431 735 239 57 47 43
331 900 228 82 72 71
432 724 245 60 31 36
436 710 228 62 48 40
404 909 300 60 50 47
435 715 229 63 48 42
434 719 227 52 41 38
435 709 250 59 44 38
435 715 251 58 39 40
282 819 277 118 88 76
434 700 342 165 111 79
312 575 297 163 8 50
437 715 253 68 51 45
427 650 334 140 97 65
439 711 256 67 41 35
436 815 214 82 62 47
438 718 252 68 50 42
396 839 298 36 32 32
441 720 254 60 45 40
441 880 299 72 61 53
433 722 226 53 40 38
435 725 239 51 39 37
435 729 240 51 41 37
432 723 247 56 34 36
445 693 295 65 51 40
436 725 248 56 37 39
440 725 250 58 44 41
372 936 257 71 63 65
433 732 242 55 45 38
433 734 242 55 44 40
440 730 249 55 43 39
429 776 236 57 47 44
439 736 246 55 47 42
444 721 256 61 46 39
445 725 255 62 48 40
286 670 265 62 35 39
444 732 251 57 47 40
318 886 239 55 50 49
445 736 250 58 46 40
421 740 203 70 50 38
421 744 205 83 60 44
425 743 206 86 62 51
426 744 209 67 50 43
421 740 215 54 41 38
418 739 216 62 50 41
301 781 212 164 114 80
421 746 218 65 51 46
421 750 214 55 43 40
423 747 222 61 50 49
426 740 214 56 43 40
396 920 279 67 59 57
425 744 213 58 44 41
431 740 214 56 43 35
428 738 217 51 40 37
416 570 354 120 93 63
432 738 217 58 46 36
424 747 219 60 46 41
376 790 204 81 61 49
436 740 243 57 47 42
424 747 222 60 48 47
351 935 253 79 74 78
424 748 216 57 44 38
424 750 219 58 45 41
425 750 224 58 45 44
418 757 212 59 45 39
396 545 390 186 130 108
420 763 216 81 63 46
420 764 219 68 53 43
421 765 224 52 42 39
425 756 216 61 48 44
425 759 216 65 50 44
426 755 219 60 48 43
442 816 268 63 49 44
429 757 224 57 47 44
427 760 224 55 46 43
429 758 224 55 45 42
435 739 214 59 45 39
436 738 218 61 45 38
419 738 231 53 39 40
418 741 232 51 41 40
421 745 233 51 43 41
421 750 229 53 45 43
418 750 232 56 48 46
426 740 235 54 44 41
346 560 305 89 14 31
426 746 235 56 48 45
427 744 237 63 51 46
427 741 237 63 52 45
299 929 268 64 60 60
425 751 229 55 45 42
426 750 233 57 48 45
316 895 259 56 46 46
417 759 229 54 44 41
420 759 226 53 44 43
422 765 229 50 42 40
429 756 229 61 49 45
427 761 233 57 45 43
301 535 313 136 8 45
430 759 235 59 46 43
424 763 229 51 42 39
425 764 235 55 42 39
429 763 236 55 46 42
431 765 239 58 46 43
395 930 329 64 57 54
436 745 240 65 52 44
433 748 237 64 51 45
436 750 239 66 52 42
434 750 236 66 52 44
420 605 308 150 18 51
434 742 241 58 49 44
441 750 243 64 49 41
442 739 247 64 52 41
446 740 249 59 48 40
446 745 245 60 48 40
434 754 236 66 51 44
452 725 311 71 49 40
437 570 289 150 3 39
436 755 238 66 51 43
433 757 237 65 51 45
435 764 241 67 52 44
433 767 242 62 48 43
441 765 244 66 50 44
356 673 321 39 27 31
442 755 242 69 55 48
446 755 244 68 54 48
445 760 245 71 55 47
446 760 249 72 55 47
442 766 248 78 59 49
422 864 316 46 41 37
448 795 329 180 121 88
445 765 249 77 60 51
271 785 281 176 134 101
451 735 255 61 49 41
432 815 211 86 69 54
448 738 252 58 48 40
451 740 254 62 49 41
449 741 251 61 49 38
451 745 249 62 49 43
451 750 244 70 54 45
449 750 254 61 48 42
450 754 249 70 54 46
450 755 254 64 50 43
450 760 255 66 51 43
261 521 300 63 24 32
261 525 298 108 22 43
266 519 303 68 28 37
288 745 298 110 32 46
266 525 299 78 24 34
271 526 300 68 29 37
272 524 302 102 25 41
263 513 307 123 15 40
330 852 254 72 52 49
291 800 218 175 121 86
291 765 293 73 60 53
269 517 306 80 29 31
272 514 313 185 21 58
261 530 297 62 23 30
415 568 322 156 17 54
260 535 297 56 26 32
262 540 296 75 24 34
260 540 297 41 24 27
526 922 273 96 87 77
425 620 354 160 109 76
260 545 297 86 24 37
262 545 296 41 25 28
266 529 297 102 28 42
266 532 296 56 26 30
440 695 319 120 90 58
272 534 297 41 24 28
266 545 294 35 28 28
271 540 294 61 29 34
448 711 277 68 45 38
276 525 304 124 22 46
274 527 301 50 28 27
354 866 332 141 110 79
280 526 305 128 25 46
277 519 312 51 30 32
281 515 315 105 12 38
275 522 306 140 29 52
385 920 260 75 61 56
278 523 308 154 26 56
280 522 311 39 26 30
286 525 313 129 24 46
276 530 300 40 27 30
280 532 301 69 25 35
281 535 300 126 23 46
395 900 269 67 58 57
400 650 307 74 34 42
276 545 294 48 27 29
281 545 295 103 17 40
277 538 297 135 28 51
451 850 279 69 57 47
283 533 302 111 23 43
361 620 310 80 21 35
261 555 296 110 19 39
283 528 307 78 20 23
326 965 279 80 77 80
258 568 287 118 19 40
260 571 285 105 26 38
467 747 301 79 64 53
261 575 284 99 25 38
263 574 287 160 18 50
402 861 307 36 32 31
266 575 288 176 21 58
276 570 288 139 11 44
306 780 298 69 57 51
281 570 287 136 18 46
286 570 289 56 26 33
260 550 297 113 19 43
262 550 296 58 23 31
258 553 297 44 24 32
354 896 342 153 115 91
260 553 297 122 20 41
367 920 253 71 65 68
266 550 294 29 26 27
271 550 292 38 28 29
400 795 224 69 55 51
266 555 294 45 25 27
266 560 293 90 26 37
270 554 292 32 26 28
269 560 292 76 25 36
260 566 290 109 29 43
266 565 292 111 22 41
269 564 292 114 18 40
266 570 290 166 19 55
439 789 342 180 122 93
306 799 216 64 55 53
471 765 264 90 66 48
271 570 290 89 23 37
281 550 294 94 23 40
276 555 291 60 29 34
276 560 290 88 28 38
277 553 292 61 30 31
281 555 293 68 29 37
281 560 290 112 24 43
286 550 295 78 20 36
285 547 296 173 14 53
288 548 297 168 12 51
286 555 294 37 27 31
286 560 293 86 28 39
276 565 288 117 21 43
281 565 289 110 25 43
539 923 270 93 85 76
400 635 308 152 39 55
284 562 291 129 24 52
285 566 291 55 26 30
371 901 238 63 56 56
287 565 292 65 31 35
398 619 362 181 131 106
301 515 304 94 4 28
453 744 316 157 112 77
303 513 301 89 6 21
292 514 310 105 1 29
296 515 308 102 0 30
293 518 311 112 4 34
290 516 312 117 0 34
439 560 259 177 13 50
291 520 313 123 7 39
286 825 234 206 145 116
299 517 307 100 0 28
420 785 225 56 45 41
290 542 301 178 15 55
290 531 310 81 24 35
401 905 338 58 51 47
288 533 307 120 27 49
291 535 308 165 16 54
295 536 310 184 17 59
288 528 312 77 27 38
393 927 282 65 58 55
291 529 313 137 22 49
372 770 327 68 59 56
297 534 312 177 13 55
293 538 307 184 16 60
341 650 309 88 21 36
296 545 304 182 16 57
303 529 311 109 11 35
311 790 298 63 52 46
301 530 313 127 3 39
301 545 308 184 15 59
302 539 312 165 9 51
311 910 249 64 57 57
306 515 300 64 13 26
306 520 304 65 19 28
308 519 301 37 24 25
295 761 296 77 64 57
310 515 298 40 21 24
311 520 299 29 23 25
311 525 304 36 23 26
316 515 295 53 19 26
454 722 281 63 49 41
321 515 293 74 21 32
401 885 325 39 36 35
398 655 334 176 125 108
317 518 296 27 24 26
431 860 284 81 67 53
318 840 284 176 129 103
416 740 344 185 134 105
316 525 300 65 20 28
314 526 302 58 22 27
319 522 297 61 25 29
306 526 308 78 15 30
309 527 307 35 27 26
317 528 301 63 22 28
319 532 302 63 20 28
258 580 281 125 86 78
317 535 305 83 11 29
321 535 303 63 18 28
307 534 311 51 24 27
305 535 312 72 19 31
306 545 310 175 12 54
319 883 246 44 39 39
314 532 307 41 24 19
315 536 307 96 3 31
316 540 309 110 1 33
316 545 309 132 4 41
318 538 306 94 0 30
322 539 305 48 21 27
471 747 301 72 57 46
321 545 308 87 13 30
470 709 307 94 72 50
291 550 298 157 12 50
290 551 296 55 22 30
296 550 300 173 12 52
291 560 295 90 27 41
293 553 297 90 20 37
295 925 334 187 144 121
299 552 301 173 12 53
298 558 297 129 6 44
302 554 303 179 15 56
303 548 307 185 16 58
291 565 293 90 21 38
296 565 295 160 12 51
288 568 292 53 28 36
291 834 244 70 57 56
291 575 290 76 23 35
294 576 291 174 15 57
376 840 224 57 50 49
351 579 311 107 6 34
293 573 292 135 16 49
301 565 296 165 7 50
306 890 289 135 104 76
302 564 297 168 7 51
306 560 299 172 12 53
321 555 310 144 5 44
305 567 296 167 7 50
307 569 297 165 8 50
258 686 272 162 118 94
311 570 298 166 10 51
409 903 326 64 55 50
309 572 296 162 7 49
314 567 301 176 14 54
331 600 303 54 28 33
317 570 303 178 14 56
318 574 302 171 12 52
320 570 305 176 13 55
336 900 354 182 130 110
321 575 304 174 12 55
266 829 263 217 150 123
314 562 306 182 15 59
258 585 281 148 103 86
261 590 279 141 101 85
266 585 279 45 29 30
265 581 281 58 29 33
270 581 286 63 30 34
266 589 278 60 39 35
298 687 297 124 3 39
272 589 283 81 29 35
271 602 271 69 29 34
295 900 303 173 126 103
257 595 281 163 116 92
419 632 321 111 87 59
261 605 278 165 118 98
263 605 276 161 117 97
266 595 275 100 72 62
264 594 277 138 101 86
405 655 349 174 133 111
342 739 323 74 60 55
266 600 275 137 98 85
271 595 275 42 30 30
410 665 351 180 131 106
266 605 274 154 108 94
276 580 287 151 12 48
401 745 334 102 45 45
276 585 285 60 25 32
279 578 287 158 4 46
281 585 285 144 10 46
276 590 283 45 28 31
286 580 286 171 11 51
287 579 287 173 13 53
286 585 285 170 11 52
279 607 271 56 29 28
326 665 305 146 3 45
321 690 310 32 27 29
277 599 278 143 22 50
433 688 307 55 37 30
281 600 279 162 22 54
286 595 283 173 12 52
409 817 326 172 126 103
286 600 281 88 23 38
286 598 282 167 16 54
282 604 278 48 24 31
415 640 264 74 30 37
286 605 279 37 28 30
284 607 276 47 32 34
426 829 303 72 46 38
271 615 269 139 97 85
454 821 219 88 65 54
271 620 269 151 104 90
334 850 238 50 44 45
263 610 276 166 119 98
260 620 277 170 121 99
262 620 276 168 121 100
391 855 299 38 34 33
262 625 275 174 122 100
310 585 296 118 17 42
266 615 273 163 116 99
415 520 349 53 27 30
269 610 272 155 108 93
427 831 301 45 34 31
269 614 272 159 113 96
266 620 273 165 119 100
440 555 304 82 26 36
265 625 273 168 119 100
268 630 271 169 118 100
267 635 271 179 124 105
266 640 270 184 127 108
271 640 268 171 120 103
346 520 294 93 22 36
261 630 275 179 123 103
291 760 294 76 62 55
261 640 273 186 128 109
422 555 320 74 27 34
265 630 273 176 120 102
264 639 272 185 125 107
360 953 347 75 66 60
275 614 267 66 45 40
313 667 297 141 1 44
276 615 266 52 35 33
280 616 265 46 28 30
321 860 341 152 102 93
282 614 268 75 28 35
277 725 284 162 4 49
276 620 264 84 52 48
435 814 223 77 62 54
281 620 263 93 28 39
405 645 355 184 136 113
277 625 260 62 32 32
281 625 259 38 28 29
383 530 312 155 4 49
278 622 261 74 29 30
328 872 266 78 62 53
474 728 277 106 85 62
274 620 267 132 92 80
285 616 270 85 32 41
283 624 262 34 25 28
422 620 259 71 33 41
286 625 264 71 26 35
396 925 294 59 52 48
288 624 268 40 25 27
286 615 274 49 28 30
296 831 238 91 71 64
288 618 273 60 30 33
278 630 260 67 43 37
371 600 311 128 4 40
275 630 264 133 91 79
281 635 259 72 39 35
278 634 261 94 61 52
276 635 264 138 96 83
318 646 297 36 29 31
279 637 262 108 67 59
281 640 260 76 43 39
279 640 262 117 76 65
273 635 266 155 110 94
425 589 307 47 28 34
273 640 266 162 116 100
376 821 310 140 108 91
276 730 284 154 2 46
285 630 260 58 26 30
287 629 263 69 28 33
374 953 328 58 54 54
477 727 276 98 74 48
408 519 386 150 113 81
286 635 259 77 25 32
444 814 319 191 124 98
331 650 304 73 26 37
286 640 258 95 18 33
289 582 286 175 14 54
292 585 287 177 15 55
296 585 290 177 15 55
296 590 288 176 14 54
294 591 286 174 14 54
290 601 281 42 26 30
297 594 287 167 14 54
295 905 303 171 125 103
291 605 280 33 27 30
295 606 281 74 20 34
299 601 286 61 26 33
300 605 285 139 13 45
302 605 288 118 19 44
295 580 290 177 15 56
402 920 319 69 61 57
297 580 292 175 13 54
301 580 293 164 7 50
298 583 292 176 14 55
394 620 344 170 124 106
299 586 291 174 13 54
303 594 292 152 19 51
376 785 203 79 60 49
361 525 300 50 29 32
306 580 295 134 12 45
306 585 295 42 28 32
420 808 206 94 73 56
310 580 296 159 5 49
312 580 297 162 5 49
371 635 311 100 14 35
311 590 296 115 22 43
320 580 300 163 8 50
321 585 300 136 14 46
313 590 297 113 19 42
321 590 299 45 28 30
311 605 294 106 22 42
403 881 262 69 57 55
261 683 271 161 119 96
316 600 297 68 27 35
314 600 296 88 19 36
377 961 299 60 55 54
321 595 299 35 30 32
315 605 296 95 22 39
296 950 289 74 69 71
317 605 297 104 24 41
290 625 269 75 25 34
291 610 279 75 28 37
291 615 278 56 25 31
295 610 280 164 12 52
293 618 277 116 20 43
301 610 284 102 16 38
298 614 282 162 9 50
301 615 284 146 11 48
298 625 278 37 27 30
447 699 300 69 36 32
299 620 281 91 18 37
302 625 283 52 27 30
290 630 265 49 25 27
288 634 262 46 28 26
444 818 257 57 42 40
267 784 221 172 117 83
290 635 264 92 19 34
291 640 264 138 4 43
455 720 289 84 64 47
293 635 268 111 16 39
294 635 270 109 9 37
296 635 274 137 9 43
296 640 274 154 3 47
298 635 277 143 4 45
261 790 278 182 138 109
361 705 338 149 6 46
307 620 288 125 24 46
307 625 287 86 26 37
305 640 285 152 2 47
309 611 291 154 30 58
308 608 292 63 21 31
419 672 288 64 30 31
312 615 293 113 27 45
311 620 290 97 27 40
316 615 295 116 27 45
318 610 297 83 36 42
321 615 298 102 26 40
316 625 294 73 24 34
397 871 313 36 34 33
322 620 298 63 26 32
310 630 290 143 10 46
376 865 241 68 59 61
310 635 290 148 5 45
320 875 239 48 43 42
313 630 292 126 13 44
316 630 294 106 20 41
318 896 230 87 77 75
320 630 296 85 28 40
316 640 294 152 6 48
320 635 296 120 19 43
452 811 274 70 55 49
326 515 292 54 25 30
322 524 296 39 23 25
331 520 294 68 19 30
336 515 292 83 22 35
331 525 295 86 15 32
336 525 294 74 18 30
311 832 237 97 73 64
413 550 376 166 119 87
322 534 301 56 23 27
326 530 298 51 24 28
327 528 296 56 22 26
326 540 303 28 24 26
335 971 283 95 89 91
326 545 305 70 19 29
331 530 296 73 20 29
330 531 297 63 24 29
333 533 296 53 20 23
336 534 296 47 25 28
336 536 297 44 27 28
436 815 244 62 49 43
404 795 226 65 51 52
330 541 302 28 25 27
336 540 298 52 24 28
406 590 375 186 131 105
336 545 300 67 23 29
323 544 306 45 23 25
341 525 295 65 25 32
317 865 284 165 120 93
346 515 294 33 27 28
351 515 295 49 27 30
355 710 336 100 17 39
351 520 296 82 23 34
275 832 248 222 149 118
346 525 295 95 18 35
341 560 305 96 6 31
352 526 297 60 25 31
341 530 296 42 27 28
341 533 296 43 23 25
341 535 297 51 28 29
341 545 299 58 26 29
351 530 298 89 20 35
351 535 299 102 14 35
327 876 343 96 59 57
346 545 300 68 24 31
351 545 301 61 28 34
331 550 305 37 26 27
337 548 301 54 23 27
324 546 307 94 9 32
327 549 306 70 17 27
326 555 308 120 9 38
336 555 305 53 22 27
334 849 209 90 76 66
334 557 307 47 20 27
346 740 325 77 62 56
336 560 308 93 9 32
471 740 270 92 73 53
322 570 308 171 11 53
415 650 289 43 28 32
323 573 307 171 12 50
325 570 310 166 10 52
328 569 312 159 9 49
336 565 309 115 1 36
317 969 304 73 69 70
331 567 312 144 3 43
337 568 311 122 2 37
331 570 312 150 4 46
336 571 312 136 3 41
341 551 302 67 19 28
341 555 303 91 12 31
346 551 302 73 21 31
350 548 301 46 27 31
355 805 208 64 53 51
351 550 302 48 26 29
397 795 219 61 51 49
338 559 306 95 6 30
351 560 305 72 23 31
335 730 320 107 30 45
340 562 307 99 4 32
281 795 283 87 73 64
341 565 308 100 2 31
341 570 310 104 3 32
340 571 312 114 4 37
341 575 313 87 21 35
331 800 219 77 62 54
345 566 307 99 6 31
346 575 311 101 8 33
351 575 310 106 3 33
354 515 296 73 22 32
449 809 266 61 49 45
362 951 346 71 64 61
377 835 222 62 53 52
357 515 298 109 19 39
354 519 296 93 26 39
356 520 297 107 22 41
361 515 300 76 23 34
426 740 344 177 122 91
361 520 300 83 25 36
383 946 278 70 63 66
353 522 297 109 31 51
363 518 302 85 28 38
366 520 303 59 25 31
368 514 307 137 20 47
356 530 299 74 25 34
356 535 300 87 21 34
361 530 301 41 27 29
431 540 334 157 10 51
356 540 301 66 25 32
354 544 301 45 26 26
415 650 269 115 23 42
356 545 302 38 27 29
360 538 301 100 26 39
357 541 302 41 24 28
361 540 302 71 23 33
339 848 233 44 40 41
361 545 303 72 26 33
363 531 302 36 27 29
320 889 269 71 62 56
396 765 334 51 44 41
362 535 302 43 26 29
364 528 301 51 33 33
366 530 303 36 28 29
266 815 235 192 130 100
366 545 304 132 9 42
376 515 313 79 26 35
371 525 305 100 24 40
373 523 307 143 22 48
375 949 338 64 56 54
317 915 240 86 75 73
374 527 306 112 25 44
302 950 334 67 49 45
381 515 315 76 28 35
382 525 313 155 5 48
374 530 306 60 22 30
376 530 308 126 12 42
470 831 294 90 79 71
426 813 337 197 130 102
374 535 306 132 9 43
373 542 307 144 3 45
373 545 307 149 4 46
416 565 322 92 27 40
376 545 308 150 4 46
383 534 312 152 5 44
335 856 249 42 36 39
381 540 310 144 3 43
381 545 310 145 4 43
336 917 242 80 73 74
353 546 302 50 26 30
439 684 265 65 45 34
439 520 284 82 26 36
356 550 303 65 29 34
361 550 304 45 25 28
356 555 304 43 28 30
361 555 305 51 23 28
361 559 306 63 23 30
366 555 306 126 3 38
366 560 307 122 2 36
355 563 306 47 24 27
419 571 356 143 111 76
358 562 307 34 29 31
336 795 305 186 136 116
405 785 220 68 54 48
361 565 308 56 24 29
266 790 223 176 120 85
361 570 308 110 8 36
366 565 308 79 19 32
399 660 323 93 56 46
366 570 309 106 9 36
311 805 295 107 82 71
366 575 310 121 1 37
369 554 306 134 2 40
371 555 307 136 2 42
381 550 310 144 4 44
383 550 312 144 4 44
380 555 310 144 4 44
380 560 310 143 4 44
383 555 312 143 3 44
383 560 312 142 3 42
376 570 310 130 2 40
376 575 311 127 1 39
382 565 312 142 4 43
416 645 279 158 8 46
380 570 311 135 3 41
382 570 312 139 4 42
380 516 383 164 115 104
366 694 335 127 3 39
382 515 380 135 85 78
383 518 381 146 97 87
322 579 303 168 10 52
424 807 229 74 58 48
326 585 303 116 20 43
324 586 301 56 22 31
327 590 302 72 31 38
331 590 305 71 30 36
409 640 298 98 25 40
331 580 310 118 18 42
415 656 316 72 56 35
334 582 311 42 28 28
316 670 299 119 9 38
335 585 310 46 30 32
333 579 312 105 22 41
481 864 255 88 72 61
336 590 309 64 29 34
356 856 318 133 105 74
326 600 300 67 31 37
332 605 302 124 26 46
336 600 305 50 26 32
336 605 304 61 27 32
382 860 242 64 56 56
341 580 313 60 29 34
341 585 313 63 29 34
391 663 311 84 16 30
340 591 311 80 31 37
365 964 323 58 53 51
338 588 312 56 25 31
341 590 313 74 30 36
375 696 337 94 19 35
348 578 311 103 9 35
341 850 199 93 72 61
346 580 313 82 20 31
350 581 312 104 8 32
351 585 313 108 9 35
351 590 314 96 21 35
338 599 307 67 21 30
306 865 299 134 105 78
339 602 306 34 28 31
342 605 307 33 28 29
346 595 313 97 27 40
347 599 312 78 24 33
336 845 214 73 64 57
351 600 312 77 28 36
346 605 309 40 27 30
351 605 311 66 29 34
352 604 312 43 27 30
316 800 298 149 114 97
330 610 301 71 19 31
484 839 202 82 68 58
297 760 297 79 64 57
332 610 302 84 27 38
406 630 304 153 8 48
330 615 301 83 32 40
332 615 302 69 23 32
381 715 338 80 32 38
330 620 301 64 25 32
411 561 356 95 64 40
331 625 302 45 27 29
322 630 297 55 28 33
322 635 298 108 22 41
329 628 301 68 30 35
331 635 303 61 28 33
290 745 300 53 28 32
341 610 306 32 27 29
341 615 305 64 26 33
294 653 271 139 5 40
343 610 307 33 27 28
343 614 307 37 28 28
341 625 306 50 26 30
419 580 368 160 114 79
346 610 308 45 28 29
351 615 309 135 13 45
351 875 232 70 62 63
459 706 295 72 56 40
344 620 306 122 34 51
344 624 306 80 20 31
346 625 307 69 24 34
351 625 308 68 27 34
343 626 307 55 27 32
342 630 307 86 32 41
340 635 306 69 25 32
346 630 308 38 28 30
351 630 309 46 28 29
346 635 308 34 29 30
346 976 284 61 59 60
357 585 311 117 2 36
361 580 311 120 1 37
354 582 312 111 6 34
355 586 312 113 3 34
405 864 250 88 68 60
366 580 311 122 1 38
316 705 310 132 15 45
366 590 311 125 0 39
426 886 289 72 61 55
445 822 282 58 46 40
361 587 312 121 2 38
356 600 313 67 27 33
361 600 312 95 19 35
356 606 311 53 24 28
356 604 312 83 28 36
367 595 311 123 0 38
368 600 311 117 6 36
340 868 216 84 71 68
396 665 313 83 43 42
366 595 312 122 1 38
367 606 311 50 22 27
365 605 312 71 24 31
371 580 311 125 0 38
321 930 354 185 145 123
348 808 307 189 136 115
284 684 271 73 27 35
371 585 311 128 1 40
376 580 311 128 2 40
376 585 311 130 3 41
378 580 312 122 5 37
431 590 304 153 12 49
381 580 312 121 9 38
346 973 318 59 54 51
378 585 312 132 9 42
426 850 309 51 44 40
342 900 351 162 115 93
381 585 312 102 19 38
378 590 312 134 4 43
421 793 231 61 47 43
455 725 284 68 53 39
381 590 312 108 12 37
371 595 311 128 0 40
376 595 311 132 1 41
376 600 311 135 2 42
370 594 312 127 0 40
444 750 337 168 115 84
371 605 311 102 22 38
379 596 311 135 4 42
380 600 311 137 3 43
378 594 312 132 2 40
435 856 289 80 66 53
381 605 311 136 6 44
383 603 312 136 7 48
361 615 310 107 22 40
356 620 309 118 17 41
366 610 311 46 25 30
489 855 265 83 66 55
481 856 264 125 107 93
366 615 311 101 23 39
366 625 310 64 26 31
356 630 310 79 26 37
366 630 310 78 21 32
366 635 311 59 25 31
309 913 257 54 48 50
366 640 311 76 24 33
371 610 311 45 25 28
376 610 310 100 16 38
371 625 309 94 20 35
441 870 299 56 46 40
376 620 310 75 20 33
376 625 309 111 12 38
311 895 350 167 125 105
381 610 310 140 3 43
371 630 310 93 16 31
376 635 310 83 14 31
381 630 309 102 15 37
377 514 389 189 142 128
381 520 389 179 126 110
378 513 392 192 138 123
381 515 393 181 131 111
445 730 334 170 115 82
382 519 392 187 137 116
383 523 386 174 122 106
262 646 271 187 131 111
263 642 271 189 131 111
266 645 270 189 134 114
266 650 268 190 136 115
271 655 267 177 130 110
259 648 272 182 127 108
323 867 238 41 35 36
261 670 269 169 126 101
271 660 268 175 130 110
271 665 268 167 125 106
266 670 269 166 125 101
279 645 262 113 71 63
273 645 266 165 116 100
280 650 263 88 54 47
273 650 266 167 118 102
273 654 266 169 121 104
276 655 265 148 105 92
282 645 260 82 41 40
293 949 304 68 64 65
286 645 258 83 25 34
282 650 260 65 35 32
286 650 260 55 30 33
441 780 249 62 48 44
286 654 261 50 39 39
334 828 301 147 115 91
276 660 265 142 101 88
275 666 267 143 106 91
277 665 266 117 81 70
299 909 293 109 88 75
281 660 264 65 39 36
276 670 267 109 76 64
278 669 266 82 46 37
261 675 270 163 121 98
261 680 271 161 119 96
456 849 224 82 63 52
266 675 270 165 124 101
271 685 270 108 80 63
261 686 272 160 118 94
266 686 272 147 110 89
269 687 272 124 93 72
272 694 271 91 60 48
257 690 272 164 120 94
261 695 273 153 111 88
261 700 273 149 107 85
257 705 272 161 115 91
266 695 273 128 93 73
270 695 272 108 73 57
266 705 274 131 90 69
282 685 268 58 26 29
285 674 266 48 34 35
288 671 268 51 26 30
285 685 279 63 29 35
287 685 284 39 30 34
288 687 287 47 29 29
276 690 270 67 35 31
375 960 314 66 62 62
279 694 271 63 27 31
280 695 274 70 22 31
278 697 272 84 27 27
280 695 279 106 22 41
277 701 279 121 15 37
406 886 327 40 36 35
280 700 284 122 15 41
440 819 314 188 119 92
401 538 317 96 17 35
287 706 302 137 6 41
279 704 285 106 22 43
301 819 226 84 67 61
279 705 289 106 22 42
282 690 274 52 27 32
385 920 348 51 44 40
282 690 279 52 28 33
461 735 269 49 37 35
314 689 306 53 21 31
285 689 284 46 30 33
286 695 294 41 28 32
288 692 292 98 26 41
282 700 294 71 27 35
401 520 319 79 18 35
284 699 295 41 29 32
283 706 298 113 13 38
286 700 299 62 22 31
421 675 259 83 34 35
288 696 297 43 26 28
400 515 329 148 1 45
291 645 264 136 3 42
293 645 268 144 2 44
289 649 261 85 17 30
316 969 314 68 63 61
291 650 264 118 10 38
290 655 264 110 12 37
409 802 205 96 74 53
292 655 269 129 11 41
292 650 269 139 4 42
296 645 274 151 2 46
295 650 274 146 2 44
295 655 274 98 15 37
303 645 282 148 1 46
300 650 280 142 1 42
297 655 278 81 18 35
456 750 260 71 56 45
303 650 283 143 0 44
393 901 267 67 59 58
444 814 314 180 115 88
302 655 283 142 1 43
289 660 265 120 17 41
291 660 269 65 22 33
421 740 345 183 130 100
290 665 269 32 27 29
443 812 326 202 134 107
270 725 276 125 63 56
289 670 270 44 28 31
293 657 272 57 17 25
361 855 224 60 52 51
294 660 275 36 28 30
474 834 308 83 70 56
321 890 264 56 51 51
297 660 279 53 24 31
292 665 274 35 28 30
379 924 352 54 48 46
294 664 276 32 28 29
296 665 279 82 24 38
293 667 277 38 34 35
293 671 278 40 30 32
301 660 284 139 2 42
298 662 282 138 3 40
298 666 283 137 6 39
300 665 285 135 1 40
302 665 288 136 0 41
301 670 289 119 10 40
297 833 241 91 69 62
298 672 287 43 20 28
305 645 285 148 1 45
307 646 288 149 2 46
321 876 343 147 112 107
438 744 341 168 112 80
304 655 286 143 0 44
307 655 288 145 0 44
310 645 290 150 2 46
312 645 292 151 3 46
312 655 293 142 3 44
316 645 295 116 14 42
319 643 296 56 19 22
316 650 295 52 26 32
318 655 297 143 13 47
305 665 290 138 0 43
309 659 291 145 0 44
307 666 292 140 0 43
310 670 295 137 2 42
315 660 295 146 2 45
443 812 233 90 72 57
314 664 296 144 1 45
317 660 297 146 2 45
321 660 300 144 2 44
320 665 300 148 2 46
416 770 224 50 40 39
319 669 301 140 5 43
321 670 303 139 8 45
383 849 291 58 36 31
289 674 270 86 32 41
387 925 269 80 67 64
288 676 272 95 27 47
289 678 276 38 28 30
291 680 284 76 27 36
449 770 332 174 117 84
294 673 281 53 27 29
297 676 288 99 14 35
294 678 286 110 12 37
288 682 282 39 31 32
391 831 305 45 39 40
289 684 285 41 31 33
292 681 288 79 19 29
292 920 309 165 127 103
331 645 304 46 27 32
292 686 292 91 12 36
294 683 291 113 3 35
327 885 259 40 37 39
296 685 294 123 2 37
300 675 290 118 8 38
371 930 354 53 49 48
301 680 294 127 1 39
385 915 260 74 62 58
406 535 389 172 121 92
303 672 292 132 1 40
351 970 274 81 78 81
297 681 292 125 1 39
302 686 298 122 0 37
290 694 295 62 24 30
296 691 298 126 1 39
314 900 244 59 53 53
292 692 297 121 4 35
296 695 300 127 1 38
290 699 301 127 2 38
297 697 302 124 0 37
294 698 301 129 1 40
407 905 309 52 42 35
296 700 303 127 1 39
296 705 305 137 4 42
415 655 269 94 27 37
301 690 299 122 0 37
328 828 231 72 55 50
300 694 301 122 0 37
301 695 303 127 2 38
301 700 305 131 3 41
356 850 315 135 107 78
305 679 296 129 1 39
306 681 298 131 3 40
346 800 220 57 47 44
311 680 300 130 10 42
316 775 303 68 56 49
312 685 303 125 7 40
316 680 303 61 24 32
396 635 309 133 23 44
381 760 333 69 60 56
317 676 302 34 27 28
313 682 302 132 10 41
319 683 306 37 25 29
368 795 207 74 58 49
318 686 307 89 30 40
305 689 301 131 2 40
306 695 304 127 5 39
311 690 304 106 13 37
306 705 307 142 4 43
311 705 309 146 5 44
320 695 311 107 20 39
397 565 383 180 125 101
316 700 309 63 23 33
258 710 272 160 113 90
261 710 273 150 107 84
258 715 272 160 114 90
258 720 272 161 113 90
261 720 273 154 108 86
266 710 274 133 90 71
300 915 279 57 53 54
271 710 275 108 56 49
266 715 275 135 89 71
270 715 276 121 61 53
258 725 272 163 116 92
281 815 278 150 117 96
261 725 273 157 110 88
258 735 272 165 117 94
402 835 237 65 53 50
261 735 273 161 114 91
272 725 278 129 43 46
266 730 275 143 95 75
270 730 276 127 63 56
272 730 278 134 44 49
273 710 277 117 38 43
277 710 284 143 9 44
278 710 288 145 8 44
278 715 287 153 2 46
277 720 284 161 3 49
441 535 319 39 28 33
278 720 288 160 2 49
278 725 288 165 3 50
274 730 280 141 20 45
274 735 281 145 16 46
280 735 289 96 21 40
280 770 217 124 91 55
279 715 290 153 2 47
279 720 290 162 4 50
334 872 257 40 34 37
280 720 294 154 7 49
281 710 294 144 7 45
282 710 298 136 9 43
286 710 303 117 11 40
282 715 299 147 8 47
282 720 299 167 7 52
284 714 301 67 26 30
286 715 304 120 13 42
286 720 304 162 5 50
279 725 290 163 9 53
279 730 290 122 16 43
281 725 294 74 21 35
286 725 303 145 10 46
282 735 293 85 27 38
284 735 296 135 28 50
283 728 297 93 34 41
285 730 299 111 32 46
286 735 299 63 29 34
314 957 277 79 75 77
288 734 302 65 22 30
261 740 273 162 114 91
261 745 273 165 116 93
261 750 273 169 121 95
351 785 218 60 49 44
272 740 278 137 43 50
272 745 279 138 41 50
266 750 275 143 99 78
270 750 276 123 74 59
272 750 278 132 59 55
257 765 273 163 123 93
261 765 275 164 122 93
266 755 275 146 105 81
266 760 275 142 104 79
273 754 277 120 79 59
266 767 277 145 112 83
271 764 276 102 72 48
276 740 284 143 3 44
278 740 287 152 4 44
322 847 310 91 72 51
280 740 289 106 24 43
278 746 287 138 8 42
275 760 279 129 96 73
274 760 276 113 68 44
281 750 289 74 44 46
278 760 283 37 34 36
283 765 287 66 54 48
283 745 292 40 29 32
374 963 308 74 69 68
459 706 298 83 64 44
285 740 295 68 30 37
285 745 295 102 29 42
287 740 299 58 30 35
283 750 292 66 47 47
286 750 294 85 53 53
288 748 297 72 29 36
287 759 292 74 61 54
286 765 290 70 58 51
291 710 305 147 5 45
296 711 307 153 4 47
292 715 307 158 4 49
289 720 306 168 10 53
296 715 308 162 5 51
296 720 309 172 11 55
299 708 306 146 4 45
301 710 307 154 4 47
302 706 307 141 4 43
351 855 218 76 65 62
301 715 308 173 3 53
331 860 340 163 131 99
416 803 209 86 67 53
301 720 309 183 10 58
291 735 305 170 17 55
440 520 304 89 29 39
290 725 306 175 15 56
292 725 308 168 7 52
296 730 308 82 21 36
411 565 354 94 63 39
296 735 307 118 19 43
301 725 309 180 14 57
301 730 309 75 22 37
301 735 308 43 29 33
306 710 308 156 3 48
311 710 309 156 2 48
306 715 309 171 0 52
306 720 310 181 5 57
311 715 310 165 0 52
291 815 280 58 48 43
311 720 310 171 3 53
320 710 311 134 11 45
456 790 265 73 56 47
316 720 311 161 4 50
321 720 311 121 11 41
431 690 300 78 27 35
306 725 310 175 6 54
311 725 310 162 10 52
306 730 310 123 19 44
306 735 309 48 29 32
311 730 310 118 25 45
311 735 310 48 30 32
321 724 311 136 7 44
402 635 358 184 133 108
319 730 311 38 24 28
321 735 310 57 48 43
289 741 301 55 26 32
419 802 231 84 64 52
288 738 302 50 24 28
291 740 304 143 22 51
292 745 303 81 24 37
289 752 296 75 61 55
343 875 228 69 60 59
301 834 240 92 70 61
427 610 284 138 20 46
296 745 305 134 29 52
293 748 302 62 50 48
314 827 281 185 138 114
296 749 303 75 58 54
296 751 300 79 65 59
294 736 306 172 14 54
309 952 278 76 72 73
296 755 298 80 66 59
408 857 307 40 36 33
372 856 233 58 51 53
289 767 291 72 59 52
296 765 295 75 62 55
301 755 299 78 64 58
300 752 301 80 66 60
302 753 302 74 62 57
299 766 296 76 62 56
306 740 309 76 39 43
376 954 324 55 51 50
306 743 307 68 56 52
306 746 306 69 57 54
310 750 306 69 59 54
346 845 315 133 105 77
316 740 308 69 58 52
321 740 309 64 53 47
321 745 309 65 55 49
316 750 308 66 57 53
306 754 303 73 61 54
306 760 300 75 62 55
308 758 302 73 59 52
306 765 300 75 61 54
396 640 334 172 126 108
309 762 301 73 60 52
310 766 301 72 59 52
482 735 284 84 63 46
312 765 302 72 58 51
316 765 304 70 58 50
315 756 306 68 57 51
316 760 305 69 58 51
321 755 308 64 56 51
318 759 307 68 57 51
321 760 308 67 56 50
319 762 306 68 57 49
451 790 309 137 89 61
325 645 301 58 29 34
328 646 302 57 23 32
325 650 301 86 22 39
327 650 302 112 18 42
331 655 305 103 17 38
429 883 286 80 67 63
335 645 306 32 28 30
330 660 306 130 5 38
329 664 306 138 5 44
400 580 354 144 100 84
331 665 308 83 14 33
411 590 375 178 122 91
332 661 307 127 3 38
336 660 308 119 7 37
328 667 307 142 7 48
328 670 307 142 13 47
337 670 312 92 25 39
337 646 307 27 25 28
419 591 345 130 100 67
341 645 308 118 19 41
341 655 309 117 19 43
346 650 310 33 27 29
346 655 311 93 19 37
350 649 311 35 24 28
352 651 312 95 16 35
421 814 234 54 43 36
351 655 312 148 9 47
391 710 335 40 29 29
403 700 342 166 120 99
341 660 310 108 13 38
338 666 312 121 12 38
341 670 315 42 28 31
393 887 257 77 63 59
345 669 316 40 28 30
352 667 317 36 27 29
325 675 306 89 24 36
336 675 313 59 27 33
333 677 312 96 15 29
331 685 314 61 28 33
337 686 317 72 26 34
436 544 333 179 13 58
322 695 312 127 16 43
326 690 313 45 27 30
478 734 272 81 61 44
322 700 312 41 24 31
326 700 314 107 22 43
452 695 283 62 48 37
330 689 316 74 29 36
332 691 317 51 26 30
331 695 318 35 28 31
336 690 319 65 26 32
335 695 320 37 29 31
329 700 316 26 27 31
329 706 316 67 25 31
341 675 315 61 28 32
339 679 316 38 25 27
379 783 201 65 52 45
341 680 318 41 28 30
331 885 227 71 63 62
338 682 317 65 34 38
341 685 319 42 28 30
346 675 318 99 23 38
351 675 320 112 18 38
356 645 311 83 25 35
356 655 313 142 7 45
361 650 312 45 27 31
361 655 314 116 15 39
364 643 311 113 34 47
366 645 312 95 19 36
367 642 312 50 24 29
366 650 313 55 23 29
366 655 314 106 16 39
356 660 314 146 5 45
361 660 315 142 4 43
361 666 318 117 8 38
269 812 232 189 128 98
373 643 311 116 1 35
386 828 307 47 36 39
371 645 312 109 8 34
375 646 312 110 1 33
371 655 314 112 9 35
456 886 298 88 77 69
376 655 313 109 3 34
378 648 311 105 6 29
342 853 330 135 106 76
381 650 311 78 15 30
381 655 312 65 19 28
371 665 318 132 3 39
376 660 314 113 1 33
377 664 316 112 1 34
371 670 320 132 4 39
376 670 319 120 2 36
381 660 313 97 5 30
376 674 320 122 1 36
382 678 320 93 1 27
343 687 322 60 32 35
349 679 321 77 23 33
345 684 321 36 29 29
348 682 322 34 28 30
351 685 325 84 24 36
370 787 207 78 59 51
341 700 325 80 27 38
340 705 325 60 29 34
343 700 327 116 23 43
394 785 206 72 55 44
343 705 327 42 27 31
350 689 326 119 6 37
352 691 327 127 3 38
351 695 329 129 4 40
346 700 328 112 15 39
346 705 330 34 28 32
349 703 331 58 20 27
427 650 329 135 98 66
351 705 333 69 23 34
362 672 322 128 13 42
365 785 203 63 51 44
370 672 322 130 5 36
356 675 323 57 27 32
361 675 323 96 22 36
361 679 326 54 28 32
355 684 326 52 25 30
353 687 327 135 9 41
356 686 327 104 16 38
362 681 327 60 22 28
361 685 329 98 15 36
366 685 330 127 6 39
360 689 330 127 2 39
361 695 334 128 1 40
353 697 332 129 1 40
374 953 271 72 65 66
356 700 334 134 4 41
401 900 284 64 56 55
359 703 336 143 5 45
367 696 337 131 5 41
311 836 270 165 120 96
362 701 337 137 5 43
366 705 340 146 5 45
371 675 323 127 4 38
351 976 284 63 60 62
371 679 325 131 3 39
376 680 324 127 2 37
371 685 330 128 2 37
