ply
format ascii 1.0
comment Created by Open3D
element vertex 2238
property double x
property double y
property double z
property uchar red
property uchar green
property uchar blue
end_header
388 724 240 83 56 45
389 729 235 75 55 42
388 734 236 71 50 42
389 734 240 78 50 43
389 724 245 85 57 45
274 804 291 182 135 114
390 724 255 95 59 45
389 729 255 86 60 49
274 975 295 69 65 65
300 792 165 50 43 36
389 734 245 79 52 45
514 928 201 107 92 79
389 734 255 79 55 44
389 734 250 82 57 48
314 654 324 88 26 40
334 579 340 53 25 29
400 724 255 95 72 49
395 730 256 95 70 46
394 735 250 86 63 44
393 733 254 91 66 44
406 719 241 97 76 57
414 709 240 80 60 45
406 710 250 99 77 59
449 920 245 82 67 57
353 814 226 70 58 53
406 711 254 98 73 52
278 846 238 102 71 59
409 714 241 83 63 47
405 715 246 96 77 59
402 574 270 173 13 45
406 716 242 91 74 58
405 714 250 97 74 53
366 871 342 41 38 37
404 719 250 99 75 53
403 719 255 104 75 50
407 712 248 93 77 62
410 710 241 80 61 46
413 706 244 87 67 53
414 714 241 75 54 39
416 714 245 82 61 46
345 565 325 44 26 32
413 719 241 73 51 39
414 714 255 85 61 50
415 719 255 84 58 49
409 724 240 87 62 43
406 724 242 100 74 54
406 727 242 94 69 46
403 724 250 99 75 50
401 725 251 93 70 48
339 919 290 67 59 59
401 730 247 88 62 46
399 918 305 76 64 56
396 778 248 67 53 45
404 734 246 79 56 44
376 713 285 71 41 38
408 733 246 86 62 46
409 734 250 82 59 46
411 726 243 81 58 43
413 724 245 79 55 42
412 727 246 80 54 43
381 765 503 156 121 109
409 834 260 73 59 52
350 896 263 64 59 58
414 724 250 85 59 48
413 729 255 83 51 43
388 739 240 70 51 43
386 741 240 66 52 43
399 874 354 85 65 50
389 743 240 69 51 41
391 749 238 58 47 40
393 744 241 64 49 40
389 739 245 77 57 47
386 742 244 64 50 41
388 742 244 71 54 43
379 870 353 56 46 39
394 739 245 73 52 42
276 972 267 72 68 70
395 744 243 67 51 44
422 727 420 190 127 103
419 874 335 63 50 44
399 739 247 72 54 44
261 904 221 66 61 62
291 954 345 57 51 50
377 545 300 32 28 32
394 737 248 75 51 40
394 744 256 65 47 39
388 754 231 66 50 42
390 754 235 61 49 42
399 893 207 114 89 61
391 752 238 55 45 39
388 769 231 67 52 45
391 764 234 68 52 44
393 754 240 56 45 39
306 817 193 59 52 50
392 756 237 55 45 38
394 759 240 55 45 41
325 839 195 62 58 58
392 764 236 63 50 43
438 694 380 154 109 75
396 754 244 62 48 43
398 754 250 71 56 48
395 769 245 61 50 46
434 859 340 75 47 56
389 564 287 93 18 35
399 764 255 76 59 44
403 738 247 76 54 45
268 865 328 151 120 87
261 570 303 35 29 30
402 742 247 79 62 51
407 737 249 78 56 44
309 943 353 64 57 54
404 744 255 72 55 46
401 746 248 75 59 48
402 747 252 73 57 46
403 748 256 79 62 48
336 916 280 75 69 66
401 750 254 77 61 50
402 765 256 74 57 43
417 710 242 85 66 49
417 713 244 83 62 47
258 512 302 44 24 26
469 852 331 90 71 60
259 514 303 69 27 34
259 519 303 60 26 32
344 794 219 58 49 48
262 517 303 157 20 52
264 519 301 140 17 46
258 523 303 59 28 30
384 891 266 63 52 51
264 524 299 114 13 39
269 514 300 138 14 44
328 825 201 57 55 58
267 512 303 157 22 55
268 518 299 119 13 41
270 520 296 68 17 27
271 516 297 78 16 31
314 922 363 62 55 51
267 522 298 115 7 39
266 525 297 92 1 27
264 534 300 91 4 28
330 895 349 35 32 32
259 539 301 94 2 29
264 540 304 100 7 32
269 530 299 76 14 28
334 885 295 35 33 34
268 533 301 71 21 29
264 544 306 130 10 41
274 519 294 40 22 26
275 514 296 86 8 30
279 514 295 39 22 26
274 524 294 62 17 27
354 889 350 47 39 35
274 528 296 62 23 28
276 521 292 33 27 25
278 522 292 69 19 32
394 889 360 92 75 67
314 794 305 67 56 52
279 524 295 46 25 28
277 527 296 33 26 24
279 525 300 32 27 27
280 525 305 57 22 31
284 514 295 37 24 27
262 869 258 133 104 77
414 905 245 88 73 67
284 519 300 37 26 28
267 552 303 151 14 47
289 515 300 42 27 30
285 520 305 77 17 30
282 522 296 34 26 27
349 883 346 41 35 33
282 522 300 33 27 27
283 523 306 87 15 34
285 524 308 140 9 43
286 521 308 124 9 37
289 519 309 133 10 42
406 727 462 121 99 75
428 723 334 198 127 100
289 523 308 148 12 47
285 530 306 138 11 45
275 530 304 66 21 30
417 864 187 90 77 75
274 534 306 118 13 39
280 539 301 113 6 35
339 574 345 71 19 30
279 544 301 118 7 36
279 534 306 148 14 47
345 745 327 56 26 33
285 535 301 105 4 32
286 531 302 104 3 29
398 544 288 37 27 28
391 514 345 74 25 35
284 544 301 71 20 32
386 711 261 109 59 43
258 558 304 155 16 49
259 554 305 163 15 52
259 560 302 146 15 45
354 898 356 51 43 38
262 557 303 154 15 48
265 555 302 149 14 44
429 669 322 101 82 62
270 550 302 144 13 43
269 554 301 143 12 44
270 560 303 136 9 41
259 569 301 46 28 31
336 544 308 54 26 29
263 564 302 130 15 42
262 567 302 93 22 35
306 876 219 71 68 68
354 794 306 59 47 44
264 569 304 40 27 30
434 694 310 120 91 59
269 564 304 132 12 42
271 575 308 96 33 41
279 549 301 126 6 39
279 559 305 88 17 33
284 548 302 49 22 28
347 602 338 188 6 60
281 551 303 112 6 33
288 547 302 40 27 27
387 608 265 119 30 44
289 549 304 48 22 28
289 554 306 68 21 30
274 564 305 114 14 38
274 569 307 116 11 37
278 563 307 79 24 36
279 569 309 114 12 37
347 519 320 64 24 33
393 723 270 109 73 54
280 565 308 36 26 28
275 570 308 130 12 43
272 573 307 96 26 41
397 727 258 93 70 47
274 574 309 92 22 37
282 562 307 43 28 26
284 564 309 56 24 31
284 569 310 107 17 38
285 561 308 30 27 30
289 573 312 65 22 29
285 576 313 101 19 37
292 512 296 52 24 29
290 515 305 57 27 32
269 879 220 40 37 38
291 526 302 102 0 33
295 520 306 106 8 33
293 529 299 85 5 28
279 905 209 86 78 82
430 769 270 121 88 68
299 519 300 67 12 26
363 719 315 122 15 40
303 513 304 87 3 26
304 514 300 73 6 25
303 518 298 74 7 25
298 523 298 26 23 24
296 521 302 62 14 24
295 529 297 53 20 27
300 525 297 30 23 24
304 524 296 79 11 28
303 958 266 81 74 76
304 529 296 47 21 27
349 759 320 89 57 56
294 514 309 51 25 31
292 522 308 136 9 44
299 513 309 122 12 41
293 535 298 82 15 31
479 909 205 92 78 65
304 534 297 51 23 28
304 544 301 39 25 28
344 890 300 35 33 34
309 524 296 100 1 31
384 794 309 176 129 102
399 764 460 189 131 114
314 519 296 100 1 31
319 519 296 104 2 33
306 941 337 71 60 64
314 524 296 103 2 32
314 533 297 76 20 32
314 539 299 69 22 30
314 573 312 53 19 28
294 546 303 90 18 35
294 549 304 77 16 31
298 546 303 46 22 24
360 709 316 119 9 37
299 549 304 47 25 29
410 770 311 182 121 94
296 838 292 158 121 95
304 549 303 47 25 29
347 752 323 91 27 38
294 554 306 40 24 28
304 560 308 34 27 27
294 559 308 30 26 28
410 690 315 121 84 67
352 883 242 58 48 48
299 554 306 28 26 27
294 569 312 73 26 33
408 839 259 73 57 51
292 572 312 89 21 35
294 574 313 72 21 31
267 887 243 49 46 47
299 564 310 34 26 28
399 781 478 215 161 157
299 569 312 42 25 27
304 564 310 49 27 30
339 888 295 36 34 36
304 569 312 46 27 29
300 571 313 49 24 24
304 571 313 65 26 32
314 550 303 43 26 28
319 547 302 31 27 28
314 554 305 50 26 27
314 558 307 73 21 33
315 879 226 57 52 53
314 560 308 70 17 28
356 673 307 69 22 28
493 914 182 99 85 73
319 554 305 43 25 27
309 569 312 34 25 27
309 574 313 28 26 28
407 707 293 102 77 49
339 849 230 49 45 45
314 564 310 77 14 29
314 569 311 77 15 29
319 561 308 87 9 30
411 744 453 188 128 98
356 635 306 176 7 56
319 564 309 92 3 29
319 573 312 100 2 32
339 824 225 60 50 51
319 575 313 100 4 33
256 580 303 31 26 30
330 844 215 60 55 55
372 638 284 175 14 52
259 584 304 54 28 31
259 589 304 43 29 32
264 579 306 39 29 31
264 589 307 41 30 32
268 579 307 64 31 35
266 586 308 49 24 29
266 589 308 43 29 32
269 589 309 57 28 33
307 907 328 33 32 36
352 553 340 45 27 30
259 599 304 113 26 45
259 609 304 66 30 35
259 594 305 41 29 33
264 594 307 41 28 32
264 609 306 43 28 30
266 594 308 37 27 30
304 963 345 57 50 46
269 594 309 30 28 31
369 834 249 71 58 53
322 592 320 93 0 30
267 604 307 75 19 35
267 607 307 30 29 31
274 584 310 42 29 30
405 559 269 142 19 41
397 587 267 180 14 46
337 813 222 54 46 48
344 810 297 57 48 45
279 579 311 118 13 39
278 584 312 91 24 39
274 589 311 37 29 30
278 589 312 63 21 29
281 580 313 136 7 42
283 577 312 127 15 42
284 584 314 131 3 40
289 579 314 118 5 35
274 594 311 57 27 34
280 594 313 133 5 40
280 599 313 126 1 38
441 677 323 117 91 60
284 614 315 50 23 29
278 604 312 117 8 37
280 604 313 121 4 37
277 609 312 37 25 27
385 759 504 133 104 88
284 604 314 116 1 36
259 614 304 85 28 38
259 619 305 43 28 30
262 618 307 39 27 31
264 619 309 55 27 31
261 620 308 103 45 50
345 874 239 65 53 50
260 624 308 78 25 36
382 539 293 159 9 50
360 955 383 87 69 52
271 869 252 123 97 73
514 926 201 104 90 79
264 624 309 94 20 37
339 934 320 74 66 64
266 610 308 43 29 30
269 614 310 44 28 30
269 624 311 113 9 37
333 931 357 99 89 82
257 628 307 75 20 31
260 639 314 146 12 45
261 635 313 56 21 28
353 883 328 64 55 48
262 632 312 40 26 27
268 627 312 69 21 29
269 629 315 49 24 28
309 604 340 54 27 31
271 626 313 112 6 34
270 630 319 52 24 28
266 636 318 64 18 27
292 857 188 81 65 54
274 614 312 46 23 29
375 529 310 145 16 47
277 613 312 31 26 28
376 529 315 147 16 47
279 614 313 63 23 33
273 619 312 121 7 38
275 620 313 113 6 36
274 624 314 92 13 33
279 619 314 106 11 35
284 619 316 77 17 32
256 972 294 69 64 63
314 839 184 81 65 57
282 622 317 55 22 28
272 627 316 89 14 32
275 626 319 71 21 28
294 579 314 73 20 30
294 589 314 66 18 29
411 719 338 183 126 103
299 584 314 31 26 27
304 579 314 51 25 29
290 966 264 87 83 85
304 584 313 48 23 29
299 589 314 42 23 28
288 814 195 75 60 50
304 589 314 100 9 34
299 594 314 94 10 34
299 599 314 106 1 33
304 594 314 108 2 33
299 609 316 38 26 29
304 604 316 73 18 31
431 726 327 196 128 102
309 589 313 108 5 33
344 834 280 44 38 35
314 579 313 48 22 30
258 854 270 140 107 79
314 584 313 66 16 31
319 579 313 106 2 34
319 584 313 112 0 35
319 589 315 118 1 36
309 594 314 109 1 34
314 598 316 105 0 33
319 595 320 91 0 30
291 616 319 57 22 29
293 613 317 76 17 32
454 755 272 103 83 64
315 934 255 82 73 72
294 614 320 52 24 30
297 612 317 32 28 27
280 625 324 77 23 33
285 620 325 45 27 29
289 619 330 54 27 31
324 908 361 44 39 38
285 624 329 94 24 39
289 624 331 109 29 44
276 630 323 56 28 32
279 629 325 79 27 35
377 539 310 33 28 32
273 634 322 100 25 39
273 639 322 157 15 50
279 639 324 113 20 43
283 629 327 117 29 46
285 629 328 143 27 49
284 634 326 96 26 41
269 799 210 63 50 45
299 623 334 106 26 42
289 634 326 88 35 42
289 639 324 69 29 36
303 608 325 51 23 28
499 924 202 97 82 69
302 607 330 35 31 31
396 904 247 91 74 70
305 605 330 43 26 31
263 845 250 193 137 101
385 720 270 97 54 44
303 608 335 38 30 31
305 605 335 40 29 32
310 600 335 72 15 29
305 605 325 68 16 29
292 920 347 40 38 39
310 601 325 84 2 28
414 850 355 61 49 39
319 594 325 90 0 29
317 597 324 90 0 35
369 893 295 67 61 58
314 598 330 85 0 29
316 596 331 86 2 29
319 594 330 88 1 31
406 561 273 166 14 45
447 862 336 88 67 54
319 593 335 85 2 28
376 543 300 37 26 31
306 606 339 53 28 34
304 609 340 65 27 34
308 609 342 139 23 49
310 605 343 47 27 32
310 608 343 109 23 42
316 596 340 82 10 30
324 679 324 61 22 31
315 599 344 48 30 32
318 593 340 83 7 28
397 886 312 67 59 57
364 922 295 74 67 63
319 594 345 56 27 30
318 599 346 54 29 32
312 602 342 37 28 30
413 763 314 183 120 92
292 919 350 41 39 39
314 604 345 47 30 33
424 694 305 111 87 59
314 608 344 111 30 45
294 614 325 46 24 29
295 615 334 79 25 35
389 874 356 70 56 45
291 620 333 75 27 35
292 617 332 69 19 26
294 619 335 98 25 40
290 932 236 80 76 78
299 750 321 79 64 58
300 610 325 35 28 31
282 816 213 55 47 45
298 612 324 35 28 31
298 613 336 59 28 36
371 719 297 86 29 35
299 619 336 142 28 52
304 620 336 106 31 44
304 617 338 120 35 48
294 625 332 143 29 53
294 629 329 66 30 35
385 569 287 53 26 32
386 754 314 163 117 97
319 768 318 75 62 57
294 634 326 62 32 38
296 632 328 95 32 44
329 919 365 67 60 56
299 629 329 91 33 41
299 634 326 64 30 35
384 922 288 60 52 48
304 635 326 87 35 43
299 632 328 94 35 42
304 632 328 115 34 47
309 623 334 43 29 32
314 620 336 35 29 32
314 625 332 45 31 33
317 862 216 62 60 60
319 622 333 72 30 38
319 625 331 99 25 39
314 611 342 157 27 56
319 611 342 63 25 30
319 617 338 109 41 52
309 634 326 71 30 38
396 590 269 164 16 45
316 631 327 121 22 41
314 634 326 109 30 45
286 833 215 56 47 45
319 639 323 50 30 32
348 887 329 66 58 52
328 514 297 63 23 32
332 947 347 117 107 98
327 519 297 87 10 32
324 529 298 105 8 33
327 522 297 110 6 34
366 662 292 35 28 31
325 525 298 100 8 32
417 529 275 96 31 41
333 529 301 117 3 36
324 534 299 61 19 31
324 539 300 37 26 27
378 618 294 125 32 51
324 544 301 62 22 28
328 544 302 69 22 31
333 534 302 114 6 34
335 534 304 121 0 37
332 538 302 81 16 34
334 544 305 40 27 28
385 754 461 154 111 98
401 886 212 96 77 62
338 514 302 94 20 35
340 514 304 93 19 36
336 524 303 62 20 29
418 739 470 164 127 99
269 963 330 53 50 49
339 524 305 60 21 30
269 804 289 174 129 111
342 514 307 39 25 30
342 519 307 95 19 36
344 519 310 93 21 37
344 524 310 95 16 35
343 529 310 106 9 37
414 759 264 88 65 48
346 519 315 62 24 32
482 904 179 105 87 69
346 516 318 39 25 29
347 520 316 76 27 35
346 524 314 51 27 29
344 529 315 72 25 35
345 530 320 65 26 34
340 530 309 128 0 38
483 832 354 81 62 49
339 534 310 128 0 39
342 532 312 125 2 41
340 539 315 134 1 42
413 818 260 71 56 50
339 544 315 127 5 41
341 539 318 135 0 42
344 544 319 94 12 32
324 549 303 43 23 27
379 743 291 52 44 35
327 547 302 100 14 37
358 612 323 73 23 33
329 549 304 101 12 35
329 554 305 74 21 31
333 549 306 48 24 28
282 900 328 120 88 71
428 917 251 71 57 46
335 549 310 90 19 34
336 550 314 127 9 42
384 529 355 94 29 41
330 559 310 55 23 27
331 556 308 83 24 43
334 554 310 82 23 36
332 558 312 76 26 33
323 561 308 90 10 28
324 564 309 98 3 30
334 589 354 172 16 56
328 573 312 117 0 37
399 718 275 108 81 48
364 819 299 156 116 92
331 560 313 98 14 34
331 564 313 132 7 45
302 886 310 83 68 55
330 569 313 141 0 43
334 569 314 113 5 36
371 776 307 159 108 80
330 574 314 138 0 43
465 903 200 108 87 65
334 574 315 121 0 38
337 548 311 112 18 38
295 839 190 77 63 53
340 549 318 118 5 38
334 700 333 106 6 33
400 886 342 66 54 54
344 550 317 39 22 27
344 554 314 58 19 30
404 715 286 101 78 50
349 546 317 45 27 28
341 571 325 50 25 31
259 973 295 60 55 53
351 550 319 44 28 30
350 554 320 58 25 32
339 564 313 42 23 24
340 564 312 35 22 27
341 561 312 33 22 27
342 562 312 41 22 31
343 568 316 100 4 32
339 574 316 101 1 32
366 702 302 115 9 31
379 859 275 58 49 46
352 642 308 155 14 48
354 821 207 56 52 53
347 562 317 83 41 29
347 562 320 87 27 37
272 832 287 153 118 92
306 879 223 72 66 66
373 514 305 60 27 32
374 524 305 135 16 45
375 524 300 119 16 42
384 519 294 77 25 38
378 514 298 53 28 32
401 815 258 71 57 48
380 519 297 45 26 32
383 524 294 153 14 48
485 933 240 94 82 72
377 529 298 122 15 42
372 514 310 51 28 30
307 869 288 86 67 55
373 514 315 47 26 33
374 514 320 45 29 31
373 519 315 52 26 33
374 519 320 51 25 31
374 524 310 38 25 31
375 524 320 114 19 43
274 842 297 128 104 79
375 534 305 76 22 34
259 714 325 155 12 49
382 534 293 156 7 47
381 890 363 74 62 51
385 534 292 158 4 50
379 539 295 151 13 47
384 544 290 133 15 45
325 944 343 60 59 64
381 545 292 156 14 49
382 542 293 157 11 49
492 931 219 99 86 74
376 539 305 37 29 33
376 543 297 72 22 34
376 542 303 52 30 32
421 726 409 200 131 107
377 544 305 84 32 40
376 534 310 84 24 36
377 531 320 151 14 44
370 654 285 75 28 37
304 919 364 54 49 48
376 532 314 138 17 51
377 534 320 129 21 44
377 541 306 55 30 33
378 544 310 56 28 36
378 539 320 53 27 33
353 544 320 93 16 37
352 549 320 59 24 30
394 569 285 140 15 45
259 774 195 49 42 40
378 549 295 129 19 45
380 549 292 90 19 38
384 549 289 36 26 31
377 549 300 42 27 33
378 549 305 38 29 34
378 554 295 96 24 40
355 862 282 42 38 36
300 864 296 136 107 85
380 554 291 37 28 32
378 559 295 64 29 34
420 714 289 101 79 55
384 554 289 56 26 33
284 714 328 86 26 38
380 559 305 58 32 38
379 549 315 34 28 34
381 559 310 63 32 37
379 554 320 86 27 39
381 559 315 75 31 39
279 642 323 100 22 39
379 559 320 114 27 44
380 564 291 104 24 42
378 564 295 120 26 45
380 569 291 77 32 40
380 564 305 65 29 35
379 569 300 70 29 39
381 569 305 43 28 33
399 519 290 109 1 33
380 574 295 40 27 32
381 574 291 44 29 32
381 564 310 72 34 40
381 569 310 70 32 36
378 569 320 105 30 45
381 564 315 70 32 39
381 574 310 145 27 51
348 519 325 95 25 39
349 524 325 78 21 34
347 528 321 85 16 31
349 534 324 88 12 33
349 540 322 82 15 28
351 556 335 104 12 37
349 559 335 65 25 32
351 556 340 37 29 31
351 556 346 68 27 36
351 556 350 49 24 30
282 894 202 85 74 73
339 574 325 84 13 33
339 574 330 81 15 34
279 869 215 34 29 32
340 574 335 39 30 33
341 571 333 32 29 30
338 654 318 126 16 42
353 587 348 172 13 55
347 562 325 56 25 33
347 563 330 33 28 32
347 563 335 35 29 30
334 860 228 57 51 54
343 569 345 57 26 34
394 769 506 170 122 107
338 573 350 78 17 30
341 571 346 67 23 31
346 565 345 42 31 31
347 562 350 65 22 35
418 759 310 185 120 94
348 559 355 81 16 29
378 759 307 120 87 68
348 559 360 92 22 35
345 564 360 52 27 31
340 570 355 49 27 30
336 576 354 58 21 30
293 894 210 80 74 75
341 570 358 70 29 31
344 574 360 71 32 38
350 564 363 79 24 35
350 567 363 75 19 30
354 514 331 56 23 29
327 587 330 96 0 32
355 512 333 47 23 29
384 899 340 59 50 48
354 519 330 64 20 29
359 515 331 44 23 26
360 513 333 50 23 29
319 949 350 53 46 41
359 519 330 68 22 32
358 529 326 82 18 31
349 654 309 127 16 42
360 529 330 47 26 28
363 514 335 77 20 33
414 709 375 179 119 97
362 519 332 82 19 33
363 519 335 79 12 32
362 524 335 68 22 30
361 526 333 80 31 37
361 529 335 75 22 35
399 754 324 189 133 107
362 528 336 99 22 43
364 514 340 41 25 28
366 514 350 42 25 31
362 529 340 75 21 36
363 524 350 72 24 34
362 529 350 63 19 30
354 534 324 60 21 30
358 534 326 94 20 35
297 924 236 82 77 81
360 534 335 49 28 30
353 540 322 66 21 32
358 539 335 49 25 30
359 539 340 82 20 34
264 699 324 138 9 43
258 936 238 87 78 79
361 531 339 67 27 36
361 534 345 40 28 30
362 532 346 56 25 32
524 954 220 102 86 71
361 534 350 82 16 31
375 519 325 132 18 47
284 824 288 158 122 100
394 749 450 172 120 100
376 524 325 151 13 47
376 529 325 151 12 45
378 519 331 149 14 44
377 524 331 154 15 44
376 525 329 155 12 46
396 586 264 181 14 47
298 957 262 80 75 76
376 529 330 158 12 46
377 529 332 159 14 45
385 525 339 147 13 40
376 533 330 163 13 48
379 534 335 158 13 44
400 774 254 60 47 38
311 779 208 49 44 45
378 539 325 61 25 34
360 863 282 43 39 37
378 544 325 62 31 37
376 544 331 155 19 50
377 544 335 161 14 46
381 530 338 152 13 43
380 539 339 136 13 43
383 539 341 107 21 39
384 539 345 65 28 33
386 730 261 82 58 44
401 882 373 105 82 60
382 544 342 92 23 39
381 545 351 99 31 42
449 910 218 107 87 71
382 544 349 73 29 36
276 869 246 77 59 52
363 519 360 87 12 32
365 514 355 32 29 29
363 519 365 70 17 31
363 524 355 50 25 30
433 915 231 89 75 61
363 524 360 96 17 34
471 746 275 101 77 58
287 829 205 57 49 46
362 529 355 52 22 30
362 528 360 51 24 31
349 649 310 154 14 49
365 514 369 40 27 29
369 514 371 42 29 30
411 709 380 174 117 97
364 529 369 44 27 28
369 524 371 96 27 41
359 539 360 66 19 31
360 539 365 53 23 31
394 913 260 76 66 60
359 544 365 49 27 28
361 530 360 63 19 32
361 534 355 108 6 36
361 534 360 82 18 33
402 718 260 109 77 53
362 534 367 42 30 24
370 539 366 47 29 34
368 544 365 129 16 46
368 538 368 99 25 43
376 525 367 65 29 32
379 514 365 137 17 46
376 520 367 101 32 45
381 516 362 118 20 42
381 519 362 98 23 38
383 524 359 99 25 40
385 524 355 72 24 35
380 524 361 136 24 46
374 514 370 48 28 30
377 513 368 88 20 37
371 536 367 44 32 33
309 900 230 65 60 61
374 534 365 95 29 42
370 545 362 179 16 57
383 534 354 112 27 44
381 535 357 134 31 50
377 532 363 51 24 29
380 539 355 80 29 37
377 538 359 60 23 29
379 544 355 107 28 42
376 545 357 149 17 47
382 538 353 94 30 42
424 677 375 105 88 70
385 534 350 143 25 49
264 737 318 173 23 59
381 541 352 53 28 34
353 549 325 62 27 33
329 774 315 80 63 60
352 552 325 65 23 34
355 549 340 76 20 34
355 549 350 77 17 31
364 574 351 186 1 59
369 569 350 183 2 58
378 549 325 52 29 34
434 714 310 157 106 75
349 879 340 41 35 34
377 549 330 51 30 33
378 549 335 88 24 39
378 554 325 116 29 45
376 559 331 96 27 39
375 559 351 179 6 56
354 890 255 58 51 49
380 549 340 132 18 43
380 549 350 104 30 43
382 547 348 149 31 58
381 554 345 170 17 53
378 558 349 178 10 55
294 664 323 127 19 45
376 556 352 178 10 55
370 689 270 45 32 33
377 569 325 74 33 40
377 564 330 82 30 39
320 935 264 85 74 71
377 569 330 68 32 38
377 569 335 110 30 43
380 584 295 79 26 40
376 575 322 124 33 48
377 573 325 50 30 34
365 659 295 45 29 31
422 722 400 203 134 107
377 573 330 86 33 40
376 574 335 127 29 48
370 565 352 184 0 58
374 564 350 181 4 57
376 565 346 180 8 56
473 907 201 95 82 69
375 569 345 183 13 57
354 619 320 163 17 54
319 869 180 96 86 79
373 568 348 182 5 58
376 570 340 57 27 36
375 574 340 55 25 35
373 573 344 185 13 59
370 575 346 188 5 59
378 564 340 155 18 51
300 919 363 53 48 47
377 564 345 180 11 57
377 567 343 173 19 56
356 546 355 86 15 34
356 546 360 59 26 27
356 550 364 54 27 29
409 694 380 158 114 96
358 549 366 63 26 33
284 840 229 68 56 52
355 554 364 41 28 31
359 554 366 43 28 31
359 559 364 133 23 48
368 548 364 163 12 50
369 549 360 182 9 56
361 635 302 178 4 57
367 558 358 181 7 57
369 559 356 183 3 57
364 559 360 170 12 55
464 900 200 101 84 67
390 907 270 95 74 63
363 554 364 93 25 40
362 558 363 97 21 39
362 547 368 82 19 37
354 564 364 149 17 51
293 745 321 79 63 57
353 567 363 118 20 42
358 563 363 183 12 58
396 794 248 59 46 40
356 566 362 182 15 59
354 573 359 181 12 58
354 575 356 186 8 59
431 703 304 116 87 56
302 877 199 97 89 100
360 570 356 185 1 58
357 572 358 185 6 58
363 564 359 182 6 57
365 564 356 184 1 58
314 949 340 87 82 84
362 567 358 184 2 58
366 561 357 183 4 57
314 869 175 86 75 70
361 561 362 176 17 55
360 576 352 187 3 59
363 573 353 185 0 59
372 548 358 175 11 54
423 804 260 88 65 54
374 549 356 133 22 47
373 558 354 181 5 57
378 548 354 92 24 38
321 577 312 104 0 31
324 580 313 104 0 32
329 584 315 111 0 35
426 722 293 109 80 55
324 589 316 109 1 32
325 590 320 93 0 31
328 587 316 99 0 35
499 934 235 96 82 70
334 579 316 108 0 34
335 580 320 100 0 30
322 593 316 99 0 30
337 578 316 100 0 33
349 624 320 174 14 56
344 629 319 83 26 39
340 639 317 120 28 44
416 691 307 103 79 48
344 634 316 167 16 55
377 628 265 94 33 40
274 929 354 49 45 44
344 639 315 105 24 43
341 636 317 98 21 39
281 865 225 43 40 41
463 900 216 96 80 63
346 631 317 130 25 49
349 629 316 150 16 51
351 626 317 167 12 53
432 671 358 107 88 66
350 635 312 178 10 57
347 638 313 177 14 55
368 608 319 57 28 34
286 946 253 79 76 77
380 579 295 89 31 42
390 545 287 93 25 37
381 579 300 80 27 36
381 584 305 133 27 48
381 587 292 63 18 29
381 589 295 107 25 43
382 590 294 53 21 29
381 589 300 61 28 36
377 579 319 49 29 33
434 908 240 86 68 58
377 583 319 43 30 34
380 589 310 135 30 51
348 592 348 188 9 58
299 961 347 67 60 56
376 584 321 59 30 36
376 590 317 167 29 57
384 594 290 57 25 34
289 864 185 105 86 71
384 599 290 132 27 50
382 599 295 103 20 42
381 594 300 147 18 49
380 594 305 103 27 41
381 599 297 166 15 52
381 599 300 170 14 52
380 599 305 177 16 56
384 604 290 157 17 48
382 604 294 163 13 50
382 609 294 105 18 38
378 604 305 186 7 59
379 609 300 176 13 56
408 709 336 163 113 93
290 884 315 130 98 74
376 594 316 129 31 48
269 853 315 121 95 66
374 594 320 99 29 41
373 599 320 87 32 43
369 604 320 43 29 31
333 902 252 71 63 63
369 609 315 93 25 39
371 605 316 69 28 35
372 608 313 183 20 61
379 594 310 63 26 32
378 599 310 152 16 50
261 773 190 49 43 42
377 593 314 75 27 35
377 603 309 186 10 59
376 606 307 187 7 58
375 610 306 185 9 57
384 614 260 120 30 46
379 624 265 42 32 37
382 618 260 65 31 37
420 918 260 95 79 66
385 614 265 143 25 48
382 618 265 53 32 38
458 755 272 103 82 63
383 619 270 73 28 37
381 621 270 75 33 39
385 609 285 171 18 57
339 864 285 37 34 34
384 614 285 89 27 39
382 622 275 171 17 51
390 765 490 158 110 97
431 913 241 85 68 48
380 620 286 59 29 34
375 629 260 127 35 48
469 923 233 103 85 69
371 636 258 172 49 70
308 902 231 64 59 62
370 639 260 111 29 43
371 640 264 154 29 50
304 922 363 60 56 55
404 873 354 84 62 50
372 638 261 144 32 50
329 849 272 40 31 28
374 634 270 59 33 38
422 727 428 193 129 103
403 814 285 168 113 85
377 627 260 70 29 35
376 631 270 68 36 39
372 639 275 166 23 50
371 636 287 177 11 56
371 640 286 171 12 53
430 714 405 192 132 105
373 634 285 164 17 52
378 629 275 121 27 45
378 628 280 157 22 50
367 623 304 188 3 59
349 589 349 139 21 49
354 624 315 182 8 57
359 619 315 169 13 55
409 739 331 198 139 113
358 623 314 182 7 57
360 624 311 183 3 58
364 614 315 118 23 44
361 616 317 94 21 38
363 613 319 77 31 38
366 611 316 72 29 36
369 619 305 189 7 59
267 766 302 77 62 57
416 703 344 159 101 83
364 624 305 185 0 59
363 618 314 176 14 57
359 634 305 178 4 56
358 639 304 174 10 54
360 639 301 174 10 54
363 628 304 184 0 58
368 628 299 185 4 59
355 689 311 60 21 27
390 769 470 175 118 108
370 629 295 187 5 59
369 639 290 171 11 53
365 639 295 175 11 54
367 638 294 179 10 57
312 787 202 59 52 53
364 634 300 181 3 57
363 639 299 175 9 55
367 632 298 184 4 60
353 628 314 180 8 57
356 626 312 182 4 61
357 632 308 178 4 55
373 614 305 161 16 53
375 615 301 102 27 42
474 852 340 87 74 62
375 620 296 182 18 58
371 620 302 191 8 59
374 619 300 184 14 59
337 774 211 60 48 48
372 618 304 177 13 57
381 615 291 59 32 36
378 613 299 84 28 38
377 623 289 51 28 32
309 784 309 72 60 55
454 925 256 70 60 51
376 621 292 118 33 53
370 615 306 188 9 59
370 634 291 181 7 57
372 633 289 181 10 56
325 590 325 94 0 31
321 591 336 86 0 30
324 589 335 90 0 31
289 859 190 70 59 55
330 585 330 96 0 32
393 719 305 115 81 68
330 585 335 80 6 31
259 973 290 68 64 64
334 580 330 96 5 33
369 744 305 84 32 37
332 582 330 96 0 30
324 589 340 83 4 28
359 869 240 65 52 50
321 591 344 92 10 35
257 736 317 90 23 38
324 589 345 97 4 31
278 790 297 57 48 47
329 584 340 80 10 31
327 587 338 87 6 27
396 715 315 134 93 80
330 584 350 112 2 33
332 582 340 62 22 26
332 582 344 82 13 29
330 783 207 63 51 48
331 581 349 97 0 28
333 579 350 97 2 30
322 592 325 91 0 31
434 913 240 87 68 51
322 592 346 97 15 35
321 595 348 37 28 31
324 594 350 119 20 43
404 744 329 194 138 114
329 599 349 185 13 60
284 769 306 75 62 57
329 601 347 186 12 60
334 595 351 190 9 61
329 610 341 149 25 52
337 577 325 104 0 33
337 578 330 93 8 32
337 577 335 34 33 34
344 590 351 147 22 52
350 591 347 188 10 60
264 909 339 142 112 91
344 609 334 188 6 60
349 604 335 189 4 59
264 884 339 164 121 96
345 605 336 189 5 60
349 609 331 188 6 60
360 876 336 45 39 36
344 598 344 188 5 59
339 594 350 188 8 60
385 785 234 61 49 43
366 811 228 64 49 44
339 599 345 188 4 59
300 924 240 82 77 80
340 596 347 188 4 60
264 974 280 78 74 76
348 949 377 79 61 46
339 604 341 188 4 60
340 610 336 187 10 60
348 597 343 189 2 60
349 599 340 189 4 60
413 758 318 185 121 92
331 585 353 132 9 39
424 724 335 196 126 98
286 956 327 67 57 59
334 584 355 139 16 46
330 589 353 161 14 52
330 592 353 180 14 57
287 857 204 45 41 39
314 864 210 67 65 67
334 592 353 189 11 61
338 579 357 68 28 35
339 579 358 75 28 35
354 869 284 44 40 38
339 584 356 105 32 46
339 582 358 113 34 45
345 581 357 78 25 36
373 699 285 59 32 34
343 588 353 110 26 44
302 877 185 87 79 77
348 578 358 91 26 36
348 583 354 171 19 57
351 576 357 171 22 60
338 592 353 188 12 60
349 844 226 53 46 46
324 622 333 143 35 56
444 699 360 176 118 86
330 621 332 83 28 38
334 619 331 128 33 51
262 841 243 193 131 99
333 617 333 101 20 36
334 623 329 75 31 36
349 884 284 41 38 37
286 827 207 57 49 49
329 613 339 116 29 46
383 759 311 157 114 93
325 616 337 89 43 47
322 617 338 119 26 40
335 611 337 174 19 56
495 930 231 92 78 65
324 630 326 156 23 55
324 628 328 160 23 54
322 638 323 87 32 39
408 764 503 170 120 107
329 635 322 61 31 37
330 626 327 85 21 31
334 629 324 100 29 43
335 631 322 73 32 38
345 611 332 187 7 58
340 621 327 85 31 37
344 619 326 101 27 41
343 623 324 105 22 42
339 619 329 106 26 42
338 622 328 42 28 33
343 618 328 171 25 56
348 613 328 188 8 59
346 616 327 179 15 59
349 618 324 128 16 45
350 620 322 180 18 58
259 724 324 176 11 56
285 915 235 88 79 82
422 752 308 183 118 94
338 628 323 118 23 45
299 794 185 81 62 44
369 589 335 133 25 49
354 584 350 188 9 59
355 580 352 189 5 60
359 579 350 189 5 60
359 584 346 190 4 60
358 583 348 190 4 60
360 590 341 194 5 61
369 584 340 177 15 58
359 918 324 44 39 36
362 587 343 192 6 59
365 585 342 192 5 60
368 588 339 187 13 59
366 591 337 192 10 60
284 953 334 76 64 65
359 604 330 121 29 48
360 600 332 71 25 35
369 599 325 57 28 33
459 908 215 110 88 65
364 599 330 114 32 46
282 682 322 76 19 31
363 598 333 161 24 56
366 596 332 65 28 35
404 844 247 69 53 45
364 604 325 85 33 42
396 726 323 159 115 98
303 963 315 64 57 53
368 603 324 51 29 33
366 601 327 90 28 35
366 606 322 37 29 29
363 603 328 118 32 48
404 875 350 76 62 49
353 593 343 188 4 59
375 579 325 76 32 41
305 946 352 61 57 56
375 579 330 99 32 45
374 579 335 98 31 44
373 584 330 91 30 42
371 591 326 98 26 39
370 586 336 69 24 35
372 588 330 136 30 51
399 779 250 59 46 39
372 587 333 57 34 33
376 579 321 122 31 49
304 944 354 68 61 60
370 580 342 177 17 60
370 594 326 87 28 38
371 600 321 47 28 31
354 614 324 182 14 59
260 649 314 153 12 47
264 644 316 161 13 50
264 649 316 161 12 51
260 654 314 153 13 48
264 654 316 159 14 50
266 644 318 162 13 51
269 649 319 165 14 52
269 654 319 161 14 51
322 821 197 50 49 51
259 664 314 150 13 47
381 795 238 57 46 40
359 814 299 157 122 97
264 659 316 156 14 50
263 664 317 152 14 48
256 666 313 141 13 45
259 669 315 146 13 46
269 659 319 157 15 50
266 660 318 157 15 50
266 664 318 154 14 49
260 679 318 134 10 42
264 674 319 146 13 46
264 679 320 142 12 44
384 894 300 82 69 61
274 644 322 170 16 55
274 649 321 173 14 55
276 642 323 133 19 51
353 809 226 73 58 57
420 800 257 79 60 48
279 645 322 177 16 57
274 654 320 156 15 50
284 643 323 130 29 50
284 645 322 161 24 55
289 645 322 113 27 44
284 654 322 39 28 31
309 644 323 67 29 36
289 654 322 48 28 32
274 659 320 129 19 44
345 849 226 48 43 45
274 664 321 155 15 49
423 852 348 74 60 48
381 896 352 58 49 44
279 659 321 64 28 36
279 664 321 159 16 51
274 669 321 161 13 51
279 669 321 165 13 53
284 659 322 76 26 38
284 664 322 164 14 51
288 659 322 115 24 43
286 664 323 163 13 52
288 662 322 162 13 52
294 729 326 65 25 34
289 668 323 163 14 51
264 689 322 138 9 43
314 688 327 101 15 34
259 694 322 133 7 42
260 696 323 134 8 42
263 692 322 137 9 42
264 694 323 138 10 43
261 807 283 175 129 112
259 704 325 137 9 43
264 704 325 138 11 44
409 862 358 68 58 49
269 699 324 138 13 44
358 694 309 71 20 28
269 704 325 140 14 45
274 674 321 158 13 50
274 679 321 102 18 38
279 674 321 160 12 51
274 689 323 117 19 42
279 683 322 43 26 30
289 674 322 154 14 49
285 680 323 145 17 48
289 679 323 147 16 48
289 689 324 89 26 36
353 798 221 59 50 46
274 694 324 127 15 42
279 699 326 62 25 33
284 694 325 54 26 32
410 765 501 184 126 113
289 694 326 72 25 33
284 699 326 31 27 31
284 704 327 88 22 35
418 813 264 86 62 51
285 705 328 112 22 40
401 575 282 40 28 30
289 704 329 72 28 35
293 649 322 118 29 46
294 654 323 57 27 32
299 649 323 61 28 34
304 644 323 121 31 47
304 654 324 48 26 31
294 659 323 116 26 45
389 744 315 159 114 97
294 669 323 156 15 49
304 669 324 138 19 46
309 649 323 71 28 36
318 643 323 37 28 29
286 803 192 74 57 43
319 650 323 34 29 31
309 664 324 81 28 39
314 664 324 89 25 38
319 664 324 148 18 49
319 669 324 159 14 50
294 674 323 99 16 37
389 759 500 136 91 80
294 689 325 59 25 30
299 679 324 110 23 42
304 674 324 95 23 39
304 679 324 65 26 36
299 689 325 84 25 34
405 744 259 75 56 46
290 958 273 73 68 71
302 877 206 80 76 77
304 689 326 44 26 28
294 694 326 53 27 31
290 700 328 43 28 30
298 693 327 53 27 30
273 879 226 36 33 34
304 692 327 51 28 30
300 695 328 75 26 35
304 694 329 43 29 31
299 704 331 38 30 30
304 699 331 63 26 31
309 674 324 104 22 40
309 679 324 57 28 32
410 814 251 63 51 46
309 684 325 62 27 31
314 679 324 48 26 31
319 679 324 39 28 30
319 684 326 51 26 31
306 691 328 33 28 27
484 851 345 82 69 59
309 691 328 33 29 30
309 694 329 37 28 30
307 702 332 65 24 31
363 908 340 61 51 53
280 869 235 48 46 48
309 704 334 96 20 37
310 701 333 74 22 31
314 690 328 55 24 30
314 698 332 89 26 38
309 929 360 58 53 51
314 700 333 100 15 34
319 700 333 116 9 36
329 895 330 34 32 32
264 734 319 186 13 60
284 799 190 78 60 45
269 734 319 179 16 59
274 734 320 125 20 47
260 737 318 141 16 47
259 744 314 57 27 33
382 727 281 92 68 56
264 750 311 75 59 54
265 747 313 84 53 53
387 529 345 108 27 42
364 774 221 66 52 46
269 740 317 68 28 36
269 750 311 72 60 56
298 953 256 76 70 72
259 758 304 78 64 58
324 831 282 140 111 90
405 549 265 100 31 42
258 760 302 81 67 60
259 764 300 81 66 59
259 769 298 81 65 59
264 759 305 76 63 57
265 763 303 78 64 58
268 770 302 77 63 57
432 723 328 195 128 102
270 768 303 75 62 57
259 755 306 75 63 58
264 753 309 72 60 56
268 756 307 71 61 56
397 747 472 132 100 86
279 924 356 47 43 43
273 741 317 35 28 32
274 744 316 57 48 46
279 745 316 67 56 52
274 750 312 70 59 55
274 748 313 70 59 54
284 742 318 68 54 49
258 780 292 77 62 57
411 816 262 71 55 46
288 740 321 76 53 51
289 744 319 75 60 55
283 751 312 74 60 55
289 749 315 78 63 58
274 769 304 75 61 56
277 761 307 75 62 55
279 764 306 77 63 56
280 763 308 76 62 57
279 769 305 76 62 57
295 911 354 40 37 38
284 759 310 74 61 56
286 752 313 76 63 56
289 754 314 78 64 57
287 756 312 76 63 57
319 821 292 153 108 87
384 898 294 77 64 54
289 764 310 79 64 58
286 767 308 78 63 58
289 769 308 79 64 58
291 747 318 80 64 58
386 911 258 66 54 45
294 749 319 80 65 58
294 754 316 80 65 58
394 860 340 57 47 42
296 752 318 79 64 58
429 764 279 101 75 59
294 759 314 77 64 58
294 764 311 80 65 58
294 769 310 80 65 58
295 763 313 79 64 58
298 756 317 79 64 58
389 519 350 56 28 32
299 759 316 78 64 58
349 890 305 42 39 38
304 758 319 76 62 57
303 760 317 75 62 57
420 519 280 148 17 47
270 884 235 41 39 41
298 769 312 77 63 57
297 766 312 80 65 58
300 768 313 77 62 57
304 764 316 75 62 57
304 769 314 75 62 56
308 764 317 72 61 56
310 763 318 72 60 56
309 769 316 71 59 56
314 759 321 72 60 56
319 764 319 75 62 58
264 709 325 149 13 47
264 714 325 159 12 51
269 719 324 170 13 55
256 727 323 183 10 59
259 727 323 181 10 59
269 729 321 186 11 60
279 709 327 70 26 35
274 714 326 159 19 53
274 719 325 172 15 56
281 709 328 69 28 35
266 885 246 56 51 50
414 529 285 49 27 30
284 709 328 95 25 39
283 716 327 139 27 51
284 719 326 105 23 42
310 906 338 35 33 34
281 713 328 55 24 30
289 714 329 107 28 44
429 790 265 89 67 53
274 729 321 186 12 60
384 764 504 162 124 115
339 679 321 104 6 32
276 727 323 183 12 60
413 860 186 99 82 70
279 730 322 169 17 56
401 569 264 168 16 47
279 734 321 158 22 55
289 729 324 154 21 53
269 845 300 104 84 63
284 730 322 93 21 39
287 734 322 158 17 52
294 714 330 40 29 31
299 709 332 37 30 31
299 714 331 38 28 31
299 719 329 60 30 36
421 666 326 117 87 46
304 719 331 66 29 35
259 895 246 64 55 52
294 734 326 127 20 46
297 729 327 98 11 35
299 729 329 104 18 38
304 724 331 89 25 37
389 889 256 89 73 64
389 764 506 157 110 102
303 729 332 89 24 36
299 734 329 163 16 53
304 734 332 100 23 40
306 719 333 108 32 46
314 709 336 143 14 46
314 714 336 105 20 40
313 719 337 37 28 32
317 712 337 144 13 44
319 714 338 142 14 46
306 724 333 80 23 34
464 750 272 100 80 63
309 724 335 91 22 37
370 894 275 64 54 54
306 729 333 51 26 31
309 729 335 54 28 32
314 734 335 157 21 55
319 734 336 191 12 61
313 724 337 62 29 37
320 728 338 140 23 51
296 737 328 165 15 50
419 728 415 202 134 106
299 739 329 166 17 54
304 739 331 152 18 52
321 866 288 39 35 33
300 748 324 78 63 58
340 644 317 132 17 45
303 746 327 102 50 55
303 750 322 79 64 59
309 739 331 70 25 36
309 744 329 170 18 56
309 749 326 92 55 56
417 728 261 84 62 52
319 744 331 184 16 60
314 750 326 113 50 57
318 750 327 93 53 55
315 748 328 165 25 55
319 749 329 107 31 46
309 755 322 75 61 57
314 754 324 77 62 57
313 756 322 74 61 56
319 754 325 77 62 57
319 759 321 75 61 57
334 644 319 79 27 35
334 654 320 82 24 35
344 644 314 87 22 35
349 644 310 136 18 46
351 646 307 157 13 50
346 640 312 114 28 44
346 649 312 152 12 48
351 654 307 101 27 41
346 654 312 144 12 45
338 664 318 120 9 37
428 739 310 179 115 89
344 659 314 113 13 38
339 669 319 114 6 35
409 895 214 89 74 63
344 669 315 108 10 34
349 659 310 73 22 32
443 674 350 140 107 73
349 664 311 59 23 30
350 669 311 98 15 32
345 674 316 100 6 31
284 849 299 145 112 86
343 679 319 95 7 30
350 674 312 78 19 28
345 678 317 91 7 30
351 678 312 60 23 27
349 684 315 71 18 26
347 686 318 78 21 29
284 964 261 89 84 87
345 689 321 87 13 29
350 692 316 71 17 26
434 674 320 99 81 61
349 694 320 80 16 29
367 643 257 57 34 38
307 864 288 115 90 72
259 931 233 82 74 74
366 650 259 157 27 52
365 654 260 93 29 39
366 655 263 52 26 36
368 654 265 92 27 38
365 664 260 82 28 35
367 664 262 64 31 35
339 841 272 36 31 31
368 664 265 48 31 34
401 733 431 151 105 85
384 779 490 169 109 102
366 669 259 52 32 37
368 669 265 70 29 35
371 644 268 138 22 44
372 647 270 128 15 36
370 654 270 115 23 42
371 649 275 143 14 44
371 649 280 110 24 41
371 654 280 46 29 34
369 659 270 75 28 36
369 669 270 88 25 35
370 659 275 79 28 37
370 659 280 48 30 34
289 885 199 85 72 68
370 664 280 50 28 34
448 869 372 87 75 66
370 659 285 47 30 33
390 719 260 101 64 48
370 664 285 74 25 35
434 918 233 90 76 63
370 669 280 33 31 33
354 644 305 158 13 49
357 643 303 162 14 50
359 649 300 134 16 44
354 654 305 88 27 38
359 654 301 80 27 36
365 644 295 148 13 47
411 771 475 206 139 119
366 640 292 165 11 52
368 649 290 73 29 35
366 649 292 51 28 31
362 649 298 135 13 41
368 654 289 47 28 32
364 654 295 64 28 34
369 837 278 97 62 49
360 659 301 87 23 35
357 659 303 41 25 29
368 714 305 125 12 38
358 664 304 78 25 33
360 664 301 61 25 30
360 669 301 54 25 29
366 659 292 33 29 30
407 715 409 160 112 91
368 664 290 42 27 31
367 664 293 55 26 32
363 664 299 45 27 29
367 670 293 42 27 30
363 669 299 35 27 27
352 659 308 57 26 31
418 744 470 176 130 103
355 664 306 54 24 29
366 673 258 37 33 36
367 674 260 38 34 36
370 674 270 103 21 36
370 679 270 82 28 38
390 739 315 153 109 95
369 689 260 45 33 36
370 674 275 36 32 34
370 679 275 63 31 36
483 910 172 103 87 72
371 679 280 64 29 35
370 684 275 39 31 34
371 689 275 46 31 34
371 684 285 41 30 33
371 687 287 37 29 34
372 689 285 48 30 33
300 915 234 83 78 80
369 694 260 42 36 38
448 920 260 77 62 54
414 864 195 87 72 60
371 694 270 46 32 35
371 702 259 73 47 42
372 704 260 98 40 37
264 824 221 69 55 52
374 829 249 62 50 46
372 701 262 77 45 39
373 704 265 98 33 38
291 900 214 81 75 77
374 704 270 89 35 37
419 719 440 148 117 88
372 694 280 63 29 35
372 694 285 64 30 35
409 539 285 111 19 40
373 699 275 44 31 34
373 699 280 46 33 35
343 837 278 41 34 30
374 704 275 75 35 37
375 704 280 57 34 35
359 674 305 54 24 28
361 677 302 44 28 28
408 764 262 71 54 41
362 680 303 55 26 30
366 684 296 39 26 29
344 928 300 72 65 64
368 684 294 43 28 30
364 684 300 49 26 29
364 689 300 58 24 28
362 689 303 52 23 27
497 921 202 96 82 67
366 689 297 58 26 31
354 674 309 68 20 28
357 680 308 41 23 25
360 684 306 53 26 29
360 689 306 58 22 27
313 785 205 54 46 47
366 692 297 90 32 41
368 694 295 95 16 33
367 696 298 103 16 36
366 698 301 100 13 32
368 699 299 109 12 35
353 696 318 82 17 29
359 699 310 92 15 29
340 873 287 38 35 34
356 698 316 89 14 30
359 704 315 108 10 33
356 702 317 99 14 31
361 703 311 110 11 34
370 694 291 87 18 33
372 690 288 61 27 34
322 943 271 73 66 68
372 694 288 84 25 36
371 704 296 93 18 31
329 644 321 55 30 34
323 654 323 83 30 38
372 774 222 66 52 44
329 654 321 96 30 41
323 659 323 106 26 41
323 664 323 129 19 44
329 659 321 57 27 32
329 669 322 141 14 45
329 673 322 132 7 41
324 684 326 64 27 34
324 688 327 49 29 30
329 684 326 114 9 36
334 674 322 119 4 36
332 676 323 124 4 38
335 678 322 111 5 34
329 690 329 77 23 32
324 697 332 88 21 35
334 690 329 95 12 31
331 697 332 111 7 35
334 697 332 103 7 32
334 704 335 110 6 34
338 684 324 99 9 32
340 683 322 98 6 31
339 689 325 93 12 29
342 686 323 92 11 29
343 690 324 89 14 29
344 694 325 89 14 29
337 691 328 89 12 29
430 661 340 103 84 64
339 694 329 91 13 29
338 700 333 94 11 29
341 702 332 97 14 30
350 698 322 87 16 30
350 703 326 92 17 32
347 701 328 97 12 32
353 704 324 64 21 29
388 774 484 153 92 85
324 764 319 80 65 61
329 764 319 84 66 61
400 710 295 109 76 54
334 767 318 82 65 61
269 814 216 61 50 46
339 764 320 82 66 60
339 768 318 82 66 60
344 764 319 81 65 60
412 758 503 164 122 103
344 768 318 82 67 61
344 770 317 83 68 62
349 769 316 82 66 60
375 709 265 92 39 34
287 935 274 62 62 65
376 714 260 104 39 36
376 713 265 96 41 36
377 716 260 107 41 37
377 715 265 97 40 36
325 823 199 57 55 57
377 716 256 106 42 41
417 732 426 207 138 109
385 714 264 106 49 39
384 719 265 103 48 40
376 712 270 88 38 36
375 709 275 81 35 37
376 709 280 81 36 38
377 711 280 81 38 37
376 712 273 83 36 36
377 714 275 84 40 37
377 715 284 71 45 39
385 724 266 91 49 37
384 722 270 92 52 41
380 724 280 79 57 45
447 684 335 159 110 79
294 959 260 84 79 81
381 722 272 88 55 43
409 544 284 156 17 51
411 876 342 61 46 49
383 723 275 102 67 54
412 764 495 191 130 116
384 724 280 113 79 66
380 729 285 66 50 41
383 729 285 86 65 54
366 708 306 124 11 38
367 710 304 124 11 38
358 709 319 106 15 35
394 814 248 62 49 44
359 714 320 111 17 37
402 554 260 100 31 42
365 714 310 129 12 40
361 714 316 117 16 38
362 714 314 114 16 37
361 717 317 93 20 33
362 720 318 79 21 30
366 724 312 145 13 45
367 729 309 149 13 46
366 729 311 154 12 48
360 724 321 67 24 35
364 724 315 145 12 44
362 729 318 162 10 51
365 734 310 137 16 46
360 729 321 157 14 51
420 670 321 120 77 21
432 695 399 140 107 73
363 734 315 163 11 50
361 734 317 167 10 52
359 734 320 171 10 54
372 709 294 76 30 31
293 972 294 67 66 67
375 713 291 70 42 38
374 719 295 77 35 36
376 718 292 71 47 41
369 719 305 130 10 39
432 717 333 197 124 99
377 715 289 68 44 38
374 724 295 74 32 33
374 729 296 52 26 26
389 514 340 144 16 42
371 723 297 92 30 35
369 724 305 135 14 42
372 729 299 76 24 30
372 734 299 57 27 29
378 724 290 61 42 34
377 720 293 67 49 41
376 724 292 63 38 35
378 729 290 54 35 30
377 726 293 59 32 30
387 728 301 89 67 53
391 790 243 74 56 49
417 762 308 186 122 94
377 729 293 49 29 27
349 928 305 75 68 66
379 734 290 59 46 40
376 735 292 49 29 27
385 729 295 82 68 58
358 744 319 167 13 52
368 739 305 68 27 33
365 739 310 119 23 44
367 738 308 72 26 30
478 928 223 99 85 72
361 744 316 152 15 49
370 749 306 114 68 58
365 749 311 113 23 41
367 749 308 116 43 49
362 749 314 134 20 45
281 778 303 76 62 58
353 758 318 72 52 49
357 753 318 78 31 37
359 754 316 105 27 41
374 759 307 97 69 50
374 914 325 60 53 50
354 764 316 83 66 57
354 769 315 80 64 56
359 764 314 55 45 44
368 759 309 154 109 85
365 764 312 155 114 91
369 764 309 161 113 88
362 768 313 135 102 82
423 721 275 90 59 47
372 745 303 70 39 29
379 739 291 58 48 40
381 740 295 61 51 41
382 738 296 66 57 48
382 739 300 75 58 47
424 709 294 104 81 55
385 734 305 118 81 68
384 739 305 123 87 73
384 744 305 126 90 75
383 749 306 133 94 79
384 749 310 147 105 88
434 680 316 105 84 59
374 754 305 81 59 42
376 752 302 63 48 36
375 764 307 107 75 54
373 765 308 130 91 66
445 699 345 175 116 85
377 763 307 123 88 67
324 709 337 127 4 39
320 711 338 137 10 44
379 873 329 53 47 46
329 711 338 132 7 42
324 719 340 160 12 51
329 714 338 144 9 46
334 709 337 119 7 37
334 714 338 135 8 42
374 774 224 69 53 46
335 712 337 130 8 41
324 724 340 165 15 54
324 729 338 180 14 59
274 874 225 37 34 35
329 729 338 188 11 61
324 731 337 187 13 62
324 734 336 195 11 63
329 734 337 195 10 63
330 732 338 195 10 64
334 734 337 180 14 60
310 843 187 89 69 56
379 829 295 148 101 79
344 714 335 92 22 36
349 709 330 78 21 31
404 739 331 190 134 111
344 719 336 75 27 35
347 719 333 62 24 32
350 714 331 85 23 36
339 719 339 84 23 35
342 719 338 50 27 30
344 724 335 45 28 31
344 729 334 53 30 35
340 730 337 35 27 28
343 733 333 48 29 30
345 734 331 47 28 30
349 729 330 97 27 41
351 731 327 138 17 46
339 724 339 74 24 34
338 728 338 85 23 37
418 705 350 174 115 95
337 732 338 137 20 46
324 745 331 168 16 56
324 742 333 194 11 62
329 739 335 194 11 62
329 743 333 193 11 62
329 745 332 191 11 61
329 749 330 186 16 60
334 739 335 171 15 56
329 794 212 71 57 54
334 743 333 175 13 56
324 754 326 69 55 52
324 752 328 50 29 34
334 758 323 81 67 63
334 760 322 85 69 62
337 742 333 122 15 41
340 740 332 123 35 52
342 737 333 49 26 30
343 743 328 82 25 36
340 750 327 48 31 33
342 747 328 45 30 31
349 739 326 161 19 55
347 738 328 118 27 46
350 750 322 81 29 35
339 758 323 79 60 57
276 792 197 48 41 39
339 760 322 81 66 60
344 754 324 103 29 41
343 757 323 93 53 55
346 755 322 155 25 52
334 811 297 66 53 48
355 719 326 66 25 32
352 724 328 45 25 30
352 728 328 83 24 36
357 733 323 172 12 55
352 743 323 160 23 56
385 755 469 140 106 92
383 769 494 155 101 93
385 760 501 115 76 62
338 860 228 54 48 51
384 764 500 121 82 66
381 765 501 140 104 90
393 544 287 48 22 27
411 519 259 45 30 35
394 879 360 70 54 45
415 514 264 102 24 38
410 524 260 49 30 35
409 529 260 80 27 36
411 525 263 42 29 31
286 857 302 137 104 76
410 529 264 104 27 40
412 523 262 41 33 36
414 529 270 85 33 40
410 520 287 86 18 34
408 534 260 49 33 38
417 716 263 93 68 50
286 906 213 84 75 77
405 544 260 37 33 36
404 890 251 125 107 101
408 544 265 44 33 37
411 536 268 75 30 40
414 534 270 66 31 38
411 539 269 85 37 43
374 874 354 55 44 36
412 543 271 130 31 45
409 534 285 140 12 44
404 544 286 104 16 37
415 534 275 70 28 38
415 534 280 69 27 35
413 534 284 98 22 40
412 544 275 132 26 46
412 543 280 121 20 43
447 684 332 171 119 89
411 545 281 162 16 52
412 538 283 118 21 44
387 513 293 114 18 42
389 519 290 138 13 44
386 516 292 53 23 27
484 933 243 97 84 72
385 524 292 160 12 50
389 529 290 153 3 47
394 519 290 135 6 41
279 944 351 67 62 60
354 962 371 101 83 67
399 514 290 111 0 34
394 529 290 133 3 41
399 529 289 109 0 32
389 534 290 152 4 48
389 539 289 147 10 46
388 543 288 125 14 43
479 928 221 92 81 72
394 534 290 129 2 39
395 544 288 49 24 29
409 514 289 152 16 50
385 836 276 91 61 52
407 523 288 50 25 32
412 512 288 149 11 49
403 534 288 130 14 43
404 904 255 61 48 51
402 538 288 32 26 26
389 549 287 95 15 33
389 554 287 116 9 36
288 868 184 112 92 77
386 559 287 143 16 45
268 797 207 67 53 47
430 734 300 140 93 69
394 554 287 67 22 31
409 855 345 61 51 43
394 559 287 42 25 29
400 564 260 89 25 36
400 569 260 155 16 46
398 839 255 86 66 47
389 569 286 79 19 33
385 574 287 90 26 38
362 822 231 70 56 53
394 564 286 77 24 35
394 574 284 131 18 44
399 574 283 106 20 38
407 548 266 121 29 44
344 884 286 37 34 34
349 913 285 69 60 59
409 549 270 72 31 39
404 554 265 99 29 42
313 933 252 78 70 69
401 556 258 109 28 35
402 557 262 48 30 37
403 559 265 74 31 39
405 554 268 125 22 42
404 549 285 130 13 43
408 549 284 150 17 49
404 554 285 95 23 38
407 554 283 114 20 43
409 705 425 120 101 82
409 554 280 164 18 51
410 549 280 150 21 50
404 747 328 196 139 114
401 564 264 123 25 42
402 569 266 170 15 44
260 839 265 170 122 95
404 569 270 170 14 44
401 575 268 174 13 45
406 564 275 171 16 48
405 564 280 139 23 48
336 822 222 57 49 49
404 569 280 44 29 32
402 568 283 38 27 29
402 574 275 126 22 44
402 574 280 57 32 36
402 572 283 43 29 34
387 549 288 68 20 30
398 548 288 56 25 31
416 520 268 48 34 34
417 528 272 57 31 36
422 512 272 93 28 38
421 515 281 123 19 44
420 519 275 92 31 41
418 514 284 162 10 51
418 519 283 162 13 51
419 524 275 96 30 40
418 524 280 105 27 40
417 528 280 80 27 37
417 527 283 41 25 29
294 789 304 63 52 50
416 531 275 139 30 46
419 880 367 86 69 53
389 519 345 133 19 43
390 514 350 64 28 33
387 527 342 137 16 47
388 524 345 149 17 45
387 529 349 77 29 37
392 512 346 74 28 33
386 534 345 142 20 47
386 514 356 48 28 32
309 889 230 53 49 50
427 706 297 111 87 57
387 519 354 48 29 31
387 523 353 47 22 32
398 579 265 175 13 48
319 887 302 32 30 31
397 583 260 176 13 50
400 579 270 174 13 47
389 579 285 69 28 35
389 584 285 109 22 42
308 948 260 80 72 73
399 584 280 97 27 41
394 579 283 66 25 32
437 847 338 90 69 57
