ply
format ascii 1.0
comment Created by Open3D
element vertex 2216
property double x
property double y
property double z
property uchar red
property uchar green
property uchar blue
end_header
380 591 217 128 26 37
428 425 214 107 22 36
433 419 219 100 29 33
356 324 282 122 89 59
272 629 289 74 24 34
433 418 224 107 22 32
434 425 220 65 24 30
388 675 219 70 53 39
426 427 214 99 28 36
426 427 223 96 22 38
432 439 224 67 30 35
348 624 323 183 2 57
254 649 264 157 1 46
228 749 164 179 116 82
431 444 223 55 29 33
403 810 214 64 53 50
433 449 219 51 27 32
400 754 215 52 44 42
438 423 194 91 20 33
436 421 199 97 13 31
278 951 218 77 72 73
182 671 182 101 83 64
390 496 356 81 4 35
438 422 199 114 11 34
435 421 206 126 3 37
257 600 198 95 24 35
366 351 282 113 90 63
183 828 188 91 74 55
265 773 258 83 66 59
436 421 206 127 3 37
339 770 390 194 132 106
436 421 209 127 7 35
333 324 283 111 76 58
308 354 279 105 73 58
357 739 328 85 20 32
438 424 209 127 6 36
443 425 194 124 13 40
441 426 203 147 9 42
323 784 183 47 40 41
442 877 313 76 56 44
439 429 209 138 10 42
376 691 211 66 44 35
436 421 214 115 10 38
249 934 269 183 138 118
439 424 214 114 5 35
468 850 299 66 52 41
434 425 224 87 21 34
387 675 224 62 48 33
363 424 303 100 78 55
412 753 358 197 128 101
260 329 260 98 82 66
364 639 306 164 8 52
349 865 189 65 57 58
436 420 224 122 6 38
227 765 173 208 141 106
416 676 397 142 109 74
403 574 229 116 24 44
436 421 219 121 9 41
334 389 287 125 87 70
437 424 218 102 9 36
433 429 224 36 27 32
307 883 201 38 36 37
437 429 218 40 24 32
304 824 384 153 101 96
439 434 209 148 7 43
378 469 375 37 25 28
440 439 205 151 6 45
392 410 269 73 64 54
438 444 209 131 12 39
439 449 204 157 8 46
447 434 194 163 9 48
383 676 228 63 50 38
291 831 230 196 145 118
374 774 193 73 57 49
446 438 193 162 7 46
441 439 203 151 4 45
390 689 224 63 47 38
441 448 198 159 4 48
280 861 256 111 86 53
440 450 200 160 4 48
278 875 241 109 78 44
400 496 317 66 17 30
437 439 214 101 16 36
249 599 254 55 29 33
434 435 220 98 25 38
401 755 213 57 47 44
318 444 303 96 10 31
435 440 216 70 23 32
253 559 265 152 1 48
363 825 174 61 56 54
436 437 217 143 14 47
388 798 194 65 53 49
393 698 401 155 115 87
435 444 215 48 28 31
436 444 212 72 26 36
418 425 229 93 31 39
333 294 274 85 69 52
374 659 264 118 17 40
423 427 227 101 28 39
418 425 239 73 37 36
397 744 279 94 59 48
423 426 239 74 29 32
400 586 238 55 31 35
430 420 229 116 18 30
373 464 379 83 8 26
428 424 229 105 20 35
431 417 234 106 21 30
430 419 234 110 18 31
308 940 207 91 85 86
370 891 322 41 36 34
386 543 318 31 28 31
253 549 264 112 5 34
432 417 240 92 20 29
379 793 194 71 57 53
362 345 282 111 87 57
387 618 259 113 31 44
428 424 234 99 23 34
418 425 249 67 35 35
423 426 244 70 25 31
423 425 249 66 21 29
273 290 317 104 83 62
326 769 182 48 39 36
379 799 332 172 125 100
419 427 255 66 34 34
432 504 273 168 6 51
307 799 390 176 131 121
300 867 286 131 98 70
423 426 253 65 25 31
427 423 244 74 23 30
344 910 208 61 55 56
440 465 301 73 18 29
345 561 177 152 35 54
430 421 247 70 23 29
428 424 249 67 22 28
209 729 193 147 112 94
269 768 167 116 86 47
397 829 195 55 47 48
433 421 247 72 21 30
433 424 249 68 23 31
326 957 221 78 73 76
428 426 252 66 24 29
428 427 255 66 24 30
250 670 244 42 31 36
432 426 252 66 24 29
387 588 308 157 6 49
168 764 185 183 126 98
323 499 285 73 21 31
258 820 179 204 138 105
433 428 254 67 24 30
178 749 203 139 107 88
431 479 308 110 20 39
258 557 267 151 0 49
372 441 307 75 31 28
432 434 229 50 30 31
303 609 194 178 3 37
397 459 378 169 1 53
430 436 230 72 22 28
340 861 266 118 86 68
432 433 234 86 23 35
430 436 234 83 27 38
433 434 239 73 28 31
267 971 268 64 59 57
398 504 314 67 20 27
429 439 234 75 25 35
430 436 238 62 30 35
343 894 284 33 30 32
292 344 313 129 90 68
431 438 241 51 29 33
313 981 242 77 74 77
429 444 229 49 29 32
430 441 226 46 28 33
241 599 232 70 28 34
252 736 281 185 0 59
365 774 326 116 81 61
430 447 225 95 26 38
338 279 269 85 69 52
429 449 229 60 31 32
279 674 298 159 3 50
356 479 306 52 27 29
429 444 239 60 29 33
245 627 239 36 28 32
428 449 234 76 28 34
334 683 203 77 43 35
428 449 239 94 20 35
333 554 302 101 5 33
459 913 278 87 76 68
433 439 244 74 23 32
275 797 248 76 60 54
430 444 242 71 28 34
236 539 213 159 5 44
348 910 214 64 58 59
433 444 244 75 30 31
430 449 243 68 30 34
293 945 213 85 79 81
432 449 245 74 27 32
282 703 306 42 28 30
434 425 229 121 11 35
386 676 227 58 46 32
431 893 298 70 57 50
358 579 349 95 28 41
436 422 230 112 15 27
437 419 234 111 8 33
390 480 380 80 22 33
438 419 239 76 19 29
313 779 179 52 45 44
168 843 193 199 135 134
191 748 180 169 96 72
255 953 250 84 77 75
439 424 239 61 24 26
279 659 299 44 29 32
433 429 229 68 21 33
435 425 232 131 5 35
342 892 275 36 33 33
434 429 234 107 12 33
413 464 144 122 22 39
241 724 239 153 4 47
437 428 235 87 18 32
265 752 172 101 80 53
312 907 186 81 70 69
438 429 239 67 26 30
421 684 393 173 122 94
256 348 258 110 89 67
444 479 265 151 13 47
433 416 242 83 21 30
437 420 243 76 21 28
437 424 244 74 22 33
288 464 288 72 27 34
437 429 244 78 26 34
438 429 254 65 27 31
443 430 254 70 27 30
323 882 174 76 66 64
358 819 160 102 80 65
312 478 292 91 10 30
448 430 253 72 26 27
435 435 243 61 34 28
403 699 349 106 78 38
436 432 241 76 26 36
332 795 306 74 60 57
437 434 245 70 32 37
406 428 382 80 21 31
439 434 247 88 24 38
436 439 246 97 16 34
338 429 299 68 37 30
438 439 247 108 12 31
245 701 241 42 30 37
303 499 284 80 16 29
379 739 329 90 68 47
436 444 246 96 15 34
438 444 247 110 11 33
448 434 244 95 24 37
292 835 224 203 147 116
388 916 298 94 75 64
448 439 243 48 29 34
374 619 305 120 22 43
283 976 269 60 56 54
444 439 245 61 20 26
444 444 245 108 14 39
358 814 308 89 69 61
443 449 245 62 24 32
442 454 189 166 7 46
448 444 243 96 18 32
243 719 234 92 25 39
213 694 180 72 61 50
406 801 227 84 64 53
448 449 244 57 27 32
249 734 214 108 37 44
385 452 141 163 0 30
387 455 142 168 0 34
334 869 270 126 92 76
393 459 141 164 6 35
437 489 274 120 19 43
392 460 142 165 5 35
393 464 143 119 19 38
390 484 361 83 0 33
300 440 300 68 29 32
298 744 185 89 26 27
263 434 292 117 85 67
398 450 137 48 37 42
398 834 276 40 34 32
348 479 303 81 16 33
387 732 393 190 122 93
398 454 138 106 25 39
304 759 182 51 44 44
398 469 145 62 33 39
387 471 147 58 31 36
388 474 148 143 11 38
182 734 197 119 88 71
388 479 150 139 11 39
393 474 147 165 7 40
306 896 297 150 111 86
347 831 286 43 34 38
410 446 324 82 1 30
380 677 231 62 50 37
365 920 269 71 64 65
393 479 149 166 6 37
246 770 224 175 128 100
398 473 146 112 27 39
398 479 149 99 31 39
358 379 295 128 98 69
403 454 138 143 8 33
303 954 219 92 86 89
408 451 137 170 4 38
264 719 292 161 0 51
174 681 187 123 101 77
403 459 140 164 12 38
378 444 305 85 15 30
258 789 234 58 48 47
403 465 142 125 24 37
408 464 143 103 28 39
413 864 268 90 80 72
413 454 138 185 10 40
387 609 289 128 22 44
412 459 140 170 10 40
403 469 144 131 27 43
415 750 267 52 38 33
162 684 179 150 114 88
329 299 273 71 60 48
173 841 196 190 126 125
403 473 146 126 32 46
403 475 147 148 24 43
407 472 146 74 33 38
168 739 200 151 120 101
408 474 148 90 37 42
408 479 150 66 35 39
386 913 322 73 58 47
235 564 216 35 31 36
244 549 194 144 1 34
412 468 146 135 24 44
295 299 267 89 74 58
323 524 288 57 22 29
415 466 147 176 12 42
264 369 308 151 108 87
388 483 151 152 13 38
363 449 308 86 15 32
393 483 151 155 11 38
361 602 332 168 7 54
388 485 152 151 15 39
273 959 229 72 67 69
340 474 297 137 1 43
393 489 153 127 23 39
293 574 173 120 29 43
313 469 295 93 5 31
398 486 152 66 36 39
398 493 155 55 33 37
384 496 157 87 22 32
292 884 302 165 125 100
304 489 290 59 15 26
342 959 269 61 58 59
191 779 204 145 87 69
388 499 157 48 37 41
408 494 159 78 34 39
344 575 307 72 26 35
389 497 156 31 35 43
423 871 290 73 58 50
392 497 156 36 34 36
254 964 264 76 73 75
167 694 159 149 106 74
236 574 244 101 22 37
398 499 159 58 34 38
403 483 151 74 36 39
178 684 154 132 97 60
406 482 151 88 39 44
421 719 344 135 100 68
486 880 258 116 95 74
403 485 152 58 38 39
337 695 327 104 11 33
362 924 274 74 68 69
238 529 245 78 23 35
400 819 193 63 52 49
463 895 281 85 73 64
295 911 191 78 72 70
408 484 153 119 25 40
408 488 155 86 30 39
338 819 173 59 49 46
338 289 274 93 74 54
403 493 156 50 35 40
355 763 182 67 53 43
403 495 158 85 36 41
409 490 157 114 30 40
507 884 254 111 88 71
233 539 229 51 30 34
351 766 176 53 44 42
195 698 152 112 87 56
383 742 369 134 91 70
406 492 156 70 37 46
409 481 152 79 30 37
411 487 156 173 14 42
414 485 158 68 31 38
338 689 194 69 44 39
412 493 161 59 31 35
363 264 268 123 94 61
391 507 161 115 17 36
393 509 163 71 30 39
394 506 162 42 35 41
394 686 361 108 79 53
348 873 199 60 55 56
333 828 283 157 117 100
316 682 321 121 6 36
398 505 162 45 35 40
414 495 163 44 32 36
415 491 162 118 49 58
316 698 197 60 37 31
402 502 161 49 34 41
403 504 163 46 34 39
328 899 294 84 60 49
405 501 162 39 34 39
408 503 165 48 33 38
256 319 267 109 87 63
400 511 167 32 33 38
328 649 317 159 9 51
406 507 166 69 24 27
324 659 212 119 17 27
162 764 199 173 129 106
419 785 271 59 46 38
408 509 169 141 21 43
410 496 162 46 34 36
456 452 288 117 3 30
413 498 165 69 34 41
413 504 169 48 32 37
273 549 168 146 7 36
418 444 339 117 1 37
414 500 168 70 32 35
412 508 170 85 32 39
376 448 382 47 18 24
415 506 172 58 28 31
419 455 142 175 9 39
401 711 229 84 55 44
424 450 142 185 13 42
393 774 204 69 53 44
423 454 144 179 12 39
422 458 146 175 11 39
424 459 148 173 11 40
313 839 369 117 73 65
425 456 147 184 14 44
431 453 151 189 16 45
433 454 154 184 15 43
424 465 152 52 31 34
414 494 290 105 44 52
371 889 230 65 58 56
495 906 275 87 73 61
427 493 309 176 4 53
429 459 153 149 11 40
223 719 165 120 88 52
293 513 140 155 8 36
428 464 154 59 31 35
283 554 165 118 32 43
432 458 155 165 10 39
438 474 249 74 26 32
431 462 156 143 16 40
418 514 309 56 28 32
168 679 180 136 109 84
289 665 206 88 24 29
418 469 150 104 30 40
373 830 304 159 110 88
194 724 191 108 71 55
421 467 151 39 32 34
288 629 313 117 30 46
294 579 297 42 27 29
420 470 152 72 35 39
300 715 327 147 10 47
423 469 154 42 34 39
417 478 155 64 31 37
422 473 156 61 38 43
245 757 247 166 3 51
423 479 160 53 33 38
362 664 308 71 28 34
425 470 157 58 29 32
332 499 290 52 26 30
428 469 159 162 18 42
338 339 288 125 89 67
350 536 375 37 23 26
386 708 366 113 76 58
429 466 157 156 17 46
412 704 240 73 57 45
269 644 293 127 17 46
359 849 261 33 27 25
378 444 380 49 29 27
431 468 160 177 14 42
434 450 152 181 22 54
303 834 199 59 49 50
435 456 157 174 13 40
349 654 228 65 31 33
436 453 156 186 16 45
438 454 159 176 15 42
436 458 160 174 13 43
401 567 216 188 31 52
239 719 264 149 4 46
377 809 174 62 52 49
433 469 164 174 12 41
430 470 162 173 13 42
424 480 162 58 25 33
470 851 296 75 60 47
431 478 170 93 32 40
241 713 270 86 28 38
291 285 302 117 92 63
252 954 269 81 67 63
353 849 264 89 60 47
249 934 264 182 137 117
432 479 174 95 30 42
434 465 163 175 12 43
440 460 169 98 28 38
366 694 196 67 50 41
298 849 274 153 121 97
436 463 165 175 12 44
339 734 172 55 43 39
296 269 265 99 79 57
438 464 169 167 16 44
406 572 282 175 3 55
439 464 174 133 21 43
188 716 153 165 105 75
441 453 165 78 34 38
295 427 292 65 52 38
432 464 219 154 9 42
443 454 169 54 37 36
419 429 315 99 12 31
444 454 174 49 34 35
333 618 328 168 18 55
445 450 174 61 32 36
345 740 177 59 47 42
441 458 170 59 34 36
442 459 174 54 36 38
305 821 388 155 105 95
444 454 179 114 29 44
381 690 270 83 25 38
442 459 179 82 32 40
442 459 184 175 13 50
328 873 155 91 75 71
440 465 179 142 22 47
356 713 183 61 49 38
313 824 275 183 136 115
441 462 179 80 29 37
441 458 189 168 7 47
388 804 184 71 59 53
440 460 190 167 6 46
332 947 304 57 52 51
368 319 270 123 95 62
188 724 193 111 80 63
440 464 189 172 7 47
204 823 204 132 90 72
268 634 289 79 20 32
441 462 187 171 7 46
189 759 184 172 102 81
380 374 275 118 92 63
435 470 168 170 11 40
436 468 170 180 14 47
389 585 218 111 23 41
437 469 174 191 14 49
341 861 142 105 85 80
434 474 174 131 21 43
438 469 189 181 9 51
435 475 178 182 12 49
435 476 184 190 13 51
417 709 393 184 120 91
252 544 183 68 28 38
434 479 184 131 19 43
390 722 269 44 27 28
436 473 179 185 13 48
434 479 189 184 11 49
240 742 196 103 77 57
436 473 189 183 10 49
332 399 285 118 82 66
416 482 156 31 34 40
417 488 161 49 30 35
420 485 162 39 36 39
373 734 193 70 54 45
258 279 304 120 94 67
381 602 226 37 25 33
421 483 161 42 35 39
423 484 164 76 35 40
417 493 165 53 35 38
419 495 168 57 30 34
354 865 179 69 63 64
424 489 169 83 34 40
296 761 300 86 67 60
375 764 337 144 101 80
192 744 189 128 80 61
422 494 170 57 33 37
410 761 267 41 34 28
424 494 174 97 33 42
189 784 193 166 106 85
467 425 284 107 28 43
426 483 166 161 22 46
359 754 189 66 52 44
394 715 340 103 78 54
244 699 249 77 30 38
427 484 169 87 33 42
425 486 167 81 33 34
392 819 170 83 69 56
429 484 174 52 33 37
427 489 174 176 18 48
283 819 239 127 94 82
423 719 379 196 128 103
430 481 172 54 28 30
278 294 318 111 88 64
425 491 172 159 21 46
431 484 179 54 31 35
430 486 178 56 30 35
429 489 179 178 16 47
207 859 179 149 99 89
430 500 280 170 6 50
431 487 181 169 23 59
194 720 157 185 115 89
387 613 244 168 32 55
431 487 184 187 13 50
432 484 189 183 11 49
250 623 216 70 32 37
431 488 189 184 10 50
425 496 178 61 35 36
183 678 159 104 86 67
421 513 294 98 27 39
428 494 184 121 23 43
430 490 189 185 11 50
428 494 189 183 13 48
252 795 215 171 124 98
416 497 166 109 51 55
418 499 169 132 28 44
411 847 241 58 51 52
417 503 171 36 28 34
418 504 174 69 36 41
288 629 201 155 4 35
399 484 364 155 7 49
420 500 173 79 29 40
431 499 251 139 7 33
421 497 171 115 31 41
258 594 194 90 25 39
398 445 297 90 18 32
382 699 249 75 36 37
421 502 176 58 28 35
424 499 179 108 35 44
422 504 179 61 33 37
423 504 184 58 29 35
418 509 179 110 26 42
287 558 286 33 28 28
421 507 180 56 28 39
421 508 184 157 26 52
309 931 313 32 30 32
330 335 282 103 71 52
420 511 188 194 13 47
422 509 189 189 12 46
242 514 194 101 24 36
425 500 184 57 30 34
426 497 181 41 25 37
411 799 216 75 61 55
426 498 185 102 34 46
362 679 312 50 25 29
332 479 291 69 24 31
183 843 193 189 129 124
341 789 167 74 55 44
426 499 189 184 16 50
418 480 288 79 46 51
431 459 224 75 25 33
370 675 216 101 66 42
414 554 280 115 24 43
389 604 289 117 29 45
431 469 223 93 23 37
171 704 157 138 100 63
338 764 325 70 59 55
430 469 225 114 20 39
389 555 192 100 26 41
432 474 214 37 29 34
430 474 225 76 31 41
430 480 220 137 24 49
370 278 261 125 96 60
440 454 199 161 5 47
368 499 309 107 1 32
438 454 204 156 9 46
369 363 285 116 92 64
437 454 209 108 24 42
262 644 284 156 9 51
211 746 172 210 135 104
440 459 194 163 4 47
278 939 306 123 93 81
363 494 380 59 24 33
298 856 277 154 118 93
439 464 194 170 6 49
443 752 266 68 51 37
283 314 258 83 70 57
437 464 199 162 5 46
441 454 194 161 5 47
440 455 195 160 4 46
309 971 290 71 66 66
252 644 229 158 5 45
441 457 192 161 5 46
341 777 377 177 115 92
435 454 215 98 24 39
436 454 212 78 29 38
433 454 219 104 26 42
432 454 224 71 25 33
434 459 214 152 10 44
433 464 214 159 6 45
436 457 212 94 29 47
432 459 219 143 13 43
435 471 196 174 8 46
434 469 209 162 8 44
435 474 194 177 9 48
385 364 259 115 91 63
434 474 199 172 8 46
403 874 318 55 45 37
433 479 194 179 9 49
433 479 199 173 8 45
258 419 293 151 108 87
433 474 209 93 19 37
433 479 204 129 14 40
432 479 209 112 25 42
431 450 227 86 29 37
364 294 270 126 92 62
431 453 227 60 27 33
248 584 254 82 28 38
429 454 229 50 28 33
214 702 167 96 78 57
278 689 298 74 27 35
427 454 234 54 29 33
427 454 239 67 26 35
278 614 195 115 28 39
370 397 296 102 82 61
284 764 283 83 66 60
430 456 226 61 28 32
343 564 305 36 27 29
429 459 229 68 30 36
271 578 281 70 18 31
398 723 394 193 125 97
431 463 227 41 25 30
429 464 229 56 24 34
427 459 234 51 30 34
426 459 239 42 29 31
394 566 208 190 15 48
425 464 240 55 29 30
426 464 239 65 28 34
234 569 219 42 29 29
431 453 246 50 34 31
429 459 244 65 27 31
428 464 244 81 25 33
355 926 306 64 53 46
235 569 216 40 32 31
366 533 378 185 6 59
380 876 234 59 53 51
434 454 247 73 29 38
325 314 268 75 61 48
431 460 246 98 26 36
348 574 309 48 27 31
371 425 302 81 65 46
368 599 214 107 21 39
265 627 206 39 34 35
288 654 305 46 26 32
431 464 246 64 32 30
362 805 316 180 133 109
433 464 248 66 32 35
425 479 240 62 28 34
429 469 229 139 18 44
427 469 234 83 23 35
341 848 272 154 112 88
384 719 350 132 95 78
367 775 326 96 66 44
426 469 239 39 29 32
425 471 240 37 30 35
380 792 197 69 55 51
273 759 174 94 75 52
429 474 229 74 27 35
428 479 229 82 25 36
427 474 234 54 27 34
308 789 389 169 126 112
340 611 207 56 29 36
461 430 241 144 5 32
433 469 248 62 33 33
330 755 379 110 85 62
430 470 247 50 32 33
425 474 242 45 28 32
372 629 240 113 25 39
262 815 210 173 130 103
427 478 245 122 10 37
378 734 314 62 34 34
428 479 248 75 24 33
430 474 247 95 23 35
373 504 369 39 26 30
441 455 247 40 35 34
431 434 313 133 12 44
267 364 311 151 105 87
448 454 244 57 29 35
443 463 246 79 28 37
308 714 195 91 24 28
506 881 255 111 86 68
443 465 247 69 25 32
448 459 245 78 27 36
248 634 234 121 18 41
353 589 345 92 29 40
393 599 239 114 29 44
304 359 294 119 85 65
296 289 266 105 85 62
448 464 246 90 23 34
383 839 279 33 28 27
447 466 247 109 17 35
250 642 249 146 8 47
443 479 250 126 11 35
384 699 239 53 39 31
448 474 249 139 14 37
424 704 364 153 108 76
447 479 250 146 14 36
278 420 296 125 90 70
354 909 219 62 56 59
270 721 196 75 36 33
414 746 263 61 53 47
318 874 164 81 66 62
431 484 199 168 7 44
421 744 349 176 115 85
357 815 306 47 39 40
352 929 319 79 64 57
432 484 194 175 8 47
418 764 250 54 42 38
431 487 199 165 6 44
396 432 392 146 34 50
210 737 192 153 115 96
432 484 204 167 6 43
332 654 215 83 27 27
168 684 159 146 108 77
431 488 204 169 7 43
431 484 209 144 15 44
375 791 178 73 60 52
363 893 280 34 31 32
440 500 264 51 29 32
398 731 381 136 84 63
431 488 208 155 16 47
376 888 244 60 56 56
273 824 184 195 122 92
430 490 204 170 8 45
211 690 174 86 73 61
430 489 209 83 22 35
297 884 228 76 63 50
429 494 204 163 9 44
281 728 192 52 32 35
429 494 209 64 26 34
378 464 375 74 11 33
324 606 197 106 29 46
431 483 213 47 27 34
429 489 214 39 31 34
404 550 203 190 16 46
430 484 219 79 29 38
429 484 224 108 27 42
322 364 274 87 60 44
429 489 219 90 25 39
467 439 249 87 27 38
427 494 224 167 7 45
279 788 263 78 61 55
369 610 320 134 19 47
424 509 199 173 10 45
427 499 199 170 8 45
426 503 195 172 10 44
368 484 308 44 27 29
333 619 208 49 35 40
353 763 327 62 50 46
337 774 389 192 129 103
426 504 199 164 9 43
428 499 204 169 8 44
427 504 204 168 7 44
308 983 254 59 55 55
377 883 308 42 35 34
427 504 209 175 9 47
355 859 177 67 63 65
425 506 198 167 9 43
258 758 269 76 51 53
289 494 278 66 22 31
198 859 184 133 84 80
426 507 201 167 8 43
426 507 204 167 7 45
425 510 204 170 8 45
426 504 214 173 8 48
399 424 279 72 58 47
306 799 384 176 122 111
285 946 212 82 77 78
473 875 294 97 77 64
426 499 224 166 7 45
278 774 168 115 85 49
426 503 219 166 7 47
298 854 229 159 115 86
365 787 327 159 113 86
367 494 378 69 19 29
425 504 224 166 6 46
255 787 232 164 127 104
413 494 324 142 10 46
426 502 223 163 6 44
365 780 187 61 50 48
448 744 259 77 59 41
306 324 274 83 67 50
424 509 224 165 7 45
427 489 229 81 24 35
427 484 234 45 28 31
426 489 234 111 22 41
410 772 237 55 46 42
425 489 240 51 29 31
293 519 143 78 33 37
426 494 229 86 22 37
425 494 235 160 12 47
335 864 164 75 62 60
269 569 274 93 20 37
211 722 160 149 100 67
245 574 196 150 2 36
426 494 233 146 14 45
451 473 258 83 24 35
425 494 248 134 8 35
424 484 244 45 30 33
346 691 150 70 56 41
418 464 339 113 17 42
313 982 259 54 51 51
425 481 247 54 28 24
435 439 306 148 4 46
425 484 247 41 29 30
293 769 289 84 67 60
428 484 249 44 33 33
425 489 247 95 22 34
322 842 372 184 121 109
391 716 206 47 39 36
348 588 348 138 26 52
448 910 279 88 75 66
428 489 250 82 21 33
354 849 143 103 85 78
428 494 250 141 8 36
431 494 251 139 7 34
422 819 254 60 48 42
424 504 239 159 7 44
424 509 234 158 7 44
423 509 239 161 6 44
240 603 215 170 6 45
325 299 259 77 66 56
425 500 225 164 6 44
417 865 256 121 106 104
426 497 229 157 12 48
424 504 229 163 6 44
333 304 278 90 69 48
307 794 291 59 48 47
425 504 234 162 5 44
424 509 229 136 11 40
424 499 244 147 9 41
423 504 244 149 8 41
324 625 207 42 35 39
260 649 278 160 2 49
423 509 244 152 8 40
424 509 249 139 7 37
249 529 184 129 16 39
183 717 156 178 118 87
425 504 247 140 8 36
404 504 344 180 2 57
359 749 189 58 47 41
378 794 174 72 59 51
428 499 250 139 7 35
264 290 312 110 86 63
427 504 250 136 7 36
379 695 385 118 93 67
429 505 253 135 7 36
399 459 361 46 26 26
433 504 255 92 17 32
431 425 312 27 28 28
384 449 395 171 1 53
432 508 256 67 26 32
323 929 203 84 76 77
183 678 186 107 88 68
434 490 252 117 12 31
439 416 300 119 22 41
343 585 319 34 27 26
389 910 320 69 54 43
239 594 247 50 26 31
401 483 329 39 26 30
436 487 251 126 8 29
410 790 241 49 38 38
438 489 252 99 14 29
416 548 249 72 25 34
357 817 173 84 65 59
434 494 252 131 6 33
443 485 252 143 9 34
328 354 284 111 75 58
446 482 251 153 12 33
370 601 217 37 31 28
309 474 295 81 10 26
449 479 254 161 12 43
412 426 263 71 49 41
446 487 255 171 9 44
310 850 277 169 132 106
316 647 206 136 4 32
172 724 196 135 108 88
263 664 284 157 3 49
442 494 255 139 12 37
333 945 309 64 55 51
438 499 255 102 18 34
348 843 273 142 107 81
348 614 329 98 20 38
333 628 322 106 15 39
437 503 256 71 21 27
332 701 332 105 11 36
306 477 297 81 8 27
286 537 276 56 32 34
373 639 294 157 9 47
441 497 256 139 16 40
449 439 174 65 34 38
375 500 386 177 6 53
453 430 241 133 11 30
463 449 264 79 32 35
408 449 299 87 22 30
458 428 244 135 10 31
328 583 334 42 26 28
444 424 295 106 18 38
380 576 326 51 31 32
404 829 229 60 52 49
458 429 249 118 8 31
463 429 244 145 12 34
188 729 194 110 78 62
184 729 196 115 84 68
304 304 284 104 83 58
316 626 321 117 30 44
387 699 370 98 70 53
333 860 154 148 137 137
453 439 241 78 26 34
340 966 254 66 62 63
203 834 184 128 91 70
452 441 242 82 30 42
404 706 401 172 119 89
453 444 243 56 28 31
458 433 241 134 5 32
331 811 296 46 41 44
363 800 175 75 64 59
365 455 390 107 0 33
457 439 241 78 25 29
244 559 195 137 1 32
462 432 241 147 5 33
269 817 217 45 38 41
463 434 243 154 7 33
218 730 197 128 101 82
456 432 255 86 14 30
456 442 241 70 36 42
412 529 309 87 27 38
458 444 243 74 30 35
394 433 291 73 52 42
302 320 265 105 84 61
462 444 245 111 18 38
464 445 249 124 23 42
467 430 245 153 13 36
468 429 254 119 20 41
471 431 255 108 22 40
252 659 254 64 27 36
423 449 344 102 27 42
307 339 279 101 73 55
168 789 213 160 128 112
278 644 208 143 8 34
348 844 139 113 86 72
338 854 159 105 84 72
467 434 245 154 10 37
466 438 246 158 14 41
249 714 282 139 0 43
380 409 290 67 56 46
287 427 292 103 76 55
378 859 204 61 55 55
334 649 217 88 23 28
471 433 255 105 19 35
446 757 267 71 53 40
465 441 247 74 15 24
276 670 296 159 3 50
341 919 211 72 65 67
247 624 224 76 30 37
466 444 254 139 23 42
353 329 285 118 87 58
465 446 253 181 19 50
464 449 254 146 20 46
452 463 246 81 28 39
394 509 359 176 6 57
454 465 248 115 29 43
388 823 169 75 63 55
459 454 249 79 32 38
235 792 188 171 125 97
318 588 334 44 26 27
288 574 174 98 31 38
345 730 393 138 112 87
259 874 254 147 116 88
460 455 254 64 33 35
461 452 250 106 34 40
261 537 265 104 20 37
390 830 192 54 49 50
461 453 254 94 33 39
292 848 270 133 107 82
456 458 246 49 31 35
308 909 299 107 80 65
307 755 315 85 67 61
457 459 249 83 33 41
456 463 254 210 18 57
344 875 198 60 54 54
240 719 241 147 2 44
455 465 254 201 15 55
453 469 254 188 15 52
451 472 250 149 22 47
451 473 254 114 19 40
257 274 258 141 98 66
261 280 257 139 96 65
259 289 261 141 97 67
236 514 208 55 29 32
266 286 257 136 96 66
288 826 187 121 77 63
305 329 269 89 70 52
268 289 257 134 97 66
183 670 169 109 93 77
269 288 256 133 97 66
289 264 258 95 75 51
313 605 335 194 11 62
286 268 256 97 76 53
279 285 257 102 78 52
293 889 303 166 123 99
276 288 256 116 87 59
218 724 166 147 99 65
284 275 257 96 74 52
344 529 302 88 18 36
378 821 169 88 69 58
395 455 381 173 0 55
294 384 300 119 85 68
277 799 249 74 58 53
299 294 294 115 91 64
283 279 258 93 73 51
266 490 271 41 26 28
298 604 190 179 3 38
485 820 266 82 67 50
288 274 259 95 75 53
183 834 180 110 86 59
370 852 137 78 64 51
280 281 257 99 77 52
283 289 259 89 70 48
383 876 239 66 60 60
288 284 260 86 69 49
369 500 391 56 21 30
227 775 179 220 152 118
257 259 301 119 94 69
273 379 309 154 109 88
245 719 229 45 31 36
454 454 289 171 3 54
259 259 303 119 94 68
263 259 304 118 92 65
351 729 180 63 50 43
237 584 249 123 23 45
372 329 268 126 99 67
291 296 307 115 89 57
352 825 295 64 52 48
256 269 301 121 96 70
365 626 311 177 7 54
273 264 305 120 97 71
410 440 371 165 3 51
266 268 306 117 93 67
446 856 317 58 47 37
268 269 307 112 89 65
268 266 307 115 92 66
441 761 272 66 51 40
363 840 279 40 34 32
272 266 307 116 93 68
256 272 301 123 96 71
353 625 320 179 0 56
262 274 306 116 91 65
308 629 203 152 0 32
248 544 258 38 26 28
264 274 307 109 86 62
293 499 294 92 8 29
261 278 306 115 91 65
255 523 176 143 0 32
260 281 307 119 94 68
399 754 233 42 37 37
263 284 309 113 89 65
262 289 310 112 87 62
353 726 332 134 7 46
450 465 285 174 15 51
268 279 310 103 83 61
273 274 309 114 92 68
273 278 311 105 85 64
270 280 312 98 79 59
363 489 393 88 21 34
273 280 312 99 80 60
266 283 311 105 84 62
369 419 301 87 70 51
268 284 313 99 80 60
278 799 166 146 99 62
238 584 229 89 24 39
303 699 198 69 30 34
374 585 207 189 13 46
405 832 242 65 52 50
443 494 259 170 12 45
265 286 312 107 84 64
268 289 314 103 82 61
273 284 314 103 84 65
273 288 316 102 82 61
288 259 294 120 95 67
282 260 302 116 93 67
404 430 370 80 18 32
251 590 197 37 29 38
286 260 298 117 93 65
287 264 299 117 93 67
378 759 194 67 52 46
328 864 209 44 41 44
288 269 299 118 94 65
274 267 306 118 95 69
277 270 307 121 96 67
358 844 184 60 55 57
305 857 361 186 141 131
263 954 294 58 48 47
289 274 299 118 93 65
240 593 227 56 26 31
190 677 181 86 72 57
183 680 187 110 90 69
278 274 308 119 95 67
278 279 310 109 88 64
279 282 311 107 87 64
276 281 312 102 82 60
298 804 274 196 138 119
278 289 315 108 87 66
188 679 164 100 83 65
453 434 274 86 11 29
280 272 306 122 97 68
284 274 305 116 91 62
391 453 387 169 0 53
282 275 307 119 94 65
403 544 194 150 14 43
434 474 305 141 19 49
478 843 264 88 73 62
332 364 285 121 83 66
325 729 175 69 54 43
289 284 304 114 90 61
287 285 308 111 88 60
349 360 292 129 96 69
323 829 359 132 89 77
285 288 311 111 89 63
245 699 264 65 30 36
287 289 309 111 88 60
282 285 312 108 87 64
283 289 313 109 88 64
321 687 198 69 48 35
448 749 254 95 68 50
297 314 303 117 88 60
258 294 264 143 99 74
269 635 294 56 28 32
261 295 262 136 98 70
412 504 299 67 46 49
428 418 323 104 16 36
386 405 273 73 63 54
258 299 264 132 98 71
261 299 262 126 96 65
283 569 289 53 27 31
258 304 264 133 100 71
256 304 267 128 97 69
313 549 293 90 15 32
273 290 257 127 94 64
268 299 258 124 93 59
324 590 320 50 24 25
383 429 394 96 19 35
268 304 258 125 95 62
273 304 257 115 90 61
265 822 202 184 138 110
259 309 265 131 98 70
264 309 260 130 97 67
307 409 282 63 48 31
256 309 267 120 94 65
381 370 272 117 92 62
259 314 265 118 92 64
301 319 297 123 90 63
263 319 260 118 93 65
273 823 179 197 125 97
489 806 278 85 82 78
251 518 260 56 26 30
256 314 267 111 88 61
168 769 210 154 122 105
271 310 257 117 92 62
193 874 175 174 118 104
268 314 258 118 92 62
273 314 256 102 82 60
323 614 329 186 10 59
298 958 221 89 85 90
278 294 257 107 83 58
278 299 257 96 77 57
269 709 201 94 23 28
279 304 257 92 77 59
287 294 260 77 63 47
344 818 297 72 59 57
289 294 263 79 65 49
368 689 309 71 23 31
283 299 259 80 66 51
405 469 344 47 28 29
286 303 261 80 67 54
384 408 279 70 61 51
380 845 208 58 52 52
288 304 263 85 71 57
368 659 244 83 23 31
274 305 256 112 89 61
328 839 276 173 134 110
406 838 264 56 46 40
277 305 256 99 81 61
396 594 279 98 23 41
278 309 256 92 76 60
278 316 257 89 75 59
278 317 257 89 74 59
283 309 259 82 69 56
263 857 284 99 80 59
247 544 189 154 6 37
281 310 256 85 72 59
272 790 250 75 60 55
285 306 262 82 69 55
289 309 263 84 71 58
281 314 256 85 72 58
288 314 260 84 71 59
388 609 284 101 29 42
373 489 374 43 25 30
257 304 305 129 95 68
259 294 308 125 94 67
327 838 373 164 116 97
368 877 225 57 50 49
261 294 311 119 90 63
259 299 308 126 93 67
259 304 309 119 89 60
400 551 197 44 26 33
353 629 318 180 3 57
261 299 311 123 92 64
390 456 386 166 0 50
263 299 314 123 93 65
246 779 210 142 104 75
415 718 252 107 73 57
267 293 315 110 86 63
270 291 317 104 83 62
322 334 259 76 63 49
273 294 318 106 85 62
290 304 310 111 83 55
265 300 317 121 94 67
328 586 325 43 25 26
266 297 316 116 91 66
239 784 171 194 132 99
288 309 319 109 85 57
268 299 318 110 87 61
328 644 213 110 16 29
264 304 318 115 89 63
401 432 372 77 23 33
268 304 320 114 89 63
300 289 274 91 76 61
241 719 274 131 6 44
257 309 305 125 95 64
358 909 229 63 56 56
292 474 289 46 25 28
412 544 283 61 28 32
257 319 305 132 98 69
259 309 309 120 91 60
354 832 153 111 86 62
260 305 312 114 87 58
189 778 205 137 87 67
260 309 312 118 91 61
343 649 314 152 15 51
261 309 315 114 88 59
325 345 282 92 65 43
331 829 373 186 126 107
264 309 318 114 90 62
259 314 309 127 93 65
473 909 269 148 124 113
259 319 309 133 97 71
364 595 208 179 17 44
411 478 352 169 10 56
260 314 313 129 94 67
261 314 315 128 94 66
250 757 162 132 93 56
264 319 318 141 97 77
276 291 317 107 85 62
279 292 316 109 87 63
408 429 274 72 51 44
173 799 218 143 119 103
323 630 321 63 28 34
284 294 315 112 89 64
320 702 191 60 46 40
328 884 184 66 59 59
384 494 380 68 26 33
286 290 312 111 88 62
229 734 198 109 86 67
287 294 313 113 89 61
429 447 291 128 16 37
387 699 359 128 88 68
283 299 318 114 90 62
337 874 179 63 56 56
269 319 323 143 97 80
288 299 314 114 88 59
285 297 316 115 91 63
288 495 276 69 20 31
391 801 189 67 56 52
286 300 317 114 89 61
293 789 172 131 93 54
246 735 275 189 3 59
287 304 318 110 86 59
289 259 257 96 75 51
295 259 269 101 80 54
300 354 301 124 87 66
253 809 170 196 132 102
295 264 269 98 78 55
300 707 197 66 36 32
295 268 270 95 76 56
296 270 269 91 74 54
171 700 157 136 99 62
182 832 182 97 77 54
295 259 279 113 89 60
239 569 204 164 6 44
292 259 289 119 95 66
338 598 343 100 25 41
394 819 182 67 55 48
295 264 284 118 92 62
295 269 274 100 79 55
298 923 191 90 79 76
435 756 261 92 69 47
295 268 279 108 84 57
406 467 344 44 26 31
254 554 268 151 2 46
295 268 285 117 92 63
198 689 189 99 80 61
295 269 290 115 91 62
214 744 192 156 115 97
316 811 286 199 144 124
296 271 274 99 78 54
357 573 329 54 23 29
234 559 219 100 17 34
296 266 281 116 90 62
291 279 261 95 75 54
294 274 263 106 82 57
333 535 162 80 32 40
397 598 249 81 35 41
359 329 280 119 88 55
343 314 286 116 85 62
293 289 265 91 74 55
296 274 265 101 80 58
292 563 291 41 27 29
297 274 269 89 72 54
165 804 204 193 140 124
296 279 266 108 85 61
298 279 269 90 74 56
379 570 330 48 28 30
308 839 373 129 89 80
296 284 266 112 90 68
260 592 191 41 30 35
397 766 206 72 55 43
298 284 269 107 87 67
296 279 279 103 82 57
402 849 224 63 54 54
296 274 284 111 87 60
348 744 394 185 134 107
361 794 179 67 55 50
297 279 284 109 86 59
298 284 279 100 80 58
435 440 291 133 12 42
298 284 284 107 84 58
356 461 306 47 27 28
253 689 274 116 14 39
299 289 284 106 84 60
243 774 201 130 96 69
299 289 289 111 88 62
291 265 292 118 93 65
324 761 381 105 86 66
295 273 290 113 89 60
291 275 297 118 94 66
334 853 139 114 91 80
295 283 296 118 93 65
293 284 299 118 93 64
241 707 254 106 10 37
290 289 305 114 89 60
193 714 154 179 114 86
292 289 303 116 91 62
294 289 299 119 93 63
469 434 274 132 22 48
296 279 292 115 91 63
384 409 284 68 58 48
289 299 263 81 68 54
293 299 265 85 72 57
463 858 297 61 44 38
293 304 265 88 74 60
302 304 271 131 106 78
441 482 279 147 18 43
288 865 293 130 103 77
471 847 262 89 76 66
332 384 286 122 85 69
301 291 274 87 73 60
419 534 219 65 31 37
353 759 327 67 41 41
300 294 272 126 104 81
300 293 279 96 78 59
368 799 179 78 62 56
339 920 323 41 38 38
301 295 279 92 77 61
426 701 370 143 103 66
300 292 284 106 85 61
375 329 266 128 100 68
363 259 268 124 96 61
301 295 284 105 84 60
301 295 288 110 87 60
302 299 274 111 91 71
507 888 273 89 73 55
368 544 175 154 13 40
303 299 284 104 84 60
304 304 279 91 75 58
328 559 170 164 21 46
394 739 235 51 40 41
299 594 302 128 2 40
255 634 264 39 28 31
318 494 284 82 22 33
347 959 254 64 60 59
449 857 248 140 132 130
303 304 289 112 89 63
382 695 242 58 38 31
293 314 264 85 72 58
165 710 192 143 112 89
290 318 262 85 72 59
406 455 357 99 5 36
296 306 266 89 74 58
328 426 299 51 41 30
297 309 266 91 75 59
429 779 264 64 50 39
302 309 270 122 98 72
297 315 265 89 74 57
299 319 263 87 72 56
297 320 261 83 71 58
298 313 267 97 80 61
353 524 305 114 5 35
420 891 292 82 65 51
387 755 200 68 52 43
301 316 266 101 81 59
403 894 264 71 58 56
332 922 206 78 70 72
304 319 268 111 88 65
305 309 274 93 77 59
416 459 358 77 27 38
304 319 278 97 74 52
318 749 188 106 23 33
306 308 277 83 69 55
305 309 284 106 83 58
164 758 186 183 126 100
304 309 289 113 88 61
361 933 254 61 55 52
306 319 272 79 66 54
306 315 284 109 82 56
351 577 357 111 25 42
306 316 287 114 86 60
306 316 281 104 77 54
263 824 184 198 130 92
306 318 287 117 87 63
292 294 304 117 91 61
241 524 197 148 7 35
293 299 304 119 92 61
268 865 254 125 90 42
309 784 388 167 123 108
268 456 286 43 26 29
297 294 298 116 92 65
300 298 295 117 94 68
428 429 259 67 22 31
428 442 285 113 28 39
300 297 291 113 90 64
428 434 349 82 25 34
302 304 294 118 94 67
390 469 366 81 7 31
407 534 189 193 16 47
298 299 299 117 93 65
298 304 299 119 94 65
296 300 302 119 94 62
372 848 142 95 78 65
383 899 330 66 53 44
300 303 296 120 96 68
346 264 271 113 87 59
290 293 306 116 92 62
316 838 367 165 126 117
328 324 279 81 62 45
278 699 199 69 30 33
290 299 310 115 87 58
291 304 308 114 86 58
419 789 270 57 45 38
420 451 356 78 37 39
422 723 374 196 128 101
289 304 314 109 82 55
503 894 274 86 71 57
303 309 294 121 95 66
408 559 219 98 33 44
413 440 288 79 39 36
360 787 186 57 49 48
299 309 299 122 95 65
333 693 173 64 50 39
296 309 302 119 91 62
301 309 297 123 96 67
303 314 294 123 94 66
240 709 254 134 5 42
393 464 308 81 22 31
299 314 300 123 92 64
297 319 303 114 85 58
308 504 281 42 25 28
301 314 297 123 93 67
401 815 196 67 59 54
303 684 201 50 32 36
292 309 309 109 83 55
290 309 314 105 79 53
275 549 277 60 25 34
413 718 389 169 102 74
251 758 207 93 71 50
291 311 312 104 78 50
421 502 312 74 22 32
293 319 309 111 81 54
290 314 315 110 81 54
291 314 313 109 80 52
328 420 284 76 56 43
178 719 158 176 118 85
276 791 256 76 60 54
288 314 319 118 88 61
391 690 382 107 84 60
290 319 316 115 80 55
295 376 301 125 90 70
288 319 319 125 87 66
276 659 296 37 27 30
273 304 322 116 88 65
273 309 324 119 89 67
449 459 295 174 1 54
421 885 328 68 52 43
174 675 182 120 98 75
266 314 321 128 93 68
314 930 198 101 90 92
368 369 289 119 94 63
458 894 281 86 74 64
269 314 323 127 93 68
271 549 271 135 7 40
323 774 395 185 143 124
253 714 285 139 0 43
233 559 239 160 2 50
293 709 319 56 26 32
274 301 322 111 86 63
276 301 322 113 89 64
279 303 321 116 91 64
303 694 319 68 23 32
278 304 322 118 91 66
261 746 281 37 30 35
278 314 324 127 94 70
278 319 324 137 95 73
281 306 322 116 87 62
391 704 216 64 48 36
283 319 323 134 93 70
285 312 321 119 89 60
282 497 277 71 26 37
286 319 322 132 91 69
393 748 254 49 32 29
263 619 274 45 29 30
258 324 264 104 84 62
312 778 379 126 96 75
257 329 264 103 84 64
343 904 299 31 28 30
416 447 307 90 45 45
263 324 259 107 87 64
345 945 228 78 70 70
261 322 262 106 86 62
278 504 273 53 26 30
262 329 258 101 84 65
417 459 329 93 20 37
322 824 189 52 46 46
260 325 261 100 82 62
256 334 263 104 85 65
298 430 290 88 43 36
261 333 258 98 83 68
275 778 267 83 65 58
318 980 243 71 67 68
258 339 259 103 86 67
408 876 322 66 54 44
256 338 262 107 88 66
428 519 258 75 25 34
246 725 184 87 69 53
257 344 258 107 88 67
387 399 269 79 68 56
257 324 304 134 98 71
405 838 240 59 50 51
161 755 188 181 126 101
257 329 304 134 99 71
498 888 238 108 88 69
304 426 304 105 23 37
376 558 343 43 25 29
256 331 301 135 101 73
257 334 304 134 99 72
397 454 379 171 0 54
260 324 312 126 92 65
178 680 187 116 95 74
343 749 330 96 26 39
389 723 218 48 38 35
265 323 318 144 99 79
278 948 214 79 73 74
393 429 290 70 57 45
263 329 314 137 97 73
372 562 314 39 28 30
276 776 166 122 88 50
261 334 311 138 99 74
267 324 320 146 99 82
281 818 176 189 126 96
347 914 215 65 60 60
203 689 184 77 63 48
399 494 344 66 22 34
352 849 175 64 58 59
312 686 201 49 32 33
265 328 317 143 98 77
405 579 244 186 12 51
486 917 277 85 76 71
334 319 283 112 80 60
317 799 392 173 130 109
266 330 316 140 97 76
266 334 316 139 98 75
298 394 295 95 73 52
257 339 304 130 97 69
326 380 281 115 78 62
257 344 304 130 97 70
301 442 297 38 27 28
292 836 209 52 49 57
261 339 310 138 100 74
165 824 204 154 128 111
264 339 313 142 102 77
260 349 307 135 98 73
372 664 249 83 28 34
262 349 310 141 101 76
362 553 368 145 29 52
267 339 315 144 101 78
269 339 318 145 101 81
273 339 320 148 100 83
280 895 226 173 131 102
278 394 304 143 102 82
351 953 254 59 54 54
270 344 317 155 107 88
253 604 259 52 29 34
265 348 312 148 104 80
263 574 269 88 18 35
313 919 194 92 81 80
299 845 272 150 116 94
270 348 317 157 106 88
383 515 307 46 28 32
403 724 325 90 67 49
183 684 190 113 92 70
382 578 206 183 14 45
273 348 317 156 103 86
281 771 276 81 65 59
288 329 319 124 86 63
287 334 318 125 87 66
243 769 161 150 104 62
278 344 319 155 104 87
280 351 316 159 109 88
398 428 384 121 22 45
426 898 277 94 78 65
283 344 318 145 95 76
283 339 320 134 86 74
294 840 264 149 115 90
287 339 318 124 82 70
314 623 322 67 30 35
257 354 304 137 101 75
258 359 304 140 103 78
216 761 190 176 122 102
258 364 304 144 105 81
274 675 211 39 33 36
256 369 301 144 106 80
260 354 307 137 98 77
400 744 219 59 46 42
308 853 368 189 133 122
411 433 373 150 9 49
263 354 309 145 102 80
309 419 289 59 46 31
260 358 307 143 101 80
261 364 306 148 105 82
266 356 311 153 108 86
265 352 312 149 104 82
253 739 209 116 79 60
268 354 313 156 110 89
248 799 169 196 135 102
268 359 313 152 105 87
231 780 190 174 122 97
242 569 198 140 2 35
406 463 323 41 23 28
273 354 315 158 108 89
385 596 306 163 8 52
273 359 314 155 105 88
268 369 310 151 105 86
346 943 230 78 70 70
272 370 311 153 107 87
388 859 275 42 36 35
212 744 191 159 114 96
269 363 312 151 104 86
377 793 171 76 61 52
274 368 312 154 108 87
256 374 301 145 107 83
178 674 183 112 91 71
405 891 263 83 65 65
259 374 303 147 106 84
443 878 299 67 56 48
257 379 300 144 104 83
237 739 198 102 78 58
260 383 302 148 108 84
263 379 305 148 106 86
395 674 385 111 88 63
372 913 275 71 65 65
263 384 304 150 108 85
264 374 307 150 107 86
268 374 309 151 106 86
273 374 310 153 108 88
391 731 292 124 9 48
265 378 307 149 104 86
409 783 224 56 47 44
438 436 269 87 21 32
268 379 308 152 108 87
395 601 253 62 23 29
268 684 209 51 33 37
266 381 306 151 107 87
322 364 264 74 56 42
267 385 306 151 108 86
269 384 307 152 108 87
193 694 153 96 80 62
173 854 178 148 103 88
278 352 317 162 111 91
414 519 314 114 20 41
308 724 333 158 8 50
348 659 314 62 26 33
278 359 314 156 108 89
249 939 269 182 138 117
278 364 313 154 107 89
278 368 312 154 108 89
340 290 277 101 79 56
283 359 314 148 102 85
285 366 311 144 101 83
274 554 278 38 27 30
288 369 309 141 100 81
282 368 312 147 102 85
368 825 174 66 56 52
278 370 311 152 106 88
278 374 310 152 106 88
278 384 308 152 107 87
283 379 308 144 102 83
269 709 297 117 12 39
271 567 276 113 32 49
263 939 229 61 58 60
283 384 307 144 102 83
287 379 307 140 99 80
394 435 375 45 27 30
295 837 219 202 144 112
327 816 291 192 145 126
289 379 306 136 97 78
286 383 307 138 98 80
236 529 212 71 23 33
288 384 305 133 95 77
293 328 257 84 72 60
298 329 258 84 71 56
446 754 267 77 59 45
246 754 219 137 105 75
431 523 269 67 27 35
302 430 294 88 43 41
303 321 260 110 87 66
303 324 264 93 75 57
238 519 248 95 23 38
264 870 250 119 91 57
304 329 264 86 71 55
368 674 239 56 41 42
439 440 285 112 16 37
305 324 274 85 68 50
378 609 229 118 25 41
304 337 261 83 69 56
306 326 260 87 72 55
443 430 289 111 23 46
305 323 268 98 78 57
306 324 270 88 71 53
306 334 259 86 70 55
383 430 402 167 11 54
307 334 269 82 67 50
306 324 279 101 74 53
343 688 209 91 45 41
383 813 183 97 71 57
305 329 273 85 66 48
348 564 179 129 30 43
306 329 279 101 73 52
306 324 284 113 80 60
305 324 289 120 87 63
305 326 286 118 85 64
222 711 187 88 71 53
305 329 289 119 86 63
160 749 198 169 127 105
318 639 208 88 25 31
353 584 349 88 30 39
305 332 274 88 67 49
378 469 308 78 13 29
330 797 362 148 98 77
306 334 274 89 67 49
164 834 194 166 131 115
373 434 303 75 51 37
306 331 287 118 84 61
306 334 284 112 79 60
381 686 275 86 33 44
388 564 324 135 18 47
306 334 288 116 83 62
306 339 259 83 68 54
306 339 264 77 66 54
343 864 263 46 36 33
307 344 264 78 64 51
325 320 272 73 61 48
298 804 175 122 87 57
438 862 322 69 55 44
405 521 177 189 14 41
307 339 269 81 65 48
313 864 219 64 54 53
420 516 295 43 27 31
307 344 269 86 66 49
332 592 314 46 25 22
251 664 249 35 27 33
307 349 269 92 68 50
294 748 312 122 36 53
307 344 279 102 73 56
306 339 284 112 79 60
369 654 300 40 28 30
344 374 292 129 94 70
306 339 288 117 84 62
307 344 284 114 81 62
206 872 180 152 102 97
403 514 334 171 3 54
308 349 274 97 70 52
319 585 349 99 17 36
307 349 284 113 79 61
306 350 288 116 82 64
425 766 273 52 42 35
404 761 356 200 130 103
299 324 300 115 86 59
297 324 304 112 85 56
298 329 304 114 85 58
300 334 300 116 86 59
302 334 298 115 85 58
294 324 309 111 82 55
294 329 309 113 83 57
367 664 304 77 25 35
420 425 315 108 10 35
292 324 313 113 81 55
319 460 296 30 23 25
414 439 324 84 2 24
406 469 322 41 36 34
290 324 316 117 80 59
292 329 313 113 83 56
239 714 254 143 2 44
359 935 289 64 54 53
358 444 307 114 9 36
234 519 214 146 4 38
290 335 316 120 85 62
251 890 279 168 111 101
362 743 393 196 136 103
296 326 307 113 86 57
333 709 169 81 62 48
433 494 289 141 18 45
296 329 307 114 84 58
304 339 294 116 85 60
299 339 304 120 85 61
339 688 204 90 41 34
299 344 304 122 87 64
297 644 311 53 30 33
300 339 301 118 86 61
302 344 299 118 86 62
419 445 305 102 29 38
300 343 301 120 87 63
446 872 317 85 63 47
374 559 344 32 27 31
304 349 294 119 84 63
302 349 299 121 87 64
363 729 194 59 47 41
301 348 302 123 88 66
300 350 301 125 89 65
289 339 316 126 88 68
292 339 313 124 88 65
346 700 162 80 65 51
253 554 184 97 25 39
388 514 349 100 1 32
407 808 203 60 51 46
294 349 310 129 90 71
291 349 312 132 93 74
347 649 226 75 30 35
298 549 159 118 26 41
382 410 288 67 57 46
297 339 308 121 86 62
270 387 307 151 106 87
340 484 297 132 2 40
297 344 308 124 88 65
305 339 290 119 84 62
290 870 236 135 104 75
297 503 288 79 10 26
426 482 290 81 45 51
279 679 298 155 3 48
308 354 259 85 67 51
309 359 264 91 67 52
373 843 194 57 51 52
284 496 276 53 20 31
308 354 269 95 68 51
375 751 337 144 100 85
309 359 269 96 69 52
310 369 259 87 65 51
407 759 236 54 44 40
430 501 276 171 4 50
369 719 199 63 47 39
310 369 264 93 66 51
310 364 269 97 68 54
308 354 274 100 70 53
178 680 155 125 97 61
308 359 279 107 73 58
250 943 274 197 147 126
306 354 289 118 83 64
307 359 289 119 83 64
308 359 284 115 79 63
299 560 292 96 14 33
348 783 168 64 51 46
263 959 294 49 45 46
308 369 279 107 73 56
307 364 284 115 79 61
306 364 289 119 83 64
418 866 301 72 54 45
307 369 284 113 77 60
311 375 259 87 65 50
206 831 190 146 101 95
310 374 269 95 66 50
419 454 329 102 16 36
311 384 264 83 59 42
311 381 267 87 61 45
388 784 343 184 131 103
378 474 373 32 26 29
310 383 270 86 60 44
503 854 308 89 72 56
307 374 279 105 72 55
309 374 274 98 67 52
307 374 284 110 76 57
308 384 279 90 63 47
323 914 194 77 69 70
232 568 223 49 29 31
309 379 274 94 65 48
308 379 279 99 68 51
278 970 249 91 85 86
307 379 284 104 73 54
306 384 284 97 68 49
305 384 289 100 71 52
428 444 295 129 15 38
380 702 291 140 9 48
306 385 287 96 68 50
384 780 202 69 53 43
390 398 261 82 70 58
304 354 294 120 86 64
358 890 277 33 30 32
253 764 162 131 94 51
298 354 304 127 90 69
338 779 379 182 118 93
422 434 330 145 7 44
403 709 249 72 59 49
300 359 300 123 88 68
319 872 161 79 65 56
303 364 294 121 86 66
190 736 191 116 78 63
313 950 315 60 53 51
299 364 300 123 88 69
415 441 366 87 15 28
415 530 198 173 20 48
443 430 294 106 24 43
299 369 299 123 88 69
308 599 190 182 5 40
293 354 309 131 93 73
488 814 269 82 67 51
290 356 311 138 98 77
291 353 312 137 96 77
379 689 249 48 39 37
292 364 308 134 96 77
312 597 319 55 22 24
291 368 307 135 96 78
188 689 153 92 79 65
294 364 305 130 93 75
293 369 305 132 95 76
296 353 307 127 91 71
342 873 189 67 59 61
293 374 304 131 95 75
293 379 303 129 92 74
353 515 157 150 13 36
302 374 294 119 85 66
377 483 392 62 29 32
296 374 302 128 94 73
300 372 296 122 88 67
411 767 347 193 127 97
302 967 307 69 62 61
300 379 296 117 84 65
361 732 327 100 21 32
405 466 366 167 3 54
299 384 295 111 81 62
333 659 316 114 14 40
302 384 293 107 77 58
298 379 299 120 87 67
252 654 239 40 31 35
297 384 298 115 83 65
258 894 295 143 107 88
306 359 292 119 85 66
305 365 290 119 84 63
261 644 281 141 10 46
270 323 322 148 100 84
368 509 389 164 7 52
343 359 290 131 95 72
250 886 260 131 103 76
383 839 194 56 50 50
283 324 323 137 90 72
178 764 208 144 108 88
260 822 181 202 133 100
282 329 322 137 90 70
441 477 297 181 8 51
281 332 322 139 91 73
311 386 272 81 56 43
324 399 264 95 64 51
278 339 321 149 100 83
386 837 191 56 50 50
319 412 275 74 54 40
333 259 259 88 73 57
402 474 329 61 26 32
348 459 304 51 26 29
387 404 269 74 64 55
330 264 257 90 75 60
332 269 260 81 67 54
436 488 289 105 21 40
334 269 263 82 68 52
327 289 259 75 66 56
329 274 259 81 69 58
329 279 259 78 68 58
330 276 262 77 66 55
336 839 169 80 68 61
392 538 308 92 6 28
333 279 265 72 60 47
419 702 347 117 92 66
332 680 322 112 2 35
433 856 318 59 47 38
449 464 289 186 8 55
335 280 267 78 64 49
328 289 264 71 62 53
330 286 267 69 60 50
393 784 205 77 58 45
336 262 261 89 73 55
423 704 244 86 62 46
338 264 264 95 76 56
428 424 308 95 17 36
388 744 309 80 60 46
341 263 266 103 82 58
415 556 274 61 25 32
348 259 271 119 92 65
350 260 272 121 95 66
268 739 198 108 87 68
353 259 272 125 98 67
334 585 187 178 9 41
339 274 268 90 72 52
440 470 301 120 22 45
336 277 266 80 65 48
288 789 170 132 93 54
341 278 271 94 75 54
337 283 270 84 69 53
344 275 272 104 81 58
267 514 163 85 26 35
298 742 187 105 19 27
339 284 273 89 72 54
340 280 272 91 73 53
348 274 274 110 85 61
348 279 275 108 86 62
193 840 196 188 128 121
321 859 189 46 41 42
348 284 278 107 85 61
279 554 282 66 22 32
337 859 160 88 75 68
332 891 277 42 37 34
345 285 277 103 82 59
291 755 295 85 68 61
336 417 291 103 75 57
384 564 330 114 22 43
348 289 279 112 88 63
349 281 277 111 88 65
326 294 259 76 66 57
325 300 262 77 66 56
325 304 263 79 64 47
328 299 269 72 61 51
263 779 161 133 94 52
331 292 271 76 65 55
330 295 272 76 65 54
454 744 254 89 66 49
428 494 304 179 3 54
360 817 307 116 86 72
324 309 259 76 64 51
293 826 187 59 53 54
325 309 264 77 62 46
360 682 202 72 49 38
428 904 294 73 62 54
326 309 269 74 61 46
325 310 268 75 61 46
226 719 166 114 87 51
371 462 382 95 0 21
323 314 259 75 62 50
412 799 219 77 63 56
327 611 331 190 9 59
323 319 259 72 60 45
326 314 270 72 59 46
326 318 271 74 61 47
326 319 274 71 59 46
365 455 393 109 0 32
328 319 279 82 62 43
333 309 279 93 71 49
387 484 363 80 3 34
390 520 340 100 1 32
332 314 280 99 73 50
337 293 276 97 76 54
323 770 315 81 65 60
411 730 239 62 46 39
395 524 301 47 29 29
339 295 278 99 77 54
383 498 306 66 26 33
343 294 279 106 82 58
293 859 279 129 101 75
436 483 298 57 27 32
338 299 279 98 76 52
268 823 179 197 124 90
337 304 280 102 77 53
414 789 224 62 52 47
389 509 350 99 2 34
352 659 313 100 22 37
344 300 282 110 83 58
300 674 312 155 8 49
273 469 281 99 14 35
343 304 283 110 83 58
308 859 224 110 82 64
348 294 281 116 92 64
353 294 280 123 95 64
203 683 174 88 74 59
321 705 193 64 41 38
348 297 281 118 92 63
305 426 291 78 51 43
357 529 373 42 24 26
326 770 316 79 63 60
348 299 282 120 90 63
352 304 282 119 89 60
308 810 182 61 51 49
343 309 285 110 84 59
338 314 284 114 83 61
