ply
format ascii 1.0
comment Created by Open3D
element vertex 2223
property double x
property double y
property double z
property uchar red
property uchar green
property uchar blue
end_header
388 719 286 67 20 31
361 849 361 74 57 46
263 866 324 99 74 53
393 719 277 89 25 35
390 724 284 135 17 45
388 724 287 138 14 45
391 729 285 105 16 36
333 836 362 74 63 55
322 814 236 123 94 80
388 728 287 136 17 44
392 733 286 63 22 25
396 729 280 43 29 24
465 802 265 74 58 45
386 764 311 54 41 32
401 724 274 65 51 39
341 829 385 70 55 46
342 875 240 57 51 53
397 728 276 42 33 25
343 771 327 78 60 52
401 732 285 43 34 28
403 718 265 81 62 48
404 717 262 80 62 50
402 718 271 73 56 43
412 706 259 97 75 61
411 709 265 72 59 47
413 706 265 91 74 60
261 859 314 116 64 67
414 706 262 104 81 64
416 706 266 96 73 54
417 708 264 95 73 57
413 706 268 81 67 55
409 712 257 73 56 44
475 808 319 99 74 60
409 713 265 65 51 38
342 891 224 83 65 55
410 714 270 65 50 40
313 794 237 61 49 48
408 716 268 62 49 37
409 717 271 60 47 38
407 720 274 48 39 31
336 875 245 58 52 53
415 709 275 70 60 50
404 821 337 61 52 46
417 709 285 50 38 28
412 714 275 63 51 42
414 714 280 53 43 34
414 717 280 48 39 31
301 884 379 60 54 52
412 719 285 47 36 30
367 825 371 57 48 41
291 874 330 68 58 48
401 726 272 60 48 37
361 785 313 41 32 27
405 724 276 47 38 31
404 728 276 42 34 27
406 729 285 44 36 29
402 731 284 45 35 30
408 721 278 40 30 24
410 724 285 46 37 31
431 751 294 58 45 36
386 724 290 137 11 44
384 729 294 137 11 45
389 730 288 131 22 44
401 734 290 43 34 28
412 720 289 53 40 33
416 719 291 63 49 38
405 733 290 44 35 28
407 735 300 41 33 27
408 726 289 46 35 30
415 723 292 62 49 38
412 726 293 54 42 36
416 725 294 59 47 37
416 728 296 55 43 32
432 717 273 97 70 49
412 731 298 49 39 31
409 732 297 44 34 27
416 733 301 51 39 29
416 735 304 63 46 31
391 739 295 38 28 25
386 745 300 41 26 25
312 798 240 151 109 87
389 742 297 40 28 26
391 743 301 39 30 26
414 817 272 72 56 52
385 748 301 43 27 24
386 748 305 39 29 26
391 745 305 40 31 26
394 742 302 41 33 28
396 743 305 44 35 28
387 750 309 51 39 30
470 802 262 74 57 45
392 746 308 56 43 32
374 863 272 69 59 61
400 742 307 48 35 27
401 744 310 61 46 35
396 749 311 55 40 31
398 820 248 100 73 56
397 750 313 56 43 32
401 749 314 61 46 34
386 754 310 55 40 31
382 870 290 74 62 57
386 759 311 47 35 28
286 829 339 44 37 34
391 759 313 60 46 37
385 769 312 58 45 35
388 760 313 57 43 34
391 764 313 56 42 32
391 769 313 53 40 32
426 804 311 79 68 59
396 759 314 58 44 35
423 746 300 61 47 38
401 754 315 63 46 35
376 824 370 56 45 38
401 758 313 57 42 33
401 769 310 55 43 35
395 763 313 54 41 32
392 770 312 53 41 33
403 736 298 45 36 31
406 738 305 48 37 29
402 741 308 66 52 40
331 824 401 94 76 63
407 741 308 63 48 37
406 749 314 66 50 38
411 743 311 56 42 32
416 740 309 57 42 31
416 749 311 74 54 41
407 755 312 59 44 32
404 757 313 59 43 32
406 764 310 61 46 36
264 912 258 80 69 61
361 799 317 42 36 33
411 754 311 71 52 39
396 799 306 39 32 30
416 754 309 69 53 41
415 764 308 51 40 31
421 709 265 100 70 47
423 708 268 104 75 49
423 717 258 93 68 49
316 934 250 82 74 75
425 709 260 85 57 40
429 705 267 98 68 43
425 714 260 76 55 41
429 716 261 67 51 39
431 719 260 64 49 39
431 714 270 82 57 45
418 705 280 67 57 48
419 708 287 51 38 27
432 715 273 89 64 48
427 730 260 68 51 41
418 779 286 51 40 31
430 728 261 69 52 43
430 735 260 76 58 48
333 930 269 80 71 71
431 734 265 80 61 48
313 946 258 82 75 77
435 715 271 91 67 50
433 709 274 70 51 40
440 714 276 97 76 60
437 712 280 102 77 55
437 713 286 93 80 70
440 713 284 106 88 70
301 963 271 92 89 93
446 709 285 98 81 68
447 710 281 125 105 88
442 718 278 101 78 55
446 714 280 114 88 59
447 715 277 114 81 54
436 724 265 68 50 42
436 729 266 71 54 44
301 949 336 55 50 49
441 729 270 87 66 53
435 734 266 69 52 45
315 958 319 56 52 51
438 730 268 74 55 46
440 734 271 73 57 46
444 724 272 87 69 53
366 814 389 77 62 50
443 735 274 66 51 42
445 734 276 62 48 40
437 755 290 65 50 39
443 736 281 62 46 38
442 735 285 61 45 35
348 891 259 73 63 64
421 709 289 61 46 33
421 714 290 69 54 41
426 709 289 71 55 41
426 719 290 65 54 44
431 714 290 78 67 58
431 719 295 69 52 37
421 722 292 63 51 39
421 725 294 58 46 34
420 732 302 67 51 35
425 722 292 60 49 39
426 724 295 60 47 33
428 721 294 57 45 32
426 728 301 73 56 39
431 724 300 79 61 44
446 724 301 79 60 45
426 731 303 77 57 39
426 734 303 72 53 39
431 734 300 73 54 38
429 734 303 84 60 38
435 709 289 77 66 58
436 714 290 80 71 63
433 716 294 70 57 44
436 714 295 75 59 44
439 712 288 86 78 70
441 719 300 76 59 45
446 709 290 75 61 48
316 894 229 81 70 66
442 712 298 78 61 45
446 719 300 74 58 44
433 721 298 77 60 43
436 723 301 82 64 47
466 750 285 85 64 49
441 728 300 75 56 41
432 735 295 64 45 35
438 731 292 78 49 43
441 733 289 59 44 33
448 726 296 72 53 40
404 793 211 176 117 92
325 919 246 72 63 63
444 732 288 74 56 43
426 739 260 69 53 42
426 739 265 69 52 43
428 744 257 69 53 42
427 744 260 72 54 41
430 739 258 73 55 43
431 744 260 73 55 42
427 738 269 67 50 40
441 807 300 103 88 72
428 750 258 71 53 40
421 769 260 78 59 49
426 754 259 76 57 45
430 754 261 72 53 43
432 754 264 79 60 47
346 839 375 59 47 42
430 791 244 104 73 58
429 757 262 76 56 47
431 759 265 78 61 51
432 764 270 59 45 38
432 768 271 61 46 39
431 769 275 59 46 36
431 769 280 61 48 37
432 765 280 63 48 37
432 765 285 63 47 37
430 769 285 61 48 36
414 789 294 53 42 34
435 744 265 66 50 41
439 738 271 60 47 36
436 749 265 72 55 42
440 750 266 76 58 47
440 739 275 61 48 40
437 744 280 62 50 42
438 741 278 60 48 39
433 744 287 59 47 38
385 814 191 170 117 83
361 878 234 81 70 59
436 744 285 61 48 38
439 742 282 60 49 40
437 749 275 68 51 41
437 749 280 69 54 44
441 750 286 67 53 43
435 759 270 67 52 44
371 854 245 99 76 59
440 752 267 76 58 48
434 766 266 70 54 40
437 754 280 66 50 39
439 758 281 67 52 40
436 754 285 62 48 38
437 759 285 65 50 39
441 752 287 61 48 41
451 815 325 87 68 56
439 756 281 66 51 38
434 762 275 67 51 41
393 820 208 195 134 106
423 746 296 59 46 37
420 749 305 58 43 35
430 739 295 60 45 35
430 744 289 59 47 37
429 742 293 63 51 40
382 836 320 42 37 33
376 799 188 135 100 61
427 739 300 57 42 33
353 784 202 136 104 68
427 748 291 55 44 36
421 738 306 59 44 30
420 740 308 62 47 33
420 744 309 71 53 40
266 945 341 53 50 50
422 753 297 49 39 31
405 822 320 40 34 29
420 754 300 53 42 33
421 759 301 55 43 35
419 760 304 56 45 38
423 762 302 55 43 35
355 823 384 66 50 39
426 754 295 54 43 35
426 759 300 53 41 32
431 755 298 56 43 33
431 759 298 58 46 34
322 955 280 84 78 79
431 764 290 66 50 38
429 768 290 59 45 35
349 868 243 57 52 53
427 769 295 66 49 39
321 809 235 79 62 57
427 764 301 58 46 36
425 764 304 54 43 35
425 769 304 57 46 37
343 910 322 50 44 41
417 764 307 51 39 33
417 769 307 49 38 32
366 869 250 73 60 55
341 879 230 80 67 60
421 769 306 52 41 33
439 737 288 51 36 31
436 749 290 61 50 42
436 750 295 56 44 35
441 749 295 59 47 37
359 863 354 62 52 48
446 747 290 67 52 39
446 749 295 60 48 39
280 937 247 94 86 87
434 759 290 65 50 40
435 757 295 73 55 42
441 753 290 65 51 40
436 754 296 67 50 37
434 757 298 67 51 39
434 762 288 68 54 42
451 710 281 128 105 83
449 718 277 89 67 48
458 804 271 83 67 58
455 714 281 97 73 56
453 720 284 95 72 57
461 709 284 89 64 48
461 709 282 85 61 46
460 713 285 97 71 53
449 727 282 82 62 48
449 727 285 83 63 47
454 722 287 87 65 50
465 708 280 83 58 45
371 816 360 57 46 38
474 735 271 94 77 68
451 708 290 76 60 44
455 710 293 80 62 45
456 714 296 83 65 47
456 719 290 94 70 52
451 716 298 76 60 46
455 718 299 76 57 40
460 710 290 83 62 46
459 711 293 83 63 45
459 717 294 83 61 49
454 722 290 90 66 49
451 749 286 83 66 49
462 750 281 90 68 52
322 793 231 87 69 61
461 749 285 83 64 49
451 752 287 75 60 47
457 754 285 76 60 44
461 756 285 85 63 44
462 762 283 94 76 64
471 741 267 95 68 51
471 743 266 96 71 54
276 941 347 76 69 68
472 745 270 95 70 54
331 880 235 54 46 52
479 739 271 101 79 65
470 743 276 86 65 52
467 749 276 92 69 51
466 749 280 85 65 51
301 868 330 53 46 41
471 750 279 84 67 54
468 751 272 95 70 48
469 751 284 83 64 47
473 736 273 91 72 62
476 739 273 95 75 61
261 863 315 91 62 61
475 749 279 80 71 65
478 748 275 84 72 65
476 746 278 82 72 66
356 818 394 78 59 46
466 753 276 99 71 53
466 755 280 102 78 55
466 757 281 98 74 52
470 753 276 106 77 57
456 794 260 97 77 58
465 758 285 94 72 57
474 752 276 85 67 50
286 874 375 44 39 37
451 747 289 73 55 40
448 746 293 61 49 38
451 746 293 61 46 35
456 747 290 76 58 43
454 746 291 74 57 44
360 802 318 43 37 33
461 749 290 70 53 39
459 750 293 67 50 37
301 955 264 95 90 94
451 753 290 71 52 34
334 873 364 66 55 47
451 753 295 72 54 36
465 750 289 75 60 45
465 754 289 81 64 49
287 773 256 77 60 53
319 770 223 83 66 58
290 774 254 73 58 51
297 778 252 83 65 56
292 784 257 84 66 57
296 784 254 82 62 55
300 774 249 79 62 55
281 815 347 128 93 71
301 779 249 74 59 53
301 784 250 79 61 55
295 789 254 53 42 46
303 792 246 137 108 90
298 792 252 147 116 97
300 795 254 176 121 97
303 797 252 175 121 97
309 770 238 77 62 55
309 775 239 78 62 55
312 779 235 76 62 55
313 774 232 75 61 55
315 774 230 77 62 56
321 774 225 83 66 58
319 776 228 83 66 58
320 784 229 83 66 59
314 780 233 73 60 55
313 783 236 77 62 56
342 885 341 47 41 38
315 784 234 72 59 56
308 778 242 77 62 55
348 784 207 137 100 61
309 784 243 76 61 55
304 784 248 81 62 56
331 929 265 78 70 71
316 789 235 73 59 56
313 790 237 77 62 57
316 794 235 75 60 55
313 797 237 37 34 45
314 800 239 144 103 82
307 790 242 60 47 47
306 794 245 154 111 91
421 783 355 84 79 75
309 796 243 171 120 95
310 799 245 168 118 94
304 796 249 175 122 99
306 799 250 172 121 97
316 804 240 156 112 88
317 803 236 97 74 65
320 804 234 62 52 50
317 808 241 157 114 90
308 803 251 167 118 94
309 801 248 168 118 94
310 804 249 167 118 95
309 810 253 170 121 96
306 814 256 150 107 82
309 814 253 173 122 98
306 859 360 32 30 31
313 802 242 162 114 91
314 805 244 162 118 91
316 809 245 176 127 102
313 808 247 176 127 102
321 814 240 177 131 108
320 814 244 188 135 114
315 814 249 190 134 112
306 819 255 144 106 80
306 824 255 137 107 78
312 819 251 176 127 103
311 824 254 146 112 85
320 819 244 193 139 117
318 822 247 180 128 106
321 824 245 184 132 110
313 823 252 159 120 96
346 834 315 32 29 30
316 824 250 166 124 98
376 809 375 74 60 48
314 826 253 148 116 90
317 829 251 153 120 94
273 896 252 158 125 90
276 894 255 92 74 53
274 896 252 118 89 54
286 894 255 102 88 75
296 854 255 136 111 86
291 859 256 145 120 94
291 864 256 141 116 91
296 864 255 133 109 85
301 859 255 128 104 81
306 839 255 129 105 82
311 834 254 138 113 90
306 849 255 132 109 87
311 844 254 135 112 90
311 849 254 133 110 88
316 839 253 144 118 93
272 881 366 35 33 34
321 834 251 153 121 96
318 838 252 146 120 95
321 839 252 148 118 93
461 803 315 99 79 60
316 844 253 140 114 90
321 844 252 140 112 86
319 844 253 141 114 88
306 854 255 130 108 86
311 854 254 127 105 84
306 859 255 125 103 81
306 864 255 120 100 79
322 849 252 130 105 80
321 854 252 127 103 78
316 859 252 126 103 80
316 864 252 116 96 76
321 864 252 95 80 65
296 869 256 129 105 82
291 879 256 132 109 87
291 874 256 137 113 89
296 874 255 126 104 82
301 869 255 123 102 81
301 879 255 105 89 74
302 895 241 57 54 55
296 884 255 101 85 69
296 889 254 82 72 63
292 896 252 71 65 60
294 892 253 76 67 60
301 884 254 80 70 61
286 834 335 42 36 33
300 888 253 69 62 57
302 885 252 56 50 50
301 894 245 55 52 54
298 896 246 55 52 55
411 829 315 86 65 57
306 869 254 125 105 85
311 869 253 117 97 79
306 874 254 112 94 77
305 879 253 83 72 61
307 880 252 63 56 52
311 875 252 70 61 54
316 869 253 91 77 65
317 880 246 55 52 54
316 875 252 57 52 51
261 904 264 109 86 65
321 873 253 58 52 52
311 894 231 70 64 63
311 889 240 57 54 56
309 892 238 60 57 58
316 889 230 65 61 60
316 884 240 55 52 54
317 886 236 57 55 57
313 891 232 62 58 59
311 885 245 54 52 54
308 886 246 53 52 53
306 884 250 53 50 51
304 882 253 63 55 52
282 779 262 78 61 55
305 887 248 52 51 53
310 883 249 52 51 52
314 882 248 54 53 55
366 784 191 133 101 63
366 789 191 136 104 64
366 799 190 143 108 68
371 774 191 129 99 61
286 923 358 61 55 52
371 779 190 129 98 60
376 779 189 128 96 57
376 784 188 130 98 58
381 774 190 127 95 55
330 919 334 49 44 41
381 779 189 128 95 55
366 840 220 210 139 113
381 784 189 132 98 58
371 789 189 134 101 61
376 789 188 133 100 60
371 794 188 136 102 62
381 789 188 136 99 59
381 794 188 140 101 60
381 799 188 141 103 62
363 804 192 146 110 74
414 779 227 143 96 71
366 809 190 149 111 73
367 813 191 158 115 81
371 809 188 146 107 69
376 809 188 145 105 66
381 818 191 188 127 98
323 773 221 83 66 59
350 891 216 102 81 66
326 774 219 83 66 59
324 780 224 79 63 57
372 801 385 67 55 44
336 774 214 73 59 54
408 805 230 154 102 75
336 779 215 73 59 54
331 779 219 88 71 61
336 784 216 73 59 53
334 785 218 79 62 54
326 789 225 75 62 57
329 786 223 87 70 60
330 790 223 88 71 62
348 772 207 138 103 63
410 828 344 81 66 53
351 774 206 119 87 52
348 780 207 132 94 54
339 776 213 56 50 50
339 779 213 57 51 51
340 784 214 56 51 52
342 784 211 59 48 46
361 843 230 66 58 61
346 774 208 136 102 66
346 784 209 151 111 73
355 904 290 68 60 58
257 909 364 61 54 52
349 776 208 139 101 61
351 794 205 152 117 81
338 789 217 70 57 53
342 799 216 53 50 50
396 834 345 72 58 48
346 789 210 151 111 75
344 795 213 87 60 43
366 844 315 33 30 32
349 799 208 156 118 83
391 804 370 76 60 44
327 793 226 76 62 58
325 794 229 76 62 58
326 799 230 75 61 58
323 799 232 83 66 59
408 816 313 41 35 30
331 799 226 87 70 61
350 804 205 150 119 87
343 804 216 52 49 52
336 804 225 80 65 60
338 803 222 75 62 58
339 809 224 72 60 57
281 779 355 178 125 99
343 808 217 50 48 52
345 809 215 93 78 67
346 814 215 125 102 84
348 813 211 167 131 100
381 824 365 66 54 44
361 815 366 78 65 54
350 814 210 174 134 103
331 869 370 63 55 49
272 793 276 86 67 58
344 811 218 51 49 52
344 815 218 50 49 52
301 819 260 143 109 84
341 819 225 63 55 53
343 818 222 63 57 56
342 824 225 69 59 55
347 819 216 136 107 86
361 829 205 212 152 123
352 819 211 190 144 114
349 816 213 180 138 109
350 819 214 190 145 114
348 823 216 149 114 95
350 824 214 193 146 116
345 819 220 54 51 53
344 825 223 68 60 57
347 828 221 56 49 51
350 830 219 110 84 76
362 821 381 64 49 38
326 804 231 75 62 58
326 809 231 67 57 56
296 824 340 41 35 33
327 814 232 64 55 55
345 814 314 41 34 31
301 804 260 179 123 98
332 803 227 85 69 61
330 804 229 83 67 59
390 799 191 152 104 67
334 810 228 74 62 57
335 814 228 67 57 54
323 817 237 187 141 117
326 819 235 111 87 81
328 818 232 61 53 53
326 824 240 196 143 120
266 843 290 104 85 64
331 819 231 75 62 58
407 794 360 80 64 53
336 819 229 71 59 56
337 824 231 83 68 62
330 820 233 61 54 54
331 824 235 67 55 57
333 822 232 81 68 62
333 827 237 61 48 53
335 831 239 121 92 81
322 828 247 171 126 103
328 827 242 193 141 119
325 830 248 166 124 101
330 830 244 181 132 112
340 825 229 80 66 60
301 958 329 68 65 66
342 829 230 79 64 60
338 827 232 80 65 61
326 854 340 32 30 32
361 774 195 132 102 66
359 773 198 133 103 67
355 774 204 111 84 54
275 966 317 66 61 61
358 779 197 132 103 70
361 779 195 132 103 67
361 784 195 136 105 68
354 779 203 119 92 61
365 774 193 131 101 65
364 779 193 132 101 64
361 789 194 142 109 71
355 794 200 148 116 81
361 838 220 221 160 132
355 799 199 155 119 83
358 794 197 149 114 78
358 799 197 152 115 79
353 794 202 150 117 83
363 789 192 138 106 67
355 804 199 154 119 83
357 804 197 150 115 80
357 809 197 150 115 80
352 804 201 154 120 86
353 809 201 152 119 84
356 814 200 160 123 89
353 812 202 157 123 88
364 811 193 150 112 77
362 819 200 182 134 104
360 820 204 194 144 114
358 824 207 207 152 122
360 824 205 208 151 121
365 824 199 210 152 122
362 880 316 46 40 38
368 824 197 217 156 127
368 828 197 229 163 132
365 830 204 222 159 127
356 824 209 205 152 121
266 894 370 51 47 46
355 830 214 204 151 123
371 819 194 191 137 107
371 830 199 236 166 143
374 827 196 232 165 145
377 825 198 223 154 130
382 831 203 232 152 127
348 832 226 76 63 60
351 834 225 68 59 58
268 886 368 49 45 44
335 835 244 164 124 102
333 838 247 154 119 93
330 835 248 154 118 93
334 841 248 148 115 88
336 844 248 148 116 88
362 851 324 33 32 34
336 849 250 137 106 82
326 859 252 100 82 65
336 853 252 93 71 56
296 808 348 51 41 36
337 855 253 66 55 46
328 861 253 74 63 54
336 859 254 53 47 45
341 833 236 77 65 61
350 836 229 85 70 65
347 838 236 77 65 60
345 840 239 59 49 52
350 840 234 80 67 62
349 841 238 77 66 61
351 844 240 60 52 53
340 840 244 164 127 101
341 843 245 163 126 99
343 842 242 164 132 109
334 832 369 53 45 39
340 846 248 151 117 89
347 847 246 126 92 71
341 854 254 60 49 44
341 859 255 45 42 44
341 863 254 46 45 47
342 865 251 48 47 48
458 811 309 88 71 59
351 850 249 66 50 45
351 864 245 58 52 54
345 858 254 46 43 43
347 860 252 47 43 43
326 889 225 96 80 70
331 884 225 78 68 61
336 889 222 110 88 74
296 868 370 33 31 31
337 886 222 121 99 83
328 889 222 109 91 76
340 883 224 81 67 59
341 885 222 131 107 91
262 778 276 75 64 61
407 805 245 119 85 69
346 880 225 78 56 44
345 882 223 85 65 51
346 884 222 122 97 75
351 879 225 92 65 49
350 881 222 107 81 61
350 883 222 122 96 68
351 889 224 102 81 67
347 890 216 105 80 61
348 892 216 101 81 65
351 894 215 97 78 63
331 879 240 49 44 48
258 962 285 76 71 71
336 879 235 54 48 50
322 865 253 81 70 60
326 869 254 58 52 51
326 878 245 52 47 49
326 875 251 54 49 51
326 877 249 52 46 47
331 868 254 47 46 48
334 867 253 45 44 47
332 876 247 55 51 51
432 810 305 86 72 58
344 922 318 54 47 43
324 887 228 68 62 58
324 882 238 52 46 51
331 882 230 58 52 52
335 882 229 66 57 55
296 961 268 95 91 96
330 896 228 81 67 61
341 880 226 74 58 54
351 878 230 107 75 51
343 870 247 56 52 55
341 869 249 51 48 51
341 874 245 67 61 64
346 869 245 56 51 53
347 865 246 49 47 48
352 866 242 64 57 57
345 872 244 59 54 54
342 895 240 74 65 64
347 889 241 58 46 44
351 889 238 59 47 40
346 891 228 72 59 49
346 894 226 82 67 56
346 893 239 74 66 62
347 895 236 75 66 65
351 892 238 70 61 54
346 889 245 61 52 52
426 818 331 95 81 70
348 886 241 59 46 43
349 887 246 59 52 52
352 885 250 74 63 63
352 886 254 80 71 71
346 890 250 70 60 61
347 890 255 77 66 66
344 892 251 73 63 64
366 834 205 233 164 132
357 833 216 213 159 129
362 833 210 218 154 126
360 835 215 220 158 130
359 836 218 219 158 133
362 837 216 229 162 135
431 824 365 112 92 75
367 837 211 229 152 119
364 836 213 228 159 132
366 839 215 226 154 124
366 841 224 145 85 75
370 832 201 237 164 140
371 834 205 235 156 127
333 919 331 48 42 40
376 834 205 235 152 122
381 833 205 236 152 125
380 862 276 65 56 56
288 812 272 162 111 83
376 836 209 231 144 117
372 841 224 205 138 113
376 840 225 214 148 119
381 835 210 225 142 115
291 830 336 40 34 33
379 837 212 221 138 110
380 837 215 215 139 112
382 836 215 215 138 110
381 838 225 208 143 111
353 837 226 76 65 62
361 842 226 63 60 64
356 845 240 57 51 53
361 845 235 70 61 62
366 844 230 64 56 58
366 849 241 56 45 43
357 847 242 51 47 49
367 856 236 111 84 64
366 854 241 95 72 55
366 860 232 107 83 65
366 862 232 110 84 66
366 862 235 103 82 68
354 851 249 56 43 39
337 935 311 48 42 40
355 854 250 50 43 44
355 853 253 49 42 44
356 859 245 72 62 66
360 858 243 68 54 53
286 963 324 70 65 64
361 860 241 93 71 58
358 861 242 64 55 53
361 864 240 109 79 55
355 858 249 49 44 46
364 850 243 51 43 43
367 859 244 106 82 63
371 845 235 76 58 56
312 965 279 88 83 86
375 844 235 81 65 61
376 845 240 90 72 61
376 849 236 102 79 66
374 848 240 93 75 60
381 838 230 200 135 108
441 804 295 104 87 69
381 839 235 105 73 66
377 841 234 85 67 66
380 843 240 103 80 65
442 802 307 108 87 67
383 841 244 89 69 61
376 849 250 87 66 58
379 847 250 88 66 57
376 849 255 79 61 54
371 856 237 117 90 69
391 834 350 67 52 43
301 868 340 40 35 34
376 855 235 110 84 67
372 865 236 98 80 69
376 865 236 97 81 71
382 856 227 130 100 68
381 855 230 115 89 69
381 855 235 103 84 72
381 854 239 96 77 66
378 859 231 113 87 68
377 865 230 113 91 72
369 811 318 40 35 33
377 858 238 96 79 68
381 859 239 91 79 70
380 863 239 89 77 69
374 852 247 91 72 57
374 853 251 87 67 59
412 779 245 100 70 55
374 853 255 74 57 52
369 861 241 97 76 61
259 907 341 73 52 49
370 865 240 86 73 64
371 859 250 80 63 55
372 859 255 69 55 53
286 789 353 173 122 95
368 865 250 76 61 55
370 864 255 65 55 55
356 879 225 105 77 57
356 884 225 117 90 66
361 879 225 116 89 61
361 884 224 102 82 66
353 894 212 105 85 70
356 894 220 98 81 69
390 838 344 75 59 47
359 895 225 94 82 74
362 888 210 100 85 73
367 885 215 103 84 72
362 889 215 98 83 76
364 893 210 102 91 84
365 893 216 103 89 78
362 889 220 102 89 81
362 888 225 95 81 73
365 892 218 101 88 78
371 879 220 106 89 76
374 872 222 105 87 70
441 799 280 101 77 59
374 878 216 117 96 78
376 865 222 106 88 71
316 804 341 52 42 35
370 883 215 110 92 76
370 884 220 102 87 76
376 879 226 97 80 69
358 876 227 117 89 69
362 876 227 104 72 49
396 809 351 57 46 37
356 875 236 107 79 54
356 879 235 86 71 56
356 878 240 86 68 54
361 874 240 97 79 64
366 875 226 114 89 62
366 874 230 101 80 64
366 879 230 85 70 57
406 783 308 48 37 32
365 877 234 75 66 58
361 874 245 81 66 57
358 876 244 71 56 49
359 877 252 67 57 57
364 872 245 86 73 64
365 873 255 66 56 56
357 884 232 81 66 53
356 889 236 64 51 42
359 886 233 78 64 53
377 861 273 66 59 60
360 889 234 69 57 49
357 896 231 78 68 63
356 894 235 77 67 60
359 893 234 80 68 60
353 881 243 63 51 45
371 869 236 92 79 69
302 840 376 68 51 41
371 869 240 81 72 64
373 866 232 109 87 68
375 868 235 92 81 73
374 869 239 85 74 66
276 914 366 60 54 53
370 873 235 80 71 64
379 867 230 107 87 70
370 867 243 80 71 64
370 884 229 79 67 58
369 887 226 101 85 74
270 951 337 64 61 62
374 882 228 84 68 57
379 880 226 96 79 69
379 880 229 92 75 64
271 904 255 112 80 67
391 829 215 202 132 101
267 910 256 88 74 60
272 909 250 105 82 68
262 915 256 68 62 59
263 920 251 68 63 63
262 924 251 67 61 62
366 884 280 76 65 62
262 929 251 62 56 58
271 919 246 101 77 63
267 915 251 86 74 63
311 844 320 42 36 32
267 924 246 68 63 63
266 914 254 80 69 61
264 917 253 66 59 56
269 918 248 140 107 78
267 929 246 64 57 58
272 925 242 73 65 66
276 899 251 117 88 57
281 899 254 92 75 58
281 904 251 82 66 50
276 909 249 122 84 62
282 910 247 74 63 55
351 899 225 90 74 64
286 914 240 61 56 57
286 919 236 85 75 75
282 923 237 86 76 74
281 928 241 95 84 82
286 925 238 97 85 84
276 915 247 92 66 57
276 919 245 59 52 54
271 841 320 41 34 37
276 913 248 97 66 55
279 912 248 75 59 50
277 921 242 62 58 59
273 928 242 70 62 60
276 928 241 80 70 67
262 937 252 81 70 68
262 943 256 80 73 73
265 934 249 77 67 66
264 940 253 85 76 74
281 934 246 98 87 87
276 937 247 97 87 90
401 820 340 49 41 36
276 939 249 94 85 88
281 939 249 88 79 82
360 773 313 68 52 42
286 942 252 83 76 78
301 958 266 94 90 94
286 944 254 83 75 78
292 910 236 70 65 66
292 905 241 59 56 58
296 904 240 61 58 59
297 900 241 58 55 57
299 902 238 62 59 61
302 900 236 67 62 62
301 909 232 84 75 72
426 773 290 54 41 34
299 907 233 73 67 67
302 906 232 78 69 67
294 902 245 58 56 57
290 903 249 67 62 61
288 906 247 76 67 64
291 914 236 81 74 73
289 913 238 66 60 61
296 914 234 89 79 77
296 922 237 91 80 78
301 912 232 89 79 76
301 918 237 84 75 74
302 920 238 85 75 74
321 859 376 57 51 48
301 924 240 91 80 79
291 928 241 95 84 82
296 930 244 87 79 80
301 929 244 85 76 76
307 900 232 69 63 63
306 904 231 81 70 65
321 899 364 64 57 54
311 899 230 78 68 65
305 899 234 68 62 63
304 903 233 70 63 62
316 904 229 82 67 63
320 904 231 78 66 63
311 912 231 70 62 59
311 914 235 74 66 64
316 914 235 74 65 63
316 917 237 81 69 66
320 913 236 76 66 63
319 917 237 81 70 66
351 804 316 38 32 30
321 919 240 78 68 66
264 852 312 137 104 83
311 923 241 86 76 74
311 929 246 88 78 78
317 930 249 77 69 70
465 808 300 90 71 60
321 929 250 78 70 70
393 835 270 72 58 54
291 931 244 91 82 82
292 936 248 88 79 80
296 939 250 84 74 76
296 942 252 85 76 78
296 945 254 85 77 79
302 935 248 85 76 78
291 948 256 82 75 77
374 814 318 39 34 31
311 932 247 87 78 79
311 939 254 91 83 86
319 933 252 82 73 73
321 934 255 82 74 75
315 937 252 84 77 78
316 939 254 86 78 79
320 938 256 84 76 77
322 905 234 73 63 61
327 904 239 73 64 62
331 898 230 84 70 63
336 899 230 81 65 58
362 889 305 56 50 48
331 900 235 74 62 59
332 905 244 72 63 60
334 902 242 70 60 59
269 775 268 89 69 61
329 907 242 71 61 57
333 911 253 71 61 60
322 914 239 77 67 65
326 914 245 69 60 60
327 919 250 77 67 66
324 922 247 77 67 66
322 925 249 75 66 65
324 928 252 85 76 75
330 913 251 72 63 63
329 918 252 79 68 67
335 913 256 67 59 59
342 899 226 82 66 56
351 898 230 76 64 58
340 898 245 67 58 58
414 779 235 118 83 60
339 898 250 71 62 62
338 900 250 73 65 66
338 905 254 68 60 61
356 897 214 95 79 68
352 897 217 88 72 61
356 897 221 99 82 71
359 897 228 86 75 69
391 774 191 135 99 60
386 779 189 132 97 58
469 799 265 81 64 52
386 789 189 142 100 60
391 789 191 150 103 65
386 809 190 157 109 71
390 804 191 153 105 69
394 773 192 142 102 64
396 774 194 146 102 66
396 784 195 153 107 71
400 783 197 156 109 75
393 789 193 151 104 68
398 786 198 160 111 76
395 794 196 158 108 75
397 794 199 164 112 80
469 807 307 95 73 59
393 799 194 154 105 71
399 798 202 172 117 87
398 800 204 175 119 91
411 826 304 73 59 51
402 774 198 155 108 75
405 774 201 159 110 80
407 779 205 169 116 87
267 962 319 58 53 53
409 774 206 168 116 87
409 777 207 169 116 86
410 774 210 168 115 87
413 774 220 155 104 79
409 779 210 167 114 86
285 841 327 44 36 33
408 785 213 164 110 83
409 782 212 164 112 84
409 784 215 157 103 78
411 784 220 162 109 81
412 784 225 158 106 79
403 791 208 174 117 91
405 789 210 173 116 90
402 799 210 180 122 95
405 799 216 167 112 85
408 794 218 160 105 82
409 787 216 159 105 80
359 902 297 53 47 45
410 794 221 165 111 85
397 831 351 86 71 62
310 963 271 81 76 79
412 774 230 128 88 66
412 773 235 113 80 58
414 779 231 124 85 61
413 784 229 154 104 78
414 779 240 110 77 60
415 784 235 134 92 67
413 771 244 80 61 50
412 775 249 85 62 52
413 778 242 104 74 58
416 784 245 98 69 55
412 779 249 82 60 50
296 975 300 56 54 55
416 784 250 82 61 51
406 779 310 60 49 41
415 789 230 155 104 78
414 790 227 159 108 79
412 799 230 166 113 86
416 794 230 160 108 82
415 798 231 162 110 84
412 799 240 134 91 70
416 799 255 90 69 61
436 798 275 89 70 55
391 809 195 162 112 78
390 814 196 171 118 86
394 807 197 164 113 81
397 804 205 178 121 93
399 803 207 182 124 96
394 812 202 179 122 95
314 808 343 45 38 32
398 806 208 183 126 98
396 814 210 188 128 99
399 814 216 186 127 96
387 820 200 192 132 105
389 817 197 180 125 93
349 827 383 63 48 39
391 819 205 191 131 104
388 820 203 195 133 107
388 825 204 205 139 113
385 828 201 220 149 124
386 829 205 219 148 122
389 827 206 205 137 112
394 817 207 192 131 105
286 966 278 93 90 94
392 824 210 200 134 107
390 828 210 208 139 109
388 831 213 220 147 117
395 819 210 196 133 105
394 823 211 198 132 104
400 819 220 177 117 86
321 944 325 58 56 57
398 821 219 185 123 91
399 822 222 178 117 85
400 823 225 180 120 91
393 826 214 195 128 98
395 828 225 195 128 99
403 806 218 158 106 81
404 803 217 161 108 83
404 808 221 139 91 69
407 805 224 143 95 67
405 809 225 131 85 62
270 785 274 90 68 59
403 810 223 147 99 77
409 803 225 155 102 76
401 814 240 145 96 73
399 822 234 141 96 76
397 825 235 144 99 77
396 824 240 121 82 64
393 831 230 195 130 102
396 828 230 188 125 98
393 830 244 99 72 59
395 824 245 97 69 57
401 814 250 99 71 56
400 819 250 100 73 57
394 828 246 94 69 57
356 889 270 61 54 55
396 829 250 92 69 57
400 824 255 92 70 54
311 964 315 54 50 50
399 827 255 104 79 58
406 809 240 148 101 78
410 803 235 157 106 81
409 804 240 140 94 74
408 806 240 144 98 77
402 811 245 134 92 72
296 859 315 80 63 49
403 816 253 98 72 57
406 814 255 89 67 54
409 808 256 82 64 56
402 820 230 150 103 79
404 817 226 154 105 80
404 818 230 137 93 70
404 817 234 126 82 60
422 768 242 100 72 57
418 775 253 75 57 50
420 774 256 75 57 47
420 779 256 80 62 51
339 942 303 47 43 42
417 783 253 72 57 48
420 794 235 104 74 60
421 795 240 95 70 58
417 796 240 100 73 60
418 787 249 97 70 59
421 789 255 94 73 61
418 796 243 95 69 56
421 796 244 99 75 63
418 796 256 81 61 57
423 794 251 94 70 59
345 818 396 89 72 57
426 795 245 103 74 60
424 797 246 104 76 65
425 794 249 99 71 59
437 793 237 107 75 59
384 832 206 234 156 130
386 834 215 216 141 111
389 832 216 211 139 109
386 834 225 210 140 109
389 832 225 205 136 105
384 837 232 201 136 107
385 837 236 123 81 74
391 833 235 157 104 84
388 836 244 92 69 59
390 834 245 93 69 58
389 837 247 95 71 59
377 859 320 73 57 50
392 835 250 106 78 59
390 838 250 110 82 60
387 840 250 106 78 60
386 864 285 75 62 59
390 838 255 101 73 57
392 835 255 106 76 60
384 842 250 98 71 59
385 842 255 84 61 51
387 840 255 90 65 53
389 853 240 92 75 64
286 794 265 56 45 46
387 851 240 93 74 64
477 796 251 79 65 59
479 795 249 82 75 73
263 773 272 79 65 63
268 772 267 90 70 60
268 778 272 90 70 60
272 784 270 82 64 57
258 774 281 71 59 54
259 775 279 72 60 55
263 782 277 71 59 58
266 784 275 80 64 60
262 789 281 76 60 55
258 788 287 69 54 51
375 806 379 67 53 42
260 789 285 73 58 51
262 798 286 77 61 53
264 785 278 69 56 55
265 789 279 69 57 55
266 794 280 70 58 56
268 792 277 78 64 58
267 799 281 67 57 55
295 783 353 36 34 35
264 796 283 78 63 56
275 771 263 84 65 55
306 964 270 83 80 82
278 773 262 81 63 55
273 782 267 76 59 51
275 785 268 81 62 55
285 774 259 78 62 55
283 782 262 79 61 56
286 779 259 79 62 54
277 788 267 81 60 53
276 793 271 77 60 53
281 794 269 70 56 52
288 789 262 67 52 50
439 806 299 108 92 76
284 795 268 52 46 48
287 798 266 130 93 75
285 800 269 116 82 66
274 795 274 76 61 53
276 799 275 74 59 54
273 797 277 86 66 57
279 800 273 62 53 50
259 791 288 70 56 51
266 804 285 71 59 54
271 804 281 75 61 56
268 802 282 66 56 54
272 808 282 75 61 55
272 814 286 65 55 51
277 803 276 62 51 51
280 804 274 63 50 49
278 808 277 47 45 48
326 884 369 69 60 54
281 809 275 107 78 63
274 811 283 74 61 54
275 815 284 65 55 53
285 810 274 160 113 82
282 812 277 144 106 81
302 866 328 56 48 43
273 818 287 66 55 51
278 822 287 50 45 49
281 823 286 67 46 43
285 825 284 86 60 48
286 829 280 122 96 71
259 805 293 57 47 46
260 809 294 57 47 47
262 808 291 68 55 49
264 805 288 77 61 54
264 815 293 66 54 49
262 818 296 53 46 46
259 826 303 96 73 60
261 829 305 69 54 49
262 827 302 35 35 39
267 818 291 60 50 49
271 824 295 66 55 52
264 821 298 59 49 44
267 823 297 60 52 49
266 824 299 52 45 44
259 831 308 132 93 71
274 821 288 74 62 58
276 824 290 62 52 50
276 829 295 42 35 37
280 830 294 41 36 41
274 831 298 41 35 36
289 780 258 77 60 55
293 789 257 51 41 46
291 794 260 110 83 71
290 796 263 133 98 79
292 797 262 177 122 99
293 792 257 63 50 49
295 795 259 179 126 99
294 800 263 173 119 93
291 809 269 162 112 84
266 964 275 85 81 82
297 803 262 174 117 91
299 806 263 170 113 87
300 809 264 161 110 84
302 809 261 157 107 85
302 814 260 136 95 73
290 815 274 167 115 87
295 824 269 137 107 79
295 828 265 117 96 74
297 824 265 125 101 76
298 825 261 141 114 88
303 820 257 145 111 82
302 824 257 139 110 80
298 831 257 137 110 83
290 819 275 171 119 89
288 824 277 142 103 77
290 828 274 130 103 75
304 809 258 155 105 81
261 770 353 151 114 80
261 774 354 165 119 88
291 958 266 94 90 94
271 774 355 167 119 92
261 789 354 179 130 101
261 799 354 177 129 102
266 789 355 178 127 100
266 799 354 179 131 104
271 885 360 34 32 34
271 799 355 179 130 104
281 774 355 172 122 94
276 779 355 176 124 98
281 784 354 179 127 101
286 774 354 172 122 95
455 813 329 101 78 61
276 789 354 176 124 98
265 889 263 150 118 85
281 789 354 176 124 97
276 794 354 173 123 96
301 843 324 41 34 35
281 794 353 172 121 94
287 794 352 165 116 91
261 809 352 179 128 101
261 814 350 174 123 98
266 814 349 169 120 95
281 869 262 130 108 87
271 816 347 157 111 87
359 897 290 63 54 51
261 824 344 160 112 89
265 817 348 167 118 94
271 826 342 127 86 63
408 821 268 82 66 62
271 829 340 121 80 58
276 805 352 169 119 93
281 804 351 161 113 87
281 809 349 151 107 82
276 813 348 153 108 83
281 813 348 139 99 76
281 823 343 63 46 41
276 819 346 141 99 75
276 824 343 128 89 67
276 829 340 94 65 50
276 826 342 117 81 61
281 826 342 48 35 35
282 831 337 43 37 33
286 831 337 43 36 33
261 804 353 179 129 102
262 807 353 180 130 102
449 801 298 127 100 70
266 804 353 178 129 102
283 841 267 117 98 80
270 807 353 175 125 100
279 802 353 164 113 86
416 826 363 94 74 61
302 774 352 73 58 50
291 789 352 88 68 56
291 794 351 79 61 52
291 799 351 51 41 39
296 799 350 58 47 40
296 784 352 56 45 41
301 799 349 59 47 40
309 774 348 75 59 50
312 779 346 78 60 52
309 779 348 75 59 50
311 784 346 77 60 51
319 774 343 84 63 54
379 854 319 74 59 49
321 774 342 83 62 53
316 779 344 82 64 54
321 779 342 83 64 53
319 779 343 84 64 54
316 784 344 80 62 52
319 782 343 83 64 55
306 789 349 70 55 48
308 786 347 74 58 49
311 789 345 74 58 49
258 900 351 42 40 40
306 799 346 60 48 41
304 799 348 60 48 42
311 799 344 60 48 42
317 790 342 75 59 49
314 794 343 71 56 49
316 794 342 69 54 46
358 899 300 54 47 45
316 799 342 60 48 40
321 794 340 63 50 42
321 799 340 56 44 37
291 779 354 127 95 76
302 844 385 61 48 41
296 779 353 46 39 37
288 790 352 167 120 93
291 804 349 43 37 36
292 811 347 47 39 35
290 812 348 42 36 32
296 810 347 48 39 34
302 805 347 52 42 36
301 829 334 40 35 34
291 819 345 44 37 33
296 821 342 42 35 32
291 828 339 42 36 33
296 828 338 40 35 34
301 823 339 39 34 33
321 814 335 50 41 37
306 804 346 52 42 36
306 809 345 45 37 32
311 804 344 51 42 35
311 809 344 44 37 32
312 811 342 43 37 32
310 812 343 41 35 32
311 814 341 41 35 33
314 802 343 55 44 36
281 908 368 66 59 56
321 804 340 50 40 34
321 809 339 48 40 34
316 814 340 45 38 35
311 824 334 42 36 33
306 824 336 38 34 32
309 827 333 40 34 34
316 819 335 46 39 35
312 820 336 42 36 33
286 975 300 52 50 50
321 819 330 43 36 33
320 823 329 40 34 33
318 830 327 35 31 31
316 829 329 40 34 33
276 869 330 90 73 57
306 819 341 38 34 32
306 817 343 39 34 32
306 822 338 38 34 32
388 841 342 75 59 52
307 830 385 57 46 38
311 829 385 60 49 38
316 829 385 69 54 41
316 831 382 76 60 48
261 845 285 106 89 71
266 847 280 103 87 71
270 847 278 101 86 70
267 847 283 103 87 71
269 847 283 103 87 70
262 855 272 104 89 73
257 860 271 123 104 85
261 864 266 119 99 78
296 879 380 57 49 45
262 861 267 112 94 75
271 854 270 106 90 74
266 860 267 107 91 73
266 857 269 103 88 73
271 860 267 112 94 76
271 864 265 113 95 77
260 853 274 106 90 74
272 851 272 106 90 74
281 844 270 114 95 78
278 846 272 102 86 71
282 840 271 109 91 74
405 799 364 83 64 51
287 839 266 119 99 80
288 836 267 119 98 76
288 849 262 147 121 97
301 968 315 74 71 71
282 845 267 132 110 88
281 849 266 141 116 91
342 914 321 54 48 47
276 839 285 77 63 52
280 838 284 93 76 62
273 846 276 100 85 70
282 839 275 93 78 63
278 841 281 81 67 54
273 841 287 81 70 59
285 834 275 124 100 77
284 833 280 118 94 71
284 837 274 109 89 70
276 859 266 118 99 79
276 864 264 123 103 82
281 859 264 122 102 81
280 864 263 128 107 86
287 854 261 140 115 91
411 774 309 50 40 34
278 972 282 88 85 87
286 859 260 130 108 86
284 858 263 124 103 82
286 864 260 132 110 89
261 840 295 99 81 61
261 839 300 124 99 76
261 840 305 122 96 78
261 843 290 106 87 65
301 919 357 64 57 55
271 839 295 62 55 50
266 839 300 88 75 63
291 967 318 71 68 70
266 839 305 92 72 57
271 834 305 44 38 41
273 833 301 41 37 39
270 842 289 97 81 64
261 833 310 94 63 53
261 837 320 126 78 61
366 809 375 77 63 49
262 837 316 114 74 59
260 843 307 133 99 81
346 848 330 31 29 30
259 847 307 151 111 89
261 849 309 137 101 81
267 839 310 58 45 41
271 839 310 63 49 45
264 836 313 52 36 41
266 838 315 55 40 40
270 841 315 50 40 39
266 844 310 83 64 55
265 849 311 122 92 74
329 953 290 79 72 71
271 842 311 82 64 51
272 842 319 44 36 38
271 849 315 107 81 63
262 855 313 129 96 77
266 854 314 132 102 78
270 854 316 119 92 69
265 859 316 133 100 79
264 862 317 109 64 65
269 857 317 129 99 74
279 837 288 72 56 49
329 948 281 82 74 74
279 838 296 73 61 53
274 834 299 44 40 40
276 838 300 80 65 53
284 832 288 93 74 61
275 841 310 90 74 58
278 842 307 100 80 62
279 841 305 99 79 61
280 842 306 99 80 61
280 845 315 39 34 33
281 849 317 75 59 48
283 847 318 52 43 36
286 847 318 45 37 34
276 852 317 100 78 59
276 855 319 106 84 64
281 853 317 89 69 54
281 855 319 90 72 54
281 858 321 88 71 53
258 866 267 128 105 82
261 874 263 138 112 84
266 874 262 134 111 88
263 883 262 156 123 93
308 837 393 73 57 46
261 889 264 154 120 88
257 894 267 148 113 82
266 884 262 153 122 93
271 884 261 137 110 84
271 889 260 122 100 79
265 894 263 137 107 76
270 894 259 114 95 76
276 868 263 121 100 78
279 867 263 127 106 84
281 874 261 132 109 86
404 827 285 77 60 53
281 879 260 134 110 87
287 879 257 145 120 96
398 795 361 72 58 47
266 889 335 110 84 71
281 884 259 130 107 84
281 889 258 125 104 84
278 892 258 98 78 54
280 892 258 111 91 69
284 884 258 140 116 93
286 889 257 119 100 81
291 834 265 121 100 80
294 872 331 64 54 45
292 839 260 132 109 87
284 947 343 73 66 65
293 834 261 125 103 83
291 844 260 139 115 91
288 844 262 136 112 90
357 811 312 39 33 31
290 849 259 145 119 95
301 834 256 128 103 78
290 854 259 144 118 93
366 849 359 80 62 51
289 862 258 143 119 94
291 848 319 40 34 32
291 850 315 61 48 41
475 810 330 107 81 61
296 854 315 89 63 49
345 924 290 66 58 56
291 858 316 91 73 56
291 860 318 89 72 56
376 874 285 75 62 58
296 861 318 79 64 50
301 849 319 69 52 43
301 854 316 86 59 46
303 852 318 85 59 43
301 863 320 73 60 47
306 849 319 75 56 43
316 849 315 62 46 34
321 839 320 36 32 30
276 959 266 82 77 81
321 844 315 56 44 33
306 859 314 75 56 42
307 863 315 65 55 46
310 858 313 69 50 38
308 860 312 80 62 47
309 865 314 63 51 42
369 872 323 56 48 43
317 854 312 58 43 34
411 820 325 90 75 61
321 854 310 51 40 33
315 853 313 62 46 35
308 868 320 61 53 47
312 874 312 55 46 41
307 875 320 57 49 44
312 877 312 53 45 40
318 864 307 51 42 36
316 873 319 44 39 36
321 874 315 39 35 33
261 838 325 125 80 60
261 836 331 124 80 59
258 837 328 133 88 64
271 840 325 44 35 34
266 836 331 118 76 56
266 834 335 120 78 57
271 834 335 111 74 55
271 836 332 97 63 48
396 813 349 53 44 36
271 838 330 62 43 39
336 830 370 56 46 39
271 832 338 118 79 57
271 863 325 104 81 57
276 834 335 44 34 33
281 968 276 88 84 88
276 838 330 40 35 33
274 836 332 36 30 34
281 834 335 42 36 33
351 844 319 32 30 31
281 838 330 43 36 33
276 842 324 46 38 35
281 843 324 48 38 34
281 841 327 46 37 34
287 836 332 41 35 33
286 843 324 46 37 34
276 832 338 64 44 38
276 858 321 111 88 64
276 860 324 110 86 62
286 864 323 91 75 59
300 849 375 60 45 37
287 863 321 91 75 58
259 872 327 137 100 79
262 879 333 143 103 90
264 867 326 103 78 57
266 869 330 108 84 62
267 866 328 96 75 53
268 871 333 106 84 62
271 869 331 93 75 56
271 874 334 97 78 60
260 884 331 151 106 93
421 824 339 77 62 50
262 884 333 146 105 91
259 892 332 65 55 56
261 894 335 84 72 63
267 895 339 85 71 60
269 892 337 91 74 59
271 894 340 64 53 47
271 893 345 40 35 35
268 891 352 34 31 31
270 892 349 35 32 32
275 875 333 83 69 54
281 879 335 80 66 54
287 873 327 90 74 60
286 875 329 87 72 58
286 878 331 82 69 56
286 879 340 48 43 40
286 878 350 38 35 35
388 851 284 72 59 53
296 869 355 39 36 37
276 884 337 86 68 55
391 818 360 56 43 38
279 882 337 82 67 54
278 885 338 77 62 53
281 884 340 55 47 43
279 887 340 55 47 43
276 889 345 40 35 35
273 890 338 74 60 51
387 849 300 51 44 41
282 881 338 69 58 49
283 881 350 39 36 35
261 894 355 44 41 41
263 891 356 43 41 41
480 808 326 112 83 61
422 805 309 59 49 41
262 895 365 48 45 45
269 887 358 36 32 35
272 886 356 33 30 32
266 889 365 48 44 44
268 886 365 42 39 39
268 886 361 37 35 36
265 892 354 38 36 37
267 889 369 49 45 45
335 833 365 64 54 47
272 881 369 44 40 39
271 884 370 48 43 43
461 796 264 102 90 78
269 893 372 48 44 43
280 878 364 34 31 33
282 880 355 39 36 36
328 951 284 81 74 73
287 875 360 41 39 39
288 876 355 43 39 37
286 874 365 34 32 34
276 879 370 42 38 38
282 885 378 49 43 38
277 880 374 44 40 39
281 879 375 44 40 38
368 869 265 57 51 54
282 875 374 45 40 39
285 872 370 35 33 33
285 878 377 40 35 35
287 880 378 43 38 35
274 882 363 32 29 32
274 882 372 48 43 43
276 884 375 43 38 37
273 885 373 44 39 39
280 889 377 52 45 41
281 894 377 63 56 52
324 948 319 60 56 57
284 882 377 43 39 36
291 838 329 40 34 35
296 838 329 40 34 34
296 843 324 42 35 35
301 834 331 38 35 36
301 846 322 33 31 34
308 836 327 39 35 36
306 843 323 36 33 34
312 841 322 32 29 33
315 838 323 31 30 31
320 863 329 32 30 30
306 864 345 32 30 31
309 862 344 31 30 31
311 860 345 32 30 31
312 861 341 32 30 31
311 859 350 31 30 31
316 854 350 33 30 32
321 851 351 35 31 33
317 856 346 33 30 31
321 852 349 34 31 32
316 859 340 32 29 31
351 813 390 85 67 48
315 858 345 32 30 31
314 862 338 32 30 31
303 835 385 64 48 38
370 869 271 68 59 60
302 839 385 64 49 41
329 904 349 47 42 41
300 844 380 69 52 42
303 860 366 34 31 33
298 854 379 57 45 38
299 854 381 59 48 42
297 859 375 42 34 30
301 859 370 37 32 31
299 858 373 37 29 29
298 865 371 33 30 30
300 864 369 34 31 31
301 859 384 67 56 49
297 864 380 51 42 36
299 864 382 67 57 51
441 816 364 93 78 63
302 864 383 65 54 47
312 846 366 50 41 36
320 847 359 39 34 33
315 847 364 44 36 34
316 849 360 39 33 32
321 844 365 45 37 34
311 839 375 76 60 50
304 837 378 60 44 34
311 836 377 70 54 45
391 839 290 63 53 50
340 934 285 67 61 60
306 844 371 74 62 53
305 843 373 71 54 42
311 841 372 87 74 63
310 847 368 51 44 40
316 834 380 80 63 52
320 834 381 103 81 70
321 839 380 109 86 78
316 843 369 75 62 54
320 844 380 78 64 58
316 849 385 59 48 38
321 909 360 60 52 49
319 848 383 54 44 41
307 850 366 39 31 30
308 855 361 33 30 31
356 829 375 56 46 40
312 850 361 38 32 32
307 860 355 31 29 31
304 862 359 32 30 31
346 815 390 85 68 51
310 858 354 31 29 31
317 850 356 36 32 32
315 853 354 35 31 31
306 859 384 65 54 47
306 864 383 60 50 45
312 860 382 58 50 45
311 864 381 60 52 48
321 854 375 65 57 52
318 850 377 75 62 53
394 827 324 37 32 31
313 856 382 58 49 43
421 828 363 92 74 60
306 973 295 63 60 61
276 911 367 69 61 59
317 859 377 62 56 52
318 863 377 51 47 44
321 864 377 61 55 53
293 871 328 69 59 49
296 870 330 60 51 44
289 877 332 71 60 52
289 877 335 71 60 51
295 872 335 61 52 44
297 871 335 54 46 40
289 877 340 56 48 43
295 872 340 50 43 39
263 947 338 49 47 49
291 874 350 37 34 34
288 876 346 35 33 33
303 866 340 35 32 32
303 866 345 32 30 32
305 866 325 56 48 43
311 868 325 54 47 43
311 866 327 47 42 39
307 866 330 45 40 38
304 867 334 43 38 36
306 865 335 38 34 33
311 865 330 41 37 35
306 879 324 52 45 43
308 876 323 55 47 44
316 868 324 41 36 35
316 866 326 38 34 33
307 884 321 52 44 42
307 888 325 51 43 42
308 887 322 51 43 42
311 884 322 51 43 41
310 887 322 51 42 42
420 822 315 79 63 55
337 859 371 63 54 47
311 888 325 50 42 41
311 884 328 50 42 41
314 887 326 50 42 41
296 869 360 42 39 38
291 874 355 42 38 38
299 867 358 41 38 38
291 870 375 37 33 32
294 868 375 35 31 30
296 869 380 54 45 38
293 870 378 38 32 29
289 872 368 32 30 32
291 874 379 42 35 32
288 876 378 36 32 30
291 879 379 54 45 40
296 874 381 60 50 44
302 868 383 59 50 44
301 879 380 59 52 50
291 884 379 57 50 46
296 889 376 59 53 49
294 887 378 65 59 56
291 894 375 59 54 52
291 890 376 63 57 55
296 894 374 55 49 46
288 891 377 60 54 51
298 886 377 63 57 53
300 892 373 58 51 47
466 803 310 100 80 60
301 895 371 59 53 50
306 869 382 57 49 45
311 869 380 59 53 50
311 874 379 53 48 45
314 942 333 63 59 61
312 880 377 55 51 50
321 869 376 59 54 52
318 870 377 51 46 45
321 874 375 58 53 52
316 879 375 63 59 57
320 878 374 63 57 55
317 896 367 65 58 55
306 885 377 54 49 47
310 888 373 59 54 52
305 883 378 53 48 46
412 816 314 51 39 30
311 894 369 56 51 49
317 886 372 62 56 54
316 889 371 59 54 52
321 884 371 60 54 52
321 889 369 66 59 55
320 893 368 70 61 57
351 774 320 69 54 44
350 779 319 67 51 41
345 799 319 50 40 34
335 824 319 33 30 29
336 829 315 34 31 30
341 809 319 43 36 31
336 814 320 42 35 32
343 810 317 43 36 32
342 815 316 42 35 31
346 804 319 43 35 32
296 953 261 94 88 92
344 807 318 42 33 32
347 815 312 36 32 30
341 869 360 58 49 45
351 814 312 38 32 30
352 813 313 37 33 30
342 820 311 35 31 29
341 824 311 34 31 30
341 818 314 35 31 29
336 819 320 38 33 31
338 830 312 31 29 28
346 819 310 35 31 30
272 921 362 70 63 58
346 824 310 35 32 31
351 824 311 34 30 30
344 817 314 36 32 30
346 830 313 32 29 30
356 774 315 68 52 44
354 772 318 71 55 46
362 774 311 63 48 39
356 779 314 63 49 40
356 784 314 53 41 34
358 779 312 60 46 38
358 782 312 52 40 33
361 782 312 44 34 28
366 774 310 53 41 34
366 779 311 44 35 30
367 781 313 41 33 29
366 784 314 42 34 29
356 789 314 43 35 30
358 789 312 38 32 28
366 794 316 42 35 32
366 799 316 42 36 33
371 774 310 45 36 31
371 784 315 49 39 33
383 784 312 56 44 37
371 789 316 47 38 33
376 789 315 50 40 33
376 794 314 54 43 36
381 794 314 56 46 38
381 799 313 46 36 34
339 852 329 30 28 30
356 809 315 41 35 33
361 804 316 44 38 35
356 814 315 36 32 31
361 815 316 39 33 32
366 804 315 44 38 35
365 809 311 41 36 34
366 808 315 41 36 33
366 815 307 38 33 31
366 814 309 39 34 32
366 813 318 40 35 32
361 819 310 37 32 31
431 804 311 91 76 63
357 818 313 37 32 31
361 824 314 37 33 32
356 829 311 35 32 31
363 816 307 36 31 30
380 869 310 60 51 48
366 819 316 38 33 31
366 830 312 35 32 32
376 809 315 38 32 31
369 814 310 41 36 33
369 813 318 41 35 33
383 808 312 37 32 30
380 804 313 43 37 35
383 814 312 33 30 29
371 824 315 36 32 31
376 829 313 36 33 33
381 819 314 36 32 31
331 774 336 77 59 50
337 774 331 82 64 55
327 780 336 76 60 49
333 780 332 78 61 53
325 779 339 79 61 50
324 783 338 76 59 49
328 775 337 77 60 49
326 789 336 68 53 45
327 799 335 56 43 36
336 789 326 66 51 42
332 789 331 68 53 44
334 789 328 67 53 44
336 799 326 55 42 36
329 794 333 62 48 40
324 790 338 68 53 44
324 794 338 60 47 39
325 799 338 54 43 35
342 775 326 77 59 49
338 770 332 80 62 54
436 814 325 96 80 66
340 773 329 81 62 54
341 779 325 73 56 47
341 784 324 66 50 42
346 774 324 72 54 46
349 772 323 71 54 45
345 778 323 68 52 43
347 779 322 67 51 41
337 794 327 59 45 37
340 794 325 58 44 37
340 799 324 54 42 35
323 805 336 50 40 34
391 834 355 81 65 56
326 809 330 50 40 35
325 809 335 51 41 34
328 815 327 42 35 32
323 815 331 47 38 34
326 814 329 46 38 34
333 801 327 52 40 33
330 804 330 52 41 35
328 811 327 47 37 33
334 814 323 40 34 31
324 802 338 51 41 34
327 819 326 37 32 31
326 824 324 37 32 30
325 819 328 38 33 32
286 965 320 64 60 59
325 828 323 37 32 30
328 824 322 38 32 30
332 820 322 40 34 32
339 803 323 49 39 33
337 809 321 42 35 31
352 830 351 58 51 46
332 830 376 96 78 60
336 824 385 83 65 51
336 829 385 65 50 41
342 816 376 88 73 60
351 812 375 77 63 51
346 813 380 76 61 46
346 814 385 83 65 49
382 831 331 53 46 40
343 825 366 80 69 61
342 830 361 53 47 43
341 829 365 76 67 60
345 824 364 92 81 73
351 819 365 88 80 74
317 945 259 87 80 81
350 822 363 82 72 64
346 828 360 54 46 39
286 958 330 73 69 69
349 827 358 43 39 35
344 827 363 93 83 75
340 819 375 79 64 50
339 824 375 71 56 43
340 819 380 83 65 50
339 823 379 94 75 57
341 819 385 91 73 57
340 824 386 80 63 51
338 826 376 83 66 54
346 818 369 102 94 89
346 829 381 63 50 40
351 828 380 65 51 42
352 826 381 66 50 41
358 831 347 55 47 44
366 824 350 56 47 42
367 830 342 55 46 40
381 814 350 52 44 39
377 830 336 59 50 44
372 820 351 54 45 39
375 818 349 51 43 38
371 830 340 55 47 41
376 828 339 56 47 42
381 819 345 50 42 38
379 817 348 50 42 37
380 827 338 51 43 40
356 816 366 85 74 65
366 815 365 70 58 47
356 812 374 81 66 51
352 811 380 81 66 52
361 809 380 82 68 55
361 810 385 75 60 47
366 809 385 70 57 44
367 806 381 64 52 42
362 811 372 84 68 53
355 822 359 62 54 49
361 823 355 60 51 45
356 820 361 72 63 56
361 819 360 66 56 48
358 826 352 60 52 48
366 817 363 66 54 44
360 828 374 59 51 45
358 831 372 62 52 45
361 830 371 64 54 49
354 827 378 63 49 40
366 819 385 77 59 46
366 820 380 58 44 34
366 823 378 56 45 36
376 815 355 53 44 37
371 809 375 74 60 47
371 807 380 68 55 44
371 804 384 68 56 43
