ply
format ascii 1.0
comment Created by Open3D
element vertex 2233
property double x
property double y
property double z
property uchar red
property uchar green
property uchar blue
end_header
353 80 225 106 34 43
404 421 175 47 24 26
398 839 214 132 92 79
239 920 265 68 61 58
243 408 300 65 59 52
279 415 225 93 80 67
244 410 310 127 15 41
384 550 230 87 61 46
244 415 310 94 20 36
251 735 241 158 8 45
248 415 312 90 21 36
254 695 331 151 108 82
321 78 208 133 6 42
374 420 195 86 64 55
352 121 231 118 97 74
262 374 269 99 84 68
252 404 306 112 91 69
329 740 174 107 21 31
320 70 205 125 16 38
370 635 250 57 28 32
225 435 260 60 35 34
254 405 310 110 89 66
309 685 312 40 30 31
365 399 215 115 98 80
326 535 315 155 110 84
362 304 249 135 99 68
349 900 235 62 54 53
256 406 314 113 90 67
317 345 267 64 49 36
251 697 275 127 12 40
298 230 300 114 92 66
262 76 231 96 39 28
339 285 213 104 84 60
252 408 312 84 66 47
235 475 309 140 7 42
381 544 177 77 31 35
320 260 250 94 76 57
254 410 315 85 37 37
228 436 302 68 29 34
383 695 255 121 2 37
253 415 316 81 23 34
294 405 245 84 71 57
227 424 263 82 37 40
318 344 213 98 85 72
345 468 270 58 24 28
428 435 218 136 15 43
407 787 165 94 67 51
229 425 260 53 36 33
352 296 268 127 98 65
375 856 215 79 64 61
260 475 145 77 33 32
342 99 197 145 28 45
384 525 174 157 13 36
331 36 192 118 36 20
327 204 213 121 97 67
299 695 191 56 32 37
226 427 262 53 38 32
232 423 258 38 38 43
271 330 308 127 96 69
352 75 220 102 53 49
313 282 319 101 84 67
348 445 270 69 21 33
327 158 218 115 91 62
299 675 194 74 30 37
226 437 257 38 35 37
226 425 303 98 27 39
229 430 304 49 30 31
334 105 250 123 98 71
347 104 202 135 29 42
229 425 305 53 29 31
234 425 306 60 25 30
239 420 308 141 6 45
351 60 237 123 11 38
239 425 307 98 17 37
234 430 305 73 27 34
259 75 275 117 18 41
287 800 314 171 125 91
314 310 333 134 101 69
260 175 252 136 103 66
226 433 303 47 27 33
248 725 300 117 82 60
356 631 272 56 26 33
293 215 300 114 92 68
240 895 294 76 62 60
341 452 296 137 29 53
230 434 303 58 29 33
325 145 230 102 82 59
366 384 228 111 90 67
348 819 253 143 103 83
284 550 313 135 14 44
308 715 183 129 13 34
229 440 302 68 25 31
344 464 117 157 4 34
216 564 240 50 31 34
289 245 314 118 95 69
350 90 205 143 30 51
229 445 302 91 25 38
257 172 253 137 104 68
314 895 165 92 79 73
231 446 303 28 28 28
288 830 223 77 61 55
344 328 212 95 82 69
234 440 304 94 24 38
357 505 148 63 30 36
394 730 175 93 78 61
326 155 239 98 79 59
324 590 160 114 25 41
352 427 122 55 30 32
285 205 259 121 92 54
238 440 306 66 25 30
364 275 235 126 95 60
354 150 225 116 95 71
316 235 235 102 81 57
238 445 306 81 28 37
294 972 282 59 54 53
392 566 231 135 107 76
339 115 250 123 97 68
335 45 262 109 37 44
240 445 309 34 29 31
296 475 333 85 30 35
365 762 134 54 47 42
244 420 310 102 18 37
241 425 308 138 12 45
248 420 312 113 15 39
339 70 186 120 34 32
298 404 205 99 86 73
248 425 312 118 19 40
285 755 202 144 0 37
241 430 308 122 12 40
262 118 242 125 84 57
341 922 285 68 60 59
244 430 310 92 20 34
389 785 230 123 88 62
315 45 235 89 38 33
391 627 192 105 88 71
209 480 270 57 30 34
247 429 312 46 24 26
249 430 314 47 26 28
387 469 244 84 29 39
210 480 275 49 29 33
329 775 172 61 50 45
312 702 318 53 26 30
338 422 111 88 38 36
384 857 273 55 45 40
364 730 279 125 19 43
262 472 147 91 22 38
274 80 249 129 105 82
344 495 311 190 136 131
275 49 253 98 81 60
344 13 270 121 89 86
334 629 181 80 29 36
286 30 270 127 41 54
251 420 313 121 16 40
244 630 260 87 25 40
286 22 292 160 110 82
359 570 250 129 6 40
294 540 145 81 34 40
253 425 316 66 25 31
286 361 328 127 98 69
302 399 205 94 83 71
256 425 318 101 20 37
253 430 316 71 23 30
434 430 185 157 17 40
255 430 318 99 18 35
241 435 308 63 22 29
357 330 259 121 90 55
410 811 179 132 91 65
350 725 286 76 24 35
361 209 229 118 96 70
350 305 271 129 93 64
244 435 310 96 22 36
243 440 311 67 26 32
294 260 317 118 93 64
245 440 313 89 29 37
263 460 150 62 35 34
243 445 311 34 28 30
245 445 314 63 27 34
312 579 319 171 118 91
238 465 311 75 20 31
375 495 246 93 30 40
252 434 317 79 28 36
331 408 315 51 39 31
255 435 319 80 24 32
409 725 180 125 93 62
250 445 318 64 27 32
254 445 320 88 27 39
314 581 158 172 1 36
282 59 269 109 74 59
215 450 270 105 17 31
235 745 310 158 116 85
346 650 277 115 26 44
214 455 270 59 30 32
379 851 220 74 58 56
215 460 260 116 8 30
307 386 262 74 60 47
260 635 306 124 91 68
378 686 254 98 17 34
213 460 265 92 18 31
360 270 219 120 92 59
423 440 177 147 17 41
324 700 314 113 15 38
214 465 260 127 3 35
212 460 270 34 32 34
407 632 214 148 106 70
220 450 260 92 20 26
217 454 260 102 15 30
217 453 263 104 19 32
360 350 255 121 94 61
217 448 269 101 17 27
354 275 216 114 88 57
216 461 257 111 7 29
214 450 275 126 5 32
322 274 257 92 75 57
215 450 280 135 1 37
370 390 235 115 92 66
284 230 310 116 94 71
254 910 235 62 55 56
211 466 274 51 30 33
359 445 160 80 29 31
213 460 280 106 22 37
385 560 215 97 28 41
351 115 235 117 94 68
264 578 162 121 34 46
213 465 280 48 30 32
299 770 191 105 38 46
352 54 230 120 94 79
251 648 264 180 0 55
351 320 218 97 83 68
214 460 285 64 25 32
230 525 146 162 8 42
282 162 271 109 88 64
214 465 285 35 29 31
259 165 251 135 102 65
254 665 325 149 103 79
387 546 236 118 95 72
277 131 274 111 87 59
325 51 210 104 89 71
252 685 259 63 30 36
329 709 178 89 23 30
211 470 265 113 11 36
334 65 257 117 36 51
212 470 260 122 9 33
321 356 322 155 106 88
211 470 270 93 25 37
315 925 214 76 69 71
321 551 315 172 116 94
339 13 265 116 80 77
366 453 162 72 21 24
210 475 265 87 24 36
401 732 131 75 57 42
229 575 190 65 32 38
263 956 239 76 73 75
349 635 185 95 30 39
209 480 265 66 26 31
335 897 203 75 68 69
282 851 239 161 111 85
212 473 258 62 19 28
354 145 235 116 94 70
211 470 275 83 27 35
309 315 269 78 64 49
268 470 156 113 16 28
212 470 277 99 27 36
370 776 256 90 68 60
374 756 125 69 62 57
343 440 145 108 10 35
214 470 285 30 28 32
347 920 259 46 40 38
367 758 121 53 43 37
363 225 240 119 95 67
211 475 275 58 28 31
340 750 286 91 69 59
211 480 279 59 30 32
405 745 175 119 86 59
365 235 225 124 99 71
223 566 220 154 20 50
212 474 277 96 20 34
279 90 260 103 48 46
362 474 293 145 89 81
276 843 280 48 47 49
372 671 248 141 11 43
358 175 240 118 96 71
212 475 280 52 29 32
311 628 182 97 45 50
279 471 161 104 18 25
213 480 285 103 18 37
373 860 230 101 87 95
275 404 243 99 85 71
351 400 267 122 85 65
349 110 240 117 95 69
318 964 270 67 61 60
343 70 250 114 34 46
216 450 290 133 0 38
205 516 220 70 23 31
326 877 136 102 83 67
216 455 290 134 5 39
343 650 279 82 26 37
299 365 259 83 69 54
254 675 245 92 33 44
218 450 295 144 0 41
327 92 208 116 10 36
294 645 330 163 116 83
373 604 187 151 14 36
321 25 241 74 42 30
359 655 192 97 22 31
265 675 225 119 10 35
218 455 295 144 0 43
352 20 268 110 22 42
355 185 214 117 94 67
257 94 227 141 11 38
350 826 140 106 81 62
310 446 157 50 37 38
221 450 298 158 1 48
374 810 235 61 47 40
338 66 187 101 39 31
264 755 336 169 116 86
224 455 300 119 14 39
238 610 235 195 3 53
338 381 192 95 83 71
219 570 260 38 31 35
218 465 295 149 0 44
269 35 255 82 50 37
289 320 326 132 101 74
382 702 263 128 5 39
396 541 179 169 15 43
361 369 223 115 93 69
262 868 312 183 169 161
221 465 298 131 13 44
294 930 329 45 42 43
224 465 300 78 24 36
284 385 245 91 78 65
353 320 270 137 93 69
313 892 188 92 89 91
215 470 290 125 4 39
353 25 250 103 37 40
328 804 274 170 118 96
289 416 334 95 72 51
319 480 151 71 33 34
349 420 164 83 33 30
241 780 328 165 116 86
215 480 290 136 4 42
394 435 235 117 22 43
314 275 281 104 83 59
314 515 316 136 94 81
216 466 293 141 0 40
241 740 275 123 24 43
240 820 295 200 139 110
281 376 328 131 101 75
335 465 140 88 24 34
316 235 225 118 94 65
218 470 296 147 0 43
348 433 166 58 38 30
347 908 276 72 64 67
344 469 285 59 17 24
221 470 298 149 2 45
358 345 220 109 90 69
224 470 301 111 15 38
261 780 232 74 60 52
319 24 279 139 51 62
324 12 270 148 94 95
218 475 296 145 1 43
323 845 279 155 124 96
349 414 160 103 27 28
216 480 294 139 3 41
349 580 156 180 5 39
220 475 299 150 2 47
353 170 249 120 97 70
208 490 260 60 25 32
294 385 235 71 61 52
247 552 312 51 19 26
269 765 335 168 117 84
284 290 272 97 74 47
256 750 231 125 27 43
208 495 260 128 11 39
252 520 322 105 26 40
343 516 133 62 34 35
207 500 260 95 15 34
344 240 261 108 87 63
208 500 265 35 27 32
374 590 241 109 49 47
240 480 313 153 11 48
206 505 259 135 5 37
207 505 261 95 21 33
305 855 195 39 37 39
320 34 268 119 49 55
279 55 275 119 25 47
219 550 180 147 11 43
308 948 227 85 77 76
327 169 242 93 77 59
398 525 210 173 9 55
330 195 211 117 94 66
339 20 235 100 86 71
331 425 112 108 36 44
206 510 260 133 5 36
313 40 260 106 33 42
338 605 280 114 25 43
207 509 262 140 18 43
420 460 179 145 17 38
369 595 250 163 8 51
207 510 265 134 5 41
340 891 303 36 34 34
293 665 320 150 106 80
336 445 116 132 13 39
209 485 260 54 29 33
324 352 207 97 85 74
239 575 175 118 24 42
209 485 265 88 28 38
265 175 293 113 94 74
209 485 270 41 32 33
208 495 265 63 23 33
352 85 210 119 43 52
262 135 247 131 99 60
325 376 192 94 84 74
411 704 188 142 104 70
209 490 270 47 28 33
346 243 208 129 96 56
274 380 251 81 70 58
210 485 275 37 30 32
231 599 242 184 7 52
212 485 281 46 30 33
348 29 265 138 56 66
213 485 285 42 29 30
264 875 255 119 96 71
264 510 150 87 27 36
337 451 119 53 37 42
357 510 150 40 28 33
336 216 207 123 96 61
330 30 194 119 36 19
321 276 258 92 75 57
210 490 275 34 30 33
211 490 280 40 31 31
317 282 284 98 79 58
365 544 253 140 87 67
210 495 275 31 29 32
229 485 306 87 23 35
237 800 275 157 110 79
211 495 280 34 29 31
275 189 297 112 94 75
259 115 235 133 24 34
213 490 285 38 27 30
392 445 208 48 22 26
352 150 220 113 93 71
299 405 250 82 69 55
304 280 275 106 80 47
353 25 260 115 33 44
328 944 289 59 51 45
334 93 253 111 74 64
282 165 270 109 88 66
213 495 285 90 24 37
307 600 323 166 115 85
208 510 270 47 26 33
210 500 275 84 25 36
221 549 193 110 24 43
211 500 280 77 28 37
326 722 317 169 12 53
334 600 285 125 17 43
338 90 253 115 26 43
314 325 332 148 101 76
210 505 275 37 28 33
319 412 165 97 84 71
330 50 195 103 30 23
406 446 214 43 24 24
278 55 255 136 34 47
211 505 280 44 28 33
264 150 249 125 95 60
383 551 178 137 18 37
232 475 307 140 7 44
212 497 282 19 27 34
341 429 142 89 21 39
353 500 161 108 7 31
343 740 290 60 46 44
344 225 206 126 97 61
213 505 285 62 27 32
351 425 162 54 37 37
346 65 245 110 75 63
388 810 160 94 68 54
374 860 200 82 64 57
269 405 240 100 86 71
289 922 199 88 79 76
364 521 271 179 119 97
209 510 275 34 28 31
352 867 288 45 40 37
348 175 253 118 95 69
211 510 280 102 23 39
347 108 205 138 28 44
256 963 272 79 75 76
329 590 289 162 5 50
407 650 218 146 104 68
279 16 301 150 101 98
215 490 290 80 25 34
276 715 207 123 23 39
215 495 290 54 29 33
333 284 267 84 68 50
289 330 326 135 103 75
340 790 120 71 57 52
314 55 240 101 60 50
300 235 270 111 88 61
224 485 301 62 27 34
289 185 270 109 89 66
316 74 245 106 86 69
429 418 210 53 25 27
216 489 293 84 17 31
299 577 158 121 21 41
279 160 285 111 89 64
218 490 295 69 27 33
349 895 310 52 44 40
364 275 240 124 94 60
352 60 220 113 33 43
290 350 328 126 97 69
217 492 292 39 29 27
269 910 325 148 125 106
326 529 272 62 27 33
299 400 251 84 71 57
319 934 221 64 57 59
328 345 315 141 96 73
217 494 292 41 29 32
218 495 295 42 29 30
317 240 242 97 78 56
399 819 235 57 45 37
220 490 299 65 26 33
225 530 299 160 1 49
359 255 255 131 101 67
425 461 216 102 24 40
300 337 267 80 65 48
359 775 266 88 68 58
220 495 299 86 21 33
223 490 301 95 29 39
379 580 243 158 100 77
310 475 315 138 20 47
223 495 301 139 12 45
215 500 290 56 27 32
318 300 329 112 89 62
247 713 263 91 21 30
291 882 187 45 45 47
215 505 290 89 27 37
360 415 161 137 16 26
254 755 235 78 27 37
347 302 273 112 87 58
215 510 290 94 25 37
389 426 240 73 62 49
216 500 293 39 31 28
383 525 234 63 26 32
317 245 223 125 98 67
343 51 205 129 110 90
417 786 204 128 89 60
216 503 293 42 25 28
357 303 263 130 91 61
250 700 275 122 13 39
336 459 130 69 33 35
339 485 135 111 7 30
329 75 255 120 95 70
316 265 234 118 93 65
241 624 260 49 33 37
298 295 274 82 65 47
218 505 295 64 29 33
326 766 296 90 69 58
217 506 292 80 35 38
264 435 155 67 38 38
361 421 266 146 15 48
262 115 237 130 29 39
217 510 292 57 29 32
294 375 254 85 72 58
219 510 295 72 30 36
339 185 211 127 98 61
314 300 330 116 92 66
235 605 235 182 0 47
327 671 298 141 4 44
239 615 245 144 13 47
391 762 113 75 57 47
228 455 302 75 29 35
404 735 150 50 39 28
231 450 303 60 21 28
354 460 125 63 30 37
394 585 236 171 123 93
421 476 206 121 29 46
271 44 253 114 27 28
220 545 289 167 0 50
230 460 304 82 28 37
237 454 307 89 18 35
362 305 240 126 97 63
349 405 190 103 88 73
239 455 310 93 21 36
330 70 187 125 34 34
316 254 243 96 77 55
409 505 205 77 30 38
240 800 265 63 53 51
322 815 145 55 48 46
235 461 308 102 24 38
351 479 158 82 28 34
339 510 275 55 37 32
241 730 324 157 111 85
246 911 313 165 131 112
238 460 311 108 14 35
241 460 313 124 22 41
240 465 314 98 23 37
325 679 302 136 11 43
333 505 313 184 135 118
299 896 178 88 75 70
227 469 302 44 27 26
309 930 329 56 50 47
226 476 303 141 11 46
355 625 275 128 27 47
226 480 303 70 22 33
290 570 324 138 107 85
259 525 148 133 6 30
317 286 290 109 88 65
229 480 305 120 15 40
362 732 177 69 31 39
234 470 309 137 7 42
329 700 310 132 7 42
299 405 195 96 83 71
240 470 314 77 21 34
222 551 173 177 7 47
343 798 117 83 61 49
270 182 253 131 100 65
263 355 290 113 92 69
278 150 265 105 85 62
232 479 307 134 6 41
319 740 316 60 25 32
335 190 253 96 78 58
359 905 285 83 71 69
389 645 228 133 81 62
234 480 309 137 10 43
238 475 312 144 9 44
254 665 255 161 2 48
319 12 270 139 79 76
244 465 316 82 23 34
247 460 317 123 21 46
231 583 204 143 25 51
379 440 156 62 34 36
264 50 281 122 29 47
343 85 249 120 100 78
250 450 318 80 28 34
339 200 210 118 94 65
291 460 162 94 28 28
250 455 318 59 26 33
260 145 248 126 95 56
305 855 205 45 42 44
254 455 321 55 25 28
289 480 154 64 35 35
345 776 135 48 42 38
244 470 316 65 27 35
415 431 209 65 24 22
387 750 255 98 28 41
246 466 318 60 22 30
323 85 215 118 38 48
244 475 316 110 19 41
246 475 318 63 20 32
339 210 257 100 81 60
357 250 212 131 100 62
246 480 318 150 13 47
344 406 278 56 43 29
327 873 166 93 79 71
336 786 150 51 45 43
269 240 259 133 100 63
275 330 314 128 98 71
334 60 189 107 34 22
249 480 320 144 13 45
361 801 251 66 50 44
334 421 115 98 44 38
267 111 242 129 30 40
306 866 176 53 49 51
226 490 303 65 28 33
362 300 249 133 99 67
346 419 163 84 37 32
344 735 173 48 33 36
256 97 228 139 15 42
247 822 264 80 65 60
231 486 308 125 17 43
229 490 306 90 22 36
299 415 329 125 93 67
216 524 195 125 14 37
353 814 131 99 73 51
319 430 155 87 29 37
319 568 152 169 11 42
229 495 306 55 29 34
200 520 210 142 3 38
299 645 325 173 122 95
268 710 214 103 18 35
339 29 270 130 54 60
321 66 197 102 28 35
362 763 131 54 46 40
240 954 300 54 51 51
339 315 214 90 77 64
309 695 316 59 29 33
234 490 310 148 10 45
349 85 200 152 28 52
334 681 182 103 20 29
234 495 310 145 14 47
240 490 314 158 12 49
408 645 205 151 108 76
308 315 240 122 95 71
373 494 248 110 30 44
232 585 210 156 4 43
367 380 231 110 89 65
283 200 256 116 91 58
239 880 280 160 117 96
240 495 314 156 13 49
355 490 130 131 4 35
311 268 302 114 92 69
311 575 322 173 126 101
226 500 303 42 30 31
237 561 163 63 32 35
269 80 275 103 81 59
353 20 255 111 33 45
419 445 175 152 15 39
363 515 170 90 25 34
226 509 303 136 13 39
354 540 250 111 47 48
325 85 210 125 18 38
254 585 315 90 24 36
378 844 165 90 73 64
234 500 309 127 14 43
365 890 307 60 50 42
287 680 203 62 33 36
243 946 254 76 71 71
341 33 228 114 97 80
237 500 312 158 12 50
302 296 261 80 64 48
237 505 312 107 21 41
240 500 314 121 16 41
286 764 202 145 3 38
294 320 276 90 75 58
257 418 218 88 75 62
232 506 307 159 8 48
379 555 181 43 32 34
235 510 309 112 19 41
238 510 311 50 28 34
348 115 221 110 88 61
310 390 264 71 57 44
432 453 205 109 24 38
307 384 204 94 81 68
328 55 195 94 28 21
308 330 240 118 92 70
254 940 230 74 68 69
349 884 301 38 34 33
289 710 195 137 4 35
354 340 216 102 88 74
349 155 249 119 95 68
246 485 318 154 14 49
345 345 272 134 90 69
310 890 181 91 81 75
274 165 289 110 90 68
392 509 228 178 13 58
322 493 307 65 9 27
310 816 287 124 90 77
383 706 264 133 4 41
262 96 237 106 45 41
304 350 331 143 103 76
254 785 337 171 121 92
361 205 230 118 96 70
244 490 316 154 13 48
237 807 307 177 124 95
398 775 223 138 101 71
299 590 329 159 114 82
270 215 256 131 101 65
366 394 252 139 103 72
334 730 174 62 36 38
349 180 211 124 96 62
300 640 310 123 47 48
243 495 316 121 16 43
250 680 320 153 110 82
364 360 250 125 98 67
249 490 320 132 16 42
265 645 221 98 20 37
224 565 285 158 4 49
249 495 321 49 26 28
356 378 208 102 88 73
243 500 316 74 25 34
362 332 232 128 101 71
249 505 320 46 27 31
254 460 321 98 19 36
321 300 290 109 88 64
224 515 150 146 2 36
314 390 190 94 83 72
256 459 323 97 16 34
339 740 295 48 30 34
326 120 239 111 85 62
242 812 268 71 59 53
382 853 208 88 72 72
253 465 321 128 14 43
329 41 221 108 87 66
358 554 147 85 29 35
253 470 322 140 13 44
327 360 300 120 83 61
233 545 155 91 31 41
357 381 263 141 100 74
279 414 210 90 77 63
326 114 243 117 90 69
222 521 297 155 4 49
252 485 322 141 13 42
252 490 322 118 16 39
411 699 206 160 108 77
366 255 235 122 95 61
254 490 324 139 15 45
391 710 230 78 26 37
329 13 265 137 88 90
357 256 258 127 97 63
331 215 253 93 76 57
252 493 322 51 26 33
264 966 265 82 77 79
254 495 324 118 16 41
252 720 239 124 16 41
321 372 285 103 75 52
325 330 290 100 74 52
266 49 248 79 59 41
254 925 320 177 134 115
254 505 324 122 22 45
245 575 314 139 33 53
264 35 286 123 53 58
271 310 290 131 95 71
252 506 322 68 24 30
259 531 147 125 7 28
269 465 160 112 17 27
252 510 322 53 25 26
248 925 235 64 60 62
337 938 278 60 52 47
264 969 270 78 73 74
254 510 324 105 21 41
406 630 210 143 106 68
264 30 255 106 29 28
317 210 235 101 82 60
271 265 313 124 96 70
316 345 273 90 68 54
269 25 256 106 23 26
269 110 276 117 94 70
269 30 256 94 42 31
259 34 253 73 48 33
356 204 252 126 102 74
249 515 320 43 26 29
264 37 252 82 37 27
321 250 217 128 100 66
274 611 184 60 32 40
264 40 251 74 36 27
350 105 215 123 39 49
241 570 303 104 26 42
259 46 247 74 42 25
355 705 287 31 26 30
259 44 249 72 37 24
264 45 249 92 42 31
378 460 259 65 27 32
315 245 230 115 91 63
396 530 212 164 21 54
274 510 151 96 22 25
269 45 251 103 32 28
269 285 310 135 101 76
416 746 115 90 66 49
364 464 167 87 25 33
367 375 245 124 96 63
334 270 211 129 98 62
259 61 236 66 36 30
284 510 331 44 27 32
264 680 333 150 108 78
256 58 238 74 44 23
260 58 238 81 37 26
344 380 270 124 85 64
369 450 259 112 5 35
260 65 234 76 38 25
248 775 244 73 61 56
318 280 225 129 100 68
299 220 285 116 93 67
262 62 237 71 42 15
346 690 183 49 37 38
259 53 244 83 35 31
263 57 242 90 29 22
325 417 146 97 72 55
269 50 250 115 37 32
270 54 248 106 28 25
349 255 209 133 98 58
266 60 243 87 50 31
250 760 241 143 6 41
339 720 175 68 33 35
347 32 232 98 82 61
271 477 158 113 15 26
269 60 246 92 55 41
229 520 145 174 9 44
324 195 244 93 76 59
291 335 328 129 99 72
329 40 195 113 36 22
339 820 130 91 72 57
274 210 254 126 97 63
324 510 317 167 138 120
269 65 245 112 32 29
274 40 255 108 34 31
274 45 254 120 58 48
341 115 213 104 81 54
384 826 255 52 41 32
324 265 215 131 101 65
370 710 193 63 27 39
278 45 256 126 42 39
329 720 176 74 32 34
274 55 251 121 33 31
236 910 298 153 129 110
284 175 285 109 88 63
294 310 276 90 74 57
345 469 265 67 21 29
404 880 275 95 79 69
276 55 253 137 57 55
289 951 321 75 70 70
270 963 242 83 79 81
359 520 155 39 29 31
272 60 247 115 30 32
348 377 202 93 83 73
272 65 247 122 28 25
275 65 249 125 35 34
343 30 231 109 93 78
315 240 235 103 82 57
276 59 253 122 92 67
241 721 319 154 109 82
313 364 209 98 84 71
279 60 255 108 67 52
279 85 255 130 17 41
344 19 239 104 87 73
251 691 328 153 110 83
311 16 255 130 39 36
281 160 280 110 88 62
273 140 256 117 91 57
314 16 251 118 39 39
314 14 255 126 42 40
339 225 207 125 97 61
310 350 235 101 82 63
273 335 285 105 86 65
309 25 255 109 41 40
389 418 176 42 27 24
314 414 165 94 83 71
348 50 249 132 21 50
414 810 215 92 69 54
361 807 247 62 52 45
309 30 255 110 44 42
268 835 244 52 45 48
303 245 300 115 92 65
382 840 172 89 70 62
262 505 147 71 35 37
316 20 247 98 44 26
318 25 244 78 42 30
295 890 176 93 80 76
314 621 179 156 21 44
329 155 215 122 95 61
318 220 240 97 78 58
304 330 265 71 58 42
314 20 250 111 37 32
264 170 291 112 93 73
412 715 208 167 113 83
390 705 255 109 14 37
385 740 71 110 82 63
241 752 296 99 74 47
259 170 289 112 92 72
270 910 210 65 61 61
313 25 250 85 41 30
304 480 150 60 35 36
357 864 177 70 60 57
311 305 249 112 88 66
308 390 261 74 61 48
318 18 248 99 41 32
253 951 316 54 51 52
313 30 249 92 44 37
274 120 255 122 91 61
312 826 198 75 62 54
320 60 205 80 29 22
320 65 205 113 24 39
335 474 296 86 13 29
318 50 225 88 34 34
350 784 106 87 65 56
320 55 215 66 44 30
319 60 210 88 34 30
266 812 332 192 138 111
274 826 320 186 130 104
304 690 314 76 28 36
279 11 304 135 36 56
321 56 210 80 63 46
287 186 289 109 87 63
241 775 256 75 61 56
339 49 205 117 92 64
206 520 240 117 14 37
317 280 250 94 77 58
318 60 215 88 32 33
381 428 201 65 29 32
366 385 225 105 87 67
352 130 230 118 96 72
318 65 215 104 56 48
390 499 232 51 27 28
271 595 320 139 106 88
244 880 310 125 94 74
282 28 288 150 18 59
344 490 125 117 17 40
337 774 279 92 70 60
317 60 220 100 30 37
304 795 300 82 65 54
416 790 179 138 97 67
316 60 225 93 35 38
317 60 224 101 33 37
301 620 327 166 117 89
400 736 125 71 55 45
324 295 220 111 89 62
317 65 225 108 35 41
310 360 215 104 87 70
259 955 315 65 60 59
315 35 240 86 43 31
318 34 238 76 39 28
261 70 233 99 45 29
334 865 161 101 81 69
266 484 153 86 27 35
318 39 234 75 40 28
327 12 267 146 95 97
339 359 203 93 83 74
277 118 260 117 87 62
398 745 219 160 109 80
264 600 180 202 12 50
326 142 222 109 86 61
304 305 271 85 70 55
244 750 331 169 117 94
261 161 288 110 91 71
316 37 237 80 39 31
393 431 225 72 61 48
298 287 273 87 67 44
330 917 223 75 66 65
269 26 296 130 83 70
318 95 240 102 56 52
348 475 155 84 26 34
232 582 194 119 29 41
318 45 229 70 36 26
316 46 232 91 37 33
360 345 255 121 93 58
364 417 174 83 26 37
350 721 286 45 30 32
322 100 218 88 57 38
322 64 198 85 29 26
342 512 285 96 50 46
366 625 261 163 22 54
311 36 247 102 24 32
326 130 221 109 86 60
369 889 270 66 56 54
335 640 286 80 24 35
311 35 250 106 44 43
264 370 270 97 83 69
311 38 250 106 21 37
309 290 275 92 75 55
259 735 337 167 116 90
314 465 153 74 36 37
313 35 245 98 32 31
299 601 169 59 35 39
352 75 210 115 57 57
409 732 149 55 42 31
312 40 245 99 32 39
312 34 248 108 35 39
247 636 265 67 27 36
244 566 159 85 30 43
312 41 255 108 56 49
258 776 338 167 119 89
312 45 245 99 34 37
260 80 225 127 27 38
406 430 163 133 12 33
312 45 255 110 84 66
289 866 313 156 125 91
352 60 234 124 22 43
339 31 266 114 77 62
392 465 225 57 25 30
316 50 230 101 31 34
317 49 228 89 29 35
391 466 231 132 16 43
365 365 235 114 93 70
264 105 276 113 94 72
316 55 226 70 43 35
313 270 285 106 85 61
404 790 156 94 70 57
317 205 225 109 88 65
297 211 284 111 89 64
314 50 235 108 29 38
294 365 331 141 106 78
313 50 240 99 33 34
318 670 303 127 15 41
314 55 235 101 29 37
299 440 331 50 28 29
252 670 315 146 107 77
310 578 157 179 3 41
291 400 222 75 66 57
315 60 230 99 31 35
316 63 227 113 26 36
259 500 144 78 34 37
314 60 235 110 38 40
244 525 141 138 13 39
315 65 235 103 26 31
329 165 245 95 77 58
260 880 256 120 96 69
314 65 240 102 30 39
366 494 252 59 31 34
243 611 220 210 6 56
338 370 274 115 75 56
313 50 245 112 19 37
338 51 195 106 58 18
284 260 318 120 95 69
313 55 245 101 34 41
318 465 310 105 18 38
275 305 315 137 102 78
313 50 250 113 35 45
255 890 256 108 88 66
332 431 114 110 31 41
274 416 180 86 73 58
314 55 250 103 34 40
274 935 216 85 76 78
331 115 248 120 95 70
241 751 289 152 112 82
382 844 176 89 72 63
350 105 235 121 96 68
320 360 269 80 58 42
383 739 75 103 77 57
315 54 255 106 42 46
332 414 323 71 20 29
280 500 151 101 18 26
334 125 249 116 91 65
309 851 210 48 45 47
246 746 333 168 116 92
324 911 210 77 68 67
314 60 245 104 31 35
275 586 319 129 96 80
272 160 252 120 93 59
314 65 245 112 30 44
315 60 250 108 60 50
313 825 180 47 43 42
315 65 250 108 44 46
335 100 196 121 69 63
284 449 168 91 25 27
291 281 323 120 95 67
329 14 255 100 57 48
336 917 228 69 59 62
316 60 253 112 80 64
318 60 255 121 87 71
296 392 217 78 69 60
256 593 177 148 36 54
309 830 276 144 105 76
405 620 220 155 110 75
393 431 230 68 52 41
232 576 209 65 30 35
298 230 266 118 91 61
262 175 292 113 94 74
256 74 223 111 39 17
264 165 251 129 98 62
274 424 170 87 73 55
289 425 341 108 26 41
274 170 254 122 94 59
321 574 292 146 18 47
316 370 263 68 50 35
257 80 222 126 15 32
356 345 261 129 94 62
279 418 342 55 36 35
259 85 225 137 15 39
326 782 287 90 67 58
323 389 188 95 83 72
397 758 117 75 58 47
352 126 227 121 97 71
256 68 228 89 37 14
333 105 199 144 24 39
274 416 339 61 47 40
263 70 235 91 52 38
362 834 152 85 71 64
317 76 245 106 54 51
261 80 229 126 21 43
324 375 270 79 54 39
262 80 231 122 25 40
239 730 310 146 109 79
265 70 239 108 37 32
389 440 158 71 33 35
350 694 183 39 34 37
356 508 159 50 30 32
335 877 293 38 33 32
249 605 305 87 21 36
306 822 286 92 64 55
399 835 190 144 97 78
379 660 220 62 26 28
268 75 241 127 20 32
347 70 192 130 38 43
265 80 239 115 65 57
267 80 241 129 30 39
325 51 206 107 88 65
339 420 315 55 25 31
319 445 155 73 33 36
365 766 94 100 74 53
334 160 212 125 96 59
302 251 309 117 94 68
267 66 242 114 22 28
270 80 245 130 39 44
344 310 215 96 81 65
245 730 285 50 30 33
359 810 250 41 36 35
260 85 230 118 35 37
264 85 239 120 33 38
258 95 230 135 21 41
241 823 305 208 143 113
299 270 319 112 90 66
344 390 269 118 80 59
260 95 235 94 52 36
240 589 186 202 12 50
327 125 240 110 85 62
313 384 194 94 83 72
264 90 240 109 53 38
274 125 275 114 90 63
315 820 175 49 45 44
261 94 238 81 56 32
289 371 252 86 73 59
267 85 242 134 25 39
318 755 178 112 25 36
270 85 245 132 25 36
398 848 256 115 96 92
259 205 295 115 93 71
278 165 260 113 90 63
419 465 220 105 29 42
270 90 244 119 28 33
279 70 255 111 55 51
334 425 110 124 29 33
272 75 247 124 100 75
274 85 249 118 70 53
277 85 252 126 37 42
329 34 268 130 21 49
273 95 246 117 19 28
237 765 322 177 123 95
385 872 258 95 75 64
372 655 244 138 16 43
275 90 249 128 30 39
320 752 312 45 29 31
280 361 262 90 77 65
339 75 254 115 24 44
254 960 270 75 71 73
275 95 249 116 47 39
334 355 276 98 64 45
279 95 255 92 65 44
230 595 280 65 29 36
354 240 259 124 98 68
320 195 220 107 87 64
258 100 231 123 17 34
307 359 230 98 81 63
260 100 235 112 30 31
365 412 169 103 19 28
259 105 235 114 39 37
360 415 275 132 24 47
264 525 326 81 25 35
352 430 125 84 24 38
409 445 169 143 17 38
264 100 240 120 48 41
379 419 240 98 79 58
269 280 310 132 99 72
259 110 235 126 24 33
329 790 281 72 55 49
208 536 214 78 29 37
312 963 289 64 56 52
263 105 242 96 55 30
350 680 281 103 21 39
267 99 242 122 56 45
341 18 238 100 86 72
266 102 243 104 81 51
252 868 302 126 85 71
266 105 243 101 54 34
299 680 310 41 27 28
269 105 245 113 45 36
366 240 230 124 99 70
211 515 280 74 24 34
413 735 195 155 105 73
345 105 246 121 98 72
388 854 250 88 70 63
338 396 187 98 85 71
252 755 238 126 20 42
297 654 316 141 90 70
266 108 243 121 0 23
264 160 288 110 91 71
369 412 160 128 18 21
270 110 244 136 49 48
222 536 163 87 24 38
362 868 206 64 54 53
242 626 260 115 32 46
264 115 240 129 65 51
343 407 290 51 41 32
259 416 225 98 83 68
261 117 238 136 84 62
264 250 306 117 93 67
265 116 245 127 84 57
418 434 216 84 5 26
344 890 205 82 69 68
262 125 247 125 91 51
316 782 297 85 63 54
406 756 157 65 47 35
304 535 145 40 37 40
265 125 248 120 89 52
342 459 275 129 11 43
267 114 242 139 80 71
392 464 162 83 25 35
330 67 257 115 51 50
266 117 248 128 89 59
271 112 248 140 96 72
312 661 303 33 28 30
394 465 164 131 17 40
271 126 253 120 90 55
272 100 247 109 63 45
328 809 269 154 100 79
321 90 248 103 78 61
294 410 240 82 70 57
262 200 297 115 93 70
314 860 155 84 72 67
272 105 247 117 28 27
311 377 202 94 83 72
309 950 315 69 61 58
266 602 313 121 76 64
314 730 180 82 27 34
275 100 249 126 34 35
241 736 278 47 34 37
264 554 328 167 16 53
282 17 262 128 34 28
279 100 255 112 48 41
274 115 255 129 94 67
272 124 252 123 92 56
319 70 215 110 53 50
318 70 220 122 26 41
320 75 210 127 20 42
428 445 218 141 15 44
320 75 215 131 50 55
316 250 226 124 98 67
292 668 324 169 121 90
320 75 220 118 56 58
320 80 221 124 23 41
394 700 178 96 80 63
361 210 225 124 100 73
319 80 225 123 18 41
434 419 205 59 24 28
275 245 313 117 94 69
325 905 190 79 71 70
317 66 228 108 62 53
342 69 253 121 17 45
352 50 225 117 34 39
316 69 231 107 80 63
224 585 250 42 32 36
385 715 266 151 9 48
283 12 280 115 59 54
317 80 230 106 75 59
324 215 214 123 97 64
316 75 240 122 44 51
351 224 208 127 98 61
317 76 234 110 78 64
411 460 173 153 14 37
331 438 125 97 30 41
317 80 235 102 62 52
317 77 240 121 45 49
323 355 281 99 70 52
359 760 271 87 66 56
259 31 290 130 73 68
317 80 240 121 19 42
276 241 313 116 93 69
344 14 255 95 58 49
316 78 240 131 35 45
329 60 260 127 20 46
319 90 245 100 27 40
379 455 259 66 26 32
318 80 245 107 25 43
335 835 256 102 82 66
357 624 274 139 35 54
321 74 253 106 17 39
326 356 294 112 78 56
326 145 235 101 81 60
317 85 230 110 30 41
269 180 295 112 93 73
361 626 267 74 35 39
257 270 295 143 101 76
318 95 230 109 25 39
317 90 235 96 70 52
318 90 240 96 51 45
399 417 160 81 31 34
319 85 245 102 59 52
339 630 286 80 25 35
256 258 281 132 96 67
422 808 186 131 92 69
323 105 220 125 33 45
320 95 245 105 13 38
320 95 221 112 57 52
337 471 139 109 11 30
319 100 225 97 46 38
319 100 230 115 23 38
314 15 294 133 93 73
323 245 214 128 99 65
375 510 240 151 14 48
319 100 235 115 33 42
329 420 135 107 48 40
331 40 192 116 36 21
288 435 173 107 16 26
353 90 230 111 36 46
262 358 288 113 92 68
347 135 248 119 95 67
391 732 228 158 14 44
334 645 186 48 33 35
326 62 192 101 40 27
406 784 222 102 73 52
269 45 281 123 86 68
305 927 209 83 77 77
409 680 195 143 103 70
304 475 150 55 35 36
313 400 319 125 93 71
238 575 300 153 17 50
359 370 215 107 88 68
329 65 189 103 44 25
330 56 192 113 32 23
331 50 192 117 32 23
317 270 246 95 77 56
207 542 224 198 0 49
334 66 187 99 40 24
302 241 299 114 91 66
334 63 188 104 36 23
293 221 304 112 91 68
334 935 240 82 73 73
225 539 161 97 24 39
333 945 250 71 65 69
339 60 190 92 40 20
304 934 329 60 54 51
360 520 164 67 30 32
343 61 191 91 45 27
340 64 188 100 40 29
386 747 78 100 79 64
344 65 190 103 42 29
379 420 225 85 71 56
314 575 315 165 111 87
330 21 195 120 37 17
299 520 144 101 23 33
351 65 225 127 34 51
409 480 174 157 16 39
332 23 194 121 37 18
270 345 310 123 96 69
330 29 192 120 36 19
324 15 250 95 52 42
324 13 255 113 53 49
263 869 258 120 97 71
258 23 258 116 101 86
372 665 244 122 14 41
329 14 250 90 59 47
334 14 245 95 75 61
273 155 255 116 90 59
239 585 300 160 14 47
279 900 324 176 132 112
279 414 190 84 73 61
334 14 250 93 67 54
414 745 119 79 59 44
402 621 202 117 94 68
279 675 210 73 29 34
379 420 154 84 37 40
323 24 239 73 48 34
375 866 244 65 56 56
325 25 235 74 58 44
304 505 146 130 5 30
339 799 269 164 115 91
303 655 193 45 32 38
304 430 164 81 31 34
330 21 236 90 72 59
389 866 279 61 50 41
389 560 210 70 32 38
277 104 264 114 84 63
326 22 237 84 69 55
329 30 230 90 79 69
305 260 274 120 94 65
298 625 329 164 116 85
346 403 188 101 86 71
254 655 275 151 7 47
381 699 261 126 4 40
323 30 235 61 41 31
322 29 238 67 42 30
342 278 212 110 86 57
326 27 232 83 72 60
280 290 319 122 96 70
378 595 187 164 19 42
334 25 231 107 77 58
332 18 238 93 77 62
298 422 333 57 34 26
339 425 109 75 38 38
334 399 184 99 85 71
342 903 227 66 57 57
414 470 176 154 16 38
233 605 275 82 33 39
318 690 183 78 30 33
259 11 280 76 54 47
324 375 194 95 84 74
331 32 227 97 78 64
334 31 226 121 75 51
226 563 177 76 18 36
320 17 247 89 49 37
394 775 130 74 57 46
274 215 255 128 98 63
255 954 246 77 73 74
236 940 290 66 56 53
325 17 246 87 58 44
335 145 248 112 88 63
344 285 268 100 79 56
358 290 259 125 96 61
294 830 219 83 65 58
350 45 225 94 41 32
302 404 247 71 61 50
321 22 242 78 44 30
289 962 307 65 59 58
353 45 235 115 30 40
318 435 329 122 16 40
366 250 235 120 94 62
327 18 243 87 67 52
350 220 208 125 97 62
327 432 138 103 23 34
330 75 187 137 23 34
270 551 326 164 15 52
378 695 189 92 77 62
339 15 240 98 82 68
343 16 241 102 82 70
362 385 216 112 93 71
339 14 250 99 71 59
334 460 140 74 34 37
318 360 276 98 70 54
264 620 302 109 25 42
339 14 255 95 63 52
338 21 232 97 83 69
246 765 246 83 52 53
397 548 194 34 28 33
276 149 282 113 91 65
344 25 235 107 92 77
344 915 270 64 57 58
342 27 232 107 92 76
284 465 164 98 21 28
279 490 155 97 21 24
349 20 240 105 73 61
363 829 152 84 66 63
348 26 236 101 82 63
350 380 267 134 94 68
346 23 238 108 91 74
351 29 238 93 42 35
348 17 245 106 67 60
258 404 316 119 95 70
350 18 249 107 49 51
332 32 194 118 36 20
361 320 250 134 99 67
332 36 192 118 36 20
366 887 252 72 65 66
289 670 201 62 35 37
295 205 275 111 90 67
357 390 207 125 104 84
350 806 257 147 106 85
333 40 195 115 38 22
330 45 195 111 38 24
313 420 159 135 22 28
294 275 321 120 95 66
334 45 195 118 45 24
266 654 222 169 7 45
331 47 207 112 83 52
289 275 321 121 96 68
374 505 175 124 7 31
334 47 207 113 84 51
324 640 185 42 37 40
353 35 240 98 46 41
350 905 312 69 60 54
363 494 294 174 118 106
265 130 249 124 92 54
361 243 252 128 99 65
393 436 199 58 20 26
335 93 192 128 51 40
293 626 188 65 37 42
269 549 147 156 6 33
328 39 224 100 87 73
361 414 267 76 26 30
345 110 246 117 94 68
348 440 280 112 23 42
399 815 230 62 47 37
307 830 203 75 60 56
418 430 210 70 16 24
349 841 260 38 32 29
322 44 224 73 48 27
322 39 229 67 39 28
324 160 225 105 82 56
324 45 220 91 75 59
300 365 246 66 56 51
355 725 282 77 24 36
328 43 218 107 92 74
399 831 185 130 90 72
324 40 225 78 60 45
393 560 185 59 32 37
352 83 207 135 32 49
312 483 303 52 15 27
303 891 170 96 84 81
301 710 187 89 31 37
264 10 275 80 61 55
235 585 294 147 21 49
283 196 298 111 92 72
322 179 224 108 86 60
279 910 324 158 126 100
353 861 283 52 42 35
326 42 222 101 89 76
385 555 220 76 30 38
311 35 260 106 47 47
329 35 225 98 82 69
316 658 187 132 7 31
348 145 216 115 94 70
323 320 281 101 75 55
301 745 187 117 20 37
345 335 213 95 83 71
331 37 222 113 80 57
404 420 160 101 25 31
334 40 220 119 82 48
350 80 200 147 27 50
352 80 210 117 32 45
334 37 222 121 83 47
263 195 296 114 93 71
350 135 220 112 92 69
368 690 191 43 33 36
322 300 300 112 89 62
289 20 275 99 56 44
336 563 277 96 27 38
330 47 210 111 88 60
399 428 185 63 25 26
244 920 250 54 51 52
334 44 215 114 89 60
323 55 205 93 75 56
329 50 200 112 62 31
333 949 256 69 64 67
365 481 256 125 18 43
364 467 270 122 65 67
324 60 195 85 32 23
349 45 250 117 45 50
304 849 286 120 98 74
329 590 160 178 4 37
251 643 274 184 4 52
300 962 302 79 73 72
323 891 170 101 89 81
341 595 277 38 29 32
339 590 280 148 14 48
323 65 195 98 33 31
361 378 218 109 90 69
358 505 165 66 23 34
348 473 296 65 36 36
321 61 201 78 27 22
306 273 317 110 89 66
303 302 267 83 67 50
315 18 294 162 117 103
326 57 196 94 42 16
328 34 228 93 83 72
327 59 194 102 33 25
351 120 229 118 96 73
319 925 326 45 41 39
282 50 270 114 71 62
352 90 234 107 43 45
407 458 222 27 26 26
259 900 240 89 70 57
347 546 254 121 13 39
322 58 203 76 39 27
239 750 270 132 62 57
334 48 201 114 71 42
248 735 290 87 61 53
322 54 209 93 79 65
348 120 244 118 95 70
242 822 285 194 137 104
341 720 297 165 4 52
294 510 309 64 24 31
321 51 216 76 56 35
362 305 231 114 91 64
394 500 170 157 13 35
356 335 262 129 92 60
292 772 198 78 61 56
301 238 273 112 88 59
296 214 291 111 89 63
348 80 240 113 16 42
322 53 214 94 80 67
327 48 213 109 92 71
259 245 301 118 94 69
214 535 280 104 18 39
279 210 254 122 94 61
331 113 206 138 72 66
361 349 245 123 97 67
339 35 225 113 97 80
279 945 225 94 88 91
221 558 188 170 11 49
338 37 222 116 100 80
286 257 263 128 95 60
259 445 145 53 36 39
343 41 221 121 104 87
345 39 224 116 100 84
327 150 219 111 88 61
365 265 235 125 97 62
339 44 215 122 103 80
254 615 205 91 35 42
263 365 305 123 96 68
339 475 130 97 23 34
253 830 260 88 68 61
339 46 211 118 95 66
342 47 212 127 109 92
367 500 280 156 113 92
207 527 251 50 28 31
314 26 275 144 29 57
319 510 148 133 2 28
253 655 315 168 121 95
258 606 189 128 31 47
249 885 265 132 105 77
345 44 219 119 102 85
348 45 221 89 64 41
311 770 182 130 19 40
331 105 201 131 18 40
393 720 235 56 30 36
269 35 285 132 37 55
347 42 222 103 90 75
329 290 216 119 93 64
348 41 226 85 60 39
347 47 217 96 81 60
228 566 179 93 25 39
397 581 226 139 110 75
361 315 250 132 99 65
280 810 326 176 132 105
309 345 240 99 81 62
344 55 200 104 74 42
329 455 150 77 31 36
240 875 285 143 110 85
275 130 260 115 90 61
313 780 183 72 57 49
342 52 201 121 101 76
390 839 262 70 55 43
284 35 270 126 52 59
345 54 204 118 97 75
325 350 274 76 54 38
338 924 236 82 73 72
346 58 199 101 44 27
282 45 265 117 61 57
250 715 300 123 88 65
348 60 200 97 46 30
274 140 280 112 90 65
348 65 195 108 46 39
350 65 200 115 43 44
245 871 280 116 95 72
347 57 202 102 56 28
405 451 168 46 38 39
262 355 295 116 93 67
340 48 209 122 102 78
352 76 228 101 29 35
348 50 215 97 71 43
362 339 243 131 102 66
254 640 240 168 7 46
346 53 208 126 108 91
350 55 215 101 39 39
246 829 285 138 96 78
340 775 276 90 68 59
315 50 259 102 37 46
263 569 319 56 27 31
321 176 230 100 81 59
351 65 220 113 59 56
352 62 209 116 44 48
323 34 234 68 34 33
239 800 270 78 59 52
321 37 232 76 37 37
325 835 141 77 60 52
345 34 229 111 96 80
348 35 230 89 62 38
347 37 227 101 86 73
350 40 230 86 45 36
291 848 286 68 55 42
423 813 196 124 85 66
332 532 153 146 7 35
334 370 275 100 66 49
351 38 233 103 33 40
351 46 246 120 72 65
256 636 315 149 118 90
351 56 226 117 52 47
361 220 219 120 97 70
349 55 240 124 75 70
351 59 229 123 35 47
287 810 313 157 120 89
326 305 217 109 88 66
351 65 230 112 76 66
349 65 240 98 38 42
334 810 125 81 62 52
314 22 281 154 104 88
312 388 193 91 81 71
351 65 235 106 49 49
243 825 310 211 144 115
344 50 255 122 35 51
271 676 217 129 2 34
340 55 256 126 90 72
360 210 245 124 100 72
343 55 254 117 68 60
339 60 255 128 102 77
266 279 277 126 92 64
304 900 190 67 60 57
294 619 181 72 33 36
342 60 253 117 94 71
349 700 181 37 34 39
349 50 245 133 23 49
318 300 281 95 79 62
235 760 320 177 121 95
377 472 163 90 27 36
310 904 307 93 72 58
346 51 252 127 26 50
345 55 250 105 37 43
386 429 214 70 48 40
252 750 238 117 31 43
346 58 247 104 28 38
347 64 244 107 53 52
399 760 219 158 113 80
347 61 248 120 28 47
349 300 271 120 92 61
347 63 248 125 25 52
240 564 161 141 37 52
352 21 246 105 31 43
367 712 186 66 32 38
270 455 164 110 21 28
294 865 311 152 122 89
352 17 255 108 45 47
353 769 125 49 42 36
352 26 241 93 59 52
299 850 290 116 94 72
354 30 250 117 46 48
413 429 206 61 22 23
427 468 196 79 27 35
309 690 314 45 29 31
353 30 255 129 79 70
283 592 168 183 10 45
352 65 205 121 39 43
352 62 207 116 36 40
284 365 256 83 71 59
352 52 222 71 44 35
352 55 225 123 31 42
412 776 186 144 103 71
332 101 198 139 22 43
352 60 216 115 44 47
398 500 171 157 15 38
352 65 210 111 54 50
411 763 188 153 106 73
352 65 220 108 30 35
267 227 258 131 99 62
352 65 224 131 22 45
339 320 277 111 78 55
254 660 270 157 1 44
352 35 236 105 26 33
352 32 237 107 39 35
323 445 320 161 6 52
369 466 275 122 62 60
290 806 306 58 47 42
352 180 212 124 98 67
306 493 148 49 35 36
298 300 273 85 69 51
353 40 235 98 36 33
302 334 269 77 63 45
352 41 231 75 46 33
353 40 245 122 39 51
284 17 302 161 117 96
352 50 230 125 35 46
353 50 235 125 21 43
289 400 225 75 66 57
352 55 235 119 37 47
352 53 238 129 14 44
352 63 231 112 17 36
352 64 234 111 26 43
260 929 216 91 79 75
353 20 265 104 45 48
327 75 189 133 15 36
354 866 180 80 67 61
326 75 192 132 11 39
404 620 210 141 107 70
369 655 250 91 27 39
328 80 190 142 18 44
380 840 170 90 72 65
326 79 192 134 10 39
318 290 295 114 91 64
330 79 187 140 23 40
277 131 266 106 84 58
334 79 187 132 25 36
267 920 213 68 61 61
336 505 146 99 16 29
324 855 146 90 70 61
334 85 189 147 28 48
331 89 192 147 18 45
334 90 191 155 27 49
264 195 256 131 100 63
251 619 299 35 29 34
269 640 215 100 30 42
342 72 187 129 22 29
234 605 240 186 0 49
348 390 268 126 87 65
324 200 215 115 93 67
331 423 154 92 72 58
349 860 170 83 69 63
344 70 190 126 31 31
253 601 189 96 36 43
339 75 186 134 29 37
284 836 285 50 40 36
290 395 225 73 65 57
338 79 187 133 28 37
314 294 326 110 89 66
331 94 196 136 15 39
374 825 149 85 67 58
289 525 311 128 11 41
313 286 323 102 83 60
364 849 176 77 65 60
282 59 266 106 76 57
344 75 189 138 24 36
342 89 192 156 21 47
379 880 265 103 81 69
327 199 247 91 75 58
323 70 195 127 14 38
361 485 168 71 31 31
346 902 248 61 55 53
334 720 176 82 32 35
264 755 220 67 30 40
351 130 224 113 91 68
321 70 200 124 16 39
368 495 279 111 66 60
322 70 198 126 17 38
327 105 209 115 24 37
307 875 304 143 113 85
279 10 300 133 39 55
321 73 200 131 9 41
367 735 182 69 29 44
344 495 126 56 35 39
402 839 245 100 77 61
323 310 219 104 86 65
310 345 225 112 91 70
324 80 200 136 7 39
243 795 255 75 64 60
303 875 309 156 126 98
304 340 331 136 103 70
322 75 200 133 8 39
299 972 254 76 72 74
352 125 239 114 92 69
372 794 244 81 63 57
322 76 204 133 5 41
219 550 185 129 15 42
362 315 240 130 100 68
323 80 205 133 7 41
388 805 152 87 65 52
321 78 206 134 6 43
323 80 210 118 40 47
247 516 317 52 24 26
302 413 178 94 80 67
322 77 215 127 104 93
408 820 175 115 83 66
269 426 165 91 72 48
329 355 205 94 83 73
225 559 176 115 24 40
309 910 310 48 42 40
323 80 215 111 51 52
322 77 218 107 84 72
289 675 201 67 36 40
274 485 158 103 15 26
322 80 218 123 28 43
250 866 280 130 105 78
326 84 200 139 8 42
321 374 288 109 77 55
316 350 212 99 85 72
316 610 297 45 28 29
277 305 278 104 81 56
327 86 200 137 9 44
268 811 234 85 65 56
329 90 200 131 9 41
332 92 193 144 20 47
322 85 218 103 49 46
314 560 150 73 32 39
344 135 214 120 96 67
324 90 215 97 49 42
316 792 292 80 60 54
294 835 220 58 51 52
329 96 252 115 84 66
326 94 211 114 28 39
327 96 209 113 20 35
345 910 270 66 59 60
279 90 265 112 85 62
329 335 300 110 81 56
353 475 138 109 7 35
304 846 284 111 90 68
340 755 285 92 68 59
322 90 218 114 34 41
322 95 219 118 47 49
347 66 192 117 50 38
348 75 195 139 26 46
235 569 171 106 24 38
373 670 245 143 11 43
320 335 269 62 50 39
351 81 204 141 26 50
264 945 230 76 69 71
351 68 220 118 10 37
349 215 258 119 96 69
299 934 215 97 92 94
248 880 269 132 105 76
259 170 252 135 102 65
404 425 161 106 22 37
364 415 185 102 83 69
264 170 251 132 101 63
337 93 192 134 52 39
325 820 136 76 61 54
339 95 194 147 54 56
315 891 145 110 88 69
281 65 260 113 37 44
226 569 190 52 32 34
260 495 144 82 33 37
419 417 176 71 34 42
264 735 337 176 120 92
340 92 193 151 28 46
312 829 180 44 40 39
280 624 192 113 24 38
297 400 242 67 58 49
406 496 216 184 11 58
344 90 195 152 19 45
319 485 151 47 36 39
301 399 253 84 71 57
334 325 279 89 62 42
244 540 310 92 24 37
348 90 200 146 23 47
275 486 332 162 20 52
245 710 325 157 112 86
340 859 153 82 68 54
285 546 313 127 11 41
346 92 198 143 20 47
299 220 280 116 94 70
256 745 231 132 16 41
331 792 156 56 49 47
396 535 211 62 27 36
322 97 247 111 31 44
235 524 142 121 22 42
348 95 205 141 31 50
332 273 262 91 73 53
360 760 90 87 70 55
338 417 167 92 48 39
351 91 214 133 33 49
363 230 245 123 98 69
349 95 210 129 35 47
271 289 277 119 90 63
284 255 317 120 96 69
350 95 215 124 58 57
264 179 252 135 103 66
293 408 205 95 82 68
324 70 256 110 28 44
378 705 270 137 10 43
255 624 298 121 20 42
357 166 243 119 95 69
267 848 307 173 129 114
395 419 170 37 27 21
320 350 326 158 106 84
323 360 280 100 72 53
334 70 256 113 56 56
294 349 264 85 71 57
322 804 165 48 44 43
334 155 249 104 83 60
415 430 169 153 11 39
312 389 323 152 109 84
222 572 276 98 25 38
339 130 211 130 98 60
329 70 256 121 91 71
314 710 181 120 14 31
235 920 280 166 127 104
334 80 254 110 44 47
326 356 316 145 99 78
264 390 255 97 84 71
349 265 211 121 91 57
339 380 272 115 77 56
319 205 240 97 79 60
323 85 251 111 83 66
245 599 191 205 12 51
329 85 254 114 21 43
418 470 219 94 27 39
281 184 258 124 95 57
313 290 245 107 86 64
280 832 301 62 40 38
321 94 248 105 16 39
350 70 230 109 84 66
393 450 240 146 9 45
423 810 190 132 92 70
349 110 220 108 80 58
300 380 249 64 54 45
348 75 240 125 30 49
374 420 154 60 34 39
371 484 274 88 52 45
256 860 300 137 44 69
341 80 252 116 81 63
352 100 225 119 29 42
391 461 240 130 17 43
323 12 261 129 58 57
408 865 270 91 75 63
345 80 245 106 37 44
313 325 271 81 62 44
347 80 243 118 13 43
320 806 165 51 46 43
346 433 168 73 42 34
364 412 157 127 17 21
349 85 240 102 63 52
384 825 245 45 38 32
350 95 240 114 29 43
340 85 251 119 97 73
341 896 215 87 74 71
340 90 252 113 39 45
313 809 288 39 32 37
344 251 208 132 98 56
343 90 249 113 51 51
345 85 246 97 48 43
347 86 244 103 17 38
353 700 288 80 27 38
348 90 244 107 31 41
314 290 324 107 86 63
344 330 275 129 85 65
334 180 251 96 78 59
346 90 246 110 20 39
339 400 185 99 85 71
331 100 200 130 18 40
344 420 310 162 15 51
346 664 277 93 11 29
332 97 198 137 15 39
329 100 205 120 14 37
403 645 224 160 114 81
329 105 205 125 19 40
269 150 285 110 90 69
331 110 201 143 22 43
266 351 286 111 90 68
397 810 168 125 87 66
334 111 199 145 42 48
227 591 275 157 19 50
260 685 295 71 36 39
252 962 295 67 60 56
242 587 183 199 12 52
346 684 287 74 30 36
363 355 235 120 97 71
203 520 225 48 28 31
321 104 221 127 24 44
321 104 225 122 30 41
346 438 153 81 27 30
348 385 268 128 89 66
328 110 210 132 54 55
225 585 245 108 34 44
326 109 215 126 56 53
325 109 220 122 83 61
304 375 250 65 55 46
236 599 289 83 23 33
290 864 312 155 124 92
325 110 225 118 84 61
429 460 195 155 26 49
309 380 265 72 57 42
294 390 330 148 106 80
237 942 278 68 60 59
334 113 202 160 55 57
368 640 254 69 30 36
334 113 205 141 87 69
321 320 217 101 85 67
326 115 225 112 85 57
359 260 215 124 95 59
276 330 281 101 82 63
328 120 219 109 85 56
354 455 160 69 31 34
296 700 192 123 12 31
326 121 222 109 85 58
319 505 149 134 3 30
245 715 325 159 113 88
289 495 148 90 24 31
289 600 171 47 35 39
269 215 304 114 92 70
326 125 221 109 86 59
330 114 211 125 84 62
330 115 215 113 82 55
330 120 215 115 88 57
332 117 213 117 84 54
270 250 262 136 101 64
330 940 291 61 53 49
264 695 335 154 109 85
258 475 141 84 31 35
274 504 328 141 18 47
332 120 213 123 89 56
314 305 275 92 76 61
284 440 340 56 28 32
334 125 211 136 98 60
332 123 213 128 92 55
339 105 197 118 79 73
334 205 209 118 95 67
290 529 142 64 36 40
344 105 200 137 27 41
288 345 326 126 97 68
339 195 256 104 84 62
353 440 264 74 23 35
392 451 220 90 21 33
356 163 242 119 96 70
339 111 199 143 85 81
259 616 200 140 29 51
334 450 130 61 36 37
324 65 258 112 48 52
378 464 258 57 25 30
344 111 205 135 56 57
348 105 205 138 27 46
281 685 207 103 25 32
349 105 210 130 33 46
351 105 225 118 85 64
348 109 215 106 75 56
346 112 218 108 81 54
270 417 181 87 73 58
232 780 290 172 121 88
358 500 166 83 18 31
363 758 105 53 43 34
338 113 202 157 69 70
339 115 210 124 89 59
304 890 165 107 93 88
289 369 254 85 73 60
341 112 209 120 86 59
298 796 199 82 65 56
341 120 213 115 91 62
260 639 293 94 16 36
344 125 215 116 94 67
280 629 196 134 27 44
346 120 218 108 87 63
242 730 270 100 20 40
323 340 272 68 51 38
274 174 292 110 92 72
350 115 225 114 92 69
346 124 218 113 92 68
298 266 318 116 93 66
300 409 248 78 66 54
348 125 220 111 90 68
311 269 306 117 94 67
264 220 258 131 101 64
322 427 148 105 25 39
252 732 296 73 38 39
321 103 238 128 92 75
255 705 295 82 36 39
325 905 195 77 69 67
344 470 119 105 22 35
298 380 256 84 70 56
324 913 193 79 74 74
419 740 135 85 66 50
285 735 201 81 31 39
323 105 235 129 91 72
389 436 205 59 19 26
329 351 206 95 84 74
428 430 218 91 22 35
241 760 256 61 34 39
319 893 187 89 83 83
323 105 240 120 88 69
323 305 329 113 88 62
323 106 230 128 87 68
323 100 245 118 83 67
322 102 241 119 89 70
273 430 341 49 27 29
325 105 245 116 88 68
314 280 310 111 89 65
365 250 225 125 98 67
326 103 248 117 91 69
324 880 290 78 64 53
234 530 305 99 18 39
268 820 329 195 135 107
356 762 161 49 44 42
236 902 282 136 115 95
329 105 249 121 96 71
