ply
format ascii 1.0
comment Created by Open3D
element vertex 2223
property double x
property double y
property double z
property uchar red
property uchar green
property uchar blue
end_header
197 668 181 112 92 73
335 198 219 123 98 66
399 589 266 100 23 40
327 943 327 59 54 52
267 783 161 153 102 64
218 737 176 190 124 97
389 469 378 162 10 56
333 213 222 127 99 67
258 783 240 63 53 49
274 976 282 62 57 54
331 358 235 80 69 59
333 218 221 127 99 65
302 942 207 91 84 86
272 263 301 122 98 71
356 773 181 53 46 43
333 223 222 127 99 65
335 218 219 130 101 65
302 405 212 103 88 71
355 711 369 96 72 51
284 171 263 109 87 61
358 709 368 97 70 50
338 198 217 122 97 66
420 473 309 130 21 49
342 208 215 128 99 64
292 364 232 96 83 69
327 48 262 129 97 74
347 198 215 118 95 67
399 421 204 95 79 62
302 844 216 165 111 85
407 668 356 97 77 55
397 784 214 79 59 46
347 207 214 124 98 66
447 423 295 146 8 45
352 203 214 119 95 68
340 782 164 62 49 42
439 875 311 76 58 46
261 473 180 89 32 35
338 213 217 130 101 65
307 653 206 116 14 27
381 542 345 174 6 56
406 671 373 128 101 70
342 218 215 131 101 63
398 463 346 84 17 32
362 409 191 92 77 62
490 846 308 93 75 60
199 733 201 114 73 54
366 853 182 57 52 56
358 514 378 35 27 29
337 218 217 131 101 64
338 223 217 132 102 65
345 213 214 129 99 63
352 213 213 124 97 63
247 548 191 151 2 37
502 902 256 108 84 72
348 218 213 128 98 60
296 359 237 90 77 63
347 223 267 117 94 69
346 219 214 129 99 61
240 573 201 159 7 40
401 543 311 63 26 34
346 223 214 130 99 61
407 470 149 77 31 39
349 223 213 129 98 59
286 357 309 142 100 81
372 478 396 73 22 32
267 249 299 119 95 68
292 421 116 88 82 63
326 198 231 115 92 65
248 702 182 78 62 48
387 523 321 116 2 34
326 198 236 110 89 64
181 815 203 138 97 74
328 203 226 121 97 70
326 203 231 115 92 66
374 226 248 119 95 68
230 733 193 153 109 92
409 706 333 114 80 60
320 877 200 37 35 36
327 208 231 115 92 66
239 786 173 190 130 98
326 203 241 111 91 69
326 208 236 110 89 66
347 618 215 121 21 39
261 799 228 72 58 54
357 208 214 120 95 66
446 431 271 88 11 32
330 195 224 123 98 70
510 875 241 110 90 73
327 198 246 102 82 60
350 546 364 33 24 26
176 744 200 181 125 99
327 203 246 101 81 60
391 409 280 70 62 52
327 458 137 153 0 33
327 208 246 100 81 59
299 899 196 47 44 44
334 288 228 104 87 68
322 743 387 193 132 109
329 194 249 106 84 61
467 883 263 98 82 67
331 198 252 106 85 62
282 708 311 39 29 31
307 748 186 87 24 29
295 806 384 181 131 115
336 198 257 109 86 62
241 793 176 188 131 99
300 32 276 124 80 70
162 838 220 130 92 77
312 463 127 110 19 35
304 364 283 117 80 63
331 208 252 106 85 62
333 203 255 107 85 61
360 852 140 92 74 64
416 778 236 58 48 44
326 213 236 111 89 64
261 342 249 101 86 70
336 363 230 83 72 63
255 688 277 129 7 41
327 223 231 116 92 65
374 589 323 70 21 30
326 218 241 109 89 66
372 799 192 70 55 51
276 238 294 117 93 66
328 218 250 100 80 59
192 718 201 101 79 59
365 643 304 86 20 35
353 639 313 174 8 55
514 894 245 103 83 68
282 173 271 113 90 64
330 217 253 107 86 64
382 538 346 180 4 57
399 558 292 98 17 38
330 223 253 105 84 62
336 333 288 120 87 64
336 238 220 132 102 65
242 743 157 172 112 76
327 578 331 43 25 28
334 247 223 129 100 65
409 563 256 155 12 46
283 193 277 116 92 66
337 248 221 132 102 66
262 468 180 115 24 34
377 801 190 72 58 55
249 918 261 118 99 83
329 580 309 97 9 31
334 252 223 129 100 65
367 283 225 120 93 60
372 753 323 76 56 37
346 227 214 132 101 62
347 228 213 132 100 61
388 453 372 62 17 30
341 689 324 92 18 33
352 228 213 129 98 59
347 238 214 132 100 62
440 683 360 165 111 82
170 850 209 190 143 139
352 236 213 131 100 61
366 398 212 92 78 63
277 233 292 118 95 67
349 864 143 141 130 128
337 963 276 66 61 60
352 238 214 131 99 60
317 768 317 84 67 62
271 10 262 86 72 63
364 544 348 63 16 36
167 812 220 197 138 132
322 689 156 78 57 43
302 412 161 100 83 66
337 363 290 129 94 71
390 395 264 90 74 59
307 494 283 89 17 34
342 253 217 131 101 65
332 927 316 38 35 35
347 248 216 132 101 62
352 253 216 132 100 61
328 228 231 118 93 64
367 208 221 116 94 67
329 228 228 122 96 66
297 402 216 104 89 74
297 453 120 117 24 39
356 338 285 120 91 61
337 273 267 98 78 56
313 479 288 75 22 31
392 813 181 77 62 58
425 502 191 153 18 45
331 233 226 123 96 65
287 9 286 115 67 57
268 334 248 96 82 68
193 763 211 182 116 94
352 415 151 91 76 59
272 183 282 114 91 66
328 238 231 118 93 63
427 717 248 85 63 48
328 238 241 109 87 61
423 910 293 68 59 56
326 228 246 113 92 70
363 508 392 166 7 53
357 268 219 132 99 61
328 228 251 101 81 60
327 238 246 109 89 66
355 213 213 123 96 62
318 699 334 108 5 34
369 834 185 60 55 54
384 620 260 137 35 53
334 559 371 57 22 27
385 380 269 119 94 65
325 302 240 86 73 60
329 234 254 103 83 62
263 719 198 76 42 35
290 834 221 167 132 107
329 238 254 100 80 59
387 533 175 48 34 38
262 658 217 81 32 32
287 623 316 42 28 31
289 203 272 116 92 66
331 238 256 105 84 63
287 633 202 143 7 32
336 601 198 59 34 39
332 688 327 108 7 34
266 959 235 78 73 73
327 263 251 100 84 66
394 756 258 42 35 29
360 505 308 109 12 36
280 749 292 81 65 59
331 243 226 126 98 65
329 243 231 120 94 63
370 921 282 75 69 70
329 248 232 120 94 64
330 244 229 123 96 65
378 687 221 72 50 40
289 956 314 52 48 47
330 248 230 122 96 65
328 243 241 109 86 60
234 736 158 185 118 88
286 238 285 121 97 70
421 440 289 139 14 44
297 332 251 84 70 54
256 703 210 65 32 39
262 222 293 115 93 70
190 745 219 130 93 77
428 698 246 88 66 52
328 248 241 109 86 59
407 447 301 112 27 39
377 428 300 67 50 34
311 406 206 100 85 69
382 713 237 51 42 36
407 732 354 199 135 109
333 253 226 126 98 65
295 46 271 127 91 75
329 251 233 119 93 64
414 494 312 162 3 47
199 730 184 200 126 101
222 678 185 117 88 69
328 253 241 106 84 59
182 778 236 157 123 104
372 423 301 73 58 40
327 243 246 108 88 67
268 683 290 117 13 41
346 928 222 70 62 64
240 727 244 157 0 47
327 248 251 108 89 68
417 903 301 57 48 43
357 203 215 119 95 66
416 507 300 119 22 43
362 208 217 120 96 67
378 233 241 120 96 69
372 748 196 67 51 44
345 468 148 78 27 33
357 223 213 129 99 61
437 864 298 78 61 51
414 824 273 53 42 34
411 852 246 58 50 51
362 218 216 125 98 64
284 469 162 129 6 30
362 223 214 128 99 63
365 219 218 123 97 65
239 576 254 147 9 48
366 223 217 124 98 64
424 431 159 105 19 26
370 208 223 113 92 68
370 218 223 113 91 65
427 655 351 116 90 56
282 368 308 144 101 84
368 198 246 115 93 69
384 579 313 47 25 27
369 454 403 140 7 44
366 373 223 86 76 66
365 199 254 117 94 68
280 820 238 60 39 47
369 198 225 114 93 68
367 733 322 91 26 36
369 202 224 113 92 68
447 908 276 88 77 68
394 478 326 66 22 30
371 208 226 115 93 68
407 548 287 91 26 38
376 893 246 62 58 58
371 203 241 117 95 69
270 502 164 119 9 27
373 208 236 117 95 70
331 830 283 179 142 115
332 778 167 69 52 42
281 308 253 83 71 58
415 511 294 109 22 40
284 183 272 115 92 66
273 207 288 116 93 66
372 208 241 118 95 70
282 9 271 84 68 57
272 303 318 113 88 64
332 893 192 66 60 60
267 268 303 115 91 66
369 197 242 115 93 70
450 426 253 110 9 26
251 533 181 127 14 38
272 282 308 102 82 61
370 204 245 114 92 66
291 411 174 101 84 68
370 209 250 116 93 67
307 763 357 141 97 86
372 213 226 115 93 68
303 401 220 99 84 69
373 213 241 117 95 69
375 215 233 119 96 71
231 753 192 179 121 97
375 218 232 119 96 71
375 224 228 117 93 65
335 282 229 109 89 66
375 218 236 119 96 71
300 32 271 126 31 50
376 763 196 75 58 47
337 703 332 59 22 29
374 217 242 116 93 68
376 223 236 117 94 69
406 448 351 83 4 27
376 223 241 117 94 69
322 479 288 54 21 29
278 198 282 115 92 65
339 552 379 49 28 28
370 213 250 115 92 66
251 789 164 178 120 82
346 912 212 64 58 59
323 489 144 75 27 38
371 218 251 115 92 66
369 216 253 117 94 69
294 17 264 115 27 20
432 433 226 47 29 33
368 218 256 119 96 70
410 458 360 74 27 36
350 174 259 116 94 70
421 508 186 123 22 43
372 223 251 116 92 65
368 223 257 119 95 68
370 223 255 117 94 67
250 644 246 143 9 45
357 228 213 128 98 60
221 743 181 189 123 97
355 233 213 130 99 61
361 359 289 117 92 62
358 229 214 127 97 60
172 783 236 170 124 114
358 233 214 129 98 59
377 773 201 72 55 49
417 419 206 67 33 33
355 236 213 130 100 61
357 238 214 131 99 59
367 515 164 90 25 37
362 228 215 128 98 60
366 228 217 126 98 63
257 748 158 144 98 60
327 738 387 197 137 113
366 233 217 126 96 60
398 858 272 57 50 46
399 499 340 164 9 51
366 238 217 127 97 60
336 208 257 107 84 60
286 733 307 62 26 34
259 603 269 108 19 40
327 574 341 39 25 30
347 14 266 100 48 46
369 238 220 125 96 61
376 514 309 40 29 30
248 703 280 117 9 36
369 303 229 100 82 63
402 426 161 115 48 39
341 581 316 33 27 27
357 253 216 131 98 59
239 710 269 78 39 43
368 858 185 55 50 51
327 298 271 73 61 49
322 388 256 88 63 48
421 758 261 70 53 41
262 783 161 158 105 66
362 243 215 131 98 57
342 193 261 113 91 67
244 723 228 43 32 35
236 593 236 91 22 34
362 248 216 132 99 59
304 318 271 83 67 50
366 248 217 131 98 58
377 413 191 94 79 63
366 253 218 133 98 58
316 723 181 61 48 43
265 417 189 64 39 41
332 598 342 133 24 48
368 253 219 132 98 58
340 906 203 67 60 61
426 443 231 40 30 32
357 303 226 84 74 64
283 788 271 79 63 57
378 263 251 125 96 61
369 228 219 122 95 63
390 677 354 100 69 44
326 328 235 77 68 58
371 228 222 118 93 63
399 590 256 163 27 54
441 872 315 77 59 45
372 238 222 123 96 62
346 483 148 56 38 39
331 468 143 137 9 35
425 498 219 165 6 46
286 263 252 102 78 50
369 243 219 128 97 58
307 498 136 128 10 34
483 908 267 136 119 109
402 683 378 150 108 74
398 463 372 165 8 53
372 243 222 126 97 61
373 228 225 116 92 63
275 800 248 76 60 55
420 423 351 73 24 32
316 414 275 77 55 41
314 428 125 48 37 45
408 431 154 125 20 23
296 653 312 29 27 30
386 573 315 80 22 34
440 487 269 170 8 51
375 228 228 117 93 64
297 18 311 163 114 105
246 693 246 45 29 33
373 233 225 119 94 63
352 458 150 149 1 32
367 323 231 98 80 61
376 233 227 119 94 64
364 336 229 92 79 65
383 712 296 95 15 34
392 783 338 189 136 108
376 238 226 121 96 65
357 393 299 117 91 64
377 233 231 119 94 66
392 483 336 38 26 31
377 228 236 117 94 68
267 123 272 112 91 67
276 443 175 119 5 30
293 323 302 113 85 56
425 488 253 81 20 35
378 233 236 118 95 67
439 764 265 70 52 42
378 238 241 122 97 68
372 803 181 75 60 55
272 788 261 78 61 55
384 603 297 100 23 39
371 228 255 120 95 67
395 414 280 79 62 51
371 233 256 119 95 66
329 283 237 99 82 63
422 488 241 57 27 32
324 443 134 128 0 30
375 230 249 119 95 67
374 233 252 118 94 65
376 238 251 120 95 66
274 156 273 115 92 68
250 546 258 110 11 35
374 243 224 123 97 64
357 458 151 160 0 33
358 808 315 160 123 102
376 243 226 124 97 65
368 895 310 36 32 30
374 248 224 124 97 64
172 778 217 174 120 98
397 683 379 142 106 72
462 428 261 114 18 42
374 253 224 126 97 60
376 253 226 128 99 63
379 243 236 123 97 66
364 702 199 69 52 43
379 243 241 122 97 67
379 248 236 121 95 63
379 248 241 120 94 64
321 358 246 68 58 49
289 302 303 120 89 62
378 253 231 126 97 61
452 853 321 69 54 41
442 853 321 71 57 47
379 253 236 122 95 61
258 14 286 89 44 41
379 253 240 119 93 61
272 373 227 95 84 73
262 338 250 100 85 70
373 243 256 119 93 62
488 839 305 84 67 50
377 243 251 120 94 64
375 242 254 119 93 62
292 268 256 103 80 54
327 417 146 89 65 50
406 688 340 136 80 50
373 248 256 119 93 63
377 248 251 120 94 63
377 534 174 138 26 48
266 274 249 136 98 64
388 518 321 108 8 36
373 253 256 120 93 61
367 368 226 87 77 67
202 669 185 104 86 68
377 838 276 31 27 26
378 243 246 122 97 67
252 718 190 75 61 47
380 253 245 121 94 62
362 404 202 92 77 62
368 551 308 96 3 32
258 14 271 89 45 43
278 269 249 114 86 55
346 962 251 65 61 61
291 502 290 85 6 27
287 533 152 136 21 41
275 706 303 37 25 30
305 358 246 75 64 52
157 813 207 137 97 78
262 12 271 88 52 48
303 813 185 65 54 50
362 438 405 72 21 30
330 685 196 71 45 42
279 400 203 104 89 74
268 10 262 87 73 63
267 15 258 92 78 65
272 13 261 89 76 65
317 589 185 190 8 42
272 10 266 83 70 61
299 17 269 107 30 25
257 13 276 88 39 39
362 465 154 161 0 33
407 419 261 72 59 50
332 438 141 130 6 29
257 13 281 86 41 39
392 907 276 84 67 59
381 348 261 119 94 65
262 11 276 89 44 43
324 414 275 99 69 57
287 582 177 74 32 36
261 11 281 89 42 41
401 751 258 58 46 37
321 348 246 71 60 49
281 375 223 100 87 74
376 398 291 80 67 52
263 10 277 89 44 44
294 605 317 43 25 25
350 916 222 73 68 69
265 11 274 88 51 48
238 708 256 137 2 42
320 886 177 79 69 67
226 663 171 85 70 55
267 10 281 90 47 45
295 270 258 107 82 54
341 279 224 125 97 66
404 479 336 157 3 47
272 9 276 86 58 52
293 283 260 98 78 55
272 9 281 90 54 48
399 489 357 178 0 56
264 10 284 91 46 43
249 638 250 140 8 41
292 58 261 111 54 53
266 11 287 92 50 45
289 286 298 118 93 64
164 783 234 164 117 106
432 453 251 70 33 34
258 19 262 100 51 48
263 88 270 104 72 58
298 423 294 67 51 34
378 894 250 60 54 54
258 24 257 81 59 45
261 18 261 94 69 60
336 537 163 111 30 42
362 323 228 90 76 60
263 19 257 94 78 66
260 21 259 94 69 58
246 523 256 53 26 29
268 318 253 106 86 63
428 733 347 193 125 101
402 452 311 91 37 39
342 398 295 120 87 66
315 792 179 49 43 41
278 423 176 129 13 36
273 16 259 95 81 67
223 728 189 160 112 94
257 18 286 94 48 47
356 523 375 66 9 31
239 597 212 147 2 39
328 358 284 118 79 64
258 28 280 120 35 49
301 378 290 112 79 60
354 899 214 61 58 59
338 253 265 112 89 64
258 32 276 119 69 66
460 424 280 100 23 40
384 371 249 111 90 66
427 854 306 90 71 55
442 463 276 161 9 49
327 278 256 87 74 62
257 802 168 184 124 92
487 913 271 88 78 70
352 417 146 82 70 58
259 31 279 130 21 48
261 29 282 115 77 66
311 448 122 76 34 38
365 318 228 96 80 62
322 403 256 77 58 50
258 811 173 199 135 104
394 895 264 91 80 75
297 621 198 162 0 32
391 508 356 184 3 59
327 749 333 49 30 33
260 24 287 131 22 50
335 643 218 112 12 29
267 258 301 118 94 66
310 526 148 164 1 36
282 973 296 58 54 53
262 27 286 132 35 56
282 10 301 118 49 49
292 428 111 161 3 34
266 34 282 118 37 48
364 717 323 91 8 26
327 877 166 89 77 73
337 488 296 136 0 42
360 850 142 98 78 67
267 29 287 116 39 49
267 32 285 134 24 52
271 30 288 104 62 52
272 33 286 105 53 50
297 10 296 137 79 87
282 678 207 61 30 33
411 438 370 136 14 46
274 784 164 145 96 60
212 713 160 191 120 89
277 14 262 85 73 61
282 58 280 125 18 47
394 792 214 67 51 44
257 794 165 175 116 79
373 323 267 126 99 67
274 11 264 84 72 63
277 9 266 80 68 59
267 408 297 138 99 78
352 454 149 158 0 33
173 828 203 131 97 76
277 12 264 80 69 58
299 916 181 82 72 69
343 508 300 75 24 35
277 9 271 81 67 58
282 14 262 78 69 61
429 730 348 195 126 102
283 11 265 79 68 60
356 763 329 144 107 86
287 12 266 88 71 58
309 885 201 38 34 37
412 902 326 65 53 44
304 411 207 103 87 71
302 803 376 165 114 100
287 10 271 92 68 53
272 573 177 111 28 43
277 9 276 86 65 55
412 673 346 118 78 41
239 762 200 156 110 87
282 9 276 90 67 54
399 455 344 79 12 23
282 9 281 99 66 50
287 9 281 109 68 52
282 9 286 105 64 49
334 330 228 79 70 61
399 454 316 94 68 64
332 587 187 153 9 40
287 18 260 85 54 38
357 378 221 90 78 67
311 881 197 35 32 33
285 20 258 70 47 24
292 438 115 119 15 35
285 21 258 68 35 25
187 693 195 120 98 77
305 21 285 113 51 51
409 850 253 71 62 58
286 29 257 76 37 26
262 733 196 79 57 46
259 14 290 78 37 25
306 758 361 141 102 90
443 420 287 127 17 40
377 373 232 91 79 67
262 123 271 111 91 70
263 14 295 113 78 71
267 11 291 95 56 48
348 730 378 197 133 110
389 829 283 73 47 37
245 529 189 151 6 36
272 10 291 97 60 50
285 470 135 52 23 31
317 818 286 193 137 117
399 820 200 63 53 51
258 128 270 110 91 72
404 500 298 70 47 49
307 12 287 85 50 46
334 382 228 92 78 63
369 273 263 126 96 61
270 11 293 98 61 51
436 768 266 72 55 44
317 648 319 88 27 38
387 443 141 164 2 34
396 814 192 61 53 50
268 14 300 101 62 53
284 902 223 154 105 81
300 596 326 68 14 27
272 12 301 108 67 55
364 263 268 123 95 61
386 598 296 48 27 31
259 18 290 100 37 41
258 803 221 169 128 103
286 853 256 130 101 78
262 23 291 130 20 48
287 753 296 87 69 62
314 785 378 189 122 104
292 463 123 141 7 37
249 642 246 150 3 44
264 26 289 120 52 51
392 863 276 40 36 34
267 23 296 131 19 49
395 462 337 115 8 38
266 18 298 109 18 38
268 18 300 113 59 55
267 468 176 107 17 29
318 863 185 41 36 36
272 18 302 138 105 92
428 879 283 70 54 44
268 21 299 112 49 45
427 483 216 46 29 33
260 58 267 100 44 44
271 24 298 118 41 48
347 848 271 136 99 74
267 27 291 122 73 66
302 458 304 77 22 33
304 480 293 74 12 24
339 248 264 112 89 65
414 445 363 136 27 50
269 26 294 144 10 54
352 393 298 119 91 65
272 26 295 146 14 54
274 413 183 69 45 32
372 592 212 189 13 46
277 10 296 108 60 51
276 11 302 112 58 51
282 9 291 109 60 50
352 268 218 133 100 61
311 686 200 53 35 35
303 406 210 103 87 70
435 685 244 78 60 47
336 522 158 178 4 37
282 9 296 113 56 50
287 9 291 117 61 57
301 27 286 133 68 66
378 393 231 98 84 69
422 412 311 131 11 41
287 9 296 119 51 52
337 563 305 52 24 31
318 499 144 164 1 34
287 9 301 122 40 49
262 58 271 99 47 43
277 13 306 126 73 62
337 43 260 113 29 44
390 442 374 101 0 24
272 773 162 140 96 59
279 10 304 118 51 49
277 23 300 142 105 82
277 28 291 132 40 55
389 675 357 96 72 44
277 27 296 138 31 55
316 453 127 74 33 36
277 33 287 130 26 51
414 790 328 192 129 97
427 428 266 91 24 33
177 838 203 157 108 98
265 528 169 153 0 35
290 778 394 149 102 95
276 31 289 146 17 54
356 798 318 160 121 99
438 673 345 145 111 79
276 25 298 121 79 62
400 853 270 63 54 51
413 493 316 155 1 46
360 897 227 62 59 62
282 20 303 140 95 74
302 713 195 94 18 27
249 932 280 192 147 127
408 479 294 99 45 53
282 523 275 58 19 26
437 427 176 84 35 41
282 23 301 137 97 77
287 23 301 142 99 78
437 693 336 151 109 79
282 26 296 136 37 54
282 33 287 124 37 51
386 805 181 83 65 57
314 698 192 58 39 35
376 683 251 64 55 52
282 30 288 111 66 53
287 28 291 138 87 76
342 318 226 85 76 67
372 523 167 127 28 43
298 333 296 117 85 59
287 26 296 137 34 54
287 33 287 131 32 53
222 683 186 122 90 72
258 364 242 107 89 70
274 16 304 149 117 97
272 288 311 104 85 64
292 258 256 103 80 53
301 898 186 61 56 55
320 805 298 57 46 55
278 218 287 118 94 67
405 576 241 189 12 52
277 17 305 168 124 120
282 18 306 155 113 95
432 678 331 108 86 61
377 902 261 61 56 56
287 18 306 162 116 107
288 16 309 141 84 82
374 895 244 61 57 57
258 43 270 122 22 45
321 798 175 51 44 43
403 504 299 71 47 49
257 48 266 121 44 55
259 48 269 126 13 45
261 43 272 112 56 54
287 318 253 82 71 59
391 533 336 176 2 56
261 48 272 112 31 46
275 603 288 141 0 42
441 434 161 127 32 40
409 540 200 194 18 48
259 37 274 120 28 46
261 34 277 121 22 44
268 458 178 120 10 30
277 263 246 117 88 56
294 263 281 117 92 62
260 40 273 123 27 46
263 43 275 121 95 77
277 388 303 141 100 81
264 48 274 116 64 62
443 478 266 127 16 41
367 408 301 87 71 54
236 753 166 180 121 85
267 38 281 127 20 48
307 678 205 43 36 38
272 39 283 122 16 44
186 713 176 170 115 83
317 878 196 38 35 35
295 820 263 182 131 109
273 37 284 130 16 47
266 43 277 121 98 77
249 936 267 182 138 119
370 637 300 155 10 49
265 40 278 115 45 47
250 700 179 75 61 48
268 42 280 111 85 68
272 48 281 115 19 42
248 898 276 161 113 98
272 43 282 106 26 40
258 53 266 116 46 55
371 503 386 150 9 47
380 731 198 74 57 48
259 58 265 107 62 59
262 63 271 112 34 44
367 468 155 163 0 32
425 508 279 160 3 49
437 428 300 109 11 37
289 708 319 41 30 33
267 53 276 112 56 55
172 748 221 144 118 98
432 700 254 88 68 51
433 469 197 166 6 48
294 48 261 116 29 45
231 700 189 117 88 73
368 466 153 163 0 32
265 55 273 110 89 70
272 53 280 110 39 48
342 943 321 62 50 47
373 633 296 80 27 38
402 737 315 84 63 45
367 393 216 92 79 66
270 54 278 111 74 61
265 56 273 112 88 70
363 683 230 72 57 49
421 758 265 54 42 34
301 394 227 100 84 68
377 583 206 189 13 46
371 563 341 83 28 37
267 58 275 117 93 71
271 58 278 118 93 70
273 58 279 110 83 65
372 473 311 88 13 29
311 492 138 145 10 38
373 543 336 32 28 31
416 543 231 53 34 38
272 63 277 110 77 62
343 854 267 128 93 71
282 409 186 102 87 71
276 40 283 105 51 43
288 473 127 84 34 37
267 407 206 103 89 76
282 768 281 83 66 60
246 523 186 128 14 38
277 43 283 116 86 66
294 583 299 29 24 27
248 638 236 157 6 46
277 48 282 112 66 55
424 503 254 134 5 37
278 41 284 119 90 68
407 718 360 176 114 92
268 303 253 124 94 61
278 538 163 162 2 39
282 38 285 127 21 48
282 43 283 132 101 78
307 836 203 129 99 77
282 41 284 125 95 73
342 363 226 84 74 65
287 48 282 115 75 61
367 378 222 88 77 66
400 845 232 64 55 53
371 283 228 114 88 57
272 598 187 161 14 43
179 746 198 190 130 105
342 308 226 88 78 68
386 424 294 68 55 41
266 599 189 62 34 38
381 710 208 67 50 41
419 520 259 118 5 40
284 798 265 57 47 47
276 860 289 113 89 64
277 53 281 114 33 46
168 788 234 194 136 133
414 695 323 104 78 41
277 62 279 126 28 49
232 523 226 83 29 36
374 388 224 93 81 68
386 613 286 86 30 39
410 746 263 53 42 34
371 313 232 105 85 63
354 905 311 35 32 33
277 64 278 126 22 48
361 335 228 92 79 65
290 846 267 136 106 83
402 668 361 105 82 57
327 278 246 93 76 58
257 558 181 69 30 37
282 53 282 116 83 66
286 57 280 117 46 52
288 59 276 125 88 73
291 15 263 114 71 47
347 858 262 48 35 32
290 473 291 54 24 28
335 386 229 91 79 66
388 807 207 74 54 51
292 13 266 100 63 39
428 483 291 160 15 49
298 11 306 124 42 54
338 284 274 95 76 55
414 500 169 48 27 36
292 11 270 102 66 45
422 415 216 71 32 34
322 686 185 75 54 39
291 10 272 103 67 46
357 328 281 119 88 56
297 13 271 120 43 27
362 893 231 66 59 60
296 14 267 118 24 17
292 9 276 111 67 48
292 9 281 122 74 64
324 868 152 119 97 86
271 368 230 98 85 73
297 9 276 111 61 45
292 9 286 132 82 81
357 218 265 121 97 69
324 748 172 53 42 37
326 585 353 193 12 61
302 10 272 98 46 29
292 263 256 103 80 53
302 10 286 111 70 69
289 70 263 125 83 69
290 490 134 31 35 35
375 669 276 63 25 34
390 395 248 82 70 58
292 18 262 94 41 25
296 18 266 117 19 24
273 252 298 122 97 70
357 698 381 132 107 80
297 23 266 122 20 29
342 453 146 144 1 31
362 928 246 74 65 64
348 528 381 38 27 30
406 911 287 68 59 54
292 28 261 67 44 36
402 723 259 44 36 30
289 31 259 79 43 29
387 698 220 65 49 38
418 738 250 77 58 46
292 32 260 77 46 36
418 668 351 96 78 57
295 29 263 126 19 30
297 28 266 113 51 43
295 273 271 98 78 54
300 28 268 116 45 45
327 358 237 80 68 57
352 893 206 58 53 54
390 724 266 51 27 32
301 28 271 125 27 46
292 33 286 136 70 72
296 32 285 136 98 84
325 903 188 70 63 64
362 613 326 88 24 38
286 370 228 103 89 74
303 23 286 136 34 56
238 543 251 36 28 32
432 473 254 65 29 32
278 647 208 142 10 35
387 393 241 98 83 68
304 25 276 126 36 50
327 963 296 67 59 55
304 24 281 134 39 56
327 417 141 96 51 41
236 573 211 51 29 31
301 28 281 135 29 52
272 408 297 129 92 73
300 31 280 139 21 53
249 693 236 98 28 41
372 728 196 68 51 45
285 463 161 70 25 34
298 33 281 133 33 54
397 418 211 96 80 64
343 863 133 104 82 70
359 196 258 119 96 70
298 29 287 142 98 84
337 12 276 142 99 106
308 13 261 124 43 23
330 383 235 87 73 57
307 13 266 138 38 26
371 536 173 112 14 34
307 10 271 112 45 28
312 818 191 58 48 44
312 11 266 125 47 31
312 10 271 122 49 34
305 400 223 96 81 66
379 459 393 167 6 52
317 12 261 113 50 40
164 851 215 186 130 128
317 11 266 122 53 45
312 11 269 126 48 32
370 908 328 55 47 42
307 559 164 102 28 39
317 10 271 129 59 52
307 9 281 89 47 39
327 628 211 43 34 37
287 613 316 62 25 31
290 218 275 119 96 69
297 579 175 134 26 42
280 314 319 124 90 65
377 444 144 144 9 34
420 759 307 137 98 65
211 728 176 175 110 84
312 9 276 106 46 35
375 318 242 110 87 61
344 542 384 63 15 26
401 696 349 165 90 69
312 10 281 90 42 35
304 11 288 108 71 70
262 783 246 75 61 56
312 10 284 89 43 39
402 417 241 69 59 51
312 11 287 91 43 40
352 588 347 66 31 36
301 749 183 64 33 37
307 562 298 106 2 33
307 18 261 149 29 23
342 173 257 111 89 64
327 404 201 90 76 62
240 588 231 89 26 38
307 23 261 128 39 35
281 432 289 105 77 56
306 23 266 121 47 45
306 24 271 114 38 42
430 473 206 161 7 46
308 27 261 112 32 43
366 832 178 62 57 57
449 424 293 105 11 35
277 343 242 96 84 71
345 463 303 120 13 41
308 27 266 111 36 44
309 26 270 100 45 43
325 397 224 97 83 71
220 664 179 90 75 58
287 338 312 123 85 66
357 358 226 89 79 68
313 33 266 106 41 49
317 29 272 127 26 51
246 693 266 39 30 32
290 494 136 102 25 40
250 538 184 34 32 38
317 32 270 126 42 58
249 763 206 111 81 56
297 594 184 166 11 40
246 628 241 98 29 42
382 358 251 111 90 66
307 22 281 108 31 41
178 799 208 107 79 50
313 822 280 191 138 118
307 18 286 111 60 57
377 417 171 91 76 59
332 828 180 60 51 47
285 350 238 94 83 71
327 732 369 123 82 64
279 761 284 84 66 60
308 20 283 112 41 43
329 735 388 196 139 117
326 383 227 87 71 56
322 11 271 137 81 83
322 463 292 104 8 34
319 407 236 86 72 58
310 25 273 107 37 45
327 398 281 114 78 63
313 26 275 130 22 51
397 748 281 95 67 51
317 21 284 172 120 100
292 413 161 98 73 56
412 419 324 81 15 32
317 25 278 147 16 55
348 483 149 59 40 40
292 9 296 128 62 68
356 758 329 137 103 82
292 9 301 125 42 54
354 479 395 65 22 33
301 10 290 133 88 94
308 593 340 177 10 56
381 703 256 79 32 33
292 620 318 34 28 31
303 12 291 135 86 91
324 383 227 90 73 55
386 527 173 126 27 42
362 723 326 124 14 40
269 488 274 59 28 30
302 13 296 130 66 73
298 11 301 128 56 66
448 428 292 110 11 37
337 708 335 37 26 28
302 13 301 126 56 60
292 13 312 127 37 50
295 10 306 127 37 53
287 678 205 75 29 33
297 13 312 119 41 49
407 798 281 86 58 42
366 415 156 89 74 58
372 828 177 58 54 55
416 456 143 176 9 37
313 912 298 101 78 66
329 590 189 159 18 49
292 12 314 135 41 55
302 410 172 101 85 67
301 13 306 116 56 52
292 28 291 137 42 58
362 243 267 121 96 66
284 368 229 102 88 75
339 560 174 53 28 36
329 480 144 104 42 42
290 31 289 141 18 54
440 458 290 92 10 32
409 469 351 59 25 33
304 19 291 134 38 56
187 828 225 179 112 109
302 23 291 143 25 55
432 473 196 168 6 48
301 22 296 148 72 74
259 384 232 104 87 69
431 723 321 149 105 75
348 302 283 121 90 62
300 21 299 173 118 100
292 20 306 188 142 128
292 18 310 163 115 100
406 803 291 121 81 55
184 693 172 139 103 69
293 21 305 177 128 114
445 895 284 91 74 59
298 20 306 207 157 166
327 508 151 119 18 37
347 603 205 163 19 45
348 873 201 60 56 56
301 17 306 167 114 102
403 432 146 128 30 25
267 688 208 58 28 35
268 247 298 120 95 68
256 683 277 83 17 34
300 17 310 145 105 82
415 787 330 193 132 98
357 453 308 97 13 34
319 816 289 197 142 123
177 813 221 175 121 115
305 14 290 126 78 76
460 436 261 67 32 33
388 823 172 84 69 56
312 13 291 111 64 53
416 508 296 115 23 42
265 313 318 124 90 66
276 153 271 114 91 64
239 736 260 195 4 59
336 753 172 66 51 45
317 11 291 117 50 52
313 14 295 129 84 69
265 294 254 134 98 65
312 18 291 181 126 125
264 395 223 95 84 73
424 450 233 54 29 28
313 17 294 151 106 91
436 713 331 144 102 71
303 459 303 70 21 28
384 449 392 170 1 54
317 19 291 204 148 156
202 710 159 208 133 105
287 548 161 129 18 39
291 34 258 84 57 41
325 288 251 84 72 60
417 428 360 77 16 32
245 623 226 81 29 36
302 658 315 98 19 37
345 458 148 140 1 28
418 738 300 68 48 36
374 620 303 162 9 50
294 38 259 123 21 33
344 925 324 42 38 37
340 946 310 68 57 52
294 43 260 112 43 44
243 793 201 158 119 91
295 47 263 117 12 34
357 783 186 51 44 42
407 838 256 64 52 46
353 843 175 60 52 50
302 916 177 80 67 62
295 47 266 108 65 58
255 810 174 200 136 103
352 323 227 88 76 65
290 755 297 86 69 61
294 49 266 115 68 61
259 449 188 107 17 27
422 658 346 118 82 23
294 48 271 124 89 75
412 724 303 74 52 40
451 850 303 83 64 44
299 35 271 122 36 52
342 288 225 102 83 63
287 418 136 117 58 43
218 707 152 202 132 103
248 678 246 117 18 41
378 698 211 63 52 47
180 713 184 156 111 78
298 38 271 126 17 46
292 38 282 129 26 50
370 551 334 38 29 29
306 343 256 79 64 49
371 444 309 85 14 32
291 37 284 125 54 58
294 35 283 127 102 83
292 43 281 120 22 44
377 823 177 64 58 57
294 45 277 126 79 68
379 707 298 95 7 35
244 718 227 57 32 37
452 849 306 68 48 38
299 34 276 124 84 71
293 53 261 121 18 44
407 478 291 101 45 53
378 473 373 59 16 28
293 53 271 121 14 43
282 410 181 100 84 68
422 518 211 160 13 45
371 703 364 98 67 50
328 411 174 88 75 61
254 678 222 80 43 43
291 63 261 124 16 45
282 368 227 101 87 74
292 63 266 119 44 52
450 462 257 130 24 43
365 674 309 36 28 29
290 63 270 118 90 72
332 34 267 120 38 49
292 58 266 107 39 48
327 612 202 93 33 39
308 428 120 125 11 32
290 52 279 121 6 42
277 383 222 97 86 74
289 55 278 119 48 50
461 425 261 127 15 49
258 523 173 147 2 36
312 38 261 93 6 33
314 37 264 104 2 34
317 38 265 109 9 38
321 318 251 77 66 55
439 460 181 75 31 39
316 44 263 105 17 39
317 48 261 104 23 38
287 410 176 98 81 66
188 833 206 165 109 100
421 430 274 96 33 40
318 42 264 108 45 48
414 715 264 44 34 27
340 388 293 127 92 70
314 51 259 103 1 34
398 758 276 100 51 47
346 728 334 163 14 53
317 53 260 111 15 42
315 54 258 125 79 68
282 323 250 84 73 61
376 258 227 129 99 61
377 753 323 74 53 37
257 68 261 97 36 39
259 68 265 104 84 67
337 263 222 129 100 66
360 542 375 183 4 58
262 538 172 73 33 40
282 563 286 32 27 28
293 359 303 128 91 72
342 508 153 106 26 35
260 68 267 111 93 74
424 458 241 40 30 30
362 283 223 125 96 62
298 804 382 174 122 107
259 73 265 102 49 49
263 68 270 108 33 44
301 788 292 84 66 60
350 547 308 120 0 39
263 73 270 112 30 45
314 865 173 54 47 46
332 415 157 92 74 58
253 918 286 161 121 100
308 383 236 83 66 44
383 708 291 102 13 35
259 78 264 113 12 39
398 550 194 54 31 36
307 583 306 116 0 36
392 518 346 185 2 60
295 502 284 79 8 27
259 951 290 182 134 113
241 523 247 44 27 29
264 78 270 105 48 50
435 436 284 124 22 46
266 73 272 118 12 43
422 463 241 54 27 31
267 78 272 105 40 47
412 882 321 76 59 46
268 68 275 110 52 52
337 653 317 98 18 37
416 663 356 98 77 53
272 68 276 116 25 45
322 488 286 47 26 28
272 263 246 126 92 59
289 263 254 103 79 52
242 588 201 133 17 41
272 73 275 111 74 60
272 78 274 109 59 51
289 197 266 110 87 59
352 238 270 122 98 71
258 88 265 97 31 37
261 83 267 89 57 46
264 83 269 109 91 71
258 93 265 107 34 44
322 412 166 84 70 55
260 93 268 109 15 41
302 473 126 100 29 41
321 689 152 84 60 43
262 93 270 108 24 41
272 83 274 112 26 42
302 638 204 120 9 28
362 798 320 179 136 110
432 468 253 46 34 34
344 245 269 118 93 67
434 662 345 120 99 77
402 724 327 120 83 68
270 84 273 96 51 43
333 969 240 86 80 81
280 814 247 112 85 74
270 88 273 100 44 44
386 483 380 109 18 42
387 678 361 99 74 45
412 893 336 81 61 46
428 493 186 145 18 44
272 88 274 115 23 42
405 478 346 177 8 53
251 908 256 188 135 115
279 678 299 152 7 48
340 759 173 59 48 44
273 91 274 115 29 44
262 398 221 97 86 74
422 458 147 173 11 38
288 73 266 124 33 49
435 683 369 160 111 78
398 453 326 114 108 106
340 521 158 176 2 35
283 73 272 112 50 51
320 407 236 90 77 64
268 638 295 84 26 38
322 679 324 115 3 36
285 78 269 122 14 43
385 476 384 131 16 42
356 391 215 93 79 65
277 68 277 118 57 57
277 73 275 124 97 71
322 697 167 64 48 35
364 929 284 74 65 68
438 473 276 157 9 46
357 863 201 52 47 48
300 329 294 114 81 60
277 78 274 118 95 70
286 438 165 136 0 38
367 923 256 66 59 59
402 731 319 117 79 71
282 68 275 123 27 48
285 66 274 120 79 67
277 93 272 119 49 54
298 502 133 155 3 33
358 786 324 187 137 111
415 788 301 130 89 61
283 198 277 117 93 67
420 474 289 95 45 51
406 513 320 139 12 46
286 88 261 109 25 41
285 437 146 143 0 41
454 445 267 116 30 38
435 457 299 171 5 54
427 657 346 117 87 43
281 88 270 119 82 66
285 88 265 110 83 60
285 93 261 121 17 43
396 414 271 73 64 54
284 95 263 128 5 45
309 575 304 109 0 34
353 343 287 120 90 61
297 558 162 174 15 45
417 893 292 81 65 53
283 93 266 122 33 49
281 93 270 122 24 47
315 405 212 94 80 66
212 722 184 130 86 64
277 83 274 112 58 52
306 763 400 168 125 105
211 724 182 122 74 56
337 958 286 63 59 58
396 738 216 71 54 44
279 83 273 120 23 45
405 435 289 92 42 40
382 813 329 190 138 111
366 303 227 97 80 63
278 88 273 122 20 45
275 91 274 123 34 51
261 98 268 108 79 64
233 523 216 85 23 36
352 463 151 144 1 32
425 483 226 105 25 40
297 757 179 51 44 42
342 928 326 41 37 36
188 690 194 118 97 76
263 98 270 110 86 67
261 103 268 115 95 76
287 967 232 78 76 79
268 448 182 116 13 31
362 538 356 32 27 30
417 444 296 139 14 41
286 453 283 39 24 27
263 103 270 116 95 74
258 113 266 112 93 75
260 108 268 113 94 75
371 343 232 97 83 68
512 894 223 105 87 72
350 22 270 123 18 42
421 513 226 151 11 42
263 108 270 114 93 72
251 748 209 98 73 53
260 113 268 113 94 75
442 758 270 70 53 40
267 98 272 115 94 72
362 407 196 92 77 62
202 658 175 110 90 70
346 493 302 135 2 41
267 103 272 114 93 71
407 760 343 198 134 103
245 701 273 118 16 37
387 447 303 93 9 32
267 113 272 114 92 68
262 728 291 176 0 56
272 103 272 120 95 70
427 483 254 57 29 33
272 108 272 120 95 69
262 118 270 113 92 71
259 124 269 109 91 72
267 118 272 114 92 68
355 838 141 100 85 73
323 298 256 83 71 60
417 758 266 49 39 32
272 118 271 123 97 70
267 128 273 114 92 67
332 333 285 116 81 61
270 331 249 94 81 67
277 98 271 128 99 74
262 698 207 85 28 34
398 568 291 166 2 53
287 957 221 88 83 86
276 103 270 128 98 71
279 100 268 133 100 76
378 693 363 96 66 47
268 383 227 95 83 72
412 833 261 64 53 48
279 103 267 128 96 73
173 756 208 184 125 103
322 48 262 128 94 74
308 363 266 95 67 52
279 109 262 123 89 67
308 590 327 49 21 23
410 437 355 101 0 32
279 113 261 122 90 66
313 468 130 144 11 38
282 488 280 38 26 29
411 768 237 55 44 41
276 108 270 126 96 70
362 433 142 64 38 41
403 768 216 65 50 43
351 907 212 60 55 56
282 428 290 104 77 55
276 113 270 127 96 70
254 597 198 144 20 42
264 324 253 107 88 66
344 635 318 186 6 60
278 108 266 124 94 68
316 421 287 59 45 32
268 583 182 128 14 39
192 748 196 200 123 103
278 113 266 125 95 69
283 99 261 130 61 63
281 103 261 133 95 75
285 97 260 130 10 43
373 853 264 38 34 33
274 518 284 71 24 32
283 933 201 75 66 66
348 282 223 124 95 62
362 478 400 113 17 38
292 418 291 85 64 44
280 97 269 123 76 64
378 283 246 123 94 59
280 107 260 129 92 70
357 653 310 44 28 30
289 69 267 125 19 46
280 111 259 124 87 67
432 429 166 100 21 39
487 833 297 96 77 56
339 193 259 112 90 64
256 769 252 80 65 60
352 248 271 123 97 68
242 593 247 80 28 37
267 378 305 149 106 85
330 841 279 176 134 109
280 106 264 124 95 72
335 695 334 104 7 33
275 118 269 124 95 67
387 884 280 48 42 38
379 387 277 111 88 63
277 118 266 122 93 66
295 304 263 90 75 59
278 123 261 114 86 60
278 128 261 112 85 59
354 944 244 82 74 72
276 123 266 119 91 64
303 303 276 92 76 59
346 571 183 125 37 49
277 128 266 118 91 63
356 675 201 76 50 39
275 805 243 75 60 56
290 68 261 115 68 59
290 71 260 123 92 74
361 562 183 104 22 32
367 416 151 88 73 58
277 133 266 116 90 63
290 67 266 127 17 45
232 728 155 178 114 82
292 969 307 67 61 58
290 66 269 107 77 56
243 743 261 72 31 41
322 12 261 110 60 52
376 463 395 84 16 35
322 11 266 123 68 66
321 10 272 138 78 81
358 188 257 115 93 68
327 12 266 126 83 83
417 432 151 110 12 27
332 13 261 105 71 63
356 818 160 93 71 57
272 378 226 95 84 73
357 503 308 61 18 29
332 12 266 120 79 80
332 11 271 140 98 103
337 12 271 127 83 87
362 263 219 133 99 61
262 817 177 207 141 108
262 378 232 100 86 71
256 743 158 143 96 58
322 10 276 140 83 89
324 11 274 145 91 97
367 921 329 68 57 51
371 448 385 50 17 28
326 10 277 152 101 109
304 368 282 113 76 59
322 10 286 130 63 71
315 866 183 38 35 36
290 458 288 84 17 32
436 473 286 180 11 53
332 11 281 160 110 120
392 428 386 98 21 39
252 757 158 150 103 65
329 11 282 156 102 113
323 758 366 153 98 78
283 756 174 87 68 47
328 11 286 151 77 92
332 12 286 157 89 102
369 421 144 86 66 48
322 29 272 124 75 64
364 273 268 124 94 62
367 323 272 123 95 62
327 29 272 136 97 77
332 32 270 135 25 53
336 31 269 126 63 61
372 415 176 92 77 61
397 824 311 159 102 77
383 358 261 116 91 62
322 19 286 163 114 96
406 463 336 84 19 34
327 18 287 166 121 110
373 553 316 56 25 30
328 268 241 102 82 60
327 24 282 137 98 77
387 718 276 87 20 37
245 712 230 89 33 43
457 878 283 97 78 62
414 712 245 92 64 48
430 439 143 199 18 43
375 449 309 79 12 26
357 348 286 114 90 60
327 21 284 143 100 75
240 764 165 167 112 76
363 303 272 124 92 60
262 403 216 102 89 75
322 27 276 135 59 63
320 25 278 142 28 56
323 26 279 130 46 57
332 21 284 142 99 78
297 393 291 90 68 47
183 823 220 146 95 89
337 23 282 125 91 70
332 26 280 129 57 58
308 883 292 145 105 81
432 433 211 149 4 44
337 28 276 147 12 54
302 893 211 52 49 50
381 872 222 61 55 53
375 546 329 35 28 30
337 26 280 131 42 56
269 355 238 97 85 73
342 14 261 99 57 49
326 384 240 86 69 50
380 496 364 81 0 28
342 491 148 45 36 36
342 13 266 103 55 53
436 452 157 184 16 46
344 208 264 115 93 69
342 12 271 112 65 66
350 15 258 105 45 48
280 260 299 118 94 68
350 15 260 100 47 46
383 842 270 30 27 26
347 14 271 103 52 53
305 819 273 187 134 116
423 749 342 194 127 100
381 444 304 86 10 28
288 358 307 138 98 79
342 12 276 124 77 82
351 654 314 83 29 39
342 13 281 136 87 95
379 401 288 71 60 50
340 14 284 154 88 104
285 467 160 126 11 39
346 15 280 111 58 61
417 420 255 69 40 39
324 364 232 75 64 52
337 33 266 119 68 60
338 30 268 123 84 68
291 318 306 112 81 54
342 30 267 124 48 53
373 283 230 109 84 54
349 16 263 87 55 42
362 415 156 90 75 59
242 758 236 165 113 94
367 438 143 53 37 38
352 513 157 98 24 36
370 601 324 157 10 51
349 16 266 94 43 40
322 409 181 90 77 64
334 717 338 89 25 35
237 738 157 181 116 82
285 480 145 56 27 32
409 837 252 65 54 49
350 19 266 102 46 48
182 727 212 126 103 83
177 728 211 134 109 87
331 679 324 117 8 37
415 458 324 72 20 33
349 18 272 99 39 43
316 764 358 136 85 72
335 926 317 37 34 34
284 490 278 36 26 29
376 542 350 133 13 48
350 18 270 109 19 40
350 23 266 121 26 45
236 568 241 120 9 37
347 33 261 120 55 58
362 378 221 87 76 66
373 589 210 189 13 47
348 29 262 130 90 78
369 268 263 126 96 60
314 519 149 165 1 35
346 27 271 133 48 58
372 428 140 103 38 41
345 31 264 128 29 50
268 812 225 63 52 49
332 548 165 133 27 44
372 413 186 93 78 62
306 368 276 106 72 55
347 703 326 107 9 34
342 18 282 129 93 84
427 413 241 106 16 33
340 16 284 186 141 152
284 683 304 55 31 34
303 914 181 89 76 71
342 23 280 124 55 58
197 723 202 92 64 48
342 27 276 143 15 54
191 773 213 178 113 90
327 683 326 115 3 36
362 844 271 33 29 28
305 405 213 100 85 69
259 928 243 107 88 73
341 26 279 139 21 56
348 18 276 109 75 60
153 808 216 160 120 106
340 397 293 123 88 66
362 788 162 81 63 51
171 743 216 150 120 97
375 323 242 108 87 63
317 412 166 89 75 60
346 18 280 110 27 44
287 833 211 62 54 56
322 12 291 129 44 57
288 553 162 98 31 41
322 12 296 137 30 56
436 463 196 161 4 48
380 745 198 65 49 41
327 13 291 144 42 66
258 452 284 93 37 44
333 273 265 88 72 53
348 473 304 66 25 32
323 383 236 88 70 52
332 13 291 150 45 69
331 12 295 149 37 64
309 705 334 119 0 36
321 17 291 169 115 100
312 418 136 95 59 37
327 603 337 159 18 53
326 16 289 178 125 128
327 34 268 125 14 46
302 415 147 97 81 64
414 553 276 45 29 33
327 38 266 126 17 47
352 753 181 62 50 44
307 358 256 80 64 51
428 483 206 158 7 42
372 773 327 108 77 53
286 468 151 86 26 35
322 44 263 132 98 78
306 363 246 75 64 53
392 538 326 54 26 31
395 473 338 89 21 37
327 44 263 132 101 78
396 582 290 169 6 53
429 774 255 79 60 49
304 313 286 119 88 63
274 631 304 78 26 34
352 743 330 115 19 41
336 37 264 129 12 46
297 934 201 87 78 78
412 778 276 62 48 38
268 358 309 153 105 88
332 43 262 114 68 58
412 438 340 112 10 37
347 174 259 113 92 68
317 573 304 102 1 32
302 406 196 104 89 73
429 438 221 118 20 43
267 663 290 99 17 39
296 713 327 146 7 46
397 493 160 70 32 38
336 48 259 116 18 41
322 53 260 118 45 51
322 57 259 116 14 43
257 878 256 153 121 92
393 473 331 78 21 33
304 485 288 90 7 27
301 788 371 146 91 81
322 59 258 113 50 53
346 918 216 72 66 68
327 59 258 120 21 44
332 582 321 41 25 26
332 53 259 117 16 43
247 748 207 94 69 50
288 783 280 82 65 59
333 54 258 112 62 52
331 57 259 109 36 43
343 34 263 116 50 53
410 732 315 90 64 48
232 682 178 75 58 41
342 38 261 125 13 45
362 739 192 62 48 44
426 707 257 79 60 45
352 863 178 74 67 67
339 45 258 125 104 82
357 403 301 105 83 59
283 448 146 106 9 36
338 48 258 120 46 55
413 553 236 70 31 37
328 792 309 78 63 60
407 428 321 104 0 29
346 435 144 156 1 30
341 42 259 123 84 70
346 37 260 123 15 43
287 578 295 50 28 31
234 588 242 69 30 35
377 433 141 121 23 37
349 34 258 124 18 45
331 278 235 106 86 64
244 748 222 138 105 78
294 336 303 117 85 58
369 382 293 117 92 64
344 40 258 121 23 42
258 133 270 109 90 71
374 444 403 179 8 56
378 338 246 108 89 67
262 133 273 110 90 69
259 144 274 110 91 71
271 774 267 85 66 58
377 809 157 87 68 52
179 695 186 127 99 68
312 628 320 128 27 47
175 857 215 171 119 109
334 230 259 112 90 66
261 137 273 111 91 69
360 507 379 46 24 27
362 410 187 92 77 61
381 430 405 145 22 50
361 518 390 179 8 57
260 142 273 111 92 71
267 133 273 115 93 67
317 562 168 189 8 39
272 133 272 119 94 66
313 935 314 37 34 35
267 138 274 116 93 67
425 453 230 55 27 33
267 143 274 116 93 68
492 875 250 104 86 68
272 143 272 120 95 67
240 537 253 119 24 43
270 143 274 119 95 68
258 148 274 110 90 70
342 889 275 35 33 33
327 677 323 115 5 35
314 653 319 72 28 35
262 158 277 111 90 69
382 418 171 88 73 57
267 148 275 115 92 67
377 708 380 189 126 98
302 606 329 160 17 53
395 466 374 166 3 53
382 598 226 35 31 37
267 153 276 115 93 68
273 148 272 118 93 66
271 149 274 116 93 66
272 153 275 115 92 66
335 872 269 113 83 68
267 158 277 114 92 68
272 158 275 115 92 67
259 382 299 144 105 81
321 748 186 59 39 35
279 133 261 111 85 59
279 138 261 110 85 56
187 683 186 123 99 74
279 141 263 109 84 57
278 138 266 116 90 61
404 708 338 114 78 62
373 791 204 73 56 59
275 644 298 75 17 30
278 143 266 116 91 62
280 139 257 109 85 56
280 139 260 110 85 57
261 303 312 119 90 62
290 374 228 102 87 71
336 698 196 59 48 43
407 912 291 70 60 53
280 143 261 108 84 57
276 148 270 115 91 64
270 568 277 54 25 30
248 532 259 45 26 27
377 488 158 105 24 35
278 148 266 113 89 62
245 695 179 75 61 47
176 836 204 142 98 84
346 898 203 55 50 51
279 153 267 112 89 63
280 144 264 110 86 58
312 419 131 119 47 30
338 258 265 108 86 62
244 695 265 38 29 31
308 368 261 91 64 50
282 158 261 108 85 58
275 160 274 112 89 65
259 164 279 111 90 69
482 833 297 94 77 60
258 169 279 110 90 69
303 889 211 49 47 49
331 823 180 60 50 46
287 708 195 86 26 32
262 162 278 112 91 69
387 503 366 179 6 56
439 464 286 148 7 42
262 168 280 112 91 69
359 721 206 54 42 39
262 173 281 111 91 69
451 453 251 69 29 33
267 163 278 114 93 69
382 889 291 57 49 45
323 328 276 79 63 48
230 563 231 102 24 41
335 704 193 58 46 42
386 740 203 68 53 45
297 398 221 104 89 73
278 598 290 135 1 41
281 623 312 113 28 46
267 168 279 114 93 69
272 168 277 113 91 66
235 704 153 129 93 53
376 865 208 59 54 55
214 671 183 96 76 54
267 173 280 113 92 69
277 288 310 108 87 65
313 405 216 95 80 65
259 184 284 110 91 71
262 178 282 112 92 71
377 417 166 89 74 58
402 421 191 88 73 56
431 723 351 194 128 100
262 193 286 113 93 72
271 798 241 73 60 55
472 908 271 96 83 77
267 178 282 113 92 70
236 564 237 154 5 49
378 633 271 143 25 48
321 343 246 70 60 50
272 178 281 113 91 66
413 768 287 108 76 54
328 293 236 94 79 64
408 699 246 83 61 45
297 404 211 105 90 74
202 703 195 98 74 56
267 193 286 114 93 70
412 423 316 100 14 35
286 323 315 125 85 65
291 787 385 131 88 75
349 801 314 70 58 55
347 353 291 131 97 67
339 735 383 194 130 105
237 698 157 122 90 51
269 186 283 118 95 71
272 879 242 120 92 59
271 189 284 115 93 68
337 478 146 70 35 39
282 868 296 146 117 88
272 193 285 115 93 68
282 163 266 111 89 64
283 420 127 92 41 39
280 160 269 115 92 67
287 384 222 103 90 77
354 940 283 69 61 61
234 738 200 140 104 85
302 318 291 125 91 67
285 169 260 107 85 59
285 173 261 108 86 59
322 414 161 82 69 54
367 748 192 60 47 42
408 428 326 101 0 28
259 332 309 136 96 72
401 848 222 63 55 54
277 173 276 113 91 66
280 174 274 115 92 66
297 406 191 105 90 74
194 660 158 132 104 73
422 503 231 157 6 44
283 178 272 116 93 67
184 722 182 179 120 91
307 424 301 56 46 33
286 178 266 112 89 62
369 308 229 100 82 61
285 178 269 114 91 66
288 188 266 112 89 62
286 188 271 115 92 66
278 178 277 113 91 65
278 183 277 113 91 65
399 454 373 123 13 40
277 193 282 113 90 64
320 834 278 171 134 110
165 768 221 174 130 112
295 296 263 97 79 60
282 188 276 115 92 66
323 298 246 84 73 62
435 756 268 75 58 45
277 498 274 66 24 32
282 278 252 111 83 54
280 190 279 109 87 61
411 826 246 68 55 50
280 194 279 115 92 66
284 187 273 116 93 67
388 613 271 125 23 44
345 413 298 113 86 63
285 190 274 116 93 67
285 193 274 116 93 67
368 529 357 53 21 25
289 193 261 109 87 60
321 328 246 72 61 50
371 688 237 57 47 42
289 193 266 111 88 62
303 383 286 100 70 52
266 553 267 138 0 40
262 198 288 113 93 72
272 203 287 115 93 67
275 194 284 114 91 66
383 535 348 182 5 57
276 198 284 116 93 67
277 203 285 116 93 67
283 326 249 85 73 61
417 503 301 43 28 30
349 945 286 63 56 55
277 208 286 117 94 68
279 202 283 117 93 65
285 448 156 121 12 37
286 198 275 116 92 66
357 338 227 90 78 66
284 202 278 117 94 67
282 203 281 117 93 66
413 548 221 175 18 51
287 208 276 118 94 68
381 502 375 101 13 37
358 663 235 49 37 40
285 208 279 119 96 70
372 353 276 120 95 66
279 222 288 118 95 69
371 373 227 87 77 67
285 213 280 121 97 71
239 558 202 150 7 37
288 213 277 119 95 69
305 388 284 88 63 44
283 213 282 119 95 68
342 415 156 93 76 60
163 783 226 135 112 91
288 218 277 122 98 72
259 204 289 112 92 71
401 517 173 176 16 48
274 555 279 113 18 38
258 208 289 112 92 71
337 508 295 61 29 34
225 704 188 130 94 77
262 201 288 113 93 73
262 204 289 113 93 71
262 208 290 113 92 70
266 204 289 114 93 70
267 208 290 117 95 71
421 523 211 92 31 40
301 916 181 83 71 66
271 209 289 116 94 69
262 218 293 114 93 71
372 273 226 128 96 58
272 213 290 117 94 69
263 303 314 114 89 63
356 395 208 94 79 64
267 218 292 117 95 71
297 358 240 88 75 61
267 223 293 117 95 71
341 872 181 66 60 61
272 218 291 118 95 68
392 568 311 58 26 33
272 223 292 117 94 67
162 803 225 205 146 144
246 798 175 192 132 99
351 373 223 92 81 70
434 449 203 158 5 47
310 452 123 63 32 32
414 781 246 51 43 41
274 211 288 116 92 66
275 214 289 117 94 68
326 298 241 89 75 62
276 218 289 117 94 67
186 750 199 199 135 109
421 502 177 53 30 35
356 823 158 97 74 61
277 223 290 119 95 67
330 258 236 112 88 60
360 788 171 63 51 44
282 228 286 118 94 66
287 228 281 122 97 69
285 228 284 119 95 67
257 798 167 181 122 86
283 238 287 120 96 68
312 413 161 92 76 60
288 238 282 121 96 68
284 242 288 122 98 71
321 403 246 70 61 53
427 423 305 96 20 35
390 576 213 191 16 48
275 567 283 79 22 33
383 378 241 100 83 65
281 433 120 152 5 38
283 809 175 162 107 75
288 253 286 122 97 68
259 224 294 115 94 71
347 208 265 116 94 69
356 732 329 125 14 42
267 228 294 116 94 70
297 788 397 169 123 107
337 493 295 136 1 41
432 433 231 61 29 31
269 226 293 119 96 71
196 686 193 108 89 71
336 415 142 115 64 51
272 228 293 118 95 69
375 343 237 102 85 65
251 699 167 93 75 57
258 277 253 140 97 64
402 883 256 71 60 54
333 901 292 49 37 34
271 229 294 119 96 69
272 233 294 118 95 68
258 405 217 102 89 77
252 938 286 189 144 125
372 473 396 101 24 40
267 238 296 119 96 70
263 513 167 130 8 34
272 238 295 116 92 66
388 608 281 80 30 39
444 444 293 95 14 37
371 318 232 102 83 62
389 680 353 132 75 51
278 443 172 125 0 35
262 243 298 118 95 70
376 692 364 95 68 47
320 461 294 41 19 21
261 247 298 117 94 68
191 818 228 182 122 117
243 592 202 113 23 42
259 253 299 119 95 69
394 491 158 150 28 50
445 477 265 72 23 33
327 728 371 103 74 57
267 243 298 120 97 70
267 428 186 55 35 38
272 243 297 119 95 68
272 248 298 120 95 67
197 698 156 162 110 76
317 419 280 63 48 36
446 911 273 88 75 65
328 399 211 88 75 62
361 698 370 101 78 53
270 250 299 122 98 70
291 349 243 87 75 63
235 708 153 135 94 59
392 828 291 108 68 53
272 254 299 122 97 69
417 758 301 119 89 60
312 937 316 37 35 36
392 448 142 135 17 38
278 238 292 118 94 68
333 848 176 66 54 52
441 673 361 167 117 86
443 448 176 80 33 39
280 233 289 118 95 69
315 820 283 190 136 117
357 483 386 29 28 28
277 248 296 118 94 67
347 564 341 40 26 29
277 253 297 120 95 68
283 803 261 74 61 57
275 255 299 121 96 68
283 248 292 121 96 69
381 414 294 67 56 44
280 245 294 119 95 68
280 248 294 119 95 67
285 249 289 122 97 70
378 323 256 121 94 62
302 883 297 154 118 90
418 433 356 93 27 38
342 428 300 93 68 48
330 350 239 79 69 59
281 253 295 118 94 67
283 253 292 121 96 68
380 258 245 121 94 60
