ply
format ascii 1.0
comment Created by Open3D
element vertex 2220
property double x
property double y
property double z
property uchar red
property uchar green
property uchar blue
end_header
399 797 229 72 54 45
237 118 250 102 85 69
461 551 243 111 20 30
179 472 203 111 26 39
292 466 354 79 48 40
494 532 243 138 22 45
449 828 233 104 79 51
239 62 219 78 43 27
237 114 254 107 89 71
365 557 233 125 7 29
308 245 291 141 101 65
259 857 329 146 79 84
380 667 209 154 102 72
370 557 394 113 18 44
187 494 212 54 30 38
282 237 291 130 87 55
298 483 340 124 80 67
430 553 311 82 21 34
308 62 237 80 55 37
420 498 229 108 6 33
256 182 275 87 71 52
257 678 236 116 15 32
415 512 239 87 10 33
237 64 220 90 41 34
265 600 367 183 124 100
305 620 344 59 27 33
345 842 195 90 71 61
315 352 339 125 99 70
208 342 295 120 93 65
353 520 201 55 37 39
338 437 304 131 102 71
251 137 237 131 96 59
222 825 323 212 141 116
247 880 306 177 127 104
205 417 254 104 84 62
401 585 321 89 22 34
237 63 224 95 41 35
365 466 195 186 19 43
248 72 265 110 38 46
207 260 256 129 96 60
260 877 344 179 133 119
315 551 349 107 1 35
350 677 300 62 26 32
326 938 334 56 52 52
269 413 223 85 61 47
174 482 214 132 23 43
250 56 212 117 27 24
290 787 219 79 62 56
301 116 221 162 32 56
360 877 244 82 72 69
284 268 302 87 65 38
201 433 234 100 15 34
301 63 245 74 40 28
213 264 252 128 96 59
263 464 366 34 28 31
243 246 241 142 108 71
295 9 299 125 35 51
227 197 283 109 90 69
279 57 244 91 44 33
242 53 234 75 62 49
242 677 246 41 34 38
239 398 332 132 99 65
211 292 288 116 93 67
318 98 272 98 65 50
238 61 223 79 48 27
409 599 308 46 33 32
271 831 251 185 128 103
294 580 367 186 119 98
266 362 289 68 59 51
261 123 248 128 87 65
241 252 242 142 108 69
178 431 205 116 13 39
274 15 262 93 80 69
280 935 357 81 77 78
247 48 216 103 41 32
227 228 292 108 89 69
310 417 343 143 100 77
235 732 249 88 26 38
379 687 194 118 89 57
330 732 197 77 34 34
247 48 218 90 51 40
319 137 274 119 96 70
311 507 364 76 21 31
251 302 252 126 102 74
322 97 264 117 26 46
254 48 219 116 44 29
176 547 269 67 29 37
309 377 353 149 105 80
202 352 284 117 92 64
279 318 311 85 70 54
395 617 210 108 86 59
182 424 209 110 18 36
251 39 217 114 49 38
244 51 234 87 79 73
294 555 201 73 40 46
233 675 262 46 42 42
207 237 264 114 91 65
187 419 302 79 32 35
196 752 309 166 113 86
258 217 250 128 101 70
216 192 254 114 94 72
294 171 305 101 85 67
201 738 300 124 93 63
285 477 377 41 27 29
270 52 234 70 48 32
297 561 383 185 134 114
237 376 257 88 77 65
319 182 289 120 95 65
445 602 264 183 120 94
216 267 289 118 91 65
322 109 228 170 24 58
370 482 208 132 14 32
310 457 204 48 33 36
428 829 283 54 43 32
255 45 229 108 86 68
238 88 229 133 13 47
217 232 246 122 94 60
316 387 345 144 105 78
445 572 273 66 28 32
343 27 278 111 52 52
394 627 209 148 104 68
245 362 321 84 61 39
211 242 279 112 90 66
240 537 207 43 37 42
309 232 338 115 94 70
249 46 220 93 58 46
208 386 316 120 95 67
212 227 273 113 92 69
409 481 210 202 19 46
390 467 198 185 24 48
343 30 277 125 103 84
277 199 302 110 90 68
428 544 316 112 17 40
217 184 254 111 92 72
265 26 294 120 71 63
202 364 292 120 93 65
290 682 218 68 35 37
310 32 283 116 29 45
253 157 241 127 98 63
228 175 242 123 96 62
221 217 283 111 91 70
284 637 332 174 17 56
344 647 210 115 85 75
400 742 140 90 66 49
251 42 215 118 45 34
295 152 264 125 89 56
165 437 294 125 5 37
292 125 261 122 84 62
375 587 294 124 21 48
274 811 313 60 48 42
258 262 261 136 106 75
226 157 259 104 86 68
208 794 331 191 130 102
235 287 249 138 102 71
253 232 283 95 76 54
332 894 233 71 63 59
215 717 300 93 63 43
208 302 269 120 92 64
349 572 332 146 16 48
251 39 216 115 48 38
230 672 269 44 33 35
207 317 279 119 93 64
250 47 214 124 35 24
219 387 325 121 96 69
405 602 253 151 98 92
333 480 307 142 103 83
252 187 281 82 67 49
252 912 342 176 131 111
375 572 324 60 26 34
263 439 350 80 55 39
225 332 253 96 79 62
287 164 288 99 81 60
450 504 233 73 19 30
265 107 239 137 90 69
356 474 202 188 19 46
400 871 324 76 62 48
466 513 244 103 23 45
241 72 253 94 27 33
213 237 280 110 88 64
248 885 326 87 81 78
253 252 250 139 108 73
408 762 184 65 49 37
334 568 410 187 129 120
423 886 276 93 79 73
170 537 284 162 9 48
178 502 326 40 29 31
201 433 239 101 18 33
272 778 326 83 63 55
222 179 246 112 91 68
269 247 302 141 105 74
415 487 214 174 19 41
319 157 284 117 94 67
391 600 316 77 21 27
253 42 216 120 43 33
230 687 319 47 32 31
258 172 272 92 75 55
193 554 326 176 13 57
376 617 232 106 57 52
318 198 312 120 96 70
295 547 198 129 17 35
253 47 216 129 24 18
248 43 265 102 57 49
262 490 352 61 22 30
230 347 253 87 75 64
440 536 329 103 20 41
227 667 283 119 20 42
190 682 329 166 114 89
165 472 279 65 32 35
292 291 371 124 97 65
312 510 332 114 69 58
230 424 181 175 24 43
245 77 211 130 29 39
212 648 316 124 79 61
250 48 224 85 60 48
229 317 252 102 83 62
320 442 232 100 11 34
253 42 218 118 46 35
310 47 278 107 42 46
207 242 256 121 95 63
259 332 264 99 81 62
255 47 224 108 81 62
252 835 276 49 41 53
257 871 342 186 138 119
362 887 329 61 52 47
346 662 294 132 14 43
253 167 241 129 101 67
246 52 215 93 37 28
222 419 239 89 71 56
411 529 369 81 20 26
420 482 209 201 21 48
310 72 279 114 18 43
223 176 247 110 90 70
241 327 252 86 74 62
291 27 262 96 35 27
240 362 255 85 74 64
357 619 271 192 1 60
245 177 284 105 86 65
242 53 229 72 61 47
174 481 240 65 28 33
207 262 278 120 93 66
343 672 193 148 108 79
346 874 205 112 89 73
380 466 196 184 20 44
245 57 214 88 35 28
221 197 274 108 89 67
405 532 344 124 21 42
390 532 209 47 36 38
366 592 264 169 18 56
212 657 357 166 119 93
195 491 216 112 18 35
261 192 254 115 92 65
400 852 284 70 57 50
243 56 218 79 35 31
316 558 358 124 22 43
429 477 203 175 20 41
464 528 338 162 21 53
315 467 323 124 85 67
294 122 254 100 60 49
258 372 330 104 72 54
239 67 244 108 36 46
272 325 377 148 102 85
353 526 264 61 35 28
221 192 245 118 94 66
222 187 268 109 90 70
501 572 304 67 29 30
222 419 229 83 48 43
355 632 219 97 65 58
480 592 263 132 89 60
238 435 196 194 6 42
330 662 310 78 21 33
245 52 224 70 60 51
169 482 259 55 31 34
243 132 237 126 96 58
310 717 334 170 0 55
192 397 284 106 86 64
235 382 254 89 76 63
202 541 337 156 23 53
300 526 314 79 42 38
313 134 287 113 92 68
455 842 249 105 85 66
285 358 366 166 115 96
242 118 267 104 88 72
354 741 293 87 69 61
258 221 250 128 101 68
333 627 302 52 28 32
382 695 216 156 105 75
245 52 219 80 45 36
237 722 246 128 20 42
253 58 211 108 30 19
285 488 310 119 37 49
195 442 254 82 22 33
240 507 204 112 18 31
450 820 238 90 62 43
189 452 188 162 3 38
226 472 352 147 27 53
252 889 338 72 56 46
305 397 350 151 105 81
316 76 211 157 36 28
310 92 212 137 26 36
346 912 310 54 49 46
350 457 196 78 33 33
415 541 344 104 21 39
239 623 252 47 35 38
440 464 201 115 14 32
210 247 279 113 90 64
412 570 306 54 27 28
255 462 214 49 37 38
220 207 244 119 95 66
408 880 317 89 71 58
242 54 225 73 62 50
352 652 270 101 21 38
450 837 259 96 77 61
282 59 276 109 78 63
305 433 229 84 9 26
250 377 264 90 77 62
176 477 319 87 26 35
215 567 233 149 29 48
297 467 326 104 69 53
319 232 304 119 94 67
319 58 236 105 81 61
208 322 290 124 97 67
222 172 250 110 92 74
396 801 236 75 56 46
289 532 345 98 14 35
315 572 394 185 124 107
330 82 254 138 27 52
297 549 383 129 107 88
486 593 306 53 28 32
237 81 244 106 40 45
350 612 339 193 17 62
240 262 244 142 106 71
271 262 343 114 94 74
326 903 238 80 72 72
250 47 229 92 70 58
242 112 239 104 84 60
214 227 248 118 92 61
403 799 222 102 72 54
378 775 148 87 67 51
243 80 261 98 24 36
319 167 294 119 95 67
250 481 208 53 36 37
325 107 249 124 57 59
409 732 182 62 48 35
305 152 298 108 89 68
265 622 336 72 24 31
280 752 218 84 49 49
253 405 247 93 77 59
328 817 197 60 54 53
346 593 227 74 27 32
326 427 329 137 102 76
244 62 213 92 39 23
285 421 234 103 43 37
292 764 321 86 67 55
209 337 295 121 94 66
228 667 326 77 62 46
231 167 277 109 91 73
250 46 234 92 71 60
310 117 283 110 90 67
245 522 343 63 20 29
342 677 195 147 107 80
325 102 254 118 28 43
219 429 176 137 45 44
283 225 331 112 95 77
290 797 223 81 64 57
199 437 329 128 10 39
277 228 327 111 93 74
323 426 332 137 101 77
283 181 295 102 83 62
194 470 196 186 8 39
263 892 274 123 83 72
260 812 325 148 114 88
246 63 211 109 31 23
395 522 211 48 34 36
260 212 254 119 95 67
236 72 219 127 16 43
343 760 187 102 75 49
305 121 225 176 27 58
276 486 363 51 26 29
187 424 186 88 34 39
350 427 214 106 23 32
242 58 216 77 41 28
255 157 244 120 94 63
310 463 200 53 35 37
203 382 305 121 95 65
315 17 294 162 116 116
285 502 308 123 27 49
239 57 229 79 49 34
275 762 330 79 63 55
285 862 259 158 118 87
202 368 266 111 90 67
375 873 314 66 52 43
252 257 286 95 76 54
387 735 201 117 81 52
292 142 269 106 84 58
398 747 143 91 70 53
274 488 360 60 26 32
290 297 314 84 66 47
234 777 259 72 58 53
285 292 313 81 63 41
420 597 265 135 91 85
208 316 286 123 95 66
250 52 213 125 30 18
214 415 331 113 88 65
327 777 196 72 57 50
263 291 350 116 93 69
303 416 216 141 15 34
254 52 215 108 32 22
283 57 250 114 35 26
440 822 234 99 70 45
190 467 194 175 4 37
192 418 308 65 53 44
271 247 333 115 95 74
286 568 212 70 35 41
255 812 329 160 119 92
265 507 197 129 3 28
255 57 214 99 35 23
194 421 262 81 67 54
499 614 268 201 76 78
251 612 240 152 14 43
373 851 276 40 35 33
267 294 362 108 88 66
255 357 329 109 81 62
213 341 301 118 93 65
245 527 204 94 30 35
250 62 211 109 26 24
380 609 220 108 82 50
231 167 240 123 96 62
258 292 274 127 97 68
201 464 198 190 9 39
328 87 230 116 40 42
321 372 324 119 96 69
402 606 252 163 109 101
230 237 239 134 102 62
254 36 248 115 94 73
242 54 248 102 40 41
220 287 250 135 99 66
407 760 154 78 63 51
330 576 385 161 98 94
244 287 302 75 60 43
245 182 239 128 99 64
310 142 293 107 87 65
357 724 301 188 8 64
299 872 233 56 52 55
221 262 293 114 90 65
381 687 199 129 92 60
335 881 349 32 31 32
312 239 292 139 103 65
282 275 306 79 60 36
251 27 259 80 62 44
414 621 239 191 122 96
212 244 282 111 89 64
245 327 314 87 65 43
409 767 144 91 74 63
269 880 346 113 86 71
256 51 218 99 53 31
175 452 204 137 4 37
201 367 269 115 93 67
305 92 281 102 43 42
250 58 211 114 22 22
288 445 217 104 15 24
170 507 314 114 23 42
255 82 213 151 5 40
322 102 265 104 48 47
255 132 239 126 94 59
170 477 219 100 31 41
269 933 268 73 66 68
288 195 316 103 85 66
228 677 290 65 30 36
246 100 221 99 89 80
279 448 364 59 40 27
215 327 258 106 85 61
331 627 232 43 31 39
255 459 332 117 80 64
216 207 249 112 91 66
167 454 302 119 5 37
399 802 234 77 57 45
213 227 275 110 89 67
236 62 234 99 35 38
290 9 289 107 48 45
236 332 313 113 87 60
292 127 240 120 26 40
295 938 350 81 80 84
218 197 247 113 92 68
211 627 289 35 33 37
310 137 290 107 87 65
198 667 346 167 119 92
255 452 217 51 35 39
336 703 206 89 23 29
242 732 241 130 19 41
240 72 214 123 18 37
262 574 362 118 96 75
320 575 380 171 108 96
470 512 234 98 30 39
255 152 244 119 93 62
360 537 202 55 33 36
216 197 250 114 93 70
212 208 255 115 93 70
251 182 280 83 67 50
343 706 312 114 46 54
340 863 314 31 29 29
257 473 322 121 47 51
254 63 211 108 31 28
310 507 199 58 33 35
236 62 229 97 39 37
355 692 182 131 96 60
213 355 306 117 93 65
233 141 247 106 90 73
301 935 244 70 62 58
204 552 336 172 20 55
245 177 239 132 102 65
225 640 362 164 115 91
226 692 279 145 5 39
224 697 347 165 111 83
238 166 281 109 90 69
304 382 274 104 90 75
379 523 206 62 32 35
266 247 309 111 85 59
212 304 292 117 94 69
391 747 199 69 51 33
254 192 279 86 69 50
298 324 310 103 86 69
437 830 236 85 64 49
240 537 341 77 22 33
256 61 213 99 34 25
300 627 225 66 31 36
265 22 298 126 28 49
275 482 364 72 26 34
410 523 294 68 30 32
271 511 316 108 15 43
249 457 361 137 21 45
190 457 189 149 10 38
325 797 203 74 59 53
356 476 256 86 56 37
238 60 227 84 48 32
406 768 145 96 77 61
237 59 234 92 36 38
255 622 339 101 55 50
198 502 218 81 28 35
217 192 250 113 93 71
243 72 212 128 19 32
295 127 254 108 71 58
260 548 358 49 27 29
355 677 224 85 63 57
225 337 254 97 81 64
265 322 314 91 74 55
245 364 322 86 63 41
239 57 234 84 36 30
234 415 214 89 51 44
472 835 216 104 80 51
319 466 322 130 91 71
209 416 252 108 87 62
300 22 294 148 105 85
376 858 249 86 71 65
293 492 325 121 60 55
175 419 292 96 24 34
219 420 229 81 44 40
254 122 239 131 94 65
240 117 264 106 89 71
177 487 322 46 28 29
231 287 302 106 85 60
222 250 241 133 98 59
397 794 194 70 53 45
249 46 239 89 62 52
227 661 309 88 25 39
350 487 205 137 11 33
256 277 274 123 95 68
237 62 238 97 52 48
266 399 260 81 67 51
306 337 359 133 101 69
190 447 229 89 18 32
370 532 204 123 11 27
280 762 328 86 68 58
266 388 270 76 64 52
332 895 203 101 79 70
251 457 329 117 81 64
366 692 254 120 8 35
254 26 257 105 91 77
238 62 240 105 74 63
224 652 294 144 5 40
250 577 339 62 19 29
240 57 244 102 29 39
300 211 331 108 90 72
325 387 314 116 94 69
310 622 323 62 30 35
272 782 231 76 61 54
238 330 251 84 73 61
316 437 225 110 8 34
405 767 139 95 74 59
280 427 334 90 65 47
240 62 244 107 81 71
329 550 356 152 20 49
285 302 380 117 92 64
207 337 270 116 92 65
391 719 183 57 47 38
266 317 374 135 98 75
227 820 290 204 141 105
203 350 286 116 90 61
245 488 351 127 21 45
254 498 201 122 9 24
202 433 244 93 19 27
194 547 330 172 16 53
246 48 239 82 56 49
207 267 278 120 92 65
314 167 270 137 105 69
256 44 231 115 98 80
227 158 263 106 87 69
330 518 354 75 37 33
251 43 239 97 67 53
285 437 333 88 63 45
320 544 402 129 103 86
371 672 220 141 87 68
270 945 338 58 54 53
250 232 243 137 107 70
309 348 310 109 90 69
165 477 274 40 32 34
240 102 259 111 90 68
255 43 234 112 91 72
291 749 336 52 32 36
286 777 221 75 60 54
193 392 284 111 89 65
280 538 359 65 18 26
169 513 248 168 11 45
193 573 321 163 10 49
310 895 230 81 70 68
185 542 324 171 12 52
310 546 339 95 6 34
495 602 300 100 30 43
245 167 238 135 104 67
212 419 337 82 41 36
472 845 229 94 75 64
290 22 299 138 94 73
253 418 191 184 6 36
250 392 328 115 78 60
215 722 348 177 123 98
315 437 229 95 8 31
171 488 244 52 26 30
248 173 282 102 82 61
362 868 238 81 69 66
315 487 198 157 2 34
238 120 261 106 89 72
296 28 285 135 55 65
335 877 219 95 76 70
333 427 318 132 100 66
298 420 216 144 17 36
214 435 176 90 32 39
310 642 225 98 20 29
208 312 284 122 95 65
314 413 223 115 18 26
205 267 269 124 95 63
365 682 289 131 11 40
255 41 239 112 92 73
223 430 176 152 40 54
207 292 274 125 94 65
315 742 199 73 34 36
305 502 197 118 21 34
232 147 245 102 86 69
249 522 202 113 22 34
260 414 196 187 18 27
253 45 233 99 73 56
244 51 229 78 66 58
310 601 341 166 21 54
323 382 314 118 95 70
320 16 268 52 50 49
213 302 257 115 89 58
204 362 294 120 94 66
200 362 284 117 92 65
287 785 221 77 62 55
250 102 270 112 94 75
253 174 241 133 102 65
267 243 323 118 95 71
337 447 310 132 97 70
239 87 244 121 29 45
275 432 329 74 50 33
262 657 332 132 22 48
162 487 279 67 26 33
310 407 254 108 89 69
207 776 296 168 113 82
168 461 306 122 3 36
346 691 311 116 18 40
294 122 279 106 85 61
252 44 236 98 70 54
200 592 329 180 12 55
385 707 214 154 104 71
461 601 306 141 16 44
300 166 305 101 85 68
276 601 226 92 30 34
355 564 399 51 25 30
244 97 265 107 73 59
220 237 243 126 96 58
199 417 319 88 72 57
422 600 321 158 23 49
247 39 255 101 40 40
246 47 244 89 40 42
285 882 249 52 49 51
243 66 251 110 7 37
294 72 243 67 38 34
209 411 326 118 94 68
188 431 311 37 30 32
221 434 178 100 38 46
173 498 227 157 5 42
295 232 286 135 97 59
433 610 254 196 130 105
304 13 299 111 36 43
255 572 344 79 14 30
276 295 317 86 68 46
240 452 355 94 21 35
275 662 332 34 29 30
397 815 241 67 54 43
172 497 317 35 31 33
279 561 364 90 67 51
347 489 266 90 69 45
211 277 255 125 94 57
380 837 204 79 62 54
341 662 300 107 16 39
415 448 199 104 19 38
204 347 289 119 93 64
265 410 219 89 60 47
319 111 225 174 22 55
240 152 238 127 99 64
325 22 289 145 110 96
404 573 312 112 16 40
203 471 206 176 4 39
210 447 340 58 27 32
384 504 258 70 32 28
300 867 234 56 52 54
245 47 249 96 30 36
319 722 322 178 18 57
290 323 305 91 77 63
368 731 288 96 27 39
266 707 342 156 20 49
332 510 202 128 5 26
382 722 225 160 109 80
211 247 251 123 94 57
189 457 325 128 6 38
230 417 209 94 49 43
435 539 319 95 28 43
260 167 259 104 82 58
233 650 331 109 53 48
358 468 248 94 65 41
390 727 194 83 63 47
320 608 324 108 29 46
233 155 242 110 89 65
247 43 250 100 26 39
294 530 323 84 35 38
170 452 303 118 5 36
230 337 253 91 78 64
245 127 235 133 99 61
205 507 214 118 15 35
296 17 267 112 41 31
246 42 254 101 47 42
332 652 306 66 25 37
395 543 354 194 16 59
271 889 266 109 69 44
225 342 254 97 81 65
455 855 269 91 75 61
222 695 313 67 45 32
404 511 232 99 21 28
325 727 200 43 37 38
205 423 189 93 38 41
172 542 294 179 6 52
258 732 232 81 32 35
233 390 251 97 82 67
215 242 284 111 90 66
308 65 237 84 66 45
331 67 265 134 17 49
233 135 254 107 90 73
209 247 253 122 94 60
403 786 188 65 47 38
213 804 302 188 128 98
300 177 268 143 101 66
380 572 323 39 26 30
406 571 310 136 15 42
244 47 254 110 28 41
186 418 298 65 46 41
209 242 253 120 93 61
375 632 229 127 82 67
317 247 330 123 96 65
365 853 299 40 35 32
162 430 286 141 2 39
214 312 296 116 93 68
207 242 259 121 95 64
282 228 332 111 93 74
325 502 300 111 74 64
229 603 248 118 27 43
290 177 274 129 91 54
365 752 274 93 74 67
309 737 202 63 37 39
315 521 318 77 43 39
251 38 250 99 56 44
221 323 302 104 83 58
248 287 251 133 104 71
229 661 344 143 97 76
229 167 243 115 93 66
279 766 327 83 66 56
226 167 245 108 89 68
194 457 330 132 9 40
253 420 191 178 6 36
220 382 253 90 77 65
344 617 240 57 36 46
272 908 250 71 65 65
256 39 241 115 101 85
327 424 221 111 16 36
189 427 310 57 30 33
330 752 193 57 44 44
187 431 181 67 39 37
215 667 318 123 78 59
354 454 203 124 14 39
255 37 244 116 99 81
242 54 244 86 45 37
351 777 175 56 47 42
256 292 289 92 74 54
308 32 252 86 33 25
233 829 303 203 136 106
214 282 253 125 94 59
291 527 347 79 22 33
213 808 308 198 134 103
255 442 214 87 27 37
243 52 249 95 32 37
276 829 327 151 120 97
254 142 240 123 92 59
241 697 245 84 27 35
319 101 216 145 38 48
374 717 279 65 30 38
224 425 182 113 58 47
321 484 311 130 90 75
197 378 271 120 95 66
320 867 212 65 57 57
255 127 273 108 86 62
252 39 246 108 74 57
375 551 391 104 13 41
290 841 331 150 119 88
330 35 247 122 101 78
189 437 264 101 14 30
371 697 264 125 22 43
343 449 229 124 21 42
307 101 281 100 29 40
275 561 205 192 3 42
170 537 294 178 0 48
249 217 240 135 105 69
240 102 229 127 13 41
163 492 294 151 0 40
322 396 336 140 105 75
371 716 231 132 85 67
355 652 220 120 92 78
344 481 201 100 25 38
181 442 190 149 1 39
430 496 216 99 31 39
240 632 254 51 32 35
255 137 273 108 84 60
271 481 363 115 31 46
352 629 186 123 95 61
240 247 294 94 75 54
402 769 134 94 70 53
250 416 199 155 34 29
313 141 261 137 105 69
249 37 254 91 46 37
261 327 305 67 54 42
162 478 285 64 25 32
215 387 254 95 79 62
254 232 245 136 106 70
242 92 262 104 15 36
399 812 234 71 56 45
239 107 254 112 92 71
460 572 274 75 35 32
390 606 333 80 30 37
228 291 301 114 88 61
189 442 263 58 30 31
184 467 197 160 2 37
366 519 283 59 41 28
300 182 314 105 88 70
202 591 333 183 14 57
384 846 275 58 50 43
312 24 251 105 91 76
243 89 217 145 11 46
191 582 318 156 6 47
315 832 299 138 109 84
256 33 250 115 99 84
295 42 274 103 40 46
187 443 222 119 3 36
256 814 326 157 117 90
192 393 283 108 88 65
397 526 212 46 36 37
384 474 215 123 12 37
217 279 292 115 90 64
242 57 249 113 22 41
285 417 343 138 99 83
350 807 259 74 59 53
343 896 250 78 69 68
394 797 237 64 47 39
246 67 259 107 83 69
191 516 226 145 6 33
166 467 284 73 30 34
232 750 341 169 117 90
376 549 233 194 7 48
244 163 282 109 88 66
250 42 244 99 54 49
225 217 240 124 97 63
161 472 303 144 0 44
235 227 238 133 102 65
249 41 249 98 35 41
256 252 279 102 80 55
297 384 356 161 112 87
277 757 221 73 57 51
173 538 309 168 3 49
224 167 249 108 90 71
248 45 243 91 44 44
269 407 334 131 91 76
345 897 259 80 70 66
263 338 276 89 75 60
255 67 210 125 24 30
428 534 318 98 29 42
290 552 374 120 98 78
205 427 244 80 59 50
272 219 312 112 93 73
248 85 266 101 85 67
253 40 243 109 84 64
410 752 134 93 76 60
456 565 265 162 6 41
182 442 271 97 20 32
325 32 248 110 92 73
192 449 249 45 30 32
248 40 252 96 45 41
336 432 309 130 100 69
232 434 187 201 11 43
306 216 331 112 93 73
246 49 229 87 71 63
191 461 191 167 2 39
283 196 310 107 89 70
314 844 307 135 105 76
247 49 226 80 62 53
224 212 242 120 95 65
244 51 239 71 46 39
296 845 246 164 118 95
200 362 274 116 94 68
400 602 224 104 82 55
411 547 239 190 8 48
249 100 221 133 58 53
332 464 196 49 36 37
275 802 235 80 63 57
207 363 302 119 93 65
280 363 280 92 77 59
346 889 239 79 70 70
272 217 304 107 87 64
210 357 259 103 86 67
394 856 284 71 59 54
301 762 205 68 56 50
343 447 209 116 17 37
245 317 250 120 97 72
280 532 340 115 4 37
241 323 312 99 71 50
214 202 254 114 93 71
195 657 319 139 104 73
403 630 224 195 130 101
259 307 259 123 99 74
173 477 213 102 30 41
241 53 239 63 26 25
359 891 324 66 58 57
192 432 261 104 12 32
229 657 314 56 25 32
414 522 224 62 29 29
217 408 251 99 81 62
235 652 344 154 99 78
345 877 214 100 81 72
246 49 234 87 73 65
310 512 301 105 19 44
420 483 218 132 11 37
250 81 211 148 12 44
277 315 382 146 103 85
445 527 249 63 26 35
235 272 245 144 105 72
206 252 259 124 96 61
300 427 234 105 24 25
243 51 244 83 38 37
440 602 315 115 22 43
312 223 287 141 104 66
250 402 249 96 80 62
214 337 300 118 94 66
205 692 348 170 118 94
282 500 357 67 19 27
222 276 246 135 101 65
238 496 207 73 25 27
266 622 236 91 32 39
252 432 331 128 88 70
240 107 244 93 68 50
360 610 338 144 24 53
225 297 250 133 99 67
284 591 359 160 96 80
209 232 254 117 93 64
255 352 319 78 58 42
250 523 341 89 18 34
326 622 310 91 29 41
186 442 313 94 19 36
216 197 264 109 90 69
271 818 310 59 48 44
250 502 202 122 5 27
395 718 174 57 45 33
313 524 379 97 12 31
290 897 233 85 74 73
234 256 241 138 103 66
494 581 307 91 34 43
218 196 266 110 91 70
265 312 374 134 98 74
450 536 252 80 23 30
243 55 251 116 19 43
244 52 254 108 61 55
287 15 262 108 47 18
215 542 343 88 27 38
253 167 277 91 73 52
220 202 244 119 95 67
254 421 195 185 2 39
250 192 283 82 67 50
315 686 212 101 19 31
403 777 184 75 56 46
226 656 294 135 4 36
166 472 308 131 5 40
232 570 226 190 8 42
200 423 189 85 37 42
249 787 248 73 58 51
350 862 213 101 82 69
214 497 346 152 19 49
243 57 254 114 39 52
341 676 306 82 19 34
241 62 249 105 42 50
188 425 216 77 35 34
388 503 211 91 20 20
242 58 252 120 16 42
260 507 199 125 5 27
240 157 237 127 98 63
243 64 251 113 5 38
273 506 321 116 16 43
163 488 299 125 10 38
406 503 230 89 18 29
236 143 272 105 87 70
207 620 289 175 31 56
250 122 274 110 90 68
196 392 269 118 93 66
229 812 278 71 58 55
260 36 244 110 94 79
169 502 239 102 20 38
375 807 242 88 62 48
242 60 252 115 14 39
244 692 326 37 25 25
191 447 255 60 30 33
216 468 347 98 21 35
244 62 254 106 32 43
280 727 219 71 33 39
270 10 294 102 66 56
173 466 311 125 9 36
250 372 263 86 74 62
231 439 193 191 13 38
338 638 298 48 28 32
189 457 244 59 30 33
375 652 189 137 97 63
218 589 247 180 8 42
235 72 234 114 27 43
250 410 214 89 57 48
256 337 320 89 68 49
310 953 330 68 64 65
269 102 264 115 79 64
382 643 192 148 103 68
317 272 329 127 96 63
254 72 270 109 40 47
309 262 300 139 99 66
286 172 294 102 83 62
222 168 254 110 92 73
420 593 294 106 23 37
240 67 214 109 37 35
240 247 241 141 107 69
325 603 342 158 14 48
223 420 202 95 46 36
200 377 294 121 95 68
240 142 238 124 97 64
225 547 344 77 32 38
164 472 289 115 14 32
297 97 221 127 13 40
315 452 330 127 89 65
194 597 284 195 1 52
296 521 359 98 20 36
212 228 251 116 92 63
222 173 262 109 90 70
167 493 255 82 29 36
293 464 364 73 44 36
212 290 256 126 96 61
202 348 283 116 91 64
219 177 254 111 92 73
393 550 391 108 8 35
235 67 224 114 34 43
374 717 274 143 21 48
329 466 317 142 101 81
276 754 336 80 65 59
339 751 297 85 64 54
235 72 224 128 20 44
245 381 326 109 76 56
190 442 224 114 6 35
235 413 337 131 99 69
237 67 220 110 38 43
406 851 225 83 69 59
493 596 261 129 91 62
320 9 284 91 43 49
315 53 236 121 64 43
212 324 297 121 96 70
293 356 367 160 108 86
350 568 403 96 49 51
263 353 275 79 69 59
318 192 284 131 103 70
291 904 237 86 75 73
253 152 241 125 96 62
239 92 224 133 8 43
261 498 201 120 10 26
261 441 343 105 74 58
238 66 218 101 38 38
256 888 342 133 105 81
180 437 214 105 12 36
292 122 269 117 87 66
336 487 300 137 98 79
249 32 259 78 35 29
214 737 289 123 55 51
207 242 268 114 91 65
238 72 217 125 14 39
212 424 234 81 41 38
220 667 319 111 64 50
385 852 239 91 76 66
213 207 253 114 92 68
179 527 233 172 6 42
422 834 242 88 63 50
241 127 239 112 90 65
188 451 320 126 4 38
186 572 313 113 15 42
248 317 251 121 97 72
242 319 312 106 74 55
328 85 254 131 53 57
436 527 241 74 21 28
240 77 214 130 13 40
268 944 282 80 76 77
303 86 218 93 30 19
235 77 224 134 11 44
272 484 201 108 22 22
166 512 299 158 0 43
237 77 220 135 3 43
285 52 278 106 20 40
204 372 263 108 89 66
217 454 202 159 7 42
240 177 285 109 90 69
185 462 234 69 25 33
230 427 345 133 19 43
350 526 299 58 36 28
402 820 239 92 74 60
311 857 329 141 111 82
225 252 294 109 87 64
289 102 244 109 37 44
349 507 274 69 55 39
310 672 323 104 18 39
227 154 258 105 88 70
399 487 224 110 3 34
288 459 368 61 35 31
238 78 218 136 8 45
245 192 239 119 95 67
177 441 196 141 4 40
480 853 247 95 80 66
360 677 183 127 92 55
200 467 338 123 18 42
289 211 326 105 87 69
168 509 247 186 14 52
207 428 337 123 21 43
304 146 256 156 105 76
302 24 286 114 30 48
239 82 218 140 4 44
335 553 364 155 20 46
241 372 257 87 76 65
256 177 275 87 70 51
186 467 195 166 2 35
272 409 202 122 33 43
285 539 359 68 16 25
230 537 345 103 30 42
191 592 299 193 2 53
217 282 292 116 92 66
360 602 254 166 16 56
465 846 254 118 100 83
237 81 221 139 3 45
270 67 275 105 41 46
163 507 259 118 16 38
227 661 281 162 8 45
285 527 199 135 5 29
238 115 255 107 89 70
265 67 275 108 30 42
230 497 210 99 17 31
220 497 347 150 16 46
290 527 314 82 37 36
241 458 357 53 25 28
236 82 224 137 9 45
293 694 342 128 11 40
233 638 262 104 17 36
232 512 206 47 38 40
226 212 240 122 96 65
443 464 201 108 11 30
255 347 315 68 50 37
335 802 275 148 105 85
215 527 345 40 28 30
294 697 343 131 12 41
227 267 297 109 87 62
382 652 199 166 112 83
375 507 207 131 10 28
241 122 268 103 87 71
260 62 274 104 61 53
293 114 237 121 18 41
210 267 254 128 95 59
399 792 219 105 75 54
192 562 323 163 12 50
250 418 194 186 13 27
240 87 219 138 6 43
383 707 199 127 89 59
231 172 240 126 98 62
237 117 254 106 88 70
213 262 286 118 92 64
206 428 239 86 52 45
265 757 334 59 49 45
294 489 310 107 60 54
334 47 273 120 60 60
211 607 329 174 8 54
237 85 225 134 9 45
194 387 284 115 91 65
420 581 310 78 19 31
325 52 275 120 20 45
319 556 356 132 14 38
238 84 222 139 7 44
240 307 250 123 99 71
179 421 296 59 28 32
419 538 384 134 21 42
210 377 314 120 95 67
238 87 224 133 7 44
290 227 284 132 94 57
425 537 324 84 25 40
249 414 201 122 51 41
289 102 274 95 19 35
247 34 263 113 20 38
245 67 210 117 37 31
170 532 274 83 34 40
259 317 359 118 92 65
212 247 282 112 89 63
212 214 267 110 89 66
280 26 294 137 54 63
330 567 374 168 101 93
280 11 304 125 72 61
231 667 317 73 27 31
254 82 270 88 66 51
230 377 327 122 94 67
194 572 253 187 13 50
308 200 276 146 106 69
256 756 235 72 57 51
230 332 309 115 89 62
203 426 331 87 19 37
453 820 237 102 78 56
230 418 199 111 51 41
285 57 254 104 61 46
306 622 325 100 28 43
285 938 354 73 68 67
252 31 277 110 58 54
179 466 230 79 20 32
295 547 374 105 80 63
326 422 330 138 103 76
275 237 295 127 87 53
315 217 324 122 98 72
243 66 212 115 49 40
332 426 269 110 91 69
253 272 288 92 74 53
332 551 326 47 20 25
166 507 299 155 0 42
245 72 210 125 36 37
260 437 323 115 79 62
270 416 229 85 65 51
254 247 250 139 107 73
247 385 262 96 81 66
299 768 207 72 59 51
369 637 186 125 94 58
321 529 305 64 40 34
308 219 332 113 93 71
300 586 216 63 36 40
423 584 312 89 16 29
221 438 183 162 17 45
295 747 335 111 35 50
267 83 228 126 23 40
256 113 239 132 89 64
254 902 284 58 53 53
254 288 298 79 68 56
250 337 316 83 57 39
310 512 199 91 29 34
250 91 216 156 13 47
406 550 221 42 32 37
280 498 322 123 31 45
225 222 289 109 90 69
311 141 291 108 87 64
271 302 315 91 72 47
335 521 344 78 39 34
215 342 304 115 92 65
243 78 212 134 19 40
320 372 319 122 98 70
225 362 319 114 91 65
250 447 215 73 33 38
250 67 210 125 31 33
218 202 247 113 92 68
400 544 329 119 25 48
405 714 154 107 78 50
233 415 234 93 73 53
184 512 330 87 28 36
376 862 254 84 71 66
250 72 209 129 27 35
252 179 242 133 103 66
240 475 212 69 36 38
458 524 338 140 21 47
238 75 236 94 73 63
212 414 251 103 83 62
255 72 210 140 9 33
285 607 339 123 19 41
230 157 244 106 87 67
290 10 272 109 65 36
462 536 275 86 5 28
273 830 326 152 119 98
345 512 201 40 35 39
384 866 289 62 52 51
190 412 269 83 71 58
162 486 294 144 0 38
185 424 189 80 35 39
250 77 210 136 22 38
243 814 262 82 63 57
465 546 254 87 14 27
305 457 204 70 31 31
234 652 321 33 26 25
174 507 229 139 10 39
236 147 240 116 93 66
210 632 324 86 66 42
242 489 206 43 39 43
236 213 292 103 85 66
229 172 275 111 92 73
380 548 224 102 37 45
352 675 232 76 26 40
325 512 200 118 15 30
215 477 210 104 24 37
255 77 210 147 7 37
230 242 295 106 86 64
325 543 334 88 18 34
315 26 248 102 88 73
340 446 208 97 25 32
188 438 182 77 38 42
425 524 284 80 13 30
218 476 211 60 33 33
238 663 321 44 24 26
225 162 259 104 86 68
370 697 183 115 85 51
345 672 224 68 37 40
235 282 248 143 104 72
305 172 309 107 89 70
508 588 295 88 17 32
307 474 196 80 31 30
243 109 228 144 22 43
435 523 364 143 24 50
219 297 295 115 89 63
270 432 214 142 8 35
224 802 278 80 63 57
241 409 245 95 79 61
318 167 279 125 98 67
258 132 245 123 90 61
471 596 266 142 93 66
319 367 329 119 95 67
275 956 289 86 83 86
241 82 215 139 11 44
425 608 314 76 29 33
248 865 320 148 110 90
204 377 304 120 95 66
265 863 347 163 123 104
175 427 296 86 22 34
166 502 304 152 3 43
329 495 302 124 86 71
250 187 241 123 97 64
247 346 257 87 74 60
209 257 254 125 94 58
270 237 299 143 105 71
245 82 213 143 19 44
305 452 209 100 21 24
276 883 352 124 103 86
210 662 317 131 84 64
365 552 318 148 7 48
224 647 320 122 77 70
235 448 208 97 31 40
196 437 324 131 7 39
440 578 269 104 42 27
377 741 249 151 116 86
333 447 317 137 102 74
242 86 216 145 19 46
393 758 218 144 103 70
245 87 215 149 17 45
295 212 280 136 98 59
224 706 303 76 25 34
246 81 211 140 22 45
235 167 239 126 98 62
256 332 329 113 84 63
235 482 210 44 38 41
318 478 196 85 28 35
248 54 261 111 11 40
257 435 348 86 60 44
255 408 215 96 56 48
352 488 207 120 16 36
279 820 303 84 55 45
250 428 199 187 3 42
185 417 269 78 65 56
395 747 146 83 62 49
252 835 294 60 51 50
227 172 273 110 91 71
241 92 220 137 10 42
331 27 286 126 99 73
276 521 342 65 22 31
390 856 325 43 37 35
316 262 309 136 99 67
171 438 297 109 19 39
217 727 289 48 33 38
292 234 342 109 91 73
305 951 334 73 71 73
353 525 268 59 37 29
314 246 296 139 101 64
300 492 379 124 13 41
245 257 294 88 68 46
465 543 299 86 28 37
262 327 316 91 72 54
235 267 244 143 106 72
275 28 290 134 28 52
427 844 285 78 59 45
244 92 218 114 55 49
295 807 224 83 65 58
203 477 341 78 26 34
236 127 249 106 90 74
235 132 264 104 87 69
410 542 339 151 15 47
285 927 364 72 67 67
280 227 329 109 91 73
318 242 300 131 101 65
324 808 208 68 55 51
292 82 269 95 66 55
267 829 319 124 93 78
241 97 224 137 10 45
245 252 243 139 107 71
246 772 335 143 107 74
378 726 174 102 81 72
311 167 268 141 105 67
191 547 328 171 15 53
247 237 242 138 105 69
244 757 333 149 101 74
250 292 253 130 104 73
255 187 243 129 103 72
348 891 259 83 71 69
202 767 305 172 116 86
250 297 253 128 103 75
242 95 221 139 15 45
372 657 187 133 95 61
265 637 335 127 22 46
257 327 329 113 85 63
419 887 289 90 71 62
245 97 220 107 74 68
324 513 354 83 39 38
309 50 243 68 42 30
162 483 284 126 11 37
305 912 368 60 55 54
240 162 238 128 99 63
216 591 250 183 8 45
306 619 337 75 24 36
260 15 263 90 75 64
255 192 244 124 99 69
245 142 277 109 89 68
191 692 324 167 118 89
250 83 212 150 11 44
192 551 327 173 14 53
339 895 228 76 67 66
311 362 299 111 92 72
211 382 318 120 95 67
371 692 274 42 32 35
177 517 323 123 30 49
208 340 267 112 90 64
354 861 214 93 77 68
246 242 242 141 108 72
470 493 218 105 29 39
345 892 249 81 71 69
370 541 329 65 19 31
192 398 275 111 89 66
320 242 309 117 93 65
399 860 300 65 51 47
393 758 209 131 92 57
222 658 322 124 83 67
406 451 197 87 30 38
250 87 213 153 13 43
234 767 258 70 57 50
416 459 196 110 30 35
251 93 218 154 26 47
197 418 261 94 78 61
230 372 325 121 94 67
415 611 257 189 128 113
203 697 346 169 117 93
260 302 264 123 99 73
254 80 211 152 5 38
260 677 235 114 13 30
385 707 209 145 98 63
269 829 252 186 127 106
314 131 254 140 94 73
185 472 199 144 10 37
400 843 223 78 62 51
242 144 277 109 89 70
348 760 287 89 67 60
295 132 259 116 81 57
363 601 274 135 24 49
292 92 230 104 21 35
193 692 317 146 106 76
255 87 215 149 4 38
243 710 242 137 3 35
395 478 209 190 24 51
208 256 276 117 92 63
296 882 351 131 102 77
317 371 308 121 98 71
286 530 321 84 35 37
212 458 203 185 3 37
256 461 329 116 79 63
303 560 352 135 15 30
405 592 324 76 24 34
253 90 271 107 12 40
375 511 269 63 43 28
220 682 349 163 110 83
375 636 227 131 85 67
373 740 267 78 63 57
235 441 200 141 18 40
247 72 263 92 70 55
302 495 337 124 74 65
257 444 362 102 20 36
175 487 319 47 30 32
182 566 299 43 31 36
245 157 280 109 89 67
183 446 311 113 13 38
397 793 188 76 58 49
319 137 269 120 95 68
456 823 225 105 79 55
248 302 251 126 102 74
214 232 248 121 94 60
338 697 208 91 11 27
250 97 220 143 48 51
224 603 253 179 8 48
244 242 241 141 108 71
202 362 270 114 92 68
166 472 274 52 33 31
233 315 306 114 87 60
273 59 231 84 34 20
315 92 213 133 28 35
303 852 242 57 48 50
197 452 333 127 9 38
233 694 337 134 90 69
166 522 274 58 32 34
206 656 317 129 87 61
240 252 295 92 73 50
365 550 384 190 19 56
450 828 249 79 57 44
198 604 289 67 28 37
309 66 233 107 89 70
204 613 289 145 31 52
255 312 308 63 49 34
224 446 195 161 11 38
292 148 288 106 85 62
323 610 317 93 32 45
240 167 238 130 100 64
341 647 204 122 85 71
253 90 216 152 10 39
310 27 285 123 32 50
409 897 284 89 73 65
240 419 190 165 25 34
395 507 213 109 17 30
229 442 346 118 19 39
237 786 256 73 59 54
310 222 285 141 104 65
228 762 262 70 57 54
307 302 327 105 82 56
348 473 280 127 99 70
202 781 310 189 127 100
292 505 372 52 24 24
248 226 241 136 105 69
253 266 251 140 109 76
241 117 239 110 90 68
257 212 247 126 99 68
295 522 309 81 46 41
239 102 239 118 25 40
215 417 334 96 75 56
360 878 258 70 61 60
306 487 354 118 77 64
180 487 208 62 36 38
302 310 322 109 88 65
230 347 315 102 82 59
235 242 240 134 102 65
263 272 319 112 86 60
232 144 267 106 88 69
164 492 304 115 20 42
305 67 279 105 51 49
329 797 198 65 53 50
210 447 184 190 9 40
280 652 229 47 35 37
255 92 219 149 8 40
341 457 299 133 100 71
325 453 204 51 33 35
227 691 317 55 35 29
228 692 269 55 35 38
380 502 209 131 12 30
234 67 229 112 34 41
308 358 296 106 90 72
275 927 363 62 58 56
240 467 358 101 24 38
308 229 337 115 93 70
184 442 310 50 29 32
234 72 229 124 23 43
325 562 217 141 2 32
367 696 252 138 19 44
200 667 316 132 95 65
220 536 215 110 24 39
250 113 233 144 96 69
187 434 312 40 33 28
260 92 273 105 52 52
331 846 270 65 52 43
250 557 212 136 18 39
268 291 360 117 93 67
235 67 234 106 32 40
270 29 291 110 59 56
240 92 244 108 61 56
332 440 252 94 75 53
418 574 307 46 23 30
237 67 238 104 40 45
290 112 244 105 33 36
162 502 274 143 0 39
255 17 264 93 63 56
416 595 321 58 30 34
316 147 290 113 91 67
258 232 269 107 83 57
309 492 359 113 74 61
340 543 354 115 16 42
238 445 206 115 29 43
202 566 241 45 28 34
390 827 194 85 67 58
235 197 288 108 89 69
224 492 212 126 5 30
237 71 238 106 34 43
310 117 224 180 21 54
265 452 369 48 26 28
310 437 337 141 101 79
319 117 239 145 43 58
300 747 203 132 20 37
272 218 309 111 91 70
238 72 239 105 68 63
268 412 331 129 89 75
310 11 267 51 52 54
484 512 230 103 19 35
385 444 201 98 25 34
249 27 269 83 51 43
235 77 229 127 10 42
396 581 321 55 26 29
236 77 234 110 27 41
179 517 325 83 28 37
322 382 334 128 100 66
357 690 227 89 89 90
169 472 269 44 34 35
259 687 233 104 19 32
175 457 219 92 16 32
213 624 310 48 31 35
225 237 240 132 99 59
242 138 236 131 102 65
251 237 285 92 74 52
310 477 196 126 12 29
208 307 269 125 95 66
312 815 221 88 68 60
408 444 203 112 20 40
256 242 254 136 105 72
349 607 240 145 24 39
269 422 330 82 55 37
302 10 291 108 41 51
250 411 209 98 56 46
208 630 327 86 67 43
365 542 359 71 24 36
238 74 236 94 71 62
349 907 314 60 53 50
246 867 309 158 116 92
225 418 234 88 65 51
191 484 207 91 36 41
319 187 294 119 94 65
328 398 309 117 95 71
299 563 384 178 125 108
358 596 241 90 30 36
241 112 264 107 89 72
203 346 284 116 91 63
248 81 266 93 52 45
238 77 239 104 45 47
348 697 187 154 110 80
251 483 206 74 30 34
235 247 240 136 103 65
275 42 284 116 86 67
269 942 279 74 69 70
193 450 239 71 24 33
247 897 306 161 126 101
290 363 280 100 85 70
443 589 307 54 26 29
293 103 232 120 14 36
315 727 202 66 34 37
225 304 252 128 97 65
198 392 300 121 95 67
235 182 284 109 90 70
226 527 211 128 16 36
237 78 238 109 31 43
189 452 254 49 31 32
300 961 284 70 66 68
218 202 270 107 88 68
285 317 313 86 72 57
216 192 259 110 90 70
238 66 241 105 58 53
360 523 294 59 32 26
173 504 232 151 5 40
211 217 254 114 92 66
164 487 269 42 31 33
209 392 257 102 84 63
172 457 214 119 5 37
409 763 154 84 66 53
239 92 249 93 69 54
239 107 249 102 82 60
285 792 313 73 58 48
225 242 240 132 99 60
235 192 239 121 96 66
277 632 231 68 32 36
173 457 209 133 2 37
191 451 186 161 12 41
445 836 244 96 77 61
262 324 316 91 72 53
211 312 260 113 88 60
239 77 249 101 30 40
168 504 242 87 22 34
229 692 343 146 99 73
240 302 307 100 76 53
225 377 253 87 76 64
216 362 314 117 94 68
336 17 290 132 42 57
221 362 318 115 92 67
223 206 281 109 89 69
239 72 244 96 48 48
304 190 271 147 107 67
228 151 254 108 91 75
265 307 374 126 96 70
258 222 273 99 78 54
375 611 219 102 76 45
425 541 323 71 28 34
215 427 179 98 55 41
225 472 214 127 12 32
253 212 282 90 72 51
235 367 254 86 76 65
240 72 249 92 33 38
268 851 283 125 83 57
264 439 354 79 44 36
207 373 307 120 95 66
325 38 280 134 36 56
245 217 290 86 70 53
279 38 251 92 35 28
208 332 268 118 94 65
253 319 312 71 50 33
211 262 283 120 93 65
250 662 244 129 5 32
238 77 244 109 29 41
225 302 251 129 97 64
237 79 244 113 22 40
225 327 304 105 82 56
290 97 234 106 21 36
226 187 241 126 98 64
235 302 250 122 94 64
209 772 340 177 125 98
197 373 275 120 96 68
285 47 280 108 64 56
339 460 197 61 35 36
250 102 222 136 53 52
374 823 173 101 78 61
236 807 264 76 62 58
305 662 325 167 7 52
376 505 261 65 42 27
361 471 196 197 17 47
265 792 325 57 47 42
255 467 213 42 37 37
240 77 254 96 31 38
441 826 231 104 76 48
314 955 323 70 66 65
248 32 264 104 37 41
305 637 225 113 15 26
335 67 244 103 44 44
245 237 241 138 105 69
315 572 340 47 26 30
470 507 230 160 22 47
236 82 229 130 9 43
275 697 223 129 10 32
290 247 291 134 92 58
171 522 249 158 15 45
318 78 214 133 54 39
240 172 238 131 101 65
193 594 305 101 26 43
450 563 269 79 29 38
290 92 259 86 49 43
237 86 229 134 13 46
365 882 294 67 58 55
168 491 253 53 29 31
304 409 215 167 20 31
252 272 252 132 106 75
225 177 244 117 94 66
180 457 224 66 26 31
173 528 253 41 32 35
235 497 208 100 21 30
335 607 344 176 10 54
280 757 219 73 57 51
230 437 346 115 19 40
221 172 259 108 90 70
265 861 346 127 100 80
236 82 234 119 20 42
476 541 256 68 29 35
248 825 322 177 122 98
320 892 219 80 70 66
370 782 254 72 59 53
386 839 213 82 66 58
246 145 236 133 101 64
370 519 284 60 43 28
276 207 290 139 108 69
250 647 330 42 26 30
265 408 240 79 66 52
165 512 254 185 6 47
232 541 211 48 33 36
319 79 225 106 92 76
322 83 270 119 55 59
177 492 323 47 32 32
237 81 239 117 16 38
250 172 240 135 103 65
245 147 237 131 100 63
264 58 276 116 90 68
275 957 309 62 58 60
455 543 325 62 25 30
290 277 305 86 65 40
338 56 259 132 25 47
415 828 239 102 86 76
238 84 236 104 56 49
222 232 241 125 96 60
321 387 299 119 97 72
299 57 275 93 20 35
237 86 233 125 23 47
290 292 313 86 67 43
238 87 235 105 44 48
365 550 379 183 23 61
446 592 263 135 89 56
351 898 345 58 51 48
347 676 301 94 20 36
268 232 309 110 88 62
224 702 289 51 29 35
410 551 249 187 1 45
239 87 239 105 57 53
290 552 200 47 36 40
238 120 247 101 84 67
216 202 249 112 91 68
470 568 269 112 20 38
296 33 280 114 57 56
399 767 198 69 52 40
220 412 334 121 95 68
425 612 244 186 124 99
214 368 257 97 82 66
311 152 263 143 107 71
238 92 229 131 17 46
367 831 179 97 74 59
239 717 244 145 1 40
332 427 320 133 100 70
210 342 264 106 87 65
275 622 232 63 36 41
255 102 222 144 12 39
204 397 314 120 95 67
198 767 314 189 129 103
239 97 229 129 14 44
288 464 339 96 62 51
175 447 204 131 5 36
292 795 221 81 64 56
245 142 236 133 101 63
238 92 234 120 21 40
250 92 270 103 27 41
194 416 310 99 78 60
325 687 320 39 27 30
225 182 243 120 95 65
346 767 181 71 55 45
223 279 247 138 102 65
305 647 223 64 30 31
239 92 239 122 24 44
239 97 234 126 23 46
213 777 283 166 111 81
266 252 319 118 93 65
430 526 368 109 22 37
218 391 326 121 96 69
275 707 345 126 25 46
245 152 279 109 89 67
306 186 316 108 90 72
389 545 359 195 16 61
250 197 240 125 99 66
206 662 353 162 116 91
171 507 239 76 29 38
275 542 362 122 11 39
190 512 335 70 29 34
360 609 332 151 23 43
245 132 236 132 100 62
243 387 256 95 81 66
252 415 202 120 47 32
260 552 206 83 28 38
327 594 222 125 27 40
239 97 239 95 60 50
176 442 209 122 2 37
445 535 337 113 21 45
238 83 244 101 68 56
190 582 314 158 2 46
327 392 319 118 95 68
252 58 267 104 48 51
311 292 329 120 85 57
256 237 279 98 78 54
217 394 327 120 96 69
222 168 258 107 89 70
237 83 247 92 65 53
346 637 284 159 17 51
261 192 259 107 85 60
342 894 247 75 66 67
176 432 275 122 1 33
238 82 249 96 53 48
186 462 239 51 29 32
235 367 324 119 90 64
261 877 284 146 113 83
283 180 290 96 77 57
275 767 328 84 66 57
411 757 169 62 50 42
252 19 266 98 44 45
336 898 243 73 65 66
167 442 286 118 0 33
239 112 249 102 84 65
328 95 247 133 17 44
295 497 305 121 34 52
230 147 249 106 90 73
509 592 294 88 14 29
326 67 270 120 23 46
476 556 270 86 2 28
203 382 262 111 90 65
461 840 239 98 84 72
170 472 224 69 31 35
225 402 333 123 96 67
314 357 349 133 102 69
244 67 254 102 53 51
238 87 249 114 30 44
255 312 254 123 99 73
385 723 190 122 104 97
162 497 279 142 0 39
375 603 323 47 35 41
175 452 274 71 28 27
305 517 384 63 22 30
270 41 243 83 57 42
239 82 254 102 30 41
348 632 278 164 18 51
239 533 207 42 37 42
435 512 238 107 90 84
245 457 216 86 27 35
318 222 295 132 103 67
229 147 254 107 90 73
345 727 309 138 24 51
370 457 194 69 33 35
341 647 208 112 79 69
198 446 331 129 10 38
295 702 344 139 13 43
241 211 291 94 78 61
238 87 254 101 59 50
285 955 328 58 54 53
320 242 314 121 96 68
410 541 384 175 23 57
238 97 249 113 31 43
400 471 199 94 29 39
247 34 261 114 33 34
230 391 252 93 80 66
299 465 202 100 20 25
314 847 219 60 55 56
192 677 338 171 119 91
445 481 205 94 26 35
242 106 226 129 21 41
186 497 214 71 35 37
311 841 306 136 104 76
320 503 301 111 64 58
271 406 338 130 91 77
225 167 264 107 88 69
335 550 206 157 20 39
271 222 314 110 91 71
266 42 238 113 97 81
284 457 344 82 53 44
223 370 321 118 95 68
412 518 239 74 13 29
238 92 254 106 83 64
210 387 319 120 95 68
205 732 343 176 120 96
305 71 233 88 65 50
335 607 329 72 32 40
177 555 294 48 30 33
200 437 177 97 30 40
290 82 259 89 33 38
273 374 356 163 117 98
425 492 214 147 21 42
201 551 231 147 23 45
238 97 254 112 27 43
389 434 208 86 21 24
220 637 361 156 113 86
215 202 264 110 90 68
428 479 207 127 13 35
241 752 245 125 31 46
224 187 274 110 90 70
240 420 187 175 9 40
348 468 262 107 82 54
342 513 286 59 44 28
241 67 249 106 22 40
365 836 180 104 79 63
242 68 252 101 17 33
317 181 306 118 95 70
429 851 256 100 82 65
208 330 291 122 95 67
264 697 227 92 26 35
395 785 160 82 65 54
231 162 241 121 96 65
255 122 273 109 87 64
410 517 274 78 21 30
300 453 331 104 70 51
237 802 261 72 59 56
275 457 212 41 36 39
296 10 300 127 33 52
276 73 271 99 70 55
313 118 282 113 92 68
206 357 299 118 93 65
390 545 354 188 18 60
275 488 314 127 18 45
387 860 336 51 40 28
218 297 252 130 97 65
354 882 249 85 76 74
265 362 354 155 113 93
416 516 249 75 11 29
229 221 291 108 89 69
355 677 183 131 96 59
243 71 255 84 47 36
300 172 309 105 88 70
171 422 275 118 15 38
290 11 269 112 66 37
232 158 241 116 93 65
342 670 222 85 43 39
290 867 352 172 127 108
325 397 294 119 97 72
252 247 286 94 75 53
205 337 284 117 91 63
420 531 344 177 22 58
239 97 244 96 51 45
430 491 209 200 21 47
212 212 254 114 92 67
243 98 222 134 23 42
239 102 249 111 53 51
215 307 295 114 92 67
371 842 203 81 68 61
250 442 213 51 34 37
398 787 198 64 49 39
241 107 239 113 55 52
172 419 276 111 19 34
235 252 295 99 79 57
245 627 249 83 27 39
259 307 289 91 73 51
228 172 242 121 95 63
252 182 242 131 102 67
320 742 198 54 36 38
480 508 229 107 20 39
254 267 254 137 107 74
450 833 239 94 75 58
405 714 159 93 70 44
315 519 321 81 43 40
189 416 294 96 78 62
237 414 209 99 51 45
239 162 281 109 90 69
258 292 279 115 89 60
204 367 264 107 87 66
242 102 225 132 9 41
214 292 290 115 92 67
261 613 360 179 116 94
245 292 304 77 62 43
335 637 231 102 24 32
203 411 320 122 97 69
207 583 342 115 22 44
218 629 320 62 42 39
245 102 223 117 54 56
211 212 259 112 91 68
265 787 235 75 60 53
180 482 324 61 31 35
356 552 321 106 10 39
222 218 241 123 96 63
220 757 345 169 121 91
425 519 264 86 17 32
245 107 224 119 60 61
344 673 220 82 49 45
309 262 348 124 97 64
252 99 222 148 17 44
316 515 327 98 55 49
207 232 263 113 91 66
295 8 279 87 51 37
290 414 222 131 33 31
194 437 320 125 7 36
440 539 319 77 19 31
256 98 222 147 8 42
213 386 321 120 95 68
328 424 261 100 84 68
250 107 223 128 66 65
274 866 346 130 98 80
253 116 236 135 91 65
396 772 199 58 43 35
305 82 279 109 90 68
252 859 313 109 77 57
337 542 381 45 25 23
397 790 213 99 70 53
233 160 276 107 89 70
361 519 274 60 41 29
335 26 259 102 92 85
239 117 244 102 85 66
270 27 294 131 44 57
304 20 293 142 96 81
217 329 302 111 89 65
234 276 246 147 107 75
241 132 273 103 86 68
255 107 224 145 14 40
219 467 211 114 21 36
227 646 275 190 10 52
385 542 369 121 23 44
230 407 253 93 77 61
232 359 322 113 88 61
220 357 254 97 82 67
303 487 317 114 73 62
237 644 334 123 56 53
196 429 227 90 22 37
239 102 234 120 15 41
410 511 249 71 7 27
454 523 343 177 21 57
206 372 260 106 86 66
235 127 254 104 88 71
309 107 282 102 82 59
225 647 284 195 3 54
239 102 244 124 29 46
385 541 379 183 19 53
309 857 333 144 113 86
403 782 185 66 50 43
362 455 191 69 40 40
341 702 199 122 87 67
375 853 219 90 74 63
320 492 308 122 83 69
183 461 230 62 27 32
360 687 244 152 20 47
279 280 366 102 87 71
230 497 348 158 14 49
236 127 264 106 88 70
301 512 301 113 11 45
382 711 194 116 85 60
239 102 254 111 83 63
242 401 331 131 96 65
325 462 198 69 34 33
208 231 265 113 90 65
270 82 273 101 50 45
230 147 264 106 87 68
238 112 254 109 91 71
205 382 260 108 88 64
293 80 237 80 42 28
449 573 310 97 23 39
459 539 331 107 29 44
377 481 206 136 20 42
249 304 307 71 56 39
330 527 200 79 26 32
185 492 209 62 37 39
300 197 274 146 104 65
244 562 356 158 21 51
235 414 234 95 74 53
305 707 208 98 25 31
245 187 239 120 95 65
178 464 202 155 4 39
335 37 245 130 107 82
459 532 249 43 31 36
238 706 247 151 1 41
240 112 244 96 78 58
217 198 267 110 90 70
277 594 349 94 47 47
426 517 239 76 22 32
244 77 260 101 51 48
314 92 277 106 50 49
298 741 337 179 18 57
238 117 249 100 83 65
238 122 244 106 89 71
323 115 256 132 87 71
400 532 369 97 14 33
445 607 304 60 30 33
256 22 289 112 27 44
165 512 294 154 4 43
300 217 333 109 91 72
305 327 359 136 101 69
260 132 249 123 86 62
315 901 235 81 73 73
245 111 229 144 70 63
336 748 300 83 63 52
241 122 239 108 88 66
254 147 240 123 94 61
313 286 325 121 86 59
237 254 242 141 108 69
441 540 314 73 20 29
280 294 377 107 87 64
280 403 250 107 89 71
386 742 224 157 112 78
217 247 287 113 90 66
365 538 374 82 21 28
168 481 311 47 27 30
214 598 257 182 9 45
300 357 363 154 107 83
237 122 249 103 88 71
167 468 280 64 31 34
304 62 243 59 42 31
248 342 256 88 74 60
254 242 249 140 107 73
295 797 219 82 64 56
344 756 188 95 72 45
183 568 295 41 31 35
230 407 336 129 99 70
270 497 198 117 9 25
240 782 342 164 121 88
230 792 345 181 136 107
