ply
format ascii 1.0
comment Created by Open3D
element vertex 2212
property double x
property double y
property double z
property uchar red
property uchar green
property uchar blue
end_header
331 395 281 105 67 58
331 400 281 101 65 55
281 765 310 118 77 56
371 695 341 141 9 43
334 399 277 103 69 59
459 789 324 169 117 89
334 400 281 108 71 61
263 657 318 172 120 100
331 400 286 103 66 56
334 395 286 113 73 63
335 400 286 110 72 62
332 404 260 76 58 40
409 426 319 44 29 27
334 404 259 76 57 38
316 565 180 76 34 37
336 405 286 107 70 60
323 390 302 113 76 64
256 595 351 187 129 107
262 700 314 175 125 99
326 390 300 116 76 63
282 625 306 80 44 43
323 395 302 109 74 62
413 916 363 44 37 33
326 395 300 110 73 61
249 592 348 181 127 102
403 634 310 102 51 48
326 400 301 101 67 56
330 395 291 110 70 60
285 574 334 105 20 41
330 395 296 110 71 60
331 400 291 103 66 55
351 528 319 35 25 26
330 400 296 100 65 54
395 716 201 72 58 46
484 867 324 82 63 52
334 395 291 114 74 64
324 400 305 107 71 61
326 404 299 93 62 52
427 480 281 121 21 43
481 841 331 62 51 42
325 409 298 86 58 47
358 742 218 59 36 35
382 745 202 63 48 39
326 414 301 87 58 49
461 740 272 69 54 45
307 959 341 51 47 47
330 405 299 85 57 49
335 410 291 101 66 56
261 725 264 120 90 57
333 410 296 88 58 49
336 415 296 90 60 51
391 655 237 83 28 29
395 409 316 51 36 31
331 416 336 76 43 36
331 410 299 95 62 55
331 415 301 87 59 49
221 525 417 137 80 82
306 823 304 63 55 54
333 413 297 87 58 48
336 765 325 71 60 55
441 855 176 126 98 73
334 416 299 85 57 48
340 390 301 121 82 72
445 675 325 162 109 76
323 742 333 78 58 53
340 395 301 116 77 67
338 396 299 118 77 67
307 671 315 108 13 36
341 400 301 108 73 63
348 390 309 114 81 66
413 463 389 112 78 58
373 763 213 66 53 46
282 833 272 228 156 127
465 858 307 97 76 64
351 390 310 113 83 66
349 392 308 107 78 62
350 395 308 98 71 55
470 755 262 81 62 51
336 405 291 107 70 60
401 904 367 54 47 45
337 405 295 105 70 61
258 814 304 191 136 110
341 410 301 99 67 58
341 415 297 93 63 54
446 770 248 76 56 48
394 644 238 58 27 34
344 410 303 97 67 58
255 592 353 187 128 107
427 679 266 80 56 47
345 785 323 57 49 48
223 533 409 199 139 128
343 405 304 103 70 63
342 415 307 87 62 50
426 585 331 131 102 68
341 415 311 77 53 43
551 799 331 107 92 78
341 415 316 65 46 36
341 416 321 67 49 37
348 405 309 85 60 46
411 889 336 32 30 30
346 411 311 83 58 44
336 445 355 95 9 30
344 414 305 93 65 54
345 413 312 77 55 41
354 779 229 64 51 44
473 740 288 88 75 64
449 796 270 66 50 45
351 410 312 81 58 44
346 415 316 72 52 40
393 830 223 76 63 58
336 420 298 82 55 46
421 745 231 66 51 46
336 420 299 82 56 47
224 514 390 135 101 80
360 471 362 147 1 45
366 908 353 62 50 43
398 390 286 108 86 64
333 426 297 82 55 46
333 425 301 82 55 47
332 429 297 82 55 47
442 902 351 74 62 53
408 688 323 83 23 30
333 430 300 82 55 47
411 580 316 96 51 51
336 430 301 79 54 46
322 417 304 91 64 52
326 418 316 77 53 43
405 878 256 55 52 56
331 418 311 73 50 41
336 420 307 77 53 44
501 835 332 87 71 60
265 595 291 132 14 42
335 418 310 73 49 41
336 425 305 80 55 46
332 417 313 72 49 40
319 898 294 120 92 64
332 417 316 71 48 40
411 400 291 100 30 40
329 418 321 71 48 39
386 875 221 111 92 81
332 417 321 69 47 38
445 680 325 162 108 76
336 416 316 68 47 39
336 416 321 66 46 37
337 429 304 79 55 46
340 418 298 86 58 49
339 429 302 78 54 45
341 420 306 80 56 46
414 484 360 53 30 34
366 610 210 52 39 42
344 418 304 89 63 52
398 862 223 113 87 69
351 416 321 65 48 36
356 390 312 115 86 67
361 390 313 117 90 66
381 880 232 73 62 57
428 520 294 122 15 37
356 400 311 88 66 46
360 395 313 104 80 58
380 919 258 72 63 63
341 516 323 39 24 24
359 400 313 93 71 49
363 390 314 116 89 64
351 850 330 136 108 81
366 390 314 117 90 63
361 400 315 95 73 51
252 540 221 72 23 33
356 410 311 78 58 43
356 414 312 75 56 42
360 410 312 81 62 45
501 819 318 93 84 77
254 542 338 163 20 52
356 415 321 60 46 33
356 415 316 67 50 37
360 413 313 74 57 42
366 405 315 89 68 47
362 411 314 78 60 44
390 395 304 120 95 68
366 410 315 77 60 44
384 480 378 92 12 33
469 848 326 44 36 29
366 414 321 60 46 35
377 389 313 126 97 68
255 695 275 120 92 57
375 390 314 122 95 67
321 785 232 81 64 55
371 400 316 109 84 59
256 715 267 124 94 60
375 395 314 120 94 67
376 400 315 115 91 66
378 770 213 71 55 46
263 452 386 98 0 32
383 388 308 123 95 66
381 395 311 123 97 70
386 501 397 182 130 111
424 825 238 55 49 51
378 400 313 115 91 67
356 416 336 60 43 31
371 405 316 95 74 53
306 551 347 196 3 60
303 935 308 75 65 62
376 405 315 97 78 57
264 628 334 180 125 100
371 413 318 66 53 39
272 580 202 111 29 42
376 410 316 73 60 46
376 412 319 66 54 42
248 552 298 137 9 41
374 414 318 64 53 41
436 705 255 67 44 37
376 414 321 58 46 37
381 410 316 66 54 42
382 412 320 61 50 39
381 414 321 57 45 37
326 416 346 88 31 33
413 720 224 61 43 39
331 416 346 76 36 32
331 415 351 75 33 31
427 785 329 183 138 106
336 416 351 66 37 31
394 687 334 127 6 38
478 874 338 88 71 54
429 455 281 46 29 31
351 415 326 60 46 32
263 554 202 46 32 34
246 660 301 127 93 60
336 745 224 113 27 41
322 412 365 140 7 42
322 414 365 138 6 43
326 412 366 125 14 41
296 800 242 87 69 62
326 415 366 135 7 43
335 416 372 97 26 36
333 416 375 57 27 28
326 418 326 80 46 39
421 430 301 102 13 30
327 417 331 87 39 37
329 418 324 72 47 39
430 500 271 51 28 32
416 800 237 59 50 51
444 657 312 133 98 61
346 966 346 63 58 56
336 416 326 69 49 37
336 416 336 70 49 38
433 609 337 145 105 67
249 557 306 180 0 49
331 849 321 80 62 41
326 416 341 86 33 34
341 416 326 67 48 37
341 416 331 67 48 36
432 425 261 147 5 46
346 416 326 65 48 36
346 416 336 64 46 33
436 870 321 41 36 33
341 416 346 69 49 37
341 416 351 66 46 35
221 528 414 184 123 120
346 416 346 66 47 35
507 815 335 94 80 68
346 417 351 66 46 36
351 417 346 62 44 33
356 445 396 79 13 30
352 418 352 59 43 31
322 423 359 125 6 41
431 891 359 52 47 45
324 418 353 105 24 36
367 830 237 64 54 53
356 795 232 67 54 49
326 420 356 98 26 34
327 417 355 92 28 33
372 606 209 47 35 41
326 420 361 128 11 41
254 795 303 175 125 96
326 425 360 126 5 40
350 679 328 86 23 33
327 419 365 144 5 46
326 430 357 65 15 28
366 415 336 58 42 32
397 611 225 165 21 47
331 416 355 72 32 31
463 703 288 61 49 37
331 420 357 79 32 32
331 425 361 84 19 32
336 425 361 65 22 31
335 430 362 90 17 34
252 525 216 43 34 36
333 419 375 56 24 29
336 424 371 105 17 37
337 420 380 51 27 29
248 745 295 171 117 91
331 435 357 66 19 28
330 467 343 118 2 33
403 693 332 64 26 32
272 526 388 117 20 43
332 444 354 109 1 35
339 423 363 47 26 29
346 810 240 73 57 52
337 430 365 106 17 35
341 430 367 82 16 31
345 417 355 63 44 34
346 418 356 66 44 36
446 690 326 163 109 78
351 418 356 60 43 31
351 419 361 60 44 32
279 636 240 183 12 52
244 512 409 58 11 26
346 420 366 73 36 28
284 714 249 123 9 34
345 425 367 86 26 30
250 545 355 137 98 76
341 420 376 79 33 27
371 870 231 74 63 55
424 835 238 54 49 49
407 464 361 96 16 33
348 473 349 138 2 44
341 425 372 89 24 33
314 645 313 164 18 52
341 425 376 78 25 31
337 424 381 64 23 28
339 426 381 87 15 33
393 846 297 106 74 57
341 430 371 86 20 33
443 659 321 147 102 68
342 429 381 92 14 31
351 425 371 65 35 26
347 424 380 79 15 31
346 430 371 73 19 28
446 750 329 166 118 83
351 430 376 74 24 27
345 431 381 99 16 35
350 426 382 81 12 28
429 397 266 111 27 43
338 439 359 97 15 35
422 760 235 67 50 46
340 436 362 127 8 41
341 435 366 80 18 33
415 770 226 56 45 44
341 440 361 104 11 36
343 438 365 92 21 35
342 445 360 113 5 37
416 610 302 103 40 41
346 440 366 64 20 29
346 445 362 126 5 40
258 545 212 79 24 35
349 446 363 136 8 42
268 525 171 43 30 34
342 434 370 39 25 27
302 880 321 130 98 75
343 433 374 33 24 24
347 439 371 33 25 26
430 480 266 150 10 45
391 620 307 107 5 32
361 435 381 66 31 24
350 434 373 87 24 30
358 863 337 128 99 70
391 735 196 72 54 46
254 530 404 140 88 79
356 440 381 69 18 29
350 441 372 46 23 27
406 455 386 101 68 54
350 436 380 59 20 26
416 415 301 107 18 37
352 439 381 46 20 27
361 413 326 59 43 33
316 848 330 104 84 62
429 470 382 170 125 105
361 414 331 59 43 31
301 665 231 128 8 36
247 715 281 145 102 70
366 414 326 58 43 33
376 416 326 55 43 36
411 605 306 96 53 48
327 803 238 84 66 57
371 416 331 57 42 34
400 900 266 59 52 54
431 681 241 77 58 42
371 415 336 58 41 33
381 415 326 55 42 35
381 415 336 59 40 33
241 520 415 154 50 66
381 415 341 58 40 32
361 416 341 60 43 31
412 653 297 50 34 34
276 610 221 99 21 39
355 417 349 58 42 30
403 611 229 47 36 40
356 418 351 57 42 30
296 594 192 210 13 48
361 417 346 57 43 31
356 435 381 78 17 29
356 419 356 57 41 30
417 475 326 162 8 52
358 418 348 57 42 30
366 417 345 56 42 33
326 812 313 177 133 107
366 418 348 56 42 32
366 419 351 57 42 32
371 418 348 57 42 33
406 791 323 73 60 54
376 417 345 58 41 32
376 418 348 59 42 33
381 417 346 56 39 30
370 762 214 65 52 45
381 418 348 56 39 30
381 419 351 54 42 30
316 535 173 151 0 33
274 631 246 41 34 38
356 420 361 59 39 29
361 420 356 57 40 29
361 421 361 58 39 30
358 423 368 69 35 28
361 423 366 59 39 29
309 951 295 73 68 68
366 420 356 59 41 31
366 422 361 59 40 30
366 424 366 55 40 29
420 470 316 164 13 51
354 422 369 58 45 28
357 426 375 56 40 30
272 828 299 211 147 119
356 430 376 61 32 26
366 426 371 54 41 30
364 427 374 58 40 29
376 620 315 83 24 35
389 914 263 69 62 63
366 430 376 56 39 29
362 431 380 53 39 28
274 812 259 185 126 94
415 645 327 166 117 101
433 872 335 37 34 33
356 435 377 72 25 26
355 446 371 86 21 35
360 446 381 105 12 37
366 434 382 56 38 26
271 514 376 30 27 29
376 422 359 56 43 32
248 750 295 171 117 90
371 423 362 56 41 30
371 425 366 54 41 29
427 751 234 61 49 43
367 850 242 51 44 44
394 442 381 112 11 38
381 422 359 57 44 31
381 424 361 56 43 29
381 426 366 54 41 28
459 725 277 94 76 63
371 428 372 53 40 29
371 431 376 52 39 28
376 429 371 53 41 28
376 431 375 51 39 27
361 665 326 93 21 36
361 700 222 80 36 39
380 432 374 50 37 27
372 433 378 54 36 27
376 433 377 50 37 26
376 436 381 51 34 25
253 575 261 49 30 33
377 438 383 50 32 25
396 907 369 53 47 44
391 470 410 160 111 99
381 434 377 49 36 24
389 355 261 114 94 72
244 525 246 147 6 43
344 802 239 78 62 53
310 956 306 83 78 78
326 449 349 107 1 33
324 462 343 116 0 33
443 775 249 73 55 50
326 465 343 115 1 33
395 391 295 115 91 66
329 452 348 111 0 26
379 568 193 188 10 41
400 770 203 76 57 50
471 881 330 107 83 63
269 648 319 176 117 97
335 450 352 117 1 36
347 575 327 72 23 33
336 455 350 119 2 38
331 460 347 110 0 35
370 511 337 68 25 32
333 458 349 115 0 39
337 459 349 120 3 37
354 523 168 108 20 36
335 461 348 118 2 38
336 465 346 123 4 39
440 645 316 125 91 58
327 474 339 94 10 36
326 476 338 80 15 32
326 480 337 28 23 25
262 616 270 111 32 44
335 471 342 109 4 36
473 783 276 54 44 40
333 468 344 124 5 43
337 469 344 121 4 38
331 475 340 63 17 29
330 477 338 73 32 34
336 475 341 47 23 25
378 486 388 110 66 58
401 705 340 59 31 34
336 479 340 32 25 24
341 460 351 126 4 40
406 760 332 75 61 55
436 805 325 171 120 93
342 464 349 130 4 41
345 461 352 121 5 38
396 850 226 100 78 64
248 550 371 173 117 94
346 465 351 135 2 41
426 475 384 159 115 98
341 480 341 63 23 30
344 467 348 126 3 36
405 521 357 110 75 51
350 466 352 138 0 41
450 874 347 38 35 34
248 548 384 198 135 114
410 520 321 148 16 49
350 470 352 142 0 43
346 479 345 54 21 28
326 535 174 148 0 30
338 449 354 110 7 35
342 454 355 63 18 30
343 458 354 71 18 22
391 510 351 131 10 41
351 455 361 123 7 39
301 610 316 143 22 49
350 461 357 144 0 46
473 830 302 83 69 59
264 606 236 117 26 40
247 750 266 156 109 79
352 459 360 144 0 44
415 470 396 175 124 106
397 406 311 54 37 32
353 469 355 144 0 44
326 485 335 27 24 25
421 774 329 170 129 98
249 574 340 143 107 74
331 485 336 31 24 25
379 512 343 80 34 30
332 488 334 39 27 28
310 630 313 82 23 35
389 413 331 59 38 32
401 515 381 189 127 100
336 489 335 48 24 28
330 885 363 151 113 90
484 793 271 77 58 50
336 495 332 55 21 29
370 836 319 155 124 95
451 805 257 70 58 56
336 575 190 142 17 42
399 505 346 57 28 33
288 692 309 50 25 30
446 792 255 61 50 43
336 481 338 36 24 24
326 500 330 68 20 29
325 504 329 60 17 22
376 450 396 67 30 28
326 505 328 74 17 31
301 605 320 73 26 34
453 695 317 152 104 70
421 600 251 67 36 40
328 502 328 98 18 36
331 505 327 64 21 30
336 500 330 44 24 26
384 943 354 63 55 53
418 606 293 93 36 43
336 510 326 39 23 27
341 490 336 32 25 25
346 495 335 52 24 28
428 510 311 174 6 55
491 760 301 76 61 47
291 560 184 153 3 34
340 486 338 52 23 28
342 820 314 179 133 109
386 700 207 80 63 55
401 605 307 100 19 36
396 600 306 92 19 34
346 485 341 31 26 26
352 484 345 122 8 40
336 610 207 95 30 41
351 490 341 126 7 42
281 615 221 150 15 43
338 503 329 27 24 24
316 885 297 146 111 78
341 506 328 89 16 31
345 497 333 52 29 30
350 501 333 102 18 37
276 542 169 117 20 41
352 500 335 102 18 36
346 510 327 87 11 32
350 511 328 85 19 33
247 640 326 179 126 102
352 509 329 81 18 32
355 476 352 147 0 45
355 450 367 97 16 36
355 456 363 142 0 47
424 577 349 150 105 73
353 454 364 118 4 44
261 720 312 179 125 100
356 460 361 145 0 46
354 465 358 141 0 43
357 465 360 142 0 44
359 456 368 145 1 44
245 525 266 102 25 38
361 460 366 141 0 43
378 756 208 69 54 44
411 460 341 143 4 45
417 550 216 162 20 43
247 590 346 174 122 98
359 461 363 141 0 41
422 807 193 115 88 58
359 465 363 143 0 45
357 449 370 67 17 29
418 555 351 150 113 77
279 544 172 134 12 37
280 680 261 89 26 37
362 450 376 118 10 41
358 453 369 105 17 36
427 455 296 79 27 34
364 452 377 141 4 46
363 464 369 62 18 22
262 610 256 185 0 48
428 505 311 167 5 54
365 460 372 140 2 42
393 378 288 124 98 67
368 460 375 141 3 43
399 382 263 108 88 67
346 632 219 61 26 34
366 465 371 91 13 34
472 816 280 85 66 55
388 291 276 121 93 62
368 464 374 143 2 41
355 470 356 145 0 45
357 470 360 146 0 46
362 474 360 148 0 46
350 870 276 80 62 55
360 476 357 149 0 47
276 675 271 67 38 35
338 907 258 54 50 49
266 475 386 67 24 34
360 481 352 149 0 47
362 480 355 149 0 45
299 674 308 41 27 28
330 825 307 173 125 102
251 680 286 146 104 70
362 470 365 109 8 38
365 481 357 138 11 44
372 972 322 64 61 62
366 480 361 84 18 33
368 479 364 96 13 38
403 838 203 122 94 77
249 527 361 70 42 39
364 467 368 51 19 33
367 470 370 48 21 29
476 735 286 107 86 71
369 460 377 141 3 43
370 465 376 143 6 44
248 760 295 168 117 88
371 460 381 141 5 43
372 465 381 127 7 42
370 475 371 118 11 39
372 479 371 89 18 33
375 481 372 128 8 39
373 474 380 29 27 28
330 835 306 172 125 101
376 475 381 37 29 29
374 477 377 39 27 23
377 478 380 54 27 28
406 835 221 94 79 66
356 485 347 134 6 44
278 513 363 52 15 28
432 891 300 70 59 57
359 715 219 81 39 37
378 883 328 131 105 86
359 486 348 53 20 22
353 494 339 137 6 46
366 545 181 83 33 36
357 490 345 56 21 30
361 490 347 33 27 27
411 650 321 156 106 92
361 495 345 43 28 28
362 489 350 36 27 28
366 490 351 61 21 31
383 893 331 65 54 46
425 415 281 59 27 33
366 495 347 48 26 29
476 740 276 84 70 61
367 494 350 114 23 47
356 500 337 54 23 29
356 505 335 49 25 27
326 590 324 75 26 35
427 500 311 153 5 47
354 512 328 42 25 26
376 915 256 72 64 65
305 920 346 179 139 120
418 583 296 41 28 35
249 555 371 174 116 95
361 505 336 62 24 31
361 511 332 93 18 36
439 800 247 54 44 42
362 508 334 61 21 29
346 670 325 59 26 32
365 512 333 115 20 38
282 560 180 109 11 26
489 744 278 77 56 39
379 746 204 72 56 44
365 501 342 51 27 29
276 655 271 43 32 35
302 613 208 217 13 52
259 458 401 110 0 31
363 498 344 45 24 23
365 506 338 49 25 29
251 585 356 189 129 109
370 502 343 119 50 61
372 499 350 132 10 41
377 504 350 46 25 29
319 896 358 186 135 120
372 509 340 49 27 30
381 505 351 52 26 31
368 483 359 84 26 35
422 788 186 99 77 56
368 488 355 137 6 48
370 481 362 41 24 31
372 483 365 119 22 42
375 485 366 96 16 36
374 486 363 104 11 32
451 725 265 64 48 43
268 569 202 51 35 38
370 492 353 154 1 50
341 839 257 154 108 87
373 494 355 120 3 41
376 470 386 44 26 30
376 490 361 91 16 32
277 720 313 142 81 72
254 526 315 158 0 44
374 492 358 49 27 27
376 495 356 133 4 42
361 745 216 56 42 39
381 491 366 102 7 35
461 874 353 47 41 38
316 815 311 53 47 47
382 493 364 97 16 37
417 790 235 64 52 50
374 482 368 143 24 51
386 730 344 188 17 60
305 950 306 76 71 71
378 483 374 110 2 41
332 655 319 167 18 53
246 544 396 201 139 121
380 486 372 61 24 26
382 495 376 78 30 36
383 495 373 81 10 32
274 445 390 156 10 48
381 575 307 118 10 39
373 838 238 60 51 49
381 490 381 71 35 34
461 745 261 59 46 42
481 815 301 87 71 59
374 497 353 157 0 49
436 665 332 175 118 87
252 515 326 170 0 47
414 634 286 73 23 35
377 499 355 127 3 42
381 500 356 80 16 31
379 502 353 44 21 26
395 375 281 126 98 68
313 851 344 169 134 113
382 503 354 47 31 29
383 500 373 89 41 39
311 959 346 59 54 53
353 828 248 58 49 47
414 467 399 167 125 103
378 500 383 148 102 94
381 500 381 142 97 89
380 504 380 143 101 95
352 957 363 83 76 74
377 506 381 158 115 106
380 510 376 147 101 92
246 755 286 171 116 89
378 507 378 147 103 97
377 510 381 172 124 115
271 440 386 99 14 34
254 674 284 138 98 67
246 725 286 156 105 77
253 692 278 127 93 58
268 442 387 92 18 29
268 442 390 101 10 32
422 920 351 73 62 57
267 446 396 126 12 43
412 615 297 97 18 38
267 447 399 149 11 54
270 446 395 158 15 52
256 735 262 125 95 60
276 436 386 118 17 41
394 657 314 135 8 41
351 880 357 161 126 100
361 435 396 91 22 34
273 437 390 110 15 39
277 440 386 152 12 49
276 445 386 154 7 48
260 454 386 91 6 28
289 700 244 76 28 36
245 545 316 113 26 43
262 451 396 107 4 35
412 635 291 67 28 34
436 870 336 39 35 34
258 457 390 88 12 32
265 450 386 107 0 34
265 449 396 102 12 31
266 450 401 142 15 47
286 636 293 72 19 30
271 455 396 152 5 48
293 832 279 61 52 49
272 460 386 170 8 53
270 465 386 142 18 50
409 457 388 105 79 57
270 465 391 163 14 53
269 464 396 59 15 33
267 465 401 66 26 30
476 735 276 87 72 60
261 455 406 104 7 34
263 452 404 116 4 38
244 516 246 142 3 38
259 459 406 104 1 34
261 457 409 111 12 39
261 460 411 132 14 43
262 465 411 136 14 44
458 764 254 72 54 44
260 465 416 165 17 54
265 452 404 146 14 47
265 460 406 110 16 39
265 465 406 74 24 33
261 480 396 88 22 34
268 471 386 117 23 47
401 725 201 60 51 45
466 905 351 92 72 54
268 467 392 141 24 51
405 494 400 186 126 104
470 886 335 93 72 52
269 469 385 95 21 36
269 468 389 145 10 39
496 835 332 79 66 55
268 466 397 49 20 30
263 471 408 41 27 25
387 500 367 113 18 42
392 875 251 58 51 55
321 846 281 187 131 101
260 470 415 116 17 41
260 480 406 153 18 51
425 758 328 141 100 73
336 810 242 83 64 57
331 910 365 133 113 95
260 475 415 33 27 30
259 479 415 31 27 29
261 475 411 66 28 33
406 530 331 60 27 34
264 470 406 50 25 28
274 450 386 156 1 49
257 480 416 56 22 33
259 484 390 115 13 41
271 555 176 177 12 46
260 485 386 150 15 48
356 585 191 193 10 41
267 551 378 92 49 53
258 486 392 161 13 51
258 491 387 155 10 47
259 489 385 156 13 50
460 765 325 166 114 82
259 483 406 174 16 56
259 483 409 174 19 45
391 419 351 52 38 28
258 482 412 83 16 35
259 507 384 89 27 34
399 933 345 54 47 47
257 509 387 74 20 30
259 512 390 64 20 26
341 421 385 81 24 33
269 530 169 68 36 37
341 425 386 111 10 38
264 543 389 179 130 118
446 686 271 118 90 60
392 390 297 117 94 67
346 424 387 100 13 34
345 430 386 97 13 35
351 426 390 82 17 30
457 690 266 64 51 40
351 429 392 96 11 34
347 434 386 67 20 31
421 520 311 170 8 54
350 436 392 72 21 32
352 440 386 77 15 30
453 743 251 71 54 46
352 435 395 86 16 34
249 532 409 162 110 98
353 439 395 118 12 41
353 428 384 82 19 23
401 875 315 33 31 32
356 430 386 79 10 29
264 555 200 99 26 35
357 429 391 80 16 25
357 434 385 77 15 32
356 435 397 62 22 27
244 655 311 168 120 90
355 440 397 103 17 37
354 442 386 87 22 39
357 445 391 113 13 39
357 444 386 77 11 32
357 445 399 55 24 28
361 445 401 84 20 33
348 573 188 122 10 34
305 955 341 54 51 53
362 435 390 75 8 30
305 961 326 72 67 69
323 943 273 80 73 75
366 440 386 77 26 26
364 437 392 76 8 27
328 848 343 117 95 72
366 440 391 75 18 26
421 675 246 76 54 41
364 437 395 93 23 37
249 690 290 147 101 70
366 440 396 87 24 32
444 854 277 62 52 50
498 817 319 88 79 72
440 810 247 64 52 50
368 444 390 86 14 27
368 444 397 67 24 28
446 875 301 69 57 54
370 437 384 58 33 24
376 440 386 52 34 23
370 444 388 80 26 32
371 445 391 88 16 27
376 443 388 58 31 24
376 445 390 79 24 27
369 442 393 76 0 35
255 525 211 123 16 36
369 442 394 67 22 31
370 445 396 67 31 28
429 514 279 90 35 43
381 445 391 64 34 30
382 447 394 64 20 31
360 450 396 101 10 34
424 482 306 158 14 49
358 448 399 61 13 27
501 825 321 85 73 62
363 453 392 147 7 46
451 831 309 47 39 35
526 805 331 104 89 75
364 452 389 146 6 47
471 903 348 98 76 62
363 454 396 142 9 47
331 570 186 120 26 39
363 453 400 147 12 51
351 835 255 89 67 59
365 456 396 153 13 48
367 459 396 149 10 43
367 460 400 166 19 55
366 450 401 89 19 36
248 705 291 153 104 75
372 449 397 56 34 28
376 455 400 72 27 30
369 457 390 156 16 50
374 462 387 142 6 48
240 536 375 176 120 98
375 465 386 82 8 29
374 462 390 143 6 50
370 461 396 132 6 41
370 460 402 160 16 50
373 464 404 163 19 56
405 411 320 47 30 29
444 706 258 71 47 38
321 679 323 138 11 43
376 458 403 100 19 34
376 465 405 163 17 52
334 552 334 139 5 45
341 926 256 92 81 80
374 467 401 90 36 47
376 470 401 112 62 71
259 577 293 41 24 27
412 921 326 64 56 54
377 470 391 69 31 34
380 475 386 53 27 30
379 475 389 84 49 47
316 740 226 139 12 36
310 622 214 114 14 35
376 691 339 133 9 41
388 786 208 85 64 51
378 473 400 125 66 71
252 680 310 180 124 100
259 570 326 98 17 32
380 476 401 128 47 58
264 576 314 147 13 41
466 715 296 69 52 36
377 480 396 147 99 87
379 476 398 131 88 76
381 470 406 170 20 55
377 490 387 110 67 57
443 857 325 36 32 30
376 495 386 134 87 79
376 490 396 149 104 88
376 495 396 177 125 112
381 485 386 87 39 43
414 817 313 56 48 45
257 745 305 174 122 96
401 720 340 43 29 32
380 489 385 85 51 37
381 490 398 125 85 71
376 500 386 162 114 104
476 801 265 75 59 51
376 500 391 186 132 121
377 504 390 193 138 124
396 897 354 35 31 32
264 540 191 138 12 40
402 606 225 72 35 41
380 506 392 192 134 118
381 511 387 198 142 126
478 802 269 76 60 52
381 509 390 192 135 118
388 262 259 142 106 70
388 266 259 141 106 71
385 270 257 141 106 70
325 858 305 102 76 51
371 971 291 86 81 82
389 270 262 142 102 69
341 545 178 157 1 34
341 630 217 58 36 40
391 270 266 143 102 69
395 260 276 132 96 62
421 840 206 111 85 62
395 260 281 131 96 65
394 265 281 133 97 65
393 265 287 132 99 66
394 268 273 133 94 60
394 268 276 135 96 63
223 529 392 211 142 121
411 620 246 100 35 44
392 270 286 135 99 67
384 274 258 142 106 71
408 887 329 29 28 28
387 275 261 144 106 72
384 278 258 145 108 71
386 280 261 145 106 73
381 775 212 71 54 45
389 274 263 144 103 71
426 850 305 36 32 30
256 605 346 186 131 107
286 834 271 224 154 122
388 280 265 143 103 71
315 604 324 135 30 52
390 275 266 143 102 70
388 277 264 145 105 73
316 550 347 175 6 54
390 280 271 132 95 64
387 889 251 63 56 58
401 445 351 116 5 36
385 285 262 145 108 73
404 625 317 139 93 81
388 286 270 132 97 64
399 470 409 143 107 86
371 760 332 73 61 55
389 283 268 139 100 69
391 275 286 138 99 69
336 970 296 102 96 98
451 864 337 36 31 29
392 275 281 136 97 65
332 925 257 86 76 74
390 285 281 132 94 63
477 835 296 85 67 54
389 285 286 136 97 68
356 775 226 67 52 46
388 286 287 137 98 69
481 919 365 83 71 62
390 265 290 131 99 67
422 575 236 159 18 42
476 846 336 52 44 36
385 270 295 128 96 64
364 876 340 136 102 78
388 270 292 129 97 67
411 855 212 106 82 66
387 280 292 135 99 70
389 275 290 137 100 71
356 955 276 91 85 89
387 285 291 135 99 71
384 285 294 129 97 67
331 561 333 195 6 63
400 645 305 45 24 25
384 290 263 135 104 72
311 850 336 154 119 97
386 295 266 123 98 69
326 750 329 79 66 57
382 907 254 69 60 62
345 551 179 46 29 37
421 699 245 67 49 38
388 290 271 127 96 64
384 300 263 115 92 65
401 565 306 80 24 37
264 566 210 41 32 34
384 305 263 121 96 68
387 300 271 123 97 67
369 588 198 177 7 41
346 971 296 93 87 88
386 305 266 127 101 71
388 291 281 128 93 65
388 295 276 118 91 62
388 295 281 123 93 64
388 290 286 134 97 67
389 289 285 134 97 67
387 305 276 127 96 66
389 903 358 33 31 32
388 300 281 121 93 63
385 310 262 123 97 68
387 310 271 131 101 71
384 315 263 121 97 69
384 320 262 117 95 70
387 315 271 128 98 69
456 748 259 64 48 41
418 610 250 104 29 39
386 320 266 126 100 70
331 604 202 149 25 44
365 688 224 98 29 33
387 310 276 124 96 66
253 555 276 99 26 39
387 310 281 120 94 63
387 310 286 124 96 64
381 560 190 183 13 42
436 730 330 180 126 95
400 417 340 64 37 31
323 912 277 86 69 57
387 315 276 118 93 64
269 545 380 105 23 38
387 315 281 120 94 64
455 720 271 65 50 40
401 884 322 32 30 31
387 320 276 116 92 64
387 320 286 126 98 66
386 290 291 134 100 69
385 295 291 133 100 68
247 540 241 169 0 44
424 858 207 90 76 66
386 300 291 131 98 68
482 761 279 103 76 54
253 804 273 188 128 99
384 300 294 133 100 69
384 310 294 135 103 73
384 315 294 135 103 73
272 780 248 151 105 68
263 604 237 162 12 47
384 320 294 135 102 73
386 325 266 120 96 68
385 330 261 109 90 69
385 335 261 107 89 69
420 837 204 91 73 61
387 335 271 119 96 71
468 831 284 85 67 56
341 825 251 83 64 55
390 345 281 127 99 67
388 330 276 120 96 67
245 600 336 156 111 81
388 329 281 124 98 67
427 916 346 72 61 55
389 332 278 122 96 66
389 335 281 125 98 67
253 814 291 203 142 115
387 340 266 116 95 70
388 344 265 117 96 72
388 339 270 119 96 70
341 950 367 78 71 70
389 342 268 118 95 71
390 345 271 122 98 71
386 830 230 66 55 53
420 477 378 79 55 38
391 350 271 124 99 70
427 545 276 146 14 40
391 893 346 36 30 31
389 337 273 121 97 70
391 564 193 112 33 43
247 544 326 68 31 36
391 345 276 123 97 68
388 340 287 133 104 72
296 700 236 135 8 36
389 345 285 130 101 68
388 345 287 131 102 70
374 791 214 58 48 42
392 350 276 124 98 68
249 795 291 183 128 98
403 610 312 93 48 38
391 410 321 51 35 31
391 350 281 128 100 68
428 545 286 43 32 34
390 350 286 131 101 69
281 685 307 123 86 73
388 350 288 132 104 72
248 564 286 119 18 43
384 325 294 136 102 75
386 335 291 137 103 74
384 335 294 139 106 75
248 790 291 180 125 96
386 350 291 134 105 72
258 599 266 152 5 44
243 625 320 155 111 80
326 849 347 140 114 89
220 519 400 121 92 66
388 354 259 110 91 72
371 910 356 40 36 37
391 355 266 120 97 72
430 490 266 75 27 36
387 412 325 55 37 32
476 745 276 98 86 77
392 355 271 123 98 70
540 794 334 106 92 79
300 930 331 181 137 115
461 745 271 72 56 47
392 365 261 111 92 70
253 545 276 94 26 39
393 358 270 123 98 70
260 599 315 98 76 47
394 360 271 122 98 70
278 584 197 95 32 42
294 822 254 66 54 54
394 367 263 114 94 70
321 565 335 191 3 61
248 679 305 184 125 101
390 355 286 131 101 68
392 365 286 131 101 68
393 355 276 124 98 68
251 531 351 115 25 43
281 615 316 132 43 55
393 358 276 125 99 68
411 485 396 156 106 85
394 360 276 124 98 68
395 365 276 124 98 68
393 365 283 130 102 69
340 904 364 163 123 101
393 369 260 109 90 69
394 371 262 112 92 70
301 600 196 214 13 48
395 370 266 118 95 71
396 370 271 119 95 68
397 375 271 117 94 67
252 800 300 181 129 101
398 379 266 111 90 67
398 379 271 116 93 67
366 910 356 43 38 37
399 381 266 110 89 66
399 381 270 113 91 66
399 385 271 111 89 66
351 610 321 35 30 31
392 370 286 129 101 68
396 370 276 123 97 66
395 370 281 127 100 68
393 368 283 130 102 69
344 597 323 147 29 55
393 375 287 127 100 68
241 539 405 168 115 98
296 520 346 121 2 38
394 375 285 127 100 68
396 380 281 122 97 67
401 545 185 143 25 43
398 385 281 117 93 67
385 360 296 130 101 68
409 546 343 97 74 48
389 361 289 133 102 69
386 365 296 129 100 66
384 361 299 127 99 66
384 365 300 126 99 67
388 369 293 129 101 68
410 774 222 55 46 44
387 370 296 127 99 65
391 375 291 126 99 67
255 535 306 102 20 34
385 370 301 126 98 66
388 375 296 124 97 66
392 380 291 122 96 67
291 770 317 47 42 42
311 590 191 186 6 38
387 380 301 122 96 64
386 543 183 167 10 35
388 384 302 121 95 65
270 605 340 173 122 102
389 382 299 122 96 66
395 385 290 118 94 67
399 387 257 92 78 63
401 395 281 73 63 53
406 530 326 43 28 31
398 393 283 92 77 60
400 396 286 76 66 54
371 790 325 160 121 105
401 390 266 88 74 60
315 548 349 177 12 56
403 398 260 73 57 45
406 400 261 87 52 44
404 397 262 70 58 42
436 695 332 177 119 89
404 397 266 72 60 42
410 865 211 111 88 72
254 535 404 168 125 114
409 415 314 127 20 47
404 397 271 77 57 42
416 399 261 98 43 38
416 398 266 110 36 38
386 885 236 73 61 57
346 619 212 146 21 42
403 398 276 71 57 44
403 398 281 69 62 54
406 400 276 85 45 38
405 400 281 74 48 42
405 400 286 72 55 47
441 790 246 61 50 44
416 399 276 114 25 38
269 629 329 170 118 97
481 855 306 95 72 60
228 515 377 146 104 86
254 535 215 112 9 36
411 400 261 96 48 42
411 400 281 90 36 38
411 401 286 102 36 40
258 595 246 83 27 39
392 395 301 117 93 67
414 540 201 64 31 37
395 395 296 108 87 64
417 480 375 51 36 32
445 855 281 64 53 50
397 395 291 99 80 62
401 399 291 72 63 54
397 399 296 84 70 56
411 874 241 65 57 55
393 394 298 116 92 65
389 391 304 122 96 68
250 660 295 131 93 62
401 401 301 67 57 47
266 620 256 147 16 48
386 405 310 80 66 51
217 517 407 90 69 50
429 539 270 147 21 46
388 410 308 67 55 43
391 410 307 61 48 39
390 413 308 61 51 40
391 415 311 55 42 35
431 440 261 123 13 39
302 715 334 147 18 48
392 412 310 56 41 36
226 520 381 161 111 91
276 640 316 170 116 99
385 411 316 60 50 39
387 414 316 55 44 35
260 575 221 56 31 35
397 674 240 82 31 37
271 695 270 94 70 44
472 755 266 71 56 45
392 410 316 52 35 31
391 415 316 53 37 32
315 864 305 121 92 66
396 405 306 62 49 41
396 407 316 52 39 32
394 409 307 57 43 36
394 414 314 55 34 30
418 835 254 49 43 45
361 835 321 162 127 99
256 549 331 173 8 53
359 746 219 59 42 40
256 565 301 176 0 52
399 408 317 56 44 36
401 409 321 51 36 30
372 884 333 135 107 79
406 401 296 68 57 44
406 401 301 67 49 39
246 760 286 173 119 90
416 401 291 107 18 38
440 878 292 63 52 51
412 403 302 107 18 39
415 410 301 94 20 34
413 413 303 123 17 49
416 575 321 85 56 39
471 799 257 79 62 54
405 402 304 60 47 40
406 403 306 69 35 31
251 550 381 198 131 112
405 407 315 89 34 37
407 410 316 52 29 31
406 415 321 49 28 28
409 407 310 97 19 31
444 893 328 76 62 57
411 410 311 66 25 30
414 416 305 130 9 39
329 523 173 127 9 22
408 408 313 103 30 51
406 420 321 89 24 35
331 660 319 159 10 50
396 451 400 113 92 72
407 425 321 71 27 30
253 574 290 35 26 31
411 420 311 57 25 29
410 855 215 107 79 65
356 971 336 55 50 49
412 425 311 47 27 28
413 420 307 93 21 34
246 545 321 66 30 37
413 425 308 83 18 34
248 560 290 114 20 40
415 425 306 110 13 37
241 530 410 180 126 113
409 420 315 82 20 30
408 423 318 73 26 32
317 670 223 131 11 34
422 910 311 65 57 59
346 725 332 134 17 44
306 535 175 139 4 34
412 430 312 53 27 30
250 670 291 145 103 71
414 431 310 66 27 28
363 868 333 145 110 83
411 430 316 51 28 30
409 431 320 69 25 33
412 435 316 80 27 33
364 882 344 141 105 80
410 435 321 77 25 34
301 945 316 86 78 75
414 436 315 93 20 31
404 584 213 43 33 37
399 505 350 44 26 30
413 439 318 65 24 32
336 958 360 63 56 54
331 520 322 60 20 30
255 581 287 134 20 47
417 445 316 69 26 33
478 857 334 81 62 54
296 710 330 130 12 42
421 396 261 101 33 39
418 397 266 113 34 38
418 397 270 120 26 35
386 428 368 49 37 24
230 518 424 85 32 42
429 397 261 60 24 32
271 635 271 116 19 37
248 550 356 163 116 92
426 397 271 142 11 42
428 398 271 137 13 43
421 397 275 132 12 38
421 398 277 126 15 39
428 540 276 160 16 45
432 405 261 115 20 41
243 528 368 166 114 98
270 560 186 175 11 48
431 405 266 113 23 39
310 920 296 63 58 57
430 405 271 141 16 46
432 410 261 125 17 40
431 410 266 93 25 37
430 415 271 118 15 39
423 409 282 45 29 32
407 459 385 97 59 53
381 699 207 81 66 59
421 410 286 58 27 32
422 415 286 76 27 34
424 405 280 93 24 36
429 400 274 131 15 39
403 524 351 131 33 45
428 408 273 114 22 39
429 412 274 112 25 40
376 918 373 44 40 40
429 416 275 121 14 38
424 416 284 59 30 32
432 415 261 99 21 36
321 900 291 107 84 61
447 690 261 107 80 52
419 402 289 97 18 37
418 405 292 106 22 37
296 705 236 131 5 34
418 409 292 84 24 31
420 415 291 69 27 31
431 430 271 134 9 41
418 920 306 68 60 62
425 420 286 48 29 32
427 430 286 78 26 35
381 811 225 63 53 50
432 430 261 146 8 43
432 435 261 143 11 43
431 435 266 118 18 40
430 440 266 92 26 37
431 445 261 72 23 33
481 780 295 75 58 46
429 445 271 62 28 32
256 540 291 75 32 36
336 846 266 171 117 90
430 435 276 93 25 36
429 435 281 78 25 32
366 790 221 55 45 41
429 440 281 76 30 36
428 435 283 93 23 37
392 505 356 112 15 38
428 445 288 54 31 34
432 420 261 143 10 44
422 420 291 73 25 33
358 765 222 66 51 47
422 425 296 106 17 34
254 516 319 169 0 47
418 418 298 106 19 36
419 422 299 123 18 36
260 560 215 96 32 41
420 425 300 117 12 35
424 427 294 106 19 35
316 585 327 161 17 52
476 810 276 82 63 53
253 515 212 37 33 35
391 961 306 67 61 61
424 430 295 117 11 34
422 435 301 85 20 30
427 435 291 111 19 36
331 610 206 96 34 42
425 435 296 118 8 32
425 440 296 101 18 32
411 480 396 158 108 89
424 440 300 50 26 30
306 826 302 67 58 55
426 445 296 78 24 33
271 765 312 177 129 101
429 535 241 104 27 41
303 945 307 63 60 61
418 434 307 67 25 32
420 435 305 55 27 31
419 441 310 45 27 32
422 445 306 35 28 32
427 500 306 155 11 47
366 765 217 65 52 45
471 765 296 74 55 41
419 446 314 72 28 29
386 414 331 58 38 33
346 830 317 155 121 98
386 414 336 60 39 32
425 525 305 170 8 54
392 412 331 60 38 32
391 414 336 58 40 34
270 516 386 42 25 28
392 412 335 60 40 33
437 635 316 141 98 66
401 411 326 83 29 34
432 770 239 70 54 49
396 412 331 59 39 29
396 412 334 58 41 29
390 510 361 132 51 54
402 415 331 104 29 37
386 415 341 58 39 31
391 415 341 54 38 30
403 414 328 123 18 45
369 680 220 57 43 39
248 730 296 170 114 89
404 412 324 65 30 30
281 725 251 123 7 35
393 555 352 152 95 85
249 664 295 134 96 62
404 415 326 77 22 34
399 722 192 75 61 50
391 417 346 53 40 30
397 418 343 60 38 31
431 820 187 121 92 68
370 806 318 194 141 119
399 425 341 135 13 44
381 715 197 80 60 49
393 418 348 52 38 28
396 419 346 56 33 32
258 530 207 154 8 40
305 570 184 90 26 37
416 925 306 72 63 64
395 421 351 53 35 30
371 555 185 146 21 44
399 421 345 90 27 37
398 425 347 69 24 33
300 885 316 150 112 88
398 430 343 145 11 48
398 430 346 129 13 43
283 622 308 51 29 29
405 451 350 134 8 42
474 813 278 84 64 54
399 428 344 115 9 41
401 435 341 137 5 41
397 435 351 115 18 40
414 641 328 173 122 106
399 441 350 121 6 37
405 425 326 52 28 29
416 864 210 96 78 69
403 420 328 92 21 34
403 425 331 106 14 37
427 465 291 107 22 37
401 425 336 139 13 45
406 430 326 76 24 33
366 755 215 64 51 45
401 430 336 124 11 40
404 426 329 106 19 38
250 700 281 145 103 70
305 621 313 134 15 46
366 780 216 65 51 46
293 650 299 127 8 41
379 835 234 64 55 53
404 431 331 74 23 33
346 690 223 115 17 28
406 435 331 102 20 36
248 710 296 163 110 83
404 432 334 81 14 38
405 436 335 131 14 43
408 439 332 106 17 33
411 440 326 90 26 36
409 456 349 152 11 48
411 445 331 46 28 32
403 439 342 133 3 41
404 437 339 136 4 41
408 444 337 122 18 41
396 525 177 102 27 35
386 815 316 159 116 94
407 445 341 133 12 45
403 444 347 127 5 42
404 442 344 134 6 42
405 445 346 135 6 42
489 727 284 86 67 49
404 447 349 125 9 38
438 678 279 81 67 51
391 427 365 50 37 27
396 425 356 82 29 35
397 430 361 87 23 33
394 427 364 57 32 27
386 430 371 51 38 26
391 431 370 58 37 28
396 435 356 38 27 29
396 435 361 66 23 30
421 810 239 64 55 54
395 440 366 146 12 46
445 805 253 67 52 49
396 435 366 109 16 38
248 696 287 148 102 72
397 445 356 71 15 28
474 835 293 89 71 59
395 445 361 126 9 41
398 444 353 90 11 30
386 435 376 50 34 25
421 476 384 122 81 71
263 530 191 45 31 34
391 433 373 57 34 28
391 436 376 61 32 28
386 437 380 48 33 25
386 439 382 47 34 23
392 438 378 86 22 31
396 435 371 82 22 33
268 530 172 64 33 36
252 700 277 131 96 64
395 436 374 86 23 33
395 440 371 106 14 39
428 678 244 75 54 43
396 445 376 125 10 38
396 445 381 124 11 36
430 450 266 126 18 41
430 450 271 69 27 34
430 455 266 113 18 37
364 978 302 51 48 46
430 455 271 65 28 33
432 465 261 104 24 39
410 499 386 190 130 105
430 460 266 108 22 40
257 590 241 166 7 47
430 450 276 48 30 33
468 857 310 102 80 67
429 450 281 81 26 36
366 605 206 48 36 40
429 450 285 81 29 37
428 455 286 79 30 36
429 460 276 83 25 34
276 640 256 126 25 43
429 459 281 83 23 33
406 590 311 128 25 45
428 461 282 114 20 39
374 611 314 107 25 40
428 462 278 118 14 36
428 465 278 142 16 41
421 670 330 161 118 95
428 460 286 86 25 34
376 701 191 72 54 41
431 470 261 144 15 44
430 470 266 136 14 41
429 470 271 112 20 38
464 740 310 158 108 74
261 614 301 92 69 41
429 475 266 147 8 43
429 475 271 149 12 45
434 845 182 108 90 77
397 810 230 73 54 46
429 480 270 153 11 44
245 514 355 46 23 23
428 470 276 108 23 39
428 470 281 101 24 37
326 610 321 69 30 36
391 780 327 75 61 56
426 480 286 133 15 40
291 607 313 30 27 27
267 726 263 113 83 51
427 450 296 81 27 34
427 455 291 77 26 33
427 460 296 67 26 32
416 879 263 62 56 55
426 465 296 124 17 41
351 925 371 43 40 41
425 465 301 156 14 48
423 455 307 107 22 42
422 455 311 45 25 29
417 450 321 41 25 29
420 455 316 52 27 29
406 685 226 78 55 42
418 455 322 119 20 42
419 456 320 93 20 40
423 460 311 131 16 44
419 460 320 139 14 44
422 600 266 170 18 48
420 910 297 73 64 63
419 465 320 157 16 49
290 699 317 134 14 43
414 555 300 92 29 41
375 700 210 74 54 51
444 682 283 68 45 42
376 825 234 76 61 56
254 755 259 141 103 69
421 460 316 104 17 37
342 671 324 115 16 39
424 460 306 127 18 42
349 888 249 61 55 55
424 461 309 163 15 53
424 465 306 160 12 49
423 907 316 61 53 55
423 471 303 162 8 52
423 474 303 163 10 50
444 722 252 53 42 36
425 470 296 145 14 43
426 475 291 143 16 42
328 720 333 170 8 53
425 480 291 138 12 42
341 660 222 129 5 31
321 634 218 72 30 38
424 475 301 158 13 48
424 480 301 136 15 41
414 462 392 115 92 70
422 470 306 161 11 52
417 811 194 122 91 62
310 556 179 120 16 33
336 634 218 106 31 38
418 470 318 156 41 63
422 475 311 164 16 49
327 943 272 76 70 71
423 480 306 161 15 50
422 480 311 165 15 50
244 635 321 159 112 85
456 794 251 72 55 49
421 475 316 165 10 53
368 972 328 92 88 87
419 475 320 165 13 51
420 480 321 159 7 52
431 650 296 98 77 53
286 589 192 161 25 51
430 485 266 143 18 44
351 570 316 117 6 37
346 914 246 78 67 65
431 490 261 44 27 31
432 495 261 101 25 39
408 551 194 61 35 37
429 490 271 78 26 36
289 522 365 99 1 36
430 495 271 102 27 41
428 484 273 135 9 43
425 485 286 137 10 40
429 491 275 141 18 45
427 490 281 145 12 42
429 495 275 110 23 40
428 495 286 130 9 36
402 453 385 85 62 42
431 500 266 68 30 36
430 510 271 66 27 33
442 830 304 41 35 30
429 500 275 89 27 37
253 608 344 185 127 106
428 500 281 124 18 39
428 503 278 120 24 42
249 523 339 61 23 29
428 505 286 104 21 37
430 510 276 90 30 38
429 510 280 68 30 34
428 510 286 38 29 33
271 710 315 174 122 100
432 505 261 48 31 34
388 650 234 97 21 28
425 485 291 112 11 34
425 485 301 109 21 38
265 631 281 64 48 33
261 740 261 124 94 60
398 534 336 128 14 46
395 629 233 64 35 38
346 570 187 150 10 35
427 495 296 132 20 43
296 555 182 44 34 36
426 495 301 137 19 43
483 852 331 85 68 57
401 560 311 58 25 31
423 485 311 164 14 51
423 489 312 157 10 50
423 490 316 149 5 46
386 879 317 51 41 37
445 845 273 57 47 46
423 489 321 146 4 46
386 881 320 49 40 35
338 672 324 146 10 49
356 825 317 159 125 100
424 487 309 165 12 51
424 486 315 160 12 50
425 490 306 142 16 45
289 725 239 117 20 33
425 490 311 160 10 50
426 495 306 158 16 49
419 543 299 157 20 52
390 537 323 152 11 49
425 495 321 153 3 49
428 500 296 145 15 44
427 500 301 154 14 47
428 505 301 153 15 46
429 505 299 147 16 44
428 510 291 50 29 32
429 511 296 151 18 47
426 500 316 163 5 53
426 500 321 175 5 55
350 976 299 59 56 58
425 505 321 178 14 56
422 585 282 162 14 49
428 509 307 165 9 50
429 510 306 166 9 51
246 550 311 48 26 34
479 875 321 89 68 59
413 449 328 39 28 27
411 450 336 44 28 31
413 455 332 140 8 45
414 455 330 133 14 44
346 974 326 65 60 59
413 459 333 144 5 43
412 460 336 144 2 46
415 465 331 158 3 51
464 736 309 157 106 74
414 465 335 158 2 51
259 785 308 175 130 101
371 960 346 69 62 60
402 450 352 121 7 36
407 455 351 146 8 46
409 450 341 63 22 31
409 460 346 144 6 45
408 460 352 137 10 44
416 470 331 166 5 54
381 969 316 59 54 52
402 735 206 54 46 43
413 468 338 160 6 48
412 470 346 150 7 47
311 635 312 171 19 56
466 740 271 87 62 47
412 470 351 136 12 43
416 475 341 127 12 40
414 472 344 151 9 49
270 645 280 100 58 38
415 475 346 98 18 36
257 525 206 141 9 37
468 914 364 86 78 71
413 473 351 144 14 44
400 682 223 79 56 46
401 450 356 103 3 30
397 449 362 116 5 34
381 915 371 44 40 40
398 678 239 90 29 38
401 455 361 97 2 30
400 456 366 111 5 35
395 450 371 121 5 38
397 450 381 94 13 33
281 640 241 67 28 39
399 452 382 74 35 30
392 955 295 79 72 72
361 956 357 63 57 54
414 715 329 148 14 45
234 532 379 187 129 110
399 456 376 84 8 27
409 628 248 172 25 52
401 460 371 95 13 33
430 840 204 98 76 54
404 452 354 124 10 39
404 456 359 100 12 29
403 459 362 100 2 27
404 461 365 105 7 31
249 547 323 66 27 30
406 465 366 103 9 35
306 834 295 62 50 48
436 904 354 68 54 45
413 497 382 190 130 110
408 463 352 79 22 28
403 463 372 55 19 25
406 465 381 58 26 30
409 466 356 31 29 30
411 470 356 56 26 34
409 467 364 73 21 28
449 813 184 138 103 75
410 470 366 59 24 29
245 745 286 168 113 85
270 600 301 61 26 33
408 468 367 95 9 41
414 480 360 77 30 40
309 664 313 142 9 44
407 469 371 91 31 42
264 596 225 173 16 47
409 471 371 82 31 38
410 472 376 70 25 32
410 470 381 51 32 30
296 625 305 100 23 41
412 474 375 60 32 34
413 479 370 81 29 36
254 520 331 107 8 32
361 885 236 77 66 65
413 478 374 47 23 27
413 474 381 67 32 36
427 545 271 169 17 48
376 885 331 134 111 90
416 475 381 66 34 32
386 505 351 51 24 30
341 974 306 79 75 77
462 847 294 72 60 54
386 511 348 111 15 39
386 509 349 69 23 28
311 829 257 97 75 66
253 584 266 99 21 37
394 511 352 141 11 45
399 510 351 117 19 41
402 496 347 157 15 51
419 613 257 40 33 39
406 494 351 168 17 54
403 863 228 82 66 52
415 493 350 101 29 43
416 490 351 129 30 50
406 505 336 64 27 32
402 510 337 61 27 31
411 501 336 97 26 41
410 503 334 67 30 30
411 505 331 57 28 32
441 695 330 172 113 84
483 920 358 81 70 61
251 665 316 192 138 113
413 502 333 65 29 36
487 816 312 90 80 71
407 940 306 59 52 52
260 605 251 172 5 48
410 509 329 54 30 31
292 681 305 48 26 31
408 512 328 81 25 33
248 527 332 57 17 26
403 506 338 57 28 31
401 505 341 49 26 31
406 499 341 160 18 51
407 497 343 173 16 54
365 890 346 139 105 77
341 920 251 83 72 70
487 781 299 82 63 52
404 498 344 172 17 54
254 734 264 128 99 64
417 497 338 184 13 58
414 498 340 174 15 56
386 495 362 67 19 29
389 495 365 67 19 30
386 499 360 74 17 32
386 501 356 55 25 28
416 605 351 190 134 106
410 872 243 66 58 61
389 500 365 118 22 42
391 505 361 130 20 47
389 504 364 126 49 54
401 495 356 140 14 44
310 962 320 78 72 75
220 515 421 85 48 47
256 540 296 75 29 38
398 501 355 154 14 47
341 790 321 119 93 80
399 500 356 131 9 40
404 567 308 45 26 31
423 592 251 57 31 40
398 505 355 141 16 45
414 766 227 60 48 47
399 505 357 129 14 40
442 665 301 105 84 61
399 510 356 135 21 46
457 755 250 60 47 41
401 510 361 121 70 57
385 500 370 98 19 33
301 580 187 159 1 33
385 505 370 109 54 53
321 881 355 134 103 83
402 492 361 93 19 34
403 495 364 89 15 30
403 492 364 88 26 36
336 630 217 76 38 41
252 514 402 50 27 27
411 485 366 42 30 34
411 491 356 96 27 39
366 972 332 82 77 76
381 940 272 72 64 65
263 515 191 140 2 36
410 489 360 113 36 48
412 485 369 39 30 30
412 495 371 131 97 78
351 515 167 104 22 35
415 490 372 105 77 60
228 533 388 206 140 119
415 495 376 182 131 110
406 500 366 123 74 64
406 505 366 142 100 81
403 508 364 127 88 66
405 510 366 142 104 79
408 506 370 181 134 110
408 506 377 185 128 105
405 510 381 187 126 99
410 500 371 164 124 103
336 590 324 98 36 46
408 502 369 159 119 98
409 504 376 195 140 116
413 497 374 175 130 110
408 502 382 187 129 105
414 498 377 198 141 119
331 810 315 179 130 108
418 460 323 153 17 49
417 460 326 153 15 51
261 770 255 143 103 67
418 465 322 153 15 50
386 660 320 137 7 41
291 619 217 72 27 35
417 465 326 154 8 48
423 573 343 144 109 71
418 469 322 165 18 53
396 890 331 30 29 30
418 476 322 163 11 52
418 479 326 152 7 48
400 515 177 122 17 35
257 540 211 155 10 41
436 801 328 177 128 101
417 475 336 153 12 48
418 479 331 147 10 46
307 660 227 152 0 37
427 465 381 144 105 86
471 720 271 93 69 46
342 703 334 157 33 59
411 870 312 34 32 31
427 462 382 141 102 86
421 475 381 113 76 60
429 466 382 152 111 89
426 475 381 137 95 77
407 787 224 54 44 44
424 480 378 117 81 65
247 665 311 190 132 107
429 474 382 168 123 106
421 485 336 51 26 29
421 485 331 121 13 37
421 495 336 186 14 58
419 482 341 48 27 31
419 485 346 49 29 33
419 482 349 46 29 26
420 494 340 191 15 59
418 491 347 154 24 55
419 488 349 81 23 32
446 775 331 178 128 96
422 505 326 118 23 46
262 600 236 124 19 42
272 610 296 46 27 29
461 720 281 95 75 59
421 500 331 164 16 55
420 498 334 175 15 58
420 711 232 58 46 38
417 512 323 42 28 31
420 509 325 46 29 32
423 507 323 133 23 48
424 504 324 184 11 58
417 490 375 147 109 89
429 873 277 64 54 52
420 489 380 191 135 118
276 745 312 157 100 83
366 974 326 79 73 72
386 444 391 59 33 29
391 441 385 51 31 22
387 446 395 81 55 50
250 535 361 86 60 43
391 446 396 113 99 86
391 447 399 146 129 117
246 665 306 178 125 98
394 442 384 62 31 23
386 449 397 70 43 36
391 450 400 129 99 84
397 449 391 50 27 26
400 451 386 87 71 56
399 452 396 84 49 42
429 514 306 171 7 55
399 452 400 108 89 69
297 835 276 86 63 58
391 455 402 99 60 54
386 459 402 77 54 42
415 749 227 60 48 45
454 736 262 59 49 42
345 885 271 52 47 47
386 465 406 122 85 72
402 645 303 42 23 24
390 459 403 73 46 36
268 537 378 127 10 44
321 645 220 68 33 34
391 461 405 89 66 51
256 735 306 176 122 96
396 454 403 132 102 80
396 460 406 106 76 62
401 465 407 123 90 71
341 690 331 38 28 30
366 710 342 77 25 36
391 466 410 126 96 76
388 470 409 146 94 85
386 475 406 151 27 52
444 835 272 58 47 47
387 479 405 113 46 48
391 475 410 175 119 107
255 820 291 215 149 119
396 470 410 158 114 97
401 470 408 116 81 65
383 797 219 61 50 46
396 480 410 173 119 101
434 842 186 101 88 79
399 475 409 163 116 98
401 480 407 146 103 85
398 575 346 170 114 100
403 453 392 93 79 65
365 703 220 90 40 44
406 455 391 108 89 71
402 454 396 74 38 29
406 456 395 96 76 60
399 644 243 153 24 51
410 460 387 109 75 60
409 457 391 114 95 75
416 465 391 116 86 66
411 460 396 120 100 80
412 464 398 135 107 82
260 530 201 153 6 39
415 465 396 151 114 92
282 715 314 106 28 36
408 464 403 139 106 80
440 764 242 78 58 51
281 519 371 40 26 25
412 470 385 66 41 35
413 471 398 177 126 107
413 474 385 53 29 32
415 475 391 159 117 98
412 475 397 170 117 100
414 474 395 183 129 113
394 958 303 65 60 60
414 478 394 183 128 113
355 958 360 74 68 67
503 826 330 87 73 61
407 480 401 162 115 92
384 636 314 140 9 43
390 485 407 149 101 90
388 490 404 147 101 91
391 490 406 174 123 111
393 872 250 57 50 55
390 496 403 191 135 118
404 930 292 74 63 61
388 493 404 171 122 108
351 655 322 154 20 50
401 695 336 93 22 36
431 879 342 37 34 33
396 485 410 172 120 104
255 604 314 109 86 58
399 485 409 167 117 94
396 490 408 182 123 109
401 490 406 176 120 97
401 496 402 192 131 108
395 870 251 60 54 58
496 820 320 90 84 78
400 494 405 198 135 114
393 488 409 178 129 114
396 488 409 176 121 107
251 535 276 72 26 35
386 499 400 180 128 111
412 665 261 39 34 37
386 504 395 195 138 119
478 777 273 62 49 42
390 502 398 196 139 118
443 785 244 76 57 51
329 925 259 79 70 67
391 505 395 200 140 117
386 510 390 194 137 115
248 780 296 173 121 92
391 510 391 199 140 112
386 507 393 195 139 116
404 611 337 181 126 109
468 770 302 130 84 57
396 504 395 195 133 108
364 948 273 87 80 82
402 500 396 192 130 105
282 570 338 85 22 36
397 502 398 193 130 108
252 580 271 173 4 50
381 935 370 60 54 52
396 510 390 187 129 101
256 590 322 105 80 51
397 507 393 191 130 104
407 485 402 162 114 91
409 485 399 158 108 88
316 565 336 200 8 64
413 481 393 174 122 106
253 650 288 157 110 81
446 705 261 75 55 42
410 495 391 190 126 105
414 489 389 184 126 106
414 494 385 190 129 111
410 490 396 180 121 101
409 489 399 184 126 107
411 819 206 138 113 96
409 494 395 191 128 107
405 485 404 155 113 86
