ply
format ascii 1.0
comment Created by Open3D
element vertex 2215
property double x
property double y
property double z
property uchar red
property uchar green
property uchar blue
end_header
307 314 240 86 76 65
238 149 243 111 92 73
233 654 222 171 6 45
335 12 282 123 31 51
213 254 232 122 96 67
259 879 307 162 127 96
353 705 290 84 11 30
361 701 186 73 59 47
343 35 229 113 98 82
312 26 274 126 43 54
249 654 208 163 2 40
221 508 99 141 7 42
336 283 284 128 97 65
328 72 255 116 68 60
343 28 276 146 17 56
221 238 214 121 94 61
178 499 202 106 26 39
191 794 282 179 124 96
234 154 241 111 92 72
223 234 211 123 94 61
250 14 276 124 90 79
308 79 237 116 21 41
237 158 244 111 92 72
217 384 216 99 83 67
384 459 171 123 7 41
298 919 203 80 72 71
381 796 165 100 76 61
374 499 202 125 6 34
267 892 216 50 48 51
335 183 264 118 96 71
231 270 260 128 99 74
250 132 244 117 94 69
355 659 217 80 31 36
274 739 193 129 13 36
267 365 214 85 73 62
225 229 209 124 95 60
302 309 292 117 88 62
409 459 202 41 32 36
289 664 194 99 24 32
274 84 227 122 23 44
249 134 245 117 94 69
296 289 253 99 82 65
217 499 103 153 1 45
246 526 110 174 6 38
272 304 237 88 77 67
221 375 213 100 85 69
280 793 198 83 65 57
205 439 281 77 25 33
254 10 262 98 63 57
284 689 193 104 18 29
242 138 244 114 94 72
245 139 245 115 94 72
384 838 282 74 58 44
266 52 200 117 102 86
220 204 227 113 92 69
242 142 244 114 94 73
244 219 258 120 97 72
329 924 248 78 70 72
229 359 212 94 82 70
259 224 247 118 91 64
398 679 237 138 101 70
249 324 276 134 93 74
394 459 142 145 20 38
273 54 212 74 36 30
290 314 267 113 83 64
324 444 79 208 18 44
305 940 298 59 54 51
250 244 258 122 96 67
262 838 264 139 102 81
244 144 246 115 94 72
319 864 261 35 31 28
314 779 192 75 59 51
277 517 292 170 104 89
274 384 232 118 85 65
267 189 222 115 91 65
336 553 271 106 54 46
243 19 267 118 64 60
264 199 237 111 88 64
266 329 269 106 70 51
292 473 315 141 45 58
224 934 237 59 55 58
249 139 245 118 95 70
214 784 303 176 129 99
258 149 212 119 93 62
227 214 249 115 94 71
244 444 107 83 42 36
414 790 211 112 80 62
371 678 265 154 103 84
225 174 217 112 92 72
270 505 110 101 34 39
373 584 212 138 15 42
329 35 268 139 26 54
333 503 295 186 129 110
319 23 282 126 79 68
249 144 245 118 94 69
236 446 99 94 24 32
291 318 267 113 81 65
244 899 313 189 138 120
221 405 204 91 80 69
269 919 308 65 57 53
260 484 302 83 21 32
254 139 243 120 93 65
308 573 154 142 2 35
248 289 214 85 72 59
254 144 243 119 93 65
305 955 278 66 60 59
244 874 243 121 97 70
253 249 256 120 94 66
322 802 190 53 47 46
241 146 245 113 93 72
221 250 250 118 94 68
216 560 174 72 18 27
234 214 206 120 94 63
258 432 146 93 69 52
423 748 162 96 72 58
244 149 246 114 93 71
217 218 228 113 91 67
383 569 237 52 27 33
333 74 251 125 16 45
220 549 295 44 27 30
319 821 264 157 112 90
410 464 207 89 25 38
230 494 116 129 3 38
245 198 254 119 97 73
353 862 257 40 29 32
341 471 105 176 9 41
334 794 273 71 56 50
249 149 246 117 94 68
269 314 221 86 76 66
244 199 205 117 94 66
224 414 282 85 66 48
250 847 229 181 122 94
184 459 191 146 0 33
270 414 206 89 74 58
214 669 302 152 108 82
244 154 247 115 94 71
306 596 284 162 14 52
249 154 247 117 94 69
231 450 115 93 10 38
244 214 203 123 97 65
280 424 247 59 47 38
261 240 215 103 83 62
350 693 283 131 7 39
249 159 247 116 93 68
352 738 190 61 41 38
255 149 242 116 90 62
224 174 222 114 95 74
320 860 169 72 61 57
379 714 177 88 68 48
303 214 237 111 89 62
294 664 193 93 28 35
267 30 229 58 36 28
336 911 290 91 78 74
252 149 245 117 93 65
285 599 289 146 15 49
251 911 214 55 49 46
250 265 211 92 77 61
255 154 242 114 90 62
346 344 262 124 98 69
176 483 199 81 26 38
383 502 209 103 3 29
226 405 280 126 98 72
379 429 163 99 17 35
302 433 282 117 9 35
314 839 182 57 52 54
234 484 117 136 0 41
214 429 182 135 5 34
316 124 241 109 83 62
234 434 285 92 27 38
301 854 269 131 101 83
280 39 257 128 19 47
249 164 248 117 94 69
218 304 237 119 93 64
270 525 292 155 91 75
336 109 220 118 84 61
175 439 202 113 15 39
359 428 272 77 60 39
248 902 220 141 97 72
303 214 247 109 87 63
235 164 208 121 96 65
254 435 142 89 70 55
216 282 240 131 98 73
336 56 254 127 86 72
282 417 242 77 58 47
239 319 215 91 76 60
339 874 297 44 38 35
319 814 268 174 128 105
234 534 132 57 25 31
315 144 227 114 88 57
234 169 208 123 96 64
395 835 236 176 116 94
279 679 296 145 11 46
247 438 156 94 17 32
359 589 191 180 17 40
253 204 251 114 90 62
339 204 268 123 99 73
196 574 267 76 30 34
239 164 206 125 98 64
326 846 249 50 41 32
239 169 206 124 96 62
244 169 206 127 99 64
262 93 193 142 14 41
234 174 208 125 97 62
180 494 198 65 27 34
239 174 206 126 98 62
234 399 282 137 104 77
228 164 217 109 91 72
256 264 254 115 89 62
329 27 280 127 60 58
211 726 252 103 23 39
264 49 256 125 95 75
206 584 198 45 34 37
260 134 217 119 91 63
181 444 189 61 29 33
230 164 213 107 89 69
193 539 267 83 24 35
183 474 242 83 22 35
230 169 212 109 90 67
319 300 300 116 87 62
202 831 277 220 150 124
222 314 221 118 92 63
217 344 231 108 87 63
274 973 238 72 67 69
399 429 197 85 32 36
316 55 212 74 56 41
208 609 264 60 27 32
226 170 218 112 93 73
403 459 262 83 21 35
380 565 243 86 30 39
196 789 252 178 123 90
219 304 227 120 93 64
226 166 222 111 92 72
219 415 193 94 80 65
284 943 316 60 50 46
272 56 204 75 51 36
225 169 222 113 94 73
321 477 294 139 83 74
360 876 300 48 42 38
343 15 281 114 43 49
402 716 201 55 46 38
231 175 209 122 96 64
274 384 242 98 73 54
282 977 257 67 62 62
274 951 220 97 92 94
384 484 266 154 18 50
232 169 210 117 94 66
254 610 176 167 23 49
383 801 164 88 65 48
274 334 257 82 65 52
234 184 207 125 97 62
284 934 324 55 52 52
389 464 271 70 28 33
276 59 217 91 39 34
239 514 101 142 12 40
221 544 163 89 16 37
248 966 304 63 56 55
234 274 210 102 81 58
280 422 243 62 49 40
347 293 266 127 98 64
369 579 252 72 52 38
250 734 305 92 19 37
234 374 207 90 79 69
244 484 137 72 19 33
275 465 302 59 25 30
399 474 201 169 20 42
331 886 205 67 61 59
388 534 246 54 25 32
239 179 206 126 98 62
231 179 209 125 98 65
378 708 201 79 62 46
393 479 167 124 21 43
401 815 221 132 89 70
230 184 208 125 98 65
192 544 264 93 24 39
227 189 210 120 96 67
249 390 203 96 83 71
234 379 279 129 99 72
255 919 203 67 60 60
214 408 273 102 81 62
225 189 213 114 92 68
234 359 211 91 80 70
234 239 204 125 94 57
230 189 209 125 98 65
247 475 141 95 15 33
242 483 146 93 14 33
271 85 239 114 83 65
234 174 246 115 96 76
274 349 262 86 61 44
264 94 197 131 12 37
288 432 107 84 70 54
249 514 308 157 48 64
314 768 190 122 21 39
244 179 251 117 95 72
357 690 209 50 32 30
244 249 206 106 85 60
324 417 187 102 86 68
249 164 206 129 100 66
276 602 164 199 30 56
249 169 206 129 101 66
245 228 259 121 97 70
244 174 206 128 99 65
249 174 206 128 99 65
219 474 83 139 5 37
259 437 122 84 64 50
293 379 267 119 82 66
239 459 162 60 29 32
406 495 222 179 18 53
408 839 277 108 80 67
254 174 208 129 100 64
256 719 199 145 1 37
294 894 187 83 70 64
274 444 274 93 9 32
220 579 297 136 110 85
341 214 225 121 96 64
249 179 207 126 98 64
239 269 209 93 76 57
327 386 213 105 90 75
346 494 269 94 21 39
364 529 264 146 8 45
241 351 275 121 92 64
259 10 277 134 94 84
240 564 310 154 117 92
240 774 209 68 56 49
253 179 208 127 99 65
340 702 294 132 6 43
217 334 243 126 97 69
256 179 210 128 99 64
199 414 227 78 35 36
232 674 225 98 25 39
402 813 212 99 72 60
249 239 205 119 94 64
225 474 168 68 30 30
227 168 228 109 90 70
257 886 310 159 120 94
228 164 232 110 91 70
225 564 142 92 20 33
292 512 119 142 45 54
227 169 232 111 91 70
260 436 127 86 66 53
372 836 184 79 67 58
228 913 304 115 92 73
347 244 234 120 95 64
397 508 245 68 26 32
240 634 303 165 114 86
230 164 237 113 93 71
223 354 263 116 92 65
226 171 230 111 92 71
240 439 169 97 15 33
413 439 197 70 32 34
248 464 280 27 25 25
369 824 156 96 76 63
225 174 227 112 92 71
299 440 307 77 24 32
227 174 233 111 91 70
228 174 237 114 93 72
349 594 273 119 68 56
371 514 197 40 25 31
230 169 241 115 95 74
389 485 205 110 10 26
216 344 233 114 91 66
223 319 221 117 92 64
234 454 118 105 15 38
258 209 208 124 97 65
323 379 213 103 89 75
223 489 109 145 0 43
191 759 290 174 119 93
230 174 242 116 96 75
255 441 98 97 56 43
200 823 263 202 138 110
354 469 272 154 16 49
350 609 196 83 28 39
197 504 181 135 0 32
335 780 279 75 59 53
403 744 156 124 92 59
224 889 302 155 117 97
348 16 253 107 61 56
206 548 183 176 11 45
396 779 171 80 62 52
274 946 215 96 89 89
289 929 202 85 76 77
242 362 210 89 79 68
367 869 215 71 57 56
202 779 240 154 108 74
234 363 210 91 80 70
254 179 247 112 89 62
325 911 320 57 50 46
304 908 307 39 36 36
275 64 212 101 36 36
254 344 213 86 76 66
388 844 237 120 89 84
244 399 282 142 105 76
293 448 307 101 15 36
269 459 278 111 1 33
411 440 263 140 14 44
232 169 244 115 95 76
314 364 217 96 84 73
226 365 270 118 94 67
236 444 125 43 32 32
351 786 164 44 41 41
223 249 211 115 89 57
221 669 254 115 14 40
236 160 245 113 94 74
254 448 82 98 58 41
244 509 102 110 26 40
394 741 154 104 74 40
347 194 247 118 94 67
319 427 117 99 83 66
343 893 232 66 56 56
232 174 244 116 97 77
371 578 255 95 75 53
241 664 214 118 15 35
324 875 182 86 70 64
210 456 88 96 32 35
238 174 249 114 94 74
245 504 101 128 22 43
350 219 242 121 97 71
226 179 232 111 91 69
272 502 109 55 36 44
259 390 205 99 85 71
346 70 223 139 23 51
319 939 247 79 70 70
227 178 234 110 90 68
324 499 117 130 20 38
320 353 221 94 82 72
222 203 233 110 90 68
334 499 272 71 23 31
216 254 219 116 91 63
289 819 268 162 107 89
222 412 279 92 73 53
434 775 238 109 86 64
334 13 267 102 52 46
350 428 288 95 24 36
299 440 317 80 21 33
284 484 315 186 147 138
354 417 172 82 41 41
289 539 277 86 24 36
227 179 237 113 92 70
281 41 245 111 16 39
210 379 237 122 97 70
225 224 208 123 95 61
364 704 202 77 59 51
264 430 147 92 72 54
368 493 149 114 14 32
321 444 313 99 25 41
241 711 300 136 10 43
230 309 260 126 96 68
323 628 285 138 25 48
226 185 236 111 90 68
221 244 214 117 91 59
267 102 235 126 90 73
227 184 238 114 93 70
198 569 277 154 7 49
317 147 249 107 87 65
297 612 174 51 41 44
209 489 172 44 34 35
293 939 203 85 77 78
384 420 137 77 39 32
264 109 232 125 87 68
252 213 204 124 98 65
246 442 145 102 10 33
260 484 287 73 25 34
326 600 175 139 25 44
253 714 308 136 17 47
340 154 253 117 94 68
249 404 281 140 101 76
227 188 239 114 93 71
255 426 163 91 75 56
232 636 215 178 10 42
229 179 242 116 96 74
352 901 295 85 67 57
384 836 296 66 52 39
307 424 283 114 51 52
234 194 207 122 96 64
183 469 237 86 24 35
346 697 289 125 0 40
231 176 245 118 98 78
231 179 245 118 98 78
205 500 173 126 1 30
224 359 267 118 94 67
230 184 246 116 96 75
399 424 271 88 19 35
228 189 242 115 94 72
365 416 153 88 27 38
228 464 171 43 35 33
274 714 192 114 22 36
233 209 253 115 94 72
338 359 286 139 104 73
205 404 232 112 90 65
207 394 237 115 92 65
354 889 252 70 60 59
416 767 197 86 65 49
267 73 188 139 20 43
359 420 202 102 86 71
204 414 207 94 67 55
344 900 287 71 60 58
230 189 246 115 94 72
216 720 243 135 5 38
369 564 251 66 26 34
234 179 247 116 97 77
259 459 86 199 13 40
294 428 132 88 73 55
334 214 273 122 98 71
239 344 213 89 78 67
224 449 102 85 23 33
324 897 177 78 69 62
364 629 222 82 32 38
239 189 252 115 95 74
294 349 277 117 84 65
229 254 257 121 96 71
274 359 252 87 66 49
244 164 249 115 93 70
271 471 312 43 26 33
184 509 197 84 22 35
294 299 252 119 98 76
244 169 250 116 94 71
250 436 143 84 49 38
241 170 250 114 93 71
384 426 160 107 19 41
342 416 189 103 87 70
273 384 262 106 71 53
212 630 247 39 32 37
258 345 214 85 74 64
183 424 186 67 38 39
322 829 175 58 50 50
221 274 219 112 87 57
245 166 250 116 94 70
399 719 257 168 115 85
384 479 268 139 23 49
218 299 232 122 92 66
377 426 199 68 30 33
224 914 247 129 105 81
250 169 248 117 94 67
218 319 237 120 95 65
414 415 267 100 24 38
319 314 302 135 95 73
248 174 250 117 95 70
202 610 257 164 1 45
284 529 273 53 25 29
224 394 276 126 99 72
255 164 243 112 88 62
244 509 307 125 12 43
234 949 308 51 49 50
221 334 255 126 98 70
279 814 276 175 123 101
253 164 245 114 91 64
245 972 282 58 55 53
309 174 237 106 86 63
216 700 264 77 53 45
216 354 247 124 97 68
217 280 226 124 94 61
255 169 243 111 88 61
215 579 172 93 31 39
367 434 270 152 16 52
225 304 217 108 86 60
222 913 250 142 114 87
253 169 246 114 90 62
365 744 273 159 18 52
253 174 247 113 89 62
192 729 289 159 109 84
239 364 209 91 80 69
244 453 77 132 18 26
273 324 227 73 63 52
231 544 131 49 24 31
250 469 86 191 11 42
216 224 222 117 94 67
289 849 217 118 85 66
224 819 295 176 129 102
249 499 297 106 13 35
354 524 282 151 124 96
230 288 214 106 84 58
350 679 206 40 36 39
393 429 267 105 2 29
256 173 244 112 89 62
175 474 202 93 25 37
192 743 266 137 102 69
259 189 211 117 93 65
221 617 209 141 14 37
379 549 217 87 23 32
258 477 94 99 31 41
426 788 234 129 92 67
220 484 106 147 0 45
218 369 221 103 85 66
211 579 183 73 31 37
298 637 189 60 29 31
250 174 249 115 92 66
368 444 182 93 2 30
249 184 251 118 95 69
344 494 271 59 25 31
259 578 143 137 23 42
215 274 227 128 95 65
349 875 207 82 71 67
254 184 247 113 89 62
305 890 286 31 29 31
224 833 286 185 131 107
195 559 271 95 20 36
299 359 223 86 73 60
244 189 253 118 96 73
287 398 247 100 72 55
251 218 254 117 93 67
252 189 250 116 93 66
329 789 187 53 47 45
208 399 252 118 94 67
222 199 215 116 94 70
358 619 208 43 32 38
224 904 298 144 104 89
302 233 253 109 86 62
377 465 175 40 29 32
309 423 293 109 15 37
199 414 217 126 39 47
249 295 270 115 89 64
269 426 159 93 76 57
304 574 285 127 12 42
188 769 277 177 122 93
221 194 218 116 95 73
416 439 217 168 14 52
399 769 157 79 59 47
347 354 267 121 96 68
234 204 206 118 94 65
369 834 257 104 76 63
316 31 244 72 57 41
220 194 222 116 95 73
272 78 202 134 66 64
316 51 223 76 39 27
284 623 289 92 21 37
224 204 212 118 94 67
244 324 272 127 92 68
224 474 108 143 0 44
220 209 217 115 93 67
267 274 233 87 72 55
251 208 205 126 99 65
237 946 220 74 68 69
223 214 212 117 93 63
315 104 247 114 89 67
199 424 182 126 26 38
211 623 232 134 29 50
249 314 217 93 80 66
294 424 162 97 81 65
334 832 256 51 41 39
329 114 251 119 94 66
409 739 152 110 84 58
224 451 92 108 13 23
221 214 214 113 90 64
376 540 254 30 28 30
260 159 237 113 87 62
309 939 297 64 57 54
223 219 211 120 95 64
221 219 214 115 91 64
223 224 211 121 94 62
374 449 261 52 22 26
383 529 186 115 23 42
229 734 298 162 102 82
402 457 265 158 46 65
217 284 227 127 95 65
221 344 224 105 86 66
207 753 246 145 111 79
407 712 170 88 68 47
268 468 94 145 8 37
221 224 214 116 92 62
415 769 236 153 109 79
399 469 198 78 23 36
234 199 252 114 93 72
254 414 187 95 80 64
274 404 222 93 72 47
195 509 183 149 3 37
254 269 257 118 91 62
224 479 108 142 0 42
350 664 211 60 33 32
336 119 220 113 89 61
226 279 255 123 95 69
217 218 221 117 94 69
324 329 233 91 80 69
259 830 268 75 53 47
252 384 205 93 83 74
224 759 217 95 19 32
349 824 261 53 44 41
379 644 232 104 86 67
241 595 309 168 120 93
216 220 223 116 93 68
223 214 242 111 90 67
364 724 277 38 31 33
358 734 177 74 54 45
219 739 301 177 121 93
220 369 266 122 96 68
249 499 101 165 6 38
241 784 209 72 58 51
217 224 220 117 93 65
352 873 207 79 68 65
180 439 189 61 36 36
194 574 247 161 2 46
181 439 210 137 0 40
222 193 228 114 92 70
344 379 232 102 87 71
399 471 200 131 29 30
394 859 292 76 60 48
220 199 227 113 92 70
307 59 247 105 39 46
252 282 214 89 75 59
384 865 300 68 55 50
300 279 247 102 81 59
234 459 285 40 28 27
268 487 99 110 31 36
222 364 216 101 85 70
228 457 76 121 2 28
221 200 230 112 92 70
274 49 256 121 29 47
278 59 227 114 23 38
244 444 157 105 10 33
330 894 162 103 90 84
290 754 293 83 65 57
217 249 243 115 92 65
381 851 264 60 43 38
261 977 248 64 60 61
400 723 222 77 60 47
189 417 192 64 34 42
376 491 150 161 14 40
262 249 245 115 91 64
224 479 83 176 3 36
217 241 220 120 93 61
244 259 207 93 77 59
304 933 316 71 58 52
209 789 303 176 129 99
303 498 305 177 126 106
215 259 222 119 92 60
331 876 291 37 34 33
234 420 183 93 77 59
224 199 237 111 90 67
221 205 231 111 91 68
226 789 219 72 58 52
374 444 192 57 28 31
269 454 276 106 0 32
416 783 259 117 89 72
216 224 227 114 92 68
248 961 309 66 59 56
219 214 232 112 91 68
186 420 184 98 48 40
299 888 283 56 47 41
348 259 266 128 98 62
377 503 265 167 12 51
221 210 235 110 89 68
221 468 79 164 0 37
291 320 242 79 66 51
273 53 255 130 15 47
400 519 222 171 19 44
206 630 279 126 101 74
217 224 232 113 92 68
194 415 202 68 35 34
390 469 168 149 13 48
237 489 124 132 0 40
217 265 220 116 90 60
349 423 117 99 84 67
307 947 234 88 80 79
239 464 76 71 35 39
354 421 123 99 77 61
289 779 286 75 59 52
274 319 242 79 66 52
222 214 238 109 88 65
324 472 99 192 10 39
369 489 148 131 14 33
390 504 167 169 19 44
176 420 205 42 33 36
249 344 213 90 78 66
233 233 205 124 94 57
217 222 229 114 92 68
374 579 197 179 21 47
220 219 237 110 89 66
224 209 242 111 90 66
244 448 87 89 50 39
218 324 232 112 90 64
221 220 241 111 90 67
353 454 117 55 34 37
202 758 251 89 70 47
386 551 220 148 23 40
349 564 171 182 14 41
234 509 98 162 4 36
209 489 281 120 21 43
364 843 292 51 42 35
224 219 247 114 93 70
272 314 224 83 72 62
378 480 180 53 28 32
225 842 266 50 51 49
274 34 232 79 43 27
269 963 305 75 69 66
324 618 184 145 26 46
222 223 244 113 91 68
229 549 127 152 2 43
384 932 320 107 92 77
335 114 248 118 95 70
195 524 187 37 32 35
240 514 137 110 7 36
340 114 227 115 92 64
223 224 247 115 93 70
345 585 181 172 15 38
237 613 310 167 117 90
217 284 242 126 97 69
264 99 242 127 92 70
244 581 145 99 32 43
299 609 286 32 27 29
215 239 222 121 95 65
290 970 247 86 80 82
303 330 233 88 74 60
211 468 89 79 42 31
301 324 235 88 75 60
301 320 290 123 86 65
217 244 220 119 93 62
220 229 213 119 93 62
344 904 292 90 75 72
218 239 217 118 92 62
333 139 218 129 100 66
272 906 305 127 93 76
288 427 146 90 74 55
409 754 237 157 111 79
191 715 278 156 112 83
235 446 116 92 21 36
296 389 276 126 89 73
309 249 272 114 92 70
215 244 222 121 95 64
346 179 247 118 96 71
285 821 269 164 109 89
215 249 222 120 94 64
222 243 249 118 95 69
224 389 207 87 77 66
369 694 266 102 50 39
252 458 280 74 17 28
325 875 173 98 83 72
244 349 212 90 79 68
265 408 201 95 80 63
294 479 102 101 29 39
311 911 315 40 37 37
187 754 267 161 114 85
176 420 197 53 32 37
364 784 152 59 49 45
223 244 211 118 91 58
329 524 286 181 122 97
270 525 287 163 104 86
217 247 220 118 92 62
224 529 156 120 10 34
363 547 169 175 16 38
224 289 218 109 86 58
228 734 216 86 27 37
351 24 257 125 25 46
249 274 211 91 75 58
324 644 281 35 31 31
364 454 268 141 7 43
219 254 217 113 88 59
224 254 212 111 86 57
214 469 87 49 40 41
318 344 224 94 82 70
244 264 262 125 97 68
273 757 300 93 74 66
208 399 227 108 87 63
215 229 227 117 94 70
207 398 232 112 89 63
199 589 272 121 18 44
320 205 270 113 92 69
216 229 231 116 94 69
259 294 216 89 78 67
293 319 272 115 83 64
215 234 227 118 95 68
200 529 183 79 34 39
250 11 271 107 72 63
346 286 250 126 95 65
221 632 224 39 30 41
216 234 232 117 94 68
313 792 280 42 37 38
224 415 193 93 78 64
297 354 284 123 90 70
309 549 146 189 8 39
345 494 121 113 27 41
214 239 227 120 95 67
216 409 213 102 88 74
231 910 238 78 70 67
232 254 259 124 98 72
230 587 159 178 40 56
280 852 279 154 122 96
259 758 301 79 65 59
265 289 226 88 75 62
215 239 232 118 94 66
345 189 257 121 97 70
319 234 277 119 97 74
226 199 241 114 92 69
211 744 238 126 98 69
276 956 304 57 50 47
370 435 125 122 15 38
216 225 230 113 92 68
226 480 110 144 0 41
244 445 127 46 35 32
369 544 257 94 27 40
317 249 279 121 98 74
255 239 253 116 91 63
227 682 235 83 25 40
334 15 247 92 72 60
324 409 286 154 107 86
222 590 171 219 12 59
192 555 211 128 23 43
358 680 260 46 25 28
220 379 213 99 84 68
365 430 120 82 29 36
217 234 237 115 92 67
238 702 294 81 24 30
224 418 191 92 78 64
365 449 268 141 6 44
213 384 257 123 97 68
216 236 235 116 93 67
224 489 161 46 31 29
334 264 283 128 99 64
269 628 188 116 32 47
234 453 82 102 40 36
219 434 288 80 24 35
375 422 217 75 42 38
185 494 252 143 4 42
256 869 239 135 106 72
270 384 217 93 76 57
273 448 274 109 0 32
216 339 233 113 90 64
217 239 238 115 92 66
390 664 258 147 99 67
239 194 206 119 94 65
228 459 113 136 0 41
314 458 88 134 23 44
316 89 250 111 70 61
405 749 192 69 51 39
262 462 89 185 9 37
329 504 296 179 125 105
220 239 246 116 94 68
221 234 246 115 93 70
292 322 246 93 76 59
388 554 237 137 27 49
301 244 247 108 85 60
191 562 237 174 0 48
344 629 201 126 26 42
215 415 212 97 82 70
408 766 255 133 93 66
313 199 262 109 88 66
312 47 240 99 44 40
254 224 206 125 98 64
397 422 242 58 21 25
322 362 295 155 108 82
389 629 252 140 108 70
214 244 232 118 95 67
412 459 212 152 22 48
214 249 227 121 95 65
214 819 297 197 143 115
230 304 261 132 97 72
304 886 281 35 32 31
216 244 237 118 94 67
214 414 217 101 85 72
205 614 247 175 3 49
187 511 195 164 8 37
350 896 286 64 55 52
259 709 310 109 17 40
265 520 115 51 39 41
213 254 227 122 96 66
301 224 239 112 90 64
215 254 237 122 96 67
325 885 300 38 35 35
372 790 269 93 69 53
261 278 254 104 79 57
321 446 307 154 19 49
216 954 263 61 57 58
241 454 126 126 13 45
235 249 260 125 98 72
261 264 220 95 79 61
244 309 216 89 76 63
322 897 204 68 61 62
217 243 239 116 93 67
354 719 296 148 10 48
349 574 177 182 13 40
319 510 294 185 125 104
205 480 178 49 34 34
220 244 247 117 93 67
268 508 310 186 135 119
268 355 217 83 70 56
381 422 130 66 30 37
216 249 241 116 91 64
265 679 199 122 7 29
314 194 228 112 88 56
282 422 192 90 76 60
359 494 142 109 18 37
317 84 211 122 26 40
224 244 252 118 94 69
229 214 251 115 94 71
294 318 243 83 69 54
217 254 243 119 93 65
356 456 125 117 35 54
258 971 246 90 83 84
344 868 188 73 65 65
236 509 126 102 12 34
195 424 227 80 20 35
312 908 213 70 62 61
293 319 246 88 72 56
254 439 122 82 58 46
219 254 247 119 94 66
361 455 130 99 25 38
214 570 283 49 19 24
229 204 208 122 97 67
229 209 207 121 96 64
191 544 261 59 27 33
220 509 102 89 24 38
194 469 190 129 2 28
217 598 278 82 28 35
264 749 307 91 22 38
412 459 242 75 26 36
218 606 201 211 13 54
344 339 272 134 105 71
254 294 215 88 76 64
250 817 214 89 68 59
216 498 101 159 0 46
219 779 302 170 124 91
239 199 205 117 93 65
229 499 92 184 6 36
273 379 242 99 73 54
370 840 282 39 34 29
335 314 287 136 97 66
234 209 206 118 94 64
211 399 262 124 98 71
248 818 280 57 48 42
241 22 261 124 15 44
217 601 195 79 21 29
244 207 205 120 96 67
193 474 263 72 18 33
270 470 95 100 28 33
223 274 216 110 85 57
239 209 205 119 95 66
189 479 191 132 1 30
268 284 237 89 75 62
242 469 129 92 17 41
303 437 86 87 73 59
287 398 230 83 66 50
380 570 221 124 17 39
224 603 187 215 11 54
374 829 187 71 59 54
267 713 195 128 12 27
219 324 227 111 88 63
199 759 297 168 119 92
226 206 209 121 95 63
367 705 196 70 56 46
215 264 242 128 97 70
279 11 257 123 43 46
355 865 206 78 65 60
226 209 209 121 96 65
248 437 142 89 34 33
345 174 247 119 95 69
219 619 306 153 113 86
211 384 228 116 92 65
304 519 128 145 6 32
306 16 264 119 33 45
229 219 207 124 97 63
212 887 274 164 116 98
231 224 204 124 95 61
279 539 278 54 25 31
254 289 216 88 76 63
314 169 227 117 89 53
399 420 247 49 27 23
340 264 278 128 98 63
329 289 236 102 83 60
412 462 213 170 20 54
349 805 153 87 66 52
237 214 205 120 95 64
287 16 252 110 35 39
199 459 188 103 13 31
329 529 282 163 105 83
299 294 247 97 80 61
240 214 204 121 95 64
233 248 259 124 97 72
241 637 209 171 5 41
321 876 183 78 63 60
239 480 85 176 8 36
229 644 222 186 13 49
284 879 286 139 108 82
236 897 310 196 141 126
229 369 209 93 81 70
350 525 146 169 9 38
354 489 267 50 21 28
236 290 265 115 92 65
397 464 160 100 30 41
235 220 204 123 95 61
270 486 100 64 29 32
263 679 200 123 6 30
254 374 277 137 98 69
346 224 230 117 93 65
249 229 204 126 98 65
239 219 203 123 96 62
214 484 282 142 15 46
244 194 206 117 94 67
216 354 229 110 89 65
190 549 212 66 32 37
304 509 122 194 10 39
339 423 122 99 85 68
232 544 133 65 30 36
249 194 206 115 93 67
243 273 209 90 74 57
379 589 262 148 117 84
249 199 205 119 95 66
244 204 205 119 95 67
230 289 261 122 94 68
365 500 150 164 11 31
256 339 215 87 76 65
229 234 206 123 94 58
319 253 228 96 78 57
204 719 264 133 101 69
259 244 212 102 84 64
325 40 224 103 83 63
285 30 257 123 42 56
345 846 175 117 90 68
299 664 290 156 16 49
246 204 204 122 97 67
348 244 266 124 97 64
379 554 218 48 32 30
238 649 216 160 6 41
195 819 277 196 138 111
243 407 195 91 78 65
324 274 231 99 79 55
341 284 278 130 99 66
399 509 242 60 26 30
228 580 151 176 19 51
249 203 205 123 97 67
254 209 206 124 97 65
210 504 168 128 8 36
312 924 224 65 60 63
327 32 230 95 81 65
357 437 280 161 12 52
279 734 193 132 9 34
249 214 204 125 98 66
255 490 302 37 31 30
302 404 279 133 95 80
254 259 212 95 80 63
244 224 203 125 97 63
234 425 179 94 64 46
416 434 237 159 14 50
284 684 297 117 19 40
279 744 193 132 16 36
320 174 261 110 90 68
313 149 237 105 85 63
191 445 246 97 25 37
224 484 163 48 33 31
249 224 204 125 98 65
178 444 191 50 29 35
217 723 236 138 6 39
298 450 85 51 37 42
309 169 237 105 85 62
250 215 205 124 97 65
254 219 206 124 97 65
352 380 262 110 89 64
404 930 314 121 98 75
281 34 240 125 18 27
179 499 222 75 26 32
379 464 173 67 20 33
274 564 136 46 36 41
334 249 281 126 99 67
367 862 218 71 59 57
214 504 282 139 10 44
201 573 203 39 36 37
298 830 270 157 117 92
239 454 77 116 13 29
297 294 272 107 83 61
180 499 227 39 31 32
252 220 204 126 98 65
374 794 157 82 62 51
225 459 173 93 20 28
211 473 100 145 0 44
215 604 202 207 12 53
383 838 287 88 73 58
324 29 237 69 47 37
226 234 209 123 94 60
225 194 237 111 90 68
276 42 230 141 41 49
219 455 82 121 6 22
241 304 215 88 75 63
217 266 244 131 99 72
355 729 293 56 25 33
226 194 241 113 92 70
325 905 227 77 67 65
265 274 248 96 78 58
222 494 108 131 1 38
216 604 277 108 42 47
227 194 243 115 94 71
196 681 284 154 110 79
229 194 247 114 93 72
389 819 278 57 46 37
310 894 172 81 68 61
239 478 83 140 24 42
271 302 230 81 70 57
259 104 243 122 95 69
221 370 214 103 87 70
231 200 250 114 93 72
351 851 282 41 35 30
280 12 277 115 42 47
299 629 186 64 38 41
224 664 267 50 41 42
225 204 242 114 92 68
385 434 257 43 21 23
219 449 285 134 21 45
259 659 203 145 0 34
179 494 222 72 27 36
225 494 111 113 7 37
272 84 212 115 44 47
393 839 296 71 53 41
306 189 241 108 87 64
210 618 227 79 27 38
193 474 190 130 2 28
226 201 245 114 92 69
364 594 278 174 122 91
194 424 181 98 37 38
324 11 287 134 53 58
226 209 246 114 92 70
329 384 290 154 107 81
290 339 242 82 67 53
254 384 277 138 98 72
228 209 248 115 94 72
187 545 222 91 17 35
274 573 289 151 15 45
333 359 228 94 84 74
268 284 247 96 79 59
230 209 251 114 93 71
249 354 211 91 80 68
214 264 232 125 96 67
378 494 185 109 2 34
233 492 89 178 2 33
232 194 249 114 94 73
249 445 92 86 56 42
378 584 223 76 21 32
205 833 282 208 139 112
329 99 193 118 96 85
260 129 217 120 92 64
241 486 144 91 22 40
216 399 271 122 96 70
235 639 213 174 9 44
329 869 163 100 82 72
234 194 251 114 94 73
239 194 253 116 95 74
392 493 159 149 27 43
262 30 223 99 85 71
239 289 212 90 74 57
215 464 83 111 24 39
385 809 177 83 65 58
383 718 192 70 56 42
238 199 254 116 95 73
219 514 161 118 8 32
264 199 217 114 92 65
267 416 192 93 78 61
254 639 202 58 36 39
244 384 280 139 104 71
375 428 196 55 36 32
234 204 253 114 93 72
190 464 256 101 17 36
262 544 302 171 112 93
237 203 254 115 94 72
309 515 288 179 121 104
261 120 221 118 88 61
369 418 232 68 52 45
352 768 170 50 45 44
254 334 214 88 76 65
239 209 256 118 96 72
219 509 282 121 3 36
392 523 246 112 21 43
229 219 252 114 93 71
262 238 214 103 84 62
370 433 263 95 34 37
264 435 122 84 68 53
226 220 250 115 94 71
269 607 290 32 28 30
334 174 262 115 93 69
247 293 214 84 70 55
229 344 216 98 83 67
334 454 91 179 8 37
226 224 250 116 95 72
418 424 252 173 19 50
274 10 267 124 59 62
305 299 292 110 86 61
231 229 255 116 94 71
229 224 253 115 94 73
265 18 235 92 79 66
189 449 188 151 0 33
296 925 206 82 74 74
191 740 269 145 107 77
273 334 232 71 60 47
231 225 255 116 95 73
230 294 261 125 96 69
244 444 283 33 27 28
299 754 190 131 11 36
232 219 254 115 95 72
311 896 300 40 38 37
199 699 272 130 100 68
308 64 237 96 34 38
187 504 258 108 18 40
234 219 256 116 95 72
244 194 254 119 97 74
342 41 224 118 103 86
260 289 221 88 76 65
244 199 255 119 97 73
408 484 241 50 29 32
432 736 155 96 74 60
249 194 252 116 93 67
267 228 231 112 90 64
225 473 111 142 0 43
249 199 253 115 93 67
193 514 187 159 10 38
326 934 262 67 60 60
249 204 253 116 93 66
247 204 255 120 97 71
309 889 172 93 80 75
270 304 257 78 64 49
338 27 280 116 71 57
252 194 250 115 92 65
252 199 250 114 91 63
269 419 187 93 78 63
233 625 206 196 12 49
191 539 261 120 18 40
244 414 187 94 80 66
339 489 273 74 27 37
334 184 265 117 96 72
250 209 254 117 94 67
429 803 235 112 83 64
328 37 225 114 69 44
255 204 248 115 91 63
216 376 219 101 83 64
213 474 103 144 0 43
255 209 248 115 90 64
251 213 254 117 93 66
330 914 257 64 57 61
221 451 94 90 20 22
249 629 286 50 28 31
249 599 292 124 77 60
331 116 215 124 94 63
361 786 269 90 67 54
237 453 165 39 34 33
401 504 239 59 29 32
328 324 296 143 99 75
253 214 251 115 91 65
342 405 214 105 91 77
305 229 234 108 85 57
242 242 204 119 93 62
256 214 249 116 91 64
325 421 148 101 85 68
390 509 253 48 28 30
298 438 282 117 4 35
429 812 242 105 82 66
249 224 257 118 94 68
303 414 273 129 94 78
299 444 83 52 40 44
349 29 262 131 71 67
187 546 232 172 0 48
249 369 207 91 80 69
348 64 222 121 25 45
226 619 310 162 119 92
340 329 277 136 102 70
342 249 275 128 100 68
289 704 189 80 27 32
221 756 299 170 119 88
264 364 271 129 88 68
254 219 252 116 92 64
215 364 227 109 88 66
266 106 212 132 77 66
244 387 206 95 82 70
382 742 161 60 47 43
254 679 203 62 30 34
254 224 252 117 92 64
352 852 172 84 71 63
199 719 267 128 98 65
232 547 137 119 8 34
295 304 248 102 84 66
223 264 253 123 96 69
266 531 286 119 52 49
224 329 257 126 99 72
349 428 107 101 84 64
381 446 265 36 23 26
265 184 232 112 89 63
402 469 199 38 32 35
229 229 206 123 95 59
215 404 213 105 90 76
279 510 115 67 36 42
269 42 260 132 99 80
339 559 162 88 32 41
284 34 252 111 61 58
229 239 206 124 95 59
414 449 212 58 29 35
239 324 216 92 77 61
363 832 188 77 64 59
239 229 203 123 95 62
244 769 206 69 52 49
191 799 277 179 125 97
340 53 206 129 109 87
239 243 204 120 93 60
235 234 204 125 95 59
400 829 262 120 92 84
246 237 259 123 98 70
226 238 209 122 94 58
254 965 231 81 78 80
239 384 280 135 104 75
361 423 182 72 26 35
199 444 185 148 0 33
263 784 204 84 65 57
209 414 282 75 38 35
348 209 232 122 98 69
229 254 208 110 84 55
374 474 143 163 13 33
372 603 217 126 20 41
234 354 212 92 81 70
266 417 194 93 78 60
309 404 202 100 85 70
258 846 225 170 118 94
234 243 204 122 93 59
262 310 270 109 79 53
234 245 205 121 92 59
325 919 242 78 69 68
239 294 213 90 74 58
289 428 137 88 72 54
203 514 279 70 29 34
374 609 276 166 115 84
234 249 205 114 88 58
291 354 227 81 68 56
239 245 205 117 91 59
309 764 287 75 60 53
211 473 93 50 34 35
408 473 208 153 16 40
209 699 267 123 93 64
176 479 211 85 27 35
375 438 169 90 15 34
209 464 92 59 34 35
298 773 285 77 61 54
215 384 218 101 84 65
284 824 268 162 112 89
188 435 185 145 4 35
324 494 298 171 118 102
240 446 98 92 36 35
314 688 293 60 26 31
241 910 223 84 70 60
253 254 256 120 94 65
239 249 205 109 86 58
290 765 289 78 60 55
350 259 242 127 97 65
234 254 206 106 83 57
383 862 242 89 71 63
317 280 235 91 73 52
226 249 209 116 89 56
331 896 220 83 73 71
228 344 263 115 92 66
204 459 281 47 27 28
259 434 137 87 69 54
374 873 252 72 64 62
226 245 209 119 91 57
191 523 193 161 11 43
308 254 273 111 91 69
346 80 213 116 55 56
210 484 173 40 35 34
226 252 209 113 87 58
227 255 210 108 84 56
198 814 257 183 126 94
181 484 235 114 14 38
359 414 227 83 71 61
201 494 179 112 13 29
205 454 281 62 28 31
244 229 204 124 96 64
315 451 313 151 20 51
269 934 322 46 44 45
244 234 204 124 96 60
250 234 205 124 97 64
180 494 232 54 29 32
254 229 206 125 98 65
224 659 266 40 38 39
322 301 300 124 90 63
254 234 207 122 96 65
301 329 231 88 74 59
322 474 292 126 73 70
314 895 196 66 59 59
249 244 206 111 89 63
285 19 272 129 55 59
340 47 216 126 108 91
249 249 207 104 85 63
296 348 286 124 89 68
244 254 206 98 80 59
324 30 273 136 93 76
397 674 251 149 104 72
230 939 306 157 120 105
309 99 232 117 24 41
249 254 208 99 82 62
197 581 220 171 0 45
284 634 189 95 35 43
253 249 208 102 84 64
366 857 244 74 62 51
316 880 179 92 80 75
240 469 157 55 31 31
324 783 280 76 59 53
258 129 212 120 91 59
256 249 210 100 83 64
259 804 208 83 66 56
230 684 299 152 106 82
254 254 211 97 81 64
343 779 177 59 50 47
229 449 173 71 28 31
225 229 251 116 95 73
289 719 189 144 12 38
228 229 253 116 94 72
389 474 146 86 25 35
254 33 261 110 50 50
328 902 227 78 67 64
230 234 256 116 94 71
244 404 282 144 105 78
212 728 246 104 23 38
247 755 205 106 20 40
244 209 256 119 96 71
230 239 256 118 94 70
221 399 275 120 95 69
260 259 248 110 87 61
342 254 275 129 101 66
342 772 185 50 43 41
229 244 256 121 97 72
254 229 252 117 92 64
347 853 184 76 63 57
304 674 291 87 19 36
184 434 187 89 25 34
219 452 92 88 36 19
249 234 258 120 95 67
272 512 305 171 119 98
387 562 231 123 28 43
234 589 311 158 117 91
254 234 252 117 91 63
370 489 197 71 14 34
334 464 96 139 18 39
204 614 257 162 5 47
252 235 255 118 93 65
185 459 232 114 12 37
362 714 175 76 60 47
259 354 213 86 76 65
339 894 242 65 57 57
252 239 255 118 93 63
294 364 277 120 86 68
339 389 217 107 92 78
222 318 254 127 98 72
364 549 258 92 21 38
401 429 137 57 36 35
267 877 230 89 72 53
288 883 187 60 56 59
329 589 172 59 33 40
176 457 194 147 0 37
301 832 209 80 63 54
229 448 102 94 19 32
253 244 256 120 94 64
277 416 227 80 62 42
256 254 254 118 92 64
369 421 212 95 72 60
371 871 246 78 69 68
242 12 258 91 39 42
215 473 105 143 0 43
255 885 234 102 84 65
267 346 219 78 69 60
241 15 262 86 43 38
222 569 152 102 19 37
264 864 297 142 113 81
243 13 262 86 42 40
235 469 163 40 32 31
249 499 307 94 17 33
204 422 185 146 19 29
279 579 147 98 31 40
289 518 123 189 9 36
241 16 266 76 40 34
234 539 137 79 25 35
419 771 248 138 102 73
215 837 280 198 135 110
274 10 277 124 50 57
269 10 287 128 35 54
344 339 247 114 93 70
253 442 97 93 56 42
248 454 147 56 23 31
319 289 295 111 88 64
202 610 252 168 0 44
344 64 237 117 16 41
254 859 298 153 122 88
243 13 267 97 68 56
245 14 271 125 89 88
224 259 252 121 94 68
246 11 266 93 55 50
244 339 213 91 78 65
249 11 267 100 62 57
219 509 161 124 3 32
284 679 296 76 20 34
239 334 214 91 78 63
255 431 153 92 69 49
365 831 186 78 63 57
247 12 268 101 64 58
254 10 267 105 69 61
359 865 217 72 60 56
309 584 285 164 4 51
311 170 246 104 84 61
339 29 277 149 23 58
289 910 301 75 57 46
255 11 277 124 88 75
319 404 198 101 86 70
320 41 228 76 41 23
252 12 274 114 79 67
179 459 192 145 0 35
379 444 169 108 8 35
255 14 281 142 106 91
206 405 227 103 84 63
367 448 129 159 8 40
240 19 262 106 30 42
338 174 261 116 93 68
215 548 173 167 7 42
356 725 187 74 61 54
249 319 215 93 79 65
296 398 271 125 87 72
220 329 227 107 85 62
242 21 264 124 14 45
374 444 172 95 3 35
244 24 262 129 29 51
409 804 192 84 66 57
260 124 237 118 86 64
234 369 209 91 80 70
213 359 237 121 95 66
343 374 233 101 86 71
245 19 271 114 66 68
359 714 182 76 63 50
239 369 278 132 101 73
299 420 177 96 82 67
238 704 211 47 35 38
317 163 254 108 87 65
246 270 210 90 75 59
229 319 216 107 85 59
322 441 310 95 22 44
245 23 267 133 23 51
379 840 300 82 63 49
214 659 269 137 97 75
249 25 267 130 50 58
330 426 113 100 85 67
294 420 182 95 80 65
196 434 237 42 32 33
335 324 241 101 85 69
344 329 252 120 96 68
274 734 308 138 17 49
217 480 104 146 0 44
354 880 306 47 41 39
291 309 253 106 84 66
217 666 304 152 109 82
212 372 239 124 99 70
246 22 270 130 22 47
323 139 254 112 89 63
249 23 271 137 25 52
247 887 235 90 75 61
274 10 252 106 55 48
269 54 255 124 36 51
244 259 262 123 95 66
246 27 261 131 32 50
264 356 213 90 77 63
261 32 220 103 88 73
247 26 264 123 60 60
308 54 247 104 18 37
312 74 221 114 31 39
256 154 210 124 95 60
249 29 262 127 39 53
221 354 260 118 93 64
248 30 258 127 48 57
380 825 191 87 69 63
245 275 210 90 74 57
181 519 217 95 23 36
377 700 169 88 66 43
306 240 265 114 92 68
201 604 262 145 12 49
249 339 277 136 99 74
291 456 325 147 17 45
253 30 263 108 68 59
385 799 181 71 56 50
302 228 248 108 86 61
229 339 217 99 83 64
252 454 280 83 9 27
250 27 266 125 79 70
294 354 223 83 70 56
182 489 238 76 29 36
319 419 187 101 85 68
416 751 156 86 69 56
244 304 215 86 75 63
254 28 267 139 38 59
239 494 92 125 10 35
378 564 188 127 23 41
348 20 243 115 73 64
319 89 207 122 22 42
394 809 272 64 50 40
254 25 273 135 38 56
199 429 180 104 20 37
262 683 200 121 11 29
252 26 269 143 32 54
249 439 281 68 27 32
255 27 271 155 19 58
245 459 147 69 26 35
272 368 219 87 71 53
251 259 259 123 96 66
238 664 285 65 50 42
250 18 276 131 90 81
217 363 225 103 85 67
304 219 252 108 86 62
351 24 252 120 30 46
392 644 247 137 106 73
224 454 111 135 1 42
378 484 181 49 25 32
205 818 248 185 126 94
329 23 236 111 66 47
394 826 280 64 51 37
255 17 280 146 106 93
219 469 107 142 0 44
406 812 269 94 69 53
258 688 299 39 31 29
235 943 218 80 73 73
181 434 210 138 0 42
214 779 227 155 111 80
329 109 250 119 94 67
279 963 229 97 92 95
372 599 212 39 31 33
251 32 260 144 30 58
410 710 168 92 68 41
195 454 262 64 25 32
212 379 248 123 97 68
239 519 103 182 6 39
253 35 259 134 19 49
393 478 261 148 18 50
403 829 265 128 106 95
196 449 261 81 27 35
234 284 262 116 92 66
239 214 257 119 97 73
196 749 295 173 120 93
239 224 258 119 97 73
244 214 257 120 97 72
324 174 221 128 97 58
266 187 220 114 90 62
221 587 168 214 15 57
249 374 206 92 81 70
270 423 201 91 77 61
243 674 211 94 33 42
329 589 282 139 12 44
309 356 218 93 81 71
221 319 223 127 97 69
215 374 257 122 96 67
328 423 289 78 24 30
314 528 272 166 111 94
244 224 259 120 97 71
240 230 260 121 98 73
233 239 258 119 96 71
236 239 260 122 97 72
186 469 247 126 9 37
343 504 287 132 110 90
391 846 221 96 75 67
314 610 290 36 29 29
221 454 110 128 4 41
179 454 192 143 0 33
237 234 259 120 96 71
413 454 237 170 19 50
262 46 204 114 98 82
239 234 260 122 98 72
337 129 223 119 94 66
250 435 152 98 32 31
219 409 202 96 82 67
395 434 131 94 28 36
239 239 260 123 98 72
233 244 258 122 98 72
241 906 228 86 71 57
236 244 260 123 98 73
266 239 227 110 87 62
252 442 106 87 53 41
344 604 273 144 17 46
228 479 112 143 0 43
268 78 193 148 13 43
371 876 255 70 59 58
239 244 261 123 98 72
384 469 272 118 25 44
369 511 155 99 18 33
290 324 242 83 68 53
265 259 227 95 77 57
234 254 261 126 99 72
280 874 288 140 106 80
288 754 295 84 66 56
260 144 227 110 85 60
303 429 272 124 90 79
239 254 261 124 98 70
247 862 250 102 70 38
243 229 260 121 97 72
234 960 242 78 73 74
244 249 261 125 99 71
220 584 301 144 115 90
213 909 267 108 92 78
309 54 242 100 38 43
260 412 190 98 82 64
182 520 212 73 32 38
248 249 260 122 97 69
325 139 255 113 91 65
358 754 172 46 42 41
284 659 194 69 31 35
244 254 261 123 96 67
331 320 294 134 94 64
266 264 237 105 85 63
263 108 207 138 76 66
334 426 113 100 85 68
248 254 260 122 95 65
229 489 87 182 5 35
324 11 292 140 37 57
274 784 288 78 60 52
269 954 222 94 89 91
304 425 142 91 75 58
229 474 285 57 27 32
250 249 258 122 96 68
411 445 258 179 17 55
371 866 231 69 55 53
219 774 302 169 123 90
215 269 223 121 93 61
222 260 215 110 85 57
307 427 285 123 9 32
323 124 216 130 90 56
185 464 242 83 27 35
255 612 178 68 31 37
319 39 232 74 40 26
220 264 217 113 88 58
245 679 209 54 37 39
224 379 273 125 99 71
314 878 273 29 28 29
299 849 272 140 109 87
207 454 185 96 18 29
337 83 189 153 21 45
222 264 215 111 86 57
299 494 308 167 118 102
309 94 227 110 27 40
216 257 219 115 90 59
220 289 222 115 88 60
402 767 168 82 63 54
190 739 287 164 115 88
217 260 220 115 89 59
314 479 303 137 88 80
389 450 135 106 31 39
223 269 216 111 86 57
235 479 158 44 33 27
409 423 192 42 37 48
222 309 220 115 91 63
326 374 220 100 87 73
376 456 195 45 33 32
195 779 252 165 116 82
231 475 164 36 32 31
220 269 218 113 88 58
400 810 206 64 48 46
214 354 237 120 94 65
243 529 109 179 7 39
259 59 183 105 30 21
307 308 299 118 91 66
253 432 151 94 64 47
406 792 195 77 59 52
344 874 197 70 62 63
237 739 210 144 0 35
254 893 226 83 64 42
221 278 219 112 87 58
221 282 219 108 85 57
214 479 173 44 33 32
404 844 287 93 71 55
265 99 202 122 45 49
229 469 77 168 5 36
239 557 124 215 15 44
314 344 223 93 82 70
224 284 217 109 85 57
339 484 274 49 23 29
229 544 117 128 14 38
222 286 220 110 86 58
410 748 168 68 57 47
213 259 227 123 95 64
280 424 212 85 72 59
199 749 257 114 88 58
190 434 184 130 14 38
254 443 92 92 57 45
254 859 242 150 104 76
214 264 227 123 95 63
359 594 277 175 121 90
356 711 199 81 46 41
214 269 227 126 96 64
417 428 252 179 18 52
203 809 246 174 118 86
249 364 277 137 99 72
214 269 232 128 97 67
311 27 271 132 95 80
303 458 320 182 10 58
354 799 158 82 64 52
384 474 271 93 21 38
204 448 184 141 0 34
215 269 237 130 98 71
228 289 215 107 84 58
296 359 281 123 89 69
269 594 291 171 19 53
319 13 267 121 39 40
216 269 241 130 96 71
254 514 310 165 127 114
212 460 104 147 1 43
217 259 244 123 95 66
219 259 247 122 95 67
216 264 245 128 96 69
200 549 192 173 13 42
207 398 242 116 93 67
264 389 206 95 81 66
337 496 290 103 77 59
291 806 274 175 121 102
254 899 313 171 124 101
218 264 247 126 96 68
418 769 192 95 72 54
334 594 177 117 30 42
219 274 247 125 94 68
348 359 262 115 92 66
221 260 250 122 96 68
259 574 141 172 14 42
221 264 250 124 95 68
283 458 307 104 8 30
195 819 272 190 131 104
237 342 269 114 89 62
248 379 206 92 81 70
345 769 182 46 40 40
189 789 277 169 117 87
219 269 247 127 96 69
319 254 281 121 97 71
214 274 232 131 97 68
284 430 262 54 42 31
209 415 212 100 79 67
264 851 280 100 83 64
371 624 231 72 48 38
307 21 269 128 17 51
211 726 257 92 40 42
216 279 227 127 95 65
239 264 262 126 99 71
294 509 287 83 45 42
259 601 165 193 12 50
254 929 312 76 63 55
216 279 237 133 99 74
289 669 294 162 5 51
389 699 218 88 74 60
216 277 224 124 94 64
304 269 242 103 81 58
217 285 232 132 97 69
210 389 252 122 97 67
341 218 269 124 99 69
217 289 227 127 96 64
351 440 101 123 13 37
384 459 271 34 29 30
217 289 232 130 97 69
294 420 202 91 77 61
339 898 252 62 54 54
334 104 196 139 31 43
244 304 271 125 92 67
340 364 231 95 83 72
228 699 227 139 5 41
338 209 270 122 99 73
324 219 223 110 88 60
217 285 237 132 100 72
316 46 229 71 36 27
224 482 84 180 4 36
217 289 237 129 98 71
354 589 187 177 17 43
181 474 232 135 5 38
244 269 209 90 75 58
217 274 244 127 94 70
235 474 122 135 0 43
269 574 142 131 30 46
346 79 222 122 36 47
217 279 243 129 97 71
323 290 295 117 92 66
260 764 199 81 36 39
338 79 188 146 23 42
268 528 119 139 17 38
221 274 250 125 95 69
248 449 142 106 2 34
269 524 118 65 30 38
223 274 253 125 97 71
384 444 197 85 11 27
347 812 265 62 50 46
339 179 223 129 100 65
360 729 173 69 51 40
221 365 266 121 96 68
269 289 247 96 78 59
221 278 250 124 95 68
265 105 222 131 90 71
220 284 247 120 94 66
234 389 280 131 100 74
219 499 163 66 28 36
219 289 247 120 95 67
394 459 271 155 20 49
215 944 257 72 66 65
214 434 288 89 25 40
259 744 307 56 28 33
296 296 249 98 80 63
329 19 287 168 124 113
221 285 250 120 95 67
302 224 237 111 87 60
225 294 218 109 87 61
204 689 298 151 106 81
239 304 214 90 76 62
195 434 242 82 30 36
284 433 102 83 68 54
263 349 219 82 72 62
386 624 247 139 111 80
316 154 224 119 91 54
222 294 220 112 88 60
317 80 211 106 54 50
201 573 280 107 19 39
399 849 252 91 72 63
226 329 219 110 88 62
214 359 242 123 97 69
382 508 260 138 19 49
359 918 307 79 69 62
225 299 218 108 86 62
325 884 173 85 70 61
207 422 279 133 9 36
319 24 247 88 33 29
279 486 314 93 45 49
319 898 308 39 37 37
369 698 217 67 54 46
268 45 213 84 52 39
222 299 220 110 88 63
324 418 172 102 85 68
299 689 297 83 26 34
220 304 223 117 92 64
218 489 91 168 7 44
222 304 220 112 89 63
181 517 209 27 34 39
237 312 214 91 76 60
238 539 299 84 42 42
347 74 217 118 32 47
324 414 285 142 103 81
320 925 292 79 70 72
256 269 215 94 78 60
270 374 217 91 75 56
244 539 113 144 9 38
231 284 260 121 93 68
277 867 225 94 75 56
363 543 260 41 30 32
343 149 242 117 94 68
369 694 177 96 71 52
213 919 287 166 132 111
245 529 306 127 93 82
225 309 218 111 87 60
408 828 242 125 88 71
279 438 86 136 51 53
309 469 96 184 16 41
403 488 246 97 24 39
330 16 247 90 68 55
216 451 105 44 28 35
221 309 223 125 95 66
217 378 263 123 97 68
362 646 269 155 99 80
213 884 272 154 114 93
234 309 214 96 80 61
358 420 187 74 40 41
411 821 250 112 87 80
338 104 242 120 96 70
225 314 218 111 88 60
221 314 223 129 96 69
264 224 217 110 88 63
361 506 150 165 9 35
217 294 232 127 96 68
351 383 251 104 86 67
373 508 265 163 5 52
218 294 237 126 96 69
274 435 102 86 64 50
414 434 197 62 34 36
301 239 239 110 86 58
234 464 166 49 32 30
263 907 201 59 54 55
273 364 237 102 78 61
254 659 206 137 2 32
425 773 254 119 87 60
379 699 268 149 102 72
218 299 237 121 92 66
176 444 206 134 3 41
316 154 251 107 86 63
222 294 253 124 98 71
335 100 195 147 27 45
329 774 283 74 59 55
252 285 265 108 88 66
399 479 203 172 19 39
301 239 247 107 85 59
326 378 220 100 87 74
404 769 172 86 65 53
219 299 247 125 98 70
265 95 243 118 48 54
218 304 242 124 96 67
263 164 222 111 89 62
263 93 245 116 29 47
429 772 247 101 75 56
219 304 247 127 98 72
262 482 302 78 20 30
220 299 251 124 97 70
223 464 109 139 0 42
212 744 236 120 74 59
314 694 297 84 22 35
304 384 213 94 82 69
223 299 253 124 97 71
219 394 272 126 100 71
343 284 243 119 90 58
319 919 318 64 55 51
221 304 251 128 99 72
356 674 259 52 19 27
334 44 262 128 21 48
333 369 290 147 104 78
338 274 281 130 97 64
226 530 287 73 16 29
219 309 227 126 97 70
344 724 298 187 8 60
275 349 257 81 62 47
293 359 272 116 82 64
387 625 248 143 113 79
234 809 218 77 61 53
218 309 232 117 93 66
249 549 311 173 127 107
251 286 215 89 75 59
217 314 237 118 93 64
176 488 207 42 30 30
189 415 202 56 28 30
406 790 264 99 73 57
217 309 242 124 96 68
409 416 252 97 27 35
396 719 259 171 117 88
206 400 242 116 93 67
220 309 251 126 99 73
224 309 256 126 98 71
338 518 134 136 16 37
201 459 276 119 18 40
235 481 85 181 4 26
211 546 280 33 29 29
252 572 305 174 120 99
393 424 262 82 9 25
210 411 276 59 51 43
202 412 237 75 54 36
274 584 291 168 10 52
309 374 213 94 83 71
418 777 199 95 71 56
217 314 242 125 98 69
246 329 275 125 91 67
335 398 211 104 90 75
209 412 278 56 44 39
272 300 232 84 72 61
324 209 223 117 93 63
218 314 247 127 99 73
218 319 247 129 98 72
345 54 242 132 39 54
259 20 279 146 105 84
222 568 155 102 17 37
339 784 277 80 63 55
387 464 170 132 8 43
234 339 267 117 92 65
329 427 112 101 85 67
220 319 252 129 99 73
213 509 166 126 11 33
384 739 266 170 116 85
204 599 217 107 19 41
222 314 254 124 97 71
301 373 285 134 98 79
259 364 212 92 81 70
339 104 202 138 24 44
350 269 252 128 97 64
329 139 216 135 101 63
225 314 256 124 98 71
208 605 216 163 13 47
414 420 202 68 34 45
211 385 251 122 97 68
199 469 188 114 16 33
227 412 195 89 72 60
230 258 208 106 83 56
311 102 237 128 92 75
302 848 202 52 49 51
364 689 262 72 28 25
230 851 273 131 99 76
320 174 223 123 93 54
315 235 275 117 96 73
206 560 285 147 2 49
364 789 268 124 90 66
239 264 208 93 76 57
253 494 287 36 28 31
228 259 210 106 83 55
211 375 233 119 94 66
229 264 211 106 83 55
304 764 287 75 59 53
299 618 288 51 23 28
330 41 264 123 39 49
231 263 209 105 82 54
258 285 261 105 82 56
229 505 95 181 6 39
389 734 264 172 117 85
274 384 247 98 73 57
229 269 211 107 84 57
311 174 229 113 86 52
329 349 293 144 103 74
225 269 213 108 84 55
327 17 251 87 61 46
235 269 209 99 79 57
290 379 218 80 69 58
266 229 221 105 84 61
290 496 309 164 99 88
416 434 232 81 17 33
272 364 222 86 68 50
180 469 193 141 0 31
290 349 247 77 62 46
299 929 321 53 47 45
193 804 287 189 133 102
233 269 210 103 82 57
226 278 214 107 83 56
214 413 207 95 81 69
329 844 168 77 63 57
305 219 233 109 85 56
260 149 232 112 86 61
232 656 225 165 9 41
379 734 267 154 102 75
254 969 237 90 86 89
249 324 214 91 77 63
324 809 177 52 48 47
319 764 189 125 16 31
229 279 213 106 83 58
189 554 232 173 0 47
349 888 313 48 43 39
244 919 314 152 122 104
262 438 275 85 11 25
215 374 222 105 86 66
240 284 266 111 90 68
276 424 217 85 71 56
265 352 220 83 71 59
227 281 215 107 84 55
225 451 111 102 8 31
375 559 216 74 26 32
229 284 213 107 84 57
