ply
format ascii 1.0
comment Created by Open3D
element vertex 2224
property double x
property double y
property double z
property uchar red
property uchar green
property uchar blue
end_header
248 412 231 96 82 69
319 294 281 115 90 59
239 411 246 75 54 50
255 43 265 114 68 59
288 9 286 165 110 114
308 704 181 61 46 34
271 367 249 94 83 72
451 448 229 156 2 52
329 692 313 72 18 30
373 744 171 59 47 37
231 494 204 135 8 36
391 438 148 106 22 35
428 843 214 143 111 90
255 53 259 122 17 42
225 461 259 128 0 37
263 864 307 180 135 118
423 839 216 127 98 75
320 324 241 72 59 45
255 185 260 119 96 70
262 538 171 82 19 31
292 99 251 128 32 48
291 477 136 103 8 36
255 189 261 118 95 69
316 830 195 59 53 52
355 128 219 108 90 70
259 409 236 100 87 73
255 194 261 119 96 70
243 412 226 85 66 56
323 510 134 124 33 44
297 784 215 62 50 45
248 509 302 149 22 51
403 955 301 80 66 55
323 58 260 124 78 69
244 459 295 93 23 34
410 912 218 96 80 69
283 413 211 97 82 67
255 410 294 111 88 65
263 369 286 126 98 69
303 334 246 81 69 57
343 23 251 103 86 71
385 972 280 94 76 57
315 877 298 155 123 95
377 264 221 122 95 63
257 954 256 87 79 77
366 234 249 127 101 71
303 824 296 76 59 56
364 264 204 133 98 59
294 940 319 39 37 38
255 199 261 121 97 71
237 584 292 155 9 50
288 249 300 124 99 71
344 174 249 117 93 67
273 664 303 43 40 40
327 483 118 108 22 36
375 363 214 94 81 69
226 799 291 175 119 90
330 446 104 108 47 47
436 793 219 148 105 74
230 469 275 74 23 32
228 429 205 77 29 36
300 711 329 73 17 35
264 11 213 117 50 35
325 704 173 63 48 40
365 334 209 96 84 71
255 199 265 119 96 70
387 404 251 120 94 64
324 971 245 86 81 84
252 429 297 79 22 33
283 375 238 94 83 71
349 58 200 99 51 26
243 479 296 122 13 40
293 978 276 68 63 64
338 19 282 129 88 73
255 406 243 106 91 76
233 739 320 168 115 90
221 479 214 146 1 38
243 449 202 119 16 30
273 224 242 129 99 63
268 857 286 91 64 51
255 204 261 122 97 70
348 155 208 121 95 62
269 309 271 140 102 77
347 834 178 66 54 50
269 189 243 130 100 62
248 479 197 47 37 36
333 14 281 143 79 85
285 937 213 82 73 75
351 61 198 94 49 33
255 204 265 119 96 70
321 304 286 112 85 55
255 510 183 123 8 29
348 134 247 123 96 66
327 79 196 142 8 43
281 74 217 129 14 30
343 459 287 71 34 38
328 254 236 98 78 55
333 804 170 82 64 51
255 209 266 119 95 68
441 528 224 160 8 52
269 194 284 115 94 71
331 91 209 123 18 39
255 211 257 127 100 69
418 729 206 88 66 49
255 454 198 109 24 33
235 592 276 175 7 49
255 879 291 131 79 83
460 535 196 173 13 54
375 393 263 130 100 65
236 816 274 179 122 91
305 219 271 122 97 70
238 479 291 132 14 43
356 84 221 112 43 45
377 553 168 124 20 40
255 214 257 126 99 66
278 219 241 127 98 64
321 49 246 100 43 39
238 413 251 87 39 35
393 420 181 120 81 68
373 868 261 37 33 33
249 939 291 189 145 125
254 214 261 124 97 66
374 349 247 122 96 66
242 614 266 124 24 43
423 420 241 56 30 28
342 120 209 136 97 59
490 476 193 66 19 26
255 214 266 121 97 68
404 812 188 71 55 49
236 448 277 75 26 34
228 749 282 132 100 65
238 719 322 164 114 88
355 94 215 122 61 58
219 439 221 71 30 35
255 214 271 118 95 67
270 90 214 145 16 39
318 615 195 109 26 41
320 315 247 74 59 43
423 422 206 88 30 37
269 846 292 49 38 37
386 889 227 72 64 60
319 34 257 104 34 35
251 407 278 123 97 72
256 929 307 159 130 112
358 754 181 52 42 41
278 229 242 124 96 63
239 439 203 140 3 33
307 580 175 174 8 38
364 815 278 56 47 45
325 65 197 98 30 31
329 109 236 127 92 71
308 404 241 93 79 67
255 219 257 127 98 64
323 489 302 143 111 96
370 199 226 117 95 71
251 609 291 133 10 44
225 714 293 148 108 76
346 848 269 162 124 102
404 764 262 157 116 85
246 413 276 109 24 36
388 399 241 110 89 65
278 164 240 128 98 61
296 699 214 114 20 32
339 304 264 81 63 41
255 219 261 125 98 66
246 412 268 79 55 42
331 768 304 80 64 55
321 314 241 82 67 50
275 355 253 93 81 70
313 978 286 66 60 58
338 409 187 87 75 63
331 358 263 75 52 35
396 970 270 172 147 135
255 224 258 129 98 64
391 893 264 52 45 40
340 228 249 95 77 57
258 514 181 104 20 29
393 514 273 118 21 43
278 459 116 115 7 35
373 423 161 99 84 66
249 509 187 127 10 31
424 575 226 120 22 43
241 508 194 135 5 33
449 434 232 151 7 47
255 224 266 122 96 66
268 184 282 117 97 76
321 337 236 71 61 50
257 616 225 205 9 52
328 64 192 100 40 25
255 224 271 120 95 67
366 184 240 119 96 72
386 396 217 107 88 68
306 919 314 94 74 63
266 696 304 45 35 34
255 229 258 130 99 63
287 489 170 63 27 29
238 411 236 77 55 50
383 858 247 40 35 32
269 122 233 146 105 73
306 394 309 146 104 78
220 508 241 36 31 34
255 229 261 128 99 65
358 428 126 134 51 42
377 384 260 126 97 64
279 89 226 120 32 39
255 229 271 121 96 68
233 412 241 62 32 32
373 912 301 36 35 37
338 50 211 109 76 54
364 239 252 127 100 70
333 784 166 79 61 46
252 409 286 116 93 67
255 234 261 133 100 66
298 339 312 131 98 70
380 891 214 73 69 68
255 238 262 136 101 70
265 936 233 67 63 66
354 859 256 50 38 34
231 490 204 111 14 28
343 249 202 132 101 63
259 759 317 168 116 89
273 28 250 104 89 74
325 88 249 112 84 67
349 743 309 70 53 48
418 559 177 128 30 44
242 412 256 98 48 43
368 413 186 97 82 66
268 404 231 99 86 72
274 473 115 131 1 38
344 44 257 131 108 84
226 554 246 139 11 40
253 404 246 116 99 83
233 799 320 178 127 99
356 69 206 129 39 51
259 659 281 45 29 35
293 24 262 93 33 27
300 202 272 114 90 63
320 446 151 63 49 41
341 382 199 89 78 67
274 524 161 66 22 29
253 494 305 163 17 52
287 139 251 111 88 61
255 239 271 127 98 69
293 604 303 54 25 30
283 9 271 83 63 53
298 329 247 87 74 62
237 439 204 140 3 31
288 244 246 95 77 57
328 674 205 69 44 38
253 415 211 91 75 62
308 394 307 143 102 78
253 884 271 123 99 74
356 842 264 161 127 106
304 12 281 145 95 94
278 184 285 115 94 73
255 226 274 119 95 68
468 428 211 52 30 36
283 414 314 140 107 81
220 424 217 96 29 36
238 412 230 77 52 47
322 339 257 82 66 53
225 454 208 134 7 33
263 69 207 120 33 31
225 425 208 45 35 41
431 453 254 136 26 49
263 749 315 161 107 85
255 238 275 125 98 69
224 484 266 134 7 41
322 394 226 73 62 53
283 483 117 163 14 39
223 415 221 73 32 38
375 299 221 113 89 61
416 899 245 78 66 59
248 831 318 204 149 124
220 484 231 80 28 35
330 174 221 106 85 61
459 437 190 98 25 21
371 884 196 86 77 76
378 759 175 62 48 39
339 124 212 125 92 56
223 414 226 58 32 35
298 759 320 85 49 52
416 502 259 118 26 50
328 734 161 68 53 43
219 469 226 151 2 39
268 49 276 124 67 65
505 460 183 60 24 33
379 364 231 106 87 66
305 556 318 175 123 101
313 565 165 127 25 41
347 88 192 151 22 44
303 724 330 129 17 46
470 434 213 66 26 35
224 449 246 132 1 38
348 609 296 41 26 28
264 114 236 129 95 69
225 789 309 173 120 91
315 357 244 76 60 46
353 634 301 58 27 33
223 414 231 53 32 31
255 744 242 140 6 38
255 876 292 133 36 63
374 904 226 69 63 61
346 56 198 92 49 25
328 429 297 42 22 22
287 473 112 92 24 34
348 724 171 64 50 41
304 229 281 118 93 64
228 412 226 67 33 31
323 909 201 88 80 82
393 425 276 64 53 41
323 464 110 171 1 35
302 11 286 188 136 141
291 497 155 70 22 29
224 415 236 59 30 31
394 613 274 165 102 87
264 249 252 136 99 62
224 416 216 75 29 35
248 929 291 187 146 125
351 90 244 107 29 41
404 880 207 95 74 59
233 469 205 110 24 36
220 429 213 127 19 39
403 804 266 179 134 102
362 189 208 122 97 66
223 424 211 71 34 38
353 910 301 31 30 31
408 649 260 157 100 82
243 414 211 78 49 48
278 20 258 99 85 71
288 954 319 71 67 67
219 429 216 104 26 35
329 254 240 97 78 57
289 169 251 116 90 57
354 412 282 65 52 39
370 714 196 64 31 34
255 405 290 125 99 71
403 879 236 82 67 61
358 854 252 57 41 35
269 249 248 134 99 62
498 464 165 115 24 37
320 316 242 75 62 47
355 855 253 59 39 34
317 413 298 92 67 51
250 895 268 162 116 94
218 444 221 124 9 36
280 793 223 72 57 50
221 423 215 92 29 39
388 559 271 84 26 35
378 644 220 52 30 32
234 479 285 140 9 43
388 709 301 139 5 43
220 424 221 73 31 35
498 459 164 124 23 34
263 489 308 161 18 52
463 484 211 149 17 47
283 259 301 123 96 70
432 789 251 179 124 93
348 294 206 104 86 66
282 976 280 69 62 62
301 737 209 88 31 40
220 420 218 79 34 30
288 589 190 189 7 43
373 519 281 65 26 30
277 20 303 143 104 81
367 829 187 79 64 58
245 412 234 92 77 66
304 607 193 161 18 44
335 88 192 147 15 44
222 754 286 148 107 74
327 254 226 108 86 60
223 479 211 144 2 37
427 418 252 49 27 25
425 432 175 109 29 33
385 544 273 153 13 49
247 411 228 93 78 65
388 750 173 68 52 40
323 384 286 115 80 59
423 820 219 116 81 61
252 483 194 44 36 37
343 134 247 122 94 67
418 694 251 112 78 54
322 64 206 105 22 38
428 624 246 137 106 70
222 429 211 99 25 34
234 569 226 44 35 36
258 44 241 100 83 69
399 422 211 70 57 47
263 794 320 164 124 91
267 219 245 127 98 62
246 411 230 93 78 66
316 417 194 77 68 60
242 554 296 96 23 37
320 446 145 57 46 44
245 430 284 93 16 34
359 780 293 80 62 56
334 889 194 76 66 65
341 265 204 134 103 66
259 46 237 98 78 61
376 380 259 127 97 65
456 444 224 154 16 50
229 814 296 185 129 100
294 74 261 118 74 62
333 199 242 90 74 56
343 659 302 88 32 42
244 842 301 199 127 101
224 429 207 59 33 35
333 449 306 136 26 49
224 724 311 164 114 88
222 434 210 135 10 35
256 204 255 128 101 68
328 749 312 86 69 59
374 582 289 168 93 83
323 79 250 109 34 47
321 80 247 107 30 44
229 434 246 136 1 40
313 899 189 84 72 71
278 418 201 95 81 67
256 206 260 123 98 69
256 888 264 126 101 75
333 794 167 79 62 50
302 574 315 178 121 100
266 353 265 106 88 68
273 463 314 56 28 33
273 144 238 131 99 62
224 434 208 131 11 36
225 484 208 142 2 37
288 465 105 212 13 42
283 484 175 56 31 29
438 454 170 102 28 34
318 324 312 144 95 74
243 429 200 133 10 32
259 74 208 127 31 36
380 932 273 59 42 38
356 114 231 117 95 71
233 434 204 132 7 33
362 606 299 111 36 50
433 559 186 39 34 37
219 444 216 132 8 32
392 734 300 98 20 39
329 410 192 91 79 66
247 789 250 62 52 49
473 955 212 94 79 64
423 899 231 89 75 64
299 823 227 65 53 48
239 464 203 68 33 35
361 452 128 170 7 35
228 412 231 73 29 32
308 960 230 87 84 89
364 329 210 99 84 69
237 412 246 69 42 40
219 449 216 136 2 35
220 444 213 136 6 36
381 941 299 100 84 69
327 413 190 89 77 65
436 779 245 168 114 80
281 216 294 116 95 71
376 289 231 124 96 63
259 204 276 115 93 69
250 429 198 130 11 32
222 449 210 135 2 32
330 88 206 134 8 43
333 164 216 112 89 61
502 464 185 116 17 41
228 414 216 63 33 36
362 427 130 122 63 43
268 20 257 102 88 74
218 449 221 140 0 37
328 649 306 159 22 54
364 204 247 126 101 73
243 694 323 165 115 90
342 684 156 81 62 46
249 829 262 66 53 52
353 904 291 36 34 33
220 419 226 51 34 36
343 309 266 86 67 46
448 439 176 54 44 45
272 234 244 129 99 61
225 789 286 184 126 96
257 104 221 134 15 40
447 419 236 154 18 51
303 634 306 60 28 33
262 224 249 128 99 62
220 419 230 43 33 36
376 284 236 125 96 63
256 18 271 98 47 46
221 429 232 66 30 36
222 429 236 80 26 35
363 374 200 89 79 70
388 417 196 112 94 76
402 430 266 72 55 41
253 410 241 103 90 78
348 384 194 88 78 68
224 444 241 137 1 40
264 26 253 100 86 74
321 94 236 99 70 53
243 664 287 138 99 73
428 421 226 77 31 28
256 790 244 76 60 53
317 443 165 77 65 54
367 911 290 32 31 34
219 439 226 64 27 32
241 586 224 36 31 38
334 435 151 81 68 55
302 284 257 89 71 50
230 489 203 120 15 33
221 434 232 76 28 35
227 689 311 154 106 80
221 439 232 117 15 39
491 448 199 108 21 39
260 36 248 99 88 77
294 392 234 90 76 62
303 689 320 108 16 37
223 434 236 108 19 38
444 449 237 158 7 49
401 715 280 67 37 38
248 417 205 84 57 48
478 446 182 152 12 14
297 580 180 187 10 42
340 283 208 112 88 61
228 413 221 72 34 32
429 439 258 149 14 48
227 444 246 132 0 38
338 219 206 127 98 63
334 436 146 75 61 50
265 400 238 98 86 74
232 699 317 152 108 81
349 568 288 146 9 42
219 449 226 142 1 39
323 960 234 79 75 79
294 358 244 87 76 65
233 424 203 137 15 36
322 394 231 71 60 50
333 334 266 74 57 42
326 349 281 117 82 61
253 424 198 127 25 30
332 379 205 95 82 70
444 463 174 50 37 42
220 449 231 140 1 38
222 444 236 139 1 39
268 419 201 93 78 63
300 35 271 113 34 44
231 472 278 108 14 33
358 474 282 126 19 43
298 289 252 90 73 52
438 449 246 112 20 41
280 85 226 137 26 43
330 170 221 104 83 58
375 294 237 127 98 63
282 104 269 120 95 68
224 504 271 67 27 33
388 499 271 46 26 28
328 24 256 98 65 54
434 458 169 55 39 40
472 513 173 77 24 35
353 199 252 123 99 72
220 450 234 137 3 39
253 649 288 125 84 65
353 339 267 129 91 66
356 443 118 163 6 40
343 49 256 120 36 51
337 493 132 164 10 40
425 850 213 146 116 88
223 449 241 133 1 37
288 494 131 158 9 39
246 509 189 126 12 32
412 484 264 144 15 47
420 937 233 107 86 73
228 415 211 76 33 35
321 69 236 114 82 65
255 449 198 120 16 32
248 589 290 85 21 34
298 975 306 64 59 57
330 166 232 99 80 57
297 224 247 100 79 53
406 513 264 160 2 49
248 519 301 88 27 38
233 412 221 68 35 35
292 396 228 92 78 64
276 124 238 120 88 52
249 554 305 154 16 51
303 355 241 79 68 57
340 180 208 127 98 61
278 579 323 150 114 87
253 414 216 94 79 66
273 417 313 104 80 59
298 894 226 50 45 47
288 422 195 92 77 62
242 424 271 68 27 33
371 214 236 118 95 69
238 416 208 77 53 51
373 739 306 199 6 64
315 553 293 34 26 29
343 129 209 130 97 59
467 429 215 45 29 32
338 428 166 93 78 62
443 952 234 91 74 59
369 588 288 157 20 49
270 580 319 132 104 78
288 129 256 108 84 57
299 209 251 112 88 57
433 904 216 103 88 75
437 644 236 137 106 72
284 489 126 135 1 38
253 840 311 206 145 119
351 120 213 106 88 68
220 499 236 86 25 35
452 947 192 93 77 62
238 413 216 69 36 37
301 226 284 120 95 68
283 754 221 72 31 37
249 639 288 120 86 61
469 514 197 167 13 55
376 339 240 128 101 69
325 721 163 68 50 42
371 239 245 126 99 66
390 409 241 110 88 62
313 444 305 79 23 35
296 677 313 45 28 35
282 108 236 125 79 61
418 509 256 61 30 32
358 739 310 166 21 54
331 179 215 115 91 63
371 205 217 120 97 72
398 774 180 79 61 52
320 386 293 127 88 68
238 412 221 70 39 37
313 719 175 59 44 35
234 415 250 75 31 34
278 364 246 93 81 70
348 909 301 33 31 32
263 209 247 127 98 63
283 449 106 67 29 29
243 416 208 73 52 46
303 939 321 35 34 35
273 484 182 47 33 28
243 413 216 79 50 44
302 799 210 59 50 46
323 649 307 171 11 54
244 480 198 45 36 34
428 959 281 94 78 62
392 848 211 78 62 53
290 475 173 50 35 28
253 429 198 127 11 31
258 539 176 97 14 29
436 774 245 166 113 80
382 699 202 58 38 38
228 739 286 134 101 67
284 405 222 97 83 69
271 378 244 93 82 71
272 374 245 93 82 71
287 754 219 89 29 37
315 389 242 118 88 80
323 344 221 84 71 58
398 422 226 72 61 51
228 419 206 95 33 34
323 459 107 176 3 35
243 412 221 81 59 50
363 194 246 121 97 70
248 413 221 92 76 64
268 10 286 83 38 36
407 659 231 105 73 54
323 419 186 82 72 62
293 430 187 89 75 61
348 154 248 119 94 66
325 312 303 122 92 60
351 115 244 121 97 70
414 514 257 117 20 44
248 416 208 85 58 49
499 479 176 89 28 35
220 489 231 74 29 35
233 412 226 65 35 35
302 536 149 101 21 33
289 704 218 113 19 32
307 448 170 65 44 35
328 224 236 98 79 57
427 868 216 88 73 66
403 619 226 112 35 39
325 45 242 84 43 32
314 729 172 65 49 39
368 189 216 115 94 71
284 459 183 52 35 29
251 402 268 117 93 66
288 418 201 92 79 65
373 848 250 47 38 35
233 412 231 72 39 37
338 444 306 141 26 49
329 359 265 79 58 45
293 449 97 152 15 35
251 510 303 163 17 53
276 407 224 101 86 71
225 416 240 42 28 28
441 802 226 115 78 59
357 224 254 125 99 70
326 319 305 135 92 69
329 471 114 177 6 31
394 704 286 136 11 43
302 520 139 106 23 35
262 924 246 62 58 59
397 709 286 104 18 37
318 394 250 103 78 69
233 412 236 72 38 35
283 965 241 80 77 79
263 108 218 108 98 86
340 101 248 126 100 71
319 349 306 152 103 81
292 510 140 135 16 40
280 94 230 117 45 41
276 413 313 133 102 77
247 544 190 147 10 41
263 596 204 191 9 43
291 156 265 111 87 60
308 942 218 83 77 80
234 411 226 68 38 38
362 264 254 130 98 66
249 439 296 54 25 30
317 880 189 73 63 61
234 411 231 71 42 42
423 664 212 128 99 68
328 27 279 144 36 56
226 424 242 75 27 35
409 764 196 76 58 47
288 399 226 94 80 67
318 334 310 143 95 74
333 49 201 105 48 33
382 421 285 68 54 39
303 979 251 64 61 61
237 411 227 74 47 43
253 509 185 126 8 31
219 464 226 152 1 42
363 911 311 41 39 39
311 884 305 149 112 82
326 890 188 86 75 73
288 10 271 99 64 49
344 59 253 117 94 73
248 679 324 165 117 92
423 660 258 193 126 100
413 654 221 119 90 63
259 134 256 115 94 72
365 930 266 70 64 62
482 976 225 97 81 70
298 719 330 141 17 47
333 709 163 71 53 43
381 384 216 107 89 68
245 534 299 42 26 27
387 555 290 143 111 79
223 509 266 52 29 32
315 612 193 142 13 43
243 412 231 87 70 60
225 543 265 159 0 44
388 589 286 185 127 102
324 444 305 38 26 25
223 719 306 156 110 85
303 937 318 37 35 36
356 99 221 115 34 43
283 284 302 122 94 68
342 342 268 91 65 42
261 699 315 145 98 72
235 411 239 70 45 41
397 924 290 45 39 35
428 734 206 124 89 58
414 589 236 156 22 54
355 426 307 166 18 51
389 859 216 81 69 63
225 498 212 155 6 38
355 106 224 108 87 61
348 379 270 118 82 61
238 411 241 73 52 48
243 699 323 164 115 90
343 924 319 42 38 37
342 957 247 82 76 76
308 249 276 121 95 65
331 164 226 103 82 58
306 549 319 156 115 88
229 415 245 44 29 31
290 475 130 111 3 35
303 980 276 66 62 61
291 956 229 79 75 79
293 473 112 140 15 40
249 624 286 80 43 44
319 859 186 62 53 50
233 414 246 57 29 30
238 415 256 124 30 41
345 71 248 115 60 55
290 485 168 67 27 28
278 779 227 67 55 47
255 390 257 111 89 66
375 649 219 88 25 27
272 84 212 144 16 39
238 694 287 128 96 65
305 232 260 109 87 62
259 229 252 129 98 61
254 399 251 97 81 65
402 989 256 104 91 78
255 400 248 105 89 74
270 565 304 103 16 35
288 394 231 96 82 69
401 720 284 148 30 59
257 229 256 131 99 62
340 961 254 87 80 83
343 689 156 88 64 46
268 234 290 117 95 72
395 450 273 152 6 46
274 833 243 86 65 56
252 399 256 105 85 65
442 554 211 157 24 52
277 104 226 128 22 36
242 411 232 86 68 59
255 940 253 60 56 56
255 739 243 130 12 37
256 78 253 87 43 36
220 474 221 122 12 36
333 454 107 78 33 37
248 412 226 95 80 66
387 420 260 123 97 69
378 934 281 66 50 40
305 451 99 167 0 41
222 504 261 57 27 31
237 454 204 117 22 31
426 658 259 187 125 96
325 348 278 110 80 60
349 74 190 136 26 38
302 468 147 87 14 31
279 573 183 118 31 40
273 249 295 122 96 70
253 417 206 91 68 52
263 499 182 57 30 30
341 184 209 126 98 63
266 343 276 115 92 66
453 944 240 65 49 31
343 719 311 106 24 41
365 169 221 121 100 76
327 379 211 91 79 67
420 510 253 49 29 32
224 534 261 161 0 44
319 74 246 106 70 58
247 411 237 94 79 68
382 940 286 83 67 56
428 549 236 169 14 54
288 384 237 95 82 69
273 89 270 106 74 59
325 50 237 87 40 35
248 411 241 93 80 70
253 413 226 100 85 70
313 385 247 107 80 69
281 907 234 86 72 58
411 756 188 82 57 44
252 412 240 101 89 79
388 604 195 164 21 45
323 36 268 121 23 46
258 679 266 64 29 34
221 499 248 81 26 35
411 865 239 89 73 63
254 411 238 98 87 76
258 504 305 165 17 52
226 442 243 136 0 39
324 304 301 110 86 57
353 239 255 122 97 69
257 169 251 120 96 69
381 941 291 88 72 57
334 46 228 101 76 62
247 408 251 89 73 62
248 420 202 102 36 35
423 529 167 89 20 34
293 9 286 191 136 143
260 30 252 98 86 74
259 169 247 121 95 65
343 234 251 99 80 58
288 339 251 89 77 64
300 396 239 87 73 58
373 845 252 55 44 41
248 409 246 93 78 68
343 199 250 111 89 64
431 527 168 164 6 38
375 234 232 120 95 65
293 21 302 161 117 96
253 579 296 64 27 32
318 369 241 68 57 46
229 449 256 126 1 37
254 729 247 133 9 38
256 229 277 118 95 69
269 199 243 125 97 62
253 399 276 122 97 69
253 794 247 77 60 53
288 869 256 110 83 54
259 154 251 117 96 72
292 50 252 110 30 28
423 422 211 84 33 34
240 411 249 79 58 52
329 109 241 123 88 69
281 89 232 92 39 35
253 534 181 125 12 34
334 426 172 93 78 62
253 908 305 183 134 119
469 965 226 97 84 72
333 624 300 48 27 30
257 259 276 136 101 72
341 199 248 104 84 61
243 410 251 80 63 54
303 739 328 127 19 46
341 367 268 90 61 42
362 164 216 112 93 72
343 254 202 133 102 66
254 439 198 129 7 30
332 389 262 77 57 45
300 417 216 87 73 60
314 304 260 93 75 55
236 458 282 112 18 38
328 644 206 84 31 34
345 55 253 115 78 65
279 525 303 108 19 40
241 412 252 82 55 42
487 494 171 102 29 39
342 797 294 125 102 86
381 685 290 125 11 40
356 607 298 58 24 31
440 652 226 133 101 72
221 453 238 130 9 38
507 459 181 117 21 43
358 299 206 99 83 67
354 164 248 121 97 68
248 689 287 125 93 71
353 259 256 114 89 61
247 408 256 94 76 62
249 424 291 108 17 37
222 529 246 64 25 32
302 214 276 117 93 65
271 334 292 132 101 73
481 436 204 129 21 41
252 408 244 111 95 80
373 924 312 40 35 33
323 344 257 73 60 49
239 804 324 178 129 100
237 444 276 99 22 36
385 429 139 149 18 40
313 432 303 116 29 43
417 489 260 147 14 48
330 199 239 94 77 59
348 494 140 165 4 32
257 689 320 154 106 81
301 11 278 138 82 79
282 69 217 118 25 32
230 465 275 87 27 36
307 448 98 170 5 37
400 942 308 56 46 40
328 334 261 75 62 52
331 80 190 145 18 44
408 724 261 142 21 45
252 403 251 105 88 71
343 419 301 105 7 36
247 434 291 58 27 31
221 509 231 111 16 36
266 339 281 123 96 68
251 402 256 102 84 64
398 874 227 83 70 62
325 319 290 102 74 48
338 184 245 99 80 58
318 714 322 147 4 46
298 319 310 124 92 66
249 405 251 103 87 73
230 665 293 148 108 80
256 239 277 124 98 69
258 842 309 200 140 113
483 961 188 113 93 71
338 34 241 107 81 63
368 906 220 68 61 59
378 714 307 157 13 50
233 418 205 122 20 34
257 934 307 190 146 126
230 416 208 96 34 38
321 398 221 75 65 57
408 494 266 162 10 49
497 478 185 180 14 56
398 584 186 189 14 43
367 209 245 124 100 73
277 476 110 160 3 44
241 606 250 45 38 32
255 415 299 128 15 45
322 84 226 115 26 35
297 630 209 79 34 40
220 760 288 164 115 85
233 416 208 82 40 38
331 502 133 128 22 41
335 907 302 77 59 52
329 184 240 93 77 58
380 400 214 130 108 82
327 422 180 85 74 62
354 49 236 122 26 43
324 309 291 99 77 51
375 408 268 122 91 62
233 421 203 129 16 33
398 839 205 74 58 52
387 684 222 51 36 35
237 424 256 92 21 35
424 499 164 125 13 35
499 454 192 81 25 37
233 484 202 104 29 34
286 59 237 93 35 29
354 779 182 65 52 46
264 509 177 91 21 24
231 424 204 132 22 32
318 529 147 200 12 45
234 428 203 137 10 32
263 399 241 100 86 72
278 409 221 100 85 71
235 699 319 153 109 83
232 430 204 130 13 34
423 843 228 82 68 57
265 360 289 124 97 69
297 550 159 122 19 37
365 342 209 94 83 73
329 74 191 136 10 38
328 460 109 165 12 42
431 631 241 131 102 67
237 509 291 45 29 32
241 448 287 33 28 30
491 961 186 105 89 75
255 934 257 107 88 74
259 50 226 84 71 58
268 619 220 168 13 45
238 418 205 123 22 27
463 474 212 75 21 34
239 559 291 91 24 38
319 829 186 67 57 53
338 349 206 96 83 69
358 339 265 132 94 68
263 29 251 99 86 73
307 339 247 76 64 51
236 638 301 133 107 78
431 951 271 86 74 66
311 864 216 54 50 50
238 429 202 139 7 31
268 43 231 113 94 73
339 431 116 157 45 44
221 749 301 167 115 88
225 710 293 147 108 74
222 464 251 80 22 32
395 430 149 117 24 37
263 969 296 58 53 52
376 355 218 100 84 68
280 734 223 134 6 34
428 423 206 93 25 35
293 339 311 124 95 66
256 89 258 99 53 45
225 420 208 76 35 39
256 204 271 116 94 70
288 909 321 176 127 105
296 805 219 67 54 49
308 709 186 58 45 35
350 40 253 118 58 56
268 224 245 128 98 61
368 374 265 130 97 65
321 422 184 79 70 61
297 586 184 179 15 45
384 693 292 122 10 37
368 574 175 91 25 38
258 159 256 115 95 72
299 469 167 76 25 28
226 418 210 99 35 32
475 455 208 113 24 42
283 374 312 136 104 75
231 443 256 124 1 35
379 654 282 148 17 47
228 434 205 118 14 34
422 709 254 137 91 63
372 329 245 132 99 67
225 509 217 159 7 40
225 439 208 138 3 32
227 459 261 127 4 38
488 439 196 68 32 36
298 394 312 149 106 78
306 936 214 78 72 74
322 29 255 87 36 27
300 270 254 88 70 48
294 853 243 158 106 80
264 59 270 114 23 41
228 439 206 140 3 30
243 679 322 157 111 86
322 438 165 79 69 58
308 950 224 84 80 84
262 679 306 113 79 63
301 199 266 114 91 65
236 437 263 113 12 36
468 464 177 78 30 31
228 444 206 138 1 32
344 689 161 72 56 43
274 319 296 133 101 76
352 19 256 109 46 49
252 399 271 119 95 68
333 410 281 48 38 29
324 289 231 97 80 62
378 564 295 176 125 95
267 548 167 169 14 42
390 562 268 82 31 41
225 449 208 136 3 31
468 445 182 55 40 46
276 114 237 121 86 55
346 229 253 108 87 63
361 346 264 131 96 67
463 941 221 64 53 43
277 629 320 173 119 93
220 499 226 103 19 36
373 744 304 196 9 63
350 104 243 122 98 71
240 604 246 110 24 42
313 959 316 63 56 53
366 239 249 129 102 70
381 944 300 92 78 67
293 494 130 103 21 36
320 79 236 92 52 45
233 444 266 105 15 34
424 938 221 102 85 76
362 294 207 105 87 67
221 756 294 166 113 90
282 689 224 116 18 34
254 459 198 96 26 34
360 791 288 77 61 54
377 509 152 154 0 36
408 469 163 79 32 35
377 339 236 125 99 69
412 563 178 98 28 33
233 449 205 128 8 30
413 524 165 60 37 36
324 435 167 81 70 59
398 439 271 156 13 49
378 704 192 49 38 37
407 439 162 84 33 38
333 84 191 149 14 44
228 449 206 134 5 31
238 434 202 140 3 32
413 449 165 57 38 39
494 484 171 141 20 40
255 491 188 69 34 29
346 320 269 104 76 53
258 19 266 101 50 48
260 124 246 115 92 67
337 685 201 60 41 44
239 449 203 115 15 30
383 815 186 69 55 52
268 749 311 103 59 51
308 709 201 57 44 39
290 100 244 119 24 32
265 533 147 97 22 36
304 823 222 62 53 49
329 364 265 82 58 43
448 499 171 101 21 33
398 549 172 156 0 34
299 474 151 86 18 28
289 475 115 100 24 41
243 418 205 91 38 36
415 739 194 75 50 44
342 437 103 137 32 34
242 835 280 203 136 106
260 930 247 61 57 59
243 469 201 83 31 34
222 769 306 180 123 98
303 418 201 84 72 61
380 949 302 84 73 64
420 586 218 113 45 65
243 424 201 125 18 31
288 454 97 175 5 36
318 664 309 162 6 51
265 124 237 130 101 69
239 454 203 99 28 31
272 542 163 207 10 47
267 837 309 191 136 109
283 304 256 106 84 58
298 604 195 158 20 45
332 863 179 89 71 58
317 49 256 113 35 47
253 420 201 105 52 42
236 579 292 157 8 49
244 414 271 116 21 38
278 9 281 89 54 46
249 425 198 132 12 28
308 609 305 35 29 31
256 388 255 111 90 68
427 897 235 87 74 64
259 244 256 137 100 67
273 799 231 74 59 50
248 434 199 133 7 33
414 948 276 86 72 62
293 629 304 41 26 28
302 754 196 58 47 40
346 462 118 171 4 46
245 484 299 135 13 40
323 329 226 93 77 60
436 931 234 74 60 51
293 234 296 118 95 70
332 209 210 119 95 67
246 774 249 62 52 46
358 209 252 127 101 72
258 590 200 200 9 45
423 925 251 52 43 38
248 414 281 124 17 37
281 83 226 133 23 42
237 584 231 132 23 42
303 975 306 71 64 62
268 769 312 145 99 73
373 459 285 91 30 39
372 577 178 181 7 46
229 569 256 128 9 40
320 88 240 102 45 48
274 449 188 83 29 29
358 794 171 61 51 47
310 410 303 142 99 79
246 433 287 72 25 33
243 434 201 137 4 33
298 314 251 93 78 63
434 823 226 106 77 62
246 428 283 120 11 34
283 354 307 119 94 66
376 808 274 87 68 61
333 534 152 130 6 32
236 452 278 84 22 33
359 470 134 165 2 35
293 574 180 184 11 45
275 11 304 117 48 50
291 79 248 107 79 57
278 11 306 126 47 53
281 362 308 123 95 68
268 179 242 133 101 62
278 179 241 129 99 64
458 479 175 98 17 29
323 74 226 129 23 36
248 439 200 122 15 31
284 329 305 134 103 74
302 442 111 61 42 32
408 799 266 178 133 100
282 114 270 120 96 68
398 424 156 199 18 22
246 618 312 141 108 80
393 669 256 70 26 33
253 509 304 165 18 53
262 971 281 76 70 70
223 469 256 129 6 38
432 459 168 49 40 38
248 449 201 116 18 30
352 45 232 120 42 45
303 579 306 79 49 44
365 189 210 114 93 68
243 444 202 133 7 32
298 764 318 78 65 59
421 573 234 68 25 35
456 431 202 78 6 46
327 249 226 109 86 61
270 272 253 135 98 64
248 444 201 121 17 32
329 946 323 75 66 63
433 569 211 147 21 49
281 56 227 72 39 21
429 474 252 72 21 33
283 344 305 119 94 66
253 674 324 172 121 94
398 845 211 65 50 43
237 499 291 104 15 38
254 434 198 134 10 32
286 362 244 92 80 68
397 934 301 41 35 32
313 629 203 83 31 39
418 684 216 108 82 55
292 99 256 127 40 52
266 806 239 79 61 53
268 399 236 99 86 73
243 434 281 88 21 34
326 27 254 102 38 40
252 435 199 133 7 33
274 344 257 95 82 68
233 499 286 149 11 45
253 394 271 120 95 67
229 664 311 164 108 89
312 784 184 57 47 42
257 709 251 118 15 36
317 399 236 111 87 80
463 499 171 115 18 31
343 50 206 102 71 42
248 784 247 73 58 52
253 444 199 124 17 30
310 259 281 119 94 64
344 488 297 138 103 81
235 424 254 99 21 35
338 884 281 104 81 65
323 33 270 128 30 52
266 123 268 109 91 73
253 449 199 122 15 31
252 959 266 67 63 64
272 615 214 184 9 48
343 919 320 51 45 42
289 104 246 131 74 63
335 229 244 92 75 55
473 449 210 68 21 33
255 446 198 122 13 28
360 412 184 95 80 66
348 329 206 92 79 67
401 941 305 52 44 38
296 11 273 122 59 47
326 63 195 89 35 26
373 799 280 88 66 61
292 484 148 81 15 32
326 437 164 81 70 59
314 409 251 87 71 58
359 494 286 107 76 63
268 444 192 83 28 29
225 429 240 107 22 40
323 319 256 81 64 47
354 124 242 116 93 68
428 422 211 92 28 32
348 907 297 35 33 33
333 572 168 201 10 45
288 89 241 120 25 32
220 489 241 36 31 32
317 289 267 133 108 79
276 26 298 141 32 54
235 587 238 72 32 38
229 419 246 38 32 33
229 424 245 83 25 36
323 409 297 85 68 54
358 269 203 131 99 61
230 454 266 123 5 37
358 244 255 126 99 68
246 611 240 184 9 51
319 294 286 111 86 57
376 369 213 95 82 70
251 617 290 84 47 44
443 784 226 127 86 60
323 74 201 136 6 42
401 754 177 68 53 44
348 571 169 85 23 36
233 419 251 51 30 32
325 308 302 115 89 61
278 284 252 131 97 66
296 204 284 115 92 64
350 87 243 98 23 32
308 464 151 85 18 29
328 410 295 61 49 36
224 464 256 128 5 37
324 294 236 91 75 59
273 524 166 76 21 28
229 429 246 136 5 40
429 629 251 141 103 66
249 504 188 116 16 31
221 754 302 171 117 92
380 718 182 76 47 36
308 499 306 148 109 91
346 486 294 112 72 60
351 56 207 103 48 38
269 31 248 103 88 71
245 716 283 88 62 44
326 794 299 70 55 51
226 494 209 151 4 38
418 628 229 108 84 54
237 799 323 178 128 100
235 419 254 102 27 38
443 679 226 154 109 76
303 239 286 119 95 66
326 349 286 123 84 62
237 419 256 114 20 38
355 63 206 114 41 43
403 854 221 105 83 66
301 239 290 117 92 65
259 709 317 155 105 80
235 430 255 122 12 37
221 489 251 59 29 33
297 713 328 110 19 40
366 330 254 125 90 58
264 219 247 127 98 62
251 458 303 85 23 36
271 887 313 129 104 83
303 829 291 107 68 55
336 100 200 137 16 40
473 953 215 91 75 59
330 911 219 67 65 67
257 544 171 101 11 31
317 404 246 100 80 70
298 415 211 88 75 62
225 434 240 126 7 39
380 804 169 58 51 48
274 510 136 71 27 32
226 434 242 135 4 40
266 529 145 58 30 33
366 200 208 116 94 69
261 363 266 113 92 69
319 764 177 80 61 50
372 229 211 115 92 65
326 812 289 195 132 110
226 439 242 140 0 41
283 449 101 102 29 33
221 484 251 78 22 35
427 449 168 68 39 35
308 624 202 86 27 37
348 824 178 72 58 50
376 690 192 68 45 40
232 434 251 133 1 39
337 149 242 108 85 63
283 9 291 139 82 86
368 859 180 82 65 58
323 439 100 128 45 45
282 664 225 136 11 33
303 299 255 92 77 60
307 739 181 68 54 43
229 439 250 131 1 39
222 509 261 62 28 34
231 439 252 130 1 38
436 477 244 41 33 29
268 850 271 65 56 59
273 909 241 74 66 62
352 160 249 122 97 69
328 514 141 194 12 43
440 435 247 161 9 48
438 979 280 98 81 66
225 446 244 134 0 39
225 451 249 132 1 37
403 589 276 158 117 83
278 64 276 117 66 59
328 184 231 102 83 62
357 829 183 71 58 54
311 705 179 60 41 30
360 446 124 172 7 46
288 299 306 137 99 75
257 79 210 134 16 37
337 707 163 72 54 42
390 412 247 114 90 61
413 484 163 125 9 31
338 113 206 133 80 63
232 439 256 126 2 37
436 684 213 150 109 75
221 464 246 94 25 37
268 36 243 109 93 75
317 379 236 70 58 48
380 450 139 75 34 40
358 479 137 124 16 35
231 442 253 126 0 36
331 274 214 115 93 69
250 734 252 118 11 33
393 847 244 79 47 39
247 409 266 96 78 61
372 209 221 121 98 73
335 680 154 95 66 49
478 436 197 54 44 37
230 445 255 124 1 36
266 409 229 101 87 73
260 194 275 116 94 70
258 169 266 114 92 69
306 424 305 135 98 74
303 619 200 112 27 40
241 498 194 90 23 32
327 234 221 112 89 62
299 700 324 83 28 35
224 479 266 138 1 39
292 581 184 189 8 40
299 919 203 81 70 67
303 423 190 82 72 62
358 820 181 67 55 48
288 124 256 111 86 59
337 779 299 82 63 56
288 114 251 117 88 61
328 369 276 99 70 52
311 874 196 47 44 46
343 614 192 158 21 43
253 489 190 64 34 32
267 700 305 44 33 30
371 365 208 93 83 74
263 399 301 129 101 74
261 729 239 136 3 36
253 469 197 87 29 33
441 738 216 130 91 64
395 669 236 60 31 34
259 114 251 124 99 72
373 429 130 150 28 29
253 484 192 51 35 35
258 174 266 115 93 69
302 229 252 110 86 56
359 144 221 113 93 72
309 638 208 137 16 38
352 24 246 92 61 49
238 729 322 166 116 88
229 504 206 151 5 36
329 810 287 195 131 109
305 238 282 120 95 66
278 169 282 114 93 71
383 763 290 95 74 66
243 773 323 164 119 88
305 793 197 57 47 43
289 69 245 111 75 56
308 399 306 142 102 78
265 759 233 135 8 36
288 119 261 114 84 59
370 207 214 118 95 70
268 659 316 155 101 78
396 707 177 73 56 42
308 308 313 117 90 62
396 559 264 84 29 39
363 378 199 89 79 69
387 639 270 170 14 55
252 494 189 63 34 33
285 124 249 120 92 63
271 522 148 50 19 27
376 240 235 120 94 64
244 499 192 76 28 33
241 559 296 72 24 32
388 759 291 85 52 53
383 589 286 185 123 100
374 279 216 121 92 58
259 109 247 118 85 65
419 759 204 106 78 56
257 179 251 123 97 67
353 394 272 126 88 66
249 454 300 81 25 33
456 523 209 99 22 33
288 269 249 95 76 54
392 459 157 70 35 34
268 954 235 69 65 66
310 880 193 67 59 59
306 397 309 144 105 78
268 973 291 53 48 46
377 840 193 64 54 52
244 504 192 127 11 33
340 924 224 79 71 72
353 124 216 107 89 69
286 74 236 115 43 43
361 154 240 118 95 69
247 504 189 120 15 33
273 23 255 104 90 76
341 854 274 158 125 101
258 389 251 102 85 66
292 164 266 111 88 60
251 497 189 45 34 38
437 744 206 120 84 60
238 649 290 124 97 69
256 60 257 123 21 44
224 494 211 153 6 38
278 149 239 123 94 58
248 804 325 176 130 101
318 612 193 52 32 36
290 887 318 174 137 105
255 880 272 135 108 81
226 463 262 122 5 36
250 500 188 89 31 32
355 74 200 138 28 47
314 354 246 75 60 47
253 504 186 108 20 31
309 274 296 122 96 66
369 902 208 70 58 50
295 489 149 80 17 30
346 452 113 105 28 40
275 464 103 137 6 37
286 101 238 123 33 39
219 454 216 140 0 35
359 426 152 97 81 62
345 52 205 99 67 41
266 790 234 74 59 50
222 454 210 134 3 34
295 188 277 113 90 64
240 460 289 105 17 39
325 815 288 196 131 111
223 454 246 129 2 37
398 724 291 68 30 38
316 761 179 81 62 49
267 82 208 145 21 39
219 464 216 143 1 36
222 464 211 124 10 31
220 464 213 134 2 33
311 432 179 75 64 54
268 479 187 56 33 29
348 284 205 114 90 63
364 421 168 96 80 62
288 59 241 94 40 32
219 459 221 149 0 37
272 504 175 43 31 29
241 570 298 40 28 30
467 950 236 90 73 59
319 440 167 79 68 57
223 469 211 137 2 34
281 61 222 96 32 19
308 724 181 65 52 39
333 443 102 94 35 40
329 254 216 118 94 65
221 514 256 101 20 34
308 614 196 94 23 37
220 467 213 135 0 33
220 469 216 147 1 38
388 964 271 106 76 58
245 411 261 78 64 53
265 856 288 98 74 54
257 164 256 116 95 73
345 79 248 105 77 58
290 304 253 85 70 53
220 494 236 58 30 36
323 433 170 83 72 60
283 809 230 79 61 52
247 454 297 70 25 32
395 898 239 83 69 58
288 74 241 125 32 41
289 40 283 128 33 51
304 506 309 137 105 86
413 945 288 74 59 52
274 962 246 77 73 75
331 349 271 70 54 37
318 364 246 77 60 44
221 469 214 140 1 35
278 838 300 55 43 43
344 189 250 114 91 66
268 13 266 88 73 65
227 529 221 61 27 35
258 929 251 71 64 62
297 459 175 75 27 28
315 308 259 88 70 49
280 69 214 125 23 29
324 436 120 78 54 44
255 440 304 109 14 36
350 55 242 128 108 91
252 784 245 81 63 53
288 824 301 59 49 45
288 24 260 86 33 29
245 765 253 112 81 56
242 614 271 165 8 48
376 384 208 98 85 72
387 494 157 53 35 40
325 374 278 106 74 54
223 474 211 141 0 35
263 204 281 117 95 70
220 474 216 144 4 39
343 74 251 116 20 44
239 604 276 175 0 46
221 474 214 146 1 34
293 824 231 79 61 53
328 13 287 159 91 97
358 234 201 124 95 59
403 484 164 96 23 35
487 498 181 136 28 47
483 494 170 77 31 34
222 494 261 49 29 30
343 274 204 125 97 64
363 229 202 124 97 62
327 953 315 65 57 51
305 408 235 84 70 56
309 804 196 58 51 47
317 794 179 60 49 43
424 576 195 167 27 51
353 184 206 124 97 62
297 414 221 88 75 61
220 479 216 149 4 37
430 571 217 62 33 33
300 239 292 115 91 64
228 459 266 108 14 36
331 752 309 84 67 58
406 582 188 194 17 44
368 249 206 130 99 61
338 239 205 129 100 63
378 824 267 78 60 55
272 383 240 93 82 71
347 54 251 109 31 43
255 558 168 156 15 43
327 910 211 75 71 73
372 214 231 114 92 67
230 489 280 126 12 40
310 374 249 95 74 62
374 354 216 95 83 70
220 504 236 121 19 40
402 466 164 124 16 36
378 794 280 89 69 61
219 454 226 142 2 38
298 229 291 117 94 68
377 334 231 125 99 68
406 421 177 152 54 49
240 421 264 99 21 37
219 454 231 119 8 36
227 509 211 158 7 39
310 587 178 191 7 36
325 61 221 107 45 44
395 616 209 60 26 29
338 169 211 124 97 62
221 454 241 131 7 38
377 254 221 121 95 65
248 469 199 96 31 35
441 552 215 81 29 38
220 456 239 123 15 39
314 859 201 42 39 40
219 464 231 114 19 38
388 585 184 184 10 42
367 405 193 97 83 68
220 464 236 48 29 33
283 119 270 120 95 67
342 84 250 115 93 71
411 884 251 66 55 47
250 419 290 90 22 34
345 478 288 109 68 54
330 165 236 96 78 57
265 908 315 191 135 119
220 459 240 103 19 36
323 369 257 70 53 37
306 375 243 82 68 53
243 424 276 101 20 35
220 464 240 42 29 31
407 590 252 65 47 34
271 275 254 139 100 65
279 400 227 97 83 69
221 464 242 64 25 30
291 323 254 88 75 61
286 46 243 63 44 32
398 819 266 181 140 112
315 833 202 54 49 48
436 664 249 169 119 87
288 489 126 165 6 39
403 624 271 181 118 97
243 464 201 66 32 35
296 181 253 107 86 63
223 514 266 108 21 40
260 104 218 128 28 37
398 423 231 76 66 57
353 540 154 59 32 34
225 454 251 129 2 37
343 449 291 107 21 42
363 729 310 57 26 32
284 59 231 83 34 27
313 533 147 205 12 47
312 724 175 62 45 37
343 35 238 115 99 82
273 50 221 115 98 81
353 659 210 93 28 28
223 459 251 111 11 35
401 645 246 111 48 46
220 467 239 52 30 32
229 759 316 171 119 92
221 469 241 72 29 33
409 870 235 61 50 49
265 754 313 158 104 84
268 439 193 120 17 29
336 153 214 116 92 62
335 431 309 77 21 29
363 454 131 157 7 38
221 470 238 86 24 32
226 524 220 77 28 37
220 474 226 111 14 35
220 479 226 94 21 36
383 833 196 54 45 41
292 94 261 122 20 45
286 144 248 114 90 61
247 924 286 109 96 88
393 932 263 67 50 42
220 479 231 85 28 35
347 801 169 65 50 49
256 464 308 56 25 27
370 266 209 128 96 57
221 504 231 67 25 33
278 450 106 67 27 27
263 169 276 116 95 73
220 474 235 97 22 34
331 365 263 81 56 40
295 74 256 111 56 54
247 585 200 176 16 47
298 534 316 138 115 92
408 715 196 87 60 44
221 474 238 91 22 36
293 369 313 142 107 78
406 719 196 83 61 39
295 54 255 112 58 50
400 880 234 92 75 61
221 479 238 54 28 31
331 339 275 85 64 43
312 734 171 70 53 41
249 410 281 108 82 61
222 469 246 44 29 32
375 303 237 128 97 65
246 518 189 127 10 35
222 469 251 51 27 34
224 544 251 144 11 44
261 174 273 118 96 71
358 249 201 131 98 57
278 359 306 120 95 68
439 974 271 119 99 77
231 498 204 142 5 34
262 857 290 129 98 74
470 954 201 127 109 97
421 435 168 132 4 27
438 489 168 114 17 32
270 381 243 94 83 72
222 474 246 55 29 33
301 33 271 121 44 54
221 479 246 48 27 32
384 418 262 125 98 71
288 724 325 168 18 53
279 43 240 84 56 38
331 119 236 116 85 63
288 28 291 141 92 79
262 274 266 145 102 72
322 309 276 123 94 65
379 785 283 88 69 60
223 474 256 135 5 39
353 129 216 109 90 70
344 156 208 123 95 61
236 773 269 136 103 69
362 174 211 112 93 71
260 32 279 133 17 49
406 644 230 97 67 45
222 479 256 137 2 37
284 886 248 84 70 56
291 472 174 65 31 31
433 494 241 111 25 43
375 269 238 127 97 62
239 539 197 141 15 40
221 484 216 117 14 37
318 779 181 64 51 44
329 54 206 74 47 42
425 952 276 86 72 60
278 884 316 158 123 94
335 46 199 118 46 21
227 674 296 151 106 78
429 574 211 141 28 47
353 299 264 106 83 55
222 489 216 139 9 39
290 158 255 109 88 63
223 504 266 89 23 36
242 454 291 46 28 29
333 680 191 63 45 46
317 324 246 74 59 44
223 519 266 145 10 43
224 489 211 149 4 37
428 439 170 91 29 31
313 659 211 69 32 35
308 454 166 58 30 28
245 449 294 82 27 35
351 26 243 85 66 53
403 729 276 116 23 45
348 189 252 120 96 70
286 496 309 152 27 56
408 629 231 107 73 46
254 399 281 124 98 69
374 904 277 43 39 38
220 483 217 141 12 42
312 413 236 92 78 67
288 69 241 113 40 38
400 704 221 89 49 33
254 414 296 88 23 35
442 464 172 54 39 40
270 511 173 72 19 30
315 323 254 76 60 42
268 404 306 129 102 74
348 434 306 73 23 35
220 484 221 94 20 37
277 60 217 82 32 22
338 934 323 51 46 44
392 743 175 83 63 48
329 51 227 88 33 31
467 449 215 159 16 49
366 179 240 117 95 71
284 53 236 76 42 26
355 117 238 118 96 71
222 494 216 154 5 37
260 860 301 166 121 101
221 494 221 127 13 39
282 543 302 110 6 34
360 153 220 113 93 72
286 228 243 110 87 60
364 545 298 170 123 91
313 764 181 75 58 47
454 432 196 84 13 42
238 639 311 139 106 75
311 863 224 44 39 42
255 384 271 122 97 68
258 44 271 122 37 51
404 479 163 78 32 33
332 47 230 86 46 37
305 268 298 120 96 67
280 480 178 66 31 30
313 444 99 178 14 42
324 74 216 129 38 52
220 494 223 95 18 34
268 249 291 120 95 69
365 223 204 123 97 64
350 49 247 133 18 48
422 813 212 113 79 57
292 655 219 138 5 34
242 444 286 62 26 33
252 949 291 191 141 120
418 828 259 199 138 114
361 938 276 85 79 77
321 89 230 109 17 35
225 539 266 159 0 44
341 364 268 90 62 42
391 980 265 93 76 62
326 432 169 83 72 60
395 917 271 39 37 37
323 74 206 134 4 41
311 399 304 139 99 78
348 540 154 43 35 40
223 499 216 157 6 39
335 476 119 155 1 41
243 769 323 164 118 88
416 684 248 87 57 39
281 129 243 115 87 51
271 661 304 42 34 31
418 646 218 113 89 61
323 498 127 90 29 36
450 480 223 165 7 54
223 494 266 62 26 32
241 418 263 66 31 36
334 99 206 123 8 39
224 504 216 158 7 38
287 129 266 117 90 62
239 489 198 63 35 37
298 474 112 123 20 38
403 871 250 64 54 45
328 15 276 142 83 86
222 504 221 154 6 38
333 544 155 164 0 35
293 322 248 88 75 62
249 475 198 60 35 34
268 124 270 111 92 73
232 459 276 83 22 34
251 959 270 63 60 62
261 654 271 67 26 35
298 204 251 116 90 58
251 951 281 144 102 86
288 894 321 171 131 104
223 509 221 157 5 40
436 828 222 103 74 61
331 432 164 87 74 61
280 499 130 116 1 37
325 61 202 82 20 26
334 174 213 122 95 63
303 704 326 70 23 32
219 484 226 109 21 39
285 24 259 77 33 27
251 901 308 175 129 111
343 239 251 97 78 57
348 194 252 120 95 69
293 59 251 119 36 38
293 330 248 89 77 64
220 489 226 62 29 34
380 702 201 57 43 42
295 228 293 116 93 67
245 411 266 68 55 42
273 229 243 129 99 62
284 217 293 118 96 72
343 933 324 53 47 43
433 724 209 126 91 58
220 484 236 43 31 33
354 698 308 104 25 41
274 593 198 182 9 42
308 314 252 87 72 56
293 444 315 87 29 38
263 134 241 124 98 68
293 519 146 134 12 35
221 482 238 52 34 35
274 769 227 90 41 44
310 364 250 75 61 47
376 871 264 43 39 36
414 430 246 62 17 23
375 901 220 69 64 62
221 484 241 52 31 33
248 419 286 80 22 33
418 833 255 193 130 104
361 239 203 126 95 57
322 304 236 94 77 58
360 232 253 127 101 70
273 549 171 104 26 38
343 69 187 123 32 32
288 524 152 143 19 40
396 774 274 64 54 51
286 89 238 118 24 30
220 489 236 40 32 34
442 945 220 83 66 52
271 654 311 131 82 64
354 129 242 117 94 67
390 854 243 52 42 37
280 62 219 87 31 17
349 426 162 96 79 62
254 939 256 71 62 59
284 445 318 51 27 32
288 49 246 98 38 29
435 561 190 36 34 40
293 89 251 103 66 56
283 64 276 133 19 49
221 492 226 52 27 33
351 88 197 143 20 44
338 424 306 85 12 30
243 674 288 134 97 70
263 44 216 107 59 44
364 184 210 113 92 68
358 417 179 96 80 62
323 864 182 65 56 53
278 508 136 85 22 34
328 677 183 69 50 40
268 379 246 95 84 72
241 437 278 48 26 29
264 169 243 130 100 63
249 544 187 114 16 36
325 808 178 71 57 52
251 403 272 121 96 70
319 289 276 115 91 64
255 952 294 166 120 102
338 99 249 128 102 73
273 875 258 115 93 67
360 466 134 165 2 38
286 708 219 79 30 35
366 298 254 133 96 63
327 259 231 101 81 58
220 494 231 97 25 38
288 119 256 113 86 59
343 28 245 106 91 74
273 10 296 99 46 44
263 93 213 142 29 45
426 448 259 106 29 46
403 809 187 73 57 50
263 699 311 135 92 72
348 299 206 101 86 69
378 814 271 85 68 61
278 104 270 120 97 72
376 299 226 117 92 63
220 494 241 36 30 34
322 309 246 75 61 45
277 883 254 120 95 67
231 509 282 132 16 44
336 947 319 81 68 65
266 867 270 116 97 78
281 65 217 106 33 30
273 124 235 127 91 54
416 936 246 118 99 86
289 734 324 171 21 58
221 487 242 47 31 31
279 634 222 136 16 40
284 520 303 78 17 30
263 44 275 126 86 73
331 413 294 48 39 30
221 489 246 42 33 32
223 539 246 67 21 34
286 159 248 115 89 55
353 929 320 50 45 43
333 924 220 66 62 63
345 431 136 131 58 46
302 229 286 119 94 66
413 829 260 195 135 108
222 489 256 111 19 37
290 89 244 117 18 32
220 490 245 41 32 33
260 19 290 105 26 39
364 249 252 129 100 67
297 493 304 64 25 29
298 798 305 67 55 52
229 464 271 54 26 31
351 124 244 120 96 69
244 619 266 45 30 35
227 774 281 153 109 75
261 214 249 126 98 64
364 324 256 128 91 61
228 469 207 123 14 33
257 611 220 204 13 53
288 275 250 98 77 52
268 46 227 110 93 72
377 354 221 108 88 67
339 159 245 105 82 62
284 679 223 98 26 33
259 164 266 115 93 69
295 194 249 117 90 55
220 494 246 39 30 33
455 432 200 78 25 43
400 739 278 175 10 54
348 394 192 89 78 67
241 428 272 49 30 32
327 204 231 104 84 62
288 29 260 73 44 33
221 494 251 59 27 33
302 364 242 82 70 59
221 499 224 136 11 38
263 34 215 115 52 37
280 89 230 84 47 35
349 239 254 112 89 64
252 784 324 167 122 89
398 854 222 89 72 58
240 456 289 51 28 28
336 134 243 113 87 65
463 429 220 55 29 32
268 784 232 71 57 49
287 499 146 69 21 31
251 419 292 98 22 36
278 499 306 70 18 29
348 164 249 119 95 69
352 35 238 100 40 37
345 876 168 92 76 66
293 74 251 120 53 55
402 708 236 106 56 51
223 774 306 181 124 97
220 499 231 79 26 35
308 859 231 58 51 49
220 499 241 46 28 34
374 689 186 78 52 39
347 104 198 135 29 37
278 50 231 104 84 67
222 509 226 128 13 39
254 964 291 54 50 51
258 519 302 44 27 29
340 662 208 84 30 31
321 68 239 104 11 25
252 959 286 49 45 47
288 415 206 94 80 65
335 112 211 127 87 62
323 569 297 89 25 36
220 509 236 62 30 36
221 510 235 87 24 38
352 134 212 115 94 69
221 499 251 99 21 35
333 49 226 97 60 49
363 888 278 45 39 35
311 422 189 79 70 61
293 79 251 119 54 52
357 818 279 184 139 117
290 84 245 127 28 40
330 224 240 95 77 57
316 353 231 68 60 52
333 194 211 113 91 65
452 947 225 102 82 66
333 439 101 91 34 37
368 429 126 143 35 36
358 399 190 95 82 68
308 874 302 144 116 86
368 419 285 124 25 44
229 474 276 96 19 36
408 939 275 82 70 60
319 400 226 73 63 54
255 638 261 124 25 46
422 903 234 90 76 65
313 359 255 92 71 56
221 499 256 53 30 32
327 249 221 113 90 63
239 829 281 198 135 106
482 499 191 107 23 42
325 976 261 89 84 85
225 507 213 159 8 38
358 505 144 168 0 36
413 469 163 98 22 32
410 564 248 72 25 34
221 504 251 73 28 34
278 749 316 155 16 50
446 538 215 171 7 54
271 412 224 101 87 72
221 504 256 68 30 33
337 109 200 149 23 45
255 879 296 151 102 109
220 509 246 72 29 35
308 21 282 121 53 56
343 538 153 44 34 40
410 599 236 151 21 48
221 510 247 91 28 36
273 619 216 61 27 35
272 54 216 107 89 66
285 355 309 123 96 68
387 409 212 120 98 75
292 491 129 149 16 47
327 924 317 45 40 39
239 459 203 58 33 37
270 658 303 68 48 43
256 532 303 38 26 26
297 443 179 90 32 25
221 509 251 71 29 33
296 866 304 117 95 72
345 426 163 95 79 62
350 64 242 102 61 52
324 960 307 64 57 55
378 724 308 130 21 48
352 44 246 122 78 69
313 509 132 68 33 39
389 554 281 96 58 42
221 509 256 92 24 34
240 519 294 65 29 36
228 454 207 133 11 32
345 879 186 133 122 121
446 518 219 154 0 46
338 679 166 75 60 48
326 309 270 90 74 57
308 552 158 127 27 47
234 504 286 138 14 43
323 679 171 78 57 44
298 11 276 133 73 68
298 794 306 69 56 51
300 566 318 172 118 93
364 244 204 129 98 58
267 35 283 116 58 58
433 484 166 122 17 32
258 509 304 103 21 40
389 754 291 77 32 39
233 454 205 126 16 31
318 409 206 80 71 63
228 459 207 72 28 34
301 11 281 157 105 105
250 714 266 138 8 40
225 719 293 148 107 76
333 829 285 182 135 111
387 879 217 77 67 60
225 459 208 100 20 36
256 622 323 149 111 84
225 464 208 102 20 34
348 538 153 39 37 39
227 474 271 92 14 34
368 425 136 124 69 52
228 464 207 84 27 33
288 769 315 70 58 54
304 421 192 82 72 62
330 194 213 111 90 66
366 274 250 133 97 66
247 504 302 105 20 39
233 459 205 55 33 36
251 585 293 93 26 39
255 394 280 123 98 69
377 519 275 130 16 43
268 25 253 101 87 72
233 464 205 66 32 35
442 719 221 129 94 63
233 494 286 147 11 44
389 951 308 85 71 60
369 883 273 48 42 38
328 875 184 70 59 57
323 64 231 107 62 52
293 734 326 91 20 39
227 504 276 55 27 34
415 841 238 106 64 50
264 380 247 98 85 71
237 464 204 71 33 35
320 318 225 107 86 64
249 434 295 84 25 35
318 979 261 63 58 58
304 966 239 89 87 91
353 74 231 98 77 60
248 843 306 205 139 112
228 479 206 110 16 34
