ply
format ascii 1.0
comment Created by Open3D
element vertex 2214
property double x
property double y
property double z
property uchar red
property uchar green
property uchar blue
end_header
228 393 288 118 94 67
233 474 185 95 32 37
407 469 358 112 6 36
412 743 278 159 102 72
416 800 281 74 56 42
257 328 312 122 93 65
225 623 257 69 32 39
247 453 168 77 30 35
341 148 252 118 94 66
347 183 254 121 97 70
526 513 368 165 124 114
247 458 163 70 35 31
395 503 344 111 19 40
356 223 217 122 97 66
357 238 217 127 99 64
245 463 163 77 33 35
325 248 217 132 102 66
376 573 313 50 29 32
382 553 233 42 32 36
242 463 173 60 32 34
227 858 303 138 111 84
227 578 312 71 27 36
244 458 173 54 39 34
476 552 359 112 95 79
271 333 253 85 73 62
375 583 238 167 18 42
330 53 192 119 32 19
249 452 166 82 33 35
336 422 168 87 54 48
249 457 162 80 33 30
351 528 189 62 30 36
316 68 218 106 44 43
212 943 343 46 43 44
234 279 273 137 99 71
243 454 179 43 37 37
349 64 200 115 42 43
326 763 332 73 60 56
262 839 302 113 90 67
286 949 354 63 55 51
394 497 220 153 13 37
242 458 178 50 36 36
208 578 255 129 2 38
276 903 353 35 33 33
331 443 356 115 21 40
405 493 338 100 20 34
371 413 233 100 80 66
213 458 291 120 25 43
437 854 394 89 73 58
240 871 345 114 95 77
426 428 258 78 26 35
243 473 164 103 30 34
291 442 128 77 63 51
265 398 234 98 84 70
244 466 166 112 28 40
318 875 386 53 44 36
324 123 222 114 88 58
266 133 248 122 93 57
242 478 163 88 35 37
298 540 316 48 23 24
280 248 268 103 82 59
287 408 298 107 76 57
271 47 237 83 43 28
252 483 143 130 12 37
256 488 133 126 18 38
376 868 403 64 51 42
321 398 213 94 80 65
250 483 148 100 29 36
300 820 305 155 112 91
250 488 148 101 28 40
418 620 294 134 105 74
256 503 143 62 38 39
251 498 148 127 24 40
306 553 333 59 28 32
297 450 296 89 17 30
266 238 299 119 95 66
266 43 238 114 98 80
249 498 152 120 23 40
316 917 391 70 63 60
251 508 153 109 30 42
384 527 219 149 19 41
311 417 193 88 74 59
274 183 254 117 91 61
367 888 311 42 37 35
252 507 149 90 34 44
254 504 146 42 36 39
385 743 239 63 48 37
257 507 144 70 38 40
510 526 349 109 96 85
271 24 299 130 39 55
304 21 288 144 45 58
256 512 149 60 37 39
418 466 371 40 20 30
256 553 183 143 27 45
231 863 294 116 90 59
227 428 307 120 20 42
341 363 222 96 83 69
255 514 152 68 36 40
264 153 245 120 92 57
238 488 170 82 41 44
276 188 263 110 88 63
240 493 168 72 33 38
314 830 225 61 56 57
191 578 203 84 61 41
389 743 245 71 52 39
331 612 225 106 33 40
346 693 243 46 37 39
312 728 346 52 32 36
238 493 170 96 33 41
232 483 183 60 35 36
230 488 188 58 37 38
232 493 183 131 20 38
255 549 181 181 16 46
229 493 191 145 22 45
220 458 223 45 31 36
234 733 219 116 74 54
259 580 206 166 19 47
413 870 400 85 68 55
323 203 251 103 83 61
304 800 315 41 37 38
387 733 243 77 55 39
233 484 180 63 39 41
234 912 272 88 70 56
238 496 170 89 26 36
290 308 288 116 88 58
238 508 174 107 25 37
335 48 194 116 35 19
224 912 287 76 67 66
240 513 173 117 24 40
244 783 212 69 54 48
285 333 255 93 74 56
231 503 188 141 10 32
401 473 342 82 13 29
348 128 238 114 93 68
205 798 226 175 116 84
179 638 198 184 126 98
229 503 192 132 15 36
422 443 358 71 24 31
294 413 258 77 59 43
231 508 188 144 8 34
245 268 300 124 97 70
229 508 192 138 14 32
291 503 142 136 23 43
377 558 228 131 23 40
230 513 192 143 12 33
235 498 178 142 9 35
124 520 177 204 139 118
375 563 309 47 26 31
234 498 181 137 11 34
233 503 184 145 8 36
247 798 214 65 53 51
236 508 178 70 29 34
327 208 257 108 86 61
281 373 249 99 80 61
233 508 184 145 9 35
306 763 212 56 46 41
376 723 248 80 61 40
196 598 213 97 73 55
417 463 233 93 30 40
314 93 226 112 56 50
234 508 182 135 15 36
237 802 291 73 61 56
237 513 178 88 29 41
304 827 209 67 56 50
312 14 292 112 49 48
262 703 213 68 43 35
271 104 243 125 65 55
355 718 328 95 23 40
251 898 356 121 97 77
361 718 313 151 12 47
230 688 213 117 85 55
243 483 160 65 37 39
384 556 240 172 24 47
264 76 215 148 18 43
275 68 238 119 37 42
379 890 398 67 53 44
242 483 163 56 39 39
214 420 290 95 24 38
243 488 160 78 33 39
275 198 278 117 92 65
281 898 239 77 69 69
276 423 309 90 70 49
211 508 293 147 17 47
309 896 348 36 35 35
318 320 281 83 65 43
242 488 163 81 34 38
266 673 329 161 20 52
373 603 294 114 24 43
243 491 160 75 28 35
227 688 234 75 57 42
252 479 315 62 26 32
243 503 164 150 13 41
209 483 231 64 24 33
239 590 221 44 32 36
266 708 336 147 18 48
243 404 316 136 103 76
244 503 162 142 15 41
317 68 208 117 17 41
360 373 233 100 85 69
227 952 284 68 62 64
242 508 168 148 9 36
223 860 319 142 103 84
245 508 162 158 10 41
242 513 168 143 9 38
223 449 220 102 19 31
485 541 342 112 93 72
197 708 242 150 110 85
318 255 256 88 73 56
358 693 309 47 27 30
223 453 219 42 32 36
423 443 292 144 16 37
206 798 274 161 130 103
380 448 209 70 34 38
316 103 223 128 30 42
209 609 208 93 59 42
221 453 223 53 31 36
278 792 311 65 55 52
199 810 236 184 123 93
324 253 260 101 82 61
226 573 223 79 30 39
223 459 214 61 34 34
276 426 166 87 72 57
271 463 308 49 24 27
223 463 213 72 32 36
406 907 363 73 62 56
257 528 310 113 6 35
237 718 228 74 35 35
411 498 283 153 18 41
271 158 268 114 90 62
349 88 208 122 54 54
209 557 285 153 5 44
219 463 222 99 19 34
351 328 228 123 97 68
222 458 218 44 31 36
381 419 278 66 59 51
223 399 268 96 78 60
269 128 268 119 91 64
211 708 247 109 79 64
221 463 218 79 26 34
296 638 234 96 21 34
240 663 252 107 10 30
204 433 274 135 2 39
223 474 205 50 38 39
236 318 283 121 96 68
378 520 336 45 27 30
223 478 204 46 34 35
193 712 220 164 109 77
281 263 288 116 92 64
407 533 299 66 28 34
221 478 208 48 33 36
361 323 243 125 97 65
258 66 211 116 18 21
215 478 223 111 13 32
373 578 307 46 28 32
201 438 258 137 0 38
246 832 277 177 130 106
312 33 243 79 41 30
266 388 233 99 85 72
222 468 213 79 30 36
416 904 364 81 69 61
261 553 320 150 16 49
264 875 346 124 101 78
216 573 238 100 29 43
253 893 355 132 98 79
304 808 213 64 58 58
315 208 243 99 81 60
409 708 260 135 97 64
220 468 218 103 19 33
345 487 324 36 20 23
219 467 222 113 10 34
367 824 242 64 51 46
265 183 245 121 94 59
141 523 193 106 85 69
217 468 223 111 13 33
416 718 288 182 121 94
313 309 267 65 54 44
261 439 128 87 67 46
377 619 277 150 23 44
219 473 217 52 27 32
190 803 253 176 125 98
371 831 306 135 95 76
323 430 338 74 13 32
218 478 219 118 12 34
311 693 335 122 20 42
260 447 322 73 26 33
256 904 356 89 75 61
194 783 226 156 104 68
366 743 308 74 29 35
219 477 217 119 12 35
364 253 228 128 99 63
312 93 233 104 68 55
346 213 212 123 97 64
292 353 293 106 73 53
362 228 238 120 96 69
398 655 270 93 72 46
213 592 250 68 24 33
206 463 238 121 9 34
358 237 255 125 98 67
256 343 313 120 93 65
202 453 243 124 5 37
314 58 227 89 49 41
261 28 288 128 58 64
315 58 223 98 35 36
317 283 262 69 57 45
220 819 274 69 52 52
373 408 253 76 67 57
201 453 248 72 21 33
524 523 373 169 116 101
320 448 362 125 16 42
213 438 286 40 30 32
291 658 235 103 20 26
201 453 253 116 14 38
202 508 273 63 30 34
194 641 190 156 106 70
271 700 203 77 56 45
202 458 243 123 13 37
262 113 242 122 86 56
496 536 353 105 87 69
201 458 248 45 29 32
266 343 318 140 101 75
324 842 235 68 57 57
201 463 248 52 30 33
360 278 252 129 97 62
201 508 248 34 32 36
226 688 293 119 18 42
204 459 241 123 7 33
204 462 241 125 2 34
349 18 268 114 30 46
368 493 201 112 15 33
201 458 253 64 24 32
200 463 253 40 29 32
206 468 238 99 16 31
271 442 118 87 71 54
266 93 228 122 33 38
357 872 295 47 41 39
208 469 235 108 17 31
323 173 220 118 93 62
226 533 203 161 10 37
271 228 293 119 95 67
208 473 234 111 18 34
301 423 178 87 73 58
378 564 317 44 29 35
300 937 361 55 51 50
261 40 239 114 98 82
271 73 223 141 30 45
246 353 309 117 93 67
443 864 377 103 81 64
316 893 358 50 47 47
256 623 233 171 0 38
307 553 337 64 29 33
256 609 226 178 2 39
276 338 254 80 69 58
205 473 238 67 26 35
373 624 272 36 32 37
289 715 186 80 63 53
266 737 331 193 17 63
207 478 234 82 24 32
205 478 238 106 23 38
202 468 243 117 14 37
270 639 330 95 25 35
349 97 228 118 69 57
281 902 358 36 34 35
328 20 230 114 56 44
331 12 253 91 65 52
421 868 378 86 66 48
234 700 220 98 73 45
306 427 163 90 68 50
304 378 268 73 59 43
203 469 240 113 17 35
207 498 233 125 16 36
400 861 386 56 48 41
201 488 268 116 13 39
328 848 242 67 58 57
203 473 240 44 30 31
285 610 221 86 39 46
251 733 333 203 9 66
249 351 310 117 92 65
313 274 243 99 81 60
228 627 255 124 41 52
210 473 232 114 14 30
216 528 298 92 24 36
358 193 228 121 98 73
200 468 253 70 28 34
241 563 203 109 22 39
380 578 248 171 19 45
203 478 240 81 28 35
306 428 158 89 68 50
200 478 248 68 33 36
261 818 297 181 131 110
410 488 243 167 17 45
215 453 232 116 13 33
207 538 283 157 7 47
413 469 325 45 29 35
291 18 263 115 22 24
217 453 229 66 27 32
326 78 253 116 91 69
269 153 254 113 90 63
386 553 294 69 26 33
406 458 342 51 24 28
211 463 233 115 11 30
244 274 256 128 95 63
258 502 140 72 36 37
212 488 293 132 12 41
408 475 331 80 26 34
302 436 141 83 69 53
356 916 367 60 52 49
241 743 222 98 28 32
213 464 230 113 14 29
323 55 204 111 87 64
207 513 233 129 11 38
288 970 318 63 58 57
193 802 235 177 118 86
285 409 219 88 73 58
196 619 221 128 98 81
361 858 288 38 33 31
216 463 228 112 13 31
359 358 234 109 89 67
301 413 248 81 65 46
214 461 231 113 13 33
352 896 289 62 54 54
401 753 248 90 65 54
311 695 336 87 21 33
361 323 248 126 97 64
193 748 233 151 106 72
321 577 199 173 22 47
209 457 236 124 10 33
237 388 308 129 100 72
318 208 220 116 93 67
208 469 286 99 33 45
251 303 257 109 87 62
214 600 256 143 30 52
209 462 236 117 8 30
335 897 274 72 61 61
205 671 200 161 106 75
321 10 279 140 51 66
210 468 232 119 11 33
233 689 307 37 29 33
173 617 203 171 122 96
222 533 307 99 27 39
365 643 293 163 13 53
245 522 310 55 22 27
301 893 333 36 34 33
213 468 230 116 11 32
295 32 282 138 96 84
266 288 313 112 87 65
341 923 333 68 63 62
264 113 244 115 81 53
214 473 227 111 14 29
296 738 339 162 21 54
385 811 255 87 63 52
376 893 412 83 65 52
211 673 237 114 84 69
246 633 243 154 1 37
377 428 206 52 35 37
321 83 252 110 17 43
341 423 168 80 49 47
356 218 253 124 100 72
307 859 226 61 56 58
363 363 243 117 94 68
212 473 229 113 11 29
257 782 306 67 56 52
351 318 227 138 104 71
301 12 298 129 52 59
292 353 268 115 87 74
208 464 235 120 14 39
317 691 236 98 27 38
463 555 343 138 100 87
218 724 296 157 8 46
293 343 278 94 71 51
346 823 307 44 39 39
209 478 232 91 21 31
345 243 266 125 99 68
403 504 253 145 21 46
212 478 228 106 15 30
308 298 239 94 79 63
214 478 226 110 16 32
323 508 346 60 27 31
281 19 304 148 101 87
406 508 308 137 18 44
428 448 352 132 23 43
361 823 240 71 57 49
223 483 204 51 34 38
344 129 246 116 94 69
216 723 252 103 70 56
223 488 204 93 28 38
345 313 278 121 88 56
215 483 223 113 9 32
321 33 269 128 34 52
353 336 231 114 92 68
359 709 229 81 37 37
214 488 222 124 5 34
224 493 202 108 23 41
291 333 268 116 88 73
373 578 294 71 29 36
214 493 221 127 4 34
216 493 218 127 6 34
320 83 217 125 26 45
286 891 234 77 68 67
218 484 215 108 16 37
344 114 220 110 86 58
268 123 251 124 94 63
217 410 282 64 56 48
365 762 232 60 41 43
324 358 290 129 92 71
402 503 233 109 22 38
265 199 291 112 90 66
219 488 212 131 10 36
274 73 234 125 51 49
219 482 216 127 17 44
207 414 283 128 25 44
236 308 283 119 92 65
208 938 328 113 91 81
250 858 283 132 100 72
205 443 278 141 2 42
219 493 212 140 6 37
267 878 238 49 46 47
215 428 289 62 27 33
222 943 278 74 67 66
266 435 135 87 70 54
218 493 215 132 6 34
334 502 342 60 25 30
341 793 318 66 56 50
223 498 204 147 6 36
222 498 208 144 6 37
266 38 243 112 96 79
359 758 322 137 25 48
221 508 208 85 22 34
292 935 266 86 78 78
326 263 217 135 104 67
307 393 223 89 74 58
223 513 204 67 36 37
220 513 208 41 33 36
342 234 211 128 98 58
214 498 222 130 4 34
402 508 248 53 32 34
271 441 121 88 72 54
214 503 221 132 4 35
312 742 209 62 49 44
215 508 218 132 7 34
276 213 253 118 92 60
463 567 356 170 126 107
401 883 398 89 71 57
421 422 283 121 25 39
237 343 293 130 99 71
391 743 302 169 119 91
212 508 223 121 9 35
311 543 173 79 37 41
336 893 268 75 64 62
322 313 225 105 87 68
215 513 218 124 17 35
288 293 278 105 84 60
212 513 223 46 28 33
307 388 282 77 55 39
219 498 212 141 5 36
267 68 276 119 32 47
268 213 246 127 97 59
372 623 268 41 33 36
257 617 230 165 8 43
321 847 214 60 54 53
336 253 212 134 101 60
276 568 319 46 26 30
376 418 263 70 61 53
218 498 214 136 5 34
421 629 279 105 84 59
223 542 210 151 7 41
351 153 233 114 93 69
422 426 330 52 22 25
219 503 212 138 6 36
402 459 341 60 22 28
233 272 269 137 99 70
466 576 351 202 140 117
345 433 164 43 39 42
361 543 202 44 34 39
372 618 298 58 31 34
218 503 214 136 4 36
219 508 211 111 16 34
236 338 273 108 88 65
217 508 214 129 9 35
203 488 240 73 33 39
329 866 255 62 55 55
428 469 308 97 27 37
271 404 219 95 82 67
171 558 200 104 81 63
207 488 233 86 24 35
201 663 228 149 115 93
289 315 301 92 67 45
424 612 298 126 96 70
203 493 240 54 27 32
221 880 346 165 124 105
345 438 164 44 39 43
207 493 233 131 11 39
296 423 178 88 73 58
274 438 311 52 25 27
240 453 319 145 21 49
202 483 243 81 33 40
254 833 285 168 124 96
236 293 273 133 97 71
224 734 310 186 12 58
321 483 349 120 22 41
317 102 242 122 88 70
203 483 240 78 32 38
246 763 313 75 63 59
321 333 227 92 78 64
201 808 268 173 132 107
316 103 233 141 89 76
223 450 306 106 23 35
200 483 248 37 32 36
225 912 355 163 129 111
201 493 243 93 26 37
328 112 204 151 36 51
341 318 283 129 91 65
435 438 323 115 26 44
210 473 289 60 27 31
200 493 248 38 33 35
286 727 336 87 30 41
291 468 303 38 24 25
200 493 253 38 32 34
256 597 219 184 5 41
279 423 306 78 61 42
281 333 317 127 87 64
349 333 272 124 93 58
238 298 292 129 99 72
294 887 239 70 62 64
203 498 240 34 32 36
316 93 223 121 69 57
203 503 240 43 27 31
308 940 348 59 53 51
207 588 288 86 21 37
307 448 138 160 5 37
243 408 316 134 103 76
406 498 243 60 32 37
322 113 223 120 87 60
391 488 218 53 38 41
224 518 202 48 38 40
246 373 314 130 101 73
205 498 237 53 29 34
261 422 178 92 74 59
235 288 278 136 99 74
207 508 233 125 12 37
308 28 254 92 60 48
321 24 279 128 60 60
349 328 272 124 90 57
205 508 238 125 15 38
203 463 273 132 0 38
360 724 219 62 45 41
465 558 358 137 106 93
208 528 286 67 23 33
372 588 333 67 31 36
279 866 238 47 42 45
307 308 238 92 78 62
205 513 238 129 13 38
291 513 148 191 10 39
261 348 317 128 95 69
201 613 218 107 80 63
200 498 248 62 29 37
386 593 287 123 21 44
335 293 221 133 102 67
294 477 130 155 0 33
312 692 228 84 46 35
372 728 258 71 51 51
202 503 243 99 26 40
371 593 298 68 25 34
266 858 258 140 101 78
242 418 317 117 78 60
251 528 312 88 21 35
371 728 253 71 48 51
201 503 248 62 29 37
418 708 289 181 120 92
381 859 394 52 46 42
518 520 368 132 99 81
269 144 271 121 94 65
203 508 240 118 21 39
413 464 226 89 28 37
381 808 312 159 120 93
203 453 268 134 0 39
225 708 258 122 14 41
421 843 282 149 131 130
235 268 263 137 98 68
351 208 257 124 100 72
412 493 282 64 27 37
467 554 357 117 95 76
354 253 261 128 100 67
202 508 243 71 29 39
318 178 238 100 81 59
312 365 286 79 58 39
202 513 243 67 27 38
321 613 223 54 37 40
266 373 319 142 104 76
336 32 226 111 87 67
363 498 196 129 8 35
334 522 175 160 3 36
201 513 248 55 32 36
251 810 226 74 60 53
201 508 253 64 27 36
271 421 178 91 76 62
209 539 236 48 30 33
279 213 276 121 96 68
201 513 253 90 24 36
204 458 274 131 0 38
318 71 204 124 7 40
211 483 228 111 16 33
356 378 227 97 84 70
211 488 228 120 9 33
299 961 304 85 79 81
346 723 223 68 42 36
344 15 281 119 56 64
152 563 183 182 122 95
327 413 292 124 90 71
228 678 297 50 29 32
340 433 160 70 38 35
208 504 230 131 6 36
313 44 235 88 38 30
210 508 228 132 7 38
291 588 333 99 20 39
326 513 346 97 26 39
226 797 219 178 119 87
208 508 230 133 9 37
396 503 314 132 13 43
226 683 263 53 30 37
210 513 228 114 14 37
321 874 378 50 41 34
356 891 300 44 40 37
232 453 198 75 31 34
229 452 206 41 34 36
275 188 273 114 91 64
398 568 283 169 18 46
202 468 268 114 9 38
402 504 263 167 19 44
336 23 232 96 79 64
332 438 157 58 35 41
417 624 288 118 84 61
280 881 220 81 69 67
228 455 205 36 36 39
429 462 367 173 15 55
230 463 198 98 27 35
406 728 248 70 54 40
298 426 270 57 45 33
363 658 271 88 29 36
226 683 208 133 92 59
286 28 259 67 46 38
382 888 410 77 59 45
226 458 208 66 33 37
286 858 312 90 75 61
227 463 203 62 33 34
225 463 208 51 34 34
280 412 229 91 76 62
326 889 262 75 65 64
229 458 202 82 29 33
283 282 266 117 94 68
228 464 200 73 37 32
249 318 305 129 99 71
356 188 243 119 96 71
341 30 268 127 75 66
387 693 287 85 58 44
233 449 200 108 19 30
234 452 196 81 30 34
331 38 264 129 20 49
316 593 334 53 27 33
336 869 379 59 47 43
290 373 263 111 85 68
233 459 194 57 35 39
391 788 243 72 56 48
275 405 219 93 79 65
294 466 125 123 27 48
224 458 213 82 34 38
327 380 220 88 78 68
427 433 238 64 32 36
241 353 258 101 86 70
192 763 228 148 105 68
385 573 258 163 19 44
414 627 293 133 93 76
224 462 211 68 36 36
351 758 328 110 31 44
246 338 258 98 83 68
227 473 198 44 37 41
229 467 197 42 35 38
398 515 236 153 22 39
365 778 317 174 123 95
246 333 304 123 96 68
352 740 227 62 38 35
296 643 333 79 33 41
317 78 223 123 20 41
316 633 234 50 35 36
391 718 298 131 94 73
226 468 203 56 38 37
406 723 253 96 72 53
257 839 297 131 101 77
225 473 203 48 36 40
352 433 309 64 21 27
228 478 194 60 35 39
411 438 334 92 18 32
224 406 284 104 83 60
226 478 198 73 37 40
392 545 295 66 21 26
225 628 262 34 30 34
336 28 278 147 32 59
228 474 195 44 36 40
271 429 153 88 73 57
461 593 338 202 136 112
224 483 201 56 35 36
226 493 198 82 26 36
226 498 198 156 11 39
280 863 233 45 41 42
227 503 198 97 24 36
269 103 271 121 94 66
202 428 268 143 4 44
396 493 319 134 17 45
228 503 194 108 24 36
345 59 199 101 47 24
224 498 202 151 9 39
200 503 258 75 27 36
316 411 201 89 76 62
226 508 198 100 28 36
266 293 257 83 70 55
228 513 194 139 17 31
401 891 383 61 48 43
439 432 322 146 29 51
301 503 147 161 15 41
216 493 298 144 12 44
275 976 322 82 79 80
224 508 202 102 27 34
347 895 288 64 56 55
348 132 238 113 93 70
230 258 268 131 98 66
313 945 307 69 60 57
313 737 205 64 48 41
341 243 211 131 99 59
233 263 264 137 98 68
363 273 243 128 97 64
297 672 235 68 32 33
367 553 212 74 33 40
236 348 268 109 89 67
208 826 249 205 132 102
244 701 241 90 28 32
230 263 273 131 97 68
402 793 293 169 116 86
234 366 261 106 88 67
201 693 208 161 105 72
232 268 268 136 99 69
221 453 303 42 28 31
243 328 265 113 92 70
231 268 273 135 99 69
361 328 248 126 97 65
227 578 224 66 30 37
236 258 258 134 97 64
332 635 330 85 27 39
434 447 372 96 30 40
234 260 261 135 97 67
306 818 203 100 79 62
237 263 259 135 97 66
431 923 338 90 75 67
326 888 309 35 34 35
277 88 268 125 91 71
216 913 348 167 130 111
231 473 312 138 16 43
239 260 256 133 96 63
318 82 251 104 35 46
362 474 332 92 7 32
370 498 204 133 5 32
341 563 332 41 27 29
251 483 313 102 26 42
261 63 214 110 35 32
236 273 263 135 97 67
408 424 331 70 31 36
237 268 259 135 97 66
318 841 222 67 59 61
265 369 240 92 80 69
369 709 264 86 49 45
229 584 226 51 31 33
238 272 260 133 97 65
282 293 309 111 87 60
415 885 370 95 74 59
419 462 248 174 18 47
239 328 295 134 103 77
233 267 265 137 99 69
310 887 255 69 61 61
303 429 286 53 43 34
206 643 229 131 103 85
343 453 320 45 22 26
319 586 205 198 10 49
268 248 300 119 94 65
234 274 267 138 98 70
509 541 350 184 126 106
342 118 218 106 85 60
217 903 299 163 119 95
393 539 336 113 7 33
360 273 253 129 98 63
270 962 347 66 62 62
348 485 326 41 20 21
377 733 234 76 58 43
267 878 263 68 56 51
423 429 226 158 19 46
251 278 304 122 95 69
221 949 287 71 67 68
232 273 273 137 99 70
281 484 126 187 9 40
230 258 278 125 96 67
308 314 235 93 78 62
349 487 180 142 1 36
230 263 278 128 96 68
227 658 288 35 29 33
231 258 283 123 96 67
329 12 296 153 30 62
345 492 329 47 20 25
232 273 278 137 99 73
312 43 238 76 50 36
234 383 299 126 98 69
363 711 237 74 38 40
340 118 214 114 91 64
344 279 271 118 92 62
240 348 299 125 97 67
323 468 151 55 35 40
316 93 248 104 27 42
201 683 237 139 107 86
341 238 211 130 99 59
217 813 277 166 131 107
236 393 308 130 100 72
305 368 243 71 61 51
231 268 283 130 98 71
304 338 263 81 68 56
340 463 352 79 24 35
244 486 316 147 37 62
232 273 283 134 99 74
344 83 238 105 37 43
350 298 272 134 98 64
258 477 124 168 10 42
313 101 229 124 14 41
317 288 229 119 95 69
235 258 289 122 95 67
343 450 328 97 21 35
329 57 191 114 34 24
332 289 276 103 82 60
233 268 287 128 96 71
256 858 338 132 109 84
299 740 210 64 48 40
341 128 248 117 94 67
520 532 381 176 121 108
343 80 191 148 26 45
191 592 210 101 78 60
244 975 313 66 64 66
233 273 286 132 99 73
502 534 358 104 86 67
430 628 315 163 119 100
271 943 264 86 77 78
240 523 178 154 16 41
363 620 246 145 51 62
235 268 289 127 97 71
250 676 241 34 32 38
239 275 261 131 95 62
242 278 259 129 95 63
239 279 261 132 95 65
372 553 218 66 32 38
261 373 319 140 104 78
215 657 200 150 97 67
301 633 333 137 31 50
238 283 264 133 95 66
311 38 243 87 33 33
248 328 260 101 84 66
347 473 172 97 19 33
204 488 280 67 25 34
251 268 304 124 96 71
240 283 262 131 95 64
348 440 350 149 13 50
336 916 309 70 63 61
236 283 268 136 96 69
356 873 400 53 43 37
181 568 202 92 68 51
241 288 263 129 95 65
256 468 123 161 5 43
233 278 278 139 100 74
234 280 278 138 99 74
141 533 194 150 116 101
281 424 173 89 74 58
313 67 251 97 49 46
425 760 255 104 75 55
296 428 233 83 68 51
234 279 284 135 98 75
304 383 243 76 59 44
280 542 318 95 15 32
302 498 323 54 23 29
235 278 288 130 98 72
342 167 255 119 96 70
312 27 272 126 58 62
333 749 211 80 60 52
201 678 203 186 124 87
234 283 278 138 99 75
235 283 288 129 98 73
328 50 260 113 38 42
236 288 288 127 97 72
346 843 248 65 55 54
243 286 260 128 94 64
246 283 257 126 93 63
316 413 284 112 80 65
249 285 256 125 93 64
237 258 292 121 94 67
286 29 289 139 100 82
244 686 320 63 30 35
240 258 294 121 95 68
386 784 241 80 59 47
313 15 249 100 38 32
206 738 254 137 103 77
328 498 161 71 38 41
239 268 295 124 95 69
331 916 310 66 59 58
360 288 253 127 98 63
355 303 228 126 97 62
418 698 290 178 118 93
239 273 294 124 95 69
238 278 292 125 95 69
367 509 330 114 23 43
276 568 188 54 32 37
381 803 311 165 123 96
239 278 294 124 95 69
414 866 306 69 53 44
202 443 263 138 0 40
238 288 292 124 97 71
307 568 342 130 11 39
261 108 273 116 94 70
291 713 208 64 47 40
239 288 294 122 97 70
242 258 297 121 95 69
245 258 299 119 94 68
225 643 273 109 23 40
274 180 276 116 91 63
276 624 231 112 22 37
321 673 239 53 33 35
303 408 238 88 71 52
289 596 335 123 9 43
291 898 337 109 80 69
328 253 215 129 100 64
224 639 222 83 46 35
321 428 153 112 48 37
291 653 235 108 17 27
245 263 299 123 96 69
351 901 318 50 46 44
246 413 318 136 104 78
281 243 278 118 93 64
431 440 363 73 28 33
248 263 301 123 96 69
242 273 297 125 96 70
355 193 219 118 95 68
251 658 244 77 21 29
247 268 301 124 97 71
308 320 266 69 57 43
217 438 292 50 29 32
214 885 339 184 136 118
271 63 277 119 50 53
239 367 305 126 98 69
396 508 312 110 18 40
339 664 245 89 24 29
378 825 261 89 69 59
348 47 222 91 51 38
329 223 260 115 92 67
245 273 299 124 96 71
248 258 301 120 95 69
277 873 324 66 55 45
275 218 254 119 92 59
251 273 304 124 96 70
294 32 265 123 65 47
345 55 204 106 83 59
375 558 309 80 24 36
194 579 194 98 72 52
254 272 305 122 95 69
266 158 278 115 92 65
256 273 306 121 95 68
276 10 283 103 73 58
276 308 318 118 90 64
227 728 318 177 13 56
327 923 308 73 66 64
245 278 300 122 95 70
340 702 224 70 44 33
247 278 302 121 94 69
330 543 341 108 27 42
269 408 316 143 102 79
311 323 232 93 79 64
242 288 298 121 96 70
244 283 300 121 95 69
207 923 323 173 130 110
331 568 197 184 11 42
281 712 179 80 55 44
395 758 301 174 121 92
226 658 228 88 53 44
326 318 223 103 84 64
244 288 300 125 99 72
253 278 306 122 95 68
326 283 269 85 69 52
316 88 223 117 25 40
256 278 307 122 95 68
393 664 270 93 68 46
203 443 268 135 0 40
386 423 293 59 39 35
266 328 318 131 93 71
249 371 315 131 101 74
276 58 238 105 32 34
365 578 224 160 16 42
289 398 293 116 81 63
209 620 195 123 90 59
261 243 247 117 91 61
364 866 270 68 54 52
250 288 305 126 97 71
505 532 353 100 87 75
311 430 150 89 68 50
266 515 146 162 21 47
253 283 306 122 95 69
266 383 238 97 84 71
280 901 374 36 34 35
267 898 349 74 61 47
238 293 269 133 97 70
194 667 220 144 112 87
232 967 323 60 56 56
316 753 338 135 29 52
239 293 267 129 95 66
212 817 272 179 138 112
285 701 335 30 27 31
314 243 233 113 89 61
239 298 267 123 94 66
416 421 303 58 34 33
291 554 177 177 14 42
428 609 307 129 91 79
204 533 243 142 5 41
237 298 273 127 94 70
207 523 287 148 14 46
238 298 270 125 94 69
311 12 289 104 38 43
247 532 174 184 10 43
240 303 267 124 95 67
270 921 245 92 81 79
331 778 324 74 61 56
347 328 226 117 93 65
236 293 278 133 98 71
236 293 283 130 98 72
202 759 262 126 96 66
236 298 278 125 93 69
200 473 258 48 28 33
301 602 214 108 28 42
271 471 115 101 30 41
236 303 288 126 96 69
346 837 245 73 60 57
338 925 348 67 58 54
209 737 255 127 96 71
250 801 215 68 56 53
397 518 253 74 27 35
270 183 282 114 91 63
239 309 271 131 98 73
260 238 245 125 97 64
308 854 207 77 66 61
337 409 296 126 93 71
301 508 149 103 24 38
240 313 268 131 99 73
212 802 225 180 120 90
269 850 316 107 87 66
239 313 271 127 97 71
280 243 268 104 83 58
294 441 136 79 65 49
406 761 246 97 70 51
383 448 211 45 39 40
202 503 278 116 19 40
419 673 265 139 97 63
251 813 228 75 60 55
239 318 271 119 94 68
323 113 247 118 90 69
262 910 378 38 36 37
238 321 296 134 101 78
378 819 252 71 54 45
209 610 212 90 57 41
238 318 273 112 89 64
352 284 221 138 98 62
364 698 301 137 16 46
319 286 265 69 58 46
249 857 287 111 87 63
236 308 288 126 97 70
283 372 251 119 89 71
276 18 258 108 92 76
361 418 294 83 69 55
358 508 191 137 1 33
236 313 288 127 99 71
307 874 247 59 53 54
203 713 210 148 98 63
294 931 382 58 54 53
314 268 248 93 76 58
236 318 288 129 99 71
345 493 173 53 33 37
247 293 259 123 94 64
267 83 223 150 21 45
244 290 261 126 94 64
256 768 203 68 55 48
203 414 277 119 22 44
242 303 264 120 93 63
425 443 294 128 17 35
311 702 207 70 44 38
357 398 290 120 95 68
355 358 229 108 91 71
247 298 259 118 91 62
331 113 203 153 60 62
271 668 330 156 20 52
244 298 261 118 91 62
322 78 198 136 7 41
241 398 314 134 102 75
313 484 341 59 17 28
251 293 257 119 91 64
329 916 388 75 67 63
397 553 272 50 33 37
256 298 257 96 78 59
229 683 227 78 60 42
242 308 264 126 96 68
230 703 213 124 88 57
341 213 263 122 98 72
300 926 386 75 70 68
315 233 248 99 80 60
359 621 326 71 33 32
424 427 278 111 22 38
242 313 264 123 96 67
267 188 246 116 90 59
403 752 252 101 74 57
326 872 378 50 42 36
408 498 277 156 20 40
270 218 248 124 94 60
299 477 135 126 22 44
247 308 260 117 91 64
334 884 306 41 37 38
245 308 261 119 92 63
311 808 204 73 64 61
330 148 250 114 89 63
351 358 227 106 89 71
282 873 210 111 90 75
259 424 321 116 87 63
286 578 198 169 23 48
242 318 264 119 95 68
274 203 250 120 93 59
348 78 197 146 26 47
336 13 248 95 74 61
322 253 219 131 102 66
414 473 280 139 16 37
229 693 252 120 13 41
248 318 260 109 87 62
208 922 310 166 128 107
314 441 359 54 21 27
352 278 264 128 96 62
265 193 244 117 91 58
316 392 217 93 80 67
251 308 258 107 86 63
345 34 229 110 93 76
157 567 180 166 112 82
341 23 279 128 52 59
308 46 250 107 76 61
309 596 210 195 7 46
256 308 257 92 77 61
238 293 292 126 98 71
392 425 306 55 25 28
291 581 200 204 10 42
339 700 336 126 6 39
311 483 328 116 9 37
239 293 295 123 97 71
363 588 341 146 15 45
313 101 233 120 17 35
367 398 278 112 90 65
445 603 329 165 118 100
381 420 233 103 67 55
326 14 243 85 68 54
321 53 261 124 71 61
359 214 247 122 98 72
296 453 297 84 14 30
241 293 298 123 97 71
409 738 258 104 76 55
239 298 294 128 100 73
326 188 218 126 98 64
266 604 222 184 6 42
238 303 293 130 100 73
239 303 295 129 100 73
261 44 233 116 100 84
242 653 312 151 11 47
326 750 340 176 21 57
202 733 252 143 106 79
241 303 298 129 100 74
436 839 398 68 53 40
233 860 295 108 83 52
315 218 228 111 89 63
249 856 291 87 71 55
404 421 290 77 37 36
238 308 293 129 99 74
342 708 233 77 37 34
209 529 232 143 9 40
269 106 245 131 85 65
202 518 273 144 10 44
214 488 295 143 13 45
239 308 295 130 100 74
321 53 213 92 70 57
350 23 243 110 46 45
311 498 338 120 13 37
346 353 224 101 86 70
241 313 298 130 100 74
282 73 253 131 38 53
405 438 330 86 18 30
327 870 380 52 43 36
364 258 247 124 96 60
241 318 298 133 101 77
229 658 271 74 32 36
207 498 287 87 22 36
341 563 198 170 14 43
292 308 278 105 83 57
275 279 306 102 82 59
394 778 244 54 44 39
247 293 302 128 99 72
237 704 327 52 26 31
228 498 311 147 17 47
229 383 283 124 98 69
244 298 300 125 97 71
311 478 144 86 30 35
357 584 221 73 24 30
219 902 345 134 109 86
246 298 302 129 97 71
244 303 300 130 99 73
310 453 313 134 14 43
246 303 302 132 100 73
250 293 305 130 98 72
276 48 243 94 33 28
284 289 298 111 87 57
256 293 309 122 93 65
314 258 233 114 90 63
354 170 241 117 94 67
423 478 296 100 24 37
250 298 305 132 98 73
409 486 273 156 17 38
264 180 286 113 91 66
299 696 216 69 40 45
265 103 229 119 30 38
252 298 306 132 97 72
411 433 333 84 20 32
281 328 258 76 64 51
252 303 307 132 97 71
260 864 342 132 107 81
227 438 307 51 27 30
319 882 255 68 61 63
256 298 309 128 94 68
260 494 132 158 18 45
341 243 267 124 99 71
358 347 265 125 99 68
246 308 302 130 100 73
316 425 169 94 70 53
266 946 367 69 62 61
246 313 303 128 99 71
336 493 333 86 20 34
284 323 316 122 84 64
243 315 301 129 99 74
364 258 243 123 94 60
222 713 303 55 27 36
269 133 254 119 93 62
261 813 227 69 55 50
246 318 303 131 99 73
236 418 314 96 64 50
250 308 305 128 97 70
300 468 133 120 17 35
224 397 268 101 83 63
276 783 313 67 56 52
249 313 305 125 95 68
252 313 307 125 95 67
366 668 283 81 32 36
255 313 309 126 95 67
314 453 320 137 10 43
307 603 335 48 29 32
315 308 269 67 57 46
255 318 310 126 95 68
390 913 361 67 56 50
240 323 268 116 94 69
315 348 284 85 63 43
269 77 220 149 21 43
237 323 273 108 87 63
239 322 271 113 90 66
336 426 309 58 48 38
358 890 308 34 30 30
347 428 167 73 40 42
462 598 318 186 134 101
293 416 279 66 50 33
350 28 238 88 43 34
294 758 205 65 51 44
311 888 257 66 58 58
240 328 268 111 90 67
240 333 268 106 87 66
236 328 278 113 90 65
346 248 212 134 100 58
366 836 301 126 89 70
304 373 253 73 59 44
266 248 249 108 85 59
236 323 283 122 96 68
236 328 283 124 96 68
297 918 253 78 71 73
419 481 316 98 27 42
229 678 299 103 24 42
324 88 203 133 9 41
236 328 288 130 99 72
195 798 231 172 115 80
376 912 372 69 63 60
281 338 257 83 69 55
235 333 283 125 96 69
240 338 267 104 85 66
228 941 270 80 70 67
241 343 263 104 87 69
313 440 356 66 18 32
240 458 319 116 20 41
321 925 365 56 50 47
250 784 207 60 49 44
279 55 245 68 47 35
281 78 258 133 27 48
341 323 283 131 90 65
235 343 273 113 91 67
188 657 203 196 133 105
240 348 262 103 86 68
382 719 240 100 76 49
302 752 336 70 57 53
317 228 223 119 94 64
238 349 264 102 85 67
334 290 221 136 103 66
239 352 261 101 85 68
387 583 268 168 20 45
207 443 281 143 2 43
235 353 268 111 91 69
269 168 250 114 89 59
234 352 272 117 94 69
363 503 196 134 3 29
263 725 220 97 24 27
351 878 400 53 43 36
287 928 256 83 74 74
301 653 331 61 28 33
482 553 336 160 121 95
283 53 252 140 31 44
436 643 309 183 126 99
238 345 265 103 85 66
291 628 333 102 27 43
234 343 278 121 96 68
386 578 289 71 17 30
423 865 390 65 52 43
242 622 239 155 10 43
336 78 187 136 31 41
236 338 288 129 98 71
234 343 283 126 98 70
271 58 279 114 73 60
318 203 247 100 81 61
241 768 213 97 71 44
233 924 265 64 58 57
235 343 288 128 97 71
336 18 284 150 108 98
196 588 207 84 62 41
258 349 316 124 94 67
233 349 278 121 96 67
292 940 360 57 51 49
223 617 254 117 26 45
283 58 251 128 47 41
234 347 278 121 96 68
234 353 284 126 99 71
349 425 179 125 26 27
342 287 275 113 90 66
233 350 275 119 95 67
308 28 263 104 35 36
357 539 331 69 28 33
220 553 222 151 11 42
347 488 328 53 19 25
233 353 274 120 95 68
216 713 208 136 94 61
346 859 393 54 45 38
206 558 268 151 0 42
271 14 302 118 80 65
341 898 398 58 48 42
234 348 283 127 99 71
282 797 311 65 58 56
273 208 284 118 93 65
258 894 245 55 51 52
276 548 172 169 15 42
218 627 207 94 68 46
235 348 288 127 98 70
277 213 278 120 96 67
203 498 281 139 10 46
233 350 281 126 99 71
392 533 243 158 20 46
367 599 237 111 21 39
344 491 325 40 18 23
233 354 282 126 99 71
293 16 266 95 38 32
347 308 273 130 92 62
246 328 262 107 87 66
243 323 265 116 93 70
351 218 258 123 99 70
281 546 170 216 13 48
242 334 264 110 91 70
245 333 262 103 86 67
251 328 258 97 82 66
341 43 218 120 103 85
151 543 195 135 104 85
424 486 307 84 29 35
256 323 257 91 77 63
251 333 257 95 81 66
351 173 248 119 96 70
243 344 260 100 85 69
225 433 304 126 16 41
284 434 301 61 49 34
245 343 258 98 84 69
351 778 228 58 47 43
266 913 238 88 78 76
267 148 274 117 92 64
185 628 215 159 119 96
304 318 253 82 72 62
261 83 217 147 16 41
286 33 258 87 54 39
285 18 260 101 30 28
256 503 307 83 22 35
287 58 268 122 87 72
245 348 257 98 84 70
232 443 312 97 24 37
382 513 317 57 28 33
268 188 285 115 92 65
411 473 268 176 18 47
186 643 192 175 117 86
237 323 293 135 102 76
366 438 305 47 21 24
239 325 295 135 104 78
252 368 316 133 102 75
234 830 241 82 65 58
478 564 336 171 124 97
389 503 340 84 24 36
276 408 233 93 78 64
205 433 278 132 4 39
238 320 296 133 100 77
259 96 220 139 14 33
241 328 298 133 103 77
237 333 293 134 102 74
208 410 258 53 43 41
239 333 295 135 103 76
344 153 215 123 97 65
456 586 316 121 100 78
316 28 273 131 34 54
241 333 298 131 101 74
324 426 294 108 80 63
246 838 243 65 54 54
292 343 293 100 73 47
240 338 298 128 99 71
289 393 244 114 89 65
359 631 311 183 0 60
212 483 292 140 10 41
312 313 230 100 84 68
238 338 296 131 101 72
351 153 243 118 95 69
238 343 296 128 98 69
240 343 298 127 98 69
370 896 318 53 46 41
424 446 336 143 16 37
200 814 264 181 133 107
300 898 254 57 52 54
224 469 305 125 26 46
446 613 298 128 101 68
357 388 227 90 80 70
236 353 293 124 96 67
238 348 297 127 98 68
251 794 300 67 56 53
289 591 330 40 27 28
238 353 298 122 94 65
288 54 268 124 35 50
313 290 235 102 84 64
251 587 214 187 6 42
243 323 301 136 104 78
276 813 218 64 51 46
201 503 273 75 27 35
207 468 283 64 25 34
243 328 301 131 101 75
202 668 232 144 112 89
312 78 243 107 23 41
246 323 303 133 101 75
246 328 303 129 99 73
260 53 219 111 92 71
236 608 234 161 2 41
301 423 273 57 45 34
146 516 165 187 123 100
240 487 316 122 18 43
248 915 254 58 54 55
251 323 307 126 95 68
319 69 202 120 14 38
276 409 213 93 79 65
340 143 251 119 95 67
260 570 196 131 24 43
251 328 307 124 96 67
241 578 213 94 24 38
265 899 351 81 66 51
255 323 310 123 94 65
241 703 328 76 24 35
211 513 293 65 24 33
396 473 219 62 35 36
240 643 252 133 5 37
254 328 310 121 93 65
311 313 268 65 54 42
318 72 208 127 13 42
249 330 305 124 97 70
361 899 328 49 45 42
456 847 382 115 88 54
249 331 305 123 96 69
394 687 261 98 74 44
316 198 228 114 92 67
316 878 378 47 39 32
384 488 335 122 5 38
254 333 310 121 93 66
151 548 176 166 112 83
360 263 253 129 99 63
243 338 302 126 98 70
246 708 237 81 31 32
315 858 233 64 57 57
242 343 302 123 96 68
193 807 261 175 129 103
261 378 319 142 105 77
245 343 304 121 95 67
388 549 247 128 22 42
336 778 222 54 45 42
316 43 264 110 38 47
266 383 319 145 105 76
242 348 303 121 95 66
266 303 257 89 76 63
346 423 183 118 33 35
248 339 306 119 94 67
373 846 271 114 97 88
363 844 257 70 56 52
276 63 238 111 31 35
260 887 267 67 59 53
247 343 307 118 93 66
281 508 307 66 24 30
318 106 238 131 94 75
310 48 243 97 34 31
363 372 274 117 93 64
243 354 306 118 94 66
276 22 256 102 54 39
420 876 386 75 61 54
204 483 279 137 3 40
265 223 245 128 97 61
324 403 290 126 89 72
241 733 332 182 18 58
244 348 305 118 94 67
254 338 310 118 93 65
251 503 308 60 30 34
346 38 228 95 75 56
296 908 254 70 62 63
227 403 293 122 96 69
365 622 249 117 32 48
256 338 312 121 93 65
271 258 254 105 83 59
253 340 311 117 93 65
323 163 246 106 85 62
280 517 309 49 23 28
364 728 313 149 8 46
249 347 310 117 94 67
323 50 214 101 82 68
361 328 243 125 98 66
321 673 330 158 18 52
200 668 228 146 112 89
360 517 331 95 28 40
361 303 238 127 97 65
282 519 312 30 26 27
251 348 312 118 94 66
280 233 273 113 90 62
236 498 314 166 20 52
241 478 318 36 27 29
256 348 314 122 94 67
314 63 227 111 44 39
449 921 337 99 81 72
427 439 334 120 16 45
321 323 225 95 81 66
255 353 315 123 95 67
342 673 320 139 17 46
337 498 334 54 22 29
273 362 246 86 75 64
370 895 345 74 69 66
232 363 268 117 94 69
226 948 358 64 59 57
384 461 335 81 22 32
231 363 273 122 97 68
258 856 335 126 103 77
306 353 238 71 63 55
314 473 145 119 25 37
230 368 268 119 95 68
224 478 305 127 20 44
303 404 239 89 72 54
230 368 273 122 97 69
284 68 263 130 25 47
238 355 260 101 85 69
238 358 259 102 86 70
287 423 299 67 52 35
233 355 270 117 95 70
233 358 269 115 93 68
225 698 210 137 96 62
234 357 267 111 90 68
217 623 213 88 55 39
233 364 264 111 91 68
362 273 228 139 102 64
266 398 318 146 105 81
235 362 262 106 88 70
401 420 278 81 53 46
336 373 222 92 80 67
331 678 328 147 12 45
209 609 204 99 68 49
274 814 221 61 50 46
236 363 258 103 86 69
349 726 221 76 55 48
239 361 256 102 87 71
232 358 278 124 98 70
313 78 247 104 14 38
326 118 248 118 92 68
316 518 328 60 22 30
231 363 278 125 98 69
246 853 298 97 78 57
209 523 231 96 16 36
259 490 131 163 9 44
331 578 332 135 24 49
391 903 368 73 62 55
231 368 278 126 99 70
243 931 376 62 56 55
351 578 334 159 17 49
233 358 283 125 98 71
146 518 167 186 123 99
218 474 301 110 28 42
233 360 286 126 99 71
336 398 294 132 96 72
234 358 288 125 97 69
326 353 291 129 94 71
233 363 287 126 98 69
309 44 254 107 68 57
232 373 259 106 87 67
203 421 276 83 26 34
228 378 264 117 95 69
223 691 240 67 53 39
392 538 258 76 24 38
229 382 261 111 91 69
352 503 187 134 1 31
234 372 257 103 85 66
228 383 263 113 92 68
345 103 238 120 94 69
427 428 238 91 30 39
266 188 287 115 93 68
228 378 273 122 97 71
388 697 265 101 76 44
280 779 315 68 56 53
370 906 309 84 70 63
447 638 293 166 117 83
227 383 268 119 96 70
242 971 290 79 76 78
276 10 297 117 79 58
227 383 273 121 97 70
352 443 178 78 29 35
352 863 262 75 59 56
341 253 268 125 99 69
466 570 355 196 139 119
315 943 313 66 58 56
233 369 260 105 87 68
221 468 303 133 19 44
231 373 283 126 99 69
161 553 198 115 90 71
228 383 278 123 97 69
229 376 275 123 98 71
301 647 235 124 14 33
421 627 282 105 83 57
357 367 279 119 94 64
346 253 267 125 98 66
229 382 280 124 98 69
311 429 153 90 67 49
231 378 288 123 97 69
213 566 240 61 40 46
318 178 229 106 85 61
230 383 288 123 97 68
260 478 311 83 26 37
302 794 218 56 50 50
235 358 293 125 97 68
216 658 201 149 99 67
281 508 143 182 13 41
204 498 283 60 24 34
348 42 227 89 44 30
270 188 282 115 91 64
266 923 382 56 51 50
404 493 229 139 20 41
252 792 301 65 56 53
320 812 224 66 54 52
238 355 301 120 95 65
370 593 338 62 30 34
361 298 248 126 97 63
214 742 277 140 113 86
456 613 308 180 125 96
388 705 260 118 87 51
239 358 304 120 95 66
351 63 218 110 67 60
321 113 228 131 94 70
234 368 293 123 97 66
412 911 347 102 88 78
346 863 256 66 54 53
206 722 210 142 95 62
236 368 298 121 95 65
305 13 293 126 59 64
405 548 292 44 30 35
428 464 302 80 31 35
251 622 234 170 1 40
204 540 258 150 1 42
326 193 253 107 85 61
219 955 296 76 71 72
238 363 302 121 95 67
271 478 119 117 29 40
189 659 208 180 129 105
318 490 151 89 44 48
381 927 338 68 60 54
239 363 304 123 97 68
449 637 299 181 125 96
316 203 223 115 93 69
237 368 303 125 98 68
341 907 383 61 52 49
422 421 253 56 28 31
207 583 268 124 10 38
279 78 250 104 70 53
241 368 308 127 99 71
289 378 258 123 93 75
310 68 243 107 73 59
232 378 293 122 96 67
233 369 291 123 97 67
241 483 317 34 26 29
382 859 292 47 40 37
234 372 294 122 96 66
280 243 263 104 83 59
372 593 308 68 28 35
406 513 343 131 14 33
268 192 285 115 92 65
235 373 298 123 97 67
216 498 298 149 14 46
390 537 301 131 8 40
361 333 243 125 98 65
237 373 303 126 98 70
398 793 300 171 123 93
150 563 188 190 129 105
302 413 258 62 49 35
234 376 295 122 96 68
343 148 250 116 93 66
369 571 340 133 10 40
428 860 385 81 64 50
371 858 398 50 42 36
284 318 316 123 86 64
250 492 311 168 21 54
328 890 355 55 52 52
233 379 297 124 97 67
324 16 241 83 68 54
211 412 283 82 46 43
341 453 353 143 11 45
277 614 333 82 22 33
234 378 298 125 98 68
316 188 238 102 83 61
314 765 216 57 44 43
273 218 251 121 92 58
368 698 268 58 37 41
283 268 268 97 80 61
233 383 297 125 98 68
315 99 244 115 58 56
407 483 337 62 30 35
276 33 287 135 29 54
231 683 218 97 73 49
235 383 303 126 98 70
238 370 306 127 98 70
292 333 273 89 68 50
201 723 213 148 98 65
289 372 306 132 93 70
283 728 187 92 66 53
238 373 306 128 99 71
336 123 250 119 94 67
263 88 221 142 16 36
240 373 309 129 101 72
238 378 307 127 99 71
261 258 249 110 86 58
356 483 333 96 9 30
240 378 309 128 100 72
237 383 308 128 98 70
311 748 339 177 18 58
293 960 329 61 58 58
239 383 310 128 100 72
247 358 312 120 95 68
401 503 334 130 12 36
226 558 308 168 18 52
195 743 248 156 110 82
241 363 308 124 98 70
211 738 209 141 98 64
331 813 309 61 51 47
281 422 178 90 76 62
322 55 260 120 49 49
164 534 179 114 85 60
370 841 296 85 55 42
311 818 309 156 118 98
243 368 311 127 99 71
261 183 243 121 94 59
244 362 310 121 96 68
246 363 312 123 96 69
246 368 313 126 99 71
374 508 330 76 20 33
251 358 314 124 97 69
286 393 303 130 93 73
253 360 316 128 98 71
341 426 318 72 36 31
266 419 183 93 78 64
367 638 293 163 16 52
221 768 210 160 109 77
256 358 317 129 98 71
250 363 314 127 98 70
256 363 317 133 101 74
350 238 262 124 98 69
242 373 311 129 101 73
381 420 238 82 66 56
242 378 312 130 102 73
210 628 194 132 97 62
220 518 208 51 36 37
307 328 268 74 62 49
241 383 312 129 100 73
356 892 402 78 63 53
245 378 314 132 103 75
326 12 268 133 75 84
286 793 202 68 53 45
379 452 319 51 28 28
321 432 338 67 18 29
353 171 226 122 99 75
343 172 255 120 96 70
245 383 314 131 100 74
327 904 396 53 48 46
321 432 323 50 37 31
271 378 242 94 81 67
271 83 233 120 42 44
247 383 316 132 100 74
303 444 298 68 39 36
408 752 262 93 66 48
279 866 221 61 55 54
261 458 109 112 30 42
322 923 302 75 67 67
276 36 251 63 48 36
210 533 232 142 12 42
341 28 273 141 46 62
251 373 317 135 103 76
248 374 316 134 102 75
341 603 334 163 15 51
263 401 227 96 83 70
307 318 263 71 58 44
234 396 305 129 99 72
261 43 278 127 104 84
251 378 317 135 102 76
318 263 257 85 71 55
251 383 318 135 102 76
296 723 339 48 28 32
306 713 344 76 26 38
336 178 213 130 101 63
333 248 266 118 94 68
256 378 319 137 103 77
348 416 211 92 75 62
419 447 363 63 24 27
256 383 319 139 106 78
376 907 377 63 55 52
320 323 283 101 73 52
426 453 298 146 16 37
327 18 233 85 61 48
339 111 200 149 43 52
202 413 258 47 34 36
371 454 318 58 21 24
341 298 279 123 95 64
371 788 313 168 125 94
202 413 263 40 32 34
205 411 263 41 36 36
280 873 211 109 90 75
219 411 285 68 57 45
394 885 321 60 52 48
203 414 273 54 29 34
286 698 334 98 25 38
206 411 268 46 41 36
206 412 273 73 43 40
206 412 278 114 29 44
211 410 258 59 50 47
344 89 241 109 90 70
273 421 181 92 77 63
223 641 225 92 59 43
308 24 254 95 45 33
286 798 312 104 87 78
211 410 263 61 55 50
368 388 268 116 93 67
216 409 263 65 58 51
269 901 235 87 76 76
466 593 328 181 122 95
326 478 351 108 18 37
211 410 268 64 59 54
304 17 303 160 109 91
366 900 296 73 62 61
201 478 268 133 1 38
241 403 314 133 103 75
280 304 316 113 87 60
406 859 384 60 50 42
209 411 268 61 58 53
355 483 188 123 6 28
211 410 273 63 60 54
222 443 303 93 24 37
284 278 283 109 86 59
261 193 243 120 94 62
342 609 226 66 36 42
362 623 247 105 28 40
291 418 238 85 70 55
374 451 315 61 17 28
209 411 273 61 60 54
216 410 268 66 58 50
222 403 258 74 64 55
222 403 263 83 69 56
366 648 288 138 17 43
321 424 173 91 73 56
318 100 220 93 53 34
209 903 323 68 60 59
221 408 258 69 61 55
318 776 326 71 59 54
171 577 180 153 106 72
380 577 338 59 28 34
365 748 313 87 29 40
291 643 332 101 29 42
306 429 286 69 54 42
331 168 253 112 90 65
271 563 184 57 34 39
355 472 318 29 23 25
237 413 312 124 97 70
314 238 233 111 88 61
282 263 268 99 80 59
223 403 268 93 76 59
323 352 291 127 91 70
206 808 229 174 115 83
223 400 272 99 81 62
237 468 317 123 21 43
325 542 180 169 10 40
291 16 306 166 108 109
422 443 348 71 20 28
221 408 273 76 64 52
128 515 191 131 106 96
211 411 278 61 57 48
212 410 277 62 58 52
297 898 252 66 60 62
291 430 158 83 68 50
200 478 258 43 25 31
240 896 355 121 96 84
331 909 298 72 66 66
291 601 215 110 22 38
266 416 193 95 81 66
431 443 353 95 33 41
216 410 278 63 56 49
208 415 286 122 20 42
241 628 243 107 14 35
271 24 255 102 88 75
349 353 225 106 88 70
211 414 288 78 34 39
219 703 283 103 29 43
251 743 222 84 32 34
293 343 288 97 71 49
240 463 320 117 23 43
332 213 261 116 94 68
216 411 284 62 54 46
216 412 288 72 47 42
266 98 273 123 99 73
341 513 340 76 25 34
217 414 292 107 36 44
222 533 209 125 19 40
346 427 313 74 41 36
260 267 250 110 85 58
222 414 297 79 43 38
201 423 263 118 18 40
404 498 355 81 20 33
260 88 219 146 16 38
371 803 238 69 54 47
286 408 228 87 72 57
219 463 300 94 30 41
202 423 268 68 24 37
299 871 230 68 61 63
203 423 273 49 27 32
346 633 242 91 37 43
396 862 387 55 46 40
311 58 238 93 53 43
201 433 258 136 3 41
262 52 222 119 102 85
291 398 258 98 75 56
202 433 263 142 0 42
241 393 313 132 101 74
321 193 248 102 82 60
286 483 127 173 6 36
276 508 307 48 22 27
384 558 243 81 25 37
257 434 148 74 52 44
271 363 244 88 77 66
511 528 338 152 112 89
203 428 272 122 9 40
367 422 294 65 56 47
278 837 229 64 51 45
203 433 268 142 0 42
436 668 288 196 134 108
321 543 343 101 21 37
203 418 277 93 19 35
204 422 275 80 21 33
360 713 228 71 40 38
431 853 378 104 79 54
207 423 283 104 17 39
261 188 243 118 93 61
322 148 223 111 87 59
270 753 202 67 48 41
277 900 365 37 34 37
371 897 328 56 49 44
251 453 324 73 30 37
205 428 278 129 12 41
207 428 282 89 26 39
279 815 216 77 60 49
356 443 305 38 23 25
207 433 281 132 8 43
210 478 289 91 16 33
270 158 253 113 90 62
202 438 263 138 0 41
277 68 243 106 57 48
203 436 271 139 1 39
230 693 213 119 86 55
349 188 215 127 99 63
372 773 309 145 102 72
330 420 189 92 74 57
204 438 273 135 1 40
204 440 270 137 1 41
264 438 321 71 28 34
323 164 220 114 90 61
351 876 371 54 46 49
320 740 206 69 51 41
301 593 341 178 18 58
201 443 258 139 0 41
338 323 285 129 88 65
234 696 315 42 25 28
156 522 190 108 80 64
287 358 309 131 93 71
201 448 258 137 0 40
359 374 281 120 95 64
203 448 268 139 1 41
314 679 235 40 33 39
351 847 250 67 55 53
281 28 257 84 29 25
218 621 291 138 28 50
204 443 273 131 1 38
204 448 270 138 1 40
216 643 229 97 64 52
421 683 292 178 123 96
344 47 252 118 77 66
208 438 281 147 1 45
207 543 283 158 7 47
205 448 278 142 0 43
371 417 283 66 58 50
241 898 357 102 83 72
207 448 282 136 4 41
321 228 218 128 99 65
347 723 339 76 28 36
309 353 280 67 56 44
208 418 286 86 18 34
241 844 323 97 80 62
241 638 249 140 10 41
301 703 339 63 28 31
316 808 313 47 41 41
261 173 243 132 100 62
328 168 251 109 86 62
283 465 116 155 9 38
209 424 285 93 28 40
208 421 286 111 18 42
281 717 189 75 54 40
286 413 233 86 71 56
211 423 287 99 30 42
246 848 308 90 72 50
348 68 197 123 46 46
420 483 293 112 27 40
210 428 284 91 27 40
286 63 263 124 39 51
270 148 263 111 87 60
242 573 209 106 21 37
212 428 286 110 31 46
315 897 265 64 57 59
286 410 231 86 71 56
210 433 284 133 13 44
411 458 223 49 35 37
204 503 284 44 29 32
236 538 193 168 8 36
223 688 273 76 30 37
266 53 228 108 89 68
316 198 238 105 86 64
215 433 289 49 32 33
411 683 294 165 118 93
197 807 234 176 116 85
215 438 289 43 29 31
341 468 164 110 20 34
406 677 261 125 92 59
350 88 223 129 24 47
341 213 211 122 97 66
315 263 228 122 96 65
210 448 284 116 15 38
213 417 291 87 26 33
316 12 294 126 49 54
295 898 249 71 65 66
356 893 308 37 32 32
215 423 289 82 27 36
420 487 312 102 31 42
258 893 258 48 44 49
341 163 213 125 97 61
217 558 306 164 17 52
196 663 198 187 126 92
273 78 232 101 48 44
362 278 233 137 100 65
221 423 298 136 10 42
223 420 301 132 10 38
282 38 252 100 27 28
216 648 198 155 105 74
218 428 292 63 28 35
234 959 286 69 66 67
219 428 294 91 23 38
213 883 328 145 107 87
251 668 243 73 27 34
218 433 292 61 30 34
219 433 294 85 28 38
274 58 234 93 29 25
234 659 261 126 17 46
223 428 301 129 11 38
388 529 227 147 17 40
266 902 235 85 73 72
358 208 248 121 97 70
412 738 283 170 110 81
368 508 201 135 6 31
222 433 298 112 20 40
350 804 231 58 48 43
