ply
format ascii 1.0
comment Created by Open3D
element vertex 2233
property double x
property double y
property double z
property uchar red
property uchar green
property uchar blue
end_header
462 574 188 61 36 39
280 582 144 128 0 38
371 20 264 109 90 75
251 484 255 162 115 94
406 577 135 115 22 43
301 44 213 121 35 45
277 504 133 151 3 41
337 401 252 59 45 32
239 482 233 166 115 104
422 819 233 68 53 49
349 336 235 103 80 60
401 629 278 154 106 92
356 239 258 114 91 66
347 26 159 104 24 28
382 479 58 100 26 40
299 43 208 136 66 65
404 670 286 142 107 86
300 339 266 137 94 70
310 336 261 124 85 62
270 359 223 118 95 67
406 479 78 175 8 39
403 599 277 96 47 45
247 489 232 80 48 45
356 423 217 91 75 57
362 319 286 136 94 68
254 504 256 157 114 92
274 719 276 158 17 52
342 399 207 94 77 59
248 619 257 150 108 80
396 204 267 121 96 66
397 664 273 122 77 70
241 489 238 172 122 109
372 452 66 100 82 63
384 915 251 58 50 51
371 817 169 74 60 53
307 209 231 111 89 63
307 34 182 114 31 33
243 494 238 195 140 127
416 868 298 71 56 48
336 831 291 158 127 98
297 674 264 114 7 35
306 39 182 132 28 36
405 443 315 79 21 30
399 459 308 112 14 38
372 469 43 109 35 45
335 40 203 71 27 28
323 244 230 85 69 52
275 313 223 127 100 69
285 888 314 166 124 106
247 494 234 109 64 61
327 649 275 54 30 36
322 84 214 101 56 51
355 36 285 131 18 46
318 339 206 86 75 65
360 943 244 77 70 71
278 530 245 42 23 29
406 239 253 119 94 63
387 319 232 94 80 66
420 428 303 152 17 49
245 496 237 192 142 128
386 919 298 61 54 51
367 440 128 96 79 60
289 17 246 140 89 65
248 486 231 80 60 58
377 124 242 106 82 52
347 44 163 95 26 28
252 764 273 159 123 91
422 505 106 167 5 41
488 447 157 105 17 31
306 682 275 107 3 32
253 488 230 66 29 32
349 422 216 83 68 54
252 489 231 57 32 29
329 139 204 87 72 57
452 445 128 97 24 37
340 572 275 147 17 46
257 499 259 157 114 91
444 794 288 169 112 79
308 114 203 110 90 69
312 962 322 70 65 62
326 204 222 85 71 56
363 104 244 127 46 49
292 339 201 96 83 70
332 84 212 84 36 36
254 494 228 76 27 34
452 448 108 155 19 34
409 644 238 143 17 41
342 441 138 97 80 62
362 454 288 35 28 31
292 284 198 113 86 56
367 64 278 125 29 50
366 289 232 86 75 64
309 131 211 103 83 61
334 184 208 93 76 58
244 484 247 154 112 95
283 274 243 114 91 65
347 460 174 91 75 57
294 180 216 109 91 71
465 567 170 214 20 52
334 44 209 75 60 50
394 85 255 109 68 61
373 55 275 125 106 88
261 449 173 65 29 31
366 844 277 55 43 33
255 492 229 77 21 31
394 580 284 65 21 31
376 160 276 119 95 67
287 424 259 164 15 51
382 389 212 96 82 69
366 958 268 83 78 80
452 734 227 101 76 55
252 494 232 56 29 31
402 729 294 110 57 52
302 11 242 105 58 48
432 699 229 75 57 47
315 16 195 91 79 66
347 389 213 90 74 57
367 50 280 130 20 49
309 114 206 112 91 70
322 254 193 97 78 57
330 334 219 74 64 55
251 494 254 153 111 91
312 164 217 97 78 57
418 506 106 141 20 40
334 219 208 97 79 59
373 474 47 177 10 39
242 484 243 119 92 69
322 899 338 185 133 113
316 879 238 45 42 44
312 114 209 106 86 64
302 769 283 71 60 53
250 505 238 179 130 116
357 684 293 93 23 38
432 429 248 77 66 57
290 193 203 115 94 71
447 494 108 170 0 36
402 438 138 86 52 44
362 409 289 120 74 59
414 846 285 36 31 31
372 204 280 126 102 76
510 522 182 191 18 56
248 489 252 155 111 93
348 556 106 202 12 39
296 655 181 173 5 41
378 50 275 129 12 47
277 826 227 96 75 67
370 465 40 90 60 48
317 119 211 100 80 58
246 494 249 157 113 95
286 426 143 69 49 46
456 554 243 78 26 36
485 444 236 71 25 34
386 866 288 33 30 31
248 494 252 162 117 97
382 169 238 97 81 63
310 41 225 112 17 37
341 349 273 134 91 69
297 415 174 99 85 71
333 139 183 122 95 64
265 831 241 210 144 120
252 499 228 52 31 32
413 674 237 75 39 39
301 24 187 127 32 36
372 613 154 158 24 47
259 401 228 53 50 45
251 499 232 67 42 41
332 834 293 156 127 101
279 502 125 152 0 43
347 319 238 126 96 80
341 64 203 86 51 46
314 546 86 194 13 48
447 529 128 210 12 44
338 64 208 77 24 29
297 364 265 147 103 80
346 469 268 146 11 45
409 807 180 81 61 45
251 504 233 101 53 53
287 504 252 138 25 49
410 474 312 100 28 41
317 879 233 42 39 41
312 719 287 157 17 51
307 27 236 141 20 53
330 238 199 97 79 60
337 400 238 59 49 39
477 540 147 208 17 47
332 440 128 95 80 64
312 24 238 109 24 44
382 314 231 89 78 67
286 454 78 98 31 37
304 141 190 111 91 70
253 504 228 91 29 38
339 79 204 93 60 48
389 881 237 57 49 49
285 26 218 157 24 54
316 285 246 100 79 55
309 89 188 105 84 64
330 446 180 96 80 62
389 244 231 94 80 64
407 714 188 53 40 35
254 507 228 113 23 38
393 164 243 103 86 67
402 744 295 113 58 53
377 309 230 93 81 68
308 89 193 103 39 40
297 622 150 229 15 49
392 104 231 135 30 39
285 233 230 112 91 69
253 509 233 137 47 53
334 89 210 81 29 31
372 104 273 125 99 70
352 819 284 166 130 103
463 555 152 178 16 44
426 608 242 181 12 57
255 510 228 113 18 38
447 432 193 89 28 40
522 450 173 86 29 32
451 583 193 215 17 58
262 414 189 81 38 37
255 510 232 141 37 49
331 446 85 91 76 61
532 454 178 68 26 32
437 534 273 122 72 59
332 89 212 86 19 31
402 214 263 121 96 66
316 839 288 153 121 98
279 604 250 127 91 75
342 49 168 90 48 26
489 504 225 169 15 52
255 511 238 170 98 88
361 278 280 115 90 65
302 554 253 52 25 30
405 234 248 116 92 64
332 124 198 95 76 56
284 732 286 80 21 26
387 229 278 126 98 66
380 64 271 100 15 36
373 635 177 53 33 38
249 503 248 179 131 113
364 961 267 85 80 83
297 174 217 106 87 69
418 419 293 126 25 49
267 769 203 144 102 68
370 128 246 108 85 58
377 209 280 130 104 74
487 441 174 115 21 42
472 549 153 202 16 46
303 39 184 134 38 43
304 832 225 86 64 58
332 479 254 50 25 29
383 84 229 145 13 43
307 11 238 86 40 36
435 579 270 153 107 78
342 49 258 121 63 58
409 469 298 70 30 35
397 314 263 126 97 65
369 941 251 79 71 72
322 254 232 87 71 53
433 749 217 63 48 41
421 680 199 82 56 42
249 499 251 163 118 97
320 166 216 84 69 52
298 19 189 134 39 31
332 234 203 97 79 60
328 850 199 54 48 50
428 763 207 58 45 39
390 145 266 115 90 61
412 514 298 90 17 32
289 726 185 81 19 30
336 90 156 146 19 38
359 843 285 118 93 73
312 34 180 83 45 31
385 507 80 181 10 41
419 471 86 174 6 40
382 289 279 137 102 68
372 779 293 76 63 58
251 499 254 161 118 97
473 468 245 112 68 66
361 478 39 69 35 40
285 909 277 154 117 93
312 249 238 115 90 64
377 296 231 88 77 67
363 509 283 60 19 29
301 494 58 75 30 36
325 79 161 112 42 42
316 274 242 97 78 56
313 94 208 104 65 54
228 774 243 164 112 82
371 628 169 68 31 38
367 49 243 86 31 26
260 504 171 146 2 37
249 502 251 163 121 99
425 462 280 47 26 26
252 504 253 160 117 96
493 434 229 69 27 36
327 649 170 72 35 36
357 452 63 93 76 57
273 374 208 114 93 69
317 124 179 122 98 68
292 451 73 89 61 50
435 720 291 161 108 76
330 296 226 81 69 58
472 469 104 158 1 32
311 404 256 134 24 48
297 583 114 155 27 46
270 623 214 59 32 38
280 464 93 129 17 39
396 309 238 104 85 65
408 422 208 100 83 64
459 571 215 46 25 32
250 505 249 170 125 106
397 443 103 96 79 60
352 69 154 111 36 28
437 749 294 155 106 72
387 604 153 208 13 49
282 454 88 70 31 36
257 504 258 160 116 93
372 398 210 95 81 66
386 54 267 106 66 61
287 894 331 188 140 123
305 552 255 34 25 28
378 371 214 96 84 71
237 709 243 137 96 65
250 506 243 197 146 130
392 446 88 97 80 61
365 74 241 118 30 40
391 854 215 68 55 52
302 699 284 140 11 44
310 65 186 103 26 32
294 957 278 83 80 81
342 448 192 82 68 53
407 414 288 75 56 51
387 909 253 66 58 58
362 719 304 181 17 58
281 494 113 144 4 40
319 374 196 96 83 70
388 659 197 92 16 26
262 679 221 126 87 59
362 34 252 64 30 24
452 427 223 61 29 29
329 374 213 85 72 60
392 673 270 57 23 26
253 509 253 160 118 95
339 868 314 131 103 75
352 452 182 83 68 52
472 435 188 92 23 41
374 73 230 141 17 47
288 28 218 162 26 58
427 494 297 150 109 77
407 774 304 169 128 98
432 619 268 155 110 77
347 299 253 93 71 49
257 469 258 126 93 72
254 470 256 116 91 67
464 459 250 142 17 45
307 14 243 92 54 45
253 474 257 134 100 75
252 479 257 162 116 94
389 703 295 78 27 33
343 99 183 110 75 60
256 474 259 139 98 78
336 911 226 71 66 67
352 79 154 128 28 38
342 971 293 74 70 70
305 61 205 130 101 75
433 432 187 98 71 58
417 779 307 171 127 91
400 700 199 64 45 40
256 489 259 154 112 90
267 429 184 75 30 31
439 519 290 166 118 88
321 15 228 74 33 34
302 169 218 105 86 66
297 434 257 57 26 34
264 441 162 116 6 36
350 84 270 114 13 43
362 434 193 90 75 58
322 449 73 93 78 63
492 489 111 61 36 40
337 874 323 147 116 87
377 234 281 130 102 71
297 14 193 112 70 56
382 833 277 34 31 29
362 149 253 107 85 61
377 279 230 84 72 60
277 409 188 97 85 74
372 43 247 110 94 78
458 489 254 103 17 36
272 804 277 133 107 85
298 15 189 119 58 44
415 869 268 67 57 53
317 30 184 110 93 76
348 89 178 121 23 46
394 184 241 108 89 69
317 514 252 43 27 28
329 199 186 119 94 64
243 704 224 124 95 60
337 560 106 108 24 39
473 550 218 53 31 35
270 358 227 116 93 65
504 474 210 50 27 29
306 31 229 141 36 56
390 914 276 53 47 44
304 21 185 107 22 27
318 219 230 101 81 60
229 744 234 153 107 77
362 784 291 66 57 54
302 749 285 75 62 56
377 154 275 122 97 68
351 64 154 108 38 32
533 500 158 65 33 36
262 559 263 158 111 88
317 15 198 84 73 61
303 29 184 118 42 34
302 744 285 74 62 55
284 216 214 111 91 69
447 435 178 100 18 37
299 38 217 138 25 51
287 429 168 92 78 64
321 89 167 117 36 39
319 614 271 93 29 38
281 269 238 115 92 65
387 184 237 100 84 67
317 454 153 95 80 63
382 818 192 61 53 51
397 708 187 66 48 39
500 532 187 199 13 56
304 48 184 126 69 55
303 54 198 138 14 44
332 17 267 126 70 65
302 29 187 87 58 42
334 189 193 105 86 66
317 13 223 75 41 38
352 884 307 78 64 51
297 199 227 109 89 68
371 189 236 95 78 58
472 444 153 100 18 32
312 39 178 107 39 29
337 609 144 108 29 42
307 15 189 102 87 71
263 445 173 50 30 33
420 622 238 180 32 58
393 615 167 99 30 43
307 24 184 104 53 37
443 480 101 144 15 42
285 303 260 111 87 61
352 623 276 152 24 53
307 119 203 109 90 69
371 933 244 73 64 65
302 25 238 143 77 73
328 229 224 89 73 56
377 499 69 153 12 41
327 404 252 107 16 34
297 734 182 152 5 37
302 714 180 57 36 38
310 61 215 124 10 42
493 489 223 76 26 34
308 22 186 109 93 74
320 16 200 90 78 64
402 479 315 111 22 41
256 524 238 128 64 57
356 109 263 122 96 70
332 536 81 82 36 42
494 536 194 149 44 59
312 23 187 110 93 77
313 18 192 100 85 69
335 406 195 90 75 59
280 475 101 133 20 45
331 324 228 78 63 46
377 139 241 102 80 55
357 330 285 142 97 76
317 114 179 127 100 67
505 508 201 120 33 50
271 349 238 115 91 64
382 404 290 123 96 70
317 19 193 98 85 72
289 11 246 133 44 53
377 584 292 182 11 58
460 554 237 177 18 55
336 114 193 102 81 56
468 452 106 123 27 29
306 945 246 76 71 73
284 224 208 112 91 69
242 739 220 138 102 68
362 569 283 105 12 35
315 21 190 103 89 74
371 69 232 111 45 41
342 835 291 157 127 96
330 218 190 107 87 64
322 234 187 108 86 60
337 12 283 130 57 62
421 614 253 70 42 41
400 97 243 130 17 49
296 34 193 131 59 60
398 104 248 126 18 47
299 39 189 139 29 44
419 480 92 164 17 42
386 542 105 80 32 39
313 149 180 121 97 70
309 881 255 91 75 59
303 34 184 113 43 35
330 304 233 83 69 54
331 119 203 96 77 56
306 206 231 111 88 63
342 679 178 119 15 30
277 354 208 114 93 68
299 43 193 140 17 46
450 797 214 71 55 50
352 269 243 120 96 70
503 452 157 105 22 25
296 184 192 116 95 71
337 114 188 108 83 56
332 109 203 101 79 58
332 445 147 96 80 63
330 458 150 96 80 62
307 774 192 91 63 55
294 169 203 113 94 74
412 854 333 60 52 48
355 239 248 99 79 58
322 654 172 122 28 42
295 168 201 114 94 73
432 479 293 152 111 84
454 581 208 209 20 60
459 560 234 139 20 47
282 559 143 71 24 35
303 44 184 118 53 47
332 719 289 61 19 30
372 194 235 95 78 60
326 164 212 84 70 56
421 724 199 53 42 38
467 534 138 210 16 47
314 44 175 122 39 33
292 244 188 129 99 64
336 957 327 80 74 71
319 359 255 108 76 57
318 41 175 97 77 62
333 895 211 67 62 62
353 89 272 117 17 42
297 282 255 106 86 63
347 490 42 216 15 47
276 719 198 111 17 29
322 468 27 102 74 60
297 12 245 120 60 53
329 364 243 68 55 43
317 49 172 125 29 28
310 597 130 119 24 40
285 12 233 136 62 67
309 489 44 126 21 33
376 933 308 54 47 50
357 654 277 50 25 30
312 32 181 102 63 49
248 649 257 166 117 91
353 413 218 88 73 57
497 539 163 50 33 36
292 499 252 150 15 47
376 144 241 99 79 54
332 11 302 147 30 60
377 479 292 94 21 36
391 404 286 90 75 59
306 44 182 128 33 39
272 699 208 58 34 37
295 21 240 186 143 115
517 498 124 180 23 49
391 174 240 106 88 69
314 26 235 108 59 55
397 424 297 114 9 34
337 399 233 58 48 38
357 74 168 131 17 47
386 164 272 120 96 68
391 344 229 96 85 74
277 603 129 113 28 44
311 44 177 94 50 37
359 239 240 113 91 64
327 394 243 59 48 37
307 29 233 138 28 53
375 714 306 33 28 28
292 664 257 133 14 43
392 184 268 120 95 67
311 49 177 127 28 40
513 442 182 111 25 35
266 744 202 56 39 40
317 35 179 111 96 80
402 454 68 98 81 61
316 74 173 102 34 33
435 454 85 109 33 37
335 35 274 118 55 55
318 32 182 112 96 78
333 219 203 99 81 61
291 18 197 117 49 41
317 39 177 95 75 57
450 431 248 105 39 46
316 294 204 75 63 52
342 59 154 86 31 24
334 154 198 95 78 59
318 54 169 76 42 33
264 832 261 206 150 122
331 29 268 127 28 45
473 459 244 68 25 34
426 858 293 82 66 59
471 559 208 43 32 35
457 554 149 109 21 37
404 81 232 145 28 53
313 114 184 124 100 74
297 544 79 205 15 48
325 460 164 96 80 62
397 829 283 38 32 30
406 639 284 171 127 109
302 234 237 114 90 63
292 29 223 149 40 59
272 389 254 135 101 76
296 609 259 142 17 47
436 594 238 189 13 56
317 424 167 96 80 64
318 12 218 78 54 47
397 452 71 99 81 62
390 519 304 61 26 33
325 12 291 137 46 59
322 557 100 217 15 46
265 444 153 148 4 37
321 269 237 79 65 50
360 71 246 124 93 74
386 700 296 73 24 31
356 64 163 94 28 32
381 406 291 121 95 69
310 99 205 117 95 72
359 123 266 121 97 72
340 107 187 100 69 49
279 294 243 124 92 62
318 59 169 127 33 38
368 154 244 103 82 58
275 324 233 129 100 69
290 639 250 137 14 43
507 443 178 116 20 37
352 54 248 119 31 40
453 580 188 197 21 56
295 12 207 107 76 66
295 898 266 119 92 68
396 69 256 109 23 41
412 449 283 61 23 30
315 59 171 137 27 41
313 59 174 140 29 48
399 728 186 61 47 42
306 230 236 114 91 64
394 154 248 111 91 68
310 99 183 130 26 45
329 184 186 119 94 64
312 104 183 131 99 73
372 670 184 82 43 36
372 194 279 121 98 71
314 63 174 143 8 41
426 478 95 172 7 39
487 434 193 106 24 42
327 724 287 103 26 40
311 65 214 123 17 43
229 759 256 156 110 80
369 61 235 130 19 25
316 64 173 133 22 43
404 678 216 96 21 36
294 230 236 114 92 69
286 874 283 146 112 85
318 99 211 106 85 62
356 244 243 115 91 63
318 109 211 103 82 59
247 654 233 154 107 79
287 209 203 109 89 68
278 416 180 80 69 57
302 245 241 117 93 65
517 519 158 148 27 51
253 519 218 49 29 32
307 54 183 137 19 42
447 749 278 166 113 79
321 24 232 76 26 30
332 874 327 151 118 87
475 557 202 49 31 35
309 53 180 120 50 46
377 409 292 123 97 72
264 401 251 98 47 35
382 929 313 63 55 56
286 14 243 131 35 51
414 417 258 97 81 63
327 209 222 86 71 56
313 652 170 175 3 30
310 436 153 96 79 62
352 454 58 86 71 55
249 569 248 150 109 81
472 436 184 99 19 39
309 830 276 161 122 100
287 19 203 104 60 48
355 71 275 115 83 68
342 50 163 95 51 28
235 714 238 141 100 68
312 179 222 97 78 57
305 55 187 143 74 68
431 724 224 68 35 35
310 60 182 138 23 46
338 496 46 220 15 48
359 176 250 109 88 64
317 443 93 95 80 64
229 740 247 155 107 76
262 812 276 188 137 108
283 18 232 160 114 101
313 79 178 105 43 38
302 685 277 128 12 41
313 64 178 136 49 57
428 480 96 175 7 39
300 286 256 107 86 61
380 371 286 132 100 67
248 634 258 155 112 83
397 839 274 27 25 25
326 957 331 69 65 69
317 438 128 93 75 58
294 957 274 84 79 81
297 11 213 115 80 76
412 454 323 91 28 38
311 64 183 124 33 44
343 414 268 150 9 46
351 439 198 77 62 45
292 15 198 106 70 55
395 360 225 94 83 73
322 954 248 89 84 88
305 56 191 152 118 100
516 441 188 119 29 44
247 634 248 157 110 80
282 484 98 83 29 37
306 174 182 125 99 68
396 548 301 187 10 59
328 199 219 85 71 56
447 439 229 70 22 27
307 294 200 92 74 54
362 79 243 129 16 31
337 520 67 78 34 35
387 44 258 91 72 54
498 434 223 94 28 42
290 587 115 76 19 36
417 689 296 169 120 90
308 64 188 120 22 40
357 709 148 74 52 38
368 462 41 98 84 69
312 229 183 124 95 60
378 78 229 143 11 45
244 827 258 214 140 114
306 64 193 130 21 44
306 524 250 48 26 28
372 139 244 103 81 55
330 234 221 93 76 57
321 185 221 86 71 55
297 269 247 116 92 65
297 714 182 133 11 36
345 108 164 109 81 72
309 62 185 141 15 48
322 189 222 85 70 54
371 699 158 75 55 45
294 169 208 111 93 74
332 404 253 101 21 33
317 64 218 113 44 52
400 97 238 136 21 48
455 567 236 163 18 41
295 168 209 112 93 73
255 546 205 164 0 46
365 364 221 87 75 64
312 889 233 42 40 41
451 753 238 81 62 48
300 46 198 138 86 76
278 535 102 66 24 31
375 898 230 74 64 65
332 485 32 210 14 40
274 315 220 127 99 67
287 14 213 149 106 108
282 784 199 67 55 54
312 349 200 93 81 70
390 69 262 112 11 39
357 606 146 118 44 51
382 269 229 91 77 64
307 369 192 92 82 72
281 299 253 117 90 61
350 92 160 124 37 40
302 874 269 113 84 58
366 110 247 116 82 54
424 427 243 82 71 59
347 394 223 88 73 58
405 229 261 119 93 62
388 344 274 138 107 71
285 868 293 158 123 94
351 74 182 102 17 38
432 430 243 77 64 57
404 822 195 89 68 56
304 62 203 109 86 63
284 16 214 154 110 112
268 624 208 42 33 37
357 99 247 127 21 39
403 830 222 69 54 48
343 442 112 95 79 63
331 309 228 80 68 55
322 969 303 63 59 57
367 274 281 129 94 68
422 474 293 85 63 45
278 592 120 58 35 38
377 868 289 30 27 28
340 89 201 73 20 25
291 12 217 147 102 103
267 789 277 166 126 91
405 599 279 133 94 81
284 484 79 94 27 39
359 99 245 128 13 33
364 186 240 105 86 64
432 468 290 120 86 66
282 603 129 86 35 42
462 435 183 97 16 38
332 919 334 82 65 53
283 15 218 166 123 126
327 17 296 176 131 125
353 449 168 91 76 60
379 481 56 159 13 45
392 619 272 163 18 52
350 70 252 122 61 48
380 35 276 89 50 41
279 743 281 148 41 59
380 68 271 106 62 55
281 544 92 61 31 34
524 467 141 119 16 29
431 789 208 68 59 53
424 606 192 128 28 44
393 34 232 90 57 54
347 965 304 64 59 59
326 858 188 92 77 65
326 438 174 96 80 63
342 899 218 60 56 56
298 11 203 99 74 59
301 825 264 121 88 69
353 379 230 105 84 63
282 14 223 178 135 137
287 13 218 163 118 120
394 99 254 113 74 63
437 790 208 90 69 57
391 796 179 62 53 49
364 379 220 93 79 64
287 12 223 163 115 115
403 254 264 128 97 65
301 469 52 81 28 27
292 12 213 134 93 93
279 568 105 85 24 30
353 264 243 111 89 64
287 24 203 136 29 45
387 435 158 96 80 61
322 44 172 113 97 80
279 897 311 188 135 117
409 654 238 83 28 35
438 600 218 71 26 35
397 179 263 120 96 68
279 254 213 116 92 64
342 703 177 118 13 26
284 23 209 140 33 51
335 79 211 94 14 29
286 25 208 153 12 49
293 639 253 139 13 43
302 244 185 128 96 59
441 435 262 76 53 43
372 484 289 117 11 38
283 23 213 139 41 58
321 104 211 99 77 55
258 774 210 152 107 72
282 19 218 129 53 61
382 431 173 96 80 63
377 448 78 102 84 64
322 522 65 96 31 40
294 639 256 145 15 46
288 28 223 162 27 58
283 14 233 152 91 91
284 273 200 132 98 66
339 719 296 112 18 39
288 11 228 137 71 73
409 465 71 166 6 36
289 314 266 131 93 72
302 433 133 87 66 53
279 374 199 109 90 69
345 329 280 132 92 71
418 509 296 111 68 60
286 12 228 148 93 93
382 194 234 96 83 69
287 344 203 103 86 68
288 11 238 134 37 53
393 374 221 92 82 71
307 389 259 154 105 84
276 314 218 125 98 67
322 789 283 171 128 110
455 745 251 61 46 35
385 309 276 142 104 71
285 14 239 139 59 63
437 809 298 176 118 94
394 178 265 120 95 67
399 284 264 139 100 72
283 19 228 166 122 107
427 820 308 56 40 30
357 800 176 86 64 48
322 735 181 153 3 37
285 674 191 75 28 32
370 52 241 60 35 23
477 454 242 62 29 32
362 74 276 125 17 46
411 409 224 152 126 104
308 124 207 107 88 66
287 24 228 154 111 88
287 429 128 75 62 51
347 84 154 149 23 43
411 469 308 50 29 35
297 588 119 136 35 48
388 786 168 96 72 51
260 403 244 136 19 40
285 21 230 159 109 89
307 69 198 127 42 51
327 468 28 103 82 61
350 334 237 105 82 63
337 440 118 95 80 64
297 904 248 163 114 92
447 434 258 69 54 43
311 239 236 114 91 65
286 20 234 158 111 92
297 484 54 110 25 37
288 23 232 136 92 71
312 384 187 96 84 73
412 499 298 65 35 35
417 499 297 124 87 71
466 441 160 98 23 33
323 30 229 73 54 43
392 789 178 59 46 42
284 17 236 179 124 111
287 18 238 180 126 125
490 494 226 146 26 49
330 254 218 94 76 56
392 764 299 49 44 43
408 439 323 65 22 31
282 819 272 64 55 52
289 18 242 156 94 81
477 427 216 69 36 35
261 644 261 174 123 98
325 16 217 81 48 43
296 12 198 104 76 60
282 426 135 62 43 44
346 55 183 74 58 41
399 531 106 180 16 44
292 14 203 106 75 62
292 13 208 118 82 77
336 433 180 94 78 61
326 199 184 122 95 63
400 365 229 95 82 69
333 119 198 96 77 56
361 834 281 131 102 81
295 12 203 102 75 60
347 74 152 130 19 32
433 674 278 141 97 63
289 432 168 93 78 64
291 348 201 98 84 70
287 254 238 113 90 65
321 669 275 155 19 51
320 58 166 124 39 36
307 10 228 76 31 31
303 11 195 100 78 64
313 68 212 115 69 59
247 799 279 165 124 96
300 12 196 103 78 63
422 494 102 90 33 40
462 499 252 148 5 46
297 11 208 104 75 65
317 14 233 73 31 32
253 539 203 161 5 46
330 239 221 94 76 56
398 550 299 186 9 59
377 154 240 98 79 57
388 129 263 118 94 66
367 844 178 74 67 63
342 452 186 86 71 53
427 429 198 100 81 64
309 881 222 46 41 41
321 314 247 84 65 45
398 254 237 102 83 62
434 799 195 68 54 49
327 634 274 88 31 40
302 11 203 93 73 60
342 444 148 97 80 62
393 50 225 120 23 18
397 439 133 91 63 51
294 11 213 125 86 84
329 92 160 137 28 44
403 709 291 143 100 83
292 354 198 97 84 71
419 860 268 71 60 57
293 11 218 140 93 94
326 119 176 122 95 62
278 464 128 74 33 38
358 194 248 111 90 65
289 11 224 147 94 93
467 428 213 67 36 33
380 923 250 71 63 64
277 324 248 120 91 60
471 441 164 101 20 35
306 45 219 131 100 79
243 724 262 154 107 80
377 219 232 91 78 63
292 11 223 137 81 81
306 798 281 102 71 55
367 99 242 102 48 34
402 399 218 104 89 72
284 534 107 56 24 31
344 54 255 126 19 40
279 261 205 126 99 66
297 11 218 121 76 76
392 49 234 106 83 66
280 694 196 117 32 43
391 59 262 112 18 39
362 814 183 75 59 53
426 542 125 66 33 41
499 460 219 76 26 37
381 861 281 29 27 27
302 10 213 94 69 61
302 10 218 97 61 58
441 519 283 166 116 89
302 10 223 92 44 45
402 447 82 97 79 59
293 20 195 94 42 38
280 278 239 117 92 64
289 23 199 128 24 36
327 694 176 127 11 33
398 259 269 129 96 65
331 84 157 145 16 39
282 934 273 54 51 52
461 454 252 128 28 45
279 514 87 66 23 30
276 593 148 126 3 39
347 461 40 81 66 50
495 517 130 77 36 39
294 16 195 110 76 61
398 349 263 133 102 71
392 51 238 108 90 73
387 425 184 98 81 64
304 125 198 108 90 72
247 780 276 162 123 92
283 949 273 75 71 72
401 249 267 129 100 67
323 15 278 138 91 77
306 452 66 92 76 63
332 609 144 212 16 47
402 479 73 171 11 41
402 824 203 82 63 56
316 84 172 95 52 44
312 139 182 122 99 73
366 859 178 78 71 72
284 729 286 79 18 29
342 596 136 214 13 48
331 239 218 96 77 55
508 462 132 123 21 34
346 865 301 142 112 85
396 279 268 139 101 72
293 24 194 127 27 42
387 864 279 32 30 30
392 780 153 95 70 51
450 744 256 64 48 36
292 29 198 131 30 45
260 413 191 100 30 39
296 552 85 147 17 40
403 234 264 121 95 63
366 15 268 105 86 73
355 82 167 138 14 50
312 664 176 158 0 36
289 27 204 142 87 76
290 26 201 125 29 36
260 530 176 157 16 47
291 30 203 142 87 78
322 424 169 96 79 61
292 834 229 94 70 62
453 745 232 74 53 41
442 434 238 99 26 38
409 530 300 54 25 29
322 209 182 124 96 62
352 834 183 89 73 65
320 74 215 98 65 54
329 299 223 80 69 59
287 744 188 157 4 39
341 339 228 118 88 70
413 427 198 100 84 65
393 259 274 130 98 62
317 219 182 124 95 60
290 30 208 150 32 55
257 609 224 129 96 68
470 558 212 37 31 34
317 744 182 108 29 42
261 529 173 151 14 42
291 30 218 153 32 59
317 199 179 127 98 62
440 807 239 86 65 56
482 490 111 92 34 41
302 204 230 111 89 65
306 11 195 97 78 64
270 434 141 43 34 35
462 534 138 207 13 43
387 204 232 101 87 74
429 461 86 128 33 45
339 326 248 87 68 49
362 249 279 125 99 72
310 83 198 93 75 56
399 844 221 76 60 53
307 11 198 92 75 62
274 345 247 118 92 63
310 81 198 93 71 51
337 74 152 147 20 38
308 12 196 92 75 63
372 659 187 47 35 38
331 329 233 84 66 44
493 536 152 201 22 52
371 24 288 100 37 41
287 389 262 150 108 85
357 680 291 50 27 30
324 384 196 98 83 69
367 34 253 94 78 62
292 557 90 61 34 40
325 104 167 141 37 46
441 441 139 90 32 38
327 974 273 59 56 55
392 44 227 114 42 34
310 84 203 105 84 63
331 889 332 155 117 94
431 686 244 119 88 79
249 589 234 140 106 75
382 869 298 35 31 33
307 10 203 84 70 59
315 167 181 126 99 65
429 745 207 63 46 41
374 65 230 138 12 29
362 404 208 92 79 65
312 10 203 78 67 57
317 79 213 103 68 55
397 54 243 110 98 90
428 829 293 75 58 47
312 969 283 77 73 75
309 131 185 119 96 70
488 452 142 109 19 30
416 724 188 60 38 37
317 609 142 220 14 47
307 25 238 131 27 51
342 404 243 75 61 48
312 10 208 76 65 55
356 89 247 116 62 48
317 11 204 76 65 56
427 724 297 167 110 79
374 486 56 185 12 41
363 179 244 105 85 63
317 10 208 77 65 55
327 974 268 64 60 60
415 604 295 161 116 92
307 194 227 108 87 63
377 389 212 96 82 68
334 149 188 113 90 65
389 148 241 107 87 64
302 269 192 105 81 52
282 434 258 105 23 38
314 84 211 109 27 40
304 371 190 94 83 73
307 10 213 79 63 54
344 58 194 74 30 29
254 671 261 159 113 87
332 625 157 101 36 43
406 69 233 109 37 41
307 74 193 108 56 51
405 764 190 66 51 46
404 422 201 99 84 68
402 904 323 69 60 56
321 967 312 57 52 51
277 799 276 45 40 39
332 942 240 85 79 83
332 463 38 100 76 58
312 10 213 77 64 54
362 675 178 69 46 44
263 714 219 85 60 51
307 10 218 79 54 48
307 10 223 77 40 38
347 844 293 156 126 97
319 12 214 79 62 52
313 99 207 110 89 66
407 494 312 103 23 41
346 69 258 125 41 48
416 869 273 69 58 53
327 354 208 83 73 63
338 109 188 108 79 56
257 599 262 151 109 81
526 484 182 168 8 53
459 447 126 94 31 33
309 857 325 166 133 104
315 11 223 75 42 38
339 49 272 112 14 37
357 327 286 146 100 78
391 319 272 141 106 76
322 469 148 96 81 63
337 529 73 72 36 39
318 17 197 95 83 72
460 507 115 44 28 50
292 11 228 129 58 62
497 534 153 111 25 41
325 52 166 95 78 56
394 75 255 116 82 74
366 24 292 109 22 42
307 909 332 85 66 68
346 369 237 124 89 80
350 279 258 104 82 58
292 10 233 129 44 53
367 565 117 164 18 45
318 274 197 85 70 54
367 582 130 182 22 47
315 273 195 89 72 53
297 10 228 115 47 52
486 489 233 165 15 53
263 832 244 217 149 122
327 744 286 62 52 47
277 749 278 68 56 51
429 561 136 76 23 32
331 124 203 93 76 56
344 58 255 117 13 36
354 445 167 91 75 59
301 159 192 112 92 70
427 719 223 58 42 37
310 94 182 126 21 41
292 802 205 91 71 63
297 654 259 138 12 44
360 78 246 115 41 34
337 518 64 77 34 38
316 971 278 78 74 75
297 10 233 114 41 46
280 374 260 140 104 78
472 515 122 91 35 42
317 239 234 105 84 61
292 10 238 131 41 52
411 824 223 76 59 53
357 229 243 114 91 64
378 411 211 98 82 63
269 570 260 153 104 79
297 10 238 116 47 48
398 299 243 112 91 66
315 242 185 113 87 57
292 946 262 73 69 70
292 464 63 107 25 38
350 303 241 99 79 57
447 704 253 81 70 61
317 124 211 97 78 56
335 124 192 104 83 61
511 512 135 133 38 57
383 38 263 91 62 45
316 104 210 104 84 62
338 339 253 85 67 48
302 10 228 89 35 37
392 254 232 98 82 63
277 474 259 76 36 33
337 599 137 216 14 48
342 28 288 131 78 67
262 549 178 172 4 45
302 10 233 94 38 38
292 254 242 113 91 65
372 74 233 132 24 44
302 11 238 99 47 42
312 269 243 111 87 62
266 699 218 93 51 46
292 11 243 132 46 53
387 744 168 72 54 43
418 616 208 122 24 42
262 407 201 71 53 42
327 35 184 117 101 84
330 359 233 75 60 46
297 339 266 140 97 75
428 844 318 68 54 46
390 710 296 34 26 31
418 715 184 62 45 39
292 13 248 122 63 53
347 608 282 56 29 33
405 648 220 119 35 50
393 59 259 105 25 40
257 714 268 160 113 88
295 16 251 122 95 68
403 889 319 50 42 36
281 407 186 97 85 73
361 114 252 110 85 60
327 958 249 91 87 91
351 64 182 90 22 33
457 428 213 71 38 37
453 496 111 171 0 39
359 961 295 67 62 63
349 89 255 118 16 43
313 497 251 41 25 26
302 12 244 108 64 51
291 20 239 167 117 94
386 878 229 78 65 62
268 436 162 113 5 34
364 18 295 89 60 50
316 874 229 40 36 36
432 430 228 99 34 40
293 23 237 143 97 74
254 544 198 66 26 35
290 26 230 130 93 63
399 213 241 103 86 68
332 419 252 68 21 31
284 837 256 47 38 37
293 27 232 158 116 93
317 929 335 169 132 111
395 473 309 113 9 33
406 780 166 82 73 67
349 53 250 117 57 48
254 529 256 164 119 98
297 27 232 156 35 62
265 429 186 88 26 32
297 28 228 163 65 73
302 27 232 147 41 62
270 421 255 70 24 33
379 348 280 123 95 61
390 234 276 126 98 65
302 29 228 142 99 82
347 564 112 89 34 40
327 970 298 68 63 63
357 69 247 119 81 63
434 466 91 90 32 34
355 254 263 113 90 65
405 78 238 136 20 51
327 124 207 90 73 54
425 629 260 127 91 65
248 789 219 171 116 82
277 299 238 131 96 66
397 74 254 97 54 52
462 504 115 99 23 36
278 575 133 125 0 38
301 31 225 136 104 83
410 822 204 93 70 59
302 254 242 119 94 67
281 529 98 90 22 35
301 26 235 157 26 60
281 514 98 143 0 39
341 108 160 125 45 40
396 639 268 126 66 64
318 309 207 80 70 60
310 104 187 123 99 72
390 249 230 96 80 63
325 254 231 84 70 54
265 629 261 162 113 89
292 20 243 195 143 132
511 507 130 63 31 40
327 439 178 96 80 63
314 136 180 123 99 72
294 33 198 141 33 52
402 199 253 120 96 68
533 489 174 86 26 38
330 243 204 95 77 59
345 11 295 118 42 54
297 21 244 180 133 129
263 724 218 88 37 38
393 174 242 106 88 68
342 913 225 77 70 72
332 744 182 101 28 37
298 22 242 170 114 95
288 314 205 101 83 62
331 111 172 133 92 67
346 79 188 94 36 44
356 359 227 86 71 54
412 714 178 67 50 38
405 66 246 116 40 48
392 683 274 42 22 22
512 484 112 104 28 35
377 709 162 61 47 40
318 74 169 91 48 40
342 441 113 95 79 63
405 576 275 33 24 23
297 19 248 179 130 129
294 17 251 131 101 73
477 450 133 101 23 28
314 903 336 176 124 110
297 857 292 113 94 74
317 479 251 33 27 28
330 369 223 74 63 49
295 17 251 134 101 73
389 97 230 142 18 37
374 920 242 72 61 60
356 219 248 104 83 60
305 36 225 126 26 41
381 34 273 97 23 35
287 789 276 52 44 39
418 427 208 103 85 68
302 18 247 146 101 89
272 719 273 158 15 49
305 60 209 129 98 75
302 20 244 151 102 87
334 909 330 137 101 77
279 509 78 69 31 34
292 504 64 83 28 33
326 89 162 98 47 38
382 434 294 76 26 33
247 809 276 188 138 112
337 674 282 46 27 31
510 464 202 110 23 43
307 354 263 142 96 75
443 524 265 68 26 34
427 614 223 144 36 53
302 22 242 168 120 100
428 849 273 86 67 59
312 11 228 72 31 31
292 364 194 98 84 71
351 23 261 101 49 39
312 14 238 76 33 31
263 584 224 63 30 35
307 219 181 127 97 62
400 867 281 39 35 34
354 57 168 85 26 28
270 369 217 119 95 68
303 499 53 119 19 38
388 873 279 38 32 33
378 854 277 28 27 27
314 12 230 72 29 30
330 68 216 86 44 39
319 46 225 83 55 42
304 199 180 131 103 70
410 609 289 166 119 98
306 11 241 95 50 42
342 461 40 85 70 53
349 62 250 117 14 37
318 448 166 96 80 63
277 379 258 139 104 77
387 575 126 120 32 44
317 164 180 126 98 63
252 759 219 111 80 51
328 19 268 128 62 62
295 36 203 129 42 51
310 15 242 89 34 40
332 99 209 102 60 55
312 29 233 117 76 67
399 274 241 107 85 59
387 456 59 101 83 64
251 624 227 142 105 72
362 699 304 144 16 46
405 69 229 99 30 35
274 474 140 70 35 37
310 27 236 114 44 50
369 24 290 104 16 38
433 605 208 169 20 52
373 385 215 95 81 67
284 230 226 111 90 68
397 421 198 100 85 68
322 424 252 42 26 28
347 15 273 108 73 63
452 429 238 61 23 29
369 144 245 104 83 58
313 19 239 82 52 45
339 402 236 63 52 42
231 734 248 149 103 75
301 49 203 135 79 73
454 530 255 170 9 54
268 649 254 155 104 88
282 620 147 212 12 50
317 24 234 90 28 37
395 56 256 93 28 37
404 506 310 58 23 31
352 763 174 67 52 44
297 624 153 227 14 48
305 154 187 117 95 72
405 74 229 119 27 39
390 400 286 108 87 64
312 899 337 201 150 135
317 44 226 96 29 39
271 413 186 76 62 53
278 379 199 109 90 70
295 435 161 93 78 63
317 29 232 104 44 49
418 849 252 70 59 56
417 815 227 67 54 48
270 613 159 52 26 32
280 453 118 64 32 36
307 22 241 126 61 61
247 794 278 164 123 95
268 384 213 115 92 67
302 269 247 120 95 65
321 39 227 89 18 33
311 18 242 92 25 37
417 819 228 69 55 51
282 229 213 114 93 71
487 445 163 103 20 33
295 35 198 134 68 66
439 796 231 71 57 50
319 374 255 114 78 61
303 38 222 140 22 53
342 392 212 91 74 55
336 103 202 108 77 63
293 33 203 131 65 63
243 679 248 140 98 70
237 734 258 154 107 80
326 441 105 96 81 65
372 40 249 110 93 76
407 444 93 96 79 60
392 44 232 100 67 52
278 444 128 54 33 35
307 608 140 186 18 47
296 39 203 146 16 49
233 744 257 154 108 80
256 725 220 130 91 64
297 39 208 148 18 51
307 129 208 106 87 66
410 691 222 51 36 35
307 399 182 96 82 68
376 884 224 69 60 59
440 470 286 155 110 80
332 27 282 129 56 57
312 816 211 86 66 56
332 14 278 130 81 73
408 494 92 42 35 40
282 569 143 124 2 36
406 473 316 75 24 33
244 674 243 133 96 62
298 43 198 138 69 65
416 444 313 137 16 44
392 554 301 188 10 60
300 46 203 145 113 87
338 398 225 60 50 38
393 204 237 104 89 73
437 430 218 88 26 34
503 459 213 163 16 51
251 544 243 147 111 82
272 549 163 54 31 36
292 184 213 109 91 72
404 388 233 104 86 67
262 459 257 125 91 73
284 309 261 124 91 65
352 89 163 141 18 48
300 45 208 130 66 62
309 98 185 125 21 41
346 69 268 119 30 47
405 732 170 83 61 45
302 49 208 129 51 56
449 432 235 76 20 29
268 724 208 73 26 33
272 609 173 124 4 35
295 35 214 119 59 57
372 919 239 72 62 61
329 371 216 80 69 58
512 479 109 108 22 33
530 469 181 119 26 46
349 63 276 127 14 44
423 693 231 76 54 45
298 39 213 143 21 50
313 489 38 161 9 38
312 89 178 121 37 44
367 389 213 92 79 65
446 477 100 163 21 39
290 189 213 110 91 70
365 486 285 151 6 46
315 867 217 40 37 39
459 566 224 194 17 61
293 32 218 137 48 58
370 33 286 131 110 91
302 34 223 125 51 55
301 40 219 131 20 48
353 961 304 55 50 47
355 244 248 97 78 57
372 889 224 64 58 58
338 364 263 119 80 61
300 36 220 128 16 33
305 123 198 108 90 72
265 614 218 76 34 39
342 94 157 149 21 42
234 720 248 139 96 67
303 49 213 131 26 47
360 234 274 123 99 72
511 461 139 119 22 33
298 184 189 117 96 73
384 746 166 70 54 43
372 359 285 130 100 64
352 485 37 132 21 40
507 498 119 155 20 43
383 709 300 72 31 37
303 43 217 124 92 72
284 339 261 138 97 74
423 460 81 54 35 38
292 404 262 94 28 40
280 264 233 119 94 67
287 359 263 139 101 77
303 59 198 108 44 43
318 304 208 78 68 59
431 664 268 138 98 67
304 59 203 120 95 72
322 454 58 99 82 63
361 913 235 68 62 64
383 78 224 148 14 40
249 827 244 236 162 134
432 469 92 94 34 38
427 427 233 82 57 50
417 775 153 101 82 63
304 53 212 135 19 49
301 489 58 69 32 34
373 69 229 140 15 38
262 406 204 73 61 51
353 64 179 92 21 28
347 34 257 112 23 29
400 567 125 73 29 34
314 79 175 114 34 39
271 790 206 191 132 99
306 39 224 129 22 48
257 744 270 170 122 95
472 474 106 151 1 32
385 75 266 91 45 39
409 736 176 60 46 37
304 47 216 118 89 73
439 718 285 157 106 72
274 705 205 121 10 36
307 49 218 126 96 75
317 539 259 126 7 38
401 548 115 175 8 39
287 339 203 101 85 68
348 27 296 152 18 57
302 839 229 61 49 51
427 684 292 163 109 77
374 491 61 182 11 43
395 797 196 61 50 41
320 21 195 102 88 74
338 424 257 38 25 28
309 47 221 129 97 79
392 159 243 104 86 66
372 441 115 96 80 62
395 268 271 137 100 69
435 614 283 155 106 72
382 199 233 96 83 70
394 284 236 108 88 65
361 938 239 73 64 66
329 592 276 91 32 41
308 69 188 114 40 42
302 451 69 96 80 62
311 44 224 118 89 72
268 494 153 115 28 40
338 344 258 92 67 47
285 217 211 112 92 70
367 369 218 94 81 68
300 163 191 113 93 71
327 954 333 73 70 70
304 58 207 129 98 74
327 24 203 73 34 29
305 65 203 114 81 62
372 389 213 95 81 66
417 427 198 101 84 65
426 834 248 67 53 46
419 710 201 60 46 41
376 35 254 114 97 81
288 494 63 102 23 32
341 879 197 76 70 71
307 189 180 127 99 65
288 778 195 86 66 59
372 458 48 96 78 58
422 444 98 79 46 38
286 939 313 192 140 118
391 144 263 115 91 63
281 239 208 113 91 67
307 64 208 122 87 69
362 824 282 147 114 94
262 489 168 108 19 37
330 296 224 81 69 58
305 50 215 117 43 46
387 169 239 102 85 67
398 339 243 116 93 67
252 719 221 130 94 63
297 659 182 171 2 41
297 314 267 131 91 70
542 469 158 85 32 34
362 894 310 95 70 55
338 69 208 86 28 35
366 427 206 92 77 62
417 444 98 85 60 46
308 119 188 112 92 71
505 449 211 116 24 42
341 103 198 111 55 55
312 794 281 143 107 87
273 454 144 78 25 36
302 309 264 125 89 66
311 54 219 119 73 65
323 972 274 72 68 69
367 944 313 56 52 53
285 484 261 158 107 93
377 54 233 103 86 69
358 209 244 114 92 66
313 54 222 115 34 49
466 445 246 112 7 34
256 519 259 145 107 83
477 523 129 86 35 42
261 402 212 97 56 47
292 430 158 87 69 56
330 364 228 70 57 44
356 64 159 93 35 31
395 768 175 56 43 40
309 63 212 116 59 53
382 49 238 119 103 86
356 444 284 67 27 36
257 789 278 170 130 95
344 971 267 82 76 80
309 58 216 123 10 43
376 532 95 116 6 34
307 769 190 149 19 43
376 334 225 90 79 69
313 170 180 126 98 64
354 52 281 125 15 48
357 44 282 115 56 55
284 230 200 115 93 70
307 34 228 137 31 54
312 184 179 129 100 65
357 569 279 123 8 37
308 38 226 124 18 45
371 483 50 180 10 39
337 779 288 61 51 48
353 700 163 70 52 44
342 54 158 91 46 26
409 783 149 98 73 57
312 34 229 121 89 75
279 469 99 102 24 38
273 429 173 75 28 34
312 32 231 122 89 75
271 599 257 151 102 80
361 119 253 106 82 57
322 849 303 132 107 82
358 184 253 113 91 66
345 394 274 148 102 83
343 546 96 209 13 50
347 894 218 61 56 57
398 679 278 96 62 57
391 169 268 119 94 67
312 39 227 116 16 42
245 734 265 157 110 83
414 679 236 67 36 37
313 43 226 99 35 41
315 66 176 134 48 57
405 249 248 118 93 64
441 431 194 92 43 46
384 925 324 63 56 52
316 32 231 111 40 49
335 207 200 101 83 65
316 47 226 90 13 30
249 639 229 139 103 70
309 99 202 113 92 69
467 480 107 154 1 32
262 824 232 212 146 112
278 329 253 127 94 64
322 13 208 80 63 52
335 848 182 95 80 69
347 447 83 92 76 60
421 425 243 87 74 59
393 712 176 68 48 43
380 130 271 114 91 66
328 99 164 118 39 41
317 49 225 100 18 37
337 684 284 50 27 29
355 61 160 90 23 27
352 443 103 92 76 60
253 544 239 133 101 72
301 226 236 114 91 65
411 868 318 72 57 51
372 459 292 74 27 35
305 961 261 88 84 86
261 584 226 83 59 45
317 69 173 129 19 39
363 31 290 124 72 67
421 424 303 111 22 40
318 15 288 149 97 81
329 698 291 35 28 30
312 438 158 96 80 62
252 812 276 193 139 111
412 834 303 36 30 28
316 79 173 123 30 42
284 495 78 40 32 29
315 196 226 98 79 58
378 919 247 82 70 69
426 696 230 69 49 41
330 267 222 89 73 56
229 794 263 171 123 91
307 69 193 108 80 62
300 914 232 66 60 61
322 129 210 88 70 49
312 339 203 87 77 66
399 52 233 83 30 26
377 269 229 85 74 62
357 304 285 123 93 66
242 764 220 149 107 71
407 868 332 70 60 54
509 521 185 188 16 57
322 49 224 87 34 37
293 606 136 95 44 47
310 68 186 102 32 32
411 689 229 64 40 39
394 204 270 121 96 66
407 524 107 99 27 40
329 255 213 93 75 56
362 38 286 134 15 49
477 537 144 210 17 47
310 79 182 94 68 51
334 135 186 113 90 64
385 472 295 61 23 29
501 528 148 198 19 51
267 449 252 88 24 34
315 73 176 104 36 33
308 208 230 110 87 61
428 456 277 38 21 26
308 74 188 132 36 49
417 704 218 66 38 36
302 248 185 127 95 58
271 654 216 78 51 46
302 388 186 93 82 71
348 69 254 124 93 71
309 79 184 89 55 38
397 109 243 128 31 47
251 609 259 148 107 80
309 79 188 122 31 44
302 289 257 111 87 60
518 504 188 116 23 42
284 234 203 114 92 68
342 504 263 128 5 38
440 717 241 113 76 70
309 79 193 132 15 44
338 874 207 78 74 76
313 74 178 99 65 52
347 456 54 77 64 52
416 459 74 164 8 39
396 659 268 78 47 43
354 251 257 107 85 61
334 164 198 99 81 63
362 808 179 78 62 53
302 799 203 91 71 62
285 219 208 111 91 70
353 429 282 144 10 44
230 739 233 146 103 74
490 513 221 86 23 38
318 84 169 102 49 45
362 89 244 122 19 32
305 488 51 81 27 33
341 938 341 53 47 45
314 84 174 106 33 39
344 306 250 99 75 55
372 403 212 95 81 66
467 464 248 148 24 49
299 170 190 113 93 71
303 139 193 109 90 71
314 89 174 129 41 45
282 404 262 151 19 48
367 134 248 114 91 65
417 769 198 68 53 45
337 650 171 80 29 39
292 239 237 114 92 68
316 89 172 134 25 41
367 74 239 124 45 51
388 344 227 95 84 74
260 831 260 206 147 121
367 444 98 97 80 61
357 13 293 95 47 42
304 126 201 108 90 71
388 654 197 117 14 31
310 108 205 114 93 72
264 464 160 148 7 37
330 258 220 93 75 55
314 94 175 113 82 59
251 569 237 129 100 67
390 249 276 128 98 63
319 92 170 143 32 52
264 823 230 206 141 110
357 84 275 109 25 41
492 454 138 110 21 30
515 471 110 157 33 21
357 604 284 93 28 39
302 413 176 99 85 71
377 69 273 108 33 44
312 84 178 118 28 39
354 254 253 101 81 59
332 457 52 91 75 58
392 754 298 57 48 44
310 84 182 113 35 39
310 89 182 115 61 52
302 389 261 156 105 83
309 84 184 111 38 42
282 709 193 113 14 32
371 493 59 185 12 43
288 300 261 109 85 61
299 282 195 107 81 53
482 469 239 104 22 40
362 49 244 101 21 32
309 84 188 110 43 44
305 588 265 103 11 35
347 442 113 94 79 62
297 284 197 106 81 53
347 104 168 133 24 46
317 359 197 91 80 69
297 409 178 99 85 72
309 84 193 107 26 38
405 65 233 91 33 33
251 654 260 172 123 96
413 833 283 29 25 26
332 434 178 95 79 62
297 828 262 88 58 40
347 508 59 207 16 46
339 834 194 58 50 48
314 99 175 125 37 43
383 516 86 174 9 44
317 99 173 121 41 43
289 199 203 113 93 70
422 639 258 112 80 54
317 104 173 138 45 51
247 789 278 163 124 93
337 624 275 86 28 40
385 118 240 118 86 53
316 405 180 98 84 70
322 74 216 100 26 39
386 79 266 100 21 37
321 229 185 115 90 61
312 99 178 131 26 42
534 501 153 81 37 42
347 14 302 115 53 61
372 469 292 60 29 33
347 451 68 91 75 58
309 99 188 122 46 50
309 99 193 116 67 57
310 401 180 95 82 69
377 446 88 99 81 63
367 224 279 123 98 72
354 748 296 68 59 55
355 59 168 88 29 30
312 404 179 98 84 69
312 354 198 91 80 70
452 444 133 96 22 31
441 729 233 78 59 48
402 664 218 98 24 36
332 154 203 88 73 58
279 889 289 168 125 99
431 450 84 102 29 34
308 479 43 131 12 33
264 418 251 62 29 28
327 404 188 96 81 66
367 442 116 96 79 62
462 718 253 69 53 38
315 91 210 105 33 41
429 684 290 164 111 75
431 603 198 193 19 56
345 499 265 137 7 42
408 775 162 87 80 75
261 434 188 105 21 29
342 69 151 127 31 31
312 627 155 222 14 51
310 101 186 130 82 70
312 494 251 45 26 31
422 849 258 80 65 62
408 423 203 99 83 65
317 404 182 96 82 69
310 109 187 122 100 74
371 159 241 98 78 54
277 594 158 124 5 38
327 11 293 139 38 58
342 14 302 139 68 78
316 105 177 131 89 68
310 247 185 118 90 56
358 229 272 123 99 72
328 510 256 115 2 34
360 842 170 85 66 59
317 109 179 127 96 66
438 779 300 170 117 87
431 593 174 213 19 53
290 479 63 78 28 31
315 110 181 129 102 70
342 14 278 120 63 61
276 795 206 108 82 71
335 83 211 91 11 34
247 794 222 175 118 85
477 555 163 43 31 36
241 784 275 159 119 88
355 74 155 110 43 42
323 204 224 86 71 54
288 634 247 101 16 36
327 69 217 98 16 35
391 787 174 65 50 41
440 587 241 58 34 32
308 114 193 110 92 74
321 36 179 113 95 78
307 119 193 109 91 72
259 579 212 127 22 45
359 224 240 115 93 68
442 437 163 97 14 37
348 409 278 96 22 36
341 804 187 61 50 44
307 391 185 93 81 71
308 124 188 113 93 71
372 435 168 95 78 60
338 74 208 92 33 38
337 545 92 226 18 51
378 289 280 137 101 68
342 549 277 150 24 53
332 487 35 214 15 40
414 820 226 73 57 52
416 690 230 51 44 40
305 128 192 110 91 71
239 787 225 175 119 86
372 48 242 87 66 50
372 865 287 28 27 26
338 466 30 86 65 50
312 124 183 123 99 72
294 166 206 111 92 73
273 524 153 51 32 35
294 880 326 133 50 70
255 519 241 152 103 87
536 498 158 58 33 36
372 644 273 157 14 49
317 493 39 191 13 42
331 364 223 72 60 48
279 442 125 103 39 46
312 129 183 122 99 72
312 149 215 97 79 58
282 489 103 112 15 36
317 119 180 125 98 67
277 284 223 118 94 66
315 124 181 125 99 70
328 18 213 83 38 37
247 749 220 139 103 68
369 69 235 112 50 45
367 199 277 121 98 73
391 299 272 136 102 69
317 129 179 122 99 73
370 474 290 110 27 43
274 586 125 68 29 33
321 58 221 112 79 67
399 290 247 114 89 59
330 379 241 59 48 36
315 129 181 123 100 73
337 440 123 96 80 64
361 124 253 102 80 55
307 69 203 125 32 47
334 447 187 94 77 59
413 610 182 114 33 45
391 99 262 110 45 48
505 532 164 162 26 51
378 508 301 143 37 56
308 74 198 118 35 45
335 209 203 98 81 62
337 457 52 84 69 55
464 551 151 204 16 47
330 34 217 83 27 34
309 79 198 113 41 46
261 464 163 90 22 36
362 654 181 98 29 34
320 207 180 126 97 61
286 582 110 138 29 50
328 259 228 86 72 56
370 755 166 65 50 44
309 73 206 111 33 41
285 549 128 37 29 31
279 478 104 115 20 37
337 39 273 122 14 42
481 502 115 89 35 45
502 505 122 110 31 41
278 314 213 117 93 65
464 491 111 165 0 41
297 329 202 93 79 65
309 78 203 107 35 42
278 695 273 51 27 30
262 695 266 153 111 87
361 419 289 114 18 40
282 759 279 65 54 49
377 440 123 96 80 62
310 76 205 121 21 46
330 385 208 99 83 66
310 80 204 105 41 44
398 229 237 103 86 68
352 861 176 80 68 64
379 73 225 148 12 43
347 484 268 142 12 46
266 604 143 90 16 29
274 564 255 140 88 71
382 510 300 65 32 36
382 179 276 121 96 68
312 79 208 105 44 46
364 59 240 129 13 31
247 808 228 186 126 94
312 531 71 217 15 45
427 599 297 165 115 82
318 68 216 112 14 41
317 279 243 93 75 55
312 894 208 85 75 73
332 664 279 114 13 36
317 74 213 111 88 66
401 284 258 128 92 61
450 552 251 160 26 58
369 377 215 95 82 69
274 554 255 134 84 68
315 78 210 102 79 61
397 453 68 100 82 62
303 849 263 182 132 103
413 479 299 119 73 64
280 894 287 170 123 98
362 29 255 71 49 30
326 163 180 130 99 62
309 85 197 90 65 48
467 518 124 125 33 47
283 344 205 109 89 68
277 654 247 130 84 72
303 139 207 108 89 70
352 884 214 57 53 53
317 434 168 96 79 62
307 279 195 97 77 54
261 759 208 144 105 71
309 89 198 100 44 40
320 252 190 99 79 55
399 86 250 109 28 42
403 374 233 104 86 67
399 398 217 102 87 71
247 659 238 138 96 66
310 89 204 107 57 52
319 386 250 95 68 49
391 523 95 48 37 42
325 344 251 71 55 38
427 433 173 97 68 56
450 484 272 153 109 84
310 94 205 109 59 54
311 215 231 110 87 62
330 229 222 92 75 58
386 873 224 82 67 62
396 169 262 119 95 68
304 741 285 76 63 58
346 303 253 95 72 51
419 435 317 83 18 31
272 604 133 109 29 44
317 84 213 108 24 42
322 754 184 136 20 39
302 164 188 116 95 73
317 89 212 111 15 40
346 59 188 71 23 32
279 525 91 85 24 34
373 889 323 38 35 36
316 94 210 99 76 56
310 860 256 143 105 80
307 684 278 99 13 35
427 529 122 168 4 36
306 499 48 70 34 37
317 209 180 126 97 61
332 441 113 96 81 65
400 771 184 52 41 41
274 711 276 150 14 47
292 379 190 96 83 69
351 84 253 120 16 40
321 394 189 98 85 71
270 679 213 86 30 37
367 364 220 89 77 64
452 504 258 143 12 44
310 104 205 113 92 70
322 104 169 143 28 46
292 894 332 174 130 110
312 859 253 140 96 71
312 104 207 106 85 63
326 966 261 99 96 97
363 332 229 78 69 60
486 464 237 65 28 34
308 109 198 110 91 72
281 924 283 123 99 82
382 379 287 134 100 67
292 429 133 77 62 50
381 814 188 58 52 52
372 209 233 94 78 60
414 596 161 190 12 43
395 159 258 115 93 66
444 457 275 72 52 39
302 958 259 81 76 78
322 865 326 153 124 93
342 79 198 85 28 34
303 159 216 105 86 66
297 599 129 144 33 47
357 672 285 76 23 37
312 109 208 108 87 64
352 969 283 58 53 54
332 899 332 155 111 90
436 715 239 71 51 41
353 26 295 134 77 71
306 294 257 113 85 58
247 689 258 150 105 78
448 750 233 83 64 54
278 514 78 68 30 36
289 200 217 109 90 70
391 179 240 106 88 68
309 110 206 115 94 72
280 574 151 86 15 31
316 99 210 105 85 62
396 404 210 99 84 68
467 569 183 135 31 50
316 109 210 106 85 63
322 59 163 123 37 32
242 799 278 169 125 98
307 114 198 107 89 71
342 456 179 91 75 56
335 133 184 118 93 63
324 64 160 129 39 35
347 64 273 120 27 47
306 119 198 107 89 71
264 777 205 157 109 74
285 222 206 109 90 68
304 129 194 108 90 71
326 25 198 85 70 54
278 464 108 87 30 38
400 190 261 120 95 66
392 214 233 102 87 71
392 229 234 98 84 68
287 430 123 79 61 49
250 714 265 156 108 81
306 124 203 110 90 70
437 504 293 164 119 88
307 545 82 202 20 51
310 128 210 103 83 62
320 264 236 85 69 52
278 284 233 122 96 67
253 823 235 214 145 116
297 779 194 86 66 56
307 435 153 95 79 62
442 719 238 77 53 43
312 129 211 101 81 59
297 259 244 117 93 67
364 139 271 118 94 67
377 569 297 168 17 52
362 364 222 88 75 61
477 514 238 42 27 31
329 108 165 147 40 48
342 894 217 57 52 54
293 375 190 95 82 68
307 637 165 215 13 46
322 20 288 162 116 104
432 460 87 103 32 41
315 114 210 105 84 61
392 154 243 104 86 66
317 114 211 103 82 60
392 836 275 33 29 28
317 601 136 220 14 46
299 440 255 161 17 49
314 120 211 102 82 61
283 904 283 172 125 103
320 43 226 94 69 56
434 839 282 76 59 49
366 493 54 189 13 42
305 282 195 101 78 53
317 129 211 95 76 55
347 29 159 102 24 28
322 219 183 121 95 63
382 484 62 154 16 44
