ply
format ascii 1.0
comment Created by Open3D
element vertex 2221
property double x
property double y
property double z
property uchar red
property uchar green
property uchar blue
end_header
237 303 305 119 88 63
291 713 206 74 33 35
187 643 322 105 79 55
241 303 307 106 80 56
392 808 187 98 77 62
270 82 233 116 33 36
197 645 314 116 90 59
311 143 257 148 96 68
182 448 311 119 6 36
226 313 301 102 80 55
386 492 287 74 29 29
400 777 187 66 51 41
416 437 221 105 19 36
328 94 269 127 16 46
183 572 282 67 32 39
230 318 304 109 84 56
374 826 355 82 63 50
300 303 314 90 72 51
262 578 375 168 120 97
321 453 326 132 94 75
236 748 242 115 22 39
232 318 305 112 86 58
314 832 211 55 50 51
264 354 349 143 104 85
338 80 254 133 112 92
241 308 308 99 77 52
235 703 241 139 7 40
281 283 318 110 79 57
391 497 312 62 38 29
307 58 249 81 34 28
178 553 267 85 32 41
329 822 261 51 43 36
302 277 363 119 95 68
311 58 246 71 37 28
241 348 316 98 76 52
201 508 342 39 28 30
331 463 312 108 80 59
250 303 305 73 58 40
291 208 288 119 86 47
233 314 305 113 85 58
240 318 309 112 83 59
245 708 328 34 28 31
321 543 353 78 25 35
361 493 337 63 31 25
476 563 266 164 114 90
313 309 354 136 102 71
251 293 302 70 56 40
249 300 305 76 60 42
254 332 259 86 72 57
331 404 216 101 19 34
252 302 304 66 53 38
321 123 232 174 21 53
358 590 288 191 17 60
439 836 197 112 94 81
246 312 309 90 67 44
242 318 310 109 79 57
394 526 234 192 0 53
302 83 237 96 38 32
246 318 310 104 72 53
251 313 308 76 58 38
342 44 273 124 89 73
390 743 191 56 44 35
356 628 226 98 58 49
320 112 219 158 28 49
256 309 305 61 49 35
371 718 267 155 16 47
397 506 225 69 27 27
295 38 267 132 42 48
321 703 317 118 27 48
256 313 307 62 49 34
199 784 323 189 129 101
371 568 297 172 19 56
303 842 239 114 77 66
373 510 392 191 13 57
252 317 309 81 58 40
256 318 308 67 50 33
286 945 344 64 61 62
335 87 257 136 105 90
180 553 257 59 32 38
207 328 272 116 92 63
207 328 287 120 92 63
165 483 308 123 19 41
351 846 308 34 31 30
386 743 151 77 58 45
206 333 282 115 91 63
206 338 272 115 92 66
308 123 233 136 18 41
371 473 217 166 4 39
315 238 341 117 95 70
366 622 196 101 85 67
308 161 264 141 99 66
372 805 239 106 78 63
203 353 272 115 93 68
351 703 304 68 24 36
331 424 203 76 33 31
307 14 268 91 86 83
222 581 234 170 17 46
203 344 278 114 91 65
361 496 412 71 16 28
266 418 190 137 12 37
274 376 280 86 70 54
402 774 187 64 47 37
189 412 292 97 81 64
184 457 319 127 7 41
364 831 288 48 41 34
296 412 345 162 119 98
204 342 277 113 91 67
301 928 358 56 51 50
206 338 287 117 91 62
317 83 217 116 34 21
316 513 195 72 31 38
328 120 247 149 26 53
471 528 356 132 23 44
204 342 283 115 92 64
327 714 309 63 33 36
204 343 287 118 92 64
187 415 269 74 68 60
328 393 307 116 94 69
269 317 368 122 91 65
396 453 252 98 1 30
203 348 273 115 93 68
261 733 333 165 20 53
334 902 263 85 73 73
361 678 227 106 62 55
461 557 292 59 21 24
428 511 297 73 42 35
363 865 349 62 55 52
240 374 325 125 93 65
336 584 341 137 16 42
202 353 287 118 92 64
204 348 288 117 91 64
258 228 272 104 82 58
421 449 227 183 16 42
264 25 294 121 65 61
326 703 203 81 29 29
286 248 342 109 91 73
406 573 317 88 21 37
212 323 262 111 88 61
401 439 227 86 6 27
273 347 365 153 109 90
217 328 258 108 86 60
386 789 157 84 65 51
381 443 203 94 28 38
258 173 274 94 76 56
266 938 287 77 70 70
209 328 266 118 93 64
381 494 416 92 26 35
208 328 268 120 95 65
313 337 316 104 86 68
386 441 217 89 10 30
290 315 314 84 71 56
212 373 312 120 95 68
336 678 212 44 35 37
315 56 245 76 38 28
163 483 277 63 30 36
233 672 315 55 25 29
313 555 402 166 106 97
379 723 189 108 83 60
261 842 272 190 128 97
316 383 348 139 101 75
212 333 263 106 85 61
324 370 323 119 95 68
244 788 330 150 117 85
209 333 266 114 90 63
485 823 263 99 83 69
212 338 262 105 86 63
265 77 218 148 9 41
255 883 292 129 99 76
241 368 323 116 85 62
383 496 314 66 37 29
263 124 251 131 88 66
213 344 259 103 85 67
208 328 291 122 94 66
264 925 270 82 74 71
207 338 292 119 93 66
258 233 262 116 92 64
315 897 376 59 55 54
268 911 375 51 48 48
205 348 292 120 94 66
261 98 272 115 94 71
240 513 341 90 5 29
356 493 337 60 32 25
204 351 289 120 94 65
368 702 256 116 20 39
208 323 290 122 95 66
312 33 253 111 35 34
210 323 292 124 97 68
355 613 267 190 2 60
267 678 223 119 15 28
315 889 375 56 51 49
207 622 282 55 34 39
212 323 296 122 96 70
212 328 296 122 96 68
215 323 298 119 95 69
321 938 337 57 53 52
215 328 298 119 94 68
177 558 287 81 30 40
284 208 307 112 92 70
353 506 215 116 4 25
430 525 329 44 26 30
339 521 364 108 29 47
214 332 299 121 96 69
486 538 262 105 74 53
396 843 292 61 53 49
221 323 301 108 86 62
261 43 278 124 102 83
323 642 304 149 26 52
282 548 392 168 120 102
266 543 201 173 1 35
217 328 301 115 92 66
209 336 294 119 93 65
355 682 228 138 132 137
356 496 357 58 21 26
376 778 151 83 62 49
263 849 284 138 100 73
321 573 342 107 22 42
311 98 217 128 23 35
305 308 367 125 94 62
301 404 242 105 65 40
210 343 298 119 93 65
286 284 371 100 84 67
214 336 299 120 95 67
281 328 307 85 70 55
221 448 342 61 30 35
342 789 268 62 51 45
352 431 233 100 15 34
286 458 336 78 34 35
318 715 314 100 26 42
347 643 267 90 24 39
213 340 300 118 93 66
325 228 292 139 105 67
366 731 180 90 71 49
324 179 305 118 95 70
186 683 322 164 113 87
212 343 300 119 94 65
215 343 303 117 93 65
216 348 307 114 91 64
214 351 304 115 91 64
215 353 307 116 92 65
290 188 302 107 88 67
223 698 339 153 103 76
175 538 252 162 5 44
221 338 306 107 85 61
386 463 257 91 6 27
320 577 209 83 34 41
222 348 311 107 86 61
391 483 267 81 8 29
348 605 284 75 27 34
327 599 337 162 19 51
202 363 268 111 90 67
188 541 229 102 15 28
327 253 317 124 97 66
335 689 310 34 28 29
266 39 243 111 96 81
499 563 290 189 148 142
281 808 228 80 63 55
207 358 263 105 86 65
260 223 262 115 91 62
203 354 269 116 94 68
291 960 307 64 60 62
316 183 271 144 104 66
284 77 258 101 47 42
355 835 258 30 27 28
235 534 205 43 36 40
431 467 244 150 23 42
247 793 328 146 114 83
202 358 272 115 93 69
318 11 270 54 55 56
205 368 262 107 87 65
321 698 318 118 27 46
266 388 337 129 93 74
200 363 272 116 94 68
259 316 259 103 85 66
242 624 337 115 76 66
204 366 265 105 86 63
373 735 164 74 59 45
285 361 285 99 83 65
184 416 276 68 58 51
458 581 290 191 134 113
275 298 372 103 85 65
306 223 337 109 90 71
286 758 321 83 64 54
198 368 277 118 95 68
294 500 356 133 0 39
391 728 177 53 44 35
381 863 262 84 70 72
199 366 275 119 96 69
329 122 258 123 52 54
237 728 238 103 26 43
278 228 307 107 86 63
199 367 288 119 93 64
266 693 221 101 26 34
330 798 187 55 49 49
316 23 288 124 88 72
199 372 271 118 94 67
198 373 272 120 95 66
240 419 335 126 93 65
291 528 352 38 25 27
326 58 237 97 71 54
354 611 239 152 27 33
321 708 201 43 37 40
386 737 181 52 44 38
193 445 325 130 8 39
316 696 205 71 37 35
198 374 269 118 94 66
198 383 268 118 94 67
347 779 268 68 53 48
199 605 304 73 30 36
199 383 266 113 90 65
316 678 210 109 20 29
385 793 167 82 63 50
196 383 272 121 96 67
356 533 208 83 35 40
233 643 254 170 6 46
316 898 239 77 70 69
361 499 392 79 32 29
205 373 261 108 88 64
305 878 202 112 93 78
187 415 297 73 62 52
221 523 346 38 28 31
195 398 267 115 92 66
366 438 232 102 9 33
203 369 264 108 88 66
294 242 344 107 89 72
202 383 262 111 89 65
263 128 257 127 86 64
400 813 271 75 59 46
338 16 280 119 62 63
431 514 341 48 34 34
205 378 260 111 89 63
233 763 249 66 54 48
172 523 242 149 6 40
204 383 260 111 89 62
415 450 250 96 0 30
292 399 201 179 9 18
397 815 344 79 60 48
389 632 208 182 125 94
273 799 309 65 52 44
259 914 369 53 51 51
196 373 277 119 95 68
306 217 334 108 90 72
196 603 302 140 26 48
196 373 282 119 94 67
307 503 194 70 29 35
310 553 378 140 86 83
196 378 287 119 94 66
301 9 282 88 42 37
223 718 339 167 114 86
192 463 332 130 10 39
401 497 292 72 21 28
262 789 319 52 45 41
323 377 306 117 95 69
278 890 244 59 55 56
194 383 282 117 93 66
276 940 281 84 77 78
324 273 327 126 95 62
409 433 214 106 21 29
212 358 258 102 85 67
308 180 315 105 88 70
331 533 203 112 23 39
208 368 259 105 86 66
221 428 343 141 22 48
211 373 258 105 86 64
309 108 220 142 23 45
203 358 291 121 94 66
259 728 225 121 20 35
204 357 293 120 94 66
208 358 301 118 93 65
326 423 204 75 35 34
202 363 292 121 94 65
203 364 295 119 94 66
401 603 227 125 95 59
391 777 152 111 78 56
225 759 255 69 55 50
203 368 296 121 96 68
302 38 272 92 52 47
207 393 316 122 97 69
212 758 268 74 60 54
198 448 335 130 12 39
207 363 302 120 94 65
322 407 267 88 77 65
290 596 340 106 19 39
418 506 298 73 39 33
366 523 211 45 37 40
204 368 298 121 95 66
217 744 339 177 127 100
262 833 292 133 94 75
196 513 338 63 29 34
198 373 291 119 94 67
421 439 232 98 2 31
202 373 297 120 95 67
286 678 329 144 17 46
370 843 228 69 60 57
322 481 332 54 31 26
198 378 292 120 95 68
373 845 235 71 60 59
199 775 329 183 126 97
451 579 282 212 150 129
330 812 266 81 65 52
226 323 303 100 79 54
320 511 388 67 27 27
301 10 292 109 41 46
181 428 302 56 28 31
293 196 284 123 90 51
291 408 196 145 0 32
198 379 295 119 95 68
196 383 292 119 95 67
319 42 245 78 35 26
204 372 299 122 96 67
373 805 166 79 60 49
370 713 253 158 18 48
261 48 227 117 100 84
166 428 296 42 28 29
174 523 318 56 31 35
311 53 248 80 32 26
203 378 301 120 94 65
188 712 330 169 115 93
396 570 316 107 22 40
245 903 302 53 51 52
289 405 213 175 6 14
172 508 316 89 25 38
202 383 302 120 95 66
417 506 307 66 35 29
314 758 300 74 57 49
289 280 310 82 62 37
208 369 305 120 95 65
207 373 306 120 95 67
313 905 245 81 73 72
279 227 313 111 90 68
270 108 257 140 91 73
176 523 227 171 6 45
416 452 228 194 16 45
205 383 307 121 95 66
288 831 234 175 127 100
349 766 275 76 59 52
213 354 305 117 92 65
228 728 249 150 7 42
264 730 334 170 20 57
316 118 222 169 26 55
260 178 272 96 76 54
385 642 217 185 125 97
215 358 308 117 92 65
341 572 334 170 15 52
195 603 282 100 20 40
426 487 259 78 14 29
217 358 311 115 92 65
427 552 314 48 24 27
214 565 230 118 16 35
336 428 203 77 31 31
278 225 307 108 87 64
426 502 247 97 21 23
209 366 304 120 94 66
308 326 315 98 83 66
210 368 307 120 95 66
291 10 302 131 37 51
410 782 152 92 74 63
215 368 313 117 94 67
362 500 377 63 26 26
164 478 287 83 19 33
301 423 341 158 114 95
187 453 321 126 6 38
273 264 331 118 94 69
220 358 313 113 91 66
351 502 387 72 32 25
346 503 423 157 19 51
338 784 184 71 56 48
222 359 315 111 90 65
311 403 347 143 99 76
305 14 306 113 69 55
275 48 243 87 33 28
221 363 316 115 92 67
264 389 329 95 64 51
221 368 318 117 94 68
265 334 283 76 64 52
219 562 344 110 24 42
209 376 309 120 95 66
350 673 223 110 99 102
210 378 312 121 95 68
253 347 260 81 69 56
304 193 275 135 98 61
290 385 259 109 92 73
312 50 249 73 35 20
354 425 216 111 13 36
209 382 313 122 96 68
386 572 261 84 25 36
214 382 319 118 94 67
162 468 297 109 10 32
256 542 352 40 28 29
345 872 365 50 46 44
212 617 268 186 14 50
255 328 258 89 74 58
406 473 259 76 17 30
256 333 262 87 73 58
251 338 258 82 69 56
291 368 277 107 90 71
223 612 254 86 20 38
250 343 258 81 69 56
274 420 329 132 94 79
254 336 259 85 71 55
279 795 225 79 63 55
226 368 321 118 94 67
250 518 335 57 22 28
268 378 346 147 108 87
248 778 239 73 58 52
253 340 260 84 70 56
253 343 260 83 70 56
431 833 194 122 99 79
306 473 322 61 38 31
254 350 259 82 70 58
360 826 183 102 78 61
348 39 262 138 28 52
259 328 268 89 74 58
478 576 310 89 30 39
256 703 333 70 24 35
197 693 341 168 116 93
232 323 306 112 87 59
231 328 307 111 85 58
276 12 302 127 81 68
326 456 195 117 22 33
259 227 258 121 96 68
351 618 267 187 6 59
272 835 330 133 70 76
396 501 382 74 30 36
469 545 314 103 65 56
224 331 304 97 78 55
276 14 306 135 93 78
352 495 267 78 59 40
226 333 306 98 78 55
386 428 213 103 2 33
428 526 330 40 24 29
274 830 245 185 127 103
235 328 309 112 86 59
238 324 310 106 80 55
279 471 329 36 25 23
168 445 300 120 3 37
286 339 374 163 113 94
267 508 194 80 25 35
237 328 310 110 84 59
326 648 302 49 26 33
234 332 309 115 88 61
258 238 272 105 85 61
189 748 317 178 120 97
176 415 287 69 51 45
292 233 288 125 87 52
211 693 345 173 120 94
175 443 281 96 12 28
241 333 313 109 83 57
226 338 308 99 79 57
301 613 332 82 27 38
176 416 282 88 47 44
230 337 309 103 82 57
304 210 280 132 96 57
377 474 226 68 25 36
371 453 251 87 29 30
280 324 379 153 105 89
379 653 203 158 107 76
398 825 311 92 74 64
416 513 233 112 22 38
232 339 310 104 82 57
236 338 312 111 85 59
390 838 256 69 56 47
304 712 330 161 0 51
321 363 317 121 96 68
297 184 311 105 87 68
241 344 315 102 79 55
286 404 217 163 13 19
196 523 337 88 22 37
325 163 297 117 93 67
246 328 312 91 69 47
254 503 335 90 5 28
251 328 312 80 60 39
257 323 309 66 48 32
386 473 262 87 4 28
251 333 313 85 63 42
368 696 266 59 28 34
395 506 366 64 22 30
461 471 248 110 20 36
256 333 312 69 50 31
190 403 277 103 84 64
291 9 297 125 39 49
341 33 282 130 29 51
366 493 322 87 36 31
292 203 317 107 89 69
426 507 287 73 36 33
296 9 282 100 39 33
246 338 314 103 76 51
241 549 342 47 24 27
276 479 330 30 25 26
296 9 287 106 39 40
377 509 407 193 17 62
246 340 315 105 77 53
276 627 332 57 27 33
246 353 317 90 68 45
251 338 314 90 62 43
364 709 239 142 19 47
256 673 327 57 27 33
361 497 407 78 25 27
246 808 327 156 117 90
252 343 314 88 61 40
335 418 292 115 93 67
256 343 313 73 51 32
333 540 405 129 58 58
250 348 315 90 64 42
385 808 178 92 68 52
278 728 214 74 33 38
321 423 203 66 36 37
186 448 317 123 5 36
310 308 361 133 99 66
251 353 316 82 59 39
256 348 313 73 50 33
388 450 210 73 33 38
252 352 314 80 55 35
173 543 282 186 0 50
266 443 191 142 5 33
254 356 258 82 70 57
232 527 204 82 33 40
254 357 263 85 72 58
314 436 335 145 101 79
249 363 259 90 77 63
312 580 344 137 33 52
287 757 208 71 57 50
251 363 262 89 74 58
321 10 292 122 28 46
302 133 262 115 81 57
268 516 194 147 3 27
256 363 266 91 74 56
295 285 310 87 66 38
417 543 314 67 21 32
401 792 177 82 68 57
252 365 265 90 74 56
286 847 248 175 122 98
216 423 343 142 23 47
184 578 292 51 27 35
256 368 268 90 73 54
342 458 292 120 93 66
250 373 258 94 77 59
306 313 367 128 95 63
216 633 312 84 41 43
256 374 263 90 73 54
253 378 260 93 76 56
339 438 306 135 102 72
326 168 282 122 97 66
256 382 260 90 74 56
327 850 297 38 34 31
198 573 325 157 6 48
226 358 317 111 89 63
396 490 239 64 25 29
236 828 282 80 65 62
206 493 343 118 17 41
230 358 319 112 89 63
303 124 243 121 25 39
288 763 209 71 58 51
226 363 318 115 92 66
224 366 319 117 94 67
225 678 318 76 62 52
316 353 312 119 96 71
170 463 272 83 27 34
188 557 320 176 4 55
229 361 319 114 90 63
321 448 327 137 98 78
456 533 317 85 22 35
242 357 319 95 74 50
247 362 319 86 63 40
351 488 262 82 62 41
283 385 259 106 89 69
252 366 319 76 52 34
271 11 271 91 75 64
254 366 318 79 56 37
406 568 262 80 48 38
222 373 321 118 94 68
316 11 293 106 27 38
211 628 282 92 27 44
223 369 320 118 95 69
227 364 320 117 93 66
336 14 282 123 58 62
231 363 321 117 92 64
279 468 329 33 25 25
367 413 208 92 27 32
251 588 223 81 32 41
262 405 227 100 51 30
236 363 322 116 90 63
162 468 302 136 1 40
226 373 323 119 95 68
321 63 232 108 73 56
245 498 340 106 9 34
413 561 324 83 15 34
287 900 236 86 77 75
301 83 252 91 62 50
227 378 325 119 93 66
198 772 330 181 124 96
188 428 268 117 4 33
226 383 326 121 95 68
181 415 291 63 58 49
312 347 311 108 89 68
335 63 239 121 103 83
317 904 363 52 46 44
231 378 327 121 93 66
369 699 281 83 25 36
231 383 328 123 94 67
261 582 219 170 7 40
371 549 329 157 17 49
236 373 325 123 93 66
320 53 240 83 65 50
331 638 225 83 29 34
238 371 324 122 90 66
241 373 324 122 89 64
236 553 212 83 31 39
237 831 301 135 85 67
271 528 197 151 2 35
353 610 274 191 13 60
241 378 326 127 94 65
259 486 335 33 25 26
370 718 184 106 81 48
322 534 356 138 18 44
263 905 370 46 40 39
371 439 232 97 9 31
236 383 328 126 94 67
245 364 320 91 68 45
332 529 366 42 26 32
257 364 321 85 60 43
381 798 238 124 91 74
246 377 324 114 81 58
246 379 325 113 80 58
253 684 229 127 5 28
417 759 162 90 67 54
251 373 323 84 59 40
276 608 223 78 35 41
396 758 145 87 64 48
397 844 287 66 58 53
251 375 325 87 62 43
306 582 209 115 27 40
276 351 296 86 72 56
216 468 343 108 22 39
256 377 324 89 61 44
199 610 287 171 28 56
256 379 325 89 60 44
277 599 343 43 27 30
395 789 207 63 47 39
241 658 321 33 27 27
235 658 251 86 25 36
316 83 280 106 85 66
256 383 326 91 61 44
481 560 324 118 35 50
312 24 253 106 79 50
256 608 231 52 35 39
191 398 282 106 86 65
265 844 272 189 127 95
181 415 287 63 59 54
271 589 349 35 27 30
331 478 195 149 2 31
309 708 325 168 11 54
257 243 272 106 85 61
365 435 226 106 8 35
286 458 196 110 22 33
212 773 272 162 110 78
189 408 277 90 75 60
282 369 278 97 81 63
273 259 317 113 88 61
286 403 202 178 6 17
204 585 250 192 12 50
190 403 282 103 85 64
271 51 280 118 21 45
184 438 271 62 32 34
306 543 198 111 24 38
230 818 272 84 67 62
331 743 191 94 34 32
191 403 287 104 84 63
327 403 287 114 93 70
187 413 277 68 60 54
188 409 278 88 74 61
188 409 282 91 77 62
402 746 150 75 56 45
191 408 292 106 86 64
286 198 297 103 83 61
318 843 298 72 61 50
272 413 190 105 24 34
204 794 301 191 130 101
377 817 228 53 43 37
376 418 206 59 35 36
261 173 257 106 84 59
193 414 306 108 88 69
346 28 262 116 72 70
181 443 307 45 28 31
163 420 288 129 9 37
163 423 288 141 8 44
410 532 321 101 17 41
331 73 272 110 58 54
365 445 246 91 24 32
202 683 345 174 118 95
291 9 282 105 42 33
167 418 283 123 22 40
185 543 323 171 5 52
267 847 272 180 120 89
167 423 283 131 8 36
274 39 249 76 43 25
166 433 287 131 0 34
295 679 326 140 8 45
264 902 271 67 54 51
172 423 278 119 12 33
325 10 291 133 30 52
286 11 270 108 69 48
176 448 277 78 26 27
327 433 328 138 100 77
176 418 277 115 17 35
291 498 193 94 32 40
162 463 297 89 18 34
189 589 276 102 26 42
263 10 279 89 45 45
304 830 310 114 91 67
396 561 293 155 18 49
358 677 185 123 92 56
309 850 335 105 84 65
176 427 278 120 1 35
397 720 148 95 67 38
171 428 282 121 0 32
263 10 282 90 41 43
226 553 218 98 22 37
176 429 280 121 1 34
271 948 332 68 64 64
353 763 174 83 62 48
176 433 281 119 0 33
211 416 333 74 62 48
218 821 325 203 139 111
281 863 352 89 68 61
169 434 285 117 2 32
419 496 264 66 34 25
281 573 377 188 123 101
170 438 286 117 0 31
405 447 212 147 14 37
172 438 284 117 0 31
351 851 330 41 37 36
264 303 347 118 96 71
170 443 286 109 5 29
366 624 194 104 86 65
311 518 397 50 25 23
291 948 287 96 92 95
173 443 284 102 5 28
266 10 277 90 58 53
172 448 283 56 31 32
389 743 150 81 61 48
373 825 302 38 32 30
172 518 242 149 7 40
174 447 281 73 26 30
409 733 158 88 68 50
191 423 263 106 10 33
187 423 267 108 11 32
190 417 265 77 62 49
271 628 228 94 30 35
192 418 264 81 57 42
192 433 262 101 12 30
390 502 406 191 17 59
186 428 272 120 2 33
282 832 329 128 86 72
207 423 341 103 19 37
207 623 292 71 32 40
196 748 298 138 101 69
321 908 357 46 43 42
188 433 268 98 13 32
321 143 292 110 89 66
163 432 289 144 1 40
195 569 246 193 14 51
271 558 206 174 1 37
265 103 228 117 36 37
189 433 265 104 12 31
329 415 268 95 80 65
179 416 280 80 51 49
262 338 352 134 98 77
182 428 274 120 3 34
337 870 220 68 59 58
340 419 226 107 9 35
301 723 201 59 37 39
182 438 273 91 20 32
335 508 198 78 27 37
178 508 325 111 32 48
211 398 322 121 97 70
179 451 270 74 27 28
267 552 204 174 1 36
361 574 317 73 30 38
223 470 345 65 30 35
291 387 355 165 118 100
264 309 294 79 64 46
182 443 272 79 26 33
415 498 257 73 24 29
163 493 287 146 0 39
347 713 187 150 110 78
381 478 266 84 10 29
182 448 268 78 27 29
187 438 267 54 32 31
321 278 317 121 89 60
372 738 238 125 83 60
189 437 265 76 31 34
188 440 264 39 32 28
232 788 338 164 122 89
306 595 215 44 37 40
318 515 395 55 34 27
266 848 277 173 120 90
334 415 225 104 11 35
302 143 291 106 87 66
245 692 324 84 23 34
267 348 303 88 71 56
461 553 288 61 20 23
382 788 238 136 101 79
190 443 261 37 34 33
326 443 199 78 35 35
286 567 380 194 127 107
185 443 267 49 31 33
179 434 280 116 3 31
263 875 355 132 107 83
257 263 267 109 88 63
251 851 317 106 77 56
167 420 295 74 27 35
341 483 198 57 32 36
291 748 203 134 21 41
164 422 294 108 20 39
166 423 295 48 28 31
225 639 318 121 62 61
349 37 261 110 44 45
411 543 316 106 18 39
398 798 187 79 65 57
166 433 296 115 9 37
433 833 243 113 94 84
307 472 332 60 39 32
257 328 262 90 75 59
335 67 270 127 18 47
176 418 296 89 22 33
264 306 349 123 97 71
391 433 206 88 33 36
202 624 328 101 79 54
248 821 254 83 64 55
311 922 263 82 75 75
226 448 343 100 24 38
338 482 303 66 51 32
371 606 216 104 84 61
393 830 308 72 56 46
176 423 298 64 28 33
308 628 314 108 38 48
171 428 297 62 22 30
176 428 298 113 14 36
323 367 332 121 96 66
351 440 198 92 30 31
223 400 330 121 95 68
355 664 225 86 55 49
166 443 292 116 3 32
267 103 232 125 37 39
294 199 285 122 88 50
277 387 351 157 112 95
167 448 292 90 14 32
167 448 301 122 3 38
436 520 250 197 11 50
326 428 202 71 34 33
166 463 292 45 30 32
315 298 327 115 83 59
306 193 322 106 89 71
176 438 302 43 28 29
302 658 318 159 14 50
169 442 299 114 7 33
210 658 314 128 78 61
171 443 301 110 8 35
301 648 318 39 27 31
334 87 262 115 41 50
202 638 350 146 106 77
175 447 304 107 14 38
386 789 147 92 69 52
353 848 217 78 66 64
181 418 297 59 30 32
502 578 277 197 137 123
303 58 275 96 11 36
182 420 300 57 30 30
201 578 247 192 12 48
344 42 271 123 61 60
179 426 299 107 27 43
369 738 265 97 41 48
321 948 312 72 66 67
223 735 254 37 38 44
185 416 298 54 43 40
334 101 224 150 38 57
276 279 316 122 90 66
287 473 336 49 26 27
308 874 199 109 90 77
186 418 302 71 32 34
291 819 295 117 87 65
185 423 303 37 30 32
335 83 262 118 13 41
397 607 250 188 125 106
175 478 317 84 26 36
190 416 303 80 52 41
284 818 230 51 44 47
253 658 234 85 28 37
183 430 305 80 24 34
334 78 266 124 51 60
251 588 371 164 117 95
171 528 252 67 27 39
187 423 306 43 31 33
311 233 341 112 92 70
350 490 327 57 34 27
276 98 252 115 37 39
188 420 305 33 28 30
318 449 329 138 99 79
186 428 307 80 28 36
209 614 318 186 4 52
288 208 289 123 93 58
185 433 308 50 30 31
264 19 299 104 68 63
446 450 241 105 19 35
340 68 262 127 58 62
274 897 250 62 57 58
187 433 311 51 30 32
189 426 309 57 26 30
289 473 339 37 25 27
189 432 313 35 28 30
262 318 282 84 67 48
172 463 267 82 28 32
296 778 206 78 62 55
311 408 201 58 35 40
180 437 304 78 28 37
183 444 311 75 20 32
431 514 317 65 27 27
191 438 317 109 17 37
490 539 275 106 10 33
326 378 322 117 94 68
401 577 247 105 76 43
451 568 272 152 103 68
185 443 313 98 19 37
405 538 257 171 8 42
187 443 316 122 9 37
190 443 318 125 7 37
355 817 168 84 64 53
192 443 321 128 7 38
170 458 277 44 32 36
226 508 346 79 22 33
191 448 322 126 7 38
176 463 262 45 33 30
356 818 243 32 28 29
173 459 268 65 31 30
330 93 218 118 38 33
177 459 263 51 34 32
259 153 270 103 80 56
211 473 343 67 27 33
324 114 280 114 93 70
168 463 287 65 31 33
211 478 343 121 19 41
261 73 273 111 19 41
172 454 277 37 33 34
342 703 193 142 106 78
246 613 238 97 29 40
366 648 219 148 94 76
173 455 274 59 23 25
171 453 282 36 34 37
351 653 257 152 21 47
376 439 222 95 6 31
306 528 197 70 32 37
168 464 278 38 34 36
356 588 342 127 25 50
275 263 337 118 96 72
369 728 244 89 43 44
298 79 262 83 46 42
285 258 348 108 91 73
169 462 282 72 30 35
334 536 415 63 24 31
305 33 262 103 36 30
275 414 333 132 94 78
168 464 282 66 34 39
312 723 318 154 21 53
212 518 345 112 21 42
234 483 345 127 16 40
349 655 234 50 29 38
167 473 272 41 34 34
165 478 272 55 33 34
276 868 267 154 116 86
280 272 353 108 90 73
319 349 323 124 99 68
173 469 263 41 32 32
174 467 261 43 34 32
191 568 252 104 24 43
173 470 259 47 35 29
286 528 197 100 29 39
167 468 277 68 32 34
165 473 277 42 33 34
453 533 298 69 44 32
341 893 257 82 70 67
316 478 193 147 2 32
167 468 287 90 24 34
298 180 310 105 87 69
226 563 223 166 11 42
294 308 380 129 94 70
334 932 307 65 61 61
163 480 278 49 29 33
236 393 331 130 98 68
306 13 272 73 66 62
164 478 277 43 32 35
368 608 231 95 45 41
164 478 282 105 24 39
169 466 275 72 37 40
396 778 147 109 78 55
333 98 221 128 33 41
188 449 259 49 27 26
406 480 245 52 30 31
163 454 294 97 12 34
264 823 308 113 81 66
165 453 292 96 13 32
335 20 268 92 81 73
162 458 297 53 28 32
174 498 318 33 30 31
336 17 291 140 45 64
163 458 294 41 32 32
317 338 337 125 99 69
163 461 294 34 34 34
323 619 304 151 38 63
184 549 319 169 5 50
165 458 292 38 32 33
355 592 229 88 17 26
344 723 190 142 106 77
162 463 301 133 1 40
265 328 292 63 54 45
431 552 281 77 22 34
306 278 361 121 95 65
338 88 247 121 37 49
331 538 413 104 29 43
197 607 297 79 34 39
354 846 308 34 30 28
294 492 357 135 0 41
170 452 304 116 4 35
167 458 305 120 2 36
175 452 308 119 5 35
177 454 310 121 4 35
171 458 308 120 4 36
345 53 252 113 45 46
291 493 192 73 33 39
283 535 372 102 19 36
322 58 231 111 79 61
305 246 289 132 96 61
170 463 308 122 3 36
218 564 345 82 22 36
360 881 268 67 59 59
176 458 312 112 12 36
411 600 259 196 128 106
298 205 325 103 86 69
318 346 327 122 98 70
165 468 292 110 12 34
196 678 310 131 98 64
257 243 262 117 92 65
236 473 344 69 29 34
344 728 191 130 97 69
366 433 212 105 14 35
165 473 291 116 10 33
225 668 297 116 19 41
161 473 302 137 1 40
204 783 291 179 120 91
405 543 263 117 12 33
376 458 213 185 7 41
348 641 245 34 25 29
311 793 203 81 63 54
275 258 332 117 95 71
164 466 304 136 1 41
166 478 308 71 21 33
396 618 217 160 111 76
437 511 361 128 29 48
170 468 309 125 4 38
170 533 277 73 30 37
216 803 337 186 133 107
226 468 345 46 28 30
292 846 244 160 115 93
171 473 312 124 10 37
199 403 260 110 88 62
173 478 315 81 24 32
296 723 336 173 12 56
286 268 306 81 63 41
183 450 315 121 2 35
384 816 287 48 39 32
338 438 308 137 103 73
166 483 262 83 29 34
257 203 246 125 100 71
330 618 297 137 31 53
297 297 314 87 68 44
367 869 246 74 65 63
424 504 360 177 23 55
372 575 258 81 19 33
424 796 274 44 35 22
276 43 247 64 45 30
164 488 262 41 32 36
262 843 317 120 73 78
163 484 273 42 32 33
164 482 271 50 32 34
317 489 195 141 1 30
164 487 266 40 33 37
199 387 299 121 95 67
396 808 192 91 71 59
420 499 247 88 24 28
357 708 299 172 16 56
163 490 264 35 32 33
373 510 387 193 15 58
403 615 237 190 127 100
291 488 347 119 6 39
164 491 261 100 31 42
162 493 267 50 25 33
268 941 288 81 75 75
316 278 312 108 81 54
444 829 199 108 88 70
162 493 272 127 8 38
342 584 220 113 29 38
163 488 277 125 14 37
440 842 212 96 76 69
394 501 388 64 26 27
163 483 282 63 26 34
461 784 232 99 77 57
321 9 277 74 53 55
281 954 332 58 55 56
163 488 287 137 2 37
276 573 212 59 36 39
162 493 277 137 1 37
294 477 354 88 22 35
263 841 264 188 127 96
163 493 282 140 1 38
375 608 238 114 55 53
311 178 268 143 101 65
241 824 267 85 66 61
400 476 239 100 33 43
363 825 197 100 81 68
164 495 283 143 0 36
162 498 262 126 8 36
337 20 289 131 60 68
210 613 332 97 66 45
162 503 262 66 25 32
162 503 267 131 8 38
162 503 272 145 0 38
301 438 199 113 18 30
291 213 322 107 89 70
163 508 267 113 22 39
313 261 349 122 95 63
176 493 322 43 31 33
370 796 148 85 64 52
163 508 272 109 12 37
163 512 267 89 29 38
317 139 256 147 101 71
320 373 346 138 103 74
163 512 272 47 29 32
163 498 277 142 0 38
163 503 277 147 0 39
351 584 327 165 19 44
301 573 351 92 32 42
431 508 242 111 21 27
163 499 281 146 0 39
259 87 219 150 3 39
217 398 326 120 95 69
462 553 322 133 21 46
163 497 288 150 0 40
164 498 282 146 0 39
164 498 287 150 0 40
280 518 334 40 26 27
499 573 269 143 97 81
381 608 243 134 84 76
251 533 201 83 31 39
164 503 287 152 0 41
281 23 258 100 30 27
400 815 222 105 90 78
281 593 217 99 29 38
321 409 222 99 14 32
291 523 372 34 28 29
163 508 277 132 10 40
163 508 282 152 0 40
335 409 217 99 18 33
163 506 285 152 0 40
221 698 287 72 22 32
311 563 204 44 33 38
303 323 369 140 99 72
322 203 281 140 103 66
163 511 280 147 7 46
274 340 369 150 105 87
334 107 247 138 24 48
339 83 242 100 33 40
280 243 301 118 92 67
319 349 337 127 101 71
164 508 287 153 0 41
341 798 266 43 37 36
241 773 331 141 106 73
221 548 344 63 29 33
164 509 283 154 0 41
164 513 287 128 9 39
161 483 297 127 2 34
162 488 292 141 0 37
164 482 291 142 1 37
435 504 373 173 32 64
335 438 317 136 100 74
256 643 327 175 17 57
221 633 267 181 12 48
480 509 263 115 22 39
164 486 288 139 2 36
412 511 350 27 25 32
316 479 322 53 32 25
250 483 340 34 27 28
349 761 180 64 51 42
161 483 302 112 10 37
162 488 302 105 17 37
284 901 234 89 78 75
163 493 292 149 0 39
163 493 297 143 0 37
248 888 346 165 127 104
319 57 240 90 73 56
298 112 249 121 32 45
163 493 302 138 8 41
162 483 306 116 10 39
267 904 262 65 59 60
168 483 310 104 25 40
163 493 305 95 21 38
170 488 313 90 31 40
340 827 258 26 25 27
244 687 235 133 6 33
330 803 182 65 55 52
367 454 206 178 16 45
350 434 246 79 28 28
174 483 318 61 30 32
172 488 316 36 30 31
324 650 305 54 18 28
348 774 269 72 56 50
201 708 342 171 117 93
174 488 318 36 29 29
384 836 247 71 59 50
358 604 267 185 12 58
170 493 313 72 31 37
275 567 350 126 22 46
347 604 288 147 31 54
172 493 316 36 31 32
401 438 212 60 38 37
320 98 280 110 90 68
402 504 244 87 18 25
174 493 319 32 31 31
451 528 312 80 32 35
363 698 229 121 60 56
294 477 195 126 9 26
311 93 283 104 32 39
306 519 397 52 25 27
163 497 291 152 0 40
316 889 231 83 74 74
163 496 297 150 0 38
164 499 292 153 0 42
201 677 310 124 90 59
248 926 289 81 75 75
164 498 297 152 0 41
358 468 205 108 14 31
263 98 225 141 14 42
350 898 312 57 50 47
439 575 301 129 58 59
165 503 297 156 0 42
165 503 302 158 1 43
217 618 263 180 10 46
305 473 352 66 23 25
164 508 292 154 0 42
353 600 284 193 16 61
165 508 297 156 0 42
165 513 292 117 13 39
296 893 381 58 53 52
229 708 250 83 25 41
166 513 297 157 4 43
279 256 339 115 95 74
370 806 164 83 62 51
286 443 197 129 12 30
434 828 195 108 80 58
260 178 252 112 89 61
166 508 302 153 3 43
167 498 311 65 22 32
365 822 212 99 67 57
288 542 406 176 122 108
166 503 307 89 20 36
167 508 307 61 26 36
167 513 307 131 10 44
172 498 316 47 31 33
326 730 194 52 36 36
170 503 314 128 18 43
218 631 269 183 13 50
376 508 377 194 17 58
172 503 316 67 25 34
340 532 402 106 19 40
266 422 324 97 66 52
325 128 252 141 27 48
170 513 312 86 23 39
379 820 196 93 70 59
294 172 281 107 85 59
415 762 167 78 58 47
284 419 194 149 0 33
266 478 331 64 19 28
316 263 301 105 82 56
296 853 350 146 108 88
174 508 319 50 30 35
422 848 257 87 73 64
183 460 320 126 13 41
214 530 344 49 29 30
188 449 320 126 6 38
395 793 202 69 51 42
290 341 300 96 81 65
379 695 220 156 107 77
187 653 318 139 99 71
326 468 192 126 20 37
190 453 323 129 7 39
253 609 347 138 87 74
263 590 352 118 77 65
357 431 227 105 13 36
192 453 327 133 10 41
353 676 236 148 18 46
186 458 322 127 7 38
362 843 226 70 60 58
187 463 326 100 15 34
189 457 324 128 7 37
301 748 197 116 29 40
246 698 232 124 11 33
188 460 325 128 8 39
191 458 327 131 9 39
282 259 346 108 90 72
228 807 264 77 62 59
241 508 341 99 5 32
276 358 292 86 71 56
348 421 219 110 13 36
305 873 207 85 73 68
190 463 328 121 12 38
240 818 326 169 121 97
182 468 322 50 24 30
323 416 255 71 34 32
252 888 352 159 122 99
272 773 218 77 61 55
316 79 223 115 94 66
221 673 337 134 89 68
181 473 322 54 30 32
302 472 327 63 39 32
178 474 320 49 24 28
313 361 300 110 91 70
211 663 351 182 127 101
177 478 321 75 26 34
279 92 257 85 28 28
346 438 253 78 35 29
431 793 252 101 74 51
180 478 323 83 30 36
224 701 265 154 13 46
496 573 269 124 87 63
237 678 243 91 26 37
182 478 326 33 29 29
328 469 314 82 59 42
184 467 324 121 16 40
262 108 246 139 91 70
320 496 195 140 6 32
342 614 283 91 32 43
186 468 327 75 25 33
343 595 299 177 24 60
371 718 262 151 10 47
185 473 327 37 30 30
191 468 332 124 12 38
281 10 302 130 68 61
188 470 330 46 24 26
402 553 261 37 29 33
446 525 256 98 28 39
188 474 330 63 29 32
448 531 336 176 21 56
271 733 338 160 23 54
191 473 332 126 12 39
322 123 283 116 94 70
232 552 214 160 21 43
333 418 287 113 91 67
305 363 287 106 91 76
264 81 219 149 2 41
177 483 321 58 30 34
176 498 322 37 30 31
230 549 215 171 16 45
305 354 298 102 88 73
176 513 322 68 31 39
179 488 324 60 30 32
182 483 326 38 27 30
313 799 284 147 106 81
195 422 260 100 17 29
181 493 327 39 30 31
352 559 220 148 8 35
376 492 292 65 43 29
286 319 314 86 71 56
335 472 194 155 4 33
178 495 325 46 34 33
356 853 223 82 67 63
184 483 329 72 24 34
405 488 244 58 28 32
353 668 241 56 32 38
377 556 329 134 18 46
266 17 261 95 82 69
184 488 329 98 20 37
187 488 331 127 12 39
255 618 235 137 19 38
368 638 190 129 95 56
190 483 333 135 8 41
315 358 307 114 93 69
395 783 197 68 51 41
190 488 333 137 9 41
296 718 203 82 29 34
316 258 298 110 84 55
192 488 335 139 8 41
464 526 360 189 32 72
190 493 334 123 12 39
266 448 192 123 13 33
230 563 354 141 9 45
279 82 265 102 72 58
316 393 277 99 85 70
195 423 317 39 31 33
192 493 336 139 16 46
257 248 272 107 85 61
178 498 325 39 31 32
351 493 272 77 59 40
181 498 327 40 29 31
183 504 330 77 30 35
316 162 303 108 89 68
238 634 347 173 111 90
379 647 199 161 110 79
356 823 242 30 27 27
178 511 325 50 29 30
183 506 330 49 22 26
384 506 406 195 20 64
200 773 297 174 117 86
186 498 331 87 27 37
397 525 236 197 1 45
186 503 331 45 28 30
190 498 334 85 30 39
298 324 374 143 97 75
184 513 329 99 25 39
186 513 331 66 29 34
396 527 237 182 4 44
331 623 227 88 25 34
361 648 221 127 82 67
192 508 336 84 27 36
302 183 274 133 95 57
304 800 210 82 64 55
421 493 262 76 27 31
201 388 262 111 89 63
273 278 317 109 81 56
380 862 258 99 82 89
200 393 261 111 89 64
331 40 244 119 100 78
316 558 353 95 28 41
195 388 272 122 96 66
316 138 252 149 99 75
197 388 267 118 93 66
287 209 316 111 92 73
203 772 288 162 110 78
196 393 267 117 93 66
351 633 188 128 97 62
194 393 271 121 96 67
381 832 257 57 48 41
335 103 242 118 76 67
193 394 273 119 94 66
301 128 267 112 83 58
409 506 244 72 28 31
226 673 267 70 26 37
260 323 272 88 72 54
259 299 300 82 69 57
202 393 259 111 88 61
419 491 259 64 33 20
203 390 259 110 88 63
289 872 257 56 48 50
326 512 392 66 27 26
303 11 294 109 41 48
206 388 258 110 88 61
174 518 318 62 28 32
262 323 342 123 95 71
355 748 180 96 73 49
384 739 221 150 108 72
204 387 260 110 88 61
211 723 342 179 125 100
202 398 258 110 88 62
296 98 262 94 29 38
296 377 271 109 92 74
322 833 282 73 61 50
193 388 277 119 95 67
351 844 342 45 37 32
193 385 278 118 94 66
296 98 267 87 51 45
260 49 223 118 102 86
302 466 195 120 17 25
261 948 317 66 63 63
291 443 198 91 23 31
193 390 274 120 95 65
193 385 280 118 94 67
302 43 262 105 55 48
460 545 286 80 6 29
224 645 309 90 13 37
193 388 282 113 91 65
213 792 278 169 116 81
194 386 283 113 90 65
375 858 306 45 39 38
256 518 333 40 25 27
298 760 309 73 55 45
306 168 307 100 84 67
451 514 257 88 15 27
457 498 271 101 8 32
194 388 287 112 89 64
206 443 339 125 20 44
287 218 322 109 91 72
341 73 247 131 30 46
194 392 288 110 88 64
356 837 297 43 40 38
319 136 252 139 89 73
301 703 332 149 10 47
199 408 260 110 87 61
341 523 422 146 22 51
193 403 268 112 90 66
327 173 292 117 93 65
359 877 321 56 50 46
467 546 311 93 59 51
455 471 248 103 15 50
306 533 422 152 113 99
196 413 262 104 84 63
343 585 317 179 20 60
267 468 195 142 8 31
343 585 313 193 17 62
258 839 306 154 113 89
194 411 265 100 81 61
280 88 262 67 31 27
193 414 264 88 74 60
224 673 307 64 21 32
195 388 292 118 93 66
196 393 297 119 95 68
291 613 220 70 33 37
281 538 372 85 54 44
320 137 258 137 99 68
253 610 352 162 103 85
201 388 302 122 96 67
200 393 302 120 95 68
306 223 282 134 99 59
193 398 292 111 88 64
195 398 297 117 94 68
339 922 293 70 63 63
168 531 296 172 1 45
261 558 372 126 100 77
320 14 269 49 49 50
203 389 306 122 95 67
202 393 307 119 94 67
211 593 336 40 26 30
412 506 322 69 36 27
310 130 235 119 64 59
204 388 308 122 95 66
315 928 351 53 50 51
204 392 309 120 95 68
290 249 295 84 64 39
204 398 313 120 94 66
206 398 317 120 95 68
194 402 298 118 94 68
260 153 262 106 81 57
271 382 271 82 67 49
196 403 302 122 97 69
167 528 292 50 28 34
193 409 301 116 93 68
195 408 303 120 96 70
309 892 380 60 56 56
211 423 342 77 26 36
286 572 372 182 117 99
364 586 275 70 32 34
250 473 340 96 23 36
313 277 354 123 95 62
198 404 306 121 96 67
440 535 319 100 21 39
345 638 272 162 14 49
316 21 290 161 126 127
200 403 308 122 96 67
199 407 309 122 96 67
390 776 157 119 80 56
200 408 312 123 97 68
194 411 304 115 92 67
327 398 292 116 94 71
369 557 229 52 33 39
295 118 262 106 48 45
261 88 222 145 6 39
310 511 383 53 26 26
195 412 307 114 91 67
297 227 284 130 94 56
441 822 268 95 81 68
401 818 307 74 59 49
198 410 310 120 94 66
252 612 234 163 14 42
330 424 257 79 63 45
199 412 313 120 96 67
385 852 266 73 58 51
286 33 286 133 31 54
200 413 317 116 94 68
370 668 220 148 97 74
221 593 336 93 23 38
270 333 368 143 104 82
326 188 302 121 97 70
436 829 267 82 71 62
202 403 312 122 96 67
316 853 197 78 65 63
367 749 163 53 45 41
380 602 238 117 58 57
260 123 271 111 85 62
381 748 232 156 111 81
202 408 317 123 97 68
315 328 327 119 94 66
321 861 336 42 38 35
266 385 263 65 53 42
323 935 286 84 74 74
205 403 318 121 96 68
316 238 288 140 102 65
341 34 248 125 104 81
208 389 315 120 95 68
209 396 319 121 96 68
328 407 286 113 92 69
198 418 259 83 68 52
194 416 309 92 78 63
211 503 345 146 10 45
169 524 257 52 33 36
364 772 160 57 49 45
325 873 207 97 81 71
342 850 356 36 32 29
203 791 299 190 130 100
391 494 392 122 28 47
196 418 317 66 45 39
194 421 314 46 25 29
199 416 319 95 80 65
376 613 207 103 86 68
398 438 210 53 40 39
347 653 232 34 26 32
326 873 371 57 52 51
323 163 270 136 103 69
194 427 318 40 28 31
194 431 319 113 31 45
233 743 244 103 22 36
325 65 234 92 72 55
289 876 240 56 52 53
371 498 362 66 21 27
454 489 260 99 34 33
330 707 310 45 26 30
342 734 299 94 47 50
401 784 147 86 67 54
256 385 258 88 75 61
208 399 320 121 96 68
486 581 305 195 19 66
206 408 322 122 97 70
416 512 347 38 28 29
203 410 320 122 96 68
206 413 323 113 92 68
274 403 189 147 3 32
306 24 283 95 30 39
266 632 331 64 28 33
326 858 322 35 33 33
307 343 363 141 101 75
207 415 326 98 79 62
212 393 321 119 96 69
398 861 259 80 66 63
325 942 297 86 79 81
213 389 320 119 95 68
411 459 231 149 18 41
301 513 196 41 36 40
296 163 287 99 80 60
416 502 287 73 13 29
216 388 322 119 95 68
375 467 218 116 22 44
296 118 257 115 37 43
216 393 323 119 94 67
215 398 324 119 95 68
243 443 339 107 24 40
391 808 292 41 35 31
249 888 305 142 108 88
258 493 334 78 16 32
269 71 219 131 15 39
222 388 326 121 96 68
271 378 277 80 66 49
406 588 263 163 110 101
219 391 324 120 95 68
221 393 327 121 95 68
267 338 313 105 85 64
328 243 307 117 92 64
218 394 325 120 95 68
301 927 263 92 83 83
211 403 323 121 96 69
341 608 228 57 29 36
251 733 229 94 28 37
433 474 253 107 14 37
210 407 324 118 94 67
212 408 326 116 93 67
213 404 325 119 94 67
352 515 362 64 27 37
237 683 243 134 16 40
288 276 309 80 62 41
322 713 313 77 25 37
340 438 297 128 101 70
215 628 358 150 110 82
216 403 327 119 95 68
420 494 388 185 28 60
276 633 226 64 35 40
466 523 262 83 12 26
216 408 328 118 94 67
401 504 228 97 16 28
209 411 324 116 93 68
215 412 329 115 92 66
297 93 262 92 48 44
342 604 293 113 30 46
211 415 331 87 71 54
196 428 322 58 28 34
338 784 274 55 45 41
311 158 262 149 104 73
428 573 324 126 28 48
220 403 329 119 94 67
346 658 187 140 103 67
219 407 329 119 94 66
207 808 307 201 135 106
382 757 233 154 111 80
293 525 352 46 28 29
418 493 250 46 33 31
360 553 223 145 8 35
222 403 330 119 94 67
366 843 227 69 60 58
221 408 331 120 94 67
218 410 330 119 95 67
402 580 328 154 30 55
311 608 219 80 31 36
221 413 332 117 93 67
378 688 219 156 107 77
311 554 412 194 131 120
315 328 337 123 96 64
223 415 335 118 94 68
200 417 323 62 53 44
201 418 327 47 38 35
318 353 316 123 99 70
198 423 326 34 30 32
199 423 328 38 29 32
349 30 264 122 57 59
297 188 278 125 89 52
195 433 322 127 14 40
226 658 282 144 2 41
268 715 219 43 32 37
340 602 224 35 32 38
197 433 327 94 19 36
436 506 251 91 17 31
205 416 328 73 61 48
203 419 336 124 17 39
495 550 285 117 89 69
327 388 312 116 94 70
202 423 336 128 14 39
206 417 332 67 57 46
202 428 337 118 19 39
327 939 297 82 75 76
438 835 225 88 78 70
201 433 337 90 22 37
326 43 279 115 37 47
316 901 239 78 71 71
204 423 338 128 14 40
413 456 254 87 2 22
204 428 339 124 18 40
286 713 342 91 22 37
204 433 339 69 28 36
320 189 315 114 94 71
207 433 340 73 30 37
303 168 269 134 95 58
441 514 357 87 34 40
193 439 320 128 8 39
196 438 327 134 11 40
291 383 357 164 117 98
291 10 273 107 56 36
266 433 191 126 5 29
197 438 332 131 12 39
372 563 241 53 24 29
276 569 210 50 35 40
343 910 324 55 50 50
276 388 257 97 80 61
296 9 292 115 39 46
199 437 334 125 13 37
194 442 324 131 9 39
462 562 312 101 14 35
195 443 327 134 11 41
301 443 333 143 102 84
228 638 259 134 8 38
326 143 282 116 93 67
221 658 322 109 76 60
193 449 326 130 9 40
326 33 246 112 90 74
446 459 246 73 24 25
194 448 328 134 11 41
278 280 360 107 88 69
197 443 332 132 12 40
256 614 338 113 28 43
205 438 339 128 22 47
207 438 340 121 26 47
441 529 328 147 23 52
346 838 187 110 85 65
294 493 362 140 1 43
206 448 339 103 21 39
209 416 329 81 66 51
253 591 224 189 6 46
216 416 333 84 69 52
216 418 337 70 59 47
311 38 256 74 34 27
211 419 341 74 44 37
211 433 341 109 31 44
216 428 343 121 27 45
231 568 223 187 8 44
221 433 343 156 24 53
216 438 341 53 30 33
276 428 193 145 0 34
208 442 340 51 22 28
223 668 322 91 65 50
391 571 261 47 25 26
209 445 339 39 27 32
317 846 318 59 51 42
329 808 181 65 55 51
216 448 340 56 29 31
221 443 342 111 29 43
226 388 328 122 96 68
225 393 329 123 96 67
301 278 305 88 68 43
323 530 352 161 21 57
287 204 311 112 93 73
261 608 228 107 28 41
286 303 316 80 66 48
231 388 329 126 96 68
227 394 330 123 95 66
226 743 338 168 117 90
282 233 327 113 93 73
266 401 245 94 58 39
231 389 330 127 97 68
301 883 380 56 50 48
281 423 194 147 1 33
278 228 302 103 82 59
231 393 331 126 96 68
226 398 331 123 96 67
300 68 262 85 57 47
357 678 267 126 12 38
386 468 227 187 12 44
376 579 326 75 37 46
460 534 343 179 18 58
231 398 332 126 97 68
389 482 239 90 25 29
237 547 209 55 32 35
236 387 329 128 95 68
236 389 330 129 96 68
301 553 203 163 5 38
411 502 256 75 19 32
248 462 339 133 19 43
307 198 274 139 101 61
291 518 342 116 9 38
406 834 281 67 54 45
314 369 293 107 89 69
322 652 220 54 34 37
413 854 229 98 88 81
295 468 195 124 13 31
371 813 233 79 58 48
241 388 328 130 95 65
374 744 247 135 104 72
239 390 330 130 96 67
276 10 292 113 73 60
315 313 342 125 95 64
470 539 266 54 33 37
310 814 216 86 67 58
255 743 329 149 19 46
240 393 330 132 97 67
264 552 359 105 9 33
281 228 322 112 93 72
241 398 330 133 98 67
404 570 315 109 16 39
332 113 242 136 39 54
381 834 231 71 58 54
297 333 373 142 95 72
226 403 332 122 96 67
231 408 334 129 99 70
277 83 268 105 52 51
225 412 334 122 95 69
281 748 332 119 38 52
231 413 336 130 99 71
281 403 202 182 9 18
236 403 333 131 100 69
390 871 277 75 65 63
190 738 327 180 122 98
241 403 332 133 98 67
290 961 308 61 57 56
318 925 270 68 62 64
302 68 276 110 82 63
330 112 228 171 22 54
301 53 257 88 29 34
241 408 332 132 96 68
480 512 263 76 31 34
256 473 337 45 26 29
241 413 333 130 94 66
291 821 298 84 62 40
351 428 208 87 30 36
407 505 356 184 19 57
323 371 320 118 95 68
246 388 327 127 89 65
356 473 203 67 32 37
242 392 329 132 96 67
243 396 329 133 97 67
235 498 345 135 11 43
366 836 230 69 61 56
245 399 330 134 96 66
229 525 205 79 30 35
384 483 234 126 7 28
436 812 182 112 90 72
269 849 271 184 124 92
179 515 324 52 19 23
251 388 327 111 77 58
278 427 330 131 95 79
446 798 257 96 77 62
315 88 216 110 30 25
261 418 325 96 63 48
337 658 293 154 15 48
321 878 207 97 81 72
189 590 298 197 0 57
251 393 327 121 82 63
391 748 148 73 56 46
436 542 282 39 31 37
251 398 327 128 86 64
423 856 224 99 71 66
395 806 287 46 39 34
245 403 330 133 94 66
259 228 262 115 90 62
350 467 199 160 10 37
209 563 339 110 21 43
251 599 369 185 129 106
247 403 329 131 91 64
407 475 240 37 35 36
246 408 331 130 92 66
421 509 312 64 32 29
251 403 328 130 87 64
256 408 326 125 81 62
321 18 292 149 103 90
321 602 342 189 16 60
323 144 265 135 104 70
336 783 277 50 41 39
248 408 329 129 89 66
299 78 257 93 22 33
228 675 259 42 36 38
241 498 342 118 11 37
251 413 328 127 85 63
221 758 339 170 124 92
256 413 326 125 81 63
321 21 290 142 104 84
248 412 329 128 87 66
368 575 264 157 48 73
236 418 337 127 95 67
225 420 340 80 66 49
316 894 236 77 69 68
312 595 340 112 7 33
301 48 267 84 24 34
231 423 341 117 46 45
258 37 280 129 19 47
226 428 343 145 20 47
200 683 344 174 119 96
306 858 347 55 47 40
231 428 342 129 21 45
173 546 296 37 29 36
348 590 299 193 10 61
315 658 311 143 18 46
231 433 343 84 26 35
198 742 335 176 123 98
242 615 364 180 120 95
281 733 212 70 30 37
331 688 211 57 30 32
336 533 349 116 15 39
236 422 338 114 84 60
366 492 312 64 42 29
235 424 340 113 38 40
241 423 337 113 84 59
286 582 350 156 21 52
236 428 341 133 24 46
214 673 345 165 114 87
424 510 321 60 31 25
266 401 207 140 21 33
236 433 342 98 25 39
269 340 364 148 107 87
242 428 339 79 34 33
246 633 243 126 10 33
226 438 343 146 21 49
291 24 297 130 88 68
231 438 344 122 18 42
233 668 315 49 24 26
231 443 344 89 24 37
312 303 326 107 83 58
240 438 340 91 23 35
326 183 297 120 95 67
236 443 343 62 27 32
331 513 402 68 20 30
326 188 287 123 97 68
236 448 343 71 29 35
241 448 341 107 22 39
283 255 345 107 90 72
260 426 189 50 41 43
399 796 188 78 61 53
303 118 243 114 23 38
244 424 335 118 89 63
314 829 295 82 69 57
246 428 336 108 51 46
321 544 408 115 41 50
457 481 254 88 27 38
248 426 334 119 87 64
289 768 210 72 59 52
392 738 149 85 63 48
251 418 328 126 85 64
332 422 277 107 87 66
249 418 330 125 86 64
406 497 387 188 19 61
250 424 331 124 87 65
251 428 333 119 77 60
249 429 335 119 48 43
250 433 335 136 28 47
256 428 328 121 81 63
255 429 331 119 80 63
256 433 333 80 49 41
242 433 339 86 27 35
321 858 352 32 30 29
246 433 337 115 23 42
308 853 212 59 55 55
462 805 258 85 67 58
332 750 189 108 74 46
301 438 335 149 106 89
251 438 335 90 25 37
266 404 217 128 29 35
411 858 242 75 61 51
266 358 352 148 108 88
339 561 214 171 3 40
230 723 247 68 30 39
340 43 244 135 110 82
225 663 307 91 12 34
272 338 307 92 76 58
251 448 336 73 26 34
223 756 254 64 57 51
242 438 339 91 25 36
472 498 259 138 20 39
380 473 228 78 23 37
224 683 298 40 29 33
269 291 349 119 97 73
329 88 219 105 39 26
284 422 194 148 0 33
294 313 380 144 98 77
251 713 331 161 21 52
370 828 337 51 41 34
194 452 329 134 11 40
197 453 336 130 12 38
272 794 313 68 54 46
272 288 356 117 94 69
256 932 292 77 71 72
193 459 331 133 10 41
194 463 334 127 11 39
196 463 336 134 12 40
301 128 277 104 81 59
315 404 258 93 75 66
392 629 227 185 127 98
201 453 338 146 16 46
201 458 338 150 16 48
371 493 317 72 39 29
291 288 313 88 65 39
299 556 355 79 12 28
259 206 249 124 99 71
216 703 301 86 48 34
206 453 339 107 19 40
429 843 216 115 95 79
207 454 340 116 23 44
203 459 340 151 16 50
202 463 340 148 16 47
304 22 271 118 31 24
331 108 267 110 66 57
319 881 203 99 85 77
204 456 339 150 18 45
409 531 254 178 2 38
443 825 238 106 86 73
301 418 343 158 114 95
462 491 259 109 17 36
206 458 340 114 19 40
280 882 252 51 48 49
360 454 255 77 37 30
310 230 340 111 92 71
206 463 341 75 22 32
328 233 307 119 95 67
482 551 316 140 90 77
194 466 334 127 11 39
196 468 337 135 13 41
193 473 335 131 10 39
196 473 337 141 13 44
380 802 173 82 61 50
421 511 332 51 33 26
310 254 350 114 91 64
251 558 358 53 24 31
193 478 335 137 10 41
200 468 339 118 17 42
200 473 339 85 27 38
420 504 238 96 19 30
459 460 245 89 25 32
260 203 272 97 78 55
200 478 339 109 18 39
306 183 316 105 88 70
202 468 340 100 22 39
220 809 276 109 80 68
315 388 278 104 88 72
206 468 341 68 28 33
377 814 181 109 82 58
331 838 187 90 71 60
303 775 299 68 53 43
206 473 341 57 28 31
351 498 212 118 13 37
286 493 192 123 16 33
371 558 331 35 28 31
246 638 243 132 0 33
202 478 340 106 24 41
391 494 292 72 28 29
290 183 292 98 79 59
211 453 340 71 26 32
446 792 243 105 81 54
175 528 317 39 31 32
308 316 320 101 82 62
314 211 279 144 104 65
269 907 255 69 64 65
384 420 204 45 40 40
216 453 341 95 29 39
211 458 341 63 27 33
268 51 280 109 18 37
302 133 286 106 86 63
262 133 262 123 87 65
316 904 247 79 71 70
211 463 341 76 26 35
397 459 225 159 7 32
281 9 287 110 62 50
306 395 199 138 22 28
216 463 342 71 28 35
315 253 346 123 97 66
396 473 257 85 3 28
279 62 244 120 32 34
376 833 247 53 46 39
221 463 344 41 30 31
342 758 283 75 58 50
211 468 342 94 27 39
222 596 244 153 19 50
266 403 328 118 83 67
216 473 344 98 23 37
395 627 227 185 126 99
