ply
format ascii 1.0
comment Created by Open3D
element vertex 2225
property double x
property double y
property double z
property uchar red
property uchar green
property uchar blue
end_header
250 594 208 204 12 51
223 434 234 73 31 36
368 194 218 120 98 73
233 438 250 134 1 40
252 962 291 57 54 55
334 664 206 92 27 29
319 69 243 112 71 57
223 479 263 128 9 39
221 509 228 159 4 41
345 399 190 91 79 67
223 439 234 54 28 31
274 50 234 109 90 73
271 504 180 41 35 31
219 444 229 130 3 37
421 489 249 164 13 50
241 569 298 75 24 34
317 441 170 76 66 56
315 744 178 55 44 39
329 189 238 94 77 58
270 854 283 108 88 82
293 70 250 121 57 52
218 469 212 122 17 35
243 454 294 59 28 33
450 433 177 106 16 18
230 424 203 118 20 35
345 871 171 98 79 76
335 40 225 115 95 77
354 504 297 156 114 91
305 609 193 138 25 43
343 957 282 63 57 54
339 154 245 105 84 61
385 770 160 69 51 38
290 360 249 89 77 66
328 404 292 96 69 52
475 440 178 82 29 32
232 699 316 157 107 83
345 569 289 121 15 39
217 449 227 136 1 38
323 65 255 110 76 63
322 338 220 96 79 62
251 909 298 150 106 89
345 259 254 98 77 54
223 444 234 126 4 39
223 447 234 131 4 36
340 21 245 105 90 75
392 650 231 63 43 39
462 514 180 169 10 55
233 488 201 77 35 34
351 870 178 100 85 83
433 710 205 131 96 64
357 158 211 114 93 69
390 904 243 64 51 44
395 564 258 65 28 36
261 399 249 101 88 73
344 948 243 78 72 72
225 444 238 131 5 39
230 415 209 73 38 41
295 224 248 99 79 57
251 449 200 82 30 33
385 749 294 180 17 59
409 734 188 75 42 40
285 417 212 94 80 66
354 59 218 111 48 47
306 209 263 112 89 64
245 519 303 63 27 34
230 412 223 65 30 34
292 396 230 92 79 66
275 124 238 123 88 52
247 555 306 55 23 28
337 179 210 126 97 62
276 580 322 131 105 78
250 414 218 87 72 63
266 665 330 176 122 94
336 436 154 92 74 60
350 20 248 106 56 52
383 797 160 69 59 56
268 417 315 56 29 23
296 894 228 54 49 49
285 425 199 92 78 64
370 214 238 121 98 72
235 415 209 67 38 46
338 131 211 121 90 51
300 474 311 75 27 35
240 416 209 81 36 45
300 938 324 37 36 38
271 484 185 58 32 28
240 413 218 66 39 44
270 189 248 131 100 62
265 11 288 76 37 37
404 659 233 106 67 49
322 421 189 91 78 66
345 154 248 112 86 63
348 114 246 121 95 65
409 514 256 166 5 51
245 416 209 78 55 49
245 412 223 79 60 53
322 283 283 115 91 63
307 19 268 134 47 47
357 312 265 110 83 53
333 149 238 99 80 58
255 416 213 96 79 65
264 494 186 51 32 32
285 18 307 176 135 128
277 355 301 122 96 67
340 434 158 95 80 63
450 464 160 60 37 36
339 339 273 83 57 40
409 933 301 74 60 48
348 78 190 144 30 45
226 474 273 133 1 38
364 428 303 165 18 51
430 824 212 111 80 64
225 464 206 91 29 37
312 850 220 49 45 46
285 74 274 126 97 72
288 79 244 123 34 37
244 469 299 97 25 37
305 724 209 89 33 37
326 254 233 100 80 58
326 698 160 78 56 43
308 24 263 125 52 55
241 714 327 160 113 86
290 724 324 161 17 52
282 329 301 132 102 75
336 440 307 51 25 27
298 472 166 73 15 27
222 476 251 79 29 36
315 594 183 196 9 43
293 904 321 169 121 98
286 388 236 96 83 70
250 413 223 90 76 65
276 972 302 50 47 46
266 929 233 65 62 64
255 413 223 99 85 71
278 413 315 130 101 75
230 412 228 62 30 30
300 535 151 201 11 40
280 964 243 81 77 79
261 108 220 109 99 91
392 703 289 130 10 39
300 520 142 188 8 41
260 924 248 59 56 57
396 709 288 63 20 31
411 614 264 167 114 85
230 413 238 54 28 29
334 364 281 114 78 59
227 424 242 54 29 32
286 400 230 95 82 68
315 334 315 142 103 74
331 50 203 105 75 54
304 249 255 92 72 49
406 669 223 96 67 48
466 499 179 103 23 40
300 979 253 66 63 64
236 411 228 65 35 32
472 499 175 74 25 32
280 405 229 100 86 71
310 334 250 76 62 46
255 504 187 110 17 26
295 794 213 65 52 47
346 196 205 117 94 67
285 464 319 93 27 39
276 449 190 61 32 30
229 464 273 121 11 38
373 516 279 73 48 40
378 533 155 124 10 36
269 384 247 94 83 71
365 864 253 38 34 33
348 424 295 78 12 28
319 508 139 146 19 39
240 412 228 71 47 41
290 154 277 113 90 64
297 786 218 66 53 47
245 509 304 46 30 31
289 184 245 123 96 61
317 828 199 57 51 50
240 649 318 135 101 75
255 411 240 99 85 73
250 509 188 112 15 29
292 719 215 127 10 34
217 464 227 148 0 39
360 909 314 44 39 35
311 884 308 153 120 92
325 889 187 87 75 73
380 704 298 134 5 42
285 10 273 103 64 49
341 59 254 128 102 76
382 917 310 33 29 27
374 234 214 116 93 66
222 509 266 102 23 39
365 825 269 66 52 50
330 709 164 61 45 39
379 384 218 106 88 68
311 730 199 54 40 36
427 427 171 75 30 38
310 613 194 140 23 41
240 412 233 69 51 42
339 405 283 62 47 33
317 30 245 53 49 41
273 334 278 106 86 63
395 899 238 79 64 54
303 15 306 136 95 74
267 880 260 131 104 75
316 369 252 72 59 50
271 421 322 96 24 34
323 805 182 61 52 48
430 529 157 130 19 38
327 89 215 85 55 43
305 981 258 72 69 70
332 387 266 83 57 42
261 595 318 133 107 81
235 412 238 58 37 32
227 736 304 162 114 86
232 450 267 122 1 37
275 499 143 97 13 35
355 429 128 153 45 36
373 384 261 132 99 67
277 90 227 136 25 41
230 415 243 61 30 33
244 749 273 144 108 75
332 319 210 99 84 68
281 565 317 125 100 77
253 492 191 51 38 35
317 861 190 48 45 46
231 415 247 48 30 33
385 699 218 51 38 40
355 114 238 117 95 70
257 112 232 141 22 47
425 423 203 84 30 35
295 774 315 70 58 53
292 157 275 113 91 65
263 862 282 144 115 90
330 79 253 112 54 51
247 919 270 139 113 92
295 234 300 120 97 71
250 749 328 176 123 98
236 419 252 37 30 31
329 824 172 70 57 49
354 59 233 121 22 42
377 359 228 109 89 67
335 529 148 64 32 34
271 48 281 122 99 79
255 694 329 170 118 92
325 589 302 165 6 51
287 471 180 60 34 29
235 413 243 65 35 33
318 44 237 79 39 31
340 404 272 61 48 35
402 884 255 58 48 42
307 451 170 71 36 29
276 194 245 126 98 64
266 374 258 105 87 68
350 454 281 146 17 47
311 834 218 60 54 52
266 169 277 116 94 72
349 15 273 105 67 58
317 52 257 107 14 39
384 897 240 69 57 45
240 412 243 62 47 42
225 509 213 155 6 40
305 587 180 194 8 40
263 154 269 115 93 69
335 169 213 118 93 63
322 59 223 108 36 39
415 479 150 94 24 30
383 865 251 43 36 34
256 579 302 65 27 32
297 49 263 117 40 49
240 413 248 53 38 36
222 455 242 67 25 29
380 469 143 61 35 39
258 41 275 136 27 54
237 415 252 37 27 30
390 420 183 111 93 75
235 764 283 110 85 54
373 274 241 131 98 66
235 459 283 73 27 35
225 454 248 116 12 36
350 889 178 81 66 61
355 109 223 107 86 63
359 877 160 104 85 78
342 55 255 126 90 73
249 894 273 174 125 105
240 414 253 47 32 33
356 611 296 37 28 29
437 654 228 148 104 75
355 689 158 72 53 43
221 454 238 124 9 36
383 426 140 180 52 37
394 695 273 136 3 41
217 473 221 144 0 37
245 412 228 82 64 54
324 972 250 74 69 74
245 412 233 82 67 56
348 108 200 125 28 42
312 713 183 55 43 36
264 394 248 96 83 71
250 417 207 85 64 51
268 378 295 125 99 69
299 344 257 86 74 63
384 420 262 110 87 64
300 449 102 77 24 34
355 837 171 67 56 51
222 504 263 72 26 34
262 500 185 66 33 33
338 184 211 124 97 64
324 379 212 93 81 68
227 459 205 45 33 36
414 509 252 101 23 40
270 544 308 60 27 32
245 411 238 81 66 55
382 940 289 89 75 64
285 384 237 94 82 70
420 524 154 148 8 36
250 413 228 94 79 66
311 384 247 77 63 47
240 449 203 122 12 29
308 447 130 65 45 32
258 106 253 126 85 71
244 412 248 66 53 49
245 479 199 58 35 36
460 509 153 126 23 39
263 858 287 134 105 82
345 154 209 123 95 61
255 413 228 100 86 72
420 834 243 190 127 101
251 409 273 97 81 63
316 259 278 115 91 64
256 404 283 123 98 71
320 34 268 119 39 52
258 688 267 89 25 37
220 499 248 66 24 35
410 866 241 87 72 62
330 438 128 150 52 44
255 504 310 141 15 46
250 411 240 96 81 69
238 576 226 117 29 41
280 454 103 204 12 49
327 816 175 75 60 52
238 669 320 157 106 85
321 329 228 105 85 65
270 799 234 76 59 50
244 435 201 129 11 31
390 499 153 140 7 34
255 412 238 100 86 72
353 34 252 124 58 58
229 439 244 134 6 40
360 649 293 47 28 33
231 449 258 127 2 38
280 884 319 151 118 89
271 394 239 100 86 71
276 183 245 131 101 64
279 50 239 85 40 32
342 234 251 95 76 54
370 843 252 60 49 43
246 411 249 69 55 52
218 459 229 148 0 38
395 849 208 66 53 47
269 924 233 62 57 59
305 549 159 79 30 40
255 449 199 88 28 32
340 484 299 130 93 79
364 274 252 129 94 63
245 504 304 44 27 29
244 412 253 62 47 44
233 554 213 74 29 37
325 654 306 164 9 51
216 454 223 141 1 39
410 594 203 188 16 49
330 334 263 79 63 52
329 174 223 103 83 60
370 559 292 182 129 101
231 704 303 155 112 82
254 709 263 85 25 37
238 768 277 140 105 71
301 638 210 158 12 40
298 784 218 67 54 48
244 423 201 117 17 26
227 444 242 130 1 38
284 639 313 142 86 67
274 214 246 128 99 65
330 40 225 107 85 71
291 441 104 145 24 35
246 411 253 68 54 51
355 866 261 41 37 34
385 703 188 81 48 40
338 179 245 94 76 56
480 441 174 69 24 40
259 845 278 67 56 55
299 179 268 112 90 64
245 420 203 92 33 33
255 408 247 107 92 80
292 485 156 83 21 30
327 334 261 78 64 54
329 79 193 139 10 40
406 724 263 106 18 39
252 406 254 90 76 64
360 534 152 67 31 36
247 435 292 63 24 29
247 625 308 137 109 81
322 966 304 77 64 60
319 279 298 112 89 63
304 16 276 120 50 44
250 410 248 83 70 62
273 667 322 162 109 84
425 629 228 110 88 64
241 794 263 174 120 87
379 427 142 172 59 36
237 445 277 111 13 37
245 704 292 124 91 64
406 829 197 75 59 54
408 754 189 88 63 49
249 412 243 91 76 65
322 466 116 163 0 47
230 417 206 89 32 43
230 429 203 130 12 30
406 841 245 166 105 79
310 294 258 90 73 54
340 33 232 117 101 83
326 74 194 135 10 41
325 459 113 60 38 41
428 630 243 140 103 66
236 509 293 92 20 37
241 449 288 74 27 33
265 619 223 172 14 47
388 876 236 74 62 54
235 417 206 78 32 43
335 849 174 66 56 53
385 434 139 146 7 33
450 421 213 113 40 48
272 195 286 116 95 72
235 424 202 133 8 31
397 469 265 135 18 44
350 887 175 86 70 61
438 544 202 181 17 57
297 476 154 84 17 34
285 474 118 107 22 38
240 417 206 88 34 38
269 833 317 192 137 111
257 931 250 58 54 53
306 917 193 78 68 65
240 469 203 105 26 34
374 324 223 110 89 65
237 430 256 132 5 40
341 389 195 89 78 68
261 249 283 128 98 70
325 674 309 153 9 47
434 669 209 145 103 73
329 349 212 97 83 68
281 48 242 82 41 27
394 744 178 63 50 44
240 420 203 106 22 31
253 407 273 117 95 73
263 184 251 128 99 63
335 349 207 96 83 69
355 339 267 130 92 67
261 31 255 99 86 74
430 951 272 144 113 107
312 865 218 49 46 48
235 429 202 139 3 30
307 340 250 76 64 51
335 49 213 108 77 62
360 239 254 126 100 69
263 424 309 60 24 29
330 784 168 61 49 45
252 411 287 94 47 33
383 916 256 49 35 34
239 459 288 95 18 33
230 439 204 136 0 32
255 459 309 65 24 31
226 444 205 140 2 34
322 303 261 100 81 58
339 379 272 84 57 40
311 874 198 42 39 42
340 615 191 107 29 40
250 489 193 55 35 33
280 155 281 113 93 71
315 704 324 134 8 42
230 444 204 137 3 32
421 550 166 130 13 34
380 600 186 125 21 39
280 194 291 114 93 72
235 434 202 135 3 31
300 335 256 84 73 61
317 316 250 77 60 42
420 423 208 77 34 34
313 34 258 108 42 42
251 410 278 100 76 57
265 849 293 63 48 46
239 579 228 67 30 38
426 790 197 126 85 59
280 234 298 117 95 70
295 250 251 94 76 55
427 799 250 179 129 97
321 69 228 114 69 59
368 689 174 67 53 39
298 44 265 97 58 46
235 439 204 133 4 32
285 334 262 94 80 65
290 233 300 117 95 70
330 209 213 115 93 67
246 774 254 58 50 47
346 461 126 176 5 39
355 209 253 122 98 71
279 84 228 133 24 42
237 583 234 55 30 36
246 434 288 66 24 31
240 434 202 133 6 32
428 823 228 124 80 61
245 429 283 59 29 32
282 355 306 119 95 68
297 441 320 146 36 61
294 664 217 134 5 31
273 498 181 51 34 29
281 59 233 79 37 25
255 417 211 95 77 63
287 488 129 57 32 36
240 464 203 90 28 31
295 179 253 116 90 57
222 514 266 112 16 37
285 284 303 124 96 70
262 134 253 117 96 73
386 554 268 65 28 32
392 769 166 69 55 47
245 433 200 132 8 31
460 987 180 92 81 73
380 689 289 84 21 33
318 689 201 65 47 38
248 417 280 99 21 38
330 535 151 34 32 40
235 454 278 92 19 34
409 928 266 96 77 64
291 79 248 110 78 56
276 11 307 115 46 46
280 364 308 120 96 69
353 948 258 78 73 74
420 684 204 125 95 63
275 179 244 133 102 65
305 11 275 118 55 46
314 452 143 59 48 43
321 74 228 113 67 56
296 17 311 155 109 89
269 780 321 159 115 84
288 222 245 111 87 60
405 874 198 101 81 63
245 439 201 116 20 30
280 714 223 115 18 34
320 14 258 112 63 53
462 454 205 160 16 53
224 454 206 113 23 36
326 299 248 81 65 47
251 889 293 149 107 89
295 28 292 136 40 55
261 46 239 113 92 74
223 489 265 115 29 45
248 944 278 151 118 101
245 444 202 109 23 31
326 945 324 66 57 55
278 56 230 73 40 20
424 474 252 67 25 33
250 674 328 150 107 80
344 783 166 86 63 43
354 104 213 119 33 44
393 940 272 81 63 50
272 847 255 52 49 52
394 729 174 67 52 44
285 679 222 122 10 33
326 399 294 116 84 64
461 989 215 100 85 70
300 24 293 148 30 58
423 931 207 86 71 62
309 11 278 135 78 70
429 559 213 89 23 37
236 499 292 146 10 46
344 924 224 69 63 65
250 434 200 132 8 31
230 469 205 79 30 37
318 719 167 72 56 41
240 494 298 147 13 45
255 434 198 133 10 31
300 739 326 82 28 38
311 450 106 162 11 34
339 368 270 85 56 39
315 719 205 79 39 38
362 164 218 115 95 73
340 254 203 130 101 65
295 574 324 168 120 92
274 219 246 129 99 64
250 439 200 110 20 30
330 389 263 81 57 45
295 418 218 88 75 62
350 883 164 93 76 69
285 489 133 62 31 34
298 241 301 120 96 68
340 129 209 129 95 56
361 693 194 70 50 41
335 439 138 111 60 47
255 444 199 90 27 30
280 975 278 78 72 71
357 431 142 122 72 56
258 645 268 117 20 42
258 398 284 123 97 69
326 380 208 97 83 70
292 266 306 126 98 71
391 625 260 113 18 37
278 108 230 129 28 35
425 709 244 156 106 75
340 50 208 109 75 59
249 444 201 100 26 32
341 489 300 114 80 63
299 473 158 84 11 30
435 699 238 170 117 85
436 544 208 170 14 54
278 98 229 116 40 37
251 444 200 96 27 34
441 957 211 92 75 61
353 61 204 108 40 42
365 344 258 126 93 61
325 919 213 73 69 70
287 32 261 81 58 47
360 412 275 82 63 46
225 424 238 76 28 35
335 139 213 117 92 62
363 164 238 119 96 71
230 444 248 130 1 38
332 143 220 111 88 61
427 716 200 123 88 56
239 434 263 115 3 33
320 610 191 45 37 41
369 893 238 54 47 44
351 54 239 116 69 63
397 427 264 65 55 44
413 931 218 94 82 74
231 419 247 46 31 32
225 434 238 51 30 32
285 64 278 133 18 48
228 457 259 107 10 31
320 874 297 144 113 85
340 368 201 92 81 70
387 856 202 75 62 56
256 399 278 120 96 69
322 401 300 133 93 71
290 844 239 155 106 81
319 767 311 91 71 60
226 455 253 122 6 36
288 457 321 85 19 32
328 913 310 132 93 80
351 30 259 127 47 52
296 527 145 165 1 38
285 244 302 120 96 70
362 334 260 129 92 62
229 429 243 72 28 35
387 871 214 76 66 57
275 509 153 42 30 32
236 424 253 92 18 36
273 88 220 142 14 39
262 254 273 141 102 72
287 79 242 129 27 37
315 659 309 160 5 51
238 419 255 33 30 31
258 52 227 83 65 49
246 759 258 107 53 47
222 509 263 73 25 32
439 811 208 115 79 64
403 641 255 130 64 57
232 440 251 131 1 39
381 636 216 127 32 44
242 534 297 75 29 37
236 429 253 131 7 41
269 254 257 139 99 67
273 522 155 188 5 38
221 484 243 59 29 34
229 434 243 100 19 38
355 384 194 90 79 69
419 940 257 90 74 64
279 79 223 139 21 41
226 450 247 124 5 36
282 500 175 52 31 27
425 459 153 53 39 38
277 555 306 112 1 33
392 654 244 104 26 43
337 66 255 118 19 44
256 510 185 91 23 27
367 363 206 94 84 74
335 400 273 65 52 42
403 723 276 80 32 42
330 259 213 126 99 68
229 448 249 126 2 37
315 378 238 67 56 46
232 444 253 127 1 37
253 709 287 66 28 33
355 269 203 131 99 61
233 434 250 133 3 39
353 244 256 114 90 63
244 609 243 176 10 49
374 369 213 97 83 68
252 618 291 67 23 32
322 73 204 128 6 41
294 174 282 111 89 64
301 229 251 95 75 50
305 639 209 139 17 39
352 22 246 101 49 45
235 729 323 159 111 85
372 528 290 151 112 81
228 769 291 159 114 82
225 504 208 153 6 37
364 179 213 111 92 71
248 428 289 97 14 34
349 680 168 72 55 48
374 229 218 118 95 70
383 639 272 74 26 37
250 494 192 51 34 36
399 729 183 79 59 43
372 334 245 131 101 67
420 855 207 145 120 114
255 489 191 65 33 30
256 490 190 55 33 30
319 443 167 74 64 55
260 109 248 124 85 67
255 494 190 54 35 34
368 487 276 62 18 24
270 24 258 105 91 77
352 124 216 108 89 69
285 74 238 115 47 45
359 154 242 119 96 69
244 504 192 119 13 32
221 494 213 152 4 39
275 149 241 131 99 62
245 804 329 178 128 99
315 614 194 55 34 37
252 881 275 123 99 74
357 926 314 68 57 53
226 464 263 104 15 35
405 844 209 85 65 54
358 129 233 113 93 71
247 501 190 108 18 32
255 674 330 160 116 89
245 414 263 118 21 37
328 396 291 117 83 65
424 629 252 155 110 74
246 505 190 116 14 28
333 344 298 132 90 69
250 504 189 113 17 29
451 454 219 163 8 50
290 489 153 73 17 31
284 99 239 107 59 39
330 284 218 113 92 69
270 239 252 129 96 59
247 924 293 168 135 114
346 684 143 102 69 42
290 169 282 112 91 67
225 479 273 136 1 39
330 839 173 70 58 54
370 544 294 169 120 89
246 484 302 138 12 42
297 778 220 73 57 50
255 499 188 85 26 30
258 204 268 121 97 70
316 966 310 82 71 64
353 806 166 67 53 47
390 414 228 94 79 63
285 579 327 155 117 90
331 219 209 123 97 65
295 209 247 112 87 56
310 459 109 169 6 33
400 724 188 82 58 39
298 477 148 83 14 30
300 10 283 152 97 95
345 624 302 63 25 30
221 459 209 70 30 36
420 644 257 181 122 92
290 344 308 120 95 66
375 449 134 74 34 38
317 410 209 82 72 64
225 459 206 45 33 36
268 814 326 168 123 94
318 822 291 189 124 100
215 454 218 143 3 41
265 789 238 74 59 50
218 454 211 136 10 37
258 61 265 111 39 44
370 820 167 74 60 52
295 164 273 110 87 61
334 818 167 79 63 55
328 194 216 112 91 67
372 417 186 100 85 69
283 567 320 136 108 84
218 464 212 82 25 33
333 354 283 118 80 60
379 789 155 77 59 44
400 609 208 59 28 34
411 489 260 169 13 52
289 94 244 107 56 41
217 464 214 92 23 33
428 731 200 127 91 61
310 434 182 78 69 60
300 440 100 176 22 45
266 480 190 58 35 29
344 284 206 117 92 63
286 59 243 94 45 32
266 264 268 144 100 70
216 459 223 128 11 37
238 437 269 119 6 35
396 724 293 104 18 40
313 759 182 67 53 44
263 82 210 142 25 45
285 977 288 66 61 60
294 180 249 123 94 57
290 359 313 122 96 67
216 464 218 113 16 32
233 708 320 161 113 88
265 129 268 113 93 73
483 462 181 76 30 40
244 749 268 151 108 76
336 149 213 117 92 61
221 469 209 114 20 36
373 225 214 116 94 68
278 61 225 97 33 16
278 30 255 64 39 22
305 615 196 125 16 38
390 549 262 146 17 48
217 469 214 130 7 37
327 254 218 119 94 66
221 514 258 92 19 35
354 905 316 51 44 40
437 734 235 172 115 85
221 474 209 105 19 32
255 822 326 196 144 119
386 928 278 69 55 48
280 34 289 138 32 55
287 826 305 62 52 50
285 24 261 92 32 30
310 709 203 102 39 41
375 384 208 100 85 70
380 584 179 186 9 40
259 179 258 123 97 68
219 474 213 133 9 38
382 542 273 132 49 49
265 219 253 128 99 62
270 769 319 163 113 84
373 229 233 117 94 66
219 479 213 107 16 35
415 444 151 67 35 34
485 447 163 119 11 32
299 214 249 102 81 54
461 1007 256 89 80 73
261 429 307 115 18 40
320 620 196 53 35 38
314 254 278 118 93 63
353 24 253 104 50 45
360 149 223 116 95 72
221 479 209 68 26 32
315 980 263 59 55 55
334 918 214 70 64 65
300 966 241 89 87 91
352 73 233 109 92 73
272 454 113 95 16 32
345 19 248 106 76 65
340 348 206 95 83 71
243 444 289 95 27 38
247 842 307 200 130 104
395 889 259 54 46 40
225 479 207 64 31 34
217 474 218 145 2 38
326 450 111 78 34 38
340 74 253 113 35 46
316 458 153 69 29 27
218 476 217 144 3 39
425 719 199 116 84 53
256 880 269 130 105 80
290 824 234 82 63 54
326 15 289 158 86 95
356 234 201 123 95 60
478 493 172 98 27 43
222 494 262 75 22 31
306 754 198 63 44 42
291 509 309 144 18 46
227 527 215 67 36 37
382 379 233 103 86 67
218 474 223 147 1 39
274 961 243 75 72 74
340 274 207 128 99 65
360 229 202 124 96 61
268 46 280 134 106 84
316 794 183 53 45 42
422 576 196 199 16 52
350 184 206 125 97 62
293 415 224 90 76 63
217 477 218 147 3 41
423 568 217 115 24 42
227 461 266 125 0 35
395 939 293 77 61 51
328 752 311 92 71 60
405 584 188 195 18 47
366 248 206 129 99 62
334 239 207 128 100 65
322 971 246 88 84 86
252 430 296 85 20 33
329 504 305 143 96 84
241 479 297 143 11 43
223 506 216 159 6 39
218 479 218 142 4 39
322 826 285 175 114 95
413 711 206 110 84 52
217 454 227 142 0 38
335 189 244 87 71 53
437 664 233 152 106 72
340 23 242 106 90 74
339 55 190 102 41 17
299 11 303 131 74 72
435 429 252 146 16 46
364 164 228 115 95 72
430 944 227 109 85 69
345 289 207 111 88 62
219 454 233 141 1 38
373 278 215 125 95 61
274 99 224 130 20 33
222 450 237 134 2 37
355 79 213 117 29 41
432 480 239 74 28 37
217 459 227 147 0 39
265 59 273 111 28 42
231 469 282 74 21 32
434 459 243 86 28 38
287 621 320 172 113 90
367 412 191 99 84 69
219 459 233 149 0 39
249 840 288 208 139 109
402 784 260 178 123 92
370 885 188 79 73 73
349 16 254 107 51 49
364 304 209 105 87 69
430 416 247 57 27 28
348 74 190 136 30 38
295 744 324 75 26 36
362 394 196 94 81 68
242 416 261 120 19 37
270 699 233 84 33 38
219 464 233 151 0 40
361 531 151 115 27 37
373 284 241 126 97 62
330 14 268 140 96 94
317 596 305 163 16 49
279 334 267 102 84 65
420 444 256 63 28 32
354 59 223 114 24 40
285 504 143 59 31 37
353 80 237 106 19 41
220 464 238 148 4 41
318 23 246 123 24 43
440 484 156 94 24 32
302 12 289 175 121 124
324 28 237 80 46 39
265 104 219 130 52 50
327 298 274 111 88 63
275 10 278 82 62 55
264 144 268 113 92 70
223 458 244 37 28 30
327 354 261 66 50 35
315 579 173 160 13 44
345 514 302 146 101 82
378 462 281 58 29 31
355 878 270 37 34 33
223 459 248 77 22 33
310 419 309 142 101 78
270 129 273 110 91 73
255 634 283 123 33 48
241 474 297 122 17 42
221 464 243 76 24 34
390 429 142 121 28 36
274 393 237 96 83 70
245 583 301 92 22 37
283 46 245 66 45 29
395 724 178 68 55 48
345 15 258 104 56 51
263 158 270 116 94 70
327 194 232 102 83 61
225 459 253 112 14 35
223 463 249 38 29 32
273 240 251 131 98 59
371 219 213 116 94 69
365 629 294 116 23 44
360 319 209 100 83 65
280 199 292 114 94 72
224 464 253 64 27 32
220 509 238 118 11 38
415 515 151 53 37 38
340 144 210 128 99 63
407 735 249 89 26 33
355 224 255 120 95 69
435 484 233 89 29 38
219 469 228 146 1 40
232 536 205 122 28 42
272 581 321 132 107 81
262 109 262 122 99 74
357 435 285 146 26 55
403 438 262 150 19 49
432 470 245 43 27 31
280 10 298 115 52 54
411 744 193 78 57 44
393 644 247 148 16 50
277 446 190 73 33 25
345 504 302 159 115 92
272 852 263 51 42 53
465 448 162 53 38 42
275 39 248 91 68 51
439 709 213 148 105 73
448 542 183 131 23 46
220 469 233 146 2 38
271 484 133 102 7 33
293 185 286 112 91 68
313 31 260 108 27 32
236 824 313 192 134 106
385 941 300 75 65 57
407 871 238 101 88 86
266 439 195 112 18 27
425 479 152 97 26 32
376 785 280 89 69 59
334 154 218 110 87 60
221 469 238 146 4 40
224 524 223 54 30 34
414 514 252 153 16 48
283 112 245 123 84 55
220 474 233 83 18 34
281 104 236 121 37 36
305 963 312 74 69 68
495 454 168 146 22 51
220 479 233 121 12 38
394 694 268 138 7 42
311 501 131 159 32 56
368 370 205 92 82 73
351 59 239 112 28 46
303 806 211 65 56 51
421 574 213 167 26 54
368 350 210 94 83 73
445 479 218 171 18 55
245 584 203 182 13 47
297 536 316 143 117 98
403 716 200 82 51 43
221 474 238 100 21 37
340 749 154 68 53 41
221 479 238 75 24 33
368 189 223 120 98 73
370 689 203 65 40 37
334 268 250 89 72 52
222 469 243 102 21 36
390 509 268 76 22 30
321 39 233 82 39 28
394 809 261 124 91 73
222 469 248 80 25 33
422 502 151 68 27 33
356 249 201 130 98 57
273 806 236 81 63 52
322 41 230 83 40 29
410 459 150 79 34 36
262 174 272 115 93 69
222 468 251 84 28 35
420 504 150 61 32 35
252 554 311 139 23 51
243 519 191 130 6 32
248 759 253 127 12 38
236 684 300 137 103 69
416 730 200 104 79 53
270 10 288 77 43 39
320 34 238 79 38 31
312 429 309 127 94 73
418 577 221 184 17 52
223 469 253 66 27 33
300 34 273 114 53 54
260 859 293 166 123 100
279 319 298 133 101 75
222 474 248 82 26 35
242 425 262 84 20 33
249 934 298 187 143 124
221 479 248 59 29 33
381 418 264 116 89 65
365 764 293 81 65 59
275 44 243 90 66 46
373 355 215 95 82 69
402 539 255 55 28 35
223 474 253 82 26 34
397 434 146 54 36 36
300 919 316 142 108 85
381 474 147 62 38 33
415 504 150 102 18 31
295 654 308 144 15 46
222 479 253 54 30 32
223 477 254 59 28 34
326 379 298 143 100 77
283 141 245 115 87 52
371 902 297 38 37 37
297 475 163 83 18 31
319 384 249 74 60 45
281 133 275 113 91 68
433 952 286 108 87 70
384 930 288 70 59 49
417 768 250 161 115 81
317 379 233 67 58 50
276 649 229 109 21 36
224 484 207 97 27 35
383 696 213 50 38 40
224 489 207 80 25 34
330 484 302 143 103 91
289 124 268 116 91 63
402 754 181 78 58 43
230 569 268 163 0 42
250 619 288 52 28 34
305 429 188 78 68 59
305 309 257 92 77 61
222 488 210 118 13 34
281 490 142 95 9 31
267 784 235 70 57 50
283 497 150 80 18 30
252 419 292 98 20 37
276 500 310 72 34 39
218 484 223 130 9 37
243 424 268 71 26 34
351 33 236 105 42 38
266 159 277 115 94 72
227 494 205 140 12 40
419 943 296 87 71 58
400 894 238 85 70 63
315 779 183 59 48 42
326 55 208 92 61 50
219 489 218 149 4 38
255 399 263 110 89 65
392 936 300 81 68 60
321 304 233 108 88 66
320 24 243 97 33 26
275 889 253 114 91 66
271 674 303 59 44 40
224 494 208 145 10 40
336 295 261 75 62 48
364 179 242 119 95 69
358 318 266 128 86 62
428 543 221 169 5 52
281 54 237 77 43 27
233 810 314 188 131 103
269 503 181 40 34 32
313 743 182 52 43 37
235 729 293 133 101 66
220 494 218 152 5 39
284 230 245 111 88 61
219 494 223 150 4 39
376 874 265 52 45 42
420 854 218 84 69 59
299 449 317 63 27 32
353 25 244 83 49 40
225 499 208 158 5 40
334 437 129 155 50 44
314 34 263 105 26 39
251 410 283 94 61 45
222 498 210 162 4 44
350 424 308 108 7 33
222 499 213 164 4 42
326 678 310 143 13 45
223 500 212 161 3 41
403 634 226 101 68 48
373 294 242 130 100 66
269 12 272 81 69 63
249 469 304 82 20 34
245 574 304 48 28 30
365 524 149 86 29 36
285 694 314 129 19 45
223 504 213 157 5 39
429 669 205 140 103 71
222 503 214 162 5 39
272 754 230 107 28 40
227 499 205 150 7 39
390 469 273 56 29 33
290 734 323 171 17 54
288 654 221 141 0 35
242 444 287 112 21 41
270 409 309 125 97 72
251 948 293 173 124 106
459 441 169 126 8 16
340 364 270 87 57 40
359 939 278 40 35 31
319 723 202 47 33 35
321 89 233 100 46 38
475 453 153 146 10 16
347 51 250 128 13 48
325 433 173 85 73 60
322 72 208 127 16 43
233 560 222 120 22 41
453 508 196 170 10 53
377 692 211 65 40 40
220 499 218 160 5 41
242 419 261 102 18 36
332 99 209 120 19 38
221 504 218 164 6 41
356 924 233 69 62 61
235 489 199 79 32 32
295 474 113 72 35 39
400 870 252 61 52 44
325 12 278 155 97 102
295 440 108 110 35 36
221 504 223 162 5 41
269 378 252 99 84 70
246 475 200 60 33 35
354 59 228 120 22 40
386 414 254 126 98 68
378 867 184 70 59 55
373 442 130 93 31 40
232 460 277 68 23 32
284 506 146 115 18 35
249 949 283 119 88 77
285 894 324 170 130 104
222 509 223 160 6 42
223 511 221 156 5 42
219 484 228 84 21 33
432 823 217 106 78 62
360 399 193 97 83 68
319 549 293 72 49 46
224 489 273 89 21 34
255 569 304 56 22 29
330 509 304 146 90 79
369 324 248 131 95 64
220 489 233 80 27 37
274 299 278 137 99 75
232 813 298 177 123 93
366 480 136 43 34 41
329 11 288 153 64 80
333 85 192 145 12 42
242 555 195 62 26 32
355 595 181 129 25 42
263 144 246 123 96 65
233 499 289 85 16 32
272 769 230 81 47 45
410 427 223 68 39 35
220 484 238 99 24 39
395 924 258 63 47 38
231 774 284 132 98 64
220 489 238 64 27 33
276 871 260 110 88 62
298 39 265 126 23 42
255 499 310 158 17 50
248 412 263 82 59 45
323 524 306 160 110 85
375 244 233 119 94 64
352 119 216 101 83 63
283 976 277 77 71 71
263 669 252 152 7 42
315 13 268 128 69 65
293 99 249 126 27 40
327 186 223 107 86 62
450 514 155 42 33 38
220 494 238 104 22 37
366 179 223 121 99 75
340 477 130 172 5 37
374 279 218 124 94 60
270 124 236 143 103 69
417 932 247 87 71 59
221 489 243 64 29 33
276 634 224 144 15 41
260 929 313 183 146 126
370 479 278 163 13 52
346 688 305 101 30 42
261 44 277 128 35 51
330 414 298 71 45 38
320 309 258 85 67 46
293 94 249 106 56 44
221 489 248 35 32 34
286 159 248 119 91 56
350 438 311 81 23 35
279 449 101 146 7 32
221 484 253 59 32 34
305 625 201 54 30 35
268 254 290 123 97 70
221 489 253 38 32 32
397 740 279 159 36 61
345 394 191 90 79 68
242 429 273 89 24 36
283 550 171 166 13 46
401 715 203 79 49 38
410 553 164 43 35 43
324 422 186 94 80 66
350 199 205 116 94 68
240 714 292 132 99 68
327 204 233 101 81 60
287 29 261 69 47 36
330 444 304 45 24 24
390 944 283 92 75 64
461 437 177 125 2 16
221 494 253 37 31 33
373 309 241 130 101 67
320 624 198 56 33 37
220 499 228 151 4 39
260 34 217 114 48 34
436 784 208 111 77 56
220 499 233 142 5 38
453 529 186 174 9 56
330 33 231 105 86 72
359 449 125 152 5 33
261 179 253 125 98 65
300 309 257 92 77 62
331 269 248 92 76 58
249 414 278 114 12 36
220 504 233 137 7 38
425 699 203 135 102 67
255 464 309 109 17 38
220 499 238 69 25 33
358 264 256 122 93 60
345 369 270 101 67 48
326 469 299 111 33 45
238 448 280 71 20 29
389 838 195 77 62 57
294 559 167 47 36 40
335 154 242 98 79 59
319 296 311 113 90 63
275 963 248 81 78 79
232 489 287 112 18 40
335 374 278 92 64 45
363 190 246 120 97 72
341 681 155 86 60 41
221 509 233 148 3 39
252 406 257 89 75 62
401 795 260 179 130 98
240 499 194 117 19 34
242 559 297 77 24 35
265 824 322 179 132 103
384 757 291 88 56 59
372 280 216 122 92 59
283 478 181 46 30 26
220 499 243 89 23 35
430 519 154 154 7 32
328 274 244 93 76 57
258 214 263 127 99 66
220 504 243 95 19 35
311 15 287 154 100 90
326 79 198 138 6 42
278 74 219 126 18 28
341 459 290 141 40 56
327 254 237 96 77 54
390 933 283 81 63 50
405 564 248 67 29 36
221 504 253 44 30 32
330 259 243 95 77 58
240 514 194 136 8 34
315 24 248 110 17 29
406 599 238 75 53 38
221 509 248 37 31 34
270 619 218 72 26 38
268 55 220 114 96 76
306 19 283 113 52 52
345 504 139 169 0 33
340 539 152 44 33 39
368 189 233 115 94 71
288 491 132 48 33 36
365 499 274 43 28 31
385 409 212 113 94 73
325 924 317 40 36 36
437 978 229 102 84 66
235 459 204 68 30 36
383 458 145 115 24 39
321 960 310 65 58 54
350 44 248 120 38 49
295 444 182 65 39 30
221 509 253 44 27 32
254 966 273 84 78 79
335 379 278 88 63 45
290 774 315 62 53 50
335 18 248 102 82 68
231 714 318 163 113 88
325 585 176 203 10 42
264 164 274 115 93 70
334 279 212 115 91 64
307 884 195 59 55 56
305 404 314 152 109 80
340 49 213 113 79 65
295 387 236 92 79 66
230 464 204 83 29 36
430 774 243 166 118 84
360 359 203 92 82 73
253 452 305 107 33 49
248 595 212 201 12 51
334 743 311 39 28 32
261 389 283 122 96 68
346 431 126 146 51 43
222 489 263 67 27 34
278 319 295 132 100 74
395 922 254 69 51 45
430 459 248 110 22 40
270 169 244 132 101 63
365 169 228 115 94 70
280 204 245 126 98 64
240 454 203 123 15 29
316 491 126 176 11 40
284 108 239 133 82 66
227 557 242 82 29 43
360 429 153 100 78 62
354 948 273 56 50 49
255 419 298 87 22 34
385 479 272 169 15 53
264 659 248 163 8 44
372 338 245 128 99 65
237 547 200 152 6 42
265 754 322 172 119 92
305 694 322 50 29 30
284 94 239 115 63 49
433 753 195 123 89 61
305 414 233 81 68 55
367 193 239 120 97 71
288 918 212 63 58 58
240 459 203 96 26 33
338 124 211 125 90 53
261 880 264 130 105 78
385 700 198 94 33 34
227 479 205 69 35 37
230 489 202 77 32 36
350 359 269 117 80 57
384 910 306 38 35 33
387 399 233 100 83 65
300 909 198 82 74 71
345 84 248 114 95 74
228 474 206 78 34 37
468 513 163 172 18 45
295 418 223 88 75 62
230 479 204 51 36 37
416 705 246 126 85 59
373 289 219 120 93 61
317 384 228 70 61 52
228 477 206 58 36 36
291 198 290 114 94 72
382 398 255 131 102 68
235 469 204 95 28 37
235 479 202 45 36 37
275 229 294 117 95 72
346 184 251 115 92 68
270 134 274 110 91 72
240 474 202 59 35 35
311 421 214 77 67 57
313 249 273 117 93 64
336 379 199 92 80 69
380 389 253 126 98 66
239 479 201 52 36 37
245 454 203 117 21 35
284 545 167 174 11 42
315 973 293 81 77 78
243 762 266 141 105 71
331 174 241 92 76 59
372 485 141 112 32 40
395 499 267 48 27 28
354 902 208 75 72 73
380 888 238 71 60 53
332 334 283 106 76 52
350 194 206 121 96 65
406 679 218 86 60 38
252 444 302 51 27 30
253 800 251 76 61 56
348 844 171 69 59 52
255 454 200 90 27 34
355 606 186 149 28 44
249 454 201 103 23 32
253 412 290 127 9 35
333 104 207 124 12 39
371 394 265 135 99 68
237 813 279 179 123 92
252 454 200 103 22 32
259 184 258 125 99 69
330 44 222 107 82 68
236 479 292 138 10 42
357 84 223 111 37 43
256 449 307 92 24 37
376 556 166 92 35 41
276 219 245 129 99 64
229 749 318 170 117 92
262 134 248 120 98 73
295 454 102 177 1 36
349 54 243 126 96 82
374 459 134 113 28 40
276 329 293 129 98 71
416 859 229 79 63 59
280 134 276 113 92 69
255 459 199 79 30 33
335 48 198 109 67 42
251 464 200 81 30 33
388 550 282 129 103 75
255 464 199 54 34 34
284 714 319 132 14 41
294 478 139 86 25 30
229 724 303 160 115 85
313 860 296 172 134 106
279 903 238 81 66 53
249 459 201 71 32 33
300 503 130 61 34 39
321 64 228 111 52 47
241 484 297 143 11 44
228 453 254 123 4 36
426 433 157 125 28 21
280 234 247 120 93 60
340 429 168 96 80 63
376 254 223 119 94 64
245 469 201 83 31 34
246 419 273 57 28 35
334 536 285 59 38 36
366 417 182 96 81 64
254 944 253 61 57 59
255 845 288 171 111 85
345 69 189 121 32 27
247 470 200 82 33 31
311 24 253 114 34 28
285 549 168 151 12 39
358 421 311 58 35 36
259 64 264 119 21 44
266 520 153 73 21 31
245 424 278 58 29 32
355 224 201 122 96 63
318 367 227 71 63 54
244 473 201 63 34 33
355 844 169 67 57 54
251 485 195 66 34 31
439 739 218 146 99 67
369 427 133 155 42 32
259 729 243 139 5 36
250 469 200 79 32 34
370 364 208 92 82 73
333 402 196 84 74 64
331 308 309 116 87 61
389 724 169 82 60 43
440 416 243 83 27 32
230 504 203 148 4 36
248 468 201 86 32 34
340 164 209 126 98 62
247 828 269 110 80 67
380 929 293 84 69 56
229 499 203 134 12 37
295 967 240 83 81 85
325 374 303 149 103 83
258 771 241 69 53 48
348 92 195 144 16 41
305 569 319 174 119 97
250 479 198 69 34 32
249 644 324 143 106 77
350 948 283 61 52 49
437 491 225 41 29 31
434 813 192 102 72 57
369 264 247 131 99 66
233 724 297 136 101 69
255 474 197 63 34 32
375 239 233 120 95 65
256 479 195 64 32 32
400 938 303 85 70 59
281 381 240 93 82 71
263 184 275 117 94 69
275 30 254 92 77 62
345 959 263 75 69 71
368 186 228 116 95 72
254 478 196 70 31 32
330 809 288 191 131 109
227 484 205 53 31 33
437 699 211 137 99 70
284 500 141 54 25 34
327 747 160 77 58 47
331 229 209 126 99 67
236 485 200 79 34 34
300 474 148 81 13 33
349 59 243 109 38 45
265 459 317 84 25 36
291 36 285 122 49 53
235 483 201 59 33 34
241 434 278 38 30 31
336 873 168 92 75 71
373 355 252 119 94 64
258 452 310 95 14 28
430 534 159 61 31 36
346 681 186 69 56 50
238 482 201 61 35 36
235 494 198 47 35 36
264 149 247 124 97 64
275 224 293 116 94 71
376 413 202 103 89 74
266 379 293 124 98 68
239 494 196 48 34 36
257 24 217 112 53 38
298 488 311 142 28 53
331 104 247 120 91 72
232 491 200 59 32 37
353 48 241 131 30 47
322 394 209 88 77 66
227 504 205 153 4 40
405 519 151 58 38 37
357 744 170 58 43 37
349 427 166 96 79 61
371 219 238 120 97 71
323 294 239 89 73 56
243 432 280 36 29 33
452 980 193 98 82 70
232 499 200 104 19 34
350 234 255 107 85 61
247 415 273 70 26 31
332 134 233 105 82 57
351 744 171 54 43 38
230 509 203 144 7 35
361 304 259 138 97 70
434 973 267 110 82 62
353 34 238 112 39 38
398 593 276 175 121 92
228 510 206 155 6 38
266 184 249 130 99 61
278 89 228 118 36 41
340 934 226 62 55 58
235 499 198 89 24 35
365 224 248 126 101 71
274 264 257 135 98 66
381 893 269 43 38 36
315 459 158 74 22 30
405 584 238 37 26 31
340 739 155 71 55 46
260 99 218 117 81 71
226 459 258 95 17 34
235 504 198 139 9 35
285 624 212 83 36 42
348 432 156 98 81 62
260 59 268 127 102 85
353 693 150 84 57 38
266 409 233 101 87 73
345 445 309 156 23 53
299 620 201 97 27 38
238 498 196 103 25 33
325 234 223 109 87 62
347 860 265 144 111 88
268 542 311 32 26 26
333 399 196 86 75 64
307 881 198 43 41 44
241 824 278 186 128 96
270 659 298 58 50 47
238 503 196 138 3 29
274 54 228 107 87 67
232 504 200 144 6 34
412 912 240 76 65 57
271 48 232 115 98 82
451 437 172 79 29 36
310 945 221 83 77 81
235 509 198 113 19 34
309 249 259 125 99 69
318 37 241 83 37 28
306 684 210 67 34 34
361 174 244 119 95 68
244 488 196 79 33 32
319 49 233 91 37 35
415 916 219 89 73 61
353 31 239 99 62 48
303 458 172 70 25 28
250 664 327 154 106 80
430 834 222 74 57 44
246 489 195 63 34 32
400 469 150 77 32 33
369 394 266 135 97 69
259 184 268 118 95 71
345 179 207 126 98 63
243 438 284 68 30 35
436 439 249 160 14 53
373 234 238 121 97 68
437 659 213 156 109 84
332 209 241 92 76 58
245 494 193 54 33 34
249 484 196 63 33 33
340 134 247 118 91 67
321 64 208 102 24 37
324 379 303 149 104 81
232 567 230 41 33 37
257 46 245 101 87 76
396 422 213 66 52 43
293 64 250 111 34 33
325 479 124 114 19 37
340 79 187 131 29 40
331 109 243 120 88 68
340 88 190 152 25 49
318 732 326 184 9 61
253 482 196 78 33 29
265 64 213 99 33 22
223 499 268 47 31 32
436 759 213 128 89 60
365 678 207 81 36 34
367 234 206 124 97 63
294 539 313 145 96 85
261 74 266 124 31 49
291 174 252 122 93 54
286 84 242 108 43 37
404 942 295 81 65 51
390 914 307 41 36 32
256 399 258 106 87 67
326 214 228 105 86 64
260 469 313 103 19 38
399 948 269 91 68 58
223 504 268 63 29 32
256 399 273 119 94 66
408 886 245 71 60 52
376 705 179 62 40 33
270 116 231 135 89 66
247 420 281 81 24 30
340 249 203 131 101 63
270 29 254 104 90 75
375 829 262 86 68 61
267 405 235 103 89 75
272 472 120 133 9 39
334 309 298 108 85 59
365 839 173 71 57 50
300 663 310 33 28 31
365 414 188 98 83 67
241 415 258 76 26 33
310 978 288 59 54 52
335 409 189 89 76 63
330 359 263 76 53 36
344 189 250 107 86 63
269 284 278 149 103 76
246 415 268 103 18 34
370 902 293 35 34 36
328 767 306 85 66 56
321 314 243 85 68 50
250 409 258 78 65 54
400 639 228 84 53 39
372 352 250 117 92 62
252 406 263 105 86 66
278 368 251 95 84 73
340 64 188 97 44 28
253 404 268 112 90 66
342 521 146 139 13 49
241 429 263 107 13 34
369 449 285 154 19 51
333 138 239 105 83 58
234 579 238 130 21 44
309 254 298 120 96 68
312 258 294 122 97 68
275 514 148 180 4 37
348 638 301 67 32 38
233 546 211 179 13 54
256 729 248 132 8 38
234 489 289 128 12 41
290 809 307 68 55 49
254 404 273 118 95 68
243 462 295 120 10 32
275 129 239 124 90 53
331 441 138 99 59 46
273 907 241 72 62 57
276 74 217 132 18 35
448 940 223 99 79 61
339 23 281 125 88 71
341 179 247 102 82 60
251 409 268 98 82 63
389 606 270 118 63 57
322 286 235 95 78 59
250 609 292 64 25 33
343 849 271 157 125 102
401 764 263 59 48 45
247 416 277 106 16 40
386 399 243 113 90 64
275 164 242 132 101 65
469 513 168 184 16 53
321 349 223 85 72 59
254 408 283 114 94 70
454 499 198 169 3 51
365 429 283 154 17 49
323 289 228 109 88 67
321 59 228 109 32 36
470 469 154 125 6 29
333 158 240 94 77 57
250 414 283 114 8 36
319 438 172 78 69 59
286 475 315 150 24 52
320 644 307 167 11 53
365 449 127 54 37 36
280 479 123 118 22 35
340 16 254 103 72 62
256 410 293 110 80 59
262 248 265 141 101 67
355 193 206 123 97 65
399 827 189 71 58 53
289 27 297 146 28 56
339 919 219 80 73 73
290 229 247 100 81 58
315 499 307 139 103 81
248 934 272 171 131 108
298 44 268 105 71 58
239 429 258 117 11 38
272 930 224 67 61 63
411 593 248 116 94 70
238 433 259 125 1 37
285 949 227 83 77 80
360 214 252 126 100 70
239 434 268 118 8 35
350 694 150 84 57 42
240 434 273 100 15 34
317 359 238 64 56 49
262 674 255 137 21 43
236 439 268 119 5 35
260 79 263 108 57 55
380 884 263 48 41 37
415 902 243 84 69 71
370 759 168 61 46 38
318 59 238 100 29 28
340 239 204 128 99 62
237 440 272 119 8 35
293 202 245 118 92 60
299 454 130 62 39 33
302 441 180 75 65 54
313 825 207 55 50 49
269 46 234 116 98 82
329 723 161 64 49 40
229 459 268 124 4 36
410 423 183 98 63 55
261 444 312 98 12 32
369 224 209 114 92 66
315 20 283 177 125 113
376 866 182 69 58 53
238 439 273 106 14 36
285 599 197 104 30 40
286 499 311 134 18 44
365 794 282 78 59 54
327 354 215 97 82 67
254 444 304 46 29 32
233 443 258 124 2 37
310 339 315 137 102 70
280 449 324 36 28 31
375 729 304 116 24 43
234 444 263 119 2 34
262 535 311 42 19 25
320 13 263 120 66 59
328 744 316 54 27 32
322 60 213 95 35 38
334 314 264 81 64 47
324 59 203 70 30 32
242 548 195 138 7 38
224 484 268 136 3 39
250 904 273 168 121 103
350 924 230 66 59 60
281 374 311 125 98 71
232 445 257 124 0 37
306 249 257 101 80 55
231 449 263 124 2 36
300 981 258 72 69 70
257 50 215 118 31 28
233 449 268 121 2 37
236 444 273 113 10 35
396 873 210 97 74 54
298 458 176 75 26 29
376 349 228 118 96 70
453 431 221 149 11 47
351 94 244 115 30 47
234 449 273 122 6 36
348 43 252 115 77 64
392 576 176 196 14 46
335 17 252 102 78 65
447 429 230 163 7 51
345 414 184 95 80 65
332 259 210 129 102 69
284 29 260 74 38 27
345 28 268 134 70 66
304 800 206 55 48 46
378 626 276 60 18 22
240 444 283 89 23 34
350 94 198 140 23 44
365 693 299 36 30 31
222 529 238 156 1 38
239 469 293 97 18 35
259 939 243 61 57 60
243 424 264 89 20 35
244 419 268 90 19 34
415 924 263 73 59 47
276 794 228 72 58 49
244 424 273 76 25 35
261 14 293 82 36 36
423 919 217 88 72 60
310 229 268 116 91 61
334 228 207 128 99 64
297 790 209 62 51 45
384 624 272 102 21 44
350 184 251 119 96 70
385 754 163 76 58 43
244 429 278 47 31 32
411 920 290 145 126 128
261 828 250 79 63 56
323 294 234 99 82 63
294 897 228 62 55 50
370 560 166 112 26 34
298 204 250 111 86 55
272 53 227 118 100 81
270 204 248 126 97 63
345 204 204 115 94 69
370 459 132 98 29 36
237 533 291 157 15 49
242 431 277 42 33 30
309 244 258 128 100 69
335 209 207 124 98 65
247 426 286 48 27 34
368 334 251 125 94 59
404 947 270 84 67 57
238 831 297 199 133 105
274 189 246 129 99 62
371 294 244 131 100 65
247 914 283 149 121 97
350 154 248 121 96 67
246 429 287 101 20 37
330 932 220 70 65 68
411 604 264 160 112 81
266 149 244 129 100 65
250 419 288 120 11 37
275 498 311 92 31 40
376 244 218 125 99 68
335 824 282 185 133 109
352 682 178 60 50 44
260 459 313 116 17 39
290 459 125 84 18 32
340 794 165 78 60 46
248 423 284 103 18 35
370 204 228 115 94 69
307 19 264 133 48 44
232 709 318 162 112 87
262 129 253 116 94 69
260 89 263 105 77 62
429 783 195 126 91 64
249 424 288 109 13 36
264 804 242 78 61 53
267 400 239 103 89 75
242 435 281 43 28 25
465 459 157 95 25 28
290 23 302 136 92 72
362 935 268 77 72 71
265 965 263 73 69 70
359 848 252 132 97 79
360 613 190 109 29 42
241 439 283 67 26 33
275 294 293 136 101 78
303 447 176 56 43 31
263 111 243 129 93 74
357 89 228 108 56 51
244 439 288 64 27 32
430 425 183 98 18 33
260 199 273 118 95 69
361 144 233 114 93 71
234 474 288 116 9 36
305 479 117 119 17 39
289 174 248 121 93 57
326 299 278 114 90 61
294 788 311 70 58 51
373 254 210 122 95 61
342 956 289 65 54 51
242 441 286 81 21 35
416 934 218 104 89 79
262 139 249 122 98 71
251 424 293 113 11 36
337 532 296 87 52 43
350 514 144 165 1 36
253 419 294 71 24 31
452 471 210 169 7 53
255 439 303 60 26 31
355 214 253 122 97 70
415 719 204 115 88 60
324 684 178 62 51 40
254 429 298 88 24 34
415 828 251 192 133 107
243 526 300 91 29 41
297 565 325 171 123 101
293 510 137 47 37 38
289 104 244 131 54 51
299 866 307 120 96 69
335 714 314 147 20 52
285 469 113 156 8 42
370 729 305 60 29 34
292 466 315 46 28 29
256 429 302 49 29 28
333 840 286 171 133 107
263 392 251 94 81 69
350 903 298 32 31 31
245 444 293 47 27 30
243 448 290 78 28 33
405 434 258 94 28 37
299 219 249 98 78 54
244 449 293 36 29 31
394 769 273 94 75 68
295 479 163 81 21 28
310 495 127 63 33 38
280 53 281 129 28 50
404 709 222 96 55 39
295 229 248 95 77 55
247 445 296 58 29 30
310 606 191 49 37 40
420 779 252 169 121 87
247 449 297 34 28 30
406 836 201 73 59 52
353 45 229 130 40 43
240 744 287 110 83 57
330 729 317 175 1 57
320 284 268 120 96 68
255 719 253 114 23 40
232 661 312 144 96 77
248 432 290 122 16 37
284 913 222 54 48 49
350 719 307 106 30 43
251 434 297 73 24 31
285 779 228 75 59 50
250 439 298 71 27 32
383 870 257 41 35 31
292 18 266 119 24 23
276 374 307 125 99 70
431 416 240 65 27 28
376 244 223 122 98 69
254 433 299 42 27 29
232 794 279 179 124 90
299 419 316 135 99 73
365 279 208 123 93 56
338 844 281 163 127 104
274 710 316 73 51 44
285 179 286 115 94 72
372 219 233 115 93 68
275 389 238 95 83 72
256 434 302 72 25 33
280 444 108 98 21 34
253 438 300 55 29 28
249 449 299 49 25 30
370 599 184 132 17 35
334 254 207 131 102 67
365 644 209 56 32 34
350 129 213 115 94 68
251 449 302 75 27 35
330 454 307 129 26 47
301 344 254 83 71 60
365 926 314 62 52 43
274 144 240 132 99 62
334 458 303 149 25 52
375 866 257 38 34 33
266 424 313 91 24 38
341 869 273 153 121 97
233 462 280 38 27 32
365 694 169 78 57 40
288 52 281 128 101 80
373 225 232 116 93 65
305 259 258 93 74 50
252 441 301 38 27 31
224 469 258 31 31 33
272 91 271 99 74 54
318 49 238 96 36 33
373 829 175 70 57 52
296 218 295 115 93 70
403 888 230 88 73 65
285 179 244 128 98 62
274 474 187 59 32 29
352 58 208 102 33 41
329 309 288 102 78 52
295 199 248 115 89 56
361 429 298 173 14 54
341 469 290 139 92 82
305 754 203 61 44 43
342 200 205 113 92 68
288 508 311 123 16 43
223 479 258 74 23 34
316 894 304 140 109 80
371 339 217 98 84 70
260 664 263 152 4 42
352 127 216 109 90 70
340 154 209 127 98 62
237 775 274 146 106 72
405 929 303 70 56 45
415 884 246 69 57 53
349 104 199 133 30 40
362 174 212 111 92 72
375 418 183 100 85 70
222 480 256 71 29 38
344 46 220 121 92 77
222 484 258 54 32 35
275 59 223 91 50 31
265 589 318 130 105 80
280 149 243 122 93 57
223 482 259 102 25 43
242 539 297 90 24 38
264 194 279 116 94 71
222 489 258 40 33 32
331 50 213 102 70 57
381 389 223 104 86 68
493 473 162 51 28 28
301 189 258 108 87 64
330 938 224 74 68 70
223 494 264 79 29 36
280 559 178 79 30 36
232 455 272 124 4 36
317 53 243 97 62 48
387 546 265 150 14 41
224 494 273 43 29 30
455 440 168 109 19 22
237 564 287 46 26 32
366 244 206 129 99 62
357 398 191 96 82 68
365 427 128 166 14 19
325 430 109 121 50 46
307 872 304 135 109 80
340 688 194 60 47 43
364 419 288 123 28 45
227 474 276 133 0 39
401 923 279 71 54 52
310 357 256 87 70 61
315 399 228 84 68 61
222 499 258 81 24 35
288 826 236 83 63 54
241 838 307 216 148 124
315 19 248 116 33 31
222 499 263 94 23 37
490 453 148 116 27 30
248 810 261 47 42 44
274 748 316 137 79 67
269 412 226 102 87 71
343 396 270 85 61 45
222 504 258 65 28 34
333 349 293 130 88 66
287 636 305 83 18 33
238 453 284 82 21 32
310 904 189 84 73 71
300 659 214 120 16 31
257 20 215 112 53 38
255 729 329 172 118 91
327 921 316 44 39 38
223 499 265 62 31 34
415 599 248 132 105 73
368 388 200 93 82 72
304 380 240 85 72 59
315 549 158 71 31 39
423 564 222 175 17 55
223 502 265 57 30 35
275 959 238 73 69 70
319 334 254 69 56 45
224 504 273 73 24 33
267 164 245 130 100 62
233 458 279 68 26 31
300 539 153 144 15 41
373 599 283 165 12 50
269 432 196 112 16 25
394 945 258 101 79 78
363 897 223 64 55 53
310 529 316 145 115 87
310 508 134 91 30 38
387 552 285 140 111 78
221 509 258 88 29 37
294 89 253 98 61 51
373 389 205 99 86 73
223 509 273 54 28 32
319 448 158 62 52 44
332 329 266 77 60 48
352 52 221 111 27 45
437 519 214 172 11 55
376 601 186 41 32 37
329 234 213 123 97 66
435 704 238 172 118 86
418 661 250 187 119 94
320 329 247 67 53 40
227 456 257 121 8 37
330 344 264 79 62 49
278 87 225 144 23 46
319 394 218 80 71 62
230 454 263 122 3 35
370 839 174 71 58 53
322 300 241 87 71 55
265 412 228 101 87 72
305 334 254 81 69 57
320 304 314 118 92 64
296 594 319 174 118 96
415 619 229 107 84 53
351 18 252 108 46 47
266 249 259 139 100 65
231 454 268 122 3 35
238 595 278 56 28 32
335 16 254 102 76 64
228 458 263 121 7 36
366 249 250 129 101 68
337 239 246 95 77 57
281 639 324 173 118 91
227 465 267 129 3 38
253 699 278 63 25 34
350 429 313 131 15 44
403 719 276 141 25 51
332 144 233 103 82 58
369 814 272 73 59 54
231 459 273 112 10 35
290 334 308 129 99 71
351 444 122 162 3 37
308 763 196 55 44 41
322 59 218 101 38 39
228 463 269 127 2 37
280 59 279 117 60 57
285 149 278 112 91 66
233 453 274 124 5 37
498 450 166 163 23 57
340 428 294 59 21 28
356 659 295 131 27 47
350 219 201 122 96 63
272 225 291 115 94 71
271 249 254 136 99 63
352 808 168 71 59 52
314 339 248 71 59 47
300 794 206 65 53 48
316 384 233 72 59 51
395 619 264 140 68 60
358 125 236 112 91 68
262 375 269 116 93 67
415 689 244 105 73 51
237 451 281 45 27 29
499 459 144 122 29 36
271 498 130 145 18 51
350 769 168 64 52 43
232 456 276 122 6 38
363 933 268 75 68 65
376 740 300 197 6 64
234 464 283 73 26 34
236 464 288 94 23 38
251 914 298 139 106 82
237 460 287 65 24 30
328 384 288 116 80 59
336 129 213 117 90 58
225 469 263 84 18 33
325 879 296 154 121 95
360 309 207 103 85 66
354 49 233 122 32 46
270 50 228 116 99 82
257 41 250 100 88 75
280 593 195 180 7 43
332 360 205 95 82 68
370 224 243 124 99 71
226 469 268 132 1 38
351 53 218 115 38 49
258 204 263 127 100 70
353 40 234 98 39 36
390 875 257 62 53 47
282 457 105 218 16 47
228 468 274 128 5 37
420 804 204 101 68 52
435 789 233 168 114 79
