ply
format ascii 1.0
comment Created by Open3D
element vertex 2215
property double x
property double y
property double z
property uchar red
property uchar green
property uchar blue
end_header
421 560 327 118 34 50
220 499 206 68 26 30
243 52 232 94 87 82
313 52 230 72 40 25
374 852 363 35 33 32
248 43 246 96 35 39
279 733 340 157 21 52
345 634 233 99 23 34
428 537 244 174 9 42
338 868 248 68 58 56
301 154 252 109 86 58
294 738 330 72 36 40
189 459 308 114 10 34
252 507 184 160 3 33
177 688 292 161 109 82
281 65 273 125 70 68
179 674 302 167 113 89
355 584 227 39 34 37
365 804 186 81 61 52
235 159 272 111 92 73
360 484 293 146 20 49
184 454 297 104 8 32
253 42 240 106 74 51
428 479 233 68 35 39
157 498 275 107 56 35
392 671 215 158 107 77
245 54 257 113 92 77
141 489 267 183 129 115
290 279 283 129 87 61
323 109 260 116 94 70
340 869 252 68 58 56
311 500 309 51 27 31
248 42 250 98 30 42
206 379 287 119 94 66
296 891 404 53 50 50
241 55 227 71 55 34
216 329 253 121 94 63
276 37 250 77 40 29
260 811 250 84 66 60
323 58 265 120 22 45
251 273 288 72 59 43
274 388 266 66 55 48
200 784 332 163 119 91
225 314 291 115 91 64
311 200 300 108 90 70
183 764 312 172 120 91
308 535 310 88 19 30
170 469 262 99 43 46
213 363 293 118 93 66
341 857 284 37 35 34
243 532 346 45 24 26
245 179 281 116 95 72
266 548 194 138 23 43
272 299 307 104 83 60
223 502 195 111 9 35
335 843 203 127 99 73
262 861 385 92 81 74
164 458 296 108 64 58
305 164 247 128 95 55
454 841 334 97 72 58
226 429 177 104 19 35
308 439 322 105 66 56
279 883 252 73 63 59
141 484 297 160 113 92
424 538 237 183 8 45
302 476 339 154 6 49
222 509 335 76 23 34
176 469 232 59 29 35
375 864 307 50 43 38
212 284 276 120 93 67
243 52 227 67 58 49
401 550 226 167 14 40
265 39 242 113 97 81
233 158 269 112 92 73
213 670 287 120 73 65
147 539 292 167 117 93
455 464 292 68 16 23
235 199 235 116 94 69
231 458 340 99 32 43
360 824 202 97 74 59
241 55 232 74 49 33
192 466 315 95 22 34
334 732 320 152 26 55
238 128 263 109 91 72
229 548 342 48 21 26
365 489 212 149 13 38
191 449 220 78 27 34
399 445 229 112 20 25
246 50 227 82 70 63
310 16 268 111 47 42
237 130 248 109 92 74
236 923 317 84 77 76
301 193 253 125 94 54
245 529 347 42 24 26
327 131 240 127 100 66
246 50 232 99 88 83
404 784 216 72 54 38
455 568 306 206 141 125
177 458 242 82 27 36
459 489 267 47 32 30
237 130 261 109 91 72
310 18 287 132 79 72
255 509 325 35 27 28
462 502 266 100 24 30
305 14 297 127 67 63
292 498 181 114 13 27
160 569 301 153 108 84
320 724 214 105 21 31
376 779 268 162 118 86
241 54 237 78 29 32
439 594 272 201 137 112
241 104 257 113 92 70
269 79 222 145 18 42
319 814 207 59 52 50
310 144 272 104 84 61
238 69 239 107 30 41
235 204 283 113 93 71
202 572 244 182 10 43
285 569 201 180 1 38
152 482 285 94 62 39
209 379 292 119 94 65
214 435 334 42 28 30
304 104 231 90 60 39
425 444 257 60 18 23
243 52 237 71 54 42
326 359 323 132 99 69
313 822 222 53 49 50
256 75 210 145 8 35
187 435 296 48 29 32
305 704 334 133 24 48
290 499 178 123 13 31
294 43 267 119 55 55
241 55 242 90 24 35
243 52 242 84 28 34
335 904 332 68 62 63
302 154 262 99 80 57
468 481 315 149 22 50
345 494 296 87 25 36
230 194 237 121 96 65
318 274 325 123 96 63
308 439 319 110 72 60
177 489 301 41 28 30
194 661 305 140 104 75
345 885 277 75 63 61
230 434 216 54 35 31
285 484 313 30 27 29
321 649 313 38 27 30
207 698 275 112 78 55
244 434 336 63 25 30
307 20 256 91 52 45
207 639 282 91 49 38
341 664 231 49 33 34
400 744 172 92 69 52
325 804 293 161 116 93
278 334 334 137 101 79
222 244 239 126 95 59
242 55 247 100 44 45
250 69 209 125 27 33
355 886 326 68 59 55
325 249 266 147 104 67
495 844 312 105 85 68
306 89 227 110 36 42
220 399 316 117 93 67
391 744 227 147 98 65
275 504 177 170 4 38
243 53 247 87 34 32
236 714 326 100 28 42
330 194 257 135 103 64
255 644 243 133 3 33
155 499 272 140 85 72
395 909 392 65 54 45
244 54 252 110 33 43
325 164 243 137 103 64
228 233 235 128 98 62
285 414 312 122 89 75
227 901 352 48 45 45
440 559 297 112 39 50
160 459 302 122 80 67
340 19 247 105 90 76
241 59 247 107 29 42
251 494 328 51 15 24
370 849 263 71 57 53
178 539 267 146 7 38
226 632 315 182 18 57
325 394 323 138 99 73
223 198 268 109 89 67
446 869 288 85 69 59
251 364 251 87 76 65
250 184 237 125 98 64
187 567 290 73 38 38
204 379 282 119 94 67
224 444 182 92 25 35
226 259 286 116 91 65
173 524 282 116 16 34
394 439 229 112 25 25
137 450 278 127 96 76
361 721 178 86 65 46
316 834 292 111 91 72
290 17 305 184 138 137
260 194 242 124 98 67
253 40 274 118 21 41
223 183 245 110 90 68
334 400 258 119 100 78
242 56 250 119 18 43
328 219 259 136 103 64
242 59 250 115 14 42
245 314 242 102 85 68
252 947 355 61 59 60
436 851 350 65 50 50
242 94 242 103 70 58
195 416 223 89 68 54
213 349 256 110 89 65
307 21 262 109 49 44
225 199 272 112 92 70
228 279 289 113 88 63
165 559 300 142 97 76
345 848 283 34 31 29
244 59 252 116 16 42
379 583 228 134 30 47
246 139 234 132 101 64
233 542 339 40 27 25
243 64 249 103 46 43
373 474 214 139 14 34
162 614 287 178 126 98
168 479 282 87 43 43
400 439 287 74 27 29
291 396 233 103 87 71
212 221 254 114 91 66
214 214 257 111 90 66
277 285 298 89 74 57
240 779 246 75 61 54
245 104 222 118 56 57
251 264 240 131 103 69
322 44 224 121 75 44
299 459 362 167 17 53
227 308 244 122 94 64
244 64 252 110 19 41
185 434 282 63 35 32
312 94 207 131 12 40
246 59 257 111 25 43
291 864 252 62 57 60
343 404 296 114 90 62
280 599 217 45 38 41
169 489 302 85 60 54
198 489 324 138 19 44
254 274 244 127 100 69
139 444 287 105 83 63
222 500 200 47 28 28
222 215 275 110 90 68
245 404 321 111 87 61
335 249 287 128 100 66
246 943 356 56 53 54
209 609 307 153 16 46
178 544 287 80 29 36
247 104 265 111 93 74
221 204 243 114 92 67
355 422 282 78 66 54
365 828 232 159 103 81
497 814 344 105 79 57
254 87 214 149 11 38
469 822 342 86 68 50
316 314 333 134 98 67
246 64 257 104 69 59
243 134 235 124 95 59
261 314 251 92 79 67
300 868 372 49 44 41
167 494 291 94 68 55
334 409 316 134 98 72
297 639 324 160 21 51
188 447 299 110 15 33
258 421 325 63 49 33
239 69 217 116 30 40
303 850 346 128 101 75
365 825 227 143 97 76
298 256 270 135 98 63
252 844 370 158 119 100
231 439 196 92 14 32
373 420 224 43 44 47
260 34 283 122 32 48
469 822 214 100 86 72
290 879 411 53 49 48
220 294 247 127 97 63
232 146 257 108 90 70
209 369 257 105 86 66
260 434 162 131 10 33
173 444 241 105 45 48
237 66 219 103 44 45
240 74 247 94 47 46
260 659 328 109 25 43
305 189 292 106 87 66
252 25 259 90 77 64
164 519 282 119 60 44
310 294 284 101 80 55
344 49 252 129 29 51
304 903 273 79 72 70
250 77 209 137 26 41
333 75 199 113 45 36
297 471 353 165 14 51
307 56 234 75 41 28
222 209 271 108 88 66
355 834 259 69 56 49
262 886 278 50 46 47
332 250 275 147 109 72
246 442 164 111 22 37
230 199 278 113 93 72
341 454 303 144 15 44
237 69 219 120 27 44
233 549 349 103 22 38
333 411 209 75 42 31
240 89 242 124 26 44
282 49 250 98 32 22
340 49 257 129 69 65
360 868 332 42 39 37
273 344 318 124 90 70
370 454 213 108 23 33
385 887 332 70 60 56
227 617 325 160 38 65
255 294 247 103 87 71
185 594 296 93 58 46
286 273 284 126 92 64
320 229 311 114 93 69
239 74 217 129 13 41
217 310 285 117 93 68
213 795 270 53 40 41
259 834 307 112 72 58
241 401 234 92 80 68
311 119 227 130 88 70
236 74 222 132 11 45
487 826 356 99 78 63
380 416 231 90 22 32
300 704 336 160 14 52
214 214 252 114 92 67
315 394 328 145 102 77
240 484 178 93 36 42
253 112 229 143 95 72
265 339 303 72 52 37
512 838 294 111 82 63
239 84 237 106 55 53
262 890 273 59 54 55
177 542 277 120 15 37
371 886 338 62 55 51
238 287 294 101 82 60
237 79 235 110 28 40
321 871 352 39 36 34
273 483 363 32 28 29
306 84 227 106 44 43
153 565 276 161 116 86
141 449 267 115 95 73
250 449 332 89 16 31
248 655 250 148 0 39
239 79 217 137 9 43
355 604 297 190 15 60
305 421 361 87 28 38
390 873 372 62 54 47
226 214 238 120 95 64
476 811 216 95 82 71
400 885 327 78 67 63
193 424 266 47 30 30
228 163 245 106 89 70
320 414 204 71 39 33
219 504 334 160 14 50
237 78 222 137 9 45
246 112 228 126 73 54
325 663 225 90 26 28
503 536 289 125 99 68
345 764 298 77 58 51
310 134 268 103 83 61
221 638 282 80 32 41
215 819 297 205 138 106
171 420 242 98 12 31
180 644 267 144 98 74
269 324 272 68 59 49
225 249 236 130 98 59
245 369 246 91 79 67
349 763 296 80 61 53
233 352 304 111 89 64
344 629 292 116 27 45
238 80 221 138 7 45
308 60 264 123 91 74
240 294 297 108 84 59
461 849 323 93 80 70
221 329 249 123 95 63
377 621 235 75 49 30
274 539 332 159 9 51
349 410 232 88 19 30
228 412 324 119 93 67
295 934 308 86 79 80
240 84 217 141 8 46
408 751 183 90 71 57
238 128 246 109 91 74
342 770 203 70 56 44
223 261 240 128 96 60
283 463 362 39 28 31
321 429 332 139 19 46
238 84 222 137 8 46
239 89 222 132 6 42
400 569 332 66 30 37
261 54 276 105 66 56
347 841 215 133 100 72
184 579 274 95 68 49
237 891 322 62 54 52
207 430 220 110 19 30
365 869 402 55 46 39
261 26 254 100 85 71
199 469 323 118 18 41
334 726 214 66 34 39
426 434 251 63 13 22
245 274 240 140 104 71
330 873 403 43 39 37
235 189 236 121 96 64
280 729 223 84 33 36
280 622 335 129 23 45
325 614 222 117 22 37
460 834 358 69 56 45
225 239 283 113 91 68
372 718 185 97 66 38
258 877 394 126 100 81
245 344 307 125 92 66
335 574 213 149 3 35
445 534 297 126 15 36
213 568 333 67 25 31
265 509 363 146 21 49
324 239 311 120 95 67
328 82 255 132 20 50
245 239 235 135 103 66
245 564 340 176 18 55
406 437 235 109 22 20
231 154 262 109 90 70
239 134 241 108 89 69
498 531 289 42 30 30
160 514 302 140 94 80
205 469 213 101 21 29
175 417 232 116 15 34
395 605 233 98 81 62
330 589 213 101 32 40
300 174 252 120 90 53
240 617 330 73 30 32
139 454 292 139 98 81
190 579 292 109 12 35
298 471 194 43 36 36
182 704 278 158 110 82
241 94 222 137 13 44
321 11 295 137 37 55
268 420 169 48 39 39
199 409 287 111 90 67
236 350 305 112 89 62
309 469 332 62 24 33
168 474 282 100 35 34
320 114 263 111 89 64
250 124 233 141 99 64
340 414 211 81 40 28
346 885 322 57 50 48
235 405 233 90 78 66
217 199 252 113 92 70
220 424 221 65 42 38
265 729 343 42 27 32
254 169 276 115 91 64
393 573 238 132 25 41
307 445 322 98 60 51
226 444 177 133 6 36
336 54 258 131 91 79
241 69 213 116 26 33
206 559 322 157 16 49
244 69 210 121 28 30
225 569 218 91 33 40
255 99 220 153 16 41
255 84 213 151 11 41
246 229 235 133 103 67
170 429 242 115 24 37
440 509 236 131 14 31
235 444 340 75 28 36
200 449 219 99 21 27
200 589 262 111 28 42
340 404 272 100 84 68
380 582 297 182 16 56
230 444 171 130 12 38
323 401 243 107 92 74
247 66 209 114 39 30
242 868 319 170 126 98
322 838 284 61 50 41
240 824 267 79 63 58
388 416 235 79 22 31
223 424 339 148 22 48
236 894 322 59 53 52
270 884 408 45 43 43
244 74 211 128 25 36
211 279 267 128 95 68
275 814 309 157 112 87
450 524 272 149 15 43
328 135 265 112 90 65
391 874 412 63 52 44
240 159 276 114 94 73
245 189 282 116 95 72
225 814 272 78 62 57
240 604 237 138 22 44
212 344 259 113 91 66
304 49 252 86 25 32
269 319 267 67 57 47
242 74 213 123 16 36
270 464 316 39 24 25
236 134 247 110 92 74
334 699 219 109 16 28
240 269 291 100 80 57
269 319 277 78 64 51
270 629 233 135 20 41
337 94 237 120 20 45
242 79 213 133 12 41
245 79 211 135 24 45
241 129 238 111 91 67
179 509 237 159 6 41
461 570 292 205 138 106
222 632 269 170 4 42
470 499 282 95 19 32
246 74 209 126 39 41
254 139 238 127 94 57
275 804 312 160 111 91
315 294 286 109 85 59
240 769 243 71 59 52
250 65 209 121 35 31
327 243 309 124 98 67
314 289 331 125 95 60
232 146 252 109 91 73
215 412 231 86 74 62
253 19 282 101 29 41
251 24 262 86 52 37
423 466 229 102 47 48
435 425 252 67 25 29
325 57 211 144 53 30
147 464 268 110 74 56
254 66 209 115 33 27
250 74 209 129 27 37
267 52 230 105 93 80
220 209 267 110 90 68
334 234 292 120 95 65
274 424 192 100 19 28
240 79 252 94 49 44
245 114 266 108 92 76
318 331 284 98 85 72
180 418 227 105 32 32
400 509 223 74 34 38
208 554 324 152 16 49
250 79 210 144 22 45
203 384 282 117 93 67
244 124 236 117 93 63
281 444 196 95 21 29
255 74 209 140 8 33
253 77 209 146 19 40
380 816 211 91 70 59
269 489 357 85 25 36
211 229 257 114 92 67
349 862 372 33 33 34
393 718 232 160 106 73
275 554 326 154 14 48
167 634 297 173 123 95
310 609 336 78 29 37
224 616 255 184 10 48
255 79 211 152 13 42
385 474 293 140 19 45
245 84 213 146 20 47
264 164 257 117 94 67
288 794 231 78 62 55
217 304 249 124 93 60
268 319 262 69 60 50
390 554 224 155 7 34
190 427 254 75 38 38
375 769 162 81 64 54
285 224 282 100 80 57
255 849 371 145 110 92
281 294 289 83 68 52
212 329 259 122 95 65
185 421 214 137 21 28
450 839 342 84 64 54
312 444 339 64 27 30
320 98 199 163 28 53
296 859 368 120 91 70
244 649 252 175 2 48
248 396 239 96 83 70
231 244 234 131 100 61
242 82 214 142 7 49
275 379 262 68 58 49
183 439 282 58 27 30
305 799 223 83 66 56
345 889 407 57 54 53
257 249 279 88 70 50
262 149 262 116 87 63
486 503 307 78 20 31
245 89 216 147 19 44
307 90 260 107 78 62
366 870 287 72 64 66
375 888 327 61 54 50
445 870 282 95 80 72
242 109 242 95 73 52
246 88 214 153 18 47
254 179 239 132 102 66
263 411 168 66 42 45
248 64 262 92 43 42
200 409 292 109 88 66
226 593 238 195 11 49
242 92 219 138 16 45
330 104 252 115 34 47
245 94 218 107 64 57
220 304 247 127 96 63
177 456 290 50 24 29
250 84 212 152 19 46
259 209 242 122 96 66
308 729 325 99 23 39
385 854 368 46 43 41
295 859 247 62 57 57
250 88 214 157 16 48
347 19 273 103 54 49
206 653 294 121 81 70
294 849 366 137 103 80
269 415 316 50 38 25
242 114 239 111 91 69
347 663 235 80 27 29
293 728 335 158 16 51
430 569 272 109 71 38
212 239 249 119 93 61
320 654 226 108 22 29
385 589 238 121 14 31
309 400 233 105 90 70
255 174 238 131 102 66
138 474 267 115 85 65
233 458 202 85 13 30
241 499 334 63 9 23
213 304 256 127 96 65
367 846 261 79 64 55
256 86 215 153 13 40
334 851 295 32 30 30
311 935 331 86 78 76
231 406 234 88 76 64
245 144 235 130 99 63
263 314 254 88 76 65
478 519 283 64 34 25
270 394 262 70 63 60
233 148 246 104 88 72
400 909 387 73 59 49
252 249 284 86 68 48
312 104 212 119 16 36
216 733 319 139 100 72
212 244 249 121 94 61
211 324 267 115 91 64
364 629 247 147 24 53
255 89 216 154 14 43
221 299 286 118 93 67
234 929 357 59 56 57
245 423 333 82 49 39
270 64 277 122 43 53
345 754 302 78 59 52
245 214 234 128 99 65
398 562 229 51 34 35
476 849 252 106 83 65
295 319 348 148 101 83
287 59 262 108 36 46
240 139 237 118 94 66
144 464 256 143 100 82
279 40 249 97 40 38
310 764 212 70 54 49
295 474 311 55 19 29
250 94 217 148 43 51
204 389 287 117 92 65
420 537 323 33 30 33
302 59 252 88 24 30
315 29 242 75 39 28
293 199 260 113 88 56
437 560 291 113 44 50
254 93 218 154 16 44
295 519 182 81 31 36
256 95 220 151 15 40
211 334 277 119 92 63
300 405 202 139 11 16
253 17 272 95 34 40
198 590 266 77 25 34
346 896 367 59 51 51
250 174 237 134 103 65
182 744 310 161 112 83
235 709 252 91 25 37
321 363 271 98 86 74
235 69 227 121 28 43
211 259 252 127 96 60
240 164 236 126 98 63
235 69 232 114 27 40
258 264 248 120 95 66
285 479 367 63 28 33
320 249 263 147 101 68
236 618 248 173 9 44
251 114 270 114 94 73
185 424 212 128 21 28
346 419 267 83 70 56
389 759 222 133 93 61
240 94 237 115 28 43
196 439 312 129 6 39
279 469 362 76 26 34
333 904 327 67 60 63
290 941 315 87 81 83
238 350 245 93 79 65
149 465 300 116 86 73
195 417 222 90 60 43
209 344 272 114 91 65
226 417 329 74 60 48
316 349 333 140 100 74
254 134 238 126 93 58
438 518 234 153 6 38
236 69 237 108 29 41
235 344 302 109 87 62
277 69 242 116 48 45
342 841 210 89 66 52
323 433 330 75 21 29
221 494 192 125 7 36
434 569 287 128 77 74
236 74 232 124 20 43
266 329 301 77 58 43
420 900 402 93 75 55
255 139 273 119 94 67
252 686 239 87 28 32
212 340 259 116 92 65
438 451 290 61 14 24
238 124 252 107 90 73
237 79 227 131 8 44
179 514 242 133 16 40
205 389 257 103 85 64
376 876 296 79 64 57
240 359 310 120 93 65
250 109 222 144 82 82
230 239 234 132 100 61
205 544 212 97 25 40
328 46 224 137 76 36
206 684 308 138 99 75
358 543 219 114 21 39
213 254 274 116 92 64
378 861 295 61 52 45
299 268 329 104 87 70
286 269 321 111 91 70
393 558 224 152 14 40
235 375 315 120 94 67
159 604 292 172 121 95
237 79 232 121 15 41
229 728 250 105 15 28
196 669 270 136 97 66
239 74 238 101 71 63
186 524 311 116 17 41
330 844 207 110 83 65
245 434 162 164 3 35
224 769 330 163 123 90
160 554 272 136 104 74
234 418 172 119 24 27
330 739 317 68 51 46
202 597 305 91 35 45
268 782 320 70 55 47
452 483 261 41 38 40
490 549 322 193 137 130
212 304 271 119 92 64
253 200 280 110 88 63
330 11 287 139 42 64
235 224 286 114 93 70
375 449 291 147 11 47
212 224 253 116 93 67
389 814 237 108 74 61
400 601 239 102 82 59
192 416 292 59 38 36
230 364 244 92 78 65
270 329 312 115 87 65
205 464 215 110 16 26
238 79 238 113 27 43
247 208 284 117 94 68
280 484 172 131 9 31
264 219 267 101 83 63
473 515 274 47 31 30
230 357 245 95 82 68
239 69 242 109 22 40
250 339 246 89 76 62
325 434 201 84 35 35
240 74 242 101 59 54
242 871 380 145 115 91
207 384 291 117 92 65
291 910 282 80 73 71
320 179 244 146 107 67
481 841 245 94 82 72
238 79 242 116 20 42
176 534 287 127 12 38
152 488 271 101 68 31
309 299 341 118 91 58
212 420 335 148 19 49
174 484 297 47 28 29
237 83 228 132 9 45
198 498 215 121 18 34
314 809 221 64 53 49
238 84 227 134 8 44
245 770 329 109 82 66
172 433 219 30 35 39
280 419 202 110 21 26
257 411 175 74 43 44
177 474 232 92 28 38
305 314 283 86 74 62
196 440 220 129 2 30
475 509 286 77 30 29
355 864 257 79 65 61
245 554 347 182 15 59
184 549 262 153 4 41
324 87 194 147 43 56
325 194 293 115 93 69
325 654 226 93 25 31
234 139 257 107 89 70
231 507 189 106 29 39
176 634 268 153 109 78
239 419 161 168 8 28
314 474 322 131 15 43
285 280 291 115 87 64
215 219 262 112 91 68
290 439 362 120 22 44
331 134 257 116 93 67
177 467 224 112 25 30
210 424 333 81 26 39
252 184 279 117 93 67
177 489 248 45 32 35
237 83 232 126 14 43
270 469 317 33 24 25
405 569 251 75 30 32
220 339 292 119 94 67
254 234 281 96 75 51
219 693 282 64 35 34
316 630 225 42 36 40
285 294 342 109 88 66
226 169 257 109 90 71
388 704 240 160 111 82
217 204 249 113 92 68
239 89 227 132 15 46
494 510 308 69 19 25
178 499 236 140 6 37
234 304 294 126 92 66
245 169 235 131 101 66
375 859 292 45 39 35
282 280 321 112 89 64
260 359 253 81 71 61
244 110 227 147 42 57
316 454 327 112 25 44
285 30 288 136 89 78
256 44 276 122 39 50
245 394 241 94 82 70
410 554 336 74 27 34
238 89 232 124 18 43
226 169 247 109 91 72
240 429 212 50 34 32
337 664 304 156 16 48
239 89 237 106 43 46
225 239 236 128 97 58
205 444 326 127 20 43
239 94 227 131 18 46
275 589 213 180 3 40
395 843 247 83 68 60
259 888 292 61 53 51
239 314 299 113 85 59
311 173 244 138 101 63
289 350 339 147 103 86
242 90 260 107 17 39
239 94 232 129 24 47
360 639 252 148 24 48
325 294 317 132 99 68
146 439 262 111 91 71
173 551 278 104 57 42
220 420 337 86 40 40
263 143 256 117 89 63
354 659 277 85 23 36
239 84 247 102 57 51
360 694 207 122 94 64
212 324 280 123 96 67
233 148 263 109 91 71
465 858 257 114 89 73
341 866 381 32 31 32
444 459 262 81 30 36
138 484 282 158 111 91
239 89 247 117 32 44
459 847 224 106 91 77
225 434 182 61 30 34
246 444 334 78 26 35
239 84 252 107 29 42
214 555 211 76 31 37
232 155 243 102 86 69
346 861 353 46 42 39
224 174 247 110 92 72
260 43 236 113 97 81
190 489 219 80 30 38
382 581 328 58 27 33
240 94 247 93 66 52
219 224 272 110 89 66
339 64 217 103 63 40
259 714 344 171 21 56
254 69 269 96 73 58
195 694 314 155 110 84
239 94 252 104 72 58
207 370 285 121 95 67
253 54 268 113 90 74
178 480 256 56 31 31
190 469 312 75 26 32
255 384 253 90 77 64
365 484 293 154 18 48
236 360 245 92 80 67
297 720 334 160 3 53
415 449 234 84 30 27
394 579 243 48 35 36
352 750 174 66 53 42
235 209 234 123 97 67
299 179 277 104 84 63
241 69 247 106 18 38
242 66 250 108 30 42
247 392 245 95 83 71
185 444 217 100 21 34
463 500 269 109 19 34
285 749 222 143 8 40
288 565 325 81 24 33
246 119 233 128 97 62
360 649 212 115 90 65
198 409 262 93 75 55
165 624 297 172 121 94
191 464 312 103 19 35
277 520 349 38 26 27
250 529 358 110 26 42
198 412 287 103 85 65
304 444 362 147 22 48
234 149 242 103 86 68
141 440 287 109 85 66
333 56 218 115 97 78
224 444 215 67 31 28
420 836 366 53 44 37
312 844 303 108 89 71
240 189 282 115 94 72
442 478 255 38 36 36
250 474 331 31 24 25
375 569 225 148 11 35
254 159 238 129 99 62
187 572 269 46 35 35
201 603 272 119 25 44
167 474 290 106 56 51
244 69 253 102 29 37
368 417 229 99 0 34
138 474 293 151 103 81
242 69 251 102 15 37
177 485 252 38 32 34
290 289 342 106 87 68
209 254 262 119 93 64
415 545 331 86 24 34
246 69 257 100 71 59
263 209 248 118 92 62
231 174 239 125 97 62
327 144 241 131 102 66
214 379 302 119 94 67
255 369 253 88 77 65
315 214 306 112 93 72
322 921 363 58 50 46
141 439 282 108 82 60
265 379 257 74 64 53
212 226 260 113 91 67
221 349 249 115 92 66
267 313 261 73 63 53
298 632 325 152 25 54
360 864 373 43 40 39
225 344 248 109 88 66
301 525 185 122 37 49
336 854 232 83 69 63
267 881 274 50 46 48
255 559 340 177 9 57
137 478 290 160 111 88
270 444 167 101 23 34
280 805 241 79 63 56
306 44 247 72 40 32
300 529 186 99 23 38
149 449 277 114 82 73
336 674 308 40 29 32
341 784 187 49 45 44
315 402 235 100 81 57
350 459 293 95 20 35
232 149 257 108 90 70
307 491 319 150 16 46
242 648 254 182 5 51
159 499 277 108 57 40
259 454 326 37 23 24
173 444 227 55 33 34
351 886 287 63 55 55
249 418 216 76 64 53
215 729 317 139 99 72
241 74 252 97 29 37
361 785 279 67 53 47
155 559 273 144 108 76
242 75 255 98 24 38
373 743 275 153 25 48
178 509 242 146 9 39
347 866 255 76 63 58
231 923 361 57 53 55
335 904 357 65 58 61
285 404 317 127 91 77
241 79 257 103 24 38
389 684 213 138 97 66
138 464 267 121 80 65
176 469 227 90 29 39
250 794 323 80 62 53
259 108 223 144 18 40
416 499 300 44 26 28
241 84 257 102 24 39
189 433 214 114 17 37
243 110 232 130 63 58
237 699 249 125 17 40
241 89 257 100 55 48
237 165 275 114 95 75
220 384 243 109 88 65
232 146 260 108 89 68
202 410 253 106 87 76
164 614 277 176 123 94
157 579 274 154 111 81
221 489 197 88 16 30
250 314 302 93 70 47
197 578 258 95 24 39
256 139 241 126 92 57
360 679 272 52 26 33
175 571 274 111 82 59
241 94 257 107 40 45
345 639 292 118 23 44
370 884 302 69 59 56
379 577 335 118 38 50
376 790 171 93 69 52
195 479 321 138 14 42
428 446 262 56 17 24
255 224 238 132 103 68
391 819 237 85 59 48
410 449 233 113 23 27
224 219 278 113 92 71
212 239 266 115 92 66
250 834 317 126 97 73
236 884 332 125 98 82
320 104 203 152 49 55
356 591 333 199 9 64
137 479 272 127 96 73
373 764 272 168 121 91
391 902 378 75 61 56
242 99 223 139 15 44
426 913 392 84 71 59
320 593 333 114 9 35
300 878 410 59 55 55
371 509 220 149 6 33
227 444 174 139 7 37
460 504 322 43 27 29
216 204 252 113 92 69
390 889 381 84 72 66
327 255 270 150 108 72
221 728 313 77 53 38
275 402 222 85 71 56
330 899 297 83 72 71
375 539 224 47 36 38
348 19 271 106 48 48
230 184 239 124 97 64
330 479 303 42 26 28
244 99 221 119 50 52
338 706 219 91 31 35
229 159 257 106 88 69
270 79 273 107 76 58
246 98 219 94 83 77
312 854 308 83 71 59
420 446 291 52 21 23
275 749 333 67 55 50
334 224 282 118 94 67
220 354 297 115 92 66
217 628 273 56 31 38
254 169 238 130 100 64
322 620 314 166 33 60
262 154 246 121 92 60
235 769 247 70 57 51
246 108 223 129 75 71
241 134 237 113 90 62
181 580 275 109 78 57
168 474 305 98 65 57
381 784 263 160 118 88
287 490 358 135 30 50
331 209 262 138 105 66
284 397 236 98 83 67
343 53 247 130 106 85
235 489 336 143 11 45
350 629 236 70 28 33
226 434 187 66 30 35
330 74 197 108 39 28
239 520 190 52 36 40
250 98 219 131 50 52
397 786 220 77 60 46
492 527 290 79 31 41
304 44 262 91 55 49
252 125 235 136 93 60
261 89 221 148 15 37
208 576 240 184 8 53
312 61 219 75 51 41
227 503 189 112 21 38
302 150 252 106 84 59
390 654 208 141 100 65
287 54 256 115 50 50
301 464 352 123 23 45
233 363 244 92 79 66
240 389 319 124 94 67
262 234 252 119 90 60
380 439 289 144 19 47
250 99 220 138 52 56
254 184 276 115 92 66
265 779 240 76 61 54
408 615 229 118 93 64
173 436 220 33 33 38
235 424 163 151 10 38
450 463 302 72 11 25
391 535 311 82 19 32
285 474 347 35 26 27
330 13 252 88 71 58
311 424 358 139 21 46
322 342 285 104 87 69
192 424 302 53 30 33
218 379 245 112 90 65
255 19 262 97 70 60
340 499 208 111 16 30
322 36 229 132 74 22
259 899 272 90 81 78
255 814 253 84 66 59
250 104 220 124 64 61
178 530 265 43 31 34
329 608 316 37 29 33
195 414 282 89 75 61
255 99 219 154 17 42
236 144 267 111 92 73
250 104 268 114 95 76
145 534 282 181 127 105
454 547 303 96 37 38
389 624 249 130 81 71
229 319 245 113 89 62
252 96 220 151 23 38
306 561 200 59 28 33
301 892 229 112 92 82
223 214 240 120 96 67
248 360 310 126 93 63
230 509 190 82 28 34
280 330 285 77 64 51
415 494 223 64 31 34
347 30 263 132 30 50
254 103 219 150 22 40
268 314 267 67 57 48
200 436 220 136 6 32
310 89 261 101 45 45
255 109 222 152 23 43
268 697 344 39 27 28
261 274 277 83 66 46
250 415 192 70 42 39
318 309 330 131 99 65
255 105 220 147 20 40
385 444 222 52 36 35
256 406 224 91 77 63
363 658 229 63 42 29
381 820 258 110 76 60
240 99 247 122 22 43
139 444 282 109 85 65
292 215 291 107 87 65
204 640 290 117 79 69
355 867 336 43 39 37
229 324 245 110 87 62
207 410 310 105 84 63
302 822 309 129 101 73
231 149 252 109 92 74
361 684 241 76 51 46
230 194 277 113 93 72
148 464 257 128 81 69
241 99 257 110 51 52
455 573 297 203 132 108
234 538 338 40 25 26
239 421 336 60 48 38
175 489 262 99 18 33
465 529 321 93 11 34
164 509 287 127 81 70
328 465 199 107 28 36
205 799 282 192 127 98
219 244 279 112 90 66
280 674 228 68 34 38
213 224 251 116 93 66
239 119 247 102 85 68
355 856 302 33 31 32
293 449 356 133 14 44
288 53 272 124 40 50
260 429 162 118 19 30
174 449 263 71 26 33
347 754 184 61 49 42
388 734 214 131 90 61
223 189 263 111 92 71
389 552 328 41 26 29
219 810 276 75 61 56
240 169 278 115 95 74
228 472 199 95 11 36
239 114 252 109 91 71
306 245 320 113 92 70
329 149 247 128 100 68
240 114 257 110 91 72
478 847 237 111 91 75
330 204 257 139 104 64
246 384 245 94 80 66
260 114 242 125 85 58
468 500 278 95 22 30
311 313 285 95 80 64
311 474 327 146 16 48
256 144 240 125 93 58
282 271 315 115 94 71
335 838 277 33 30 30
364 649 206 141 101 74
193 488 319 138 13 42
212 314 276 122 94 66
356 551 310 40 27 29
211 234 257 115 92 65
422 864 334 77 62 53
393 853 280 52 43 36
163 524 279 113 59 44
312 401 214 107 52 32
331 104 212 163 27 54
362 893 380 69 60 54
230 579 223 196 9 45
223 179 258 109 90 69
303 473 317 96 2 31
428 439 254 60 18 21
234 149 267 111 92 72
218 626 308 71 31 37
220 489 192 119 11 36
286 494 176 131 8 31
229 344 299 110 88 63
240 114 247 100 83 64
268 542 340 174 10 56
469 542 321 53 24 26
190 417 232 74 51 42
311 935 363 55 50 49
151 479 272 102 57 39
366 730 196 84 78 73
362 711 204 116 90 63
239 119 257 110 92 73
396 546 325 34 27 30
478 486 292 65 25 31
152 467 298 108 75 63
315 139 272 106 86 63
240 119 242 107 89 70
325 479 307 72 26 33
308 449 321 98 61 53
247 36 265 112 28 42
215 209 257 112 91 67
260 916 286 79 69 65
270 509 362 153 24 53
335 844 287 31 29 29
244 474 335 98 16 35
377 737 169 77 61 47
238 124 247 106 90 74
265 936 310 90 81 79
244 89 262 103 55 50
310 669 222 81 32 35
211 354 258 111 90 67
250 389 316 123 91 66
254 319 244 98 83 67
212 279 275 121 93 66
225 229 236 122 95 61
231 904 327 57 53 53
329 669 311 89 25 37
212 235 249 119 93 64
210 779 333 159 121 91
239 129 242 108 90 71
211 264 252 129 96 60
238 123 257 109 91 72
216 702 292 60 42 37
239 178 279 115 95 75
302 739 214 72 28 33
225 334 293 117 92 66
315 864 337 58 52 47
237 633 254 171 6 43
244 540 195 91 32 39
298 458 340 107 14 37
245 229 287 116 93 68
171 429 232 131 13 40
200 714 317 157 114 86
307 60 233 68 44 31
238 319 299 113 85 59
237 125 253 107 89 71
379 431 286 70 57 41
363 690 277 139 15 42
237 129 252 107 90 73
316 849 297 69 58 48
407 869 318 81 68 61
314 384 330 143 101 76
292 366 259 92 79 66
242 104 260 113 93 71
202 588 258 52 31 34
237 125 257 109 91 72
348 29 247 141 33 49
415 430 243 95 25 30
334 244 297 122 96 63
335 868 337 35 33 34
250 484 177 63 37 41
267 115 257 123 86 64
173 506 294 61 47 47
259 324 300 74 53 34
400 429 241 98 21 33
240 109 252 111 92 70
254 884 301 101 69 48
289 545 320 116 20 40
241 124 266 108 90 73
237 129 257 108 90 71
371 724 282 169 16 51
330 603 332 100 35 46
201 788 278 184 123 92
478 505 289 88 18 25
246 457 169 84 30 35
308 452 345 37 27 28
255 199 277 112 89 63
304 114 242 123 85 64
303 148 257 101 81 58
212 668 287 119 72 63
336 794 192 49 44 44
287 867 384 57 51 45
228 460 175 118 31 44
340 900 397 53 47 43
206 539 325 71 22 34
362 884 380 55 48 44
347 427 210 69 43 41
251 219 236 132 101 66
235 499 336 119 11 38
261 618 234 117 21 40
442 455 256 150 13 42
250 204 282 114 92 68
285 854 268 146 104 87
210 719 317 150 106 76
245 139 273 113 93 72
298 942 323 89 82 82
388 746 205 73 57 41
408 771 200 80 58 42
240 99 232 125 18 44
221 345 295 116 92 66
280 582 209 186 5 41
222 494 189 140 8 33
158 600 282 176 127 99
236 639 258 139 4 40
254 24 282 103 34 43
215 433 221 105 23 25
270 794 241 75 61 55
290 279 332 105 86 66
142 445 268 107 85 59
330 809 288 150 112 93
495 564 302 212 139 123
260 449 164 147 1 33
365 879 287 70 62 61
400 904 378 96 81 66
457 460 275 51 30 32
209 403 308 115 92 66
273 339 318 124 91 70
241 104 227 128 19 41
450 489 252 76 34 34
237 927 333 69 65 65
310 164 242 137 100 61
309 94 217 123 13 40
170 489 272 151 17 35
307 426 338 84 16 28
459 510 248 113 23 34
330 729 321 161 22 53
295 429 368 56 26 29
241 104 232 127 17 43
359 659 257 67 31 38
241 488 179 46 38 43
304 719 330 163 12 53
465 493 319 73 23 32
334 474 204 111 20 39
225 804 327 165 122 96
341 576 326 110 7 34
323 582 319 104 3 33
231 179 239 125 97 63
240 99 237 104 44 45
474 524 273 82 36 40
314 514 305 144 18 45
331 389 318 136 102 72
283 254 293 103 81 57
346 29 242 120 72 59
256 149 273 116 92 64
264 224 257 115 88 58
272 95 236 110 68 48
290 249 272 130 92 60
268 389 258 61 55 50
244 119 236 116 94 69
183 530 241 119 19 42
329 374 277 109 91 71
220 319 288 120 95 69
455 934 362 105 88 68
339 394 307 124 97 65
241 104 237 124 25 44
212 289 267 128 96 68
373 760 275 164 123 97
254 724 339 184 19 60
260 89 272 112 40 47
243 106 225 129 26 41
180 549 272 131 14 36
269 354 263 76 66 56
242 150 275 114 94 73
242 108 228 138 21 45
302 12 294 123 59 63
424 614 257 191 128 102
458 500 258 101 23 33
256 416 207 93 60 50
375 659 203 131 95 60
375 872 371 52 44 39
354 849 248 71 57 53
304 469 322 89 7 31
255 104 271 116 95 73
445 835 362 54 47 42
249 219 234 131 101 65
380 735 187 98 73 59
340 569 216 148 1 35
213 429 334 73 30 35
334 244 277 133 102 66
473 800 216 98 84 71
242 522 189 68 36 39
480 534 281 61 41 34
211 379 297 118 94 66
344 54 237 89 36 37
276 89 267 115 72 61
256 699 341 138 15 43
380 659 236 145 96 77
325 404 322 137 96 72
242 108 232 139 22 47
164 465 288 101 58 47
270 726 344 138 31 53
305 909 287 81 72 72
300 30 277 134 48 59
232 884 367 161 123 99
358 664 216 111 87 62
262 199 246 122 96 66
350 659 237 71 27 33
415 845 343 60 48 43
178 590 269 125 94 66
366 874 292 74 66 66
198 576 255 62 23 31
274 329 327 129 94 71
222 195 265 110 91 70
256 169 273 114 90 62
224 305 245 127 98 66
197 539 223 148 11 42
243 110 237 109 80 57
257 489 324 48 21 25
210 674 278 102 65 48
255 111 227 149 75 62
250 111 226 159 76 67
228 173 264 110 91 70
308 129 264 104 83 60
308 421 360 96 24 37
235 444 168 160 1 38
260 799 317 64 53 47
333 108 246 123 52 56
282 79 257 120 15 43
221 559 341 106 20 39
256 111 232 147 99 74
178 524 299 104 27 41
236 144 242 104 87 69
217 206 260 112 91 67
241 109 247 102 82 61
440 484 311 151 19 47
227 643 273 141 7 39
225 189 267 111 91 70
350 575 331 99 13 32
220 763 329 155 119 83
329 396 258 116 99 81
220 214 242 116 93 65
411 566 278 116 23 43
353 503 209 52 32 36
390 898 387 70 59 52
212 359 290 119 93 65
465 834 223 107 92 80
251 39 272 118 34 49
315 184 246 144 105 64
196 454 317 127 10 38
204 564 318 156 16 49
243 110 240 99 77 50
506 539 297 134 96 73
470 519 327 82 24 34
324 103 203 169 26 52
181 449 287 80 19 27
252 16 274 89 36 41
264 36 244 111 95 79
340 866 317 33 32 32
241 109 257 112 93 73
305 595 327 96 9 30
250 149 236 129 98 60
301 664 324 165 16 53
270 509 327 60 22 29
245 114 232 126 95 63
505 534 302 143 108 87
226 204 238 118 95 67
262 587 214 193 6 44
243 114 237 112 91 67
324 319 317 133 102 69
254 412 166 105 42 38
340 719 216 86 29 29
181 479 306 59 26 31
242 119 238 111 92 71
364 739 162 90 70 58
233 143 257 108 90 71
210 399 248 94 80 65
244 140 235 130 101 64
252 933 376 55 51 52
190 729 273 150 107 76
174 453 267 66 32 33
423 557 269 39 27 29
141 444 272 91 70 55
197 562 243 68 35 40
244 204 285 116 94 70
247 99 265 111 90 69
242 124 238 110 91 69
313 100 210 125 15 43
320 39 271 132 18 49
238 869 326 174 127 104
246 124 234 131 99 60
328 401 223 100 70 44
357 648 247 66 29 33
365 885 312 65 55 51
245 304 299 106 80 56
262 349 255 80 71 62
355 524 298 149 16 46
222 371 244 107 88 67
216 314 252 130 97 65
424 519 304 159 22 51
310 59 265 110 52 53
213 219 252 114 92 67
149 497 269 178 134 120
178 489 237 86 27 37
404 885 413 85 68 54
250 144 236 132 100 63
185 430 256 86 39 36
337 667 304 132 15 46
187 436 266 74 28 30
254 688 333 62 24 31
236 154 238 114 92 66
288 380 255 96 81 66
354 415 242 84 13 31
204 433 219 124 10 32
149 474 277 110 70 53
272 438 314 50 24 26
194 559 247 146 21 46
321 60 198 139 28 13
393 428 239 96 7 34
391 855 277 124 112 113
297 461 339 107 10 33
246 129 234 133 101 63
383 808 204 82 61 50
177 478 228 102 28 39
262 153 254 116 91 64
350 899 382 60 52 50
390 764 222 130 92 62
286 254 307 114 92 69
172 443 228 64 32 34
177 438 214 145 1 30
149 484 304 157 116 96
300 549 316 37 27 29
353 675 291 139 2 43
265 558 199 116 28 43
250 119 233 143 101 68
261 159 246 118 92 60
400 424 233 93 32 27
376 586 230 164 20 42
192 746 320 149 109 78
243 147 274 113 93 72
306 314 343 139 96 71
260 29 252 103 88 73
458 526 292 72 18 35
443 588 272 184 124 95
305 274 273 148 101 70
159 489 283 91 63 42
238 425 340 83 28 37
380 649 239 133 90 72
212 319 262 122 93 65
221 279 243 125 96 61
256 114 237 136 91 66
331 64 258 124 101 79
365 769 282 80 64 56
330 199 257 138 105 65
346 659 293 115 17 39
313 275 330 122 95 62
178 489 246 58 31 36
245 184 236 121 95 64
241 534 193 92 29 36
345 549 306 127 15 39
231 159 267 112 92 72
215 604 322 87 28 39
213 274 250 127 95 60
361 591 312 186 15 59
136 474 287 163 111 90
250 364 311 126 92 64
288 724 340 163 12 53
370 564 226 150 6 33
250 769 241 73 59 52
253 118 234 141 95 68
350 719 317 116 22 44
316 353 271 97 86 74
220 274 282 119 92 66
238 571 215 202 30 64
325 779 301 71 56 49
260 214 272 91 73 52
251 919 282 83 74 70
227 294 290 120 92 66
219 239 241 123 95 60
255 119 237 134 93 64
465 539 287 91 61 56
304 840 322 129 102 74
321 606 334 39 30 33
440 923 377 102 81 63
161 479 287 106 67 47
228 188 240 125 98 64
290 454 368 83 24 34
225 634 312 169 21 55
254 179 276 114 91 65
195 434 217 141 6 34
359 868 272 71 62 61
259 50 222 119 102 86
182 557 277 69 26 33
300 249 266 138 97 62
302 266 330 106 88 69
385 739 167 89 69 56
366 821 211 107 80 61
249 129 234 138 100 62
209 269 257 130 97 63
304 54 247 78 43 33
251 129 235 134 95 59
279 869 272 58 52 52
300 19 271 115 31 27
176 499 252 137 5 36
232 460 202 86 12 31
200 584 312 137 15 44
286 951 336 92 87 90
271 405 218 68 56 47
242 489 334 81 15 30
252 121 235 138 93 64
409 436 266 91 12 29
278 532 336 164 5 50
149 484 267 112 71 53
357 654 222 82 61 44
305 694 333 121 22 43
222 194 244 114 93 69
360 769 286 87 69 61
157 594 282 174 125 98
196 519 218 150 8 39
437 526 270 44 28 26
232 884 342 159 123 98
292 547 319 93 15 30
305 499 191 122 17 28
214 239 246 119 93 61
138 448 276 116 91 69
340 849 287 34 31 30
148 450 258 136 84 74
202 633 288 95 62 53
165 474 306 126 90 74
222 229 239 120 93 61
323 360 274 100 86 73
205 369 277 118 93 65
227 602 244 184 7 44
331 169 257 121 97 69
208 354 277 119 92 64
339 26 239 113 97 82
393 588 256 102 28 42
397 531 310 70 28 36
485 806 218 91 83 76
254 124 237 132 94 61
226 464 196 98 3 32
146 450 258 128 81 70
360 829 212 88 69 58
350 885 312 58 51 50
226 174 262 110 91 70
216 559 212 100 35 43
253 219 280 111 87 63
414 436 257 97 6 31
222 219 239 121 96 64
288 490 179 114 15 31
227 185 270 114 93 72
415 509 301 113 21 40
254 129 238 128 93 58
249 417 197 66 45 41
180 429 256 78 21 27
387 590 240 105 18 32
244 422 203 47 37 36
241 114 242 102 84 64
301 229 258 136 98 62
256 339 304 93 66 46
306 104 228 91 60 40
219 284 246 127 96 61
263 296 263 83 69 54
330 194 287 120 97 70
375 734 162 99 73 50
223 173 252 111 93 73
213 377 299 118 93 65
145 524 297 169 119 97
251 64 266 92 39 40
280 489 173 142 6 33
224 174 257 110 91 71
240 239 289 119 95 69
222 479 188 72 31 36
331 184 282 118 95 69
242 99 260 110 73 60
229 428 188 49 31 36
224 199 241 119 96 69
182 504 228 138 13 37
455 533 322 80 5 27
212 249 249 123 94 58
224 179 246 110 91 71
198 404 272 105 84 62
195 774 328 161 118 89
282 490 339 58 20 27
171 429 247 90 29 35
174 494 267 130 29 42
202 812 316 209 139 114
222 180 248 111 92 73
219 454 333 93 27 38
380 744 163 94 71 51
267 341 260 78 68 58
215 420 336 104 31 40
221 184 247 111 92 71
250 139 274 116 94 71
315 144 235 144 102 67
274 533 342 140 19 49
320 644 313 38 29 32
331 820 284 108 82 68
410 867 301 105 78 61
463 456 279 127 18 45
300 709 217 109 22 33
352 841 230 83 67 59
251 143 274 117 94 70
373 749 272 143 65 65
170 424 237 131 7 40
298 212 299 111 91 70
379 878 303 67 57 54
311 373 255 98 86 74
386 580 322 187 14 60
165 619 302 165 118 94
225 184 242 115 93 67
328 254 310 127 99 65
260 404 312 78 56 36
231 460 208 68 26 29
370 449 290 84 19 32
220 184 252 111 92 72
340 424 208 56 38 37
221 454 335 47 27 30
270 600 221 175 15 47
485 509 323 79 25 34
226 679 272 52 32 37
221 184 257 110 90 69
220 189 247 113 93 71
355 799 278 70 54 48
280 314 287 77 65 52
344 20 248 115 92 78
262 239 257 111 85 56
222 190 244 114 93 70
290 469 310 30 26 28
335 704 321 87 31 41
212 288 254 127 94 60
405 438 282 77 20 29
415 532 314 34 31 30
305 334 277 95 83 69
219 189 252 112 93 72
324 119 227 144 98 78
370 734 159 99 69 44
139 459 292 136 97 80
241 200 234 121 96 66
220 189 257 111 91 70
207 356 269 114 92 66
358 592 229 70 35 35
281 409 311 117 85 71
150 469 282 107 71 56
473 474 290 56 36 39
315 774 308 71 56 48
262 179 245 118 92 63
252 90 270 113 20 44
378 876 384 64 55 48
222 740 254 89 26 42
246 582 219 137 32 48
173 499 270 129 28 39
285 704 343 146 5 46
282 510 348 73 30 36
393 718 235 163 107 78
265 398 252 72 61 51
325 179 287 115 93 70
237 145 239 108 89 67
312 56 224 84 33 33
216 745 258 95 24 31
240 144 237 121 96 66
254 362 249 84 74 65
238 380 244 93 80 67
335 809 287 57 48 45
180 544 267 152 7 40
217 200 249 116 95 73
441 862 267 93 75 63
235 134 252 108 91 74
308 29 251 75 35 27
409 638 246 179 121 94
328 917 334 70 61 59
252 94 270 108 46 51
243 654 255 131 2 34
285 474 311 74 13 29
219 199 247 114 93 70
300 914 287 81 73 72
357 726 186 86 77 68
295 329 345 151 104 82
310 874 236 107 86 72
236 139 243 106 88 70
331 359 312 119 94 64
465 514 257 106 25 37
159 468 303 113 75 59
256 184 240 131 104 71
385 739 187 126 90 78
400 479 225 110 25 32
370 560 326 58 23 27
430 849 372 67 52 42
238 139 240 107 88 68
325 214 302 117 95 69
350 614 231 38 34 38
242 120 265 108 91 74
206 389 292 117 93 65
208 816 312 199 131 105
339 419 311 94 57 44
270 40 284 125 21 46
260 784 322 93 74 63
290 299 347 116 91 65
192 430 262 74 30 33
285 874 252 61 54 56
435 865 277 86 74 63
254 164 238 130 100 65
218 734 261 88 28 38
222 249 239 127 96 58
377 427 264 76 36 35
264 134 252 122 91 63
225 209 238 117 94 67
238 142 240 107 89 68
315 434 199 98 33 36
145 474 302 149 107 90
234 139 252 110 93 75
230 464 198 93 5 32
350 619 232 71 31 35
246 74 261 97 76 61
191 519 223 151 6 40
282 61 274 131 96 82
240 179 236 127 99 63
245 339 306 126 93 66
285 59 272 131 90 77
436 493 241 95 31 23
346 840 211 97 73 55
290 460 194 59 32 35
253 417 203 81 56 49
359 724 311 173 10 55
245 79 262 102 30 39
306 350 339 150 104 79
247 421 206 55 44 40
258 209 275 106 83 60
233 144 252 110 92 74
279 425 316 59 47 36
219 394 313 117 93 66
240 249 290 118 93 67
469 509 272 65 30 30
303 855 230 81 68 65
310 279 333 122 95 66
335 224 277 120 95 67
237 149 238 110 90 67
240 254 290 113 89 63
368 586 230 145 16 37
293 285 285 122 82 56
240 154 236 124 98 64
260 403 227 88 75 61
240 159 236 125 98 64
150 509 302 150 109 86
255 413 217 86 71 58
178 676 299 170 116 91
333 267 291 130 97 66
392 804 242 135 97 72
227 444 214 59 34 31
232 149 247 107 90 74
217 540 199 95 23 35
230 154 247 107 90 74
198 509 215 142 10 35
208 614 297 72 27 35
300 324 281 90 78 65
218 202 259 112 90 66
212 334 259 119 93 63
231 159 242 105 87 68
249 44 267 110 77 67
391 586 263 104 25 40
230 154 257 107 89 70
177 451 281 66 38 34
255 450 165 158 3 35
232 151 244 101 85 69
257 48 275 114 20 42
235 179 237 127 98 63
180 453 219 77 33 36
385 599 247 83 25 38
241 938 357 63 60 60
320 59 202 129 59 23
369 588 297 187 16 59
234 154 241 103 86 67
259 719 235 134 9 35
231 264 290 115 90 65
405 569 277 90 25 38
393 652 209 141 99 66
247 64 260 97 54 48
274 510 180 166 1 37
233 158 240 107 88 67
227 904 365 60 55 54
248 138 234 134 101 64
255 841 370 144 114 92
220 229 277 113 92 68
265 768 325 73 58 50
331 605 317 39 28 34
354 424 214 57 38 32
334 209 267 128 100 68
391 794 222 76 55 42
250 149 276 116 94 70
375 858 273 71 60 55
250 139 236 133 100 62
331 139 262 114 92 67
176 459 247 81 27 36
232 348 244 97 82 67
301 184 286 104 84 63
207 370 259 109 88 66
245 149 235 129 99 64
245 154 235 127 99 64
173 483 294 46 26 23
323 841 210 80 64 55
328 832 280 85 70 55
254 149 238 126 96 59
247 670 325 148 25 50
400 648 241 174 117 88
370 587 312 157 19 53
447 514 240 167 2 42
171 459 267 82 26 33
230 372 245 92 79 67
350 504 295 83 28 36
432 868 268 104 83 76
213 239 268 114 92 66
210 364 287 121 94 65
302 94 233 108 23 32
330 169 277 118 95 70
216 269 247 126 95 59
275 824 346 128 103 78
163 590 270 149 109 76
257 22 290 119 19 43
292 478 190 40 37 40
252 24 277 95 32 38
450 865 327 88 72 64
185 679 307 157 110 83
137 455 273 124 88 70
332 219 265 137 105 66
315 519 192 51 34 39
250 154 236 130 100 62
402 866 365 65 53 51
260 38 281 127 34 53
305 364 258 99 86 74
250 129 273 116 94 72
300 764 216 70 57 52
341 580 331 106 5 32
300 269 331 101 84 66
178 474 247 42 30 33
299 784 221 77 61 54
250 159 236 131 100 62
235 364 311 118 94 65
305 579 207 41 37 40
209 444 220 101 20 24
254 154 238 127 97 59
221 369 306 116 93 68
472 846 244 124 98 75
244 94 263 107 20 39
268 74 219 142 18 40
332 885 266 80 68 66
186 514 228 137 13 41
248 489 330 30 23 24
255 119 272 117 95 71
335 862 237 78 67 63
305 938 322 89 82 81
403 489 294 114 30 45
256 154 240 125 95 60
275 614 226 125 27 42
332 486 205 142 5 33
322 566 205 162 5 43
231 808 263 73 59 54
331 100 206 171 23 54
495 534 282 87 50 51
205 484 211 99 25 31
375 676 240 126 82 66
307 529 309 67 27 35
314 121 222 140 92 76
256 159 241 125 96 61
184 719 308 157 106 81
330 899 302 80 70 70
165 584 268 142 107 76
232 164 239 117 93 66
337 395 280 101 85 68
203 384 262 108 87 64
266 109 268 123 92 67
435 535 322 81 12 27
256 244 241 131 102 67
252 16 275 84 41 43
259 379 310 121 82 63
324 607 330 51 29 37
235 164 238 122 96 64
160 564 301 154 107 84
235 169 238 124 96 61
191 559 252 80 24 36
240 169 236 129 100 64
279 344 333 137 100 80
225 224 281 113 93 71
319 401 218 96 51 27
177 479 232 79 30 36
327 699 324 36 29 29
251 408 319 81 65 46
248 527 345 43 24 25
235 174 237 127 98 63
263 229 257 113 86 57
329 852 212 123 90 68
266 478 169 85 38 42
240 434 212 55 30 31
306 678 324 35 28 30
426 494 232 120 16 35
240 174 235 129 100 65
145 459 252 135 94 76
446 483 256 58 37 36
205 384 287 118 93 66
150 519 302 156 113 92
194 544 232 102 22 40
179 499 232 148 6 39
225 816 318 164 116 92
355 504 211 59 37 42
230 164 242 108 89 68
230 169 242 112 91 66
252 21 280 103 23 33
207 617 282 61 26 29
255 214 238 130 101 67
395 575 322 190 14 60
150 529 275 141 109 81
239 339 244 96 80 64
221 469 335 94 24 37
174 464 287 49 29 29
250 374 313 126 92 65
175 439 217 92 26 33
227 161 252 108 91 73
228 902 345 52 48 49
353 421 214 44 41 32
385 553 327 68 26 32
239 533 338 61 20 28
207 386 254 102 84 65
304 139 247 109 86 58
361 815 197 85 67 58
327 717 215 47 37 33
210 769 331 160 123 90
250 412 167 121 40 35
250 84 267 96 52 48
256 179 240 131 103 69
273 319 318 119 90 67
240 224 233 131 101 65
362 888 394 53 46 42
268 761 235 73 57 52
232 180 275 114 95 75
275 309 322 121 93 67
252 411 169 110 42 38
331 159 267 118 94 66
356 669 277 87 23 36
254 269 243 127 100 70
198 424 318 38 29 31
230 309 244 113 89 61
198 454 319 129 10 39
357 700 209 124 96 67
311 268 329 115 91 63
227 161 256 106 88 70
243 272 239 141 106 73
354 644 272 139 21 47
280 926 296 91 82 82
235 319 243 106 87 65
315 899 401 55 49 47
225 484 336 48 25 30
322 318 295 106 87 64
227 164 257 107 88 69
332 591 215 108 18 43
183 509 309 67 28 34
325 754 209 58 35 36
314 395 243 106 91 75
185 439 215 143 1 32
356 734 182 78 67 56
215 614 317 84 27 39
316 31 274 117 64 54
299 504 322 152 13 49
224 169 252 110 92 72
252 942 329 75 70 71
400 865 317 76 62 51
315 259 266 152 103 71
190 418 222 102 49 38
335 867 322 33 32 33
488 506 303 103 16 34
227 170 244 109 90 70
215 504 208 80 30 37
221 209 243 114 92 65
320 196 250 147 107 66
420 858 362 82 64 56
213 265 250 130 96 61
379 758 161 90 65 49
252 842 287 196 134 103
205 554 322 158 15 49
226 174 243 109 90 67
255 759 236 69 55 50
460 468 297 79 13 25
320 134 270 109 88 65
325 334 317 130 102 71
310 429 357 165 22 53
274 737 340 97 25 40
216 788 264 68 53 51
213 269 250 127 96 60
250 400 233 93 80 67
264 889 271 63 57 58
212 224 257 113 91 67
229 174 241 117 93 65
172 504 269 133 27 39
225 489 186 130 17 39
209 254 257 122 95 62
285 909 398 63 58 57
412 561 288 51 27 31
278 435 194 99 23 27
214 344 287 121 94 66
222 199 266 109 89 68
246 357 309 124 93 64
305 23 282 109 39 47
325 590 332 110 7 34
234 820 271 81 64 59
137 482 286 162 113 91
224 640 302 122 32 47
235 184 237 124 97 64
260 414 197 103 38 39
345 554 308 96 16 35
240 184 236 123 97 65
310 179 246 137 102 62
263 204 249 119 93 63
180 440 215 144 6 34
227 238 234 131 98 58
380 474 292 146 17 45
240 189 235 118 95 67
243 479 335 87 14 31
471 850 247 121 95 72
406 809 218 101 75 60
324 369 272 104 89 73
256 224 278 99 78 54
211 239 252 121 95 65
316 223 309 113 92 70
199 564 312 152 12 46
226 179 243 113 91 68
221 239 280 114 92 69
245 164 235 131 102 66
248 229 285 112 89 65
259 354 253 80 70 61
245 174 235 130 100 65
323 443 325 130 19 42
209 384 252 100 83 65
273 816 329 98 80 61
206 369 262 111 90 66
253 663 245 131 1 34
142 504 295 161 114 93
285 10 267 103 77 57
325 75 194 114 35 29
357 678 283 141 12 44
290 392 246 102 87 71
317 470 319 116 13 35
201 793 283 190 125 96
212 221 256 112 90 65
224 464 182 116 19 37
223 547 334 50 25 28
285 569 326 121 22 43
250 164 236 134 103 65
269 649 235 73 28 34
260 45 232 115 99 83
330 32 275 136 37 54
275 549 193 169 10 40
204 374 277 118 93 66
245 179 236 129 100 64
212 250 271 117 93 65
341 654 298 65 29 35
245 189 235 114 92 65
460 494 319 82 26 35
398 508 294 66 20 27
270 10 287 105 70 62
418 624 238 173 120 88
319 146 275 110 89 66
460 499 262 101 21 32
276 434 187 103 19 29
326 905 378 64 58 56
195 779 277 185 122 93
254 184 239 128 100 66
249 663 324 66 29 34
323 416 330 104 71 59
365 514 296 157 15 50
225 824 297 64 53 55
186 434 277 80 22 31
253 416 159 93 41 39
296 515 318 159 12 51
169 489 297 82 55 49
250 189 236 117 92 63
321 470 313 88 25 36
390 669 212 155 105 74
269 415 182 81 33 35
219 194 247 114 93 70
156 594 287 170 121 93
213 319 257 132 99 68
410 614 231 121 95 61
408 772 194 110 80 56
312 429 352 152 23 50
253 164 275 117 93 66
220 419 223 77 54 47
255 439 163 146 1 34
345 745 308 60 50 46
224 194 241 119 95 67
327 387 266 105 90 75
270 25 297 145 26 56
137 474 290 156 107 85
216 294 281 118 94 68
237 185 280 114 93 72
346 764 187 52 43 40
287 210 268 106 86 62
355 514 213 153 5 36
189 424 282 51 29 31
222 199 243 114 92 68
440 509 313 143 18 46
218 194 252 113 93 71
