ply
format ascii 1.0
comment Created by Open3D
element vertex 2206
property double x
property double y
property double z
property uchar red
property uchar green
property uchar blue
end_header
297 307 299 133 96 72
350 79 344 118 23 41
255 667 303 121 92 69
334 624 322 79 31 39
257 424 254 84 67 53
336 89 330 115 67 56
356 299 238 128 99 72
346 931 302 54 47 44
339 89 336 122 36 48
336 94 331 121 50 51
378 399 231 72 64 57
474 781 251 77 61 48
336 95 335 123 63 54
338 105 362 140 34 57
352 456 328 71 17 26
338 94 337 112 64 56
256 548 319 116 28 42
244 550 219 110 84 65
304 629 225 53 32 37
343 83 337 108 56 59
294 204 331 129 99 69
322 100 358 113 52 50
329 309 262 116 90 65
340 95 340 104 55 53
341 90 339 124 25 47
258 444 241 95 58 49
333 508 96 84 23 34
384 837 208 229 144 118
347 87 343 124 21 45
241 536 268 139 0 38
304 464 345 34 27 26
389 842 356 59 47 42
242 539 256 149 7 43
350 84 346 128 18 43
351 86 349 129 15 42
332 943 315 50 46 45
306 466 349 35 28 28
355 279 215 126 96 65
238 563 227 134 102 74
350 89 351 131 14 43
348 94 351 133 14 45
416 474 238 73 19 30
381 540 318 145 27 55
321 70 364 104 32 42
276 644 257 63 33 37
324 69 365 95 33 38
318 709 205 117 11 30
242 515 297 45 27 33
329 65 365 90 72 57
329 69 367 84 31 31
287 174 322 116 94 69
273 260 268 103 88 73
334 65 365 89 77 64
329 74 370 101 37 42
376 448 188 82 67 57
446 846 300 81 64 57
326 76 369 108 32 44
257 750 255 93 28 39
280 499 146 53 35 31
339 381 203 92 81 71
326 79 369 120 33 50
243 520 246 167 0 46
329 79 371 118 36 50
407 544 218 137 14 35
320 429 341 68 25 32
384 609 181 142 96 65
311 205 328 139 101 70
394 412 231 70 55 51
330 71 369 89 32 34
334 74 371 92 29 36
334 79 373 111 36 46
355 552 148 190 7 38
321 83 364 125 26 48
400 851 362 69 56 42
323 94 362 126 22 49
375 440 141 87 54 45
257 561 264 97 14 36
399 759 190 134 95 58
325 93 365 133 20 51
328 90 368 135 21 53
289 394 242 64 55 45
284 329 302 126 99 68
241 543 263 156 0 42
326 83 369 128 33 54
330 88 369 133 20 51
403 862 311 94 73 64
359 873 355 55 46 42
334 84 372 124 30 50
279 394 245 73 63 52
334 89 370 135 19 51
335 93 369 142 20 55
347 65 357 79 58 40
269 359 240 95 77 56
404 494 321 100 24 37
349 69 356 86 31 30
355 434 336 104 9 34
332 595 194 168 3 42
351 78 368 105 33 40
247 524 216 77 19 33
374 384 231 96 82 69
338 67 368 77 28 26
258 955 274 76 71 72
295 836 323 42 36 34
322 194 306 127 101 69
348 899 261 66 57 58
339 69 370 88 32 34
406 815 238 134 89 72
348 457 125 88 71 52
404 489 155 105 67 47
340 66 369 85 30 33
344 66 369 101 27 39
374 719 192 143 101 64
344 69 370 103 30 39
354 833 371 62 50 42
339 74 372 96 31 38
340 438 332 64 17 25
397 552 309 121 29 50
333 899 237 69 60 61
344 79 372 103 36 43
347 66 369 107 25 40
294 219 281 112 91 67
229 719 306 153 105 76
348 70 369 107 28 40
273 743 337 119 87 69
348 74 369 105 27 40
336 925 265 82 73 73
301 284 226 85 72 58
308 628 329 53 29 33
414 449 323 159 5 49
351 90 355 129 10 46
383 679 281 48 27 28
329 389 270 54 44 34
337 601 194 104 22 39
299 754 344 58 28 31
363 749 310 74 25 33
267 254 307 119 93 62
414 829 267 74 61 56
351 95 361 131 8 48
361 862 313 34 32 32
349 94 366 131 19 53
362 616 195 81 29 41
265 244 286 116 94 70
419 444 236 105 18 36
240 659 291 132 94 66
339 84 373 127 26 50
439 800 270 76 60 51
299 164 332 114 92 68
339 96 368 150 15 56
344 94 369 136 15 52
349 84 370 110 34 46
348 89 370 118 29 46
354 489 71 163 26 47
351 85 368 116 36 49
345 96 368 134 22 53
349 498 108 207 9 48
314 430 201 84 73 62
278 659 256 48 32 39
347 92 369 128 22 51
424 703 260 87 65 46
374 411 336 64 55 46
315 175 333 137 98 70
335 99 326 122 83 64
297 138 310 104 87 68
286 571 179 210 5 35
334 104 326 123 67 55
335 428 332 56 25 30
336 99 331 119 58 54
314 269 245 78 67 57
241 549 280 58 31 38
335 104 331 119 78 59
334 109 326 125 52 54
239 540 170 217 138 116
335 109 331 125 40 48
384 454 171 55 25 29
327 124 322 125 98 67
298 447 180 75 65 56
327 129 322 122 97 68
403 418 339 100 30 43
258 694 265 89 31 33
328 124 326 120 95 66
338 867 312 31 29 32
314 349 262 78 61 47
333 112 327 125 83 66
318 510 60 222 21 59
244 879 316 133 100 82
334 119 336 124 87 66
294 491 108 67 37 25
256 753 262 87 35 41
335 116 334 119 74 60
284 404 241 63 54 45
331 121 334 117 87 60
331 125 336 109 81 54
416 515 292 178 16 52
304 928 242 82 73 73
329 129 331 116 91 61
299 494 105 84 28 32
330 129 336 114 85 56
319 373 204 88 77 67
403 809 206 180 122 96
332 123 337 114 84 59
237 649 281 148 103 75
283 250 323 142 105 79
321 117 350 111 74 63
316 204 294 107 88 66
324 118 351 110 66 59
250 552 263 135 9 41
269 364 242 97 78 57
317 166 303 107 87 63
271 967 304 69 63 63
289 374 313 127 99 69
323 125 343 124 94 68
364 464 346 60 26 31
325 134 321 117 92 64
417 458 218 95 24 35
324 123 344 128 94 70
241 581 244 120 95 68
427 419 321 72 29 36
341 501 105 137 18 43
254 724 330 152 114 86
329 121 347 130 85 75
309 624 329 93 36 45
329 121 351 110 66 60
406 422 209 82 34 33
389 408 296 63 54 46
363 468 85 66 46 28
317 340 271 90 65 45
335 120 341 120 80 64
332 121 349 115 72 64
336 783 213 89 72 62
305 255 317 154 107 81
336 98 334 121 38 46
362 263 222 127 95 65
259 704 317 135 97 77
337 99 336 123 38 46
336 104 334 104 68 53
372 547 334 115 33 47
337 104 336 103 55 47
304 967 273 86 82 86
336 108 334 114 58 42
279 914 246 78 57 50
340 915 260 74 65 64
338 109 336 106 57 42
524 851 346 103 89 76
264 444 206 55 46 38
453 853 371 101 83 66
337 111 332 133 22 46
402 549 305 121 26 45
278 213 284 108 93 77
396 436 128 91 23 29
340 99 340 103 52 44
329 410 331 89 33 32
250 919 271 82 72 66
314 849 311 85 61 46
340 104 341 114 27 42
258 339 245 120 90 59
374 850 241 96 76 62
232 707 308 147 104 74
313 467 130 75 52 43
230 694 286 155 106 76
256 623 301 48 27 32
319 539 146 156 7 36
342 98 343 115 29 40
279 329 303 124 97 69
479 833 286 90 71 56
354 394 270 77 66 54
296 388 228 70 57 44
292 374 235 74 57 39
342 103 343 117 22 43
339 109 341 107 36 39
278 204 291 104 90 76
310 319 271 100 76 52
416 851 310 80 65 57
341 106 344 117 13 38
341 109 345 123 19 40
297 529 110 151 9 38
335 794 322 86 67 58
436 412 293 92 39 39
346 100 350 129 14 46
346 96 349 136 16 46
350 861 232 82 67 59
310 264 240 81 69 57
258 668 268 142 95 72
347 98 352 128 11 46
345 104 351 123 11 44
229 709 291 160 110 79
412 862 328 83 67 57
358 484 333 46 25 27
337 113 332 126 31 46
254 624 291 140 17 44
259 894 265 152 115 85
337 117 337 117 58 55
320 145 338 136 98 71
338 119 341 128 46 54
342 114 347 125 17 44
398 449 203 56 26 32
289 424 245 74 63 54
343 114 351 130 15 45
438 754 276 53 43 34
342 117 348 128 13 41
340 120 351 136 39 57
232 693 297 143 101 70
342 117 351 135 17 48
229 729 316 156 108 79
319 531 141 204 0 39
338 122 347 129 53 56
311 354 286 112 87 58
319 960 311 57 53 53
338 122 351 134 59 68
324 99 361 127 30 51
325 104 360 130 23 50
313 284 247 73 62 51
329 100 363 137 18 52
344 428 323 54 17 22
281 481 128 78 52 40
384 407 281 67 59 50
329 104 361 135 19 51
363 473 79 85 43 28
323 109 357 121 27 46
329 109 360 133 18 50
322 311 209 109 87 62
444 850 341 94 75 59
333 101 363 139 17 51
469 804 246 97 76 65
441 807 273 67 55 45
334 104 362 139 17 51
336 102 364 143 14 53
297 320 219 118 88 59
349 449 328 72 10 24
390 846 342 50 43 38
334 109 360 139 22 52
321 113 354 117 26 41
434 754 287 59 46 36
290 394 233 57 47 39
324 114 356 128 22 48
322 116 353 123 32 53
269 884 332 117 88 75
319 729 201 157 1 40
360 470 87 77 47 30
330 113 359 132 22 51
354 453 131 89 72 55
329 119 356 129 27 51
354 486 71 137 38 37
275 968 276 91 87 91
295 424 224 55 48 41
419 744 296 63 48 38
334 114 359 135 25 53
374 444 347 83 29 38
310 339 260 82 65 51
437 452 228 160 15 46
261 732 328 144 101 82
331 122 354 133 44 61
349 284 211 118 92 63
339 103 364 143 23 56
344 99 366 141 24 57
339 109 360 134 91 91
418 499 171 169 119 95
444 850 306 70 54 47
342 108 360 127 99 95
358 279 241 137 102 77
270 359 305 126 99 72
340 500 96 168 18 46
379 429 191 84 60 53
266 299 299 136 100 74
258 289 286 127 99 68
341 111 358 121 116 112
344 104 361 141 32 59
269 394 245 84 70 54
352 288 213 119 93 63
319 473 115 81 56 43
394 764 305 58 44 35
291 905 243 60 56 54
348 99 356 124 6 43
230 709 306 148 103 74
346 104 356 128 13 46
333 439 346 120 2 37
346 101 363 144 17 56
338 113 359 127 80 83
279 314 303 135 100 75
340 115 357 128 109 106
449 788 257 100 82 68
339 119 356 131 107 104
352 75 347 109 30 38
249 809 292 150 111 80
231 646 269 140 99 67
226 522 148 241 186 179
353 74 351 101 31 36
297 408 243 49 41 35
410 412 245 89 30 36
354 79 351 121 27 42
359 614 196 92 37 45
321 748 203 161 8 42
417 494 265 138 18 44
344 834 304 44 38 36
352 83 348 129 21 47
353 84 351 129 18 45
352 88 352 129 12 44
352 71 356 91 32 35
352 70 365 111 21 41
257 598 231 133 77 66
312 458 347 71 22 30
354 74 356 97 31 36
272 622 248 110 40 48
339 849 386 61 49 40
322 414 336 105 34 54
353 74 361 107 30 42
287 912 244 84 74 71
240 870 311 116 94 72
352 74 365 112 27 41
397 589 216 150 23 48
324 510 56 230 22 55
304 432 200 73 64 56
355 84 361 124 6 44
255 569 311 162 3 51
353 89 356 128 9 45
369 714 306 127 18 44
341 496 90 46 32 34
324 460 136 85 67 51
353 84 366 121 24 48
353 89 365 126 15 46
389 784 306 59 48 41
393 584 286 182 9 56
359 483 76 144 29 40
384 719 189 136 95 56
320 290 254 81 66 49
409 831 386 79 63 49
256 544 321 62 30 36
308 289 247 68 58 48
352 92 358 125 6 46
309 579 341 49 28 32
417 500 269 155 17 47
292 601 219 146 46 61
397 498 129 105 28 42
352 93 361 131 16 51
430 424 264 124 20 41
329 359 207 90 80 70
459 754 261 87 67 46
352 92 364 128 6 46
390 436 132 88 24 35
289 169 301 103 89 74
406 453 181 101 80 62
289 164 306 104 89 73
286 165 312 112 93 73
245 685 310 130 99 70
313 882 235 58 55 56
285 169 311 113 94 73
224 519 196 165 119 100
288 159 316 111 91 69
294 239 274 108 88 66
389 410 236 69 61 53
428 844 290 88 68 62
287 164 316 112 91 69
279 413 245 75 64 52
286 166 315 112 92 70
401 674 199 160 109 78
286 169 316 114 93 70
344 404 306 58 50 42
322 168 329 138 102 74
287 168 318 115 94 70
413 779 202 164 112 82
284 174 311 112 92 71
357 329 245 120 94 64
233 619 261 142 104 72
285 174 306 110 92 73
390 821 194 195 134 109
280 189 301 110 93 75
351 382 209 89 79 69
384 644 271 162 13 50
289 179 296 108 92 76
235 684 301 136 97 67
288 183 294 109 93 77
269 399 245 77 66 54
285 179 301 104 89 74
290 961 269 92 89 93
326 139 324 123 97 68
244 549 266 158 1 44
283 184 301 107 91 75
303 967 314 75 71 71
304 304 256 80 67 53
304 434 330 85 17 29
287 178 299 101 87 73
270 421 242 75 64 52
480 779 222 101 77 62
286 180 298 102 89 75
286 186 293 108 93 78
429 529 242 90 23 35
329 470 111 89 67 45
235 648 252 186 126 92
279 189 306 112 93 73
412 594 245 153 28 54
280 189 311 115 94 71
356 294 238 135 101 76
282 179 311 111 92 70
325 154 331 136 100 71
244 658 258 194 132 105
314 159 337 129 97 68
328 634 214 56 35 39
242 537 268 139 0 37
434 444 246 127 11 40
344 724 197 139 5 35
393 553 163 130 77 61
282 183 305 112 95 77
274 224 281 107 92 77
281 184 311 112 92 70
284 189 321 116 95 71
282 183 312 112 92 70
315 495 66 105 26 38
282 184 316 117 96 74
285 184 321 117 95 72
480 789 252 85 68 53
398 664 187 168 112 81
328 467 120 89 68 48
366 419 349 131 17 43
255 900 335 108 94 84
328 532 354 178 16 57
279 369 241 83 68 50
281 186 314 116 95 73
296 140 312 105 88 70
295 139 321 109 89 68
319 579 341 43 30 33
327 952 277 84 76 76
294 144 321 110 90 68
415 529 242 88 22 35
299 134 311 104 86 67
417 746 299 70 54 43
304 134 307 115 91 60
300 135 308 110 89 65
402 573 270 115 31 46
357 294 236 131 99 73
297 133 315 107 90 72
300 139 307 109 89 65
300 404 249 56 46 37
299 144 306 109 89 66
284 489 116 79 38 35
549 829 292 104 87 70
392 494 148 67 43 39
296 145 308 103 86 68
244 559 291 41 29 31
384 444 185 53 37 37
363 384 213 90 80 70
334 405 316 56 47 39
304 139 306 114 89 58
304 144 305 115 90 58
296 136 313 105 88 70
361 259 242 135 100 73
282 323 244 82 67 52
389 834 386 66 53 42
296 156 303 106 88 69
250 934 266 70 66 67
316 496 62 108 35 34
294 159 302 107 90 72
299 155 303 105 85 64
299 159 301 105 86 65
382 614 184 137 93 65
244 586 249 112 88 63
304 159 301 110 88 59
469 820 270 103 77 61
482 781 232 82 69 60
344 859 313 33 31 33
293 149 311 104 88 70
320 810 328 74 58 49
334 369 206 89 79 70
238 680 269 171 114 84
291 151 313 109 91 72
299 314 251 76 61 45
339 944 291 68 62 61
293 441 237 74 63 51
416 519 291 153 21 50
291 151 316 109 90 69
313 234 320 146 105 79
300 744 232 66 53 50
369 469 76 68 46 34
292 148 316 109 90 70
291 154 311 108 91 72
290 159 306 102 87 71
294 154 306 102 87 71
364 470 81 73 43 29
239 879 306 167 122 102
296 670 329 159 20 52
372 399 260 71 62 53
412 542 264 68 30 30
397 622 242 35 27 33
292 153 310 104 88 71
273 564 186 59 31 35
291 154 321 113 92 69
384 407 271 68 59 51
272 234 313 116 93 67
247 524 221 108 12 35
414 754 201 139 99 71
401 866 324 79 62 58
290 159 321 113 92 69
344 840 395 63 52 42
299 149 305 109 89 66
426 799 246 72 55 47
270 374 309 125 98 71
317 442 179 88 75 61
304 149 304 115 91 62
310 369 208 99 83 64
444 769 261 69 54 44
298 152 304 106 87 66
415 479 181 119 87 67
385 634 271 168 10 53
302 152 304 110 88 61
290 710 334 135 19 44
363 349 231 109 90 70
306 284 244 70 61 51
414 814 290 51 42 37
309 134 307 120 92 55
279 629 251 103 23 35
325 930 338 62 57 57
401 457 159 67 36 19
309 139 306 120 92 56
284 194 291 108 93 77
322 937 334 62 58 59
408 412 242 90 34 37
313 139 308 123 94 57
314 144 307 120 93 58
273 814 280 66 55 51
319 139 311 112 89 63
361 481 72 118 40 33
316 144 309 116 92 63
431 732 257 85 74 64
318 144 311 110 88 64
332 432 355 132 5 40
305 151 303 115 91 62
360 894 291 59 53 52
327 794 329 83 65 56
380 424 206 99 82 69
309 529 354 36 28 30
315 174 300 113 91 64
309 154 303 117 92 60
309 159 302 117 92 59
407 699 211 135 97 66
249 710 324 143 110 82
314 159 302 119 94 62
344 844 361 49 42 37
418 831 374 80 65 54
274 498 152 106 18 37
314 149 306 117 93 62
349 438 181 97 82 65
314 154 305 117 93 63
320 159 311 111 89 63
377 729 299 142 13 46
304 184 334 128 98 68
401 551 209 91 31 35
448 752 227 86 65 46
475 783 257 78 63 49
299 894 366 59 53 51
291 171 298 108 92 74
365 393 215 91 81 70
294 170 298 111 92 72
374 410 331 63 53 43
294 174 297 110 92 72
334 329 263 119 89 65
314 719 337 157 16 49
299 164 300 108 87 64
411 747 230 89 65 52
236 612 233 178 120 85
334 354 265 105 80 58
411 544 266 91 31 41
274 784 348 177 126 98
404 845 291 80 67 63
299 169 298 111 90 66
326 465 363 132 26 52
304 164 299 112 89 60
286 957 329 64 60 59
304 169 297 114 90 63
294 179 295 111 91 70
284 204 286 110 93 75
294 184 292 111 91 68
359 445 151 93 77 61
362 345 232 112 91 69
316 179 299 106 86 65
292 182 294 110 93 73
296 181 293 111 90 67
294 189 291 111 90 66
236 580 240 134 105 73
439 454 245 147 13 46
299 179 294 112 90 65
407 802 208 179 121 95
416 478 245 87 28 38
299 181 293 111 89 63
303 181 293 112 90 63
379 829 386 65 53 42
355 402 273 67 58 50
309 164 300 118 93 63
239 604 261 128 99 69
308 166 298 116 93 65
376 841 224 167 100 85
308 169 298 116 92 64
358 608 315 115 31 46
261 476 153 67 53 52
311 169 299 118 94 65
309 174 297 115 92 65
392 534 148 138 28 46
344 483 81 88 52 35
393 679 188 161 107 75
327 784 329 82 64 54
235 594 226 173 118 82
450 794 262 83 64 53
311 172 299 118 93 64
226 770 315 162 112 80
381 841 230 101 68 56
314 164 302 117 93 63
227 794 321 172 119 92
264 364 244 106 83 57
313 175 298 116 93 66
267 249 306 117 92 63
266 504 154 156 2 38
318 174 302 105 86 64
316 163 304 110 89 65
269 443 206 51 43 35
318 164 306 108 87 64
276 219 315 112 91 66
320 163 311 114 91 63
387 467 88 110 25 38
319 169 306 109 88 63
437 418 294 65 28 35
320 174 306 111 88 62
429 789 277 53 40 29
413 459 176 89 72 55
412 532 294 183 14 53
349 259 252 127 97 69
377 872 273 77 65 60
244 794 292 152 112 76
247 540 292 77 19 38
309 179 295 116 93 66
306 182 294 112 91 65
317 730 339 152 18 50
387 422 349 84 30 36
308 185 293 116 92 64
406 540 302 163 28 58
357 852 240 69 60 57
309 189 291 115 93 66
314 179 296 114 92 66
314 184 295 112 91 67
414 444 211 47 33 34
319 184 301 109 88 64
312 186 293 119 95 66
256 372 248 113 88 59
334 699 201 71 33 35
433 846 329 68 55 44
313 189 292 117 94 67
315 189 295 106 88 67
318 189 297 105 86 65
294 256 268 105 86 65
314 694 212 123 12 33
287 178 323 116 94 70
379 453 101 82 57 41
310 259 281 113 88 59
327 952 314 60 57 58
287 183 323 116 94 70
305 719 221 139 5 42
300 339 297 116 91 60
290 179 326 116 94 69
434 459 226 155 15 41
287 219 328 126 98 69
350 909 321 53 46 44
420 493 247 136 14 44
286 189 324 116 93 68
246 926 340 43 39 42
433 418 242 47 25 31
296 136 324 109 90 70
302 134 333 116 94 70
305 134 335 119 95 68
329 544 147 83 26 35
353 449 331 66 23 30
288 414 231 58 50 43
339 694 325 119 19 42
360 813 197 155 120 85
300 139 330 113 92 69
299 144 331 115 92 68
376 476 90 207 14 48
324 289 207 104 85 63
304 139 335 118 94 67
305 224 328 141 101 66
299 460 156 78 65 52
323 154 316 121 96 65
343 830 304 38 33 32
344 919 276 69 62 62
254 953 321 61 57 57
344 850 381 51 43 36
302 144 333 118 94 67
387 675 270 56 27 32
305 144 335 118 94 68
424 829 268 72 59 52
344 619 205 63 37 41
305 220 328 139 101 67
294 149 326 113 92 69
290 559 344 173 17 54
442 416 289 124 27 48
291 159 324 113 91 67
292 153 322 115 93 70
438 479 241 73 28 36
294 154 326 115 93 69
276 564 172 57 36 35
415 790 286 41 32 28
302 149 333 118 95 69
355 289 241 134 98 76
304 149 335 118 95 69
322 872 311 31 29 30
296 154 329 116 93 67
414 499 301 127 25 45
301 334 218 104 82 56
217 530 166 194 125 107
299 154 331 115 92 66
299 159 331 115 93 67
315 384 265 66 52 37
302 154 333 115 93 68
353 385 208 88 78 67
310 234 281 98 81 62
302 159 333 115 92 67
310 479 364 149 17 47
334 499 56 86 46 36
417 507 283 128 19 40
308 134 338 120 95 69
354 399 272 70 60 51
300 184 334 123 97 67
310 139 339 120 95 67
299 619 331 94 30 42
356 471 88 78 46 30
294 689 231 55 31 34
314 134 340 120 95 67
269 339 240 102 81 57
319 134 341 125 96 67
433 715 247 97 71 51
314 139 339 123 96 67
314 144 339 124 96 67
319 139 340 130 98 69
238 820 306 198 137 109
319 154 336 136 99 71
349 844 308 35 31 31
412 538 271 150 20 48
307 273 220 106 86 62
309 159 337 121 95 66
346 496 76 56 29 33
393 569 305 91 22 38
249 694 317 139 108 78
314 146 338 123 95 66
408 438 329 152 27 57
406 499 214 112 18 35
314 149 338 124 96 66
324 434 363 94 23 36
231 644 266 144 103 71
290 169 325 116 94 70
293 169 327 116 94 69
405 849 291 66 56 54
418 479 161 179 126 108
290 174 325 116 94 69
295 174 330 115 93 70
349 407 287 59 51 44
299 169 332 115 93 68
411 515 169 174 119 94
369 407 311 58 49 39
302 163 333 113 91 67
414 854 380 84 67 51
257 380 249 113 87 57
304 169 335 119 93 66
245 889 272 167 123 98
374 654 286 145 10 45
299 253 269 107 86 62
260 929 252 65 61 62
298 174 332 118 95 68
300 174 334 121 95 67
254 589 252 52 36 31
342 299 208 108 87 65
438 444 227 158 15 40
304 934 346 62 57 55
294 179 330 117 95 71
360 880 250 75 65 63
292 184 328 117 96 72
294 184 330 118 95 70
381 446 117 83 54 43
291 189 329 117 95 72
259 599 316 45 29 32
290 214 329 129 100 69
298 179 333 118 95 69
300 179 334 121 95 66
298 184 333 121 96 68
349 435 186 97 82 67
299 189 333 125 97 67
329 829 311 46 37 33
301 191 334 130 98 68
309 174 335 129 97 68
312 498 70 110 27 35
396 534 188 45 33 33
321 357 278 92 66 45
253 609 232 173 112 90
309 169 336 127 96 67
290 529 131 65 26 32
374 845 351 50 43 38
314 164 336 132 98 69
405 549 216 151 17 41
262 565 255 42 33 34
314 169 335 135 99 69
317 164 334 136 98 69
320 160 333 139 100 77
260 840 300 144 107 88
254 544 211 67 23 31
317 168 334 136 98 69
254 955 311 67 62 63
480 859 362 102 85 67
336 419 327 40 25 27
319 169 332 138 100 75
319 174 331 139 102 74
309 164 337 123 95 65
339 274 255 116 90 64
365 885 322 52 45 44
294 231 328 140 103 72
237 924 306 183 140 117
302 888 249 61 57 56
311 180 333 135 100 68
248 768 343 165 120 89
409 524 221 67 27 34
310 184 333 138 101 70
306 186 333 135 101 70
320 531 144 179 0 39
298 355 225 108 83 54
309 189 332 140 102 71
304 674 230 131 5 34
314 179 332 139 101 72
427 472 290 95 29 41
314 184 331 141 102 73
294 870 341 41 38 37
320 179 327 139 103 75
314 969 301 63 58 59
318 189 326 140 103 75
314 189 330 142 104 72
273 417 245 74 64 54
310 259 216 118 94 66
271 225 287 106 89 72
249 579 306 87 25 36
267 641 308 163 17 52
316 353 278 103 76 52
389 502 113 49 33 36
279 209 286 107 92 76
364 443 156 92 76 59
359 624 307 82 32 42
280 205 287 109 93 76
419 419 241 97 21 34
289 199 287 110 91 69
284 209 285 110 93 75
414 809 246 87 64 55
289 204 285 109 89 67
276 210 288 102 88 75
259 489 142 127 22 38
272 223 285 102 88 73
403 469 121 84 27 36
279 219 282 110 93 76
279 224 280 108 91 74
240 874 301 121 92 71
416 482 181 130 97 74
284 215 283 111 93 73
324 819 321 52 41 35
248 612 272 115 80 60
267 713 239 98 25 35
284 213 285 111 93 73
284 223 279 111 92 70
275 304 244 98 75 48
289 223 279 115 93 69
284 219 281 110 92 71
408 554 271 172 24 55
289 219 281 113 92 68
271 220 292 112 93 74
341 688 323 118 28 45
417 484 256 66 25 32
394 764 189 128 93 54
271 221 288 106 90 73
304 319 255 66 52 36
329 349 210 89 78 67
322 474 364 37 29 29
379 514 120 182 26 52
296 334 249 66 53 40
270 224 291 113 94 74
269 224 296 116 95 73
327 143 334 129 92 64
271 220 305 118 95 70
361 353 224 100 86 71
307 289 271 106 82 58
317 289 209 116 91 62
271 224 305 116 93 68
284 689 326 45 28 31
307 343 214 97 80 62
376 555 318 50 26 29
280 194 296 104 89 74
303 547 157 128 24 39
423 725 222 85 55 47
278 199 296 108 93 77
358 264 245 134 99 74
259 944 337 68 64 63
288 376 314 127 98 69
277 198 300 113 94 75
294 784 250 79 60 54
250 606 229 182 119 93
259 674 271 133 87 67
322 200 302 124 99 70
370 399 215 94 82 71
337 410 324 65 54 45
276 200 301 115 95 74
275 204 296 112 94 76
275 209 291 105 90 73
241 539 266 140 0 39
277 203 295 108 92 76
268 239 281 103 87 70
420 454 316 168 11 53
277 207 290 101 88 74
275 204 301 116 96 74
392 659 229 154 110 85
412 862 339 89 72 60
273 209 301 116 96 74
273 893 255 112 92 72
276 201 298 113 95 76
282 192 294 101 88 75
324 934 336 64 59 59
298 488 109 75 31 40
220 514 146 85 44 42
278 194 306 114 93 72
394 873 321 78 62 58
300 499 103 112 25 35
281 239 324 127 97 68
334 274 205 107 85 59
279 194 311 116 94 70
346 307 253 126 100 72
276 199 306 115 94 71
268 464 337 130 8 40
274 209 306 116 94 70
367 360 241 112 91 68
313 963 272 80 75 79
398 864 301 74 63 61
419 411 251 91 13 33
276 205 310 116 94 69
352 739 319 41 27 28
469 829 292 83 67 52
315 418 198 82 72 63
279 204 316 117 94 69
232 613 252 141 102 70
277 208 313 117 95 70
233 614 256 141 103 70
448 812 262 94 77 64
278 209 316 116 93 68
283 199 321 116 93 69
280 209 320 115 93 69
329 634 322 143 26 51
254 614 236 168 110 86
344 634 315 129 30 49
355 383 209 89 79 68
308 729 216 154 5 44
272 213 296 114 94 73
272 218 290 108 91 74
425 729 221 82 55 44
373 394 221 95 84 74
273 214 306 117 95 71
407 463 213 105 23 35
275 214 311 117 95 70
276 215 315 115 93 68
290 555 160 185 12 46
266 599 231 85 23 32
304 489 106 76 30 39
354 470 91 76 46 34
303 379 310 118 92 62
272 219 306 117 94 69
347 924 282 78 68 67
284 264 267 109 90 69
273 224 311 114 92 67
271 230 282 103 89 75
320 931 249 82 73 74
339 476 92 82 55 38
264 617 243 123 50 47
391 636 246 160 26 54
299 455 166 78 66 54
401 831 231 150 105 82
270 235 278 107 92 77
270 239 277 104 90 75
249 629 241 178 120 92
259 588 252 51 25 30
364 503 112 153 23 42
267 238 285 109 89 69
248 563 298 36 27 28
266 239 287 114 93 70
258 339 291 129 102 73
269 254 271 106 89 72
269 249 272 109 92 73
359 399 207 88 78 68
263 249 286 119 95 69
394 770 188 128 95 55
421 499 181 153 108 88
263 254 281 115 92 66
479 834 301 84 67 52
329 284 206 99 81 61
299 394 246 52 44 36
400 741 299 58 46 35
262 254 286 119 95 67
306 309 282 119 93 64
397 436 164 73 16 32
266 246 278 105 88 69
271 245 273 110 93 74
265 254 276 106 88 68
389 820 191 190 128 101
266 255 273 102 87 72
396 411 226 76 51 48
315 209 290 104 86 66
273 228 280 108 93 77
426 419 255 114 17 40
275 230 278 111 94 76
398 804 192 155 105 72
279 229 277 111 93 74
354 644 210 121 15 37
391 449 177 52 24 27
274 234 277 111 94 76
393 439 170 49 26 29
241 939 287 66 61 61
272 232 279 109 94 77
387 431 191 90 23 37
279 234 276 111 92 73
279 238 274 110 92 72
419 449 321 160 2 50
329 294 207 97 82 66
353 851 377 49 41 34
281 226 278 111 92 72
319 305 259 85 69 50
324 689 331 66 29 34
284 226 278 112 91 67
284 229 277 113 92 69
241 544 276 74 24 35
337 408 278 60 51 43
289 226 278 115 93 67
417 484 246 97 21 38
334 841 372 81 68 57
249 554 191 190 125 104
284 234 275 110 91 70
379 509 331 126 24 46
279 240 273 111 92 72
311 218 284 102 86 69
284 238 274 110 90 69
289 234 276 111 91 68
243 534 251 103 17 37
305 394 313 118 92 64
289 238 274 110 89 66
279 244 272 112 93 72
462 812 258 82 72 69
284 244 272 111 91 68
329 804 225 75 62 58
284 249 270 110 91 69
384 435 141 81 30 34
288 409 231 53 42 37
422 494 286 148 23 47
319 448 166 89 73 56
359 499 111 206 5 38
281 256 268 108 90 72
284 253 269 109 90 69
348 909 267 71 63 63
299 339 250 67 54 41
289 253 270 107 88 67
310 509 71 148 19 43
270 549 187 80 24 33
323 867 303 43 37 31
256 440 319 43 30 30
361 561 338 87 29 40
288 255 268 106 88 68
254 554 311 125 19 45
319 369 205 88 77 67
264 278 260 97 87 77
259 569 231 64 17 27
274 244 273 110 92 74
273 242 274 110 93 75
408 444 121 131 23 43
276 241 273 110 93 74
389 429 176 58 29 34
289 244 273 109 89 67
422 468 299 100 26 39
260 344 243 114 87 56
329 354 265 102 77 56
384 854 309 44 40 38
268 229 291 113 94 73
294 499 105 147 7 44
323 654 219 138 2 34
393 519 136 147 20 42
267 233 290 115 94 72
258 443 245 94 59 49
334 836 386 56 46 38
264 664 302 55 35 31
266 235 291 117 95 71
265 239 291 117 94 69
392 686 253 65 21 32
259 324 242 125 92 59
307 739 219 74 37 43
266 239 296 117 93 66
268 277 259 100 88 77
268 234 301 117 94 68
238 594 252 127 99 69
308 612 334 134 52 61
253 734 271 134 13 41
269 234 306 117 94 67
423 449 311 164 2 52
271 234 310 116 93 66
270 239 311 118 94 66
371 373 235 106 88 68
403 415 340 98 34 43
403 450 176 58 24 29
374 835 205 237 156 127
366 698 308 143 12 45
263 249 291 120 96 68
344 669 212 41 37 40
264 254 296 121 96 65
305 299 260 82 69 56
425 474 224 131 20 42
249 530 216 72 22 32
264 244 291 118 94 67
267 244 303 118 93 64
266 249 301 118 93 64
422 495 179 158 118 97
267 247 303 116 91 62
289 634 326 94 31 42
283 462 164 76 64 51
265 254 301 119 93 63
383 619 286 147 20 51
268 244 306 117 93 64
270 244 311 118 94 67
271 246 314 120 96 68
338 944 286 75 69 68
266 250 305 117 92 63
269 254 311 121 95 66
271 254 314 126 97 69
384 880 311 64 54 52
275 229 316 115 93 69
444 429 246 90 26 37
375 654 206 122 87 66
272 239 313 120 96 69
425 520 229 96 27 38
308 259 221 111 89 65
228 749 301 161 109 76
274 239 316 120 96 69
419 409 281 90 47 46
359 384 211 90 80 70
378 404 221 89 76 65
323 958 310 59 56 57
276 234 319 118 94 68
276 244 320 126 98 69
389 639 236 116 33 48
273 249 316 127 99 70
362 467 89 71 51 35
276 249 319 132 101 72
394 619 231 59 28 35
354 534 138 63 30 39
279 254 321 139 103 76
294 199 287 111 90 65
314 899 363 62 55 51
259 299 247 106 86 65
284 849 261 146 119 92
294 204 285 110 89 65
299 204 286 109 88 65
253 950 274 77 71 71
299 209 285 109 89 66
240 619 271 132 100 70
304 204 286 109 89 67
308 784 240 80 62 55
247 524 231 152 0 43
304 208 284 108 89 67
344 854 370 54 45 39
294 214 283 112 91 66
422 730 289 65 48 33
254 619 281 84 27 37
298 212 284 109 89 66
304 211 283 107 88 67
259 354 296 128 101 72
442 459 240 169 17 49
409 455 176 64 44 36
404 440 121 108 22 26
432 443 223 141 19 41
304 214 282 107 88 66
257 393 303 126 100 71
368 554 336 66 31 36
419 469 237 99 21 35
464 834 287 93 71 60
299 224 279 107 88 67
309 199 288 115 93 68
432 738 248 51 34 33
382 847 242 98 75 61
359 849 396 92 73 56
398 470 194 95 54 53
401 581 263 102 26 36
230 794 330 168 116 89
237 815 333 183 128 102
419 700 266 91 68 48
314 919 351 57 52 50
407 463 106 160 18 43
309 209 285 113 92 69
309 219 282 109 89 67
293 369 236 78 58 40
429 519 231 107 29 39
359 406 306 63 53 44
309 224 281 105 87 67
312 219 286 101 85 67
289 414 237 58 50 44
263 499 338 44 28 30
312 224 283 99 83 67
254 824 300 169 115 87
434 806 280 60 49 39
426 435 307 161 0 49
289 550 141 189 5 49
431 834 268 79 61 52
324 279 207 112 89 61
365 589 317 57 28 31
399 509 319 135 21 46
313 224 286 103 84 64
253 619 291 101 23 38
294 194 289 112 90 65
291 377 313 125 97 67
311 778 233 79 63 55
399 845 346 52 42 36
304 194 289 109 89 65
304 196 288 109 89 65
354 491 104 184 20 44
308 195 288 114 93 68
311 199 289 117 95 69
347 334 213 103 86 69
226 775 307 160 112 77
314 194 292 110 91 70
312 457 154 84 69 54
279 364 242 84 69 51
314 199 291 106 88 69
371 566 318 176 13 54
272 484 343 74 27 32
318 194 296 108 88 66
296 384 228 80 64 47
409 863 340 86 69 58
252 546 214 67 26 29
319 199 296 111 90 68
314 204 291 104 86 67
256 544 190 112 52 53
399 869 326 79 65 59
318 204 296 113 92 69
318 209 296 115 92 66
310 495 91 67 33 29
320 204 301 123 99 71
320 209 301 123 99 70
412 422 334 55 31 35
312 750 215 87 62 57
357 365 259 118 95 70
311 270 296 139 101 73
264 334 241 119 91 59
359 408 321 65 51 41
315 214 291 106 87 65
306 264 235 86 71 55
265 768 262 81 66 62
258 334 291 132 104 75
317 213 292 109 88 67
395 479 150 118 64 55
318 214 296 116 92 65
234 524 202 136 106 85
334 719 196 130 13 34
261 718 323 145 97 80
316 216 294 113 90 64
349 749 199 120 16 33
320 214 301 124 99 69
289 579 341 164 17 52
369 699 305 144 13 46
313 219 291 110 88 64
269 369 243 98 78 56
295 288 254 95 79 61
310 922 238 90 80 78
315 219 295 116 92 64
315 224 295 121 95 65
399 869 321 80 64 59
253 700 319 142 110 81
289 674 327 40 29 30
318 223 298 124 98 66
440 812 263 89 73 62
370 445 348 77 23 35
305 384 211 99 81 62
309 904 360 58 51 49
337 460 349 127 6 39
320 224 301 128 100 68
320 219 316 137 102 70
294 966 275 89 86 90
288 292 254 101 81 58
360 451 127 86 70 53
314 224 321 141 104 75
293 226 278 113 91 66
289 639 325 56 29 33
314 934 341 58 53 51
236 918 302 176 134 112
294 229 278 111 91 66
240 514 241 172 0 48
380 484 337 151 18 48
304 369 305 115 91 62
378 442 130 85 55 45
296 227 279 110 89 67
344 759 325 148 12 47
228 749 316 166 115 84
298 227 279 108 88 66
414 474 181 89 59 51
364 374 256 114 92 68
398 873 331 77 62 54
309 456 157 82 69 55
299 229 277 106 87 65
304 225 278 107 87 65
407 798 289 48 41 36
370 374 226 98 84 70
393 519 146 132 26 40
299 234 275 106 87 64
299 240 273 104 85 64
294 384 231 69 56 41
331 688 328 41 29 31
310 877 313 59 51 45
393 492 108 153 30 41
294 249 272 107 88 66
388 438 130 89 30 37
239 804 296 156 115 80
406 804 288 44 36 31
400 440 333 109 30 45
299 244 271 104 85 62
239 699 315 134 100 72
304 249 272 109 87 61
444 799 266 82 63 53
385 439 182 58 37 39
304 254 272 106 86 62
263 582 243 50 21 29
310 229 280 101 84 65
308 234 278 105 85 64
310 239 281 97 79 59
364 443 195 95 80 65
379 848 246 91 68 59
284 234 326 128 99 70
311 239 284 106 84 59
310 724 212 150 0 44
306 244 274 107 86 61
308 244 277 97 80 61
279 384 314 122 97 70
289 469 146 79 64 50
307 248 277 96 79 61
238 884 291 183 133 116
258 941 338 72 66 65
350 904 276 69 60 56
315 531 136 161 18 51
296 685 233 70 32 37
405 644 196 157 107 76
384 409 246 68 60 52
309 244 281 102 82 59
310 244 285 110 86 59
339 494 61 87 53 33
407 644 211 156 111 80
310 249 285 111 88 61
284 249 324 141 105 77
324 839 376 62 50 41
367 887 310 61 54 52
306 253 275 94 78 60
307 254 276 96 78 58
336 466 113 87 67 48
313 244 287 116 91 62
404 409 271 83 53 48
312 360 290 111 87 59
335 505 106 121 18 37
232 684 291 139 99 66
313 249 287 117 91 63
314 229 291 116 92 65
315 229 296 125 97 67
409 449 325 154 12 48
317 230 298 129 101 69
316 233 295 124 97 67
349 603 187 50 35 41
395 459 187 49 20 29
317 236 293 124 97 66
312 659 224 41 34 38
318 239 296 128 98 65
319 234 301 129 100 66
309 239 321 147 104 78
278 314 243 91 72 48
319 229 311 135 100 71
402 444 158 53 32 35
316 229 318 143 104 76
299 299 221 107 86 63
416 412 239 102 19 36
294 959 266 94 91 94
366 449 191 95 80 65
316 226 318 141 104 74
400 495 197 94 6 31
303 679 230 127 9 33
309 724 339 89 24 36
309 344 286 115 89 59
318 239 306 135 100 69
355 319 221 108 87 65
258 294 250 98 82 64
286 891 368 59 53 49
290 389 236 58 48 38
317 238 310 139 103 73
324 873 245 61 54 53
389 483 102 64 33 36
316 240 312 141 104 76
314 239 316 144 104 78
317 233 315 140 103 75
366 456 108 82 66 47
363 862 370 49 41 38
315 244 291 124 97 65
364 609 310 98 34 43
399 412 336 49 29 30
317 962 310 53 49 48
370 449 181 93 77 63
317 244 293 128 98 65
431 711 279 74 56 41
398 824 211 192 128 101
285 320 243 76 60 44
301 505 102 58 29 31
335 924 332 54 46 45
278 872 259 125 101 76
317 244 296 129 99 66
415 469 246 52 26 31
404 479 156 65 36 28
417 730 213 131 93 67
315 254 291 127 96 67
289 859 256 133 110 87
299 847 314 42 37 35
316 254 296 132 100 66
316 250 297 130 100 66
315 254 301 135 101 70
304 249 321 150 103 77
422 496 223 142 40 45
310 245 317 149 108 81
419 428 238 105 19 40
352 492 69 131 30 49
309 554 348 45 29 31
309 249 316 151 109 82
298 500 104 123 20 37
310 254 312 147 104 80
341 509 353 140 21 49
449 819 275 84 70 61
306 250 318 152 106 82
249 749 281 109 64 53
311 250 313 146 105 79
317 244 306 137 100 71
428 710 256 74 55 41
316 246 308 140 103 76
308 299 214 118 92 60
280 441 202 62 54 45
313 244 315 145 105 78
312 248 314 144 105 77
394 579 291 183 9 56
312 253 310 143 103 77
284 639 246 57 35 38
419 734 211 131 93 68
483 864 366 104 90 76
289 194 327 116 94 71
240 705 319 137 103 74
288 199 327 116 94 70
339 329 261 124 94 68
357 864 205 101 76 60
396 576 208 68 30 32
438 469 231 141 19 40
283 204 322 115 93 70
249 699 271 135 91 63
280 634 251 74 34 41
282 209 322 116 94 70
329 563 344 188 12 59
285 204 325 116 94 70
351 290 214 117 92 64
247 567 298 42 29 32
288 204 327 118 95 69
380 614 292 40 27 31
289 459 342 38 27 27
384 539 140 131 26 40
285 209 325 117 95 70
282 213 323 117 95 72
415 489 187 113 70 64
284 214 325 119 95 69
288 214 328 125 98 68
429 410 276 126 35 47
284 224 325 121 96 68
318 848 310 82 59 46
387 598 294 182 12 57
299 449 176 76 66 56
287 224 328 125 98 68
314 953 261 85 78 79
315 359 283 101 76 52
278 234 322 119 94 66
412 788 207 174 119 91
469 784 260 78 64 51
319 355 209 91 81 70
236 584 217 180 120 89
374 440 165 88 67 53
369 449 196 95 80 65
281 230 324 118 94 67
367 887 286 61 53 51
249 589 216 183 118 94
250 601 264 98 73 54
288 229 328 129 97 69
281 235 324 122 95 67
374 478 91 205 14 47
410 494 316 113 35 48
362 345 240 115 92 66
289 587 203 211 7 44
283 800 265 56 47 49
415 469 251 56 26 32
284 239 326 131 99 71
285 288 254 105 83 57
319 349 208 92 80 69
289 234 328 134 99 71
354 444 161 94 79 64
289 239 327 139 102 74
344 574 336 196 7 62
278 244 322 130 99 71
328 472 110 87 62 42
275 574 335 161 15 51
281 244 324 133 100 71
253 628 242 166 110 87
349 444 328 73 11 26
281 248 324 137 103 74
315 784 338 80 62 52
453 811 272 82 66 60
274 764 254 89 68 60
379 849 256 75 59 55
354 489 101 158 22 47
294 809 262 165 115 87
374 455 101 81 63 45
369 623 197 117 32 45
293 324 299 128 93 65
412 443 242 112 21 39
289 244 326 144 106 78
289 249 324 149 109 79
246 929 276 62 57 58
252 594 308 141 1 42
313 540 150 136 16 44
289 255 323 153 110 82
440 729 271 75 57 41
286 252 324 147 108 81
309 749 342 74 31 37
289 252 324 152 110 81
341 324 209 102 85 67
291 200 329 117 94 67
324 834 245 155 123 98
307 287 285 129 95 69
319 909 356 60 53 49
232 811 304 177 124 94
294 194 331 121 96 68
300 193 334 130 99 68
299 199 333 132 100 70
304 194 333 134 100 71
304 199 333 137 102 72
309 679 226 105 13 29
274 379 243 88 71 53
377 472 88 196 16 49
299 204 332 134 101 70
401 460 127 154 15 46
319 912 354 53 48 47
304 204 332 138 102 70
414 804 241 96 68 57
279 454 340 125 8 38
407 510 212 35 32 35
304 209 331 138 102 67
284 413 244 70 60 49
239 669 296 136 97 68
300 299 296 121 92 64
228 774 326 168 117 88
411 441 236 116 19 41
294 214 330 132 100 70
394 509 320 146 19 47
290 219 329 130 99 70
290 224 329 129 99 70
396 594 212 86 50 46
294 219 330 133 101 70
299 214 331 136 102 70
377 523 330 165 17 52
325 876 227 59 54 53
354 824 211 177 136 109
239 652 253 200 136 103
299 224 329 140 104 71
273 439 332 55 29 31
330 404 275 58 50 41
302 224 329 141 101 68
256 286 274 114 90 62
380 474 338 91 31 41
256 865 268 133 110 87
309 194 332 140 102 71
247 517 148 174 3 42
309 199 331 141 101 71
279 940 249 83 74 75
252 622 238 172 113 89
341 506 61 219 18 55
409 474 322 65 30 34
519 862 364 103 88 75
314 199 326 140 103 72
364 869 315 47 42 40
311 357 288 111 86 55
320 194 321 135 101 69
319 199 321 131 99 66
469 744 261 93 72 54
326 491 68 85 51 41
358 809 200 148 117 83
349 409 321 67 56 46
319 474 364 53 30 33
317 198 324 138 103 73
313 194 330 143 104 73
314 204 326 136 100 70
313 209 325 134 100 67
385 704 286 54 25 29
318 204 321 130 99 69
316 209 323 132 101 68
299 269 265 109 88 63
348 862 313 33 30 32
310 214 327 136 100 66
271 446 334 94 14 32
309 219 327 138 101 69
304 664 231 130 9 35
437 479 244 77 24 34
341 500 87 58 30 33
414 524 291 112 25 42
309 224 326 141 103 70
400 433 141 108 26 36
399 524 158 161 107 83
312 223 324 138 101 72
324 758 207 83 63 60
294 228 329 137 102 71
553 829 295 103 87 71
417 411 229 113 21 29
294 239 327 146 106 77
294 234 328 142 104 73
279 344 306 124 98 69
407 705 207 133 95 65
302 227 329 141 100 67
280 389 243 69 58 47
299 239 326 147 103 74
369 854 236 101 79 63
274 334 240 96 76 53
274 354 241 89 73 55
312 267 299 140 105 74
304 239 325 147 103 73
366 635 298 39 25 30
262 902 340 65 51 49
301 369 218 107 84 58
341 785 318 85 65 58
294 249 325 151 105 77
305 244 322 149 102 77
302 796 250 178 122 100
302 247 324 149 99 77
303 334 291 117 91 61
375 389 226 93 81 69
309 229 325 143 103 71
316 382 293 106 84 59
254 869 315 123 92 73
308 234 324 145 104 73
307 238 324 145 101 74
325 149 321 127 101 70
321 134 314 108 86 61
323 134 316 106 84 57
429 710 251 82 62 45
255 748 338 152 112 84
387 582 304 182 9 58
321 139 314 104 82 58
364 529 135 75 35 40
232 698 302 146 103 72
323 139 317 109 87 61
354 739 201 115 15 30
247 566 284 137 0 38
358 439 342 122 12 38
322 144 317 114 91 64
359 644 210 127 14 34
426 789 278 49 38 30
474 824 275 94 74 58
368 851 223 108 84 68
419 845 321 57 48 41
325 139 321 121 96 67
429 489 227 120 26 39
309 855 308 83 58 42
322 149 317 118 94 65
321 154 314 115 92 65
349 339 256 123 96 67
426 744 266 67 54 47
397 442 334 153 16 46
321 196 318 129 96 63
433 724 265 85 67 53
411 444 236 62 24 31
322 165 312 119 94 64
354 869 317 35 33 34
302 352 219 105 84 58
323 169 311 121 95 64
300 284 236 80 67 54
323 164 316 126 99 66
360 475 77 89 45 29
249 545 215 91 61 50
324 169 316 128 100 65
419 409 306 84 48 40
306 389 208 97 81 64
231 639 261 150 107 74
349 848 242 91 68 56
397 443 145 56 28 33
321 174 310 120 95 63
349 577 334 199 5 63
231 628 247 168 116 81
363 369 255 116 93 69
289 674 241 58 32 37
283 815 274 91 66 64
377 854 245 86 68 59
322 174 312 126 98 65
324 174 321 129 99 66
387 852 374 70 59 51
250 599 296 149 3 42
302 343 253 75 60 49
334 325 209 96 80 64
389 408 301 59 50 42
321 179 305 112 90 64
239 719 325 143 106 78
289 344 236 68 53 38
322 179 307 121 96 66
321 177 309 120 94 63
264 563 222 83 9 30
324 339 263 94 69 49
323 179 311 127 99 66
321 184 304 119 95 67
269 940 250 98 90 89
387 437 134 85 29 36
324 179 316 131 101 66
401 795 297 42 35 30
284 299 247 100 79 54
258 409 311 59 40 34
349 854 311 36 33 33
323 184 321 132 99 67
321 189 304 123 98 67
309 379 206 99 82 64
323 189 311 131 102 68
338 933 272 60 53 56
420 821 266 77 62 55
334 404 199 89 78 68
427 411 310 116 31 44
322 189 320 134 100 70
328 134 326 122 96 65
384 838 365 62 50 38
327 137 323 120 95 66
368 364 231 104 87 71
342 498 85 40 31 35
326 144 324 127 101 71
324 144 336 141 100 75
309 561 174 224 12 49
360 359 220 98 85 73
284 469 345 122 16 40
328 144 331 123 92 62
329 134 336 125 90 60
310 369 260 74 56 40
323 138 339 142 98 73
351 284 248 136 100 76
325 140 337 143 101 76
327 149 327 124 96 65
323 149 335 140 101 78
326 146 333 133 94 68
380 499 332 140 18 46
440 750 276 66 49 41
299 279 261 97 81 64
379 464 77 92 49 42
326 154 326 125 98 67
322 153 334 141 100 79
324 159 331 138 101 75
359 454 121 85 69 51
403 474 121 106 25 41
327 152 329 129 98 67
290 539 126 64 34 36
291 379 244 70 57 43
325 164 326 132 100 67
324 169 326 133 99 69
387 652 238 155 20 54
314 899 225 82 70 66
288 504 116 163 8 39
323 174 326 134 99 70
322 183 324 135 101 72
321 186 323 136 101 73
334 514 356 71 29 36
231 764 330 171 124 94
258 644 256 149 98 78
321 190 322 136 101 72
321 199 300 121 97 70
350 734 322 100 26 39
284 905 363 56 51 50
284 424 241 77 66 55
268 893 341 47 41 40
321 194 304 125 100 70
294 274 260 104 85 64
432 433 294 160 11 48
300 504 106 78 24 33
342 449 334 109 7 32
409 845 366 76 61 48
375 523 128 66 29 31
384 838 216 221 144 116
322 204 311 123 97 66
389 408 271 68 59 50
321 205 304 124 99 69
356 294 220 119 93 63
295 344 226 109 82 54
322 209 311 126 99 67
409 454 106 109 33 43
322 204 316 125 97 64
321 204 318 127 99 66
352 346 213 101 87 72
322 208 315 128 101 68
319 884 221 89 76 68
322 211 303 126 100 71
322 213 303 127 101 70
299 534 352 83 33 43
321 216 304 127 100 68
334 659 322 147 16 47
322 214 311 126 98 66
321 219 305 127 99 66
322 219 307 128 100 66
322 219 311 130 99 67
264 859 311 103 64 64
227 799 311 169 117 87
322 222 308 130 101 67
254 519 326 159 5 49
374 448 121 83 66 47
319 649 327 162 18 52
290 423 328 48 27 27
322 218 314 132 100 67
400 474 126 111 29 43
258 288 255 100 85 70
326 690 208 104 16 26
263 283 255 99 87 74
261 286 253 95 84 72
259 943 257 80 74 73
269 279 256 99 86 74
421 555 234 164 16 43
269 284 251 101 87 74
374 407 264 67 59 50
277 918 244 65 50 48
265 280 257 99 87 75
400 434 204 79 31 29
424 718 282 75 59 46
387 719 285 126 15 42
269 282 254 99 86 73
266 286 248 102 89 75
236 909 306 171 135 112
324 634 325 148 22 50
274 359 240 89 73 54
279 404 242 69 58 48
265 289 248 100 86 71
324 889 365 67 59 55
431 460 224 138 19 38
319 458 146 85 68 54
299 389 250 64 54 44
268 286 248 102 88 73
274 754 342 143 107 78
268 281 253 100 87 74
271 287 249 102 84 65
274 283 255 98 82 63
274 289 250 99 81 61
394 449 200 52 22 32
279 284 255 101 83 63
422 487 294 163 16 46
279 289 250 104 83 58
439 763 272 68 54 45
375 456 97 81 63 46
441 420 275 151 21 45
415 469 158 112 66 49
279 286 253 103 84 61
384 594 180 121 72 52
284 289 252 107 84 57
264 724 325 111 54 51
260 295 248 106 86 63
318 867 330 31 30 30
313 427 328 54 22 28
262 292 249 101 85 68
419 459 316 128 20 44
399 579 271 112 30 45
396 697 262 92 30 33
256 300 248 99 82 63
269 298 245 102 84 64
269 301 243 107 87 65
269 304 242 111 87 59
329 508 52 171 24 51
299 524 354 136 27 50
466 828 283 80 58 48
240 929 321 148 106 90
397 608 232 134 26 48
258 308 245 119 92 59
260 309 242 121 93 59
264 309 241 123 93 59
289 450 181 74 64 55
259 314 242 127 95 60
353 842 387 64 54 46
278 565 170 112 30 41
290 495 354 128 13 38
259 319 242 125 92 59
427 842 294 91 71 60
301 356 218 106 84 59
459 839 305 76 61 53
304 538 116 105 33 39
324 924 342 68 62 60
347 310 254 127 100 71
283 531 348 165 18 51
350 920 311 62 56 53
257 319 244 124 91 59
324 551 348 125 33 50
264 264 271 102 86 68
404 869 336 83 64 57
355 309 241 129 98 69
353 598 324 45 30 32
248 538 173 178 120 109
264 314 240 124 93 58
264 319 240 121 90 57
275 680 252 70 30 35
303 274 267 89 75 61
444 849 331 90 73 59
269 314 241 116 85 53
507 862 355 119 95 70
363 449 347 63 26 33
367 396 264 75 65 55
269 319 241 111 84 53
371 550 331 100 28 41
263 294 297 133 101 72
367 446 184 97 81 65
432 730 269 88 68 52
245 808 293 156 114 82
309 469 361 65 27 32
369 458 101 82 65 48
289 408 250 66 56 45
274 294 248 93 77 59
324 774 220 85 67 58
316 364 281 98 74 51
388 523 128 80 26 34
273 290 248 98 80 61
277 291 248 97 78 56
297 431 244 67 58 49
277 294 248 97 78 56
344 794 211 65 56 53
431 419 302 114 22 40
392 452 94 96 33 33
279 294 249 101 80 54
274 299 246 95 77 56
313 374 262 75 60 46
381 876 285 75 63 62
272 301 243 100 81 57
407 558 270 132 30 49
279 299 248 95 75 51
280 297 249 98 78 53
215 514 166 154 112 88
290 289 252 95 78 59
249 879 318 130 99 81
229 709 296 156 108 77
418 465 158 119 79 53
289 294 251 98 80 59
402 644 187 168 118 86
338 524 354 56 24 32
284 304 247 97 76 53
359 479 76 85 50 34
289 304 245 95 76 54
276 307 244 99 74 45
382 421 186 91 59 51
293 414 220 56 49 43
402 794 193 155 107 73
299 899 364 63 57 54
279 309 245 94 71 44
430 770 230 56 49 48
292 300 248 95 78 59
264 399 311 124 99 72
274 314 242 104 78 48
350 488 76 125 38 47
318 527 96 55 32 30
298 288 305 152 105 78
264 679 270 76 36 33
400 494 201 89 7 32
347 432 194 98 83 67
274 319 242 100 77 50
249 654 297 137 101 74
304 724 340 78 31 38
314 384 204 92 79 65
280 314 244 87 69 47
257 923 260 65 61 62
280 319 244 87 70 50
318 434 336 67 26 31
290 310 241 83 66 46
293 424 216 54 46 40
358 454 355 88 30 38
284 314 246 83 66 48
411 713 220 124 91 65
283 318 244 81 66 48
313 379 204 94 80 66
369 407 306 60 51 41
304 474 356 43 28 29
289 314 241 80 66 49
450 850 362 101 80 60
400 552 193 123 84 72
345 269 253 129 98 70
305 279 221 99 82 63
303 289 220 104 85 64
310 264 216 118 94 65
286 654 324 59 24 31
359 854 231 114 90 73
307 264 221 110 88 64
404 709 266 93 71 53
409 855 306 77 62 57
437 434 277 155 18 44
309 269 216 118 94 65
311 265 213 123 97 67
411 800 215 144 91 69
311 269 213 122 96 66
399 429 205 79 31 30
309 914 354 59 51 48
363 349 241 115 92 67
400 619 251 95 31 42
306 266 223 106 86 64
306 269 223 106 86 64
333 764 210 85 69 62
236 732 283 170 112 79
394 519 318 163 4 50
380 479 337 96 21 37
312 258 214 122 96 67
417 514 251 72 27 36
314 264 211 123 97 66
318 258 209 123 97 65
433 830 267 74 58 52
317 264 209 123 96 65
320 264 208 122 95 63
409 493 194 104 54 57
318 269 209 124 96 64
309 274 216 115 91 64
385 429 191 86 26 34
311 274 213 122 96 64
309 284 216 117 93 64
366 886 292 71 62 62
355 309 220 112 89 64
331 476 98 81 60 43
344 529 137 196 9 40
311 284 213 123 96 63
284 900 252 93 77 60
313 683 220 49 30 36
393 432 140 79 26 33
279 309 303 140 104 79
311 289 213 119 93 63
306 285 218 111 90 65
305 289 217 110 88 64
395 861 348 68 52 49
320 274 208 122 95 63
318 279 209 122 95 62
236 587 218 185 121 91
236 569 207 175 118 88
421 745 288 52 43 36
275 881 347 36 33 34
361 358 253 116 93 67
320 279 208 119 93 63
333 796 219 88 70 62
257 574 270 75 25 35
360 354 221 100 86 72
380 532 133 149 51 65
267 512 158 161 5 37
406 770 194 147 102 67
314 284 211 122 95 63
301 384 218 97 78 57
314 289 211 120 94 62
333 897 227 80 68 65
317 285 209 118 93 63
472 823 268 92 76 66
288 629 240 113 30 43
329 465 121 89 70 52
320 284 208 115 91 63
304 274 231 92 76 58
294 908 359 64 57 55
334 369 264 93 72 50
349 384 206 87 77 68
343 484 350 132 12 40
284 973 286 69 66 68
305 274 226 99 81 62
274 424 328 96 22 35
303 279 226 92 77 61
298 309 220 113 88 59
331 510 91 176 17 45
309 912 227 80 70 67
327 933 257 71 64 66
302 278 231 90 75 57
373 644 215 118 19 34
315 880 236 55 52 54
289 739 343 73 30 37
319 264 247 77 65 53
265 916 252 70 62 57
243 520 207 36 29 31
330 669 213 118 8 30
304 274 236 83 69 54
385 456 87 91 41 37
250 666 264 138 99 75
301 280 232 86 71 55
366 886 279 77 66 59
304 279 240 77 66 54
331 412 341 103 10 35
399 494 121 85 32 40
241 947 324 68 62 60
385 579 307 180 10 57
299 289 226 89 75 60
415 826 288 65 52 45
299 289 231 82 69 56
301 281 228 88 73 58
290 319 245 75 62 46
302 283 224 89 74 60
249 784 345 169 119 91
302 312 248 67 55 41
321 916 239 77 68 67
312 492 94 77 31 24
396 555 308 84 31 40
298 289 236 79 67 56
301 285 239 81 67 53
409 515 188 155 115 106
291 286 253 97 80 61
244 950 311 76 71 71
384 486 104 59 33 41
303 289 242 74 63 53
228 749 306 161 111 79
407 563 261 82 33 40
307 259 226 102 83 62
389 439 186 45 24 33
307 259 231 94 78 60
307 262 225 103 84 63
350 836 368 56 48 41
306 261 232 93 77 59
265 837 320 123 80 59
