ply
format ascii 1.0
comment Created by Open3D
element vertex 2220
property double x
property double y
property double z
property uchar red
property uchar green
property uchar blue
end_header
210 637 273 74 28 25
229 203 277 113 92 71
345 835 211 95 73 58
295 484 327 64 21 31
225 208 276 111 90 68
302 501 325 102 19 39
408 419 209 127 9 35
236 694 254 41 34 35
232 201 279 112 92 71
294 943 362 65 60 60
486 504 305 87 52 43
182 456 279 103 4 32
417 626 250 180 123 95
199 798 318 189 137 114
234 208 282 113 92 69
239 203 284 114 93 71
344 68 232 133 76 74
419 573 276 146 97 84
237 208 284 114 93 70
188 431 249 95 7 29
223 498 206 71 27 33
314 78 217 115 76 66
193 418 287 64 33 34
240 204 285 116 94 71
317 844 220 97 75 62
240 208 285 116 94 71
217 785 255 49 47 48
399 846 363 83 65 53
184 503 217 132 17 40
331 202 289 121 97 71
254 913 287 81 70 68
409 838 357 79 64 51
214 318 257 130 97 67
324 753 214 87 29 34
227 213 279 113 92 71
434 502 329 66 23 30
369 849 342 51 51 53
187 467 304 63 20 28
451 495 261 113 16 37
230 213 281 113 92 70
403 663 232 174 118 89
306 445 364 88 27 38
312 427 347 84 11 27
229 218 281 112 92 70
251 264 240 126 98 65
309 128 252 102 79 56
422 521 323 51 28 34
204 408 252 121 102 87
226 487 199 126 6 34
253 314 300 94 71 46
199 578 257 75 30 35
164 603 262 169 118 89
309 223 248 136 100 62
258 138 243 126 94 58
210 793 263 183 122 91
330 570 321 92 2 30
363 678 272 67 30 37
179 558 252 111 70 56
289 713 338 167 5 54
226 223 280 113 93 71
152 437 241 100 79 58
437 462 289 89 15 39
430 548 292 135 87 79
249 412 187 86 69 52
236 214 285 114 93 70
202 438 319 124 6 37
342 408 272 101 84 65
262 294 254 86 74 62
339 728 323 153 19 51
288 906 274 87 78 76
444 848 337 110 90 70
272 333 302 100 75 58
239 213 286 117 95 71
324 43 222 102 84 67
302 458 361 107 25 41
235 218 285 114 93 70
229 308 244 125 96 63
324 258 261 148 101 69
254 263 242 124 97 66
374 703 256 100 43 42
174 588 246 152 110 78
404 635 254 175 118 92
261 273 266 83 68 51
172 510 267 135 4 41
159 478 237 116 85 68
372 643 243 75 41 32
232 222 284 112 91 69
362 478 209 59 37 40
210 343 267 111 89 65
234 223 286 115 94 70
289 238 287 103 82 60
161 592 267 160 111 84
431 542 295 138 89 82
242 590 230 38 33 35
304 488 193 117 9 27
239 218 286 116 94 70
383 858 347 65 55 49
263 68 274 120 21 44
411 495 230 150 10 34
243 417 166 134 47 31
225 923 357 58 55 56
249 198 283 117 95 70
349 448 307 55 25 28
282 418 194 105 24 29
368 653 238 60 42 29
254 308 243 97 84 72
335 363 297 109 88 65
341 70 232 143 115 97
196 801 284 200 132 104
440 443 232 102 30 41
255 198 278 112 89 63
336 798 194 62 52 48
229 243 286 116 92 67
414 503 233 51 32 36
255 203 278 111 88 62
326 845 322 36 32 32
258 677 329 63 28 32
164 462 237 117 99 95
142 479 246 160 111 90
162 460 272 101 64 52
181 753 292 163 112 82
179 418 217 80 40 34
349 604 318 150 19 51
209 413 227 88 74 61
324 142 229 150 107 72
372 531 239 37 34 36
298 833 241 62 52 51
236 720 244 124 15 31
254 747 331 68 44 45
244 213 286 118 96 71
248 213 285 117 95 70
263 113 270 121 95 70
219 403 242 93 80 67
176 501 244 133 14 40
364 834 362 47 42 40
346 67 206 118 41 42
175 513 248 64 31 32
248 218 286 117 95 70
313 249 315 117 94 68
251 875 304 103 79 58
282 335 329 134 97 76
276 294 289 100 83 66
248 223 286 116 93 69
229 263 288 119 93 66
255 213 278 113 89 65
306 532 319 57 28 28
429 553 267 119 90 57
396 794 238 133 88 60
385 559 322 197 5 63
249 693 241 47 35 38
250 213 283 116 93 68
311 88 223 103 53 43
331 475 309 70 17 28
196 418 262 80 67 53
284 453 309 32 26 26
200 408 257 108 86 72
259 932 308 87 79 80
332 355 310 116 92 65
300 788 224 79 62 54
296 262 269 125 90 59
253 213 281 115 92 66
379 836 355 50 48 48
256 223 278 112 87 63
184 418 222 71 38 34
309 458 314 102 2 31
265 223 262 107 88 69
300 234 305 111 91 70
201 791 269 184 120 91
314 643 229 124 13 28
251 218 284 115 92 68
387 417 194 171 10 43
251 223 284 115 92 68
246 869 385 126 101 79
384 724 202 73 61 49
260 438 322 41 22 24
253 218 281 115 91 66
148 523 267 163 113 92
208 393 297 120 95 66
217 263 245 125 95 59
329 843 212 120 91 69
480 498 292 138 104 87
271 104 257 132 89 71
253 223 281 113 89 65
278 473 367 61 25 31
176 648 280 173 123 97
180 458 277 94 8 29
254 524 195 49 36 38
381 579 298 96 35 44
228 228 283 113 93 71
173 468 207 112 26 41
255 698 341 126 15 42
259 78 271 98 68 55
231 225 285 113 93 71
163 498 242 153 96 86
278 889 266 79 71 70
219 378 246 93 80 66
391 820 253 111 72 59
322 477 316 64 24 31
230 233 285 113 90 67
260 38 281 129 24 49
234 228 286 115 92 69
227 659 298 146 16 47
294 718 222 61 33 37
294 598 331 99 9 31
290 337 335 140 100 80
239 228 288 116 94 70
174 473 272 85 11 28
202 454 204 110 5 25
280 353 322 126 94 73
258 263 281 72 59 45
234 238 288 116 91 67
401 478 218 87 26 31
261 233 274 83 67 49
394 598 257 81 39 32
324 846 218 129 97 67
223 453 196 120 3 31
410 474 280 119 6 35
304 158 252 103 83 61
227 242 284 113 91 67
417 771 183 123 91 64
249 543 201 52 32 36
181 724 269 148 105 72
171 462 208 121 26 38
239 278 292 108 85 61
268 88 232 110 45 38
229 248 287 117 91 66
359 833 282 39 36 34
309 108 247 110 80 61
169 424 194 91 34 35
389 822 367 51 43 37
245 816 254 83 66 60
306 466 200 82 25 26
226 253 285 115 91 65
142 461 250 137 100 77
234 243 288 120 95 69
172 597 279 138 102 76
233 433 176 147 0 37
227 662 281 69 26 33
370 668 218 126 95 62
372 849 302 61 49 45
210 463 210 105 9 23
249 233 286 116 92 67
326 794 299 80 65 58
220 363 248 100 84 67
265 353 256 79 69 59
484 492 264 185 131 118
179 458 198 139 9 34
261 306 294 66 51 34
321 915 347 71 65 63
313 893 387 41 37 35
250 269 240 133 102 69
265 213 262 109 90 70
315 874 393 42 38 36
208 560 230 180 11 44
231 264 290 119 93 67
277 415 164 50 42 43
251 228 284 114 91 66
218 348 251 106 87 66
166 476 269 74 59 56
324 733 326 146 25 52
226 276 239 134 102 67
354 728 318 180 5 58
325 144 230 149 107 71
290 303 340 126 93 71
244 603 333 70 25 33
360 421 233 74 24 30
161 478 242 87 56 42
455 508 316 87 48 46
321 361 265 96 86 75
251 233 284 113 88 64
289 453 378 146 17 46
227 664 293 120 16 41
433 424 198 128 26 32
277 97 261 118 26 43
284 523 347 172 11 55
323 77 255 110 81 63
253 228 281 112 88 64
359 793 171 99 74 58
189 418 217 75 54 44
447 450 288 57 21 25
314 247 314 118 94 67
326 585 335 120 12 35
225 419 187 76 48 43
253 233 282 110 86 61
286 318 335 133 95 75
140 453 257 133 96 76
221 331 249 112 89 63
450 435 241 114 24 41
249 238 286 116 92 66
289 849 372 42 39 38
291 573 329 134 23 48
249 243 286 114 90 65
210 418 218 78 60 50
279 673 334 123 17 43
220 283 281 116 92 66
284 563 202 175 9 41
251 246 284 106 83 57
273 518 190 154 0 35
412 609 234 129 99 62
264 73 213 151 19 42
241 431 169 171 4 42
144 498 257 159 111 86
304 404 217 100 89 71
254 243 282 100 78 54
331 352 308 115 92 66
249 253 287 103 82 57
298 10 292 125 49 55
384 423 212 85 21 32
282 76 265 129 12 48
219 283 247 125 95 60
490 503 287 163 119 96
374 583 246 135 12 31
224 498 336 150 0 47
252 253 285 93 74 52
239 233 289 117 93 68
334 558 302 55 19 27
239 238 289 119 94 69
311 92 223 125 31 43
214 553 218 99 26 40
176 470 280 102 13 32
269 338 257 75 65 54
339 573 332 101 7 33
193 433 257 88 11 30
434 553 291 195 134 114
216 278 248 124 94 58
167 443 218 55 30 35
399 436 259 85 9 28
308 182 283 103 84 64
187 560 277 57 29 33
400 663 226 159 109 80
235 248 290 121 94 68
314 203 296 109 90 71
205 373 262 113 91 66
314 393 242 104 89 72
284 798 308 161 113 92
238 242 289 121 96 70
234 688 257 43 34 37
223 263 283 117 92 65
338 14 286 140 47 64
213 298 267 120 90 64
170 473 232 84 32 42
174 443 196 147 0 30
236 245 290 120 94 68
319 233 250 144 103 65
360 543 232 101 27 39
304 24 271 135 39 50
249 618 331 62 25 32
156 458 276 134 94 78
389 758 262 168 119 87
231 916 372 60 57 58
179 417 222 85 30 31
179 518 247 46 32 33
280 332 266 68 57 46
233 253 289 118 93 67
239 253 290 121 95 69
347 771 210 69 56 45
162 513 270 98 52 45
227 374 245 90 78 66
344 849 246 70 58 54
226 643 302 136 22 47
244 473 187 54 36 39
208 408 307 114 91 66
418 517 302 156 4 49
253 288 244 110 90 69
215 378 248 92 79 65
293 478 367 165 12 52
183 503 222 97 24 39
319 64 259 125 17 46
328 623 229 67 33 37
345 73 222 122 24 46
471 508 269 147 97 80
240 240 290 122 97 71
304 73 242 101 52 45
244 243 289 120 94 68
364 593 312 193 8 61
186 440 282 48 31 32
336 138 252 116 93 68
211 278 270 126 94 70
410 838 341 59 47 39
244 248 289 118 93 67
254 402 227 92 78 63
146 463 238 145 105 86
324 188 288 111 91 71
451 455 270 75 18 28
245 253 289 115 90 64
380 825 371 46 38 34
276 396 245 78 66 52
149 448 262 70 45 32
430 505 277 136 18 41
225 258 238 128 96 60
299 493 187 106 14 27
254 553 202 107 29 39
399 503 223 134 16 35
214 258 247 125 94 59
497 845 337 107 83 64
264 36 245 111 95 78
324 28 277 151 55 68
214 713 301 80 54 38
209 733 308 141 103 74
371 718 262 138 17 45
329 173 278 115 93 70
291 275 325 104 85 66
332 100 250 109 80 56
397 776 178 99 73 60
233 469 191 132 9 35
215 263 248 126 95 59
235 912 386 62 58 58
147 489 240 170 118 102
209 443 215 95 17 28
210 258 257 123 95 61
211 263 253 127 96 59
300 537 324 62 24 31
322 423 351 164 22 53
244 493 193 132 20 40
298 845 347 56 49 43
444 848 341 108 91 76
216 688 288 57 32 25
212 259 250 127 95 59
212 263 251 128 96 59
215 268 248 126 95 59
236 461 184 99 29 34
293 272 323 103 85 66
211 268 253 128 96 60
177 479 211 44 31 37
305 78 237 102 53 46
249 513 325 53 20 27
156 457 263 65 35 35
254 793 242 82 65 58
168 448 202 143 14 40
210 268 257 128 97 64
461 483 266 84 18 29
221 908 337 51 47 48
213 268 251 128 96 60
179 437 249 96 6 30
451 522 315 162 114 104
344 423 307 101 48 43
248 383 239 93 80 67
278 496 319 73 21 30
181 502 233 145 3 37
213 273 251 127 94 60
344 788 187 60 50 45
234 423 172 135 10 36
258 158 271 114 89 62
439 447 282 78 17 26
221 420 204 59 48 41
219 258 242 125 95 58
359 473 277 108 14 35
306 812 229 80 63 57
191 464 310 45 21 25
269 368 254 78 66 54
294 448 197 124 9 31
329 852 238 83 68 62
309 423 367 115 27 42
217 258 245 125 95 59
329 20 284 141 97 77
157 564 262 159 110 84
220 263 243 124 94 58
348 43 247 127 31 49
222 258 240 126 96 60
222 263 240 126 95 59
171 528 252 104 71 62
458 527 311 185 127 104
169 474 270 52 23 27
221 903 342 49 47 47
283 931 304 85 79 80
414 443 207 141 13 33
289 383 246 96 82 68
223 410 228 92 78 63
319 728 217 93 26 33
284 333 267 73 61 49
154 453 231 105 74 59
219 523 203 119 7 28
212 363 289 121 95 66
239 578 341 67 24 34
324 262 264 145 99 68
305 93 232 109 33 39
332 170 275 117 94 69
217 268 245 124 94 58
314 318 328 131 95 66
393 552 239 72 34 41
388 802 198 86 64 52
249 403 318 98 78 55
235 827 273 75 62 60
234 373 243 88 77 67
179 528 252 56 37 33
220 268 243 125 95 59
347 32 261 131 44 54
287 468 360 68 13 28
218 273 246 123 95 60
414 523 332 79 30 38
220 273 243 126 96 60
444 473 312 47 24 27
301 170 249 112 88 57
193 538 313 165 0 50
249 323 242 92 78 65
203 458 323 146 6 45
379 813 271 147 106 87
440 435 245 76 13 28
175 513 287 125 13 40
469 833 332 106 85 65
223 268 241 126 95 59
289 889 247 85 72 67
201 444 320 131 5 40
459 844 352 88 75 66
164 438 228 67 33 31
298 193 272 103 83 60
290 218 272 99 79 57
211 276 254 129 96 62
211 278 257 129 95 62
184 553 277 41 29 33
327 442 335 149 18 48
220 394 244 91 80 67
174 471 269 71 16 28
213 278 252 127 94 59
188 513 222 151 11 42
212 280 255 129 94 60
371 849 286 70 57 56
343 493 296 47 24 29
295 405 198 112 66 38
265 840 366 125 98 77
211 283 258 129 94 62
334 111 216 128 78 67
274 678 236 94 22 29
204 428 216 62 34 38
156 562 262 161 111 85
327 333 287 115 92 67
291 273 279 107 81 53
198 449 203 114 6 24
214 283 252 124 93 57
378 491 229 144 10 38
149 488 237 182 125 110
399 623 259 158 106 88
212 283 256 129 94 62
347 27 267 136 27 52
486 498 305 90 54 49
234 338 244 94 79 65
353 798 285 67 53 47
210 268 262 126 95 64
464 473 277 119 9 35
344 840 306 34 32 32
170 463 212 137 15 41
290 238 264 126 93 63
359 766 185 54 44 42
212 288 256 127 93 63
166 607 258 173 118 89
349 753 216 68 38 37
188 440 199 119 5 24
221 328 249 115 90 63
290 478 348 62 23 34
234 333 243 95 80 64
319 744 319 69 57 49
221 278 244 123 95 60
309 353 331 139 99 73
242 425 340 123 13 41
199 773 318 155 119 88
213 318 262 122 93 65
224 278 241 130 98 63
219 288 247 124 94 60
334 788 297 69 54 48
270 363 304 75 50 36
221 282 244 123 94 61
189 648 252 173 115 87
329 53 193 134 27 14
290 464 310 38 28 28
334 883 277 89 77 72
227 703 309 134 29 49
284 532 189 135 7 32
396 694 225 143 100 70
147 478 236 105 84 60
224 288 243 132 98 65
208 368 282 123 95 67
222 288 245 126 95 61
189 583 251 112 76 55
341 388 297 113 90 63
211 263 271 121 94 67
235 468 339 51 28 31
217 288 250 123 94 59
271 336 289 81 62 50
314 279 270 137 96 64
215 293 252 122 94 60
399 434 257 84 10 28
213 298 257 120 93 62
215 298 252 119 92 60
279 832 352 117 95 72
320 459 333 155 13 48
245 723 336 173 16 56
343 601 325 74 26 35
384 798 191 99 75 60
454 457 272 71 20 26
148 503 268 155 111 88
322 436 327 98 26 36
188 513 313 95 28 40
213 303 257 124 95 64
283 473 169 145 6 33
144 478 267 157 111 92
215 303 253 122 92 61
262 701 344 89 32 40
331 123 227 125 98 66
146 486 239 178 121 106
191 439 262 76 15 27
224 293 243 130 99 66
349 877 283 69 58 55
328 877 267 67 60 60
286 258 274 106 84 58
229 417 202 72 62 53
164 481 250 70 50 37
269 678 237 79 25 29
217 293 250 121 94 60
219 298 247 122 93 60
266 467 174 60 38 39
172 490 245 35 33 32
383 802 192 89 66 53
224 298 243 127 97 65
292 557 330 37 27 28
413 638 237 164 115 81
238 323 298 115 89 61
254 678 241 68 29 37
499 864 341 99 82 68
254 458 177 122 31 45
291 214 272 100 80 57
143 488 262 158 110 89
225 303 244 125 97 65
213 308 257 131 96 67
215 308 253 129 96 63
248 759 235 69 56 52
179 433 248 97 8 32
294 643 230 65 36 42
324 891 279 75 68 65
213 313 257 132 97 67
415 554 267 77 54 48
260 123 246 126 92 60
141 445 257 102 82 63
164 455 255 53 39 35
404 838 358 75 61 49
224 308 245 128 99 66
318 648 229 110 17 28
364 448 263 121 8 37
339 33 232 110 95 79
384 708 213 107 83 54
213 418 216 79 65 54
254 945 330 72 67 69
335 148 257 118 95 69
220 313 248 125 95 63
417 546 260 63 33 33
224 313 246 126 96 64
219 393 246 91 79 67
414 512 312 42 26 27
265 198 257 108 88 65
230 908 313 64 58 57
217 309 250 126 94 61
284 950 337 91 85 87
492 490 306 134 106 86
320 249 255 148 103 69
393 563 292 50 26 32
419 884 357 83 62 48
362 496 214 78 40 37
507 884 230 83 83 83
224 318 248 123 94 62
319 857 238 109 84 68
278 373 312 121 86 68
336 232 289 121 95 64
409 538 238 149 17 41
333 69 189 109 44 38
190 573 257 74 53 43
218 318 251 121 93 61
249 348 246 83 72 62
277 373 309 121 84 67
292 213 256 118 90 57
264 593 222 129 26 43
221 318 249 123 93 62
321 96 198 133 16 43
305 11 282 128 59 65
229 258 236 132 99 62
234 268 237 135 101 67
296 664 229 36 37 37
296 474 343 56 24 32
384 424 227 96 16 38
259 418 158 112 33 43
186 484 310 84 21 33
264 233 262 105 86 64
247 935 369 58 54 55
449 502 272 43 31 37
225 268 239 128 96 60
174 578 245 142 106 75
389 798 192 90 66 54
244 283 241 133 101 67
399 546 239 87 21 31
234 263 236 134 100 64
344 839 297 33 31 30
263 289 286 71 62 52
419 598 268 189 124 99
364 833 382 55 46 37
318 653 320 75 27 37
269 568 334 139 18 47
353 613 307 115 30 46
239 258 236 133 101 65
216 323 254 121 94 62
239 273 239 138 102 69
312 809 225 67 55 50
311 123 256 103 80 57
325 353 272 98 85 71
239 748 236 89 33 38
239 263 237 134 101 66
234 273 238 137 101 68
195 583 256 69 47 44
239 268 238 136 102 68
224 328 291 121 95 68
302 197 250 122 92 54
388 421 199 154 21 49
238 277 239 141 104 71
209 428 332 80 29 39
365 863 292 81 68 66
361 629 283 176 5 56
341 421 309 106 79 57
258 703 344 75 29 38
305 63 251 101 47 48
229 283 240 134 101 68
453 429 237 73 21 36
235 280 240 139 102 68
258 58 273 98 43 40
394 808 257 161 116 89
318 433 323 94 61 47
234 288 241 130 96 64
197 810 296 218 142 114
259 443 166 79 27 37
276 671 234 67 31 35
227 706 309 113 20 39
296 748 219 125 17 33
173 478 232 69 31 36
331 68 254 120 76 62
284 549 195 162 11 41
219 298 282 118 94 68
252 473 326 29 24 23
405 816 210 94 71 58
239 288 242 132 99 67
249 258 238 132 101 68
314 328 273 94 82 70
244 268 239 134 101 68
233 918 367 77 70 69
223 433 192 111 15 34
234 358 307 115 91 65
219 409 232 91 77 64
240 498 333 65 11 23
309 73 227 115 46 42
279 308 277 111 87 71
189 713 296 153 106 78
243 273 239 137 103 70
424 427 227 70 19 25
402 810 214 85 66 58
248 267 239 134 103 68
254 318 301 101 72 52
301 214 295 112 91 69
252 257 239 129 99 66
195 502 203 76 32 40
252 262 239 128 100 68
218 383 245 88 76 65
390 818 257 129 88 70
319 568 317 113 8 35
241 873 313 155 117 89
319 155 275 106 87 66
339 383 302 115 92 64
185 763 306 158 114 83
226 647 288 153 12 48
245 273 240 134 101 69
379 483 227 146 4 33
322 830 205 82 67 58
448 875 295 92 74 62
354 703 321 145 4 45
246 270 240 135 103 70
388 753 261 168 119 88
255 258 241 125 97 65
254 388 313 121 89 65
199 483 322 132 6 41
266 680 335 69 36 39
174 438 249 96 10 31
254 268 242 122 97 68
235 740 239 99 25 33
378 729 168 119 82 46
230 359 305 111 89 63
256 182 240 132 104 71
174 423 196 103 30 38
363 673 232 88 70 53
254 273 243 123 97 67
249 278 242 131 99 66
265 849 370 122 86 74
347 43 232 104 49 46
341 789 193 50 44 43
444 488 242 140 12 33
244 288 242 128 99 69
423 468 227 110 24 38
289 53 267 126 27 50
355 714 218 76 40 42
249 288 243 120 95 68
329 869 382 56 51 49
253 278 243 122 96 66
405 539 288 134 17 46
214 463 332 90 24 37
159 493 238 168 122 108
406 588 265 125 80 70
158 453 227 67 36 36
255 278 246 112 90 65
354 528 218 101 23 37
174 417 227 100 17 30
286 63 257 117 29 44
378 420 212 78 19 27
218 388 246 87 76 65
313 483 327 97 26 40
253 283 244 117 94 67
190 513 217 148 13 45
255 283 245 109 89 67
171 480 275 90 8 30
219 598 323 63 27 32
181 763 296 166 115 84
255 288 245 102 86 68
234 538 199 138 12 36
154 476 229 179 123 109
333 368 312 121 95 64
229 303 243 124 96 64
184 473 302 62 29 33
359 838 302 35 32 32
166 489 250 91 34 34
415 613 236 134 100 64
251 508 194 59 34 34
409 478 214 101 24 35
325 93 194 158 30 54
347 602 229 65 27 35
234 293 242 134 97 68
481 886 247 115 93 68
217 406 240 92 80 67
234 298 243 126 93 61
269 618 233 157 13 40
264 852 372 64 53 48
338 203 267 120 96 68
234 303 243 117 90 60
284 263 292 97 78 57
299 438 357 84 20 34
279 11 302 128 80 64
260 921 294 90 81 80
326 283 313 130 101 66
210 363 257 105 86 67
368 839 291 41 35 33
403 593 264 129 82 72
314 783 218 74 60 52
153 434 255 81 53 39
326 373 265 110 94 77
338 233 267 127 99 65
394 808 242 117 78 61
199 458 202 118 7 24
261 148 246 122 93 61
473 497 307 61 21 25
260 493 319 29 25 26
337 224 285 118 93 64
254 438 327 34 24 24
315 278 323 120 93 60
282 297 328 111 87 60
239 298 243 120 93 64
181 743 268 167 113 87
287 840 360 74 65 55
245 467 184 73 37 41
170 420 203 100 33 40
271 403 303 49 38 33
239 303 243 111 91 67
359 458 277 120 6 38
228 314 245 124 95 64
157 568 262 160 110 83
254 338 305 127 90 66
197 554 241 56 33 37
294 268 272 123 88 59
274 98 242 120 40 42
354 838 302 35 32 31
323 273 316 123 96 63
191 484 315 135 2 40
229 318 245 117 92 64
181 673 268 153 105 76
231 318 244 114 91 64
239 313 242 109 89 68
417 476 218 67 29 33
234 318 243 111 89 64
272 53 233 65 39 26
173 643 272 171 118 89
195 593 292 41 29 32
360 478 272 78 17 32
310 548 318 88 20 35
158 450 274 126 95 84
300 453 348 74 24 33
216 502 205 78 27 33
499 873 336 108 89 71
353 752 306 77 62 56
321 910 320 65 58 55
430 454 226 100 20 34
163 433 201 114 20 38
237 644 260 149 3 41
166 448 207 96 25 39
244 293 243 119 95 69
321 379 324 134 98 69
249 293 243 111 91 69
474 494 302 55 22 26
249 298 243 105 88 71
211 753 254 118 86 50
249 303 243 101 87 72
202 383 272 120 94 66
264 861 384 73 65 59
253 293 244 104 88 71
264 198 262 109 89 66
352 556 224 159 0 35
255 298 245 97 84 72
304 453 342 67 28 36
264 58 277 119 93 72
334 846 227 89 69 60
293 473 371 165 14 51
229 392 243 91 78 66
255 302 245 96 83 72
369 822 222 88 66 57
244 313 242 101 85 69
369 723 297 148 21 49
328 263 307 129 98 64
279 68 273 123 31 48
342 881 317 54 48 46
160 424 207 162 11 41
404 871 311 74 62 56
249 308 242 100 86 72
240 339 246 91 77 64
249 835 357 82 68 56
474 512 304 89 56 45
264 411 172 86 54 45
152 472 274 86 58 39
325 58 193 116 31 21
249 318 242 94 80 67
484 498 282 99 46 40
221 438 340 139 18 45
449 498 262 53 32 36
327 456 204 68 37 36
264 283 272 72 60 46
374 638 222 97 80 62
206 369 281 123 96 67
254 313 242 94 82 70
245 799 314 68 54 49
263 228 271 86 69 50
405 753 181 92 72 65
335 158 257 117 93 66
288 42 280 120 65 61
254 318 242 92 79 67
349 876 362 49 42 38
334 83 191 148 21 41
215 323 257 124 96 65
290 48 272 124 68 66
199 812 297 214 139 111
304 18 302 177 125 121
234 379 315 119 93 66
175 543 256 121 57 42
314 123 232 116 88 55
318 878 387 46 41 39
224 323 247 118 92 62
249 368 248 89 78 67
355 763 298 83 66 59
422 584 249 132 100 63
330 54 259 119 37 48
182 457 288 119 7 36
222 448 197 118 4 34
237 351 304 111 88 62
314 58 260 112 54 54
244 293 297 103 81 56
224 328 247 110 88 62
216 328 254 117 92 63
336 382 277 101 84 66
253 764 235 72 58 51
237 532 199 149 1 33
330 163 273 115 93 68
221 424 203 49 35 33
302 573 325 105 28 43
254 622 330 147 24 50
226 654 293 53 29 32
335 489 210 145 3 30
219 333 252 111 88 62
213 318 277 124 95 66
216 333 254 113 89 62
224 333 248 104 84 62
226 340 295 116 93 66
246 405 229 93 79 65
366 514 230 147 1 37
229 438 345 130 23 47
213 348 257 109 88 66
349 458 302 65 23 30
456 515 274 143 102 77
312 93 254 98 22 39
219 338 252 108 87 63
433 478 297 80 16 28
317 114 226 135 96 71
259 138 271 118 92 63
162 598 267 163 111 85
369 439 261 115 14 36
256 683 239 48 33 35
214 338 257 112 90 64
300 364 254 98 84 70
224 713 257 86 24 30
219 343 252 106 87 65
168 473 242 48 33 36
320 78 193 132 16 38
289 233 282 101 80 56
190 428 287 56 32 33
216 343 254 108 87 64
374 826 233 95 68 60
314 744 319 67 55 48
221 338 249 107 87 64
254 808 246 83 66 60
207 483 329 57 23 28
224 338 248 102 84 63
438 449 273 63 16 27
180 738 272 165 111 83
222 336 250 106 85 62
333 358 302 110 89 65
333 482 305 146 19 48
369 478 268 39 24 26
346 79 206 152 31 57
253 358 249 83 74 64
329 29 233 127 58 37
282 495 175 180 6 39
221 344 249 101 84 66
313 390 244 105 89 72
169 473 237 58 35 33
211 527 204 165 6 40
349 836 360 42 38 37
219 343 291 120 95 67
224 353 247 95 81 67
427 537 282 83 34 32
399 463 273 36 24 28
209 518 202 125 16 35
334 93 247 110 32 44
226 733 316 104 84 70
354 773 182 60 48 43
189 443 262 87 8 29
260 638 244 127 13 34
239 463 337 80 25 35
368 503 228 119 16 37
440 440 250 65 23 20
218 353 251 106 88 67
269 583 333 47 30 33
220 353 249 103 86 67
325 448 333 58 25 31
439 438 247 74 8 28
415 483 227 141 15 40
250 678 325 39 27 29
219 468 207 111 10 30
142 483 257 158 111 86
312 436 362 108 29 43
220 438 207 76 30 33
299 288 337 110 86 60
252 400 238 93 80 66
289 523 327 37 25 27
200 418 253 52 37 32
294 893 397 47 41 39
207 383 256 102 84 64
204 538 323 71 22 33
291 843 247 63 55 55
309 433 347 90 18 34
269 633 331 127 24 46
169 458 257 37 24 28
212 358 256 106 87 67
229 348 246 93 79 66
214 363 252 104 85 66
331 132 259 112 90 66
249 859 377 77 67 59
331 518 205 97 26 40
262 160 265 112 86 61
369 722 209 99 79 58
233 560 210 76 30 34
214 368 252 101 84 66
341 840 302 33 31 30
298 643 230 41 35 41
320 328 322 125 96 64
174 473 212 80 29 38
235 633 321 112 22 44
489 498 287 145 113 84
223 358 246 94 81 67
262 453 316 34 22 23
282 517 356 94 23 38
382 816 209 83 62 52
246 493 329 49 17 24
347 15 276 108 41 50
223 363 246 92 80 67
271 511 189 155 0 34
171 460 260 55 29 27
319 638 319 124 29 47
529 880 324 104 88 75
324 53 202 118 76 41
312 437 357 80 26 36
219 368 248 100 84 67
154 528 246 172 121 97
274 88 271 121 29 48
496 867 340 101 83 64
273 333 307 107 79 61
151 533 252 179 123 100
321 337 275 97 85 73
231 323 244 104 84 62
261 268 257 89 71 51
216 369 249 101 84 66
290 213 267 101 81 60
330 825 284 58 49 41
259 550 349 198 6 63
399 803 232 74 54 42
335 123 247 120 97 70
242 692 324 39 29 31
347 415 283 110 88 62
284 308 279 77 65 53
206 601 306 164 16 53
249 503 195 125 16 32
249 414 167 120 61 42
217 366 250 102 85 67
277 73 242 109 51 45
206 364 276 118 93 65
370 733 292 163 10 51
307 53 241 81 49 36
211 373 253 100 83 66
336 402 255 123 102 79
319 13 247 85 65 54
261 323 299 75 53 35
244 433 168 171 2 39
307 53 258 98 38 41
208 373 257 105 86 66
185 421 210 94 41 36
384 824 362 51 43 39
354 835 363 43 39 37
215 373 249 96 81 66
229 338 246 94 79 63
182 472 298 64 28 32
253 475 185 55 37 44
206 410 306 110 88 65
235 539 200 145 10 37
212 378 250 96 81 65
286 454 376 97 19 35
219 373 247 98 82 66
180 462 199 144 6 39
361 610 299 188 16 60
394 478 226 132 11 33
223 373 245 98 82 66
246 530 360 38 28 23
349 28 257 122 34 47
324 388 323 135 98 70
369 853 313 51 44 42
350 850 251 85 69 63
434 838 361 69 54 40
159 507 244 174 128 111
308 438 347 79 19 31
244 443 336 50 24 27
225 372 244 92 79 67
414 891 350 101 83 72
277 476 374 34 30 29
305 183 281 102 82 61
194 424 246 52 23 26
334 23 283 135 100 75
397 733 242 162 106 75
220 572 228 52 24 34
226 636 269 155 9 52
363 415 212 75 19 27
184 518 237 75 27 36
217 422 339 108 23 37
184 643 284 160 119 94
224 378 243 97 82 66
344 703 226 71 26 29
298 828 241 52 46 47
221 379 244 93 80 66
312 313 330 130 94 65
156 453 276 159 125 114
294 668 331 160 12 50
254 443 168 127 18 40
228 328 246 101 82 62
374 728 262 84 46 42
359 588 327 195 10 62
329 633 232 89 31 35
205 423 327 99 19 36
228 333 246 97 80 63
347 77 207 148 36 56
310 214 300 107 89 69
234 328 243 97 81 63
317 47 226 74 40 28
232 344 245 93 79 65
239 323 242 100 83 65
161 424 212 160 5 46
332 543 300 105 8 32
434 508 247 144 13 36
239 328 242 95 80 64
392 731 219 115 84 56
283 18 259 98 39 26
239 333 242 93 79 63
302 221 299 111 91 69
321 630 319 46 30 32
230 349 300 108 87 63
362 876 302 63 55 52
338 487 300 139 18 47
231 338 244 93 79 64
396 653 220 133 95 59
480 499 283 114 63 62
308 43 242 71 48 36
250 362 309 125 94 63
330 548 206 68 33 40
353 493 287 109 17 38
339 747 315 70 57 51
147 499 246 161 116 92
192 799 313 189 129 102
231 342 244 93 79 64
272 81 234 137 22 40
476 515 280 178 123 101
214 513 202 79 26 33
361 720 202 98 80 62
293 478 346 61 24 30
179 428 246 96 10 30
292 853 240 68 62 62
272 102 238 123 34 33
228 353 246 92 79 67
326 805 294 149 113 94
167 513 266 87 49 42
178 426 244 93 13 30
341 98 232 123 66 60
264 929 301 90 82 82
344 68 202 115 46 42
294 567 204 181 3 40
189 488 202 75 32 36
189 683 292 150 106 79
230 353 244 91 79 67
243 678 251 39 32 36
234 343 244 93 79 64
320 59 198 92 52 26
197 434 209 110 16 23
239 337 244 92 78 65
242 678 319 45 25 30
240 342 246 90 77 64
299 11 297 123 49 52
229 848 337 145 108 85
168 439 226 88 24 32
269 851 374 67 54 43
239 347 244 89 76 64
439 483 241 132 13 32
239 353 245 88 76 65
352 699 234 78 24 29
179 448 197 140 0 31
398 415 200 95 26 39
290 312 340 139 98 79
244 323 242 95 80 66
159 458 267 74 38 36
212 498 204 70 29 33
224 428 187 67 35 37
225 888 342 103 83 69
249 328 242 88 75 63
249 333 244 86 74 61
334 29 277 143 24 55
163 453 221 126 100 85
229 363 244 90 78 66
229 623 258 164 3 38
254 323 243 89 76 64
254 328 244 85 74 63
250 335 245 84 72 61
334 268 292 130 97 66
358 698 240 79 23 34
329 844 337 40 37 37
319 368 327 135 97 70
354 418 183 145 15 34
214 383 302 122 96 68
439 539 268 119 93 60
204 383 282 122 96 68
451 450 300 82 3 26
253 332 244 83 72 61
281 322 271 71 58 45
309 453 313 107 52 50
162 459 261 86 47 40
394 431 247 77 17 27
255 333 246 82 71 61
350 875 322 61 53 47
210 478 206 53 33 38
394 653 248 142 95 75
282 63 248 126 27 37
306 845 368 42 38 38
256 330 252 78 69 60
308 473 346 107 22 39
170 434 245 87 12 31
314 768 216 70 56 49
310 553 319 135 16 43
195 458 312 130 2 39
427 451 209 116 19 36
256 331 251 79 69 60
333 128 256 113 91 67
374 708 213 98 79 57
248 336 244 86 73 61
464 518 272 191 128 107
398 788 231 71 49 36
249 338 245 84 73 62
254 643 246 124 9 30
412 642 238 175 121 90
289 548 331 87 21 35
248 344 244 84 73 62
183 568 270 50 34 28
200 523 212 159 6 41
252 483 325 32 23 23
213 303 267 117 92 65
244 347 244 87 75 64
414 872 307 90 71 55
262 138 248 126 94 63
344 559 307 76 14 28
294 888 242 88 74 69
244 353 246 85 74 64
229 419 337 64 52 42
204 683 296 133 97 75
281 303 327 119 87 61
249 353 247 82 73 63
254 338 247 81 70 60
323 843 390 43 38 36
234 393 241 89 77 65
373 577 322 197 10 61
355 478 287 130 12 40
281 79 263 118 52 52
424 434 201 141 20 38
289 898 397 50 46 45
254 343 248 81 70 60
482 890 255 106 87 70
306 450 359 122 28 50
176 508 291 77 27 37
254 353 248 82 72 63
147 513 252 151 113 86
282 73 266 130 9 45
213 483 334 141 2 41
256 348 251 80 70 60
479 478 327 144 17 48
339 12 267 113 59 63
342 88 203 160 30 55
226 657 296 100 26 40
225 359 244 91 79 67
146 439 248 92 74 57
355 875 362 66 55 48
164 460 240 102 79 76
228 356 245 91 79 67
248 828 322 153 116 89
378 866 361 57 45 35
249 348 306 125 92 65
335 836 204 127 98 71
212 644 276 80 30 27
229 358 244 91 79 67
169 498 252 125 28 39
235 763 325 135 99 78
272 323 292 89 67 51
238 354 244 88 77 66
338 203 257 134 103 66
428 518 256 47 29 34
279 58 242 107 38 37
333 12 290 154 36 67
429 444 252 62 19 25
389 859 332 65 54 47
344 768 213 65 53 46
236 361 245 88 77 65
308 818 230 62 53 51
450 495 317 68 29 31
239 368 243 89 78 67
253 688 241 83 25 31
238 768 241 70 57 51
274 408 303 68 56 47
293 33 263 121 58 48
450 501 301 53 17 24
239 383 237 91 80 69
211 414 219 85 70 58
229 378 242 90 78 66
410 638 231 141 101 67
306 168 244 120 91 54
446 434 231 97 25 38
284 9 292 125 73 61
219 493 208 80 25 30
424 507 317 82 2 24
239 373 242 89 78 67
304 13 273 118 45 46
406 564 251 67 30 32
280 499 368 89 27 37
234 378 241 87 77 66
254 473 183 82 33 39
184 438 252 92 4 30
367 537 239 63 30 34
234 382 241 88 78 67
141 468 248 122 90 64
299 18 271 124 27 29
334 243 262 142 104 67
212 386 299 121 96 67
449 502 297 60 15 26
255 367 309 125 88 62
238 381 240 90 78 68
244 358 247 85 75 66
310 879 252 78 69 68
313 207 244 135 103 63
357 583 238 40 34 37
142 483 252 161 112 89
319 233 308 113 91 67
244 363 248 87 77 66
208 416 318 65 57 46
424 583 251 140 104 66
365 513 227 145 1 33
203 428 322 111 16 37
428 830 361 64 53 43
250 367 250 89 77 66
252 362 249 90 78 66
176 476 208 76 38 44
329 423 321 96 47 44
313 508 194 120 26 36
254 368 251 89 77 64
324 754 314 71 57 50
175 483 287 109 20 39
181 454 274 85 13 30
149 457 264 67 38 29
244 383 237 92 81 70
296 225 295 112 91 69
241 380 239 91 79 68
222 610 255 169 2 39
243 384 234 93 82 71
411 530 325 75 33 40
282 486 355 43 20 24
244 380 239 90 80 70
247 380 239 91 79 68
307 432 351 95 21 35
164 443 228 55 30 32
224 818 272 79 63 58
257 16 289 82 68 57
304 365 329 140 100 76
244 369 243 91 79 67
424 488 292 105 9 34
274 303 302 108 83 62
309 743 321 68 56 48
244 373 243 91 79 67
151 472 229 143 102 77
247 691 329 59 31 30
343 668 234 39 32 39
293 488 361 100 29 41
226 400 239 93 81 68
358 421 184 86 31 35
319 368 257 99 86 73
344 754 308 76 59 52
299 773 223 71 58 52
247 370 244 90 78 67
185 433 201 109 19 29
199 453 317 129 2 38
248 374 244 91 80 68
162 463 272 96 60 47
160 443 229 84 53 46
277 368 312 121 88 68
250 372 246 92 80 68
359 443 197 164 8 36
168 498 249 106 30 33
388 822 227 96 73 63
249 378 242 91 79 67
259 608 333 75 29 37
179 443 257 84 9 28
253 373 248 91 78 65
404 858 366 72 57 46
234 411 222 87 75 63
307 78 231 102 79 58
252 369 249 90 78 66
217 668 272 83 54 42
250 383 241 93 80 66
148 444 260 83 54 42
251 921 299 86 77 75
273 867 272 54 47 46
253 383 243 93 80 66
224 608 327 89 29 39
220 433 207 80 28 31
255 383 247 90 78 65
177 508 293 116 24 41
256 378 251 89 76 63
211 423 335 151 17 47
419 448 276 109 10 32
264 98 271 123 100 74
256 382 251 89 76 63
389 524 307 58 25 29
261 268 262 85 68 49
286 489 320 67 23 34
143 448 247 116 89 69
347 73 217 117 50 52
333 158 242 126 98 65
289 543 193 90 26 40
460 458 262 113 15 33
262 202 244 123 97 68
182 513 304 71 30 38
343 14 247 104 78 68
353 683 237 44 35 37
143 443 252 92 76 59
143 443 257 104 84 64
184 418 237 46 23 26
304 353 332 142 100 77
141 445 254 96 78 58
317 456 318 83 48 41
163 468 272 86 50 39
140 448 257 120 88 71
274 618 335 83 23 35
191 448 200 121 2 28
257 654 245 175 2 46
174 513 282 135 6 40
362 687 236 94 71 50
274 93 267 119 34 49
151 430 252 91 74 60
240 843 352 134 97 78
294 523 324 95 19 36
154 433 242 96 76 58
279 343 262 65 55 45
364 453 207 129 23 39
265 563 334 147 13 47
338 841 218 118 90 66
264 405 212 78 65 52
154 432 247 86 68 53
244 373 314 123 94 66
254 768 323 75 61 52
182 570 249 119 85 58
234 493 196 136 7 33
309 508 192 69 33 35
158 433 242 84 62 50
279 48 281 128 97 76
454 434 251 76 11 31
254 406 217 91 77 61
284 11 304 135 64 60
158 433 247 73 51 38
304 253 316 105 86 66
409 553 247 70 30 35
337 374 288 105 87 67
309 298 275 83 70 57
164 428 227 140 17 42
357 864 267 80 66 63
305 68 247 94 54 46
369 728 181 91 65 45
210 452 215 93 16 25
154 430 249 86 69 55
257 458 321 25 25 25
199 408 282 121 96 69
352 566 334 112 16 41
389 775 180 86 64 51
440 451 264 56 19 23
259 747 331 97 47 52
177 472 283 117 7 35
143 473 242 122 92 65
232 814 260 78 61 56
316 842 293 49 43 38
155 432 253 78 53 39
319 218 246 140 105 63
147 508 251 156 113 88
258 45 229 120 105 89
258 418 316 63 50 34
414 483 222 103 28 38
157 433 251 71 46 36
172 510 262 123 8 33
258 459 176 55 34 41
150 444 238 87 67 51
396 793 253 166 115 83
263 173 247 114 89 58
160 434 232 96 77 64
398 592 246 96 76 53
250 472 184 50 36 39
315 493 313 56 26 32
359 498 212 66 34 38
259 923 297 89 80 79
158 438 231 103 82 67
337 841 294 31 30 30
314 488 317 80 25 35
155 434 238 94 64 52
145 438 252 91 74 57
424 513 262 60 27 33
314 20 283 150 96 83
355 753 201 52 43 37
154 438 237 97 74 59
319 27 277 140 46 60
210 758 254 124 89 54
211 363 286 122 96 67
224 415 213 85 72 59
228 629 261 164 5 39
348 482 295 124 13 38
400 483 218 85 24 34
159 434 237 92 63 52
378 420 215 78 18 27
259 47 227 118 102 86
367 736 175 90 70 58
158 443 230 110 77 59
367 766 180 73 58 49
307 177 279 102 83 61
158 448 230 100 71 58
295 273 274 124 86 59
195 808 297 215 141 112
268 638 240 133 9 34
234 618 251 171 4 40
160 448 228 73 39 38
323 821 290 77 63 50
199 553 237 61 29 35
152 442 236 105 88 73
206 438 215 92 21 32
279 414 194 102 32 31
151 435 244 96 76 58
273 328 307 107 81 60
336 176 250 127 101 70
308 38 262 93 8 31
146 506 265 157 112 87
145 439 256 104 83 62
185 658 285 152 110 85
158 438 247 68 54 41
155 438 252 67 42 26
481 481 312 59 20 23
189 434 251 99 5 31
384 598 262 141 18 46
264 514 369 105 22 39
152 438 256 73 43 31
274 18 303 132 101 84
157 437 251 65 40 25
296 690 224 104 19 29
371 714 257 119 21 40
369 488 271 59 24 28
184 422 243 63 20 27
156 440 249 69 47 29
244 597 233 91 27 40
229 273 288 120 93 67
247 416 165 131 57 32
159 443 247 67 45 31
161 424 215 162 3 47
453 438 248 55 29 33
343 548 218 142 1 35
155 443 252 66 48 32
334 683 318 83 21 33
198 408 267 104 83 60
407 653 237 186 125 98
258 719 344 174 17 57
321 226 304 114 93 69
378 783 276 167 124 94
193 420 214 66 40 35
349 875 327 64 55 50
168 468 242 76 37 41
384 434 252 70 20 24
275 411 195 85 54 43
153 443 256 67 42 29
337 108 240 127 102 74
229 483 196 107 21 36
358 493 208 60 36 36
209 358 262 110 90 67
151 496 239 188 133 110
215 433 213 51 36 38
323 223 249 142 105 63
156 447 253 61 45 29
211 491 205 70 34 36
226 821 274 80 64 59
223 908 363 64 59 58
344 836 361 41 36 35
270 430 309 45 35 24
164 573 273 143 102 78
397 783 251 167 117 84
159 448 252 67 42 33
160 446 249 67 41 32
432 531 289 90 26 21
197 783 319 157 118 88
169 422 197 96 33 38
309 38 242 74 43 35
329 718 326 92 26 37
307 42 252 88 43 38
465 483 277 95 16 31
299 693 223 107 23 32
164 423 202 123 31 34
416 624 253 181 124 97
164 422 207 122 26 37
318 906 302 85 74 72
308 426 361 100 30 40
164 473 272 78 49 41
166 420 208 99 32 39
412 466 279 120 8 37
331 465 314 65 24 25
204 684 255 147 106 74
203 548 226 119 19 42
359 844 321 38 34 32
245 898 297 72 55 51
264 22 256 104 90 75
311 865 399 58 57 60
242 681 319 74 18 26
164 428 197 82 31 40
304 13 297 124 61 56
409 773 183 101 76 59
249 468 183 83 31 38
314 608 223 103 29 38
265 113 268 123 93 69
169 428 195 65 36 42
319 393 243 107 90 72
379 683 254 120 78 61
386 810 210 95 73 60
169 488 247 60 31 35
240 804 314 59 47 44
275 493 358 41 26 27
280 30 289 120 55 54
161 425 203 159 20 39
229 323 293 120 93 64
324 518 302 129 10 40
160 428 202 146 18 44
259 368 308 121 84 61
349 819 196 95 71 57
160 428 207 166 9 46
320 643 230 109 18 30
233 411 226 88 76 63
174 420 207 82 38 33
353 699 320 138 6 43
215 353 291 118 93 66
343 22 280 117 43 46
174 420 203 82 36 50
282 420 177 98 23 37
218 453 207 95 20 30
225 799 319 163 124 99
297 26 290 168 18 59
175 421 201 94 24 38
299 478 332 98 11 33
226 669 274 79 39 39
438 833 335 70 52 44
347 471 300 143 15 45
365 418 187 70 34 40
174 433 195 87 31 33
207 603 307 169 12 51
171 444 250 96 6 31
442 455 272 61 19 25
164 433 217 74 25 34
184 418 232 53 22 25
284 38 283 132 25 50
234 858 322 180 135 110
411 766 204 66 53 37
172 468 212 131 20 42
163 421 212 126 20 41
165 420 217 130 18 41
367 693 261 150 14 46
234 416 182 98 55 46
164 446 248 85 26 31
344 813 283 51 43 40
289 488 173 134 10 33
399 693 242 165 111 79
259 73 272 119 23 45
244 943 356 55 52 54
164 423 222 148 5 44
310 208 244 134 103 63
214 303 277 121 94 66
199 748 258 151 109 77
169 418 222 117 17 35
161 426 215 147 5 38
166 433 222 108 22 36
174 418 217 95 31 33
403 588 263 110 67 58
160 453 223 112 83 67
174 417 222 101 23 32
472 526 294 208 139 114
249 578 217 200 11 48
168 462 258 55 28 29
229 368 308 116 93 66
308 808 300 139 102 81
163 438 207 168 0 45
179 439 251 89 7 27
264 678 238 77 26 30
339 238 272 124 97 65
328 68 255 121 76 66
239 613 246 45 32 36
364 748 178 64 50 41
431 488 300 85 18 32
188 503 313 60 30 34
165 443 202 155 8 42
297 32 268 130 48 49
165 443 207 159 5 44
289 228 262 122 92 60
166 447 204 58 27 36
170 447 199 161 2 37
174 448 197 142 5 34
164 438 212 137 14 41
419 488 288 112 4 34
329 405 212 102 65 42
165 443 212 123 18 39
294 393 322 132 95 79
166 443 216 64 29 38
258 88 218 158 17 45
250 936 318 77 71 71
224 298 286 118 92 66
439 447 257 59 20 23
334 34 268 129 86 71
166 448 212 114 23 39
263 877 267 60 54 54
437 451 234 42 34 38
207 430 329 122 32 48
144 493 262 154 110 86
204 652 284 113 85 68
299 553 198 122 26 43
313 901 283 74 66 66
166 448 217 72 31 36
264 941 375 60 56 56
466 472 280 114 5 24
421 425 199 152 25 56
188 437 254 97 5 29
164 448 222 75 51 45
282 428 187 112 12 33
195 679 295 146 106 78
334 30 273 147 26 58
178 424 198 119 26 31
259 188 241 128 100 68
411 776 209 49 35 23
179 423 202 137 20 25
474 514 277 165 112 93
177 420 204 112 21 27
396 559 287 89 28 37
224 411 227 89 75 61
181 479 300 78 28 35
178 420 208 96 30 27
457 483 259 144 14 37
182 508 232 151 2 39
251 426 329 61 50 39
304 728 219 90 29 36
184 423 207 117 27 34
289 378 322 131 94 79
286 362 325 126 94 75
179 428 197 92 27 32
182 430 199 100 23 26
429 498 302 105 8 33
314 598 337 46 29 32
306 772 219 70 58 51
347 457 305 98 20 36
356 530 290 92 7 30
208 453 213 101 14 25
344 763 213 65 45 41
347 48 242 119 78 62
384 478 227 67 28 38
183 433 199 117 15 30
195 773 263 180 119 88
203 584 256 89 29 37
183 425 203 122 26 30
270 623 335 115 30 45
289 463 309 58 25 31
217 568 339 63 24 33
187 425 204 121 26 36
289 358 328 131 96 77
189 433 203 108 16 27
252 365 310 126 92 62
191 432 205 110 17 25
256 448 324 38 24 24
222 273 284 119 92 66
169 483 276 85 17 31
184 424 245 96 11 31
179 419 212 80 36 32
217 433 211 53 34 36
182 420 209 95 35 40
270 104 237 119 51 50
294 318 339 140 98 78
228 394 246 92 79 67
228 918 317 75 68 67
233 883 327 120 92 77
221 472 203 112 10 29
284 488 352 51 25 28
277 97 248 129 25 43
189 418 222 69 46 40
224 493 336 142 5 44
283 73 252 123 33 46
179 438 197 130 5 31
284 558 332 96 25 40
201 617 250 128 89 62
179 443 197 135 1 28
307 94 249 98 10 35
328 31 230 123 62 38
373 863 317 59 52 50
189 438 201 121 8 28
269 513 347 77 16 29
148 458 236 132 94 73
217 509 204 49 32 37
172 479 237 55 35 37
244 288 295 95 76 56
436 524 292 86 24 30
189 443 199 121 4 25
389 483 228 142 5 32
236 298 295 127 91 67
264 824 345 105 58 54
313 908 377 48 43 42
189 448 199 125 3 29
395 833 257 77 63 56
161 486 240 84 50 41
364 798 177 82 65 52
213 438 215 69 33 36
191 442 200 117 3 26
285 413 196 114 30 27
169 418 227 119 10 34
169 419 232 112 6 33
374 708 257 119 40 46
455 530 309 205 139 116
319 203 244 136 103 62
493 493 302 143 110 86
225 423 183 65 36 38
294 407 207 104 79 56
166 420 231 116 6 42
311 72 223 121 30 43
191 693 295 152 106 79
163 447 226 66 32 39
222 367 304 116 93 68
148 518 267 154 109 87
384 808 202 88 66 55
167 421 234 90 17 30
168 423 237 80 20 28
339 73 192 129 37 39
233 609 246 155 9 41
166 424 236 80 39 37
194 418 277 71 46 41
413 528 287 137 13 43
374 843 351 48 46 52
269 353 256 75 65 55
335 818 193 76 60 52
269 563 204 101 24 42
145 488 242 168 116 96
164 433 227 98 31 39
269 603 332 150 23 52
310 308 275 86 74 61
238 868 316 169 125 96
229 493 198 131 5 32
330 153 236 131 100 64
264 378 255 80 68 54
398 459 220 84 33 39
266 35 244 110 93 74
196 551 239 126 30 45
163 432 232 93 54 46
326 101 254 118 95 68
182 508 304 53 28 34
141 450 249 112 79 63
164 428 232 115 53 51
352 685 310 122 13 39
165 428 237 85 40 38
167 427 239 82 22 30
207 455 209 108 6 21
164 458 222 119 77 70
157 452 230 72 43 32
171 486 244 44 32 27
308 846 353 45 42 40
354 831 274 35 30 27
204 414 227 90 75 66
328 348 317 121 96 66
174 417 232 97 16 29
170 419 236 100 10 32
259 593 332 65 32 36
359 723 318 152 13 51
169 428 242 93 15 31
350 869 373 56 49 43
330 178 241 141 105 65
279 668 233 56 34 36
168 433 243 85 25 35
404 502 288 106 6 33
170 424 241 85 14 30
319 158 234 142 103 65
174 423 242 90 13 31
236 626 254 162 2 39
193 432 252 95 8 31
249 404 227 94 80 65
174 433 247 95 10 30
263 547 350 193 9 61
299 263 267 128 92 59
201 452 205 110 3 26
248 411 201 87 72 56
258 208 276 114 88 64
161 435 229 83 45 43
234 397 241 92 79 66
283 424 193 103 17 26
249 393 237 95 82 68
183 558 262 86 45 46
279 33 253 72 34 28
235 883 322 113 87 72
370 544 317 60 23 28
168 443 226 72 24 33
272 323 297 96 71 55
204 703 301 139 101 75
161 442 239 72 49 42
276 347 315 121 87 68
165 438 241 59 36 33
199 668 253 151 105 73
261 675 330 70 31 38
316 480 324 76 34 38
188 698 293 152 106 78
317 156 274 103 85 65
149 498 242 180 128 107
404 428 216 139 14 35
345 753 215 75 31 33
167 437 244 80 25 33
265 498 189 156 3 36
254 404 222 92 77 62
269 955 342 61 58 60
164 444 246 83 27 32
304 882 237 93 78 70
169 448 252 95 9 31
427 526 244 165 15 48
356 835 292 33 31 30
485 879 257 101 85 71
178 503 297 74 25 35
262 65 214 135 31 37
373 596 249 140 16 38
175 440 251 92 8 29
259 58 217 85 35 23
154 513 245 137 105 78
408 628 229 135 100 62
318 483 317 68 24 31
194 703 257 147 104 71
297 197 273 102 82 60
344 743 217 58 34 36
172 441 249 95 5 31
175 444 256 82 9 29
195 513 321 66 29 34
172 509 277 142 6 41
172 447 254 90 10 30
303 448 372 119 25 44
388 521 298 68 21 30
311 246 254 140 101 63
334 678 227 82 28 30
179 419 237 68 19 29
398 601 236 109 89 66
189 417 227 57 34 32
239 557 351 172 19 58
453 512 281 112 47 42
189 418 232 47 22 26
164 513 268 97 49 45
189 419 237 44 21 25
149 459 265 74 42 32
215 582 243 176 9 43
345 411 223 82 31 33
180 420 240 70 20 28
397 601 240 107 86 64
257 263 244 118 93 63
401 463 219 107 22 32
172 474 230 81 27 33
269 568 206 178 3 39
207 445 214 108 6 25
184 420 241 44 21 25
280 333 327 133 98 76
474 862 330 98 87 77
181 424 245 98 15 28
185 443 277 81 19 29
328 188 286 114 93 69
289 497 174 157 0 31
184 428 247 98 10 30
249 604 236 111 30 41
269 763 234 71 55 48
167 454 216 64 33 35
321 23 239 76 51 35
189 420 240 36 23 25
189 422 243 49 19 25
237 671 260 39 30 38
353 718 221 81 37 34
141 473 247 148 103 81
189 424 245 79 18 30
189 428 247 92 14 30
185 434 250 97 2 28
299 228 256 132 96 58
334 508 296 94 24 38
405 748 182 86 67 53
318 36 236 73 39 30
219 738 252 99 21 31
274 58 279 118 43 49
325 908 332 58 51 48
185 440 255 91 4 29
287 459 179 110 4 30
240 415 173 113 57 43
173 503 252 141 13 33
350 23 257 135 31 50
268 334 258 74 64 54
303 927 309 65 57 60
429 508 302 144 15 48
190 438 257 95 3 29
188 443 257 94 3 29
483 483 288 74 33 29
374 864 363 57 46 37
141 453 252 121 86 70
442 551 273 191 131 100
179 568 247 126 92 65
241 491 194 117 25 41
144 463 242 123 90 71
232 366 309 117 94 67
142 463 247 133 100 77
350 478 293 139 10 44
222 428 201 79 27 33
394 748 252 165 113 81
285 868 243 74 63 57
312 73 212 115 23 40
360 693 237 71 51 42
286 252 281 94 75 53
206 383 258 105 86 64
424 429 232 66 20 25
141 458 252 128 88 72
265 228 262 106 86 65
249 778 238 78 63 56
142 458 250 137 97 78
338 198 272 118 94 66
197 426 256 72 32 26
272 338 280 78 63 51
190 773 268 189 124 95
141 464 249 132 100 74
335 59 254 119 94 75
266 298 262 76 65 53
140 463 257 120 89 67
381 564 327 197 6 62
319 158 276 106 87 66
474 523 307 197 135 121
429 442 248 57 21 24
140 468 252 132 97 74
289 493 332 64 24 30
242 902 300 59 45 45
274 763 321 70 56 48
141 477 248 166 114 92
334 543 298 93 9 29
237 390 240 87 76 67
329 58 191 126 33 17
262 772 320 68 54 47
396 478 224 131 7 30
172 464 206 86 28 37
375 535 306 37 29 29
264 78 217 157 18 43
306 490 332 154 11 49
340 543 294 62 20 28
141 478 257 155 108 84
189 483 201 101 27 38
150 453 233 121 93 70
296 193 254 117 92 64
150 458 233 136 99 78
390 764 171 97 73 56
475 462 322 61 15 26
151 463 233 113 79 65
156 497 275 159 116 97
311 76 255 98 27 37
299 348 261 89 77 65
374 414 192 78 35 40
230 478 194 81 36 36
251 419 159 183 10 36
208 353 272 116 92 65
402 556 280 124 25 40
154 463 227 104 77 56
152 463 231 67 30 37
484 508 282 177 121 104
157 458 226 98 73 55
220 821 296 55 35 38
195 428 211 107 23 25
230 849 346 149 109 90
299 12 308 129 47 53
160 464 226 159 114 101
309 404 217 100 89 68
158 450 255 68 39 30
204 638 248 156 112 81
330 493 303 42 26 27
334 463 312 101 22 39
319 373 326 135 98 71
409 543 239 101 27 41
345 865 266 86 71 65
228 883 372 158 118 97
194 518 217 156 8 42
150 468 233 86 56 49
196 466 200 127 11 28
264 343 302 74 51 33
235 523 334 61 17 25
149 453 263 67 43 33
169 513 257 91 64 54
332 253 300 127 98 62
151 470 229 140 102 78
321 498 200 125 12 31
279 468 372 54 28 30
292 846 385 32 30 32
284 438 187 111 3 29
146 468 239 141 106 80
489 883 237 108 89 69
171 542 250 121 80 65
146 473 238 129 98 70
148 473 236 113 90 69
338 193 267 119 95 67
353 429 272 89 74 58
294 338 335 143 100 81
331 88 249 104 83 62
154 473 228 169 114 99
230 333 296 114 90 63
159 473 232 142 109 98
242 853 310 150 113 84
152 475 230 163 108 94
348 38 252 125 52 56
235 438 344 87 22 35
409 824 372 53 45 38
315 303 328 125 94 61
289 483 347 46 25 29
309 428 352 84 17 30
219 633 302 60 28 34
339 12 262 109 58 59
189 433 287 57 32 35
212 406 245 94 79 64
143 483 247 160 112 90
284 818 243 75 58 53
174 458 202 80 32 39
289 768 229 72 58 51
289 448 309 32 26 27
200 403 262 100 81 60
234 713 248 114 15 31
326 263 309 128 98 62
143 488 252 159 111 88
439 503 252 94 28 40
381 589 288 85 28 38
143 488 257 159 111 87
444 449 261 54 23 23
144 493 252 157 110 86
243 587 336 52 27 30
389 418 201 126 21 42
144 493 257 158 109 86
225 318 290 121 94 67
191 547 244 94 24 37
344 518 290 120 12 38
332 228 296 121 96 67
244 498 196 153 2 35
234 513 197 115 22 37
334 518 296 67 21 30
312 88 254 100 59 52
273 492 361 48 24 28
186 459 296 84 19 32
330 113 222 132 93 72
150 483 233 158 106 91
181 703 277 153 102 73
342 66 240 121 16 39
254 303 297 80 64 44
154 518 272 139 102 81
264 506 319 81 14 33
147 483 236 167 113 97
477 478 330 162 14 51
189 793 287 191 128 99
394 838 357 64 54 48
455 478 252 141 13 37
335 238 262 139 103 66
289 803 237 80 63 55
146 483 238 168 117 98
154 483 232 175 120 108
304 939 352 53 48 45
227 494 200 117 13 31
154 487 234 185 131 116
159 483 237 119 73 63
360 713 319 158 13 51
172 503 282 136 12 41
302 472 336 93 21 33
224 508 335 65 26 33
