ply
format ascii 1.0
comment Created by Open3D
element vertex 2217
property double x
property double y
property double z
property uchar red
property uchar green
property uchar blue
end_header
369 440 156 57 40 39
357 808 150 133 95 56
292 535 178 128 12 36
371 440 158 50 41 41
374 425 161 80 40 38
376 430 163 75 40 38
382 425 168 115 25 29
382 416 190 86 69 56
303 636 290 121 66 63
382 420 190 82 65 57
487 570 220 138 107 74
382 419 191 83 66 56
310 627 216 191 8 47
416 754 160 67 52 43
376 435 164 113 29 35
344 942 321 40 36 38
376 440 164 109 28 32
299 701 234 113 12 36
377 445 168 129 8 31
378 435 167 114 24 36
407 340 211 112 92 68
442 545 263 33 24 25
380 440 170 124 12 28
382 445 172 123 11 27
387 560 168 107 32 41
445 534 180 164 5 36
327 395 207 88 76 65
358 403 249 92 66 50
323 396 209 85 75 66
419 846 316 98 79 61
329 397 205 89 77 65
322 390 213 90 78 66
353 765 158 66 52 43
326 389 211 90 79 67
328 391 210 91 79 66
368 415 318 110 22 40
367 572 171 171 19 50
302 630 223 185 8 46
352 640 301 158 18 51
328 406 199 91 77 63
374 917 336 56 49 46
460 755 182 82 65 49
324 407 200 91 78 64
453 849 288 78 67 61
340 790 193 53 46 43
327 410 198 91 77 62
321 409 202 87 76 65
320 413 201 89 76 64
438 852 303 73 58 49
337 404 197 88 74 61
302 570 299 69 24 33
334 407 195 90 77 63
430 645 251 168 15 52
327 510 152 111 20 37
342 396 205 86 72 58
302 540 157 167 12 40
498 470 173 94 28 37
342 399 202 86 72 57
462 575 225 119 18 35
342 391 209 83 71 59
347 394 207 81 68 56
376 964 292 55 50 49
347 397 205 81 68 57
347 399 202 81 67 56
350 397 205 75 63 57
337 485 139 72 32 36
339 786 195 59 50 45
342 390 213 83 71 59
402 700 192 69 41 36
346 389 213 84 70 55
312 565 303 163 17 51
346 388 218 81 67 53
347 388 223 83 68 55
306 310 259 120 96 68
307 930 258 70 64 62
353 395 213 91 76 70
327 530 162 171 0 35
342 401 199 86 72 58
291 525 295 40 28 28
490 762 192 84 64 55
351 402 200 81 66 52
474 695 240 177 119 89
352 403 197 80 66 51
347 388 226 88 71 58
447 726 173 77 59 46
497 540 221 139 98 72
357 400 208 79 64 57
273 545 202 149 0 44
364 392 204 85 70 57
322 530 159 177 5 36
282 820 248 191 130 98
366 399 197 87 73 59
419 335 226 114 92 68
361 873 163 94 81 74
363 395 203 83 70 57
264 814 278 200 139 112
366 394 201 85 72 59
364 396 200 86 71 56
354 390 223 123 97 91
357 399 213 81 68 61
354 395 218 103 84 79
293 655 294 155 118 93
355 397 218 97 81 75
354 475 312 70 27 33
364 386 209 91 71 50
272 515 182 122 0 36
362 390 223 81 63 50
347 959 219 86 81 86
447 460 233 82 23 33
449 617 233 96 84 85
415 265 251 131 100 67
360 399 212 79 67 60
361 395 223 79 66 58
368 884 293 60 51 42
394 413 181 94 62 44
360 398 218 78 67 60
363 402 194 84 70 55
373 931 334 64 57 53
367 814 161 84 60 52
377 389 203 94 81 67
298 360 263 121 95 66
465 745 173 61 49 40
376 388 206 94 81 68
422 805 175 55 45 41
467 565 223 79 24 32
399 313 270 112 84 55
372 395 198 90 77 65
377 395 198 94 81 67
371 393 201 88 75 63
269 690 291 163 111 86
374 392 200 94 79 63
377 392 200 95 81 66
434 756 270 132 37 55
468 440 159 86 38 39
379 387 205 94 81 69
308 755 302 155 23 49
382 386 204 92 80 68
445 470 252 103 21 37
355 391 229 132 102 97
386 511 160 40 36 40
356 395 233 125 96 88
338 926 316 133 112 95
467 560 224 58 28 35
357 398 233 115 88 79
463 503 180 67 26 33
255 765 263 171 119 89
423 830 282 47 39 32
355 395 238 124 92 84
419 551 279 99 26 41
415 553 291 93 25 38
288 511 299 85 43 44
360 395 228 88 69 60
369 842 165 70 64 59
497 528 215 189 124 103
360 395 233 94 69 58
360 395 238 92 66 53
501 465 183 111 17 37
350 300 257 116 83 57
360 398 238 97 71 58
327 976 283 50 45 44
355 390 243 109 79 66
355 390 248 103 72 58
377 934 328 67 59 57
357 400 248 97 69 53
397 730 298 85 29 38
399 664 201 58 37 32
355 395 253 101 71 56
422 420 272 136 16 44
461 848 233 84 66 57
258 765 283 165 116 88
356 400 253 96 68 52
387 940 298 49 45 44
362 395 253 79 57 42
362 400 253 78 57 41
322 838 266 78 61 53
325 464 130 142 12 38
449 500 249 120 21 41
333 456 131 114 20 33
457 860 273 59 52 48
472 705 218 114 86 55
337 450 131 95 26 34
478 491 166 163 13 37
308 823 225 81 62 53
397 761 284 77 60 52
334 452 131 149 18 33
337 455 132 94 31 38
403 697 130 111 73 50
332 460 132 90 28 38
347 511 146 144 17 38
392 870 339 78 59 44
348 935 323 42 38 39
337 460 133 78 31 38
337 465 134 103 27 35
324 466 131 108 21 33
327 470 134 150 10 36
320 479 130 147 7 34
333 896 223 46 42 44
350 355 276 129 89 67
322 480 133 124 20 38
472 758 176 89 72 56
328 472 136 162 2 32
380 340 270 120 85 65
324 481 136 107 27 37
392 445 277 29 26 28
437 420 177 95 23 31
431 475 272 143 11 44
332 469 135 116 22 36
467 845 238 88 70 62
332 471 136 112 25 40
504 483 214 129 106 81
335 472 136 81 35 37
332 480 138 127 14 36
497 511 182 156 96 90
477 790 203 101 69 50
337 480 137 53 35 37
433 512 181 132 7 32
471 790 194 126 86 64
350 450 135 124 19 38
462 453 175 49 20 22
342 435 292 53 20 29
333 500 295 142 15 44
270 684 271 142 100 68
353 450 137 58 35 38
342 470 135 70 34 36
264 415 269 94 21 39
338 473 135 68 33 43
342 473 135 72 37 35
347 475 137 136 16 36
412 345 213 108 91 72
273 530 198 69 23 33
273 700 259 119 91 59
321 485 134 121 22 37
414 295 216 122 95 62
263 525 243 162 1 44
455 517 241 95 19 31
323 485 137 89 32 37
313 496 300 160 14 50
327 485 140 134 20 39
422 421 182 100 10 33
394 922 304 51 45 44
341 860 232 133 97 73
321 675 212 51 37 38
320 489 135 104 23 35
324 492 141 145 18 42
326 489 140 93 27 37
356 475 144 77 37 42
327 490 142 133 16 37
436 804 254 102 78 63
259 494 269 104 14 34
327 495 144 130 11 34
477 445 168 75 14 26
457 715 169 105 78 53
328 487 141 162 6 34
432 520 278 54 28 32
320 499 139 166 6 37
377 710 143 76 58 44
482 826 248 88 70 55
322 500 143 166 6 36
497 510 238 133 108 80
297 770 219 68 55 49
417 570 276 133 9 42
437 590 202 138 9 37
320 503 140 167 5 33
410 350 262 120 92 58
323 505 147 172 7 36
325 499 145 159 8 34
328 497 146 106 18 38
327 505 149 147 12 36
351 855 163 81 68 56
328 507 151 69 27 36
326 508 150 140 11 43
332 505 149 161 5 36
430 515 281 102 40 47
400 639 200 50 35 36
370 523 301 148 10 45
333 498 145 114 21 34
334 508 150 131 16 39
337 510 149 146 7 33
372 460 163 130 14 31
342 485 139 56 35 37
372 691 195 56 33 38
342 495 142 50 36 40
453 769 250 118 85 63
347 485 139 79 36 40
305 694 226 40 37 38
412 445 174 70 33 32
350 484 140 68 38 41
346 489 140 112 30 42
332 307 281 113 90 65
382 615 192 54 36 40
487 816 237 79 67 56
342 500 143 43 37 40
339 504 145 147 17 44
341 507 146 151 19 45
352 365 273 127 88 65
367 540 159 75 31 37
342 510 147 126 20 38
287 490 309 132 102 77
343 508 145 106 34 42
303 690 233 48 33 37
347 508 145 66 29 39
302 655 289 152 108 92
355 450 140 40 35 40
357 450 143 111 14 34
357 455 143 116 18 37
382 710 189 63 38 36
354 460 141 44 34 37
356 465 144 46 37 38
327 270 264 116 93 66
336 340 286 138 94 69
264 462 301 144 103 90
359 455 146 132 6 32
316 655 222 159 4 41
359 465 146 74 30 36
361 455 148 126 8 32
278 660 264 133 95 65
368 450 157 146 4 33
286 724 248 86 35 33
365 455 155 107 16 33
460 813 195 136 89 68
361 460 149 71 29 34
364 460 152 81 31 37
361 465 149 112 31 40
354 863 290 95 79 62
367 460 158 99 25 35
367 465 158 53 35 39
406 853 327 86 74 62
356 470 143 47 39 43
352 490 308 62 25 31
354 476 141 47 35 38
412 370 268 129 97 65
356 480 144 56 35 39
359 470 146 73 38 42
397 505 289 115 16 39
358 480 147 47 37 41
471 504 220 28 23 24
365 470 155 52 33 37
367 470 158 53 32 35
398 310 270 120 88 59
283 615 248 99 29 40
361 475 149 50 35 38
429 394 238 118 95 69
363 475 153 111 28 38
363 480 153 67 34 39
367 475 158 124 15 34
372 450 163 135 12 34
487 635 233 150 106 73
513 516 203 222 159 143
370 455 160 136 5 29
377 450 168 125 7 27
377 455 168 126 6 28
371 465 164 65 28 34
375 459 165 128 11 28
380 448 170 123 11 26
382 450 172 123 10 26
383 455 171 121 9 27
332 280 267 105 85 63
380 460 170 121 8 25
383 463 171 118 11 24
369 470 162 73 24 36
369 474 161 126 13 35
377 480 166 123 6 26
433 425 218 108 89 69
345 355 281 134 95 71
337 650 206 127 4 29
358 485 147 90 32 38
342 840 217 120 86 66
355 489 145 78 38 43
435 416 248 126 101 69
355 494 145 49 33 43
507 816 188 102 78 62
420 320 229 115 93 66
286 715 252 93 60 42
382 884 290 37 33 33
358 490 147 53 34 37
357 495 147 63 36 41
372 670 198 51 32 35
360 485 149 100 29 39
299 655 253 81 27 36
362 485 153 77 33 39
367 410 313 131 18 42
366 485 158 87 36 39
362 490 153 57 35 39
382 775 143 66 54 47
445 608 225 115 16 32
366 490 158 54 36 36
419 314 245 134 103 68
287 435 304 63 26 32
453 485 238 45 25 30
364 496 156 58 32 35
366 495 159 74 31 37
357 500 148 124 17 39
407 395 273 131 95 64
425 793 176 49 40 35
459 490 223 35 29 30
356 505 149 147 2 31
358 505 152 148 1 34
465 820 278 82 65 53
342 629 301 75 23 34
275 561 227 76 31 40
357 510 153 151 0 35
361 500 153 131 15 37
464 735 193 91 74 58
364 500 157 140 9 36
361 505 154 150 0 37
366 500 159 147 7 36
499 813 215 133 108 92
360 509 155 151 0 36
296 680 296 157 116 90
362 510 157 145 3 34
366 510 159 135 2 30
364 354 261 83 58 43
368 495 162 107 22 36
322 370 290 131 99 72
368 500 162 133 5 29
368 505 162 128 3 26
261 795 288 177 125 97
438 635 228 57 36 36
368 510 162 125 1 26
407 550 298 78 27 36
369 485 162 50 35 38
376 486 165 120 8 25
377 485 166 117 9 25
436 595 268 79 27 35
372 490 164 98 20 30
427 400 218 116 94 69
342 630 203 96 28 38
362 605 188 61 34 41
395 963 253 63 58 56
432 730 159 66 50 42
374 492 166 117 9 26
447 770 252 113 79 57
467 615 249 164 122 99
377 495 165 113 9 24
506 820 226 86 71 66
382 484 166 114 8 25
315 328 275 122 94 65
382 495 164 114 9 25
449 495 249 147 16 46
377 500 163 115 8 25
377 505 162 78 23 29
382 500 162 117 10 25
416 634 205 113 19 27
304 904 278 186 137 118
271 515 315 147 111 85
382 509 161 40 36 38
391 260 206 130 100 63
387 270 209 132 100 63
337 885 309 125 85 85
397 264 205 130 99 61
398 266 206 129 98 60
397 270 206 129 98 61
472 456 182 61 20 25
386 784 153 56 47 42
437 460 263 134 14 41
385 271 211 133 101 63
447 750 249 110 73 56
397 280 208 130 99 62
269 565 198 152 14 44
269 750 291 162 114 87
387 285 212 130 98 63
389 284 210 132 99 64
447 600 243 157 14 50
412 325 253 135 98 68
379 736 134 72 55 44
331 736 315 104 28 44
397 285 208 130 100 65
367 914 199 65 61 63
506 506 184 119 94 69
402 265 206 130 99 60
355 822 161 100 75 54
403 261 206 131 98 58
401 875 318 69 56 46
407 260 206 133 98 58
402 270 207 130 99 61
416 260 210 131 98 57
392 355 275 146 101 78
339 795 198 60 49 46
263 755 287 160 112 84
415 264 210 132 99 58
362 725 173 48 40 36
424 757 280 48 30 32
402 450 173 111 16 31
352 899 188 67 62 62
412 270 209 132 97 58
414 267 211 132 98 58
402 280 208 132 99 61
345 822 202 55 51 52
327 670 297 34 30 30
450 482 246 119 7 35
402 285 209 132 101 64
411 275 210 131 96 57
436 500 177 135 5 29
264 510 263 39 31 35
413 275 212 132 98 58
304 672 240 57 33 38
328 405 294 110 71 54
510 817 198 101 80 66
410 280 210 130 97 57
413 280 212 129 95 58
452 475 223 113 6 35
354 439 311 132 14 45
416 275 214 131 97 58
375 948 306 48 43 41
410 283 210 129 96 56
373 455 289 136 13 42
481 589 222 131 102 70
412 285 213 127 95 58
332 310 282 115 89 63
437 565 192 167 1 35
304 900 283 189 136 121
432 685 218 47 39 46
414 287 216 126 94 60
370 455 298 89 19 35
454 815 253 93 68 56
416 370 209 105 89 71
386 260 254 120 97 72
412 485 284 144 16 44
385 269 255 118 95 69
472 510 229 105 18 37
416 260 251 129 99 64
412 280 253 133 98 66
357 715 194 77 30 33
327 525 159 118 17 36
415 274 251 136 100 68
317 590 192 158 10 40
415 280 251 133 100 67
412 285 254 131 99 65
415 285 251 132 99 66
304 935 273 169 132 109
277 680 263 131 95 61
387 290 213 127 95 62
444 839 287 87 71 57
391 290 211 128 96 62
322 270 264 111 88 64
256 750 268 158 109 81
392 300 211 114 91 63
397 295 210 122 96 66
382 715 157 58 50 43
395 297 211 115 91 63
465 853 262 70 58 51
327 350 287 134 98 73
397 300 210 117 93 65
387 315 212 114 90 63
300 713 226 124 15 41
321 320 279 125 92 67
387 320 211 117 92 63
300 832 241 84 66 59
397 310 210 122 95 63
295 822 236 83 63 56
393 315 210 118 93 63
397 320 210 123 95 62
257 750 278 164 112 85
408 290 211 128 98 62
333 865 248 160 116 88
403 296 211 124 97 65
477 600 219 134 103 69
407 295 211 124 97 66
360 743 191 55 37 34
467 838 260 64 53 44
409 930 247 49 43 40
387 360 274 143 102 79
402 300 210 119 93 62
410 863 329 83 64 59
377 979 253 79 72 75
293 620 299 165 121 97
263 435 288 90 28 38
329 867 264 100 76 53
409 910 227 74 64 62
402 305 210 123 96 65
258 760 254 159 111 80
405 301 210 121 94 62
412 290 214 126 96 60
387 925 323 59 53 50
412 295 214 123 96 64
405 851 179 61 52 51
360 740 306 145 20 48
442 635 229 81 56 48
307 645 228 146 5 40
392 550 297 40 28 31
417 290 218 125 95 60
416 295 219 123 95 62
414 305 216 121 96 69
382 520 160 63 34 37
416 305 219 121 95 66
402 310 210 125 96 63
402 430 277 67 28 32
406 310 210 127 97 63
295 637 237 156 29 55
402 315 210 125 96 63
342 920 314 86 71 67
332 864 273 91 70 46
446 884 248 77 61 55
403 316 211 126 97 63
400 319 210 125 96 64
405 314 210 127 97 61
407 320 212 124 97 65
472 760 153 104 81 61
416 310 219 125 97 68
412 495 167 148 2 32
411 315 214 124 97 65
502 560 233 170 122 88
411 320 214 123 97 66
414 315 217 127 100 69
468 590 225 104 72 50
361 407 308 61 32 25
341 977 285 72 68 68
416 315 219 122 96 67
413 320 217 122 97 69
415 320 219 113 90 64
352 700 198 48 35 36
257 740 268 146 103 74
413 295 253 134 100 67
423 841 286 46 39 33
417 295 248 134 101 68
415 294 251 135 103 69
363 954 215 79 75 78
413 300 253 138 100 69
412 305 253 139 99 68
414 306 250 138 102 69
417 310 248 135 102 69
414 311 250 134 101 69
445 485 256 147 8 45
412 315 253 132 97 63
467 645 221 132 98 68
445 688 245 96 59 45
412 320 253 135 99 66
417 315 248 133 101 69
414 316 250 132 101 66
357 405 293 56 46 35
265 540 287 73 58 48
414 319 250 134 100 68
420 265 215 130 97 59
422 260 218 128 98 60
338 270 259 117 91 59
351 470 303 45 26 30
422 265 218 130 99 60
378 906 332 48 42 38
420 268 215 131 97 60
337 500 294 133 13 40
419 384 265 132 100 68
432 465 176 65 34 37
419 271 216 130 96 57
376 903 308 40 35 32
421 270 218 132 98 60
442 495 168 79 24 31
418 280 217 130 96 59
421 275 219 133 98 61
408 940 253 62 56 53
420 280 220 133 97 60
421 280 223 134 98 63
423 265 228 124 96 62
347 971 303 64 59 58
457 527 212 83 32 39
439 434 243 67 31 38
423 270 233 130 98 65
403 916 294 50 46 45
423 270 238 131 98 65
322 400 295 133 102 73
424 260 233 123 95 61
418 260 248 130 100 65
275 545 204 140 4 43
275 587 253 160 13 48
275 535 203 142 6 41
421 260 243 127 97 62
268 580 307 161 114 89
412 430 175 114 25 32
420 260 246 129 98 64
428 400 223 118 95 70
450 814 272 65 51 42
335 875 183 47 43 43
342 751 310 147 22 51
421 265 243 130 99 64
419 267 245 132 100 64
419 271 245 131 98 65
304 958 263 78 74 73
422 275 228 130 98 63
422 275 233 129 97 64
472 761 173 84 66 52
422 280 228 130 96 62
272 520 169 156 6 34
422 280 233 131 97 64
409 335 259 126 93 59
422 275 238 131 97 65
486 469 165 89 32 35
302 760 214 123 22 36
359 892 186 69 60 61
474 745 223 149 98 66
422 280 238 132 98 64
351 340 268 113 75 54
330 450 296 69 23 30
410 669 205 85 34 27
421 285 228 128 97 63
421 285 233 128 96 63
302 839 258 66 56 56
398 697 177 59 47 41
421 285 238 129 98 63
419 275 245 132 98 65
419 280 245 134 99 65
421 280 242 129 97 63
482 829 254 81 63 51
388 540 295 108 26 42
419 290 221 129 96 61
419 295 222 127 96 63
431 415 218 112 91 67
420 290 223 131 98 64
401 925 291 49 45 45
348 860 168 62 52 44
420 295 224 129 97 64
332 331 286 128 94 69
419 300 222 121 94 63
418 305 223 118 93 64
418 310 223 116 92 64
427 490 278 56 30 33
388 755 158 58 50 46
449 606 240 157 17 51
418 315 223 112 89 64
418 490 285 62 28 34
421 290 233 125 96 62
421 290 238 127 98 63
290 394 259 110 89 66
421 295 238 127 97 62
434 439 265 82 22 35
420 305 228 117 93 64
420 305 233 119 93 62
268 524 170 144 15 37
437 440 193 57 35 30
265 425 273 88 25 36
327 330 285 123 92 66
421 300 238 125 96 62
463 715 245 174 123 95
421 305 238 124 96 62
419 290 245 129 98 64
419 295 245 131 99 65
437 687 214 80 67 56
421 290 243 129 99 64
380 904 195 65 60 61
419 300 245 131 99 67
274 610 269 133 95 67
473 546 239 37 27 27
419 305 245 132 99 66
311 364 285 121 96 68
383 850 269 76 63 50
482 625 223 152 110 75
420 300 243 130 99 65
420 305 243 130 98 65
421 310 238 125 97 63
304 295 256 122 95 67
419 315 226 115 91 65
420 315 233 119 94 65
413 820 257 32 28 27
421 320 238 125 98 66
419 310 245 135 104 70
378 831 167 58 54 54
419 320 245 135 102 71
456 485 233 105 16 33
420 315 243 133 103 69
271 635 273 136 98 66
452 650 249 171 129 109
387 335 212 114 92 65
397 322 211 122 94 62
443 855 218 113 100 101
395 323 210 122 94 62
453 486 166 153 15 40
387 340 211 108 88 67
374 857 181 61 56 56
385 343 211 99 84 67
387 345 210 103 86 67
332 595 194 76 34 39
438 434 213 73 60 51
447 846 303 83 65 51
388 341 210 110 89 67
368 530 303 150 17 47
443 630 233 98 87 85
392 341 210 111 90 66
429 867 206 77 66 64
392 345 210 109 89 66
455 510 237 79 26 35
277 500 312 139 109 79
384 350 210 90 78 65
350 755 173 50 42 39
392 350 209 107 88 68
402 885 313 60 51 43
481 645 229 133 94 60
407 509 290 74 26 34
397 338 211 113 91 66
397 345 210 110 90 68
397 350 209 108 89 68
402 330 211 119 94 64
402 335 211 115 92 66
298 833 244 86 67 62
407 330 212 118 94 65
407 760 283 79 61 54
407 335 212 116 93 67
404 408 196 98 79 58
409 580 284 128 22 45
411 325 215 122 97 69
469 528 200 127 27 40
413 330 217 112 92 69
521 823 182 106 88 71
416 330 220 105 87 67
413 335 217 109 91 71
359 917 322 45 39 38
416 335 219 105 88 70
402 340 210 111 91 67
370 465 298 122 16 39
347 524 150 153 6 36
437 520 178 49 36 38
402 345 209 108 89 68
329 978 276 63 58 57
497 480 203 85 71 58
407 345 210 108 89 69
407 350 209 109 91 70
435 525 181 82 18 31
367 980 273 77 74 75
316 632 216 170 4 41
411 340 214 111 92 70
447 690 213 101 82 59
414 340 217 107 90 71
416 340 219 104 87 70
414 344 216 105 88 71
416 345 218 103 87 71
402 694 173 59 45 38
412 350 212 109 91 72
495 595 241 167 115 82
415 347 215 105 89 72
351 355 273 124 85 63
415 351 215 106 89 72
417 350 218 103 87 71
412 330 253 133 98 67
426 385 228 122 98 70
413 335 253 130 97 63
417 330 248 136 102 71
443 575 208 137 2 39
475 775 228 147 103 72
416 340 251 130 100 66
413 340 254 127 97 62
458 774 250 100 72 53
387 360 208 92 80 67
447 490 165 141 9 35
277 595 218 161 12 48
392 360 206 103 86 68
487 515 237 124 98 74
392 365 205 102 85 67
409 845 186 74 60 57
397 362 205 106 88 68
397 365 204 107 88 68
385 369 206 89 78 67
384 372 205 90 79 68
384 374 205 91 80 68
387 375 204 90 79 68
378 900 328 36 32 30
392 370 204 99 84 67
385 376 206 90 79 67
425 430 271 130 16 43
392 380 202 92 80 67
322 864 283 134 108 84
428 724 162 76 48 40
317 585 188 187 6 41
463 524 203 77 34 39
387 386 203 91 79 68
410 355 210 110 92 72
392 385 201 90 79 68
348 864 299 114 93 71
397 370 204 105 87 67
466 710 209 113 86 56
397 375 203 104 86 66
397 380 202 101 84 67
273 545 218 54 31 34
506 511 232 140 111 77
397 384 201 97 83 68
407 360 207 108 90 71
402 365 204 107 89 68
405 362 205 107 89 70
412 365 208 106 90 73
476 675 242 187 128 100
435 422 225 114 93 69
331 899 223 49 44 46
416 355 214 106 89 72
414 359 211 108 91 73
414 363 211 106 90 73
415 366 210 106 89 72
265 455 256 63 34 38
411 715 143 66 50 38
269 496 311 136 105 79
288 519 295 60 23 30
402 370 204 106 87 67
357 405 273 59 45 33
402 375 203 104 86 67
274 588 213 127 22 43
407 375 203 105 87 68
402 380 202 102 85 67
445 569 203 140 0 38
515 514 208 192 143 117
274 584 244 170 2 46
402 384 201 99 84 67
328 900 198 50 46 46
407 380 202 103 86 68
312 345 278 114 92 66
452 832 297 74 59 48
407 385 202 99 84 68
291 556 187 142 10 38
329 655 210 127 1 30
412 370 207 106 89 71
413 375 207 106 89 71
416 375 209 104 88 70
376 828 160 56 48 47
412 385 204 100 85 69
414 380 206 104 88 71
414 385 206 103 87 70
388 880 336 80 60 47
418 325 223 108 88 66
267 775 294 162 117 88
482 805 228 86 69 57
418 330 223 106 87 67
361 730 168 49 41 38
476 790 227 117 82 60
367 455 313 134 17 43
368 480 308 99 25 40
372 585 178 160 10 38
418 335 223 106 88 68
381 435 281 124 13 39
382 775 283 76 58 51
280 525 316 159 114 92
418 340 223 107 88 68
419 345 223 108 89 69
420 350 223 113 92 69
420 325 229 117 93 66
419 688 280 123 8 34
420 325 238 127 99 67
419 330 227 113 91 67
328 974 253 95 89 90
420 330 233 121 95 65
420 330 238 128 100 68
419 325 245 135 104 72
443 575 203 150 2 38
419 340 226 114 92 68
382 565 298 163 9 50
419 344 226 114 92 67
420 340 229 120 96 69
421 340 233 127 100 68
322 685 209 116 17 31
421 345 233 127 101 70
317 579 184 186 7 42
433 620 258 182 7 57
421 340 238 130 102 71
381 840 267 108 86 67
421 345 238 127 100 70
282 585 202 95 28 39
392 885 288 37 33 33
422 350 233 126 100 71
283 610 228 76 31 39
422 350 238 126 101 71
268 550 197 146 6 44
418 340 248 132 103 69
418 540 176 124 28 41
418 345 249 132 103 70
263 720 278 142 98 67
420 340 243 130 103 70
420 340 246 132 103 71
392 830 182 61 52 52
420 345 247 131 103 72
421 350 243 127 101 71
482 605 250 166 119 84
277 465 299 85 29 36
268 805 254 179 120 88
420 350 248 126 100 69
332 977 284 57 54 53
462 485 163 170 11 40
419 349 249 129 101 69
432 494 175 163 3 37
418 355 218 104 88 71
324 706 311 139 17 43
457 680 215 98 78 55
418 360 217 103 87 69
420 352 220 108 90 70
295 444 301 92 26 37
422 455 277 95 20 35
421 355 223 114 93 69
377 545 161 155 9 38
367 565 168 150 18 40
419 365 216 103 87 69
309 638 291 166 36 57
418 370 213 102 87 71
368 485 303 98 25 40
445 835 281 70 55 45
420 371 215 105 88 70
420 375 214 106 88 70
421 370 218 111 91 70
424 375 223 123 98 69
365 714 169 51 41 34
421 380 213 107 89 70
422 385 213 106 88 69
423 380 218 117 95 69
424 385 217 118 95 69
266 750 289 161 112 86
282 425 304 84 24 35
425 377 224 125 99 69
424 380 222 122 98 69
390 778 281 75 59 50
425 380 223 124 99 69
385 457 281 30 25 32
425 385 220 122 98 70
425 385 223 124 99 71
422 355 228 124 99 70
447 485 253 145 7 45
477 759 166 75 60 51
423 355 233 126 100 71
405 874 301 62 52 43
362 608 190 96 29 39
360 707 196 100 20 32
475 668 246 193 140 112
446 680 222 89 74 57
387 701 133 90 59 50
423 360 238 125 99 69
424 365 233 123 98 69
436 445 263 54 29 33
445 466 171 45 32 32
424 365 238 124 98 68
422 355 243 128 101 72
302 750 297 115 58 55
421 355 248 126 100 69
441 605 213 87 31 39
467 820 243 86 63 50
423 360 243 126 100 70
422 360 248 125 99 69
420 356 252 125 99 69
421 360 253 125 99 69
423 365 248 123 97 68
422 365 253 123 97 66
287 465 299 59 26 31
425 372 230 122 97 68
425 371 234 120 96 68
424 368 238 121 96 67
425 370 238 120 95 66
425 375 238 119 95 67
425 380 228 122 98 70
427 416 178 123 20 34
339 867 196 32 29 30
427 380 238 119 95 68
382 930 210 56 51 55
423 370 253 123 96 64
425 371 243 121 96 67
264 529 234 164 0 42
425 375 243 121 96 66
424 374 249 124 98 68
425 376 248 123 97 68
427 380 243 120 96 67
426 380 248 122 96 65
380 703 138 86 57 48
428 385 243 122 97 69
425 377 251 125 99 67
425 380 253 124 97 65
386 411 174 91 64 47
386 415 173 122 25 27
397 825 257 100 71 58
386 407 184 94 81 68
386 407 188 94 81 67
323 896 238 153 120 93
387 406 193 95 81 67
387 410 178 90 75 58
300 698 236 117 10 37
280 522 316 148 107 82
487 575 246 167 116 85
392 411 183 89 76 59
293 395 277 113 91 67
387 750 148 66 51 42
389 415 176 115 34 29
387 416 191 88 71 58
453 505 183 178 6 39
474 725 229 161 106 76
392 409 188 92 79 65
497 490 178 131 17 35
270 674 276 146 103 72
392 409 193 93 80 66
397 411 183 91 69 52
492 816 222 100 78 60
398 415 181 115 26 24
396 416 180 122 23 25
267 760 247 132 98 63
397 410 188 91 78 62
397 410 194 94 79 63
408 414 174 122 33 24
423 429 185 77 16 27
411 413 173 121 30 26
402 411 183 109 48 34
402 415 182 121 16 23
407 415 179 117 18 25
454 547 221 53 36 39
404 416 180 111 13 24
309 285 261 118 93 66
448 827 250 59 45 42
402 410 188 96 76 55
267 520 313 150 113 89
407 411 188 105 66 45
265 540 188 60 30 32
377 585 300 169 8 53
412 415 177 112 22 27
392 670 199 70 35 31
412 412 179 138 18 27
412 412 182 127 23 30
333 284 269 106 86 65
412 414 183 108 18 30
263 490 258 154 9 41
346 570 303 94 20 37
416 412 178 135 18 29
372 764 138 101 74 54
416 415 182 92 18 33
414 678 280 139 10 43
410 412 188 113 46 35
412 416 193 98 48 38
342 445 293 118 13 39
306 395 290 121 95 68
385 416 170 129 18 32
276 570 228 62 27 35
385 420 170 122 16 31
440 828 189 74 60 56
340 301 276 110 84 53
441 510 267 74 23 32
290 777 226 66 54 50
387 420 173 124 15 30
385 425 170 127 14 30
345 943 324 37 35 38
387 425 173 126 13 29
327 800 287 59 52 50
387 971 243 88 83 85
389 420 176 123 17 28
392 420 179 118 17 26
368 440 313 63 27 32
412 820 255 32 28 29
389 425 176 123 14 29
387 420 190 85 68 57
416 829 269 46 37 31
392 845 182 59 53 53
387 420 191 86 69 56
296 587 191 165 10 51
473 755 233 153 106 76
392 420 191 87 70 56
471 824 220 88 67 59
355 390 258 109 75 60
391 421 190 87 69 56
389 423 191 86 68 54
396 429 181 116 11 25
431 730 287 34 28 31
307 575 302 52 30 32
392 424 191 90 65 54
392 430 179 119 12 26
372 890 192 55 50 51
398 419 181 118 17 24
396 272 261 126 100 71
263 605 293 160 115 86
397 425 191 98 55 43
332 270 262 117 92 62
397 430 179 114 11 23
386 434 175 119 12 25
442 450 248 67 27 32
366 870 178 74 68 67
386 440 175 120 9 27
402 950 243 67 62 62
387 445 174 120 10 25
449 610 240 96 17 35
399 436 175 101 14 30
451 844 303 88 69 55
398 440 175 84 25 29
265 535 248 166 0 45
355 905 316 131 97 80
306 636 227 180 8 46
397 445 175 104 18 29
388 435 176 120 12 26
388 439 176 120 9 26
334 578 185 174 2 33
357 810 277 173 123 102
342 650 300 178 8 56
392 435 178 119 9 26
342 680 204 128 10 30
392 440 176 118 10 27
388 444 176 118 11 25
264 418 296 109 26 45
392 444 176 113 7 24
487 494 224 91 76 61
392 601 186 91 38 45
397 435 177 111 11 25
396 439 176 107 15 27
395 443 176 107 11 23
266 635 293 163 116 85
412 426 175 118 23 33
270 535 195 41 27 33
506 540 223 189 139 113
450 466 207 110 4 34
415 431 175 80 25 29
491 518 194 200 17 47
436 640 242 145 25 48
402 420 180 122 13 28
379 464 285 48 25 28
402 425 179 115 12 24
271 565 243 167 0 45
418 915 263 58 50 49
305 932 285 195 150 130
453 500 239 81 26 34
381 720 148 61 48 37
431 670 220 37 36 38
407 425 178 110 14 24
477 836 228 100 77 64
402 425 192 101 46 36
402 430 177 95 21 25
307 430 298 66 28 33
264 525 253 96 19 37
387 970 268 72 66 65
438 821 181 90 69 63
406 429 176 75 26 27
438 460 175 63 31 33
375 773 286 81 64 54
408 429 192 80 23 27
266 525 218 45 32 35
412 424 176 107 22 29
387 655 199 80 30 29
417 420 177 66 30 34
334 862 266 129 92 72
414 420 184 87 14 34
330 852 236 173 117 91
362 640 300 117 23 45
417 425 176 42 36 39
291 495 307 145 96 82
414 586 186 107 28 40
312 788 296 114 86 70
415 417 188 74 22 27
332 836 264 158 116 93
262 765 288 160 115 85
415 420 188 78 17 29
305 945 268 82 72 69
416 420 193 76 38 38
418 423 184 87 8 29
397 875 338 73 59 52
417 424 188 76 13 29
323 849 239 190 129 101
414 428 176 98 32 38
417 430 176 50 34 36
370 718 185 68 34 34
412 425 192 79 30 32
412 430 192 71 20 28
417 425 193 73 32 34
417 430 192 69 30 33
402 440 174 65 34 33
442 440 208 66 41 35
407 435 174 41 38 40
402 445 174 67 31 34
407 445 174 91 32 35
412 440 174 54 35 39
418 360 258 123 97 65
372 780 143 86 69 56
340 370 286 139 99 72
416 435 175 76 36 37
417 440 175 78 33 37
467 431 162 101 12 35
417 445 174 68 35 34
441 426 177 113 21 35
401 433 176 103 17 24
434 836 304 79 63 50
414 433 191 68 25 29
417 434 191 63 23 27
450 477 241 120 9 37
431 416 178 114 22 38
436 416 172 86 22 35
482 471 193 50 22 26
448 435 159 110 27 39
462 685 250 174 128 99
447 439 159 92 34 39
421 417 175 120 19 30
427 420 174 140 15 33
373 962 221 79 73 75
424 423 175 109 29 36
315 972 290 66 61 58
429 425 174 130 17 35
432 424 174 100 24 36
422 425 184 87 11 28
422 430 176 62 34 36
433 770 264 72 57 51
420 426 187 72 17 25
427 420 177 142 17 34
425 422 181 111 14 33
431 425 176 117 22 36
427 430 183 92 10 29
352 780 163 63 50 42
272 745 294 167 118 90
431 431 181 105 7 34
372 905 195 58 52 53
421 441 175 45 37 38
421 445 175 52 37 36
346 295 263 109 80 52
373 445 289 128 13 39
427 436 175 82 28 37
433 431 174 100 29 38
432 435 174 68 32 34
417 700 184 70 49 38
422 435 176 71 34 35
423 435 190 61 30 30
474 745 213 145 102 68
424 438 190 52 27 25
424 438 191 52 27 25
427 435 177 83 30 35
322 560 177 96 31 39
372 820 269 159 118 99
414 762 166 75 57 50
428 435 184 85 15 28
495 490 175 131 13 34
427 440 177 53 36 36
425 432 186 79 31 36
301 745 217 40 36 43
391 959 230 70 63 67
431 544 267 127 19 42
320 558 175 123 30 54
427 436 188 66 28 31
324 961 307 42 38 39
427 435 193 59 36 34
474 501 222 39 28 23
392 640 290 47 31 35
276 585 238 153 5 41
428 439 190 53 28 26
324 311 281 123 90 65
427 439 191 52 27 26
462 495 173 166 14 40
511 520 218 180 134 108
430 437 186 79 16 27
341 795 193 54 46 43
382 555 298 155 13 48
283 625 265 100 77 53
432 439 189 62 28 29
282 790 301 177 134 103
432 440 192 56 29 26
439 765 260 53 43 38
452 465 157 105 21 30
332 760 202 88 37 40
427 445 177 92 29 34
338 885 228 43 39 39
437 420 173 95 28 36
337 895 181 85 72 70
303 345 268 118 93 65
334 882 240 124 101 78
438 424 170 118 21 35
437 429 169 87 30 38
442 425 164 95 36 44
442 420 169 110 19 37
447 420 167 117 20 38
365 340 258 73 55 40
437 605 208 105 31 40
342 715 318 156 15 49
266 735 289 162 111 85
444 420 165 112 20 35
264 625 284 167 120 89
467 525 198 70 32 38
442 425 168 96 27 37
347 345 278 130 90 66
326 926 201 86 75 72
447 425 167 118 21 41
289 783 225 69 57 51
282 569 195 89 29 38
447 425 164 117 19 38
441 420 172 117 17 39
443 429 164 83 34 40
452 435 159 91 32 37
442 430 168 90 29 39
447 430 163 120 27 44
368 485 308 71 27 34
475 775 184 105 77 59
277 505 314 146 112 84
445 427 173 93 30 48
294 386 272 116 92 66
284 613 220 197 6 49
449 514 254 103 26 41
437 426 176 98 21 38
456 499 179 182 8 36
352 948 331 67 61 59
440 422 177 83 25 22
342 870 307 169 133 106
437 439 163 109 22 32
296 365 258 123 97 67
439 435 167 114 24 40
439 438 160 103 21 32
420 375 262 130 99 65
406 870 313 94 77 63
456 521 247 66 22 29
437 440 174 125 18 36
377 630 197 43 36 38
287 615 218 198 9 50
322 900 238 184 136 108
438 442 167 115 20 34
434 443 175 86 40 40
332 645 209 131 7 33
441 715 253 147 12 46
439 445 174 108 24 36
474 765 229 149 104 72
442 435 164 103 26 39
450 471 228 115 6 36
337 865 307 167 132 107
421 615 277 141 17 46
443 434 168 100 27 38
467 760 162 106 79 58
448 432 160 129 19 45
340 380 286 142 101 74
274 424 301 88 27 36
444 582 255 50 24 31
437 895 268 63 51 47
446 435 166 106 23 37
282 765 299 169 125 95
372 571 171 191 7 40
447 440 163 94 28 38
447 441 167 105 23 37
440 579 267 130 36 52
446 444 168 88 23 35
447 445 173 115 15 39
467 455 161 78 34 35
436 435 178 92 23 36
384 885 324 41 34 32
436 436 182 104 7 31
351 480 303 66 21 30
437 440 178 113 19 34
288 400 263 98 78 60
437 440 183 97 7 31
436 432 181 114 8 32
354 363 263 114 75 58
314 887 297 145 103 89
436 440 188 64 24 26
434 443 190 55 25 24
462 795 248 127 94 74
440 435 176 137 13 33
441 441 177 127 14 35
443 445 178 110 15 36
445 447 181 93 9 31
442 445 188 65 25 29
292 450 300 98 22 37
442 445 193 58 30 29
387 391 199 91 79 68
466 635 250 186 137 109
392 390 199 89 78 67
369 894 300 52 45 38
389 387 200 89 79 68
350 764 172 49 42 39
387 395 198 91 79 67
410 619 286 115 27 42
387 400 198 93 81 68
272 430 299 76 28 34
294 501 300 75 38 38
392 395 199 89 77 66
310 344 275 115 92 67
392 400 197 91 79 67
472 532 207 137 24 46
435 437 194 59 42 38
269 560 201 136 9 41
397 386 200 96 81 67
397 400 197 93 79 66
388 404 197 96 82 67
445 600 224 95 22 32
397 405 196 95 80 65
467 480 198 80 50 45
397 407 195 95 80 62
398 413 194 93 78 61
305 952 246 76 72 74
401 386 200 97 82 66
402 390 199 93 80 67
487 480 203 60 47 33
408 390 201 96 82 68
412 390 203 101 85 68
455 461 191 101 11 33
411 396 200 98 83 68
411 400 199 102 85 66
452 460 198 77 22 31
326 631 211 56 33 38
440 644 238 106 72 66
409 393 201 99 83 67
413 400 202 101 84 66
350 505 304 133 16 43
342 855 273 127 96 75
352 795 285 66 52 47
416 400 204 103 85 65
402 405 197 97 81 64
486 445 164 61 39 40
372 695 194 70 33 33
401 407 195 95 78 60
407 405 197 101 82 61
407 409 196 101 81 56
412 405 198 104 85 62
415 407 200 102 85 65
379 385 271 132 95 77
414 404 201 103 85 64
482 455 188 76 16 27
412 410 197 102 79 56
392 455 173 112 12 24
451 706 164 103 80 53
413 414 196 98 66 52
269 819 264 198 133 105
345 807 186 48 43 44
457 525 208 86 29 37
417 415 198 88 72 61
383 556 166 110 29 43
414 419 194 81 41 37
418 400 207 106 87 67
420 386 210 104 87 70
380 703 141 82 67 62
305 585 300 82 27 37
420 391 210 106 89 70
280 610 257 179 2 46
387 325 274 130 94 72
422 390 213 107 88 68
330 952 221 72 66 69
421 395 210 108 89 69
270 515 201 73 20 38
402 260 259 135 103 69
423 395 213 107 88 68
424 389 217 116 94 69
426 395 218 115 93 68
475 759 160 84 68 60
418 404 206 106 87 65
460 777 252 79 56 43
307 624 214 194 8 46
420 416 199 83 70 60
282 540 182 160 2 36
419 413 201 86 73 62
407 500 288 81 24 36
423 410 208 98 82 65
439 887 274 54 47 43
434 877 221 83 71 69
422 415 203 86 72 60
434 425 260 137 12 42
502 830 248 84 68 57
348 865 218 43 38 39
287 655 262 135 89 61
428 405 218 114 93 69
346 865 223 65 52 46
429 405 222 117 95 70
340 649 206 127 2 30
430 406 224 118 95 71
426 410 213 107 88 67
425 410 210 99 83 66
497 509 179 151 100 87
333 735 316 178 24 60
430 411 219 114 93 70
264 624 293 167 119 91
349 573 175 188 9 41
354 714 195 106 27 39
429 415 216 109 89 67
271 560 253 172 0 48
432 415 223 116 94 70
427 390 228 119 96 70
429 395 233 117 94 69
429 400 228 118 95 70
429 398 231 117 95 69
430 400 233 116 94 69
392 530 162 91 26 38
401 954 258 63 56 54
502 796 198 112 88 68
283 685 301 168 120 95
482 518 180 133 13 35
430 396 238 118 95 69
269 649 284 174 116 90
431 400 238 117 94 69
373 898 299 43 37 33
430 396 248 123 97 66
422 600 194 119 27 40
431 400 243 120 95 67
431 400 248 125 99 68
475 676 225 116 87 54
430 397 251 125 98 68
293 375 258 123 98 68
430 401 252 126 99 67
429 399 254 125 98 66
430 405 228 117 95 71
475 517 231 63 20 29
362 515 158 136 4 29
431 405 233 116 94 69
466 811 237 111 78 61
451 825 198 87 67 62
432 405 238 118 95 69
431 410 228 117 95 71
432 410 233 118 95 70
432 410 253 128 100 66
432 415 228 118 95 71
387 470 282 81 19 32
342 962 320 65 61 59
447 515 258 45 30 32
282 417 301 57 21 25
433 415 233 120 97 70
446 737 155 73 56 41
433 410 238 121 97 70
433 410 243 122 96 66
348 695 200 72 29 33
400 944 282 55 49 46
433 410 248 126 99 67
323 730 312 180 19 58
434 414 242 124 98 68
342 615 199 81 26 36
435 416 243 125 100 69
274 750 296 166 120 91
434 413 248 127 100 68
435 416 253 114 83 55
422 425 198 76 60 52
424 419 202 82 69 58
294 638 243 119 27 49
406 915 224 70 62 62
424 428 196 73 54 47
273 420 301 85 29 36
426 420 208 91 76 61
427 425 203 80 65 55
427 430 198 73 56 50
428 429 202 74 59 51
431 430 204 74 58 49
428 420 213 102 85 66
351 385 273 125 86 67
430 421 215 107 88 69
429 424 212 99 82 64
429 418 216 109 89 68
431 420 218 112 92 70
433 429 213 86 71 56
299 342 256 124 97 66
432 436 194 58 37 34
429 433 197 70 52 46
458 484 208 49 29 30
312 560 169 64 35 39
349 771 183 48 42 39
432 435 198 65 49 42
285 408 258 65 59 52
412 665 208 68 33 32
430 432 200 71 54 48
444 730 254 149 18 49
433 434 203 70 54 46
435 432 208 73 56 46
433 420 223 117 95 72
407 470 168 82 33 36
436 431 213 78 64 52
434 428 216 96 81 64
362 410 318 140 18 44
397 635 199 47 36 38
437 430 218 86 74 60
346 550 162 45 36 39
438 429 223 84 73 60
440 431 224 82 50 37
477 555 222 108 23 36
437 435 208 71 57 48
438 439 203 66 52 43
433 430 263 136 8 41
439 438 207 73 61 51
486 472 192 53 24 28
440 442 195 56 42 31
441 441 198 58 44 35
443 444 198 60 39 31
453 836 275 61 45 39
476 770 183 94 71 55
285 615 306 168 121 90
445 446 198 70 33 30
386 765 148 64 53 48
273 520 198 121 5 35
444 444 208 76 25 31
261 490 263 145 13 40
439 433 217 77 67 53
330 846 259 163 113 89
442 435 223 107 22 39
354 535 312 43 25 29
442 440 223 112 20 37
444 445 213 85 22 34
337 685 205 116 15 29
396 696 296 36 29 30
312 425 300 90 27 37
307 810 292 169 131 103
443 445 218 62 26 30
443 445 223 56 27 31
434 418 232 119 95 70
436 420 233 114 94 71
435 422 229 112 91 69
437 425 228 95 80 64
267 810 293 183 128 102
280 602 241 180 8 46
294 640 295 171 119 99
435 417 235 122 99 72
435 417 238 124 99 70
307 621 212 194 8 43
439 428 227 75 66 56
439 428 235 51 26 31
348 892 181 72 66 66
440 430 233 64 31 33
440 427 232 48 32 28
430 425 266 137 9 41
271 565 273 123 25 42
440 431 237 52 32 32
437 420 248 124 40 43
438 425 243 91 25 39
437 425 248 125 18 42
440 874 224 77 65 63
436 420 253 135 20 42
292 539 295 104 6 33
439 430 243 56 31 34
438 430 248 91 23 37
390 788 276 73 57 49
437 430 253 122 13 38
441 440 238 74 27 35
373 525 160 115 15 32
304 950 253 60 57 59
377 325 267 114 78 59
443 445 228 71 26 34
336 765 201 71 56 50
410 595 286 156 5 47
442 445 233 86 26 36
465 738 170 64 49 39
439 433 240 77 30 40
450 512 251 134 18 43
439 435 248 89 26 37
272 540 179 141 15 39
402 900 318 50 44 41
412 700 184 72 52 40
439 440 253 52 27 32
439 444 254 112 26 43
441 440 243 104 23 38
440 437 246 93 24 38
277 720 252 118 89 57
312 895 263 153 117 92
440 441 248 84 27 37
441 445 248 60 26 32
354 817 275 168 114 94
260 800 268 184 125 96
436 430 258 133 10 41
358 936 336 52 46 43
440 442 251 102 31 44
387 450 173 115 10 24
392 450 174 113 10 25
446 837 306 81 61 48
292 630 299 171 120 98
387 465 170 113 11 26
367 800 278 170 120 99
392 460 172 108 16 25
444 492 165 117 11 38
270 565 204 70 27 32
282 605 308 165 119 89
392 465 170 82 27 29
496 446 169 95 25 33
471 750 193 79 62 45
451 480 238 96 15 31
394 462 170 94 25 26
347 745 197 83 33 35
398 462 170 77 29 30
473 841 238 85 68 62
387 470 169 110 11 25
392 475 168 112 20 28
369 866 177 71 64 63
407 450 173 115 17 28
407 455 172 110 19 26
402 458 171 97 22 28
266 530 258 90 22 38
407 460 170 70 32 34
476 834 225 104 79 66
407 465 169 44 37 38
412 450 173 65 32 33
412 455 171 72 32 35
392 385 275 144 102 75
344 857 188 34 33 36
417 450 173 58 37 37
292 385 263 119 95 67
381 894 323 31 28 29
409 457 170 107 23 30
412 465 169 69 33 36
402 470 168 54 37 37
465 714 169 79 60 46
486 645 234 141 102 67
402 475 167 46 37 39
407 480 166 91 26 32
412 470 169 59 36 39
415 466 170 73 32 34
409 343 260 126 95 60
416 470 170 71 36 37
412 480 167 95 29 33
476 540 242 101 25 41
417 475 170 70 35 34
417 480 169 58 35 36
387 485 165 115 10 25
449 470 159 95 24 32
386 483 166 115 8 24
428 745 284 109 29 44
388 482 165 113 11 24
500 470 186 104 34 44
417 445 277 140 14 42
392 482 165 71 29 33
392 485 164 94 21 31
366 365 264 86 60 42
412 779 272 78 59 52
362 980 248 77 73 76
392 490 163 120 10 26
397 482 165 49 35 35
421 445 276 141 12 43
397 485 165 97 22 30
397 495 163 126 8 28
387 500 162 120 9 25
387 505 161 119 16 28
392 505 162 127 10 28
387 510 161 68 28 32
392 510 161 103 22 32
273 515 193 125 1 36
309 665 230 137 7 38
352 745 173 43 38 37
369 792 151 71 55 45
397 500 163 125 12 28
271 725 294 165 113 87
469 695 216 117 90 58
397 510 162 107 26 35
323 660 214 130 3 32
401 482 165 89 30 33
406 774 276 79 59 52
401 485 165 120 13 28
382 575 174 175 2 38
407 485 166 130 9 28
415 623 281 32 24 33
397 275 261 125 98 70
402 495 164 130 4 27
406 491 165 130 3 27
408 490 166 134 5 29
319 527 156 177 8 39
406 495 165 136 2 31
412 485 167 101 22 32
417 485 168 92 25 34
332 965 228 79 75 77
372 695 302 55 28 32
417 495 169 147 1 32
402 500 164 127 8 31
369 883 290 68 57 45
427 415 268 138 18 41
274 534 203 134 7 38
327 849 234 176 119 93
408 500 166 135 10 33
423 820 277 49 39 31
406 505 165 118 18 32
408 505 166 85 26 34
462 455 178 50 20 23
437 675 233 72 63 62
429 612 206 94 34 41
402 510 163 87 29 35
412 500 167 130 8 33
384 713 155 60 51 42
278 600 243 169 17 50
327 538 165 175 2 32
264 610 279 156 112 80
416 500 169 140 3 31
397 270 260 125 98 67
416 505 169 139 3 32
419 500 171 137 3 30
409 510 166 42 38 41
348 850 198 46 41 41
412 510 167 81 31 38
347 760 304 91 71 64
416 510 170 113 17 33
422 460 174 91 29 33
455 482 222 104 7 31
425 452 175 45 34 42
354 420 306 130 11 42
417 390 268 133 100 66
326 693 305 50 23 24
425 455 175 43 36 39
347 745 312 142 22 50
360 723 183 58 41 36
374 893 295 47 40 34
426 461 175 59 37 36
453 698 202 97 79 59
427 465 175 40 38 40
454 801 186 104 74 58
452 790 177 99 71 55
424 449 176 52 38 36
427 450 176 71 34 34
293 496 304 133 81 75
379 707 181 54 37 32
428 455 176 41 37 38
428 460 176 55 36 37
422 620 203 53 31 37
429 464 176 46 37 39
362 905 312 47 40 34
468 476 196 78 13 29
418 470 171 63 37 36
422 470 173 49 37 38
422 475 172 54 37 38
422 481 170 66 39 41
422 479 171 45 37 38
427 470 174 49 38 38
432 471 175 84 32 36
480 763 184 98 76 55
427 480 172 48 37 39
432 475 175 97 28 33
432 469 176 51 35 40
439 455 175 57 32 34
452 860 243 85 63 53
458 694 212 103 82 57
438 465 175 59 34 35
444 450 169 43 36 38
447 450 163 62 32 37
319 920 306 175 136 116
442 455 173 84 28 33
448 448 175 109 4 33
447 460 163 82 29 34
477 534 218 133 22 39
444 460 169 66 33 34
445 461 167 63 37 35
447 465 163 107 17 29
445 465 168 69 29 35
381 954 219 78 70 72
442 465 173 52 34 37
444 464 170 54 34 37
323 687 301 42 32 32
437 455 176 57 32 37
294 540 173 130 9 35
432 775 263 72 58 51
412 490 286 104 21 39
347 515 147 138 8 31
436 460 176 78 30 32
312 890 293 142 110 86
439 709 248 129 9 40
501 496 226 132 107 80
436 465 176 67 32 35
444 448 191 54 26 30
446 450 188 56 24 29
447 450 193 54 27 29
344 566 301 65 23 32
268 595 274 132 98 67
464 750 173 65 52 42
437 470 175 79 30 35
437 480 173 58 34 38
307 580 183 163 19 44
447 470 163 99 16 29
412 505 288 86 26 36
446 470 168 90 22 30
409 926 238 59 52 50
271 630 273 142 103 68
445 471 172 73 33 35
352 600 308 174 18 55
305 675 237 89 28 36
448 475 159 97 22 30
445 475 168 82 24 31
451 475 228 115 4 35
397 550 298 35 29 30
272 660 278 143 98 70
457 750 174 82 66 51
445 480 167 86 22 29
297 640 243 60 31 37
442 480 172 95 28 34
445 474 172 80 27 33
435 469 176 52 34 35
422 485 169 85 29 35
422 710 134 91 61 43
419 495 171 148 1 33
420 853 322 93 82 75
423 491 171 134 10 35
422 495 172 152 1 34
425 482 170 45 37 42
390 923 322 59 52 49
432 485 173 95 29 37
432 496 176 154 5 34
454 547 260 86 44 48
418 505 172 138 3 33
422 500 173 140 1 30
352 973 297 67 62 61
417 695 183 71 57 45
422 505 174 134 2 29
354 355 264 113 74 56
422 510 174 135 2 30
406 940 243 59 54 52
426 500 175 146 0 34
287 475 302 48 31 29
392 752 290 75 59 55
265 540 310 166 118 95
432 695 183 63 46 35
425 504 175 136 1 30
417 686 163 71 53 39
306 532 151 185 8 36
428 505 177 138 1 31
258 770 283 167 116 88
432 505 179 142 5 32
435 509 276 43 26 31
317 740 209 107 21 33
424 507 176 132 6 30
427 510 178 132 2 31
483 615 221 151 110 74
432 510 179 140 5 33
444 485 169 84 20 28
443 490 168 76 25 26
342 740 315 191 20 62
362 580 309 168 13 52
351 750 168 54 45 40
440 495 172 114 7 28
359 873 300 85 71 58
436 496 176 140 10 33
436 854 303 68 53 45
462 684 251 176 131 101
439 500 174 119 9 29
265 812 266 191 130 100
439 505 174 92 18 27
508 819 192 103 79 63
286 515 308 146 94 83
439 510 174 96 16 30
346 760 196 98 33 41
467 580 237 53 43 38
442 500 168 56 32 35
442 505 169 51 36 38
448 500 167 51 35 38
440 500 172 88 20 29
406 570 297 170 18 54
440 510 172 59 30 34
278 580 228 132 9 39
417 625 203 80 29 36
361 420 320 143 18 45
446 510 170 70 33 38
447 510 173 59 33 35
437 505 178 131 3 29
436 510 178 128 4 31
448 455 204 70 23 31
428 430 269 136 12 41
307 545 159 131 22 39
316 529 154 182 9 37
447 460 208 56 23 28
445 451 212 76 21 32
312 620 209 144 17 43
402 265 259 134 101 69
446 455 213 63 25 31
443 450 223 70 25 32
342 675 204 108 21 32
445 452 216 111 10 33
444 453 223 93 25 35
290 505 307 145 96 86
372 560 303 146 0 44
445 455 223 87 21 31
265 626 282 166 118 86
447 460 213 70 24 32
448 465 208 78 19 29
446 460 218 93 16 32
469 482 201 90 64 55
447 460 223 65 23 29
321 655 217 145 2 36
326 884 251 118 96 73
448 465 218 107 7 32
382 602 186 171 27 52
444 450 233 59 29 33
444 453 228 44 28 29
377 592 181 47 37 41
387 275 258 117 94 68
410 412 276 87 27 32
434 646 226 100 18 34
446 455 233 52 29 33
444 449 238 58 32 34
445 452 238 71 27 34
448 465 233 91 25 37
447 465 238 68 26 33
308 715 215 80 31 38
439 448 255 98 19 37
443 450 243 34 29 31
445 452 241 28 30 34
441 455 253 102 21 37
492 812 217 106 88 70
444 460 249 107 20 37
445 465 248 81 26 36
444 605 222 105 16 31
443 460 253 118 18 40
446 470 248 93 21 36
307 841 258 58 49 49
472 521 187 181 15 42
444 470 254 104 24 39
346 520 299 61 26 33
447 475 248 129 12 39
367 780 144 95 72 51
446 475 253 137 12 40
448 480 248 126 9 38
264 587 280 142 105 75
446 480 253 137 11 41
441 740 163 72 56 43
447 500 253 130 17 42
396 539 295 67 25 32
448 505 253 42 29 31
452 430 159 118 26 37
453 426 160 125 15 34
298 645 248 137 20 43
293 670 295 159 121 91
462 426 160 98 41 48
322 969 248 84 81 84
463 428 159 98 41 48
452 440 159 68 34 36
352 403 283 62 49 35
456 436 159 78 36 35
452 445 159 71 34 37
400 953 271 62 53 52
432 660 243 42 29 31
471 432 158 93 56 60
271 555 243 167 0 44
347 595 188 79 31 38
386 775 148 60 52 47
439 707 164 96 74 53
469 433 158 91 56 60
472 434 158 91 57 60
310 480 300 149 20 51
273 570 238 155 5 43
265 744 251 131 101 66
467 446 160 121 24 31
340 316 281 125 88 63
433 846 203 76 61 57
472 447 160 49 34 38
452 421 163 116 18 38
452 425 163 123 15 39
417 465 279 118 24 42
348 904 191 70 63 66
349 820 178 63 54 49
451 421 166 119 20 37
434 715 280 80 23 35
455 422 162 113 13 34
451 425 166 124 16 40
498 795 209 103 82 63
452 430 163 122 20 39
379 375 271 133 95 75
462 430 163 113 11 34
311 544 160 122 26 42
402 856 324 93 77 61
431 470 272 136 15 41
457 828 258 69 52 45
455 432 160 105 18 28
362 770 143 96 70 49
457 441 167 110 7 34
273 580 263 91 24 37
342 425 291 119 8 36
293 706 244 71 31 37
457 445 168 99 5 31
451 446 172 113 8 36
347 560 303 56 28 32
462 440 163 98 21 33
369 450 308 46 27 30
461 441 160 82 35 36
461 445 160 78 35 36
462 445 168 91 4 29
316 925 304 154 123 99
465 427 160 96 41 47
467 440 162 98 25 35
355 395 263 110 77 61
472 440 163 84 27 36
425 520 286 104 31 41
467 444 162 118 20 32
327 610 302 55 29 34
466 442 166 101 1 35
305 940 268 112 91 79
447 550 267 93 25 38
472 446 168 77 11 26
371 340 265 100 71 52
502 540 221 157 114 88
310 684 221 37 33 41
328 871 259 105 76 51
472 447 171 59 17 23
347 940 210 80 74 77
477 436 163 91 25 35
340 277 261 108 82 49
477 445 162 50 40 40
482 442 166 91 23 37
482 445 163 55 41 41
469 720 212 99 78 55
482 444 168 78 14 27
486 442 164 71 36 37
482 446 172 56 19 22
490 446 164 88 33 28
492 446 168 94 26 31
487 447 176 60 16 25
492 447 176 64 17 26
497 447 176 70 20 28
404 901 315 46 39 40
452 450 159 64 34 36
320 957 236 72 68 70
449 456 160 67 35 35
362 770 137 96 69 50
350 350 273 123 84 62
301 715 223 101 19 34
452 455 158 46 38 40
277 690 298 168 117 92
457 450 158 62 39 36
457 455 158 56 38 38
449 460 160 81 32 34
452 460 158 66 34 34
316 690 212 80 31 38
457 460 158 102 27 34
392 405 274 103 78 53
454 472 155 88 25 32
262 505 307 148 112 87
452 475 156 82 32 36
356 535 155 129 14 34
381 862 276 97 79 64
257 755 278 166 113 88
282 730 300 172 121 94
448 480 160 133 14 31
364 478 315 112 28 44
455 472 155 90 27 33
301 577 181 106 24 41
457 475 157 93 33 39
457 479 159 153 24 44
462 479 159 155 23 44
472 448 160 57 33 40
466 465 160 110 18 30
415 909 239 75 66 64
466 470 160 130 18 33
297 645 292 168 120 99
466 475 160 125 23 36
449 450 160 78 33 37
358 475 317 73 26 36
458 449 169 76 10 25
372 675 198 50 35 37
357 630 301 108 33 45
457 451 172 72 16 26
313 531 152 186 10 37
463 449 161 72 33 34
300 837 257 73 63 62
404 892 206 81 68 65
462 449 169 69 12 25
462 451 172 55 18 22
305 650 232 175 9 48
388 626 295 103 34 44
312 280 262 115 92 66
291 550 183 96 20 35
452 454 178 69 19 26
449 453 184 51 21 29
360 958 317 61 57 56
282 530 313 157 108 89
457 454 178 67 16 25
457 455 183 55 23 26
449 453 188 61 28 29
420 888 215 60 53 53
