ply
format ascii 1.0
comment Created by Open3D
element vertex 2231
property double x
property double y
property double z
property uchar red
property uchar green
property uchar blue
end_header
396 539 319 67 30 35
171 529 219 205 137 112
266 479 294 152 4 47
419 424 362 118 22 43
270 474 304 156 4 48
243 704 181 128 93 57
371 420 324 72 51 45
270 479 299 163 0 50
284 506 306 173 9 53
269 465 306 107 21 42
273 468 318 72 28 35
416 419 259 121 9 31
274 470 320 80 28 39
272 474 309 83 24 37
336 950 227 85 79 82
274 476 311 60 17 29
273 472 317 34 26 37
214 531 187 50 35 31
413 511 314 88 33 43
275 474 319 56 27 33
351 515 375 207 0 66
275 479 314 146 9 46
277 479 319 72 27 37
261 489 284 151 2 46
259 490 281 150 0 44
261 494 283 150 1 44
264 489 286 152 0 44
259 500 281 121 7 39
316 538 165 169 1 36
260 504 281 143 1 42
262 504 282 145 0 43
432 464 304 99 26 40
257 530 143 154 2 33
345 669 329 185 131 110
260 509 281 142 0 43
262 509 282 144 0 43
371 840 134 95 82 72
267 504 287 145 0 43
418 459 262 46 35 35
268 484 293 158 3 48
270 484 295 161 0 49
270 489 294 161 0 48
272 484 299 164 0 49
273 483 303 167 0 49
271 494 294 156 0 45
275 485 304 169 0 51
425 484 294 178 10 46
295 513 362 45 30 24
332 825 257 139 106 83
274 486 300 167 0 53
276 489 304 168 0 50
273 494 297 158 0 46
240 764 174 170 115 84
275 494 299 159 0 46
277 489 309 170 0 50
276 644 196 107 21 33
358 802 277 70 58 51
277 484 314 160 4 50
314 770 261 76 60 54
279 486 316 155 0 47
330 864 184 37 33 36
280 489 314 167 0 49
275 564 296 143 0 42
286 809 166 177 119 83
279 490 311 163 0 48
330 952 297 63 57 54
278 494 308 136 6 43
284 730 266 171 7 55
279 494 310 84 20 39
374 587 231 108 15 35
282 494 318 135 13 47
276 620 187 45 36 39
274 500 296 158 0 46
275 504 295 156 0 47
276 499 299 163 0 48
261 809 213 178 135 108
277 504 298 162 0 49
271 569 293 146 0 44
212 614 222 159 115 91
279 500 305 176 0 53
296 789 234 77 61 55
280 505 300 166 0 49
273 509 292 149 0 45
396 414 299 69 31 31
278 508 297 157 0 48
271 814 168 182 123 89
281 524 363 61 28 26
280 509 299 154 3 48
285 510 305 85 23 39
282 503 308 177 1 53
322 599 193 74 23 36
302 860 236 123 90 60
434 444 338 109 29 45
285 505 310 175 1 53
481 773 243 124 97 68
363 529 212 40 40 44
372 460 371 125 22 46
282 499 314 50 26 33
283 502 312 153 23 57
284 500 315 53 29 33
286 499 319 71 27 35
360 859 254 108 80 65
286 504 314 125 19 45
290 505 320 128 23 48
336 945 223 89 84 86
268 452 322 29 27 29
270 454 324 58 26 33
418 499 274 161 13 41
272 464 324 52 29 33
357 599 218 139 15 38
243 799 194 181 130 100
273 453 332 151 4 45
273 463 327 46 27 32
275 464 329 56 27 33
277 464 334 77 28 35
278 452 342 154 0 48
375 639 293 156 12 47
280 454 344 152 1 46
279 455 340 159 0 45
406 515 324 203 7 62
301 833 199 54 44 45
280 459 340 133 9 44
319 611 351 185 130 104
281 464 339 64 28 36
279 465 335 110 25 43
282 454 349 146 6 46
282 459 344 149 4 47
432 459 324 162 14 46
283 463 342 79 25 36
209 520 188 53 26 33
283 458 348 95 16 37
284 461 346 159 2 47
266 669 198 67 44 37
273 467 322 61 22 30
277 469 329 146 9 47
280 469 334 103 20 40
279 470 331 156 9 50
355 569 211 46 33 39
324 870 302 155 116 93
278 478 323 87 27 39
365 943 270 72 65 71
390 864 211 66 57 55
282 474 334 51 27 34
283 478 333 48 28 33
356 815 265 110 79 64
282 468 338 79 27 34
284 466 341 88 33 38
287 469 344 128 13 44
413 775 207 52 44 40
315 870 307 168 124 100
283 472 337 68 21 30
288 473 343 143 8 45
414 508 324 193 16 58
284 455 354 101 17 38
287 454 364 92 23 38
287 453 369 112 23 39
288 458 359 115 15 41
287 454 379 47 26 30
285 454 383 73 22 33
286 459 384 102 23 41
291 832 198 55 36 43
279 481 321 153 6 41
419 469 347 160 14 48
361 423 325 69 57 48
281 484 324 171 1 52
329 640 334 188 132 107
413 516 289 207 12 56
334 869 292 153 115 91
285 485 330 166 1 50
284 490 325 143 5 45
372 953 312 74 67 62
284 481 331 75 19 30
288 488 332 142 22 51
287 493 328 50 29 33
286 449 389 115 19 36
362 919 223 70 64 65
287 498 323 82 28 39
318 575 182 167 0 36
306 634 193 120 13 30
352 450 385 170 14 56
433 735 234 72 58 44
261 494 384 32 26 32
438 435 283 71 32 40
271 489 384 82 8 26
262 503 380 90 21 40
262 503 383 58 26 31
271 504 374 36 33 32
266 499 379 51 32 25
309 951 306 71 64 62
266 503 384 31 27 30
422 874 273 79 62 54
271 498 378 39 26 28
272 501 376 38 30 30
276 488 382 90 0 27
283 628 287 87 28 37
190 554 208 158 108 80
378 709 183 52 43 37
276 490 381 90 5 25
276 494 379 58 23 24
274 504 392 39 23 30
240 574 259 128 19 44
428 783 281 97 68 47
281 489 380 90 4 22
371 803 180 56 49 49
281 494 378 82 10 36
283 486 381 91 15 27
273 904 288 176 137 113
343 782 282 64 50 48
286 489 379 92 1 28
286 495 375 81 16 26
286 579 305 149 0 44
282 496 376 71 20 26
285 492 377 89 1 26
326 889 160 112 94 87
281 509 368 59 27 29
286 508 367 55 22 24
276 500 375 37 25 28
291 799 228 76 63 56
303 508 338 38 23 31
281 499 374 43 25 27
280 503 372 41 28 31
276 498 377 33 29 29
276 502 383 71 27 36
279 497 377 36 33 24
272 899 260 164 130 105
276 505 381 58 28 30
398 535 320 70 32 37
272 506 371 60 37 28
356 760 305 69 55 48
281 505 370 38 24 30
280 505 381 52 28 30
286 499 373 69 23 27
307 594 317 148 0 45
287 500 371 55 25 26
212 624 199 156 109 74
286 504 369 57 28 28
282 510 384 83 21 38
415 514 289 191 14 52
303 453 350 70 55 41
288 467 347 153 4 47
216 554 234 121 1 37
290 474 344 151 1 46
290 480 339 159 0 48
294 475 350 143 0 44
293 477 347 143 0 43
295 479 349 140 0 41
311 452 346 71 58 44
276 810 216 160 129 104
317 451 348 75 62 48
242 554 267 92 13 33
258 522 417 166 116 102
316 453 349 74 60 45
319 452 351 74 60 46
289 460 359 134 13 42
291 464 359 124 10 41
290 459 364 116 19 39
331 455 369 69 52 41
302 454 354 69 53 40
296 449 374 77 19 23
342 488 371 40 26 29
296 455 384 73 22 25
291 464 374 85 16 34
345 923 210 75 69 70
262 539 164 54 33 36
289 461 377 36 31 28
289 465 382 75 17 28
256 799 168 173 115 81
300 451 374 68 26 27
302 452 375 65 31 24
266 809 167 178 121 86
293 468 359 97 15 37
403 947 276 87 72 69
345 409 281 63 46 39
294 470 359 86 15 36
293 468 364 128 11 40
294 470 369 97 10 36
381 825 274 53 41 37
293 472 352 147 1 45
295 474 354 141 0 43
323 595 192 164 2 39
297 479 354 135 0 41
349 447 392 125 30 46
296 474 364 100 19 37
296 474 369 76 15 29
223 552 186 101 28 39
297 479 364 120 7 36
412 820 214 66 53 49
346 898 295 65 53 45
296 479 369 123 3 39
344 947 226 81 76 77
393 551 306 176 13 54
294 471 379 47 23 31
295 474 374 86 14 35
296 559 316 69 23 32
342 434 330 70 59 49
291 474 384 64 24 23
290 479 383 71 12 26
319 552 171 166 1 41
386 416 314 74 45 41
292 479 380 67 14 27
295 474 379 52 25 27
293 476 381 54 32 30
336 514 174 120 18 35
346 950 294 43 37 34
361 864 119 93 82 71
332 795 157 66 51 41
294 474 382 56 13 22
294 479 378 67 17 30
306 455 354 70 54 41
306 454 359 65 50 36
203 604 205 162 112 80
306 451 369 62 39 28
342 921 207 77 71 72
305 452 369 62 38 28
311 452 364 65 45 35
384 898 240 70 61 63
431 454 339 147 14 48
316 453 354 72 58 43
321 452 359 69 56 42
316 451 364 75 51 39
315 451 368 75 45 36
271 506 417 95 73 55
476 738 206 68 53 43
321 451 364 72 56 42
321 453 369 78 53 42
318 698 166 62 43 40
311 451 373 65 37 31
306 456 383 65 27 29
351 939 224 73 68 68
311 454 379 80 38 37
286 779 233 79 63 56
343 867 130 104 83 66
316 453 374 65 47 36
398 815 207 68 54 50
321 455 374 71 51 41
316 455 377 60 47 35
331 504 384 149 12 48
319 455 377 63 50 38
314 459 382 55 39 24
316 463 384 60 37 29
321 462 380 70 37 33
320 462 384 68 29 28
315 479 384 143 10 44
326 963 279 70 63 60
320 472 383 137 16 46
318 476 381 141 13 45
386 739 184 60 48 42
321 479 378 55 25 30
290 489 334 98 27 42
290 494 330 34 27 31
293 482 342 152 0 44
275 492 399 74 24 32
295 489 340 58 24 33
297 494 339 41 26 31
298 483 349 139 1 44
298 487 347 138 0 49
299 485 350 133 0 42
394 543 318 88 33 40
300 494 344 43 26 32
446 953 281 107 85 65
291 504 324 124 21 45
293 497 332 30 29 30
293 508 323 108 30 46
256 714 249 94 26 40
280 765 240 83 67 59
294 506 326 137 6 47
465 912 285 97 85 75
294 511 321 134 20 41
426 479 324 178 11 50
349 839 148 106 92 86
466 905 303 81 71 62
407 684 234 86 66 49
298 503 333 65 30 32
299 500 336 52 31 37
300 504 334 60 26 34
299 506 331 123 42 55
298 498 337 28 31 28
186 544 209 174 119 93
300 499 339 70 27 37
302 498 344 55 24 32
302 504 339 36 27 29
244 539 266 59 28 32
380 544 230 144 12 35
303 497 349 63 21 35
304 500 345 29 28 28
221 544 184 73 28 37
304 499 349 61 20 34
305 504 349 101 11 38
421 415 344 76 16 29
298 803 232 58 50 47
305 509 339 58 23 32
300 484 354 129 0 39
338 446 354 66 50 42
341 541 356 151 10 52
299 481 363 126 0 37
278 918 297 177 131 111
300 484 364 122 0 35
298 484 369 113 1 32
299 485 368 114 0 34
300 489 368 108 0 34
300 493 368 102 1 34
439 433 285 56 34 38
301 494 364 109 0 35
434 763 229 64 51 44
296 484 374 98 4 30
291 484 379 94 5 27
399 686 220 64 45 41
406 874 289 39 35 34
350 899 200 64 58 61
290 488 378 94 3 28
245 579 269 61 31 36
296 654 191 104 21 26
291 494 374 76 21 28
423 481 278 171 15 48
338 658 197 79 32 30
296 494 370 93 11 28
298 489 371 102 1 31
280 747 167 104 81 51
296 509 364 48 30 28
301 499 359 114 0 31
196 519 228 32 25 26
302 504 359 103 0 33
391 415 309 72 39 35
462 727 210 98 79 61
296 499 368 90 10 29
291 499 370 65 24 27
293 496 371 76 24 23
292 509 374 67 25 33
296 509 373 98 16 33
431 414 289 92 26 30
292 506 378 66 23 29
296 505 379 81 23 34
295 509 381 65 34 36
323 921 197 96 87 87
297 509 383 77 24 31
301 505 374 112 20 41
289 858 247 125 100 74
300 508 372 129 19 41
251 534 144 177 4 37
298 509 371 137 11 45
370 438 388 105 27 41
301 507 385 53 28 27
311 484 384 128 8 38
311 494 384 113 5 35
314 482 382 129 9 39
316 489 380 63 18 29
316 495 383 111 4 32
321 496 382 110 2 37
306 509 369 73 22 34
306 506 374 60 27 32
473 877 314 90 77 66
306 507 372 31 25 29
311 507 374 78 21 34
310 506 375 49 23 25
306 506 382 37 27 27
243 543 160 143 7 38
306 507 385 41 26 30
312 507 379 53 25 29
311 508 384 44 27 28
323 545 172 167 0 34
382 514 232 108 11 30
475 858 309 110 92 73
316 508 374 84 25 36
319 803 146 93 69 47
316 510 370 70 22 30
321 511 370 132 15 45
242 609 248 148 13 49
321 509 379 41 30 30
321 509 384 65 29 33
457 760 234 100 77 58
332 439 336 74 61 48
329 386 260 108 92 74
346 783 283 73 57 53
332 388 259 110 93 75
327 921 317 40 39 39
335 390 259 110 93 75
335 390 264 101 86 70
382 818 193 58 50 54
333 387 274 69 60 51
331 389 284 67 59 52
235 729 194 168 112 86
371 709 331 191 134 110
346 412 309 72 62 52
331 389 289 75 67 59
307 569 335 83 21 37
334 391 282 65 58 53
449 410 314 155 14 54
332 393 284 69 62 55
336 395 284 65 57 51
235 601 196 102 73 50
251 514 133 110 25 37
337 397 285 65 58 51
337 392 259 110 93 75
338 392 264 101 86 70
338 392 269 80 68 57
351 398 259 103 85 69
347 883 159 83 67 60
351 397 264 84 69 58
450 733 224 83 61 46
258 511 417 118 94 71
348 397 269 66 54 47
338 392 274 63 55 48
341 400 289 66 56 49
293 682 282 103 32 43
347 397 274 60 48 42
351 398 274 61 47 42
342 409 284 67 54 46
321 958 235 93 90 94
342 409 280 65 51 43
343 412 284 66 51 42
332 848 280 131 96 70
343 412 288 68 54 44
346 406 281 63 49 42
344 404 287 64 47 41
354 841 262 149 114 87
351 404 283 65 50 44
439 434 329 108 23 39
254 704 239 120 16 43
373 575 227 139 12 40
352 402 281 64 49 43
347 410 282 61 46 40
346 413 284 66 47 40
302 564 340 141 20 48
292 953 293 66 61 60
377 569 334 49 29 34
346 413 289 69 50 43
349 412 286 66 50 44
320 583 186 169 2 37
334 391 296 87 73 59
333 389 299 91 76 59
334 391 299 90 75 59
333 393 293 81 70 59
367 813 278 62 49 45
335 394 294 81 69 58
336 394 299 88 73 58
336 394 304 94 77 58
327 389 320 115 92 67
329 389 318 113 90 64
388 421 342 63 30 28
333 392 310 104 83 60
332 393 314 107 86 62
336 399 314 97 79 58
337 404 314 88 74 58
338 399 304 88 74 57
337 399 309 93 76 59
429 412 314 65 18 29
362 596 326 88 19 35
340 404 299 75 64 53
301 924 313 49 47 48
342 409 304 75 64 53
344 410 294 70 58 48
311 965 269 59 55 55
448 415 309 87 24 35
344 411 299 73 63 53
346 412 299 72 58 49
346 412 304 73 61 51
351 411 304 71 57 49
349 412 299 72 57 49
354 830 171 57 51 57
266 830 194 206 141 111
338 402 306 86 72 58
338 403 309 87 73 58
270 542 171 67 28 31
331 644 334 190 134 108
339 405 309 82 70 57
341 409 309 77 66 55
371 445 380 54 27 32
339 405 313 83 71 58
433 414 293 76 24 29
340 409 314 77 66 55
321 774 154 61 52 44
337 409 319 80 68 56
439 776 250 92 71 55
293 942 231 73 69 70
343 412 311 75 65 55
339 410 317 77 66 56
336 854 189 37 33 36
341 414 319 74 64 54
335 496 377 108 9 35
338 412 320 76 65 54
342 412 315 74 64 54
351 412 309 71 58 49
346 413 314 73 63 54
265 749 250 56 28 35
351 415 318 72 62 53
356 399 259 96 74 62
230 587 207 74 42 39
369 641 319 120 88 61
373 807 297 174 129 104
356 398 264 77 61 52
284 885 296 177 135 120
361 400 274 64 51 45
339 590 348 145 102 71
313 699 303 153 13 49
311 829 179 82 64 56
346 834 164 60 52 50
366 400 264 64 46 40
341 448 359 66 47 40
314 683 178 44 36 40
366 400 269 64 48 43
265 564 169 49 33 37
357 406 287 67 57 49
361 406 288 68 57 49
419 503 294 174 12 46
406 479 354 186 10 59
365 401 273 64 51 45
332 452 365 67 50 41
441 409 314 62 16 27
367 402 275 65 53 46
301 814 165 61 49 47
366 405 284 67 57 49
276 509 390 40 25 30
371 401 264 61 42 37
407 485 351 133 19 47
381 949 312 59 50 44
280 464 393 70 14 29
368 402 271 64 50 44
381 401 259 52 30 29
381 401 263 56 30 31
381 402 265 58 30 32
381 403 269 60 34 34
371 404 279 66 53 45
376 404 274 63 44 39
376 405 279 64 46 40
396 709 284 141 12 44
207 534 232 103 9 33
371 408 289 70 54 47
372 407 286 68 54 46
381 406 279 63 39 35
381 407 284 66 39 35
356 409 294 68 57 49
436 757 251 63 51 41
361 408 294 69 57 49
299 622 191 144 3 37
414 421 279 83 12 29
356 410 299 70 57 49
356 411 304 69 53 47
310 573 176 172 1 35
361 410 299 70 58 50
361 411 303 69 55 48
228 597 197 114 83 53
366 412 304 72 56 49
361 413 309 71 52 46
361 415 314 73 58 49
331 619 354 181 128 102
183 547 227 177 122 102
366 414 309 76 53 47
376 410 294 73 50 45
371 520 370 171 15 57
371 412 304 76 52 46
372 412 301 76 53 47
344 734 161 64 51 42
376 412 300 74 53 47
376 413 304 74 54 47
380 411 298 72 48 43
369 869 200 61 56 58
381 412 300 72 49 43
355 952 299 53 48 44
334 849 158 89 75 64
381 413 304 72 51 45
376 414 309 76 52 46
301 833 189 76 59 54
371 416 313 78 52 47
381 415 309 74 52 45
351 418 320 72 61 52
361 418 319 72 58 49
364 416 317 77 56 49
300 716 155 69 41 35
401 920 304 64 58 53
366 418 319 74 54 47
376 417 316 77 51 46
413 485 346 173 10 53
376 418 319 76 50 45
322 388 325 119 95 67
324 386 322 117 93 67
325 389 323 117 94 67
328 393 321 114 92 66
325 399 328 112 90 66
329 396 322 111 89 66
330 400 323 105 86 64
195 579 214 178 122 96
327 409 330 94 78 60
348 436 332 70 53 46
325 410 332 95 78 59
334 406 322 90 75 60
343 593 340 134 94 68
341 659 324 165 114 97
408 834 223 59 50 48
333 412 326 77 67 56
335 649 324 173 115 99
376 768 170 75 59 47
361 694 333 184 128 103
340 415 323 73 63 54
241 569 179 71 31 35
322 417 336 83 70 55
330 516 366 160 15 50
415 921 303 62 54 48
331 419 330 74 64 54
282 624 288 91 31 43
330 420 332 75 64 53
332 422 330 72 63 53
336 439 335 73 61 49
322 442 341 74 63 50
339 860 283 140 102 76
325 441 342 74 62 50
276 709 185 94 18 27
360 795 285 67 54 51
326 444 343 75 63 50
241 639 222 128 86 74
313 844 226 161 119 92
370 639 234 82 30 35
326 447 346 77 64 49
337 442 336 73 61 49
264 502 387 32 24 32
336 443 339 73 61 48
334 447 346 71 56 46
363 856 182 61 57 60
341 419 324 72 62 53
339 426 332 71 61 50
268 701 262 142 0 44
295 784 235 76 61 54
339 429 332 71 60 50
346 420 322 72 62 52
351 424 322 71 61 52
346 429 325 72 58 50
371 804 294 119 90 73
355 624 220 67 32 35
346 433 325 71 58 49
346 804 269 160 115 94
321 919 194 90 81 80
346 435 329 70 56 47
331 639 306 79 21 35
218 516 247 119 5 34
351 433 325 72 56 48
349 437 335 71 59 50
341 444 339 69 56 46
331 874 154 82 69 68
459 959 292 87 73 60
341 443 344 71 58 47
204 520 197 181 0 42
343 441 347 67 55 45
339 696 166 65 46 38
351 439 349 69 56 46
344 442 336 70 55 47
344 442 338 71 56 47
216 524 178 63 30 36
351 440 354 67 53 43
213 647 206 169 117 85
303 582 358 192 129 104
424 489 314 65 29 33
434 724 240 64 48 39
351 443 359 66 49 40
314 884 189 45 42 42
352 441 358 65 50 39
434 719 253 55 45 34
344 447 361 68 48 41
347 446 363 69 47 39
279 487 396 58 7 20
345 448 374 80 39 34
348 446 375 82 34 33
351 444 374 84 29 31
182 544 224 175 119 97
347 445 379 84 21 29
351 819 260 136 105 83
206 546 206 107 65 45
356 424 324 69 58 49
378 861 262 35 32 30
361 421 323 69 55 47
414 447 256 139 10 36
355 428 325 69 58 48
366 422 326 68 50 44
363 426 332 69 56 46
366 425 334 68 54 45
298 817 222 63 52 50
358 431 337 71 55 47
361 861 61 105 91 79
344 916 312 37 35 37
361 430 339 70 55 46
366 428 339 70 54 45
271 499 393 62 16 29
326 926 202 92 83 83
355 432 334 72 60 51
376 444 379 48 27 32
301 929 313 45 43 43
336 534 359 43 25 30
311 779 153 62 50 46
331 455 394 67 24 25
356 435 344 69 54 46
372 431 364 61 24 26
359 432 340 70 54 46
316 784 255 52 43 44
360 433 344 69 53 44
354 437 346 70 55 47
409 438 367 138 16 39
355 438 349 69 55 46
357 436 349 69 54 45
361 434 349 67 51 42
365 432 350 66 49 40
346 947 309 60 54 50
372 421 327 69 51 44
376 423 334 64 46 39
293 803 227 76 62 57
385 809 195 65 54 52
382 421 333 63 41 35
331 950 299 59 53 52
380 422 335 63 42 36
368 426 337 69 53 44
370 427 340 69 52 43
326 942 317 62 58 57
441 414 334 113 14 38
376 425 344 64 44 37
375 427 349 62 39 34
365 912 220 75 68 69
381 423 339 63 40 34
246 684 220 139 103 86
381 424 344 62 37 32
381 425 349 61 33 31
356 438 354 66 52 42
356 439 359 65 49 38
361 435 354 65 49 40
360 437 359 65 47 37
269 674 256 150 0 46
357 440 369 81 33 33
412 869 244 69 59 57
341 449 393 64 18 31
354 442 365 71 42 35
362 436 359 65 46 37
456 959 279 112 90 67
382 684 207 65 50 39
363 436 363 66 37 32
391 924 283 95 82 79
366 435 369 72 19 27
356 900 294 59 46 39
364 672 207 107 25 30
364 437 368 72 28 30
356 439 384 102 14 36
360 437 384 106 16 38
354 442 373 86 27 31
360 448 382 91 32 40
366 598 323 160 12 50
261 524 149 51 29 33
404 487 352 31 29 32
363 436 371 80 17 29
363 436 374 85 11 30
363 436 384 98 15 36
376 624 254 37 32 37
302 549 371 181 126 99
404 417 329 75 13 27
252 823 189 228 159 128
366 434 379 86 10 31
366 435 384 92 15 34
366 443 384 117 29 46
286 694 184 102 23 26
367 446 381 140 31 53
371 430 354 62 39 34
372 431 369 67 18 24
414 711 226 69 56 41
378 426 353 60 34 31
379 427 356 60 30 31
254 714 240 119 18 41
372 431 374 72 13 24
424 696 257 69 54 38
279 546 371 193 128 105
376 838 124 83 71 58
382 426 373 68 19 25
381 427 379 73 16 25
370 432 364 61 25 26
383 891 228 74 63 61
367 929 234 75 67 68
361 559 214 136 7 32
376 439 383 89 26 38
377 441 381 56 29 32
411 429 368 145 16 48
313 608 317 144 3 47
376 449 375 143 22 52
382 914 264 63 56 58
381 440 380 99 26 38
383 436 381 183 14 58
298 784 148 106 78 51
381 443 378 160 26 58
322 451 353 71 58 44
326 452 366 69 53 41
381 529 359 69 25 34
331 452 354 66 51 41
328 452 356 67 53 42
302 703 155 83 55 44
437 824 254 75 57 47
336 451 363 65 47 40
325 456 372 71 53 42
322 458 376 70 52 41
326 459 384 83 25 31
410 872 254 60 51 52
332 456 374 70 49 41
351 449 389 138 20 48
336 454 374 73 47 38
480 908 300 93 78 66
336 453 379 81 36 36
471 726 205 90 71 53
281 554 300 100 24 41
332 455 384 85 23 32
329 457 374 70 48 40
330 457 379 80 39 38
235 615 234 91 31 41
331 464 384 67 28 34
336 462 383 49 28 32
386 503 360 130 13 40
333 648 339 195 138 110
417 749 279 138 102 68
322 470 384 80 24 35
300 515 373 83 19 36
369 934 269 67 59 66
323 471 381 139 29 50
222 639 195 161 111 72
326 468 384 65 23 32
414 740 269 122 92 62
343 587 336 97 38 36
326 474 378 92 22 38
325 477 377 66 20 32
365 453 377 70 27 34
266 508 392 63 17 21
336 469 375 112 26 44
331 469 378 89 27 39
371 514 372 39 27 30
378 677 326 141 99 62
331 658 302 148 7 47
332 466 380 88 24 35
331 474 375 84 25 36
336 474 373 54 25 31
310 966 259 74 70 71
339 452 366 68 50 42
340 452 369 70 50 41
371 825 113 136 107 81
340 452 374 76 45 37
234 689 192 131 93 59
326 609 198 148 6 36
338 451 380 90 26 34
281 948 269 78 73 75
338 451 385 91 19 33
337 461 385 48 24 29
337 654 339 199 139 113
366 704 332 188 132 106
400 784 194 60 50 48
351 464 374 56 25 32
428 772 269 63 48 37
344 462 377 94 26 38
350 458 378 178 11 57
341 479 371 77 23 35
346 469 373 38 29 30
351 469 373 55 28 32
351 479 368 56 25 30
326 484 376 46 23 28
337 965 249 83 76 79
216 534 184 58 34 36
313 752 273 79 61 55
323 484 376 37 26 26
338 550 187 81 37 37
331 484 374 43 28 29
336 484 373 51 21 28
332 493 376 98 14 34
330 495 378 104 8 34
448 415 314 162 15 48
250 629 244 54 30 34
368 493 361 76 12 25
325 511 370 170 12 54
326 509 384 102 25 41
276 821 172 198 135 103
330 500 383 122 9 39
330 511 375 97 16 41
283 930 302 53 47 45
376 744 323 188 132 106
424 822 251 82 63 54
331 510 379 88 24 38
331 509 384 172 15 58
336 511 380 187 13 61
350 484 367 99 21 37
341 484 370 95 20 38
340 490 372 62 25 29
440 756 248 65 51 39
343 492 371 87 21 32
342 874 173 61 55 59
346 493 370 121 15 41
300 500 393 91 8 29
351 494 369 124 11 39
341 498 375 111 10 35
341 500 378 121 6 38
238 704 186 132 93 57
377 634 289 130 19 44
376 669 324 141 98 66
340 508 382 180 7 58
274 929 284 89 69 62
346 499 375 116 7 35
350 496 372 119 8 36
433 450 283 131 42 55
375 819 184 63 53 50
346 504 379 139 5 44
346 509 380 184 2 58
356 449 384 83 21 33
358 451 381 111 29 46
298 891 307 103 91 83
380 619 284 67 28 34
297 958 269 70 66 66
361 454 378 134 18 47
299 516 382 97 62 56
380 809 191 65 54 51
356 464 373 149 19 51
284 536 167 170 0 39
430 444 270 110 27 34
361 459 375 179 14 59
306 534 161 168 2 36
396 759 325 176 123 91
356 457 377 178 12 56
365 462 372 169 16 55
356 478 367 71 24 33
426 947 280 86 73 65
356 480 366 114 27 44
361 477 367 131 34 53
366 474 368 61 26 31
368 476 366 94 21 41
355 468 372 92 29 38
358 466 371 166 17 54
361 469 370 142 16 47
259 635 255 53 30 34
340 584 200 114 23 39
356 474 369 51 25 30
368 461 371 46 15 24
371 464 370 88 25 37
376 459 370 154 14 51
377 455 371 172 10 54
331 889 299 146 106 82
275 869 259 138 107 82
338 782 277 67 51 48
374 458 372 174 13 58
376 464 369 103 22 39
372 880 208 56 51 52
382 451 371 185 6 57
383 837 192 64 55 55
381 459 369 154 17 52
214 536 197 107 8 30
376 469 368 96 27 41
371 474 367 46 26 30
371 476 366 83 32 43
371 479 364 105 27 42
341 524 363 119 17 43
477 871 312 88 78 68
381 469 367 101 22 40
398 724 207 47 38 37
426 729 226 79 60 48
382 471 366 120 33 47
381 478 363 38 28 30
276 889 279 80 65 63
299 551 167 94 27 30
356 484 365 62 23 32
251 529 140 150 9 35
295 776 241 73 58 52
381 708 194 50 37 37
353 489 366 80 17 31
296 569 174 103 26 36
361 484 364 96 23 37
361 489 363 66 25 32
355 495 367 119 8 37
367 489 361 70 25 31
307 744 279 74 58 54
305 908 209 56 52 53
356 499 369 118 7 36
361 500 368 121 12 39
365 500 367 86 16 34
444 738 224 85 61 49
366 504 369 110 14 37
331 719 315 54 28 32
355 501 372 119 5 38
356 504 374 126 7 38
358 502 371 121 8 39
186 554 214 161 109 81
357 508 376 155 6 51
311 834 264 91 70 45
354 506 377 143 9 49
355 509 377 169 3 55
366 509 373 119 19 42
329 863 174 47 41 38
371 489 360 74 23 32
338 818 162 82 62 53
376 484 360 75 25 34
230 665 216 168 125 107
276 469 394 77 6 26
315 829 239 160 118 94
371 494 361 82 20 33
381 484 358 72 23 33
382 489 356 136 19 45
381 494 358 85 21 32
368 502 366 88 11 35
347 804 169 60 50 49
395 519 344 53 29 33
377 497 361 96 21 35
381 504 363 97 16 35
382 502 361 68 22 28
371 508 370 76 17 31
417 703 237 71 52 38
292 700 164 65 49 40
282 446 389 120 18 39
369 519 220 103 34 45
282 449 393 125 28 40
431 854 283 52 44 38
272 469 395 63 23 26
214 531 241 162 22 56
266 479 395 79 8 23
271 473 399 78 21 29
371 934 315 42 38 35
270 478 393 71 14 24
435 454 304 80 32 37
266 479 409 88 14 32
191 519 204 152 100 86
211 564 203 124 85 56
270 475 408 89 12 32
392 429 380 66 28 32
271 479 404 130 9 41
370 794 299 171 126 98
282 543 171 144 11 36
275 463 399 67 20 28
280 459 394 57 21 29
252 740 166 122 92 58
271 510 390 58 28 22
416 749 219 48 42 40
277 460 399 54 25 27
278 460 396 48 23 26
351 720 165 57 49 41
425 484 324 112 21 39
276 464 395 78 14 30
281 454 389 105 19 38
287 453 390 112 19 35
284 450 392 122 25 40
261 614 274 129 26 48
283 457 386 102 12 26
364 636 310 122 76 58
282 459 389 79 22 33
285 459 388 68 19 27
284 464 387 38 30 28
288 463 396 125 22 41
280 460 402 108 21 39
259 635 202 85 20 30
282 464 401 129 11 40
273 466 399 82 15 31
220 580 201 103 76 51
389 528 348 72 29 37
280 469 392 80 9 26
276 470 400 125 10 40
371 944 315 55 47 41
281 469 399 126 10 39
273 476 391 79 2 31
276 479 388 85 4 25
281 474 389 58 18 23
406 469 358 104 17 38
276 473 393 89 6 29
268 489 405 97 5 31
276 474 399 125 10 39
276 479 395 96 5 30
324 678 167 70 51 48
379 603 259 85 30 37
431 784 280 69 54 43
426 479 289 179 16 49
274 478 398 125 11 38
391 418 324 72 31 32
286 469 397 123 12 39
287 474 386 58 24 23
366 704 165 61 47 41
286 479 399 58 10 23
276 468 403 111 10 35
279 467 402 125 10 37
316 664 188 43 34 37
261 489 389 36 24 26
260 483 399 100 8 35
260 487 393 38 33 27
228 567 190 142 5 34
258 495 386 60 34 36
262 491 386 32 29 25
429 474 314 177 11 50
354 665 206 91 26 20
265 488 388 50 18 27
270 483 388 84 7 25
272 490 390 54 16 23
272 659 264 171 1 52
272 485 386 89 1 32
271 489 394 60 17 23
436 740 238 59 47 36
272 492 398 69 17 25
260 483 404 130 14 44
257 485 404 134 13 43
340 599 205 66 29 35
258 486 407 131 12 43
394 559 259 192 12 52
261 484 408 128 14 41
438 431 282 40 37 35
222 559 194 118 12 35
261 489 410 119 12 40
262 493 411 103 9 35
248 744 166 129 96 60
258 495 412 122 16 39
444 411 323 90 15 34
266 484 409 104 8 36
266 489 408 95 15 33
269 482 407 111 4 35
270 490 403 86 11 32
291 839 264 144 116 91
266 494 409 90 6 30
301 559 317 49 29 33
271 493 405 77 4 26
271 495 408 79 22 34
320 559 175 168 1 38
258 504 396 80 9 27
350 844 165 49 44 45
266 498 389 60 21 33
386 679 309 120 94 62
229 514 168 51 31 36
267 501 386 53 19 28
271 501 386 49 25 31
386 709 329 166 110 80
266 504 394 68 19 21
270 508 392 55 33 20
351 944 229 75 69 70
266 498 411 71 15 25
416 729 252 53 42 37
354 840 171 58 50 50
271 498 410 79 47 38
272 501 412 105 79 62
286 549 374 196 134 110
271 504 414 100 76 60
231 569 189 100 23 39
273 484 395 67 4 22
276 484 393 57 6 22
280 484 395 58 11 20
414 845 240 57 50 51
279 487 399 63 15 23
275 493 394 65 18 26
285 482 400 58 15 22
282 490 407 110 73 65
443 762 241 85 66 47
285 490 407 126 99 86
275 501 385 74 29 37
421 429 359 128 21 44
386 478 362 55 25 31
253 659 222 78 50 46
277 504 390 41 20 28
281 509 388 56 26 29
442 424 289 96 33 39
284 505 387 35 21 28
284 508 387 49 16 21
289 532 397 186 121 98
276 498 410 83 55 45
281 499 409 108 37 42
280 501 412 112 75 57
281 504 414 114 85 65
286 499 408 120 53 56
426 735 227 78 59 41
346 512 378 207 1 65
371 799 180 60 50 50
332 537 357 152 16 52
284 505 413 106 71 57
266 509 419 122 98 77
312 618 313 92 24 38
266 506 417 118 96 75
356 899 204 68 63 65
281 509 418 157 116 98
291 459 390 89 25 30
266 605 177 61 32 38
397 524 243 141 13 35
296 459 389 76 19 28
296 457 386 64 25 24
320 614 324 134 82 70
297 462 391 68 23 25
291 464 394 90 25 31
301 459 389 63 24 27
337 869 289 149 113 89
237 524 160 54 33 36
301 464 391 84 37 35
466 762 232 98 81 68
366 943 284 55 49 50
416 416 305 76 22 26
358 895 157 97 87 79
291 469 396 74 25 27
302 469 390 65 30 27
301 470 392 66 26 29
301 473 395 71 6 27
309 612 191 163 0 37
256 649 229 151 14 49
301 474 399 68 15 25
226 574 207 96 32 31
308 464 386 54 34 27
306 529 360 45 28 30
316 465 394 73 16 24
306 468 389 58 26 24
306 471 398 69 19 30
391 787 186 65 53 50
306 815 163 72 57 50
311 468 394 68 20 23
295 869 237 147 110 81
307 479 394 135 14 44
316 465 389 67 27 28
437 833 270 76 64 56
381 833 259 36 31 31
321 470 389 140 20 49
251 694 180 113 87 54
318 471 390 137 10 45
317 470 394 155 13 47
201 549 205 127 94 65
289 538 306 132 15 44
316 469 398 133 20 46
416 909 297 96 82 71
313 476 390 159 9 50
314 472 398 168 12 55
304 476 402 61 20 31
304 477 402 63 22 33
271 759 160 110 85 56
296 494 390 111 5 36
295 494 394 112 8 35
316 525 361 102 19 38
337 793 268 151 110 94
281 539 170 161 0 35
272 758 162 98 78 55
357 863 69 106 90 76
299 487 394 65 20 30
301 484 399 49 27 30
299 487 398 44 28 35
297 529 384 185 128 105
303 490 386 112 7 34
288 481 402 61 17 25
291 484 403 93 21 35
231 654 219 160 116 99
286 944 244 76 72 74
292 494 404 103 43 45
259 743 227 161 4 48
296 498 394 104 11 35
256 729 234 175 4 51
270 816 211 183 138 113
419 492 337 170 10 54
388 574 299 168 8 49
301 504 394 76 23 30
342 798 269 168 120 99
301 508 389 58 28 32
300 508 394 74 32 36
370 654 304 95 75 54
356 549 209 126 8 35
299 506 397 105 34 43
298 510 395 77 37 35
371 694 333 178 122 94
297 504 404 137 94 80
291 508 407 99 54 51
367 441 386 110 32 45
292 510 406 104 59 55
294 508 407 170 122 111
221 519 249 122 1 36
304 487 387 121 6 34
306 489 385 117 7 35
310 583 181 152 8 35
392 729 198 61 47 44
433 435 345 40 32 34
283 705 181 102 21 26
309 482 387 138 9 42
306 494 385 113 4 34
231 599 239 48 29 31
310 496 387 105 0 32
304 501 392 61 22 28
306 504 392 47 27 29
309 504 392 102 21 38
306 508 389 57 27 33
266 602 176 51 35 39
390 500 357 125 10 38
311 508 389 124 23 47
419 827 246 69 54 54
391 401 264 60 26 32
321 504 388 151 11 48
227 584 204 87 57 42
346 450 390 56 22 30
351 444 389 86 16 31
355 447 388 117 16 39
374 810 295 172 126 100
251 719 219 148 82 72
361 443 389 146 26 49
357 446 386 73 21 30
355 443 392 111 28 40
353 549 207 143 1 34
422 789 294 158 105 71
369 942 317 56 48 41
357 441 392 83 30 37
366 436 388 83 17 31
366 439 389 106 26 39
377 435 385 110 21 42
334 892 185 67 59 65
238 699 186 132 93 57
331 455 389 81 15 31
335 452 389 85 13 34
336 454 394 66 23 30
328 456 392 67 25 21
256 734 234 174 7 51
329 650 196 81 33 29
396 793 322 193 138 113
331 459 395 61 29 34
335 458 394 83 24 36
338 451 389 82 14 30
345 774 160 50 42 39
422 469 344 171 12 53
340 457 388 106 26 42
343 456 385 83 27 41
345 453 389 87 26 37
349 452 387 149 15 56
344 452 392 75 30 32
276 699 189 62 32 31
327 503 386 147 12 48
391 400 259 52 26 30
316 869 305 159 121 95
396 400 264 61 24 30
386 400 259 52 27 30
361 814 175 49 44 48
429 468 329 98 24 40
395 402 266 65 26 32
401 401 267 68 17 32
401 403 269 66 21 31
386 408 284 65 33 31
391 409 284 64 31 30
391 410 289 66 31 31
321 884 305 158 113 89
264 573 166 136 1 32
397 407 275 62 31 29
396 408 279 63 31 30
401 408 275 65 28 28
401 410 279 67 28 29
400 411 283 68 27 30
356 908 305 36 34 34
404 401 267 67 16 32
321 754 289 82 63 57
406 404 268 67 15 30
408 402 266 56 20 22
415 404 260 118 20 36
410 402 266 56 24 24
373 631 296 170 16 53
411 404 268 69 17 27
310 951 310 66 60 58
391 793 190 69 56 51
411 409 270 69 19 26
330 820 155 79 57 48
447 408 304 113 15 37
416 403 269 81 17 28
411 413 271 76 17 25
407 413 275 66 21 26
406 414 284 75 20 27
271 629 274 119 27 45
416 405 273 78 18 26
353 709 172 54 38 35
410 415 273 77 17 24
416 414 275 87 15 27
386 411 294 68 38 36
219 660 203 173 119 88
387 412 296 68 38 36
390 411 293 66 32 32
386 412 299 69 43 39
286 884 298 158 115 100
367 664 219 52 38 40
386 414 304 70 45 40
271 769 158 130 96 59
423 413 267 108 24 24
393 412 291 66 30 31
470 771 258 107 85 60
401 414 294 75 21 27
401 414 299 75 23 27
276 544 374 197 134 110
391 416 314 73 38 35
219 536 240 171 0 51
396 416 314 74 31 32
401 416 314 75 27 30
240 620 234 55 32 35
471 904 289 91 78 67
406 415 304 78 23 26
396 484 355 126 27 47
416 415 309 75 24 27
243 568 175 62 34 35
411 415 314 75 25 29
416 415 314 74 23 27
414 419 256 123 11 29
412 418 274 83 14 25
411 418 279 81 13 27
409 416 284 76 18 27
355 724 169 49 43 41
414 421 284 77 14 30
315 679 179 46 36 38
417 423 284 74 14 30
346 757 307 76 63 57
417 439 258 145 11 35
414 444 256 143 10 34
416 444 259 142 11 34
391 416 317 74 35 35
308 689 297 86 23 36
401 416 319 76 22 29
416 419 294 75 18 27
417 417 303 76 21 26
419 405 266 98 25 28
421 404 269 101 18 30
423 764 300 167 115 79
418 413 262 108 21 26
424 405 271 108 21 27
388 565 305 170 1 53
430 415 271 107 19 25
279 785 226 57 47 43
421 404 274 94 17 29
420 408 276 88 17 28
421 414 279 88 18 27
387 814 198 62 53 53
434 448 284 63 34 35
315 585 325 125 11 43
426 406 278 103 26 27
389 447 372 190 10 59
425 407 280 99 24 28
256 574 279 146 1 43
431 409 274 123 23 26
430 406 275 119 24 30
428 406 282 103 24 28
311 764 264 76 60 55
426 414 285 74 24 26
428 414 287 75 25 25
436 405 279 136 21 38
354 861 131 126 96 74
435 409 289 99 24 30
368 722 327 190 132 106
356 675 194 94 32 37
271 540 384 193 133 110
429 453 343 104 25 41
441 404 289 139 20 38
439 406 281 142 19 39
355 729 165 59 48 42
399 523 328 172 16 56
447 730 228 76 58 45
437 414 278 50 32 32
442 409 284 131 20 35
444 406 286 157 17 42
443 415 287 135 22 41
421 415 309 73 23 27
399 549 289 192 11 55
383 595 310 43 29 31
426 415 305 75 22 29
408 864 238 64 55 56
423 481 336 166 7 46
426 413 309 70 21 28
431 414 305 76 15 30
232 519 165 120 27 41
426 412 319 69 18 26
341 749 162 60 48 38
431 411 314 58 21 25
431 411 319 66 18 25
300 524 379 161 111 94
271 874 264 178 127 110
440 408 295 74 24 25
434 412 291 98 24 32
436 414 299 59 23 27
438 411 299 57 23 25
342 663 324 164 116 98
440 408 299 68 21 29
441 408 304 73 22 31
295 594 310 158 7 50
447 409 294 138 17 42
443 406 303 72 24 31
446 414 294 118 21 38
326 529 169 95 28 39
447 414 299 103 27 39
436 410 319 80 12 30
382 599 269 50 29 34
446 409 314 74 22 31
447 414 319 164 12 50
420 424 260 127 10 31
324 912 185 102 93 91
417 429 258 135 9 36
425 424 265 111 24 32
324 775 266 76 58 54
427 419 268 95 22 24
430 424 270 42 37 40
421 419 279 87 19 28
419 420 276 110 17 32
417 422 289 70 17 29
410 834 276 47 41 37
423 427 284 71 17 26
380 909 244 72 63 64
423 427 288 71 16 26
426 419 284 67 21 26
241 539 264 40 27 29
428 419 287 71 24 28
422 434 263 129 13 36
425 434 265 79 21 33
424 439 266 141 14 35
430 439 270 122 19 37
382 905 274 58 50 56
432 444 274 52 34 37
431 449 274 72 27 36
436 419 274 117 25 34
401 714 319 154 108 74
433 424 272 51 34 37
437 424 278 74 33 39
439 424 280 49 36 37
437 429 279 50 34 38
440 429 284 64 34 37
300 634 296 106 27 41
276 865 264 118 95 71
441 429 289 76 33 37
401 420 364 62 16 23
295 664 285 167 9 54
358 950 254 78 74 78
434 433 276 113 35 42
242 729 175 121 91 56
434 439 276 63 36 28
427 469 279 50 34 35
336 789 270 59 49 49
435 439 279 58 36 35
412 484 258 146 14 38
440 434 289 86 30 40
434 444 279 99 37 41
415 479 260 142 14 35
432 449 279 83 28 37
434 447 281 94 40 45
420 421 295 68 21 27
418 422 292 68 20 28
421 418 303 75 22 27
371 614 309 142 14 47
422 422 297 65 22 28
432 903 300 72 64 56
213 548 201 70 31 30
432 419 294 70 23 29
426 423 299 71 19 28
274 649 197 110 20 31
431 419 303 76 18 30
431 424 299 75 18 29
434 418 296 63 23 27
434 419 299 70 20 30
280 704 270 163 8 52
434 422 300 77 18 30
222 669 209 191 135 110
444 419 290 108 21 38
256 744 163 123 94 59
326 949 304 69 64 62
306 579 344 147 94 78
444 423 294 98 27 39
446 419 304 106 23 37
363 864 51 123 101 83
313 828 218 178 128 105
444 424 299 84 30 38
410 503 343 172 13 52
445 424 304 116 27 42
442 429 294 62 31 37
345 555 351 179 8 56
324 802 151 78 65 55
443 429 299 149 18 46
281 789 160 155 107 70
347 553 352 178 7 57
443 430 304 156 18 49
494 880 295 140 105 75
444 427 304 159 17 43
446 419 314 139 19 45
445 419 319 170 12 50
387 859 208 63 56 55
444 423 318 161 19 49
386 424 354 60 23 26
442 429 314 89 29 38
443 426 315 102 23 49
455 724 219 69 55 45
439 438 294 89 26 38
440 439 304 100 24 37
438 441 294 80 37 41
436 449 294 110 28 42
438 441 298 113 29 50
439 442 301 121 43 44
438 445 304 84 28 38
371 714 330 191 134 109
436 449 299 109 24 38
441 434 294 100 29 41
441 434 299 141 20 44
439 439 314 47 32 33
439 443 309 41 32 31
439 442 318 84 26 29
286 804 163 170 114 78
441 434 314 124 22 44
281 814 168 181 122 88
411 415 324 81 14 28
416 415 329 79 14 27
411 416 334 78 10 29
416 415 339 77 9 29
386 419 329 65 38 35
408 712 251 53 38 31
386 420 334 63 34 31
391 419 334 64 26 27
401 417 329 74 15 27
305 581 361 191 131 109
326 869 214 50 47 47
396 418 334 68 19 25
377 669 299 56 36 35
387 421 338 63 32 29
176 520 203 213 146 125
386 422 344 62 31 28
391 420 339 64 26 26
247 614 253 39 30 32
390 422 349 62 21 25
271 584 294 152 0 46
356 789 173 62 53 53
270 594 175 99 26 37
401 418 344 66 17 22
396 420 349 63 17 23
406 416 329 77 12 28
406 417 339 69 14 25
356 885 134 128 113 110
406 418 349 65 16 22
311 889 309 125 99 80
409 417 344 67 15 23
411 417 350 66 17 21
319 556 358 150 95 78
416 416 348 70 12 26
386 424 359 62 22 28
337 961 237 86 81 82
264 554 286 142 0 42
391 422 359 64 18 26
393 421 354 62 17 24
381 799 189 75 60 58
396 421 359 63 16 25
396 421 364 66 17 25
394 422 361 65 17 26
394 422 365 69 18 28
341 894 159 89 78 72
396 422 369 71 19 29
401 421 367 64 18 22
391 424 374 70 21 27
386 426 379 75 19 27
292 718 272 117 15 43
336 889 179 58 50 51
385 427 380 73 18 26
277 889 255 169 122 101
386 429 384 128 17 41
365 583 332 113 25 42
401 424 374 87 25 30
341 569 199 135 8 39
396 429 378 65 25 32
399 428 377 102 23 38
349 835 145 87 73 63
398 431 376 120 27 49
422 885 283 138 128 122
392 440 376 134 29 50
386 444 375 143 14 49
332 552 352 32 29 30
401 434 373 169 10 53
395 443 372 108 23 41
267 704 183 101 80 55
402 440 371 124 16 42
335 584 349 146 102 72
401 444 369 177 11 57
244 625 239 64 28 34
399 442 372 76 2 25
406 418 354 65 15 22
406 420 364 63 16 23
406 421 367 64 16 23
316 629 305 84 28 39
406 423 370 86 14 28
411 424 368 120 17 39
431 789 249 71 57 48
415 420 363 70 12 23
414 424 367 98 23 39
387 574 304 163 8 48
416 429 364 43 30 31
326 955 233 92 88 92
406 439 368 142 13 46
386 829 194 57 49 51
405 444 368 153 14 52
407 444 366 108 18 42
161 519 214 215 144 122
406 449 364 172 12 54
381 664 239 54 36 38
476 968 284 95 78 64
262 689 249 94 22 38
395 554 294 192 5 60
412 434 365 134 17 45
415 434 363 93 22 39
336 789 155 56 47 44
416 449 358 78 25 36
411 444 363 89 26 37
408 440 366 51 25 37
410 449 363 142 20 49
373 624 248 70 28 35
414 443 362 71 27 35
403 435 371 164 10 53
421 414 324 76 15 26
171 524 229 178 124 103
421 414 329 81 11 27
447 763 249 88 67 47
428 411 320 71 16 26
293 622 297 33 32 34
431 411 328 84 11 28
434 439 342 82 27 39
406 854 278 43 38 36
426 414 339 86 11 29
384 584 254 72 34 40
426 415 344 85 12 27
431 414 339 89 8 29
431 415 344 89 6 31
323 814 152 76 53 45
436 411 324 85 11 28
301 537 161 88 25 35
253 808 207 180 134 110
436 411 328 84 9 28
441 411 324 102 7 32
439 411 327 95 13 31
436 413 334 90 7 30
442 412 325 100 3 30
446 414 324 145 12 44
444 415 328 163 12 51
171 524 209 206 139 116
421 416 348 74 9 31
422 946 302 68 58 50
426 416 347 85 8 25
431 419 348 52 26 30
320 614 350 187 131 106
311 954 299 57 53 53
431 429 349 47 31 32
428 431 351 47 28 29
430 439 348 43 32 32
431 444 344 59 29 32
430 449 344 61 30 34
313 837 202 177 130 98
426 444 350 75 33 38
429 447 347 50 27 26
443 420 330 160 14 49
319 598 332 138 85 71
445 419 324 167 12 50
476 909 303 87 73 60
444 422 323 169 12 47
442 419 334 152 17 48
441 424 334 101 23 39
338 624 207 121 20 33
441 429 329 129 23 44
440 419 338 84 23 34
436 424 344 92 29 40
438 424 340 103 24 39
366 943 279 58 50 52
434 420 347 82 27 31
439 427 337 33 32 30
434 428 347 46 33 32
433 430 346 52 35 36
438 440 325 102 27 41
438 439 329 108 28 40
403 728 288 78 47 40
418 951 287 97 85 75
439 433 333 134 19 44
438 436 331 100 23 42
296 555 371 176 121 95
437 444 324 65 29 34
412 479 258 145 13 39
231 544 260 85 24 35
434 448 334 108 23 40
432 449 339 79 28 37
434 447 337 36 30 28
357 942 317 73 65 61
420 420 358 84 14 30
421 424 359 143 16 45
252 734 218 151 83 72
423 430 356 156 17 48
284 600 301 41 31 32
425 420 353 72 25 29
426 424 354 67 26 30
429 463 337 131 24 46
424 424 357 123 19 42
429 425 352 61 33 35
429 428 352 52 29 30
420 434 358 134 19 47
421 444 354 84 28 39
413 454 257 102 15 32
416 454 259 100 28 36
416 464 259 43 34 38
276 529 410 178 120 102
416 484 264 155 17 41
274 608 181 65 28 36
361 672 204 102 37 33
404 538 279 117 28 43
271 827 202 186 133 109
392 812 312 198 143 117
414 489 261 147 16 38
386 744 326 187 133 105
233 579 247 163 9 50
326 968 244 64 61 62
415 499 264 54 34 34
413 504 262 82 31 35
287 854 274 125 55 72
386 494 355 78 22 33
416 504 269 120 22 43
340 664 196 76 31 30
406 694 234 88 50 40
409 509 256 36 36 39
411 509 259 39 33 36
236 539 169 115 28 40
413 509 264 86 29 37
311 869 229 141 111 84
295 688 179 80 37 30
389 523 353 137 27 51
415 509 269 69 24 32
285 524 163 159 1 34
415 509 274 76 26 36
416 509 279 142 19 46
416 509 304 88 37 43
436 454 309 82 28 37
416 509 309 57 32 33
270 584 175 116 13 35
415 508 319 86 25 37
413 510 319 131 18 42
238 689 217 161 116 95
421 454 264 40 34 37
421 459 264 84 35 38
418 464 262 42 36 36
268 689 257 146 0 45
423 464 268 109 36 46
426 454 269 42 33 34
373 569 227 149 13 35
364 862 251 31 28 29
429 454 275 155 21 42
432 454 284 68 32 35
427 459 274 67 36 37
350 524 199 114 19 35
166 524 219 210 142 118
430 459 279 60 34 36
428 461 277 97 33 49
431 459 284 43 35 35
298 884 225 193 146 117
418 469 262 100 16 31
422 469 269 119 21 38
417 474 263 147 16 36
419 474 265 153 17 40
340 680 191 88 28 33
351 679 189 88 37 31
422 479 274 148 13 39
429 468 285 90 32 39
429 469 289 111 29 41
428 471 287 58 36 36
264 790 216 169 126 96
424 478 275 164 14 49
424 479 279 116 20 40
427 474 284 74 33 39
425 479 284 121 20 42
430 469 294 78 28 36
431 469 304 162 17 47
436 744 224 88 65 50
441 909 304 73 65 59
429 472 290 53 31 39
401 459 363 180 3 57
428 475 294 48 30 35
316 939 317 71 65 62
427 479 304 171 12 45
430 474 304 192 13 53
261 629 195 100 28 36
432 464 309 151 15 44
432 464 319 137 17 41
475 908 289 94 78 70
428 479 309 107 20 39
429 477 309 148 20 46
427 479 319 183 12 51
433 456 293 110 34 46
433 460 299 89 35 41
434 458 299 49 31 33
434 454 319 151 18 47
434 458 309 140 21 45
296 539 315 73 25 35
434 458 314 183 13 52
432 459 319 174 13 48
433 456 320 185 12 52
420 484 269 160 14 41
312 519 339 48 23 32
418 489 268 149 16 38
419 488 270 161 13 38
417 494 269 123 18 38
366 824 179 47 45 49
421 484 274 167 11 42
421 489 279 170 9 46
446 949 280 100 78 60
422 489 284 177 11 49
423 489 289 175 10 44
420 494 279 169 9 47
347 629 213 113 17 29
370 543 357 68 20 32
421 494 284 173 9 47
424 483 284 178 13 51
424 484 289 181 11 48
316 785 145 70 55 45
193 573 222 171 117 97
267 709 263 139 0 42
418 500 279 169 10 45
222 530 252 74 21 31
417 504 274 166 12 44
418 501 282 172 11 41
418 504 284 177 11 47
285 514 413 177 127 111
416 509 284 181 12 49
423 490 294 177 10 48
422 494 299 177 11 47
424 487 290 175 10 44
406 920 304 67 59 54
424 488 294 175 9 48
425 484 299 178 11 46
366 536 361 187 6 58
426 484 304 182 12 50
271 609 180 77 32 37
424 488 299 181 11 48
456 894 288 86 77 70
424 489 304 155 14 43
356 884 285 144 104 82
422 494 314 51 33 34
422 494 319 54 31 33
380 945 287 55 46 46
424 489 309 102 27 40
419 503 299 169 14 49
420 499 299 187 13 50
418 506 299 53 21 31
421 499 309 67 34 38
355 739 312 142 38 52
420 499 319 68 31 36
226 604 229 75 50 46
420 499 314 62 33 34
419 503 313 70 33 37
418 505 314 63 28 34
326 514 164 155 9 37
424 761 289 138 99 64
411 469 354 169 9 52
417 504 319 98 30 42
281 524 410 169 115 96
419 502 317 74 32 39
417 464 350 131 20 47
345 689 309 101 19 36
386 454 368 181 6 56
210 525 240 149 13 48
316 779 150 70 55 46
391 459 366 166 11 53
231 674 215 170 123 102
392 455 366 179 5 56
387 465 366 62 26 31
394 685 249 113 23 37
341 654 309 125 70 65
394 452 367 187 2 60
397 451 366 186 2 60
400 464 362 172 6 55
230 529 173 59 32 34
384 468 367 102 39 51
386 469 366 65 26 31
386 480 360 70 29 35
426 709 255 72 60 47
391 479 360 142 24 50
399 469 362 132 17 47
396 479 358 149 20 51
401 474 359 101 25 43
443 730 226 93 77 62
406 464 359 179 4 57
411 454 360 176 9 57
421 459 349 104 28 41
409 452 362 163 18 49
414 458 357 180 7 58
332 688 163 73 46 39
432 749 244 55 45 38
417 454 355 152 15 49
291 765 156 125 92 55
415 464 353 146 15 48
405 473 357 70 23 33
396 494 351 156 12 48
279 923 237 60 57 58
397 491 351 160 20 56
397 497 351 134 10 40
271 517 383 58 40 37
303 803 147 85 59 43
398 511 350 66 28 34
406 489 350 35 28 31
263 524 164 122 1 26
416 484 344 154 15 50
415 489 343 169 8 52
173 527 228 186 130 109
414 482 347 158 21 53
417 494 339 170 7 51
408 496 346 173 23 61
415 503 334 194 8 59
412 510 324 201 11 61
320 965 243 83 79 82
331 955 290 71 67 68
293 953 248 82 78 80
411 509 329 183 14 57
337 639 308 149 33 53
410 508 334 128 25 47
309 621 306 71 24 33
315 750 279 81 62 55
412 505 334 170 14 52
402 504 350 47 24 29
407 504 344 138 22 47
406 509 339 96 28 41
431 824 253 92 77 65
378 609 262 84 29 38
404 507 347 47 30 31
411 499 343 155 15 47
326 689 161 63 50 40
411 504 339 174 19 56
233 552 262 51 33 33
415 499 339 172 8 53
221 654 200 132 94 56
413 500 340 169 10 51
386 483 358 121 26 45
391 483 357 129 29 49
391 485 355 130 26 47
384 496 357 59 20 27
395 482 357 157 28 56
396 489 352 143 21 50
401 488 352 56 25 32
387 498 356 104 11 32
391 504 359 128 13 41
391 509 360 106 18 38
389 510 362 158 16 50
392 502 356 130 10 40
394 508 357 105 20 37
230 574 240 146 13 47
321 849 214 142 102 78
430 464 329 95 21 37
431 459 334 153 12 45
418 460 351 67 26 32
423 460 346 74 20 28
425 464 343 153 17 49
331 722 163 58 40 37
427 464 339 153 15 49
429 459 338 159 13 50
272 669 259 165 0 51
377 667 228 60 43 46
428 470 330 145 16 46
427 469 334 160 17 51
428 466 335 119 13 43
427 474 329 146 18 45
426 479 329 161 13 47
429 472 323 187 15 54
426 474 334 150 15 46
425 479 334 166 10 49
420 479 343 132 20 45
311 913 311 134 107 89
421 474 344 161 12 48
281 649 194 95 26 34
400 799 201 64 52 48
419 472 347 155 15 43
418 475 346 171 11 50
424 478 337 162 9 48
312 743 288 155 20 55
434 453 323 111 25 41
216 514 245 116 2 34
434 452 328 170 14 49
256 564 279 150 0 45
433 450 334 164 18 51
422 489 324 63 34 37
423 486 326 47 32 29
367 649 304 92 71 51
422 489 329 52 31 35
290 608 186 86 30 38
420 494 329 122 23 45
421 494 324 91 29 41
301 919 311 89 70 61
424 487 323 53 31 35
335 769 156 55 47 42
424 482 333 164 10 47
397 952 281 109 96 94
420 484 339 169 9 52
418 485 341 175 7 54
340 604 206 42 37 42
419 498 324 156 26 53
419 497 328 190 11 56
418 500 324 173 24 58
411 519 294 205 15 59
449 409 304 158 14 48
313 836 242 129 99 77
449 410 309 153 14 48
363 816 177 49 46 47
449 412 306 124 23 39
158 512 206 223 147 127
259 615 270 159 23 54
156 513 209 224 150 125
160 515 208 215 143 123
156 514 214 214 141 119
159 516 212 212 142 121
158 517 215 219 147 126
377 744 173 72 56 47
385 694 214 76 48 40
155 515 219 216 140 119
156 514 224 190 134 115
158 517 222 206 141 121
161 518 224 196 135 116
331 953 294 63 58 57
166 513 199 210 140 125
167 518 205 206 139 120
171 513 195 223 152 140
409 853 230 69 58 57
171 515 199 212 143 126
172 517 200 208 142 123
169 516 202 207 140 120
173 522 206 210 143 121
297 729 165 55 34 36
400 689 219 68 42 38
168 522 210 213 140 121
298 512 327 43 22 28
397 554 269 202 13 55
164 521 213 217 145 123
414 746 282 144 108 75
165 520 225 191 133 114
280 945 295 61 56 55
170 525 213 217 144 121
173 527 211 207 136 111
381 694 330 158 107 76
169 526 219 208 141 116
277 515 366 67 27 35
181 514 198 178 126 111
181 519 200 203 140 126
346 679 309 106 60 54
181 524 204 211 147 126
221 564 235 130 3 39
179 526 207 199 133 110
180 530 208 196 134 110
186 514 200 154 105 91
190 514 204 123 55 50
192 513 208 93 28 29
316 933 209 90 82 83
186 524 204 193 135 116
186 529 205 179 128 105
191 524 205 156 110 92
301 514 358 33 28 31
187 534 206 148 107 80
188 544 206 176 120 97
191 544 204 167 116 92
305 919 199 77 70 68
177 533 215 206 136 113
338 773 157 55 45 40
183 539 210 161 109 82
317 844 219 175 126 97
183 542 211 166 112 86
182 544 214 170 114 88
180 539 219 177 115 90
372 899 219 66 60 62
180 539 224 179 120 98
273 883 260 182 130 110
261 654 239 167 1 51
