ply
format ascii 1.0
comment Created by Open3D
element vertex 2229
property double x
property double y
property double z
property uchar red
property uchar green
property uchar blue
end_header
337 868 238 63 55 54
39 565 180 86 75 66
218 483 278 74 28 35
261 448 196 99 35 33
457 676 483 117 96 76
221 483 284 128 14 41
341 172 211 128 99 63
285 57 277 124 62 61
322 752 200 74 57 50
272 173 254 133 99 60
332 888 248 72 60 59
247 758 303 87 71 65
221 488 284 145 9 42
219 493 281 49 25 33
347 163 211 123 95 61
312 713 188 68 52 43
221 493 284 122 14 41
321 63 203 91 29 28
315 407 269 61 50 40
348 83 238 104 45 47
255 858 273 138 107 78
425 700 463 187 133 118
312 887 314 34 33 33
382 508 323 82 20 37
331 62 256 119 68 61
223 493 287 150 11 45
349 25 265 122 40 50
365 298 220 118 93 64
342 113 203 146 66 63
213 498 258 77 27 33
214 498 263 54 30 33
325 113 228 130 91 68
351 723 332 104 29 45
370 244 215 124 98 65
213 503 258 66 29 33
304 377 268 81 68 57
371 343 253 128 101 69
214 503 263 91 27 38
214 503 266 53 26 30
327 73 253 123 97 73
301 448 153 112 4 32
216 503 273 132 16 44
202 768 248 150 117 86
370 598 316 63 24 29
214 508 258 68 28 33
346 420 184 89 74 59
197 778 238 165 124 92
214 508 263 133 15 42
320 901 365 44 39 37
333 484 147 54 38 40
214 513 258 109 16 38
214 513 262 124 10 39
366 653 268 115 24 41
215 508 268 93 18 36
380 561 210 50 33 34
216 508 273 110 13 37
337 46 212 119 90 66
322 534 166 62 35 38
215 513 268 152 3 43
267 353 264 95 83 71
216 513 273 148 3 42
327 378 278 68 50 29
217 498 278 74 22 36
326 118 238 126 91 70
218 503 278 151 8 44
292 278 284 103 82 57
346 49 213 125 107 89
219 498 281 87 21 38
275 58 234 94 32 25
332 388 283 97 68 51
270 308 335 125 93 67
221 498 283 140 13 43
224 498 287 136 12 42
220 503 280 151 10 45
226 603 253 87 27 39
442 680 499 112 94 80
221 503 283 115 17 41
267 663 230 47 32 34
294 246 300 122 97 69
327 419 183 86 71 58
218 508 278 151 7 44
358 449 142 185 17 45
289 508 155 62 31 31
220 513 280 142 16 45
369 447 191 105 15 26
347 708 210 72 53 40
287 23 260 103 31 28
288 537 165 188 10 40
382 608 258 86 31 41
222 513 283 81 23 36
225 453 290 110 17 38
214 730 241 127 96 72
206 702 230 136 102 80
402 458 225 63 32 35
278 612 220 50 33 37
232 593 298 42 27 30
320 301 245 85 70 54
273 473 185 93 30 34
227 453 293 113 21 40
381 874 283 55 47 41
364 333 221 117 94 68
375 720 253 94 39 35
229 453 296 68 24 29
369 604 315 152 29 57
306 398 248 105 83 59
244 966 283 84 79 80
397 427 313 81 23 31
342 183 254 112 90 66
266 357 262 96 84 72
367 583 338 155 16 53
225 458 290 100 18 35
440 686 408 197 132 105
229 458 296 126 21 44
239 706 196 84 58 38
227 508 293 34 29 31
231 463 299 90 21 35
302 668 228 70 33 36
282 898 212 83 73 74
236 463 304 66 23 32
274 464 310 117 26 44
227 468 293 112 17 40
262 678 321 142 12 44
333 438 307 111 10 36
375 373 229 110 90 68
323 88 218 103 53 45
225 469 290 144 9 43
237 953 273 69 64 66
386 832 292 147 100 80
227 473 293 144 13 45
201 763 213 148 103 66
229 468 296 66 24 33
351 103 218 119 37 46
231 468 299 94 26 39
291 503 152 122 19 38
286 233 308 117 94 67
347 158 211 123 96 61
257 848 288 77 64 50
229 476 296 147 12 44
272 218 312 111 91 70
231 478 298 130 12 41
331 41 221 113 85 66
296 734 197 70 53 43
355 143 241 114 92 68
404 470 311 117 17 22
234 468 301 107 19 39
302 498 139 176 9 38
341 357 280 112 82 58
236 468 303 128 16 42
234 473 302 140 17 45
316 333 243 70 61 53
355 732 326 174 15 55
327 348 222 86 75 65
359 678 305 59 25 30
203 713 204 165 107 75
437 693 504 151 111 93
236 473 304 144 13 44
421 452 314 165 15 43
238 468 307 139 14 44
224 874 293 141 113 84
387 888 327 50 42 38
375 428 332 104 14 36
270 175 296 110 91 71
238 478 307 142 14 44
292 43 273 127 64 62
282 78 253 140 25 49
290 48 260 131 30 46
240 453 310 62 25 29
427 652 323 86 73 60
308 403 273 72 58 42
267 143 248 126 93 54
242 453 313 95 26 36
245 453 315 109 21 37
263 847 248 184 128 96
367 213 218 117 94 68
374 555 201 49 32 37
241 463 309 119 17 40
243 463 312 148 17 47
282 243 317 115 93 67
244 894 260 189 141 111
127 613 188 167 112 81
373 368 263 116 92 64
384 603 258 117 32 47
245 458 315 148 17 47
209 697 195 161 105 70
406 442 325 92 10 30
382 489 294 111 2 39
248 458 317 133 21 45
330 129 245 118 90 67
290 219 292 119 96 70
252 703 202 76 42 37
267 98 233 89 50 33
350 89 236 116 98 78
266 538 181 62 25 32
347 708 333 111 15 38
246 463 314 111 21 43
342 508 353 58 27 32
267 138 248 123 91 53
362 233 253 123 98 68
297 9 288 125 43 57
350 109 236 118 95 69
248 463 316 96 30 41
413 488 225 113 13 31
257 453 320 120 23 44
244 468 311 149 17 48
367 853 278 32 28 28
282 843 302 147 116 90
241 473 309 143 14 44
350 123 241 113 92 69
325 264 222 129 101 70
365 458 341 100 21 36
244 473 311 154 16 46
352 463 349 152 13 48
329 784 211 68 54 48
326 218 243 99 80 59
247 468 314 55 26 32
270 380 245 96 84 73
247 473 313 84 25 38
157 618 188 132 98 62
267 228 259 134 100 64
337 73 185 117 28 30
225 696 284 66 34 37
171 605 202 88 75 62
326 463 300 115 2 36
241 478 309 148 15 46
369 343 226 109 90 68
249 467 316 39 29 30
252 467 316 51 30 32
442 658 323 114 93 70
252 469 315 60 31 35
405 486 320 58 30 25
362 822 301 147 109 86
272 93 238 107 65 47
338 609 335 179 12 56
280 820 211 54 45 42
336 128 211 130 96 56
382 498 348 139 19 47
323 93 219 131 40 47
237 753 199 135 92 62
294 789 170 80 66 50
257 468 315 55 27 32
222 668 188 150 100 63
380 831 296 145 100 83
265 785 201 59 48 43
252 478 312 94 24 40
122 603 208 158 118 103
360 724 321 90 22 38
224 513 287 39 29 30
287 539 166 174 15 41
225 488 290 148 11 44
392 553 286 45 28 29
341 327 215 99 82 64
433 706 468 190 131 115
307 958 303 62 59 60
231 483 298 145 12 43
397 443 322 64 23 26
223 883 289 154 116 88
278 93 269 117 27 46
377 588 293 71 25 35
229 488 296 155 14 48
371 415 325 60 37 33
225 493 290 146 14 46
319 945 288 65 59 58
337 483 149 104 25 39
252 733 322 183 15 60
371 378 220 105 88 69
297 788 197 62 53 51
227 493 293 130 16 43
229 493 296 112 29 45
374 741 226 60 48 44
234 483 302 142 12 43
351 313 272 116 88 58
322 37 267 127 11 46
342 153 250 116 91 65
221 743 288 153 9 48
233 488 302 151 14 46
342 118 248 120 95 65
282 548 174 156 18 41
322 98 248 118 77 64
332 643 322 85 28 38
362 228 253 123 99 71
331 901 260 78 66 64
233 493 302 74 23 32
236 493 304 119 14 40
235 488 305 147 15 47
327 718 343 173 9 55
238 488 307 148 15 45
311 848 208 63 58 60
346 58 243 121 78 70
450 791 284 119 89 72
238 493 307 160 15 52
82 565 191 103 88 75
351 28 243 74 49 39
349 98 206 135 27 46
346 59 198 92 45 24
259 833 278 164 123 95
227 498 293 61 27 34
332 24 234 118 72 50
300 405 219 88 75 61
309 863 218 62 58 60
251 824 269 175 126 104
360 363 215 104 87 68
359 423 336 76 23 28
374 717 257 99 38 33
227 503 293 63 30 35
328 538 332 136 9 42
229 498 296 36 26 29
314 68 235 108 41 32
322 678 228 55 36 45
281 527 309 99 15 37
260 122 240 134 95 60
398 834 268 84 64 54
282 33 254 87 35 30
367 808 229 59 47 42
320 333 227 81 70 59
231 503 299 56 30 33
328 415 210 90 76 62
422 658 363 136 105 83
306 328 293 95 75 53
357 238 207 128 97 58
225 513 289 47 28 31
230 508 299 49 29 31
270 800 295 172 128 112
317 563 314 109 3 34
260 965 325 69 65 65
325 56 202 118 98 71
358 880 324 62 54 48
423 654 353 114 91 68
229 513 297 50 29 32
230 513 299 47 28 30
251 850 326 155 125 99
341 420 179 88 73 59
233 508 302 120 24 46
370 228 237 118 94 65
370 454 184 110 5 30
277 383 331 157 111 84
430 671 450 140 106 86
233 503 302 69 25 34
213 743 199 148 100 64
324 710 341 149 11 46
215 520 258 150 0 41
232 703 193 94 65 41
316 338 233 74 66 58
252 783 206 84 63 50
382 753 227 69 54 43
372 878 268 70 57 52
332 12 273 144 74 92
305 867 214 62 56 57
315 93 233 109 69 57
304 905 241 71 65 67
357 848 275 29 26 26
103 606 202 201 142 121
237 513 304 129 23 46
241 483 309 157 15 50
324 250 220 128 100 68
282 709 331 91 22 38
410 695 280 105 81 50
375 358 243 125 98 65
312 468 307 61 20 27
327 899 257 77 66 65
325 103 216 116 34 40
357 423 183 92 69 55
391 782 239 69 50 40
83 594 186 200 132 108
346 323 276 117 81 59
334 676 231 49 32 41
244 483 311 165 15 52
262 488 187 96 24 29
324 179 228 105 84 61
318 903 333 36 33 35
284 183 268 110 88 64
255 667 315 144 13 46
237 873 278 134 106 74
242 488 309 163 15 52
247 482 311 168 15 53
292 848 188 92 74 63
334 203 251 96 77 57
450 670 459 108 94 82
219 730 270 77 35 37
222 953 303 67 62 63
315 358 263 74 63 50
247 485 310 168 14 52
247 493 308 166 14 52
307 884 313 34 32 31
375 368 253 117 92 64
261 82 214 143 14 38
287 428 183 121 13 32
234 923 259 63 58 59
251 482 311 164 14 51
304 402 233 91 76 61
266 794 295 56 47 46
295 362 331 144 99 78
369 426 201 93 24 27
252 483 309 172 14 54
322 818 220 62 51 51
357 633 238 65 35 39
267 380 245 96 84 74
294 829 190 70 55 46
258 479 310 156 19 51
360 168 238 116 94 69
432 767 283 107 76 58
232 583 228 139 7 37
288 529 304 80 6 26
367 608 228 98 30 42
338 183 252 105 84 61
351 133 243 114 92 67
412 848 267 64 51 44
257 488 307 164 15 52
273 526 295 57 17 26
174 651 196 210 142 110
252 498 304 103 28 43
317 493 299 52 18 24
300 343 331 139 97 75
458 693 483 186 127 109
271 35 250 86 65 47
255 491 306 80 21 34
253 494 305 89 31 42
374 543 323 60 29 37
257 493 304 101 27 42
247 508 303 65 22 32
325 572 337 105 1 33
323 293 248 86 70 51
310 936 260 82 73 71
307 581 195 181 8 43
247 503 304 157 14 49
208 773 258 163 125 93
361 477 155 65 30 36
268 567 195 122 18 37
323 248 233 110 88 61
257 498 303 84 31 39
245 501 306 162 13 49
280 897 210 83 73 74
277 868 233 45 41 43
278 193 257 121 92 57
331 173 244 100 80 60
259 243 316 115 92 68
243 504 305 162 14 50
344 585 345 133 27 52
409 670 298 114 79 62
433 688 292 148 104 71
112 588 207 130 106 86
296 503 147 62 32 36
262 353 329 130 100 72
427 687 353 183 123 100
392 413 243 73 56 50
242 508 305 143 18 49
347 418 193 88 75 61
355 160 215 108 89 68
331 138 244 114 87 63
303 863 183 103 92 87
364 338 221 114 93 68
314 452 115 161 0 42
240 506 306 162 14 51
242 513 304 54 25 31
435 696 295 169 116 86
337 419 183 87 73 59
372 718 253 98 38 35
217 738 198 147 100 64
186 659 198 198 136 108
257 126 240 148 108 76
255 450 320 143 32 59
281 768 193 70 49 40
370 700 260 44 39 38
298 843 182 102 85 72
259 25 255 106 92 77
322 10 291 136 30 55
262 28 252 103 88 72
216 563 248 116 9 35
319 10 288 122 26 47
397 860 334 67 57 51
262 33 248 107 91 75
215 563 253 154 0 43
440 701 455 192 132 103
260 31 251 104 88 72
263 30 250 105 89 74
347 421 308 55 40 31
352 298 213 108 87 64
272 24 255 97 82 67
363 323 221 123 98 69
267 28 252 103 89 74
329 585 350 178 14 55
266 30 250 106 91 76
272 32 252 79 55 41
437 659 403 105 90 74
300 852 176 120 92 91
304 374 296 106 78 54
277 28 254 64 36 28
364 203 244 120 96 69
277 33 252 60 36 28
287 392 233 98 83 67
330 278 216 123 97 67
280 29 255 88 31 27
417 478 224 131 14 33
261 49 224 119 102 85
261 54 219 109 90 67
263 10 283 91 45 46
263 53 222 118 102 85
258 56 216 86 39 16
307 433 298 55 43 33
72 593 203 163 127 119
228 713 242 76 33 37
262 109 228 145 53 55
357 918 283 54 44 40
262 58 218 81 38 24
338 810 226 54 46 47
267 48 279 118 34 49
317 757 327 74 61 56
266 54 224 112 96 78
279 508 174 50 36 31
349 108 238 117 95 70
372 918 398 104 85 73
317 443 302 76 21 32
265 64 215 117 24 29
266 59 220 82 31 25
417 418 298 73 28 32
332 78 187 139 28 42
239 669 250 51 31 32
368 342 255 130 103 72
330 926 285 74 64 64
267 58 223 86 42 25
422 443 327 151 10 47
284 489 175 60 36 35
249 518 190 33 34 39
240 960 276 72 68 71
267 63 218 108 31 25
377 742 228 61 48 41
337 53 193 112 34 16
420 415 248 81 28 38
383 870 386 103 80 60
268 62 222 108 33 23
364 559 196 90 35 42
271 63 223 115 32 35
433 422 223 99 28 36
346 295 271 101 81 56
273 143 279 115 91 64
357 348 273 117 90 58
261 45 230 118 101 85
447 683 353 194 128 100
302 19 303 198 145 148
369 472 177 116 1 32
317 553 177 122 25 42
262 44 233 117 100 83
267 448 193 75 33 34
258 40 240 114 98 83
349 109 221 105 82 56
262 42 237 116 99 82
262 40 240 115 99 82
264 46 231 115 98 82
230 667 278 63 34 40
352 432 133 97 61 41
330 458 305 69 19 31
419 459 317 121 28 45
286 774 310 75 61 56
365 204 215 114 92 68
259 796 291 65 54 49
332 48 208 118 80 53
323 605 211 62 32 41
267 43 238 113 97 80
334 930 308 69 61 56
318 298 233 102 84 66
417 443 329 133 7 40
317 886 314 32 32 33
357 863 247 72 56 50
269 47 237 103 88 73
420 846 255 71 54 49
271 45 240 76 48 30
207 733 238 148 110 84
352 233 260 117 94 68
318 414 288 58 47 37
207 643 216 123 93 75
265 35 245 112 95 78
272 38 248 80 51 34
265 40 240 116 98 82
268 42 242 111 95 79
393 518 208 135 9 35
322 423 205 88 73 58
414 447 220 67 34 34
272 43 243 81 43 33
268 53 228 107 85 63
427 463 292 54 28 32
272 53 233 68 39 28
272 148 253 119 91 57
355 135 233 112 92 70
271 49 234 76 43 30
272 58 228 96 36 27
372 518 297 57 27 33
322 578 333 106 0 34
326 772 205 53 43 38
405 487 336 132 17 41
368 303 223 123 96 65
270 60 225 107 36 20
314 935 266 81 72 71
350 34 235 90 32 24
347 143 249 118 94 66
349 132 216 110 90 67
298 938 358 75 65 66
280 164 278 110 87 60
277 38 249 84 38 27
274 41 246 81 39 23
307 483 132 158 5 39
216 553 253 128 1 34
187 633 214 141 106 89
295 394 250 91 76 60
285 838 201 68 60 54
277 43 247 69 47 34
370 273 220 135 99 60
274 46 241 85 38 32
216 578 258 111 19 38
334 252 210 133 103 67
335 429 206 87 73 59
277 48 243 92 35 27
298 888 228 66 61 62
276 49 239 85 34 23
282 38 252 103 25 27
344 69 245 116 97 79
324 77 199 137 5 41
287 198 273 113 91 66
299 814 184 76 57 47
358 883 363 48 39 36
388 488 203 87 31 35
285 34 255 98 64 44
202 648 183 132 96 55
285 38 254 119 25 30
282 203 298 114 91 65
371 708 298 130 10 40
33 582 179 206 135 130
363 243 211 130 99 60
281 43 249 113 46 36
328 929 288 78 69 68
344 895 261 65 59 60
350 96 205 139 30 47
281 48 248 118 31 27
336 273 212 139 106 70
397 818 293 170 116 91
283 43 252 134 42 38
247 958 268 70 66 67
284 48 252 125 35 38
314 696 196 66 51 42
340 316 275 97 75 51
286 48 254 135 41 49
267 858 253 146 107 80
365 562 346 182 1 60
351 108 233 119 96 70
272 10 293 112 79 64
338 925 329 51 45 42
274 52 236 80 35 25
292 223 278 117 93 65
327 748 199 76 59 50
274 58 232 83 32 27
273 63 228 103 46 41
433 423 228 85 26 35
277 63 238 108 32 35
350 98 213 103 66 53
286 857 237 46 43 48
370 268 246 128 97 64
233 697 230 64 53 43
366 857 364 48 40 35
278 53 243 84 42 36
335 643 321 115 29 45
279 63 242 110 47 43
345 111 208 119 79 61
333 828 227 57 49 50
346 328 276 111 82 54
317 948 303 67 59 56
282 53 248 112 43 40
272 893 338 135 100 79
382 798 308 173 129 102
218 548 278 138 6 39
280 54 245 52 46 38
197 768 223 155 111 75
277 400 219 101 86 72
352 853 237 69 55 49
267 912 219 81 70 68
329 918 368 76 68 66
290 47 276 122 11 43
306 313 308 124 93 66
334 500 324 50 25 28
311 528 300 91 12 33
283 58 248 130 29 42
79 580 201 114 89 68
287 629 226 42 35 38
283 63 248 125 37 43
401 793 302 178 126 96
297 383 254 98 81 63
284 63 251 125 21 39
430 436 314 81 30 34
312 604 345 74 34 41
237 786 205 169 114 78
314 15 253 113 40 35
306 393 273 85 67 48
237 778 203 148 99 63
317 15 250 110 52 41
336 528 348 62 26 33
318 29 239 66 41 32
309 19 255 122 26 30
280 941 245 94 91 93
306 408 228 87 74 60
307 563 183 132 20 39
332 54 193 119 28 19
323 288 248 87 70 52
312 18 253 109 29 30
306 414 188 85 69 53
300 283 294 106 86 64
349 240 261 110 88 64
317 773 207 61 49 46
341 63 189 96 41 27
309 23 254 109 27 31
309 28 254 95 59 41
313 28 249 84 41 31
219 558 291 162 15 49
312 33 248 94 43 33
309 33 254 100 34 37
367 909 273 87 75 75
328 342 220 90 78 65
346 103 242 120 97 71
318 23 244 90 38 30
427 694 478 118 92 75
342 288 213 118 92 61
337 434 123 83 68 53
319 20 245 79 48 26
378 508 350 147 17 49
317 28 243 66 43 32
357 378 212 102 85 66
313 828 216 63 56 58
389 530 340 55 14 25
347 338 216 97 82 67
296 428 307 94 69 48
327 426 147 83 69 55
220 902 315 79 57 63
262 408 326 157 116 91
314 34 244 79 41 28
319 63 213 103 36 41
312 581 195 68 25 35
319 58 218 84 37 26
332 113 248 121 94 70
366 593 328 124 29 46
273 633 326 48 26 31
318 58 223 102 39 37
324 59 199 80 42 33
264 888 228 44 42 43
342 343 216 95 82 68
319 34 235 73 39 25
302 408 213 86 73 59
270 146 250 120 90 55
373 553 303 30 29 32
375 713 268 89 46 37
323 848 223 66 58 58
318 38 234 78 32 27
318 44 230 59 42 27
317 48 228 82 31 30
282 323 341 136 94 74
336 193 211 118 94 66
315 48 233 100 32 32
274 338 336 135 98 72
202 627 193 97 80 60
358 464 151 169 15 36
315 43 236 76 40 23
342 108 198 126 50 47
314 48 238 94 40 35
305 861 187 102 90 85
412 508 243 151 16 48
263 694 204 71 45 40
315 48 236 100 38 39
200 723 230 162 114 88
311 38 253 105 27 37
342 708 337 101 18 38
347 843 239 54 47 48
330 483 304 84 19 32
417 768 270 97 72 57
342 158 251 115 92 66
317 98 228 112 30 38
276 595 211 168 13 47
280 83 249 133 27 43
312 48 248 118 36 47
313 38 243 92 30 31
274 381 246 97 84 71
420 713 248 82 59 46
315 36 241 79 50 33
278 15 260 113 100 88
340 522 355 93 28 36
297 563 312 35 27 28
302 753 324 78 63 57
382 513 347 94 22 38
313 43 243 81 51 46
316 53 228 80 40 36
268 767 193 66 54 49
247 822 224 81 65 60
314 53 238 96 37 38
395 566 234 190 13 47
238 860 285 109 84 53
315 63 233 109 34 44
316 58 228 88 48 38
259 239 316 114 92 68
290 951 337 64 58 54
264 41 281 120 90 72
325 931 375 97 83 76
413 783 267 88 67 58
329 173 242 100 81 60
351 93 218 126 53 55
398 523 218 146 13 37
316 63 228 118 41 46
416 425 308 66 22 28
272 923 214 88 77 74
315 58 236 104 26 34
436 654 308 114 94 71
218 928 298 149 117 98
314 64 235 97 18 27
382 438 324 67 25 30
261 118 239 133 94 61
302 938 372 57 49 43
289 513 155 67 34 36
314 63 238 98 23 32
352 473 350 131 12 41
312 53 248 107 18 34
312 53 253 107 27 41
334 463 312 123 2 38
313 63 248 111 32 46
272 345 265 91 80 68
388 416 226 102 30 32
180 655 192 214 141 110
228 583 293 69 24 34
332 627 225 88 34 40
269 158 251 129 96 56
314 57 252 113 76 62
314 62 251 106 73 64
87 598 207 181 137 122
248 583 214 45 29 35
259 66 211 117 18 22
337 268 258 87 71 53
262 68 212 135 21 31
311 416 228 83 70 57
331 138 217 117 92 64
285 561 310 85 29 34
366 658 293 33 28 29
333 253 252 94 76 57
335 567 356 74 31 37
260 69 210 143 25 37
317 333 258 68 59 50
284 781 180 71 56 46
484 851 360 107 87 73
260 72 210 147 23 39
274 216 310 111 91 70
252 932 239 88 76 73
262 73 212 145 17 36
77 593 182 202 131 109
262 78 213 145 15 39
208 723 236 139 104 81
287 684 215 85 20 34
485 927 243 99 85 71
337 158 211 130 100 63
264 79 216 147 15 39
322 228 228 113 90 64
318 419 296 60 48 37
332 913 373 78 66 58
271 103 238 126 36 41
390 888 310 87 72 60
318 88 247 102 75 59
368 569 206 55 35 41
297 684 193 83 47 42
424 696 455 200 144 134
322 518 303 89 12 33
266 73 214 142 17 39
268 73 217 137 15 35
386 723 298 88 59 46
370 607 312 169 13 53
270 65 220 117 26 33
431 423 219 120 26 35
215 558 258 156 0 45
220 748 289 152 12 47
226 533 218 150 7 38
270 72 219 139 21 42
317 423 298 93 36 38
340 268 260 84 67 48
280 512 172 75 37 28
354 712 218 61 45 39
234 567 220 55 31 37
267 78 218 147 16 41
302 433 148 103 17 32
269 80 222 146 16 41
394 457 221 61 37 36
247 969 298 72 67 67
270 77 220 147 16 39
350 435 124 126 55 41
270 78 223 143 24 47
259 85 216 145 14 39
262 198 254 131 100 63
366 699 301 138 9 41
334 454 311 116 9 41
328 148 233 105 84 60
261 93 219 138 13 34
397 493 319 56 21 27
332 653 232 105 22 35
264 89 221 138 14 38
258 207 255 132 101 63
271 98 239 107 47 35
291 269 322 118 94 65
263 93 222 128 12 30
267 83 223 147 20 42
266 88 223 143 22 45
328 148 238 105 83 57
287 693 203 77 31 37
271 78 228 99 42 41
347 578 347 185 11 58
47 583 193 159 112 100
373 348 233 121 96 67
251 715 206 70 32 26
337 417 289 68 52 35
252 893 262 88 67 43
270 81 224 140 20 49
259 46 276 105 83 67
390 509 296 145 11 46
446 678 423 189 130 101
370 308 229 120 94 63
270 82 229 134 25 43
378 888 258 81 67 55
269 85 232 87 64 43
328 16 246 92 73 57
417 414 293 55 27 26
217 883 308 163 119 100
386 423 219 124 20 28
269 88 232 101 41 36
223 893 289 162 117 92
269 93 232 118 53 46
266 185 301 109 91 72
270 92 234 119 48 43
342 15 254 100 65 58
421 737 307 182 120 95
318 101 238 137 86 75
274 68 231 94 37 37
267 270 271 141 99 70
136 595 206 113 93 73
303 363 278 87 70 52
441 686 368 197 131 103
273 73 228 123 38 46
240 955 272 70 66 66
272 353 262 94 82 70
277 264 326 109 88 65
274 74 232 117 57 55
354 156 245 116 93 65
327 78 193 137 8 40
320 881 240 61 53 55
386 503 198 126 4 32
259 211 255 134 103 66
346 917 384 90 74 61
332 673 232 57 36 41
287 818 194 80 61 48
275 73 234 122 48 52
378 484 307 73 22 34
333 123 214 122 91 56
332 52 197 107 32 21
275 77 235 96 46 37
312 618 219 44 35 39
312 883 237 57 52 53
262 23 293 133 20 50
388 522 291 143 10 44
278 73 243 106 60 50
247 693 204 76 51 41
376 423 332 99 23 36
278 78 243 119 42 41
282 890 212 84 72 70
315 353 243 74 65 56
318 348 229 76 67 59
285 68 254 101 59 48
342 628 322 106 24 42
279 78 247 97 69 50
271 118 250 120 90 57
215 784 265 178 134 107
278 153 273 111 88 61
344 237 205 132 101 63
267 443 193 57 37 39
242 583 219 150 6 37
282 68 249 121 64 57
357 603 218 84 36 43
287 326 341 141 97 77
273 123 253 125 94 63
283 73 252 134 35 51
247 558 204 86 32 38
273 118 252 126 93 64
207 678 190 175 112 78
284 68 251 127 32 43
285 72 254 108 57 48
357 263 209 137 101 61
362 920 298 55 48 44
276 554 182 147 23 42
293 488 154 51 38 37
280 78 249 110 67 52
432 703 478 164 108 99
274 80 236 136 19 43
382 847 260 100 79 70
294 279 286 108 86 61
269 118 247 119 88 53
275 88 239 126 24 38
347 568 193 193 9 43
284 69 269 119 53 54
205 667 215 148 111 89
415 508 291 166 6 54
273 438 190 90 33 34
278 83 243 129 23 40
279 83 246 125 27 40
278 88 243 124 20 35
330 110 216 128 88 65
172 623 212 143 111 93
372 483 343 119 2 35
374 362 232 119 95 66
335 382 216 87 77 68
279 88 247 114 45 40
267 107 275 113 91 67
269 293 331 117 88 61
274 94 241 92 66 49
276 93 243 113 48 45
368 318 227 113 90 63
322 353 228 79 70 63
368 887 372 82 66 56
287 13 263 105 70 49
377 398 273 115 91 64
279 93 247 124 34 41
422 463 221 108 22 36
227 809 217 182 121 92
236 950 267 69 63 65
283 228 266 126 93 55
282 83 253 135 23 43
280 93 249 105 70 49
392 593 273 173 15 47
281 93 253 109 78 56
260 97 220 139 11 33
326 38 227 84 68 53
326 63 192 99 40 26
387 482 302 75 12 28
262 98 223 138 17 38
276 67 276 115 52 53
253 524 306 69 29 34
225 635 206 83 63 45
363 347 264 114 90 61
337 808 224 59 49 47
261 107 224 130 14 34
348 377 211 93 81 68
387 881 388 90 73 62
67 573 186 131 97 85
291 946 255 81 75 76
272 18 258 103 89 75
349 54 239 121 79 68
389 480 311 101 13 32
243 674 244 58 29 38
259 110 226 161 62 66
323 368 228 83 74 65
426 488 278 115 25 41
260 112 234 132 87 63
262 113 238 136 97 67
287 638 328 56 27 32
200 708 207 171 112 80
263 109 237 135 93 67
167 613 209 120 96 76
265 98 225 139 15 41
305 393 253 110 86 61
323 859 227 68 61 60
342 348 280 112 81 57
275 247 265 132 96 63
287 767 191 71 56 46
265 103 228 121 27 38
357 893 291 58 50 45
308 416 178 82 60 51
266 98 228 117 48 44
423 468 239 145 16 46
360 298 215 119 94 65
264 100 226 137 23 43
300 447 163 98 11 33
269 103 236 127 45 50
265 107 229 132 32 38
255 769 196 52 42 40
321 413 216 87 73 60
402 493 337 101 27 40
266 107 233 126 73 61
428 700 320 185 119 90
389 734 306 144 102 87
267 108 243 134 91 65
233 870 326 149 104 103
395 701 282 120 84 65
248 784 206 152 99 63
342 18 282 137 103 98
167 643 189 214 141 111
262 128 243 128 91 54
272 399 223 102 88 74
274 156 285 111 89 64
394 705 274 104 70 47
233 597 234 92 32 41
266 118 244 126 91 57
342 313 214 98 81 64
333 103 199 142 18 39
266 123 244 130 94 61
324 288 252 83 68 52
295 248 298 123 98 70
310 441 121 113 28 48
445 682 368 194 130 101
268 128 247 126 91 56
289 905 221 75 68 69
358 635 242 124 39 52
352 738 327 174 14 56
323 243 238 104 83 59
273 128 253 126 95 62
218 563 287 52 28 32
317 936 368 82 73 66
351 63 203 109 43 38
265 770 182 114 84 61
352 218 206 124 97 64
264 31 286 128 34 51
219 946 294 65 61 61
437 666 448 104 88 72
328 867 289 33 31 32
305 383 273 88 70 51
348 32 236 84 47 35
274 98 241 110 41 35
182 648 207 178 126 104
276 98 244 119 30 37
284 460 305 82 12 26
276 103 248 136 73 65
329 108 209 129 19 42
351 148 214 115 93 67
424 494 278 167 15 41
349 35 255 113 60 47
352 63 228 121 33 50
342 918 339 55 49 46
87 568 183 106 88 70
323 103 219 125 29 42
203 758 209 145 102 65
279 100 253 136 35 49
335 827 230 62 53 53
274 105 247 137 90 68
348 420 307 53 42 33
265 696 201 75 48 41
359 716 218 65 43 39
275 106 250 136 95 74
305 394 244 105 83 60
391 707 278 122 85 63
274 109 251 138 98 73
362 248 209 133 100 59
453 703 488 189 127 110
330 778 210 61 51 47
366 343 223 112 91 69
322 55 260 118 25 45
224 738 248 120 85 61
273 113 252 130 92 65
445 665 368 135 104 67
271 229 316 114 93 71
297 819 295 170 125 102
280 97 253 139 21 48
297 828 188 96 74 56
275 118 255 128 96 67
498 961 230 96 82 69
275 122 255 126 96 65
272 763 197 75 56 48
374 831 296 135 97 79
251 705 200 77 38 33
332 328 218 99 82 65
308 478 307 109 8 35
328 615 335 91 25 37
276 407 326 159 111 86
319 71 210 119 17 36
387 763 309 172 122 97
358 283 260 122 93 60
332 14 258 103 63 56
319 71 213 121 26 42
423 738 298 163 104 76
325 187 221 115 92 67
371 238 238 122 97 68
201 673 192 177 113 81
214 576 281 170 7 53
312 590 201 84 30 38
395 498 210 120 19 36
318 68 218 105 49 45
388 861 260 78 66 59
277 418 189 125 17 33
319 73 224 128 19 42
318 78 224 124 15 40
323 421 167 81 64 51
311 522 155 185 27 46
351 49 224 93 45 42
317 608 343 87 33 41
318 93 224 120 62 54
299 436 168 93 23 28
311 524 300 108 1 34
352 423 333 92 18 31
312 643 227 107 25 35
318 435 301 65 20 28
343 58 249 102 38 39
392 438 320 73 23 30
247 893 342 174 124 110
315 68 233 116 82 63
315 73 232 127 101 79
201 728 213 168 111 78
316 68 228 120 82 67
282 401 216 99 85 69
297 788 172 86 69 54
322 343 268 66 56 45
321 497 145 162 13 48
316 73 228 122 80 65
277 352 336 147 104 81
283 413 184 137 8 33
234 715 321 160 13 50
267 208 255 133 102 64
314 73 235 116 74 56
356 313 215 112 88 61
430 458 229 162 15 41
314 73 238 117 29 38
227 693 258 61 32 38
50 590 178 202 129 120
316 78 228 113 68 60
296 773 193 77 60 46
328 26 281 121 85 66
238 628 248 50 27 33
314 78 234 102 73 57
259 15 264 91 69 60
313 68 248 106 17 40
448 684 489 110 86 66
314 72 247 103 62 56
338 625 226 136 10 28
315 69 250 105 15 39
317 68 253 102 52 50
237 863 327 146 67 85
418 463 248 124 21 43
333 499 157 49 38 41
365 408 210 95 80 65
316 73 249 106 13 38
80 586 180 166 107 81
305 17 298 160 108 95
307 568 314 68 20 30
214 664 221 120 92 73
240 927 246 74 67 67
360 163 228 119 97 73
318 73 252 109 5 38
297 503 308 76 19 32
238 553 209 49 35 38
277 713 192 64 45 39
316 83 228 114 37 43
314 87 238 107 46 45
239 924 250 69 63 64
364 376 216 106 88 69
315 88 238 100 46 45
370 636 264 101 33 43
316 93 228 113 24 38
368 388 279 121 95 64
337 703 337 114 8 37
314 81 241 112 2 38
340 901 273 57 51 51
286 483 176 65 34 31
316 83 243 101 47 47
315 84 240 118 12 40
316 88 243 100 23 40
367 443 178 114 14 32
233 523 204 91 19 34
294 394 320 148 102 84
343 78 244 112 23 43
318 83 247 112 80 66
367 478 163 46 32 35
304 434 135 52 38 35
380 486 301 32 22 28
316 93 243 104 13 37
337 513 343 78 23 33
282 168 273 112 89 63
319 102 224 127 24 44
273 727 326 195 10 63
352 38 238 110 29 34
277 956 358 73 67 65
316 98 233 121 33 45
251 863 330 153 123 98
371 363 224 105 87 68
242 893 339 165 118 104
441 797 282 107 79 62
325 356 226 81 72 64
318 103 228 126 26 40
334 738 207 59 45 43
318 102 233 133 57 57
402 907 298 69 55 48
312 493 303 60 11 24
281 203 260 129 96 59
235 648 289 50 30 35
317 98 243 115 35 45
252 833 233 62 53 53
267 932 234 89 81 79
312 929 353 54 48 47
249 632 240 137 5 36
302 373 254 135 104 73
392 508 342 98 25 40
319 97 246 112 30 42
402 881 254 81 64 53
382 503 294 144 8 42
337 63 253 127 101 78
402 428 313 69 24 28
319 101 241 128 94 75
295 402 316 143 100 82
331 57 192 117 33 20
352 458 143 52 31 36
330 932 303 73 64 61
352 163 213 119 94 65
417 718 243 79 56 38
328 58 194 103 31 22
132 613 207 171 124 107
330 61 191 111 36 21
382 508 348 160 15 50
216 558 248 106 15 35
269 150 251 123 93 57
367 258 213 132 100 60
342 58 193 87 45 22
279 444 315 76 20 31
340 59 190 91 39 21
422 416 243 68 25 30
378 383 253 112 91 67
363 238 212 128 98 61
306 414 193 84 70 55
335 488 318 91 22 37
282 407 188 100 65 50
343 62 192 92 43 27
322 15 249 99 65 49
361 193 247 121 97 71
337 378 212 88 79 69
225 736 250 132 97 70
322 14 253 106 59 45
327 14 253 99 66 51
313 48 258 104 53 54
367 203 223 120 98 72
369 610 231 131 41 51
331 15 250 93 73 58
82 601 198 207 142 118
416 453 296 107 16 37
277 223 312 111 90 68
364 654 266 81 29 37
200 809 233 204 139 110
231 773 289 84 70 64
341 883 348 36 33 34
324 193 238 102 82 60
337 15 253 97 68 59
304 318 320 108 83 53
282 803 193 78 58 44
327 20 240 93 80 67
302 409 188 84 70 56
327 33 228 89 77 65
137 613 209 163 122 103
417 853 373 102 81 66
325 33 231 66 49 41
386 515 290 149 13 45
342 143 250 119 94 65
112 598 188 142 100 66
258 611 225 167 0 39
266 158 249 132 98 59
225 888 286 157 116 89
201 713 207 170 111 80
270 143 250 121 90 55
356 723 327 36 29 32
321 28 237 75 42 33
343 757 215 67 40 39
200 784 216 163 109 74
425 673 408 158 117 96
340 156 250 112 88 63
323 29 234 67 49 35
299 278 293 107 86 63
332 608 338 170 16 55
344 103 245 119 96 72
360 715 224 59 40 38
320 31 236 68 37 29
353 729 222 69 37 33
282 394 228 100 86 71
331 20 240 99 79 61
367 448 339 78 23 31
281 932 218 88 76 73
273 325 275 87 75 62
332 22 237 107 77 56
396 503 213 132 6 34
337 23 238 101 82 66
379 905 398 75 62 51
217 633 193 93 77 59
332 27 232 117 69 50
293 25 295 126 63 61
244 905 255 159 111 88
405 546 238 174 23 58
365 213 214 114 92 68
223 953 298 73 67 67
246 964 273 73 70 72
332 33 227 113 73 56
327 33 269 125 44 54
277 732 193 55 39 39
358 693 248 100 26 33
317 578 193 191 9 41
285 971 275 88 85 87
336 30 230 120 70 47
337 33 228 112 85 61
322 19 244 88 64 47
321 22 242 83 44 32
381 558 286 145 13 46
357 429 336 73 22 28
272 198 304 110 91 70
332 18 243 96 78 63
272 337 272 93 81 68
327 173 238 100 80 58
357 318 217 113 89 63
332 16 248 93 76 62
435 446 291 154 12 43
218 578 248 86 22 37
404 528 257 162 18 47
337 20 240 99 82 66
360 160 231 116 94 71
347 783 314 73 59 54
337 16 251 97 72 62
226 538 294 54 28 32
295 672 225 78 26 36
346 15 255 102 57 54
338 31 231 103 89 73
377 859 267 67 54 49
337 138 249 118 91 64
307 23 263 129 47 42
342 32 232 109 94 78
287 394 228 98 83 68
152 613 188 125 96 59
62 570 170 118 94 67
339 26 236 100 86 71
229 694 297 53 28 33
342 16 252 100 69 60
314 414 203 83 69 55
357 283 212 137 103 64
423 678 373 180 123 107
247 959 343 65 60 59
317 643 325 42 29 30
264 303 280 104 83 59
420 838 255 61 49 42
342 29 234 108 92 75
338 738 212 57 41 40
347 24 239 106 85 67
345 30 235 107 89 71
347 33 234 95 67 53
351 33 238 105 33 32
222 733 197 142 97 64
351 93 213 132 36 51
342 17 248 100 76 65
347 18 248 106 67 60
331 158 217 117 92 61
457 843 349 99 78 58
356 856 240 68 53 47
351 23 248 110 31 40
352 23 253 111 34 44
402 738 315 177 125 101
350 25 240 94 56 40
309 33 258 100 35 40
44 572 190 120 74 65
351 28 248 103 33 37
352 33 243 85 56 44
93 601 206 179 133 117
352 33 248 114 29 43
334 284 261 75 63 52
351 33 253 127 84 72
278 529 308 64 22 31
317 418 193 85 70 56
282 523 308 76 19 32
338 717 216 63 36 36
238 831 239 73 61 58
393 718 308 140 98 84
302 378 263 116 90 69
337 48 203 118 81 53
432 463 288 87 27 38
368 358 222 110 91 70
270 139 281 113 90 64
327 42 222 98 82 64
328 39 224 101 89 74
282 673 324 164 10 52
349 136 216 111 91 68
402 543 248 61 29 36
326 47 217 106 90 72
332 38 224 114 78 60
405 527 246 162 10 48
230 695 231 68 50 36
276 433 322 71 26 32
322 838 284 111 86 68
331 529 335 89 18 34
337 38 223 119 89 62
332 45 214 116 87 62
379 840 275 70 60 57
220 523 227 100 17 34
337 43 218 119 96 71
413 772 267 82 63 49
366 587 337 167 13 52
452 844 369 94 76 58
198 753 223 158 115 78
234 928 341 174 133 119
273 574 311 122 10 37
337 41 221 119 93 67
327 53 203 117 92 60
409 514 245 157 14 48
323 63 198 83 31 25
282 93 258 125 31 46
324 64 194 88 37 25
333 50 199 120 53 30
370 268 219 133 99 59
356 369 281 124 95 63
372 398 279 120 96 68
329 55 195 102 27 19
337 49 198 115 63 36
233 564 301 139 11 43
338 51 197 108 59 29
172 608 193 105 89 72
328 50 208 115 86 59
302 433 163 92 22 29
402 823 259 74 59 51
324 50 214 95 76 57
321 420 169 81 62 51
378 755 226 72 56 45
321 288 233 103 85 66
298 433 173 107 20 33
347 313 274 106 80 53
418 453 329 82 24 32
355 910 390 76 65 56
364 183 228 119 97 73
332 508 313 58 26 34
427 473 228 65 30 35
323 233 238 104 83 58
416 747 307 183 120 94
325 51 211 111 93 74
320 56 216 56 36 24
389 525 331 148 14 40
259 779 183 68 53 44
304 934 371 56 49 44
347 208 207 117 94 67
323 258 228 117 93 65
352 538 356 54 28 30
282 693 326 65 27 33
217 644 216 109 77 63
351 457 140 132 14 35
340 45 215 122 104 84
297 652 226 96 21 27
425 486 230 168 15 44
282 538 168 144 19 40
342 44 218 122 104 85
337 297 215 99 82 65
397 482 295 119 9 38
343 42 222 120 102 84
344 46 217 124 105 87
315 511 150 169 18 53
328 328 219 96 80 64
346 43 223 104 80 63
264 138 246 126 91 52
244 596 225 160 0 37
345 44 220 117 100 81
342 53 198 100 73 37
360 169 241 118 95 69
343 52 203 119 99 75
427 659 378 129 103 79
344 51 207 128 112 94
330 123 245 120 91 69
344 57 197 89 45 21
312 691 330 53 26 31
267 248 322 115 93 69
271 123 277 112 90 64
296 468 163 87 25 32
383 864 367 95 79 62
347 53 208 111 88 66
380 812 244 65 52 46
293 711 196 58 44 36
346 54 204 109 85 54
345 60 195 91 46 22
401 437 320 61 22 27
345 123 246 119 95 68
346 63 194 95 46 27
323 88 251 99 58 51
377 428 208 76 30 32
274 797 204 54 45 41
402 878 392 88 70 57
350 64 199 110 43 40
311 718 339 36 30 32
348 58 203 93 49 23
337 14 263 110 57 59
284 242 315 115 92 67
347 794 310 65 54 48
308 408 273 65 52 38
67 588 173 189 122 98
349 56 207 91 46 25
337 643 319 111 18 39
345 50 210 130 112 94
382 913 401 92 74 58
325 458 300 93 13 35
332 73 253 114 80 64
348 52 213 105 76 49
382 863 373 87 71 57
349 51 217 92 50 34
342 93 193 151 28 47
303 24 283 144 35 59
67 573 170 115 87 60
384 750 306 148 106 87
338 36 226 116 92 68
247 883 342 165 122 105
441 687 413 199 132 108
350 50 220 81 53 37
351 53 218 86 35 30
352 53 223 100 29 36
417 895 260 85 72 64
277 168 288 111 89 64
220 541 280 56 27 31
351 58 213 111 33 38
267 453 318 48 27 31
266 11 289 103 65 58
352 58 218 109 26 38
422 458 243 92 24 37
322 38 232 73 41 27
369 222 234 118 95 69
441 658 313 115 92 66
335 586 200 193 8 47
363 848 276 34 31 30
136 620 205 189 134 114
111 589 190 135 100 65
361 313 258 125 93 59
325 36 231 66 40 30
320 46 226 64 38 22
188 652 186 186 124 94
295 405 210 90 77 62
392 493 318 139 16 46
247 816 220 73 61 57
352 333 217 101 84 66
404 800 294 183 126 98
215 528 243 40 30 33
332 36 226 115 77 57
382 543 287 130 16 44
398 484 296 121 4 39
312 918 258 80 72 74
357 388 209 102 84 64
325 202 240 101 82 61
350 891 266 71 69 71
329 148 242 102 81 57
317 431 126 79 65 48
338 58 254 131 106 79
351 68 198 124 42 47
445 681 428 196 132 106
380 513 190 115 14 35
342 34 229 112 96 80
368 854 261 72 57 52
302 833 183 84 67 56
265 631 319 41 29 30
342 37 227 115 99 83
317 408 213 83 70 57
317 484 132 176 11 40
315 383 258 70 61 51
347 703 209 75 55 41
346 39 229 99 77 59
252 808 283 59 48 48
274 530 304 36 27 26
177 609 194 104 88 71
342 163 251 116 93 67
364 688 257 54 35 38
348 42 227 96 54 38
352 43 233 75 38 32
317 478 128 163 10 39
275 245 321 113 89 62
365 683 259 45 33 34
212 798 214 174 115 81
200 726 216 168 113 79
419 723 253 80 60 47
343 48 254 125 73 69
237 698 233 70 48 44
385 777 235 68 52 43
347 373 212 93 80 68
267 368 333 145 106 83
322 533 308 67 22 31
348 39 254 127 18 45
434 690 484 106 82 64
351 43 248 117 44 51
347 419 298 61 50 39
298 401 222 91 77 62
272 193 254 127 97 60
352 48 238 125 28 46
349 49 244 129 33 52
312 777 316 70 59 54
388 493 202 79 26 32
432 653 348 98 83 66
342 228 258 100 80 59
276 873 223 37 33 34
372 419 209 101 54 37
350 46 247 117 71 59
281 168 263 110 88 62
272 937 239 95 88 88
418 457 220 91 33 37
347 43 253 125 73 65
262 668 230 42 31 39
287 793 304 94 78 70
275 136 255 127 96 65
346 462 140 128 18 40
399 814 269 48 39 35
346 47 252 118 65 61
327 133 233 109 84 57
349 44 250 126 18 44
315 378 253 72 61 50
247 894 259 143 99 68
350 41 251 125 10 39
162 608 209 110 90 71
351 921 322 66 56 54
351 53 238 121 17 40
360 188 247 120 97 72
377 538 193 83 36 42
412 458 333 43 29 30
352 53 233 112 52 53
352 58 233 120 53 56
57 582 194 99 73 53
276 868 238 46 43 45
371 298 238 123 96 63
267 703 188 64 46 37
348 58 239 118 47 55
312 893 238 65 59 60
261 30 285 110 77 65
418 659 303 109 80 45
350 58 236 125 12 41
330 493 305 67 23 31
346 83 242 104 16 40
382 758 227 69 53 44
228 903 332 157 123 104
350 63 237 109 12 37
92 573 188 110 90 69
312 805 305 143 114 93
339 54 255 119 84 65
261 897 247 52 48 53
342 53 253 116 31 47
344 54 250 115 14 42
387 868 373 89 72 59
309 411 248 94 75 55
343 63 249 123 29 48
272 838 298 126 102 78
327 363 276 67 51 31
352 58 223 121 21 41
352 63 223 117 27 42
347 303 272 112 85 56
231 653 193 119 86 58
328 88 203 136 6 43
352 58 228 119 48 52
97 604 203 198 142 124
300 432 167 91 23 29
322 408 213 93 78 63
378 538 327 122 18 38
337 68 186 100 43 25
352 383 284 132 95 66
366 308 252 128 99 65
361 478 346 143 5 44
207 782 210 161 107 70
337 73 186 128 33 37
283 198 262 131 100 62
307 918 368 41 38 37
337 78 187 132 31 42
337 417 193 87 73 60
328 634 325 57 31 34
322 448 112 84 35 40
329 82 193 142 9 41
271 468 187 41 35 41
352 163 249 118 94 67
330 85 192 145 12 43
337 83 188 139 30 45
294 509 303 49 28 32
334 87 190 152 31 50
337 421 176 87 73 58
316 398 268 62 52 42
352 918 388 90 73 59
302 488 138 130 12 34
216 815 226 210 136 108
337 88 189 153 25 51
276 163 258 118 91 57
376 886 342 48 41 37
423 428 258 138 17 41
326 283 253 84 69 53
347 478 153 46 36 40
342 543 178 122 23 39
227 623 278 161 4 49
327 928 351 51 45 41
406 910 283 73 60 54
337 90 191 159 29 52
337 93 192 138 49 51
312 634 226 81 29 36
339 74 250 121 14 45
368 263 249 128 98 62
305 383 268 80 66 52
345 69 190 123 28 30
336 742 336 120 15 41
434 699 297 177 120 91
347 68 193 120 41 38
402 528 290 92 23 38
337 393 283 121 86 67
259 130 281 105 87 69
389 550 216 147 37 51
348 73 193 133 27 44
267 123 278 109 88 66
345 78 190 144 29 44
486 920 324 91 83 77
366 879 263 65 54 48
387 415 293 35 26 28
220 944 314 66 55 53
438 689 423 201 135 110
346 447 119 182 13 46
224 933 278 53 50 51
348 78 193 140 24 42
364 397 285 128 97 70
303 448 143 125 5 32
343 88 192 153 22 47
318 298 238 95 79 61
326 30 270 131 95 75
294 316 281 85 71 57
312 907 333 34 33 35
371 353 228 113 92 68
297 553 307 33 26 27
347 83 193 152 23 49
324 68 194 119 22 36
326 203 243 99 81 61
305 843 200 76 71 72
337 473 323 104 14 38
322 68 198 118 17 38
345 430 343 61 20 30
337 554 181 105 26 40
324 72 195 132 16 41
212 642 215 112 83 67
323 73 198 133 9 42
321 73 203 133 7 41
351 113 233 118 95 71
237 788 284 74 61 56
346 73 242 114 40 48
320 73 208 130 11 43
305 858 291 79 64 51
421 838 263 74 57 47
396 478 341 39 33 33
263 354 265 95 83 72
415 794 265 89 63 49
382 917 317 50 43 39
325 75 196 137 10 43
455 698 488 183 123 106
340 387 211 87 76 65
377 758 226 69 53 44
372 763 224 70 54 46
325 79 197 140 7 44
326 358 275 64 50 33
396 483 214 62 36 35
374 468 192 106 17 29
282 406 193 93 77 61
317 718 342 94 24 41
225 590 241 50 31 36
225 871 298 148 116 88
323 78 213 116 72 64
233 603 238 93 25 37
320 74 218 129 56 60
257 538 188 115 16 36
322 78 218 115 55 53
336 168 249 106 84 61
427 428 318 45 24 27
347 148 212 122 96 62
352 513 356 100 27 40
403 858 255 90 65 78
442 418 283 132 23 41
364 443 147 121 16 33
229 863 308 152 106 92
327 933 388 92 77 63
162 628 188 150 104 69
350 67 233 121 94 75
320 78 221 113 35 39
375 713 278 80 50 42
229 956 331 52 49 48
324 81 204 139 5 42
326 83 208 129 7 39
441 659 308 119 95 68
360 315 261 124 92 57
351 133 218 109 90 69
348 320 216 102 83 62
340 511 348 86 25 36
383 548 338 155 21 51
329 87 199 137 7 41
432 669 453 128 102 78
347 333 277 114 85 56
277 863 323 131 104 76
327 88 208 129 14 43
328 93 208 116 15 36
324 88 214 92 59 46
237 688 197 111 80 48
330 89 197 133 5 39
368 688 294 84 20 33
336 83 251 105 62 51
333 93 194 138 31 42
347 393 209 88 77 66
337 27 278 145 29 57
327 95 250 112 83 64
241 633 248 119 13 37
331 93 198 132 9 39
277 198 257 127 95 57
329 93 203 127 9 39
330 94 202 127 8 37
372 448 333 58 25 29
307 308 303 122 95 67
335 498 328 88 21 37
277 333 338 140 100 75
325 88 212 100 53 45
322 83 218 125 31 45
320 83 222 110 50 46
363 218 211 121 97 67
395 773 239 64 51 43
225 665 221 91 66 53
348 454 137 182 14 44
326 93 213 112 28 38
324 91 215 112 39 41
361 867 365 53 44 37
251 763 197 66 51 41
255 610 226 162 11 42
351 73 198 135 30 47
360 160 230 117 95 71
349 80 196 147 27 49
287 643 227 113 14 27
349 83 197 150 19 48
329 103 209 119 17 38
303 468 138 137 4 35
365 323 256 128 99 66
292 393 228 94 80 65
373 438 202 81 25 28
350 83 199 150 25 52
318 323 238 75 64 53
442 698 453 185 124 100
348 88 198 147 20 47
276 133 268 110 85 58
352 78 203 139 23 48
351 88 203 147 26 51
315 407 223 86 73 60
362 894 387 79 64 52
272 108 274 117 92 65
362 420 336 62 27 31
247 846 307 97 78 57
344 95 196 147 20 46
352 93 223 117 78 64
267 808 292 178 130 111
296 958 278 80 74 76
202 783 213 160 107 70
277 26 297 136 40 56
257 717 193 77 47 38
321 69 255 110 24 44
350 728 331 90 29 41
327 69 255 121 91 72
337 73 252 118 17 42
303 478 138 129 6 33
377 896 259 92 67 52
287 508 158 54 33 35
264 782 194 55 45 41
336 78 251 115 15 43
327 420 173 82 66 55
382 503 348 115 15 39
396 711 262 106 78 46
322 83 252 107 25 43
321 88 249 109 79 64
262 213 255 135 103 65
256 697 325 136 11 43
431 690 343 186 125 100
268 949 256 94 87 90
289 351 266 86 75 63
425 684 374 186 126 105
327 83 252 114 29 44
394 460 294 60 4 22
373 416 328 47 38 30
324 92 251 109 16 41
313 17 293 167 112 102
339 363 281 110 81 57
327 92 251 110 43 49
298 808 198 55 49 49
290 52 263 134 13 47
354 153 217 107 88 68
323 253 228 117 92 64
356 843 239 75 60 55
336 88 251 112 52 51
105 580 198 103 91 80
324 328 266 70 61 53
374 850 364 46 38 32
312 12 273 141 38 40
332 92 251 110 50 51
392 833 273 103 73 61
420 457 318 156 18 45
310 956 288 70 66 66
117 614 193 216 144 119
344 108 245 119 96 70
236 613 242 43 31 36
423 679 448 131 108 85
322 791 311 68 56 52
332 94 250 114 83 64
400 513 220 137 9 35
324 723 198 55 46 43
333 168 214 126 98 62
336 92 251 112 12 41
282 22 302 140 94 75
302 323 284 108 87 65
337 93 250 112 46 51
242 767 296 86 71 65
380 478 195 45 36 37
341 157 211 126 96 60
199 717 210 172 113 81
382 883 288 73 63 58
333 112 203 150 39 50
262 143 245 136 100 65
220 928 325 182 137 120
351 68 228 121 75 67
349 69 233 116 92 71
357 419 313 59 21 23
349 72 230 103 86 69
283 418 185 128 8 35
312 592 328 99 3 34
197 643 215 149 113 94
375 368 233 118 95 68
348 68 238 103 39 43
353 148 218 108 90 70
394 529 211 56 31 35
227 678 192 141 95 61
229 863 313 143 54 75
273 514 300 93 6 30
302 878 223 69 62 64
350 66 236 96 30 37
291 540 166 179 8 44
391 905 399 89 74 63
352 288 267 109 87 62
348 73 238 112 44 48
342 448 117 181 11 42
336 493 333 105 16 38
351 78 228 100 30 37
305 868 292 51 44 37
348 78 238 112 26 43
368 353 223 110 91 69
332 469 127 105 27 39
281 239 316 114 92 67
370 364 267 116 92 63
342 68 248 120 50 56
301 410 184 85 69 52
344 73 245 112 64 59
217 888 298 185 132 115
373 573 298 47 28 34
268 547 184 153 14 45
373 493 303 79 9 29
341 73 248 119 35 50
313 843 211 55 51 54
361 308 257 126 93 60
282 678 324 153 13 48
342 788 312 70 59 54
340 67 251 126 21 45
295 466 167 94 21 33
257 628 233 141 2 34
417 850 380 73 55 42
345 68 243 108 79 63
296 358 269 106 85 64
352 83 228 109 21 40
288 868 309 118 94 72
339 415 198 89 75 61
446 797 279 157 112 84
310 956 285 70 64 65
352 93 233 116 23 43
350 93 237 114 62 57
433 703 313 185 120 95
198 649 185 146 104 63
343 83 244 95 56 44
302 443 153 102 11 31
352 233 206 128 98 60
341 88 247 107 67 54
217 653 219 115 82 68
286 739 190 57 45 41
329 138 241 113 87 62
326 497 149 76 36 39
343 712 214 63 43 34
282 14 260 103 85 65
374 575 310 135 27 46
338 83 249 114 93 70
352 777 316 71 58 53
277 777 178 84 61 47
80 566 175 139 102 82
338 88 249 113 77 62
199 768 215 153 106 69
428 707 494 155 100 93
346 88 243 101 39 43
145 595 198 102 89 77
334 96 195 121 64 64
80 595 205 175 136 126
337 103 249 125 100 71
52 578 171 138 99 74
337 97 195 117 86 75
367 233 248 123 98 70
411 468 314 66 28 34
303 443 163 98 16 31
417 917 317 71 57 50
336 99 196 113 77 68
252 902 344 97 79 70
278 938 228 104 95 94
267 283 328 127 97 70
357 333 218 106 87 66
331 103 203 126 15 39
337 108 198 109 82 71
235 698 242 103 17 38
371 288 233 126 97 62
446 678 403 187 129 99
266 709 201 60 38 34
349 136 245 116 93 66
334 111 200 146 21 34
224 708 236 108 73 61
429 856 379 90 76 64
297 418 178 51 40 42
322 208 228 111 90 66
334 630 325 38 25 29
307 23 268 117 39 42
331 108 203 135 17 40
444 662 318 131 101 70
296 463 168 104 23 26
240 921 251 65 59 62
199 760 236 154 116 83
330 108 207 134 17 41
332 113 208 136 75 63
254 922 235 78 67 64
280 190 296 111 90 66
367 747 222 54 44 40
217 563 268 70 21 35
215 573 263 120 9 36
323 98 219 87 61 40
252 538 192 157 2 35
321 103 222 128 28 42
447 669 458 103 90 77
314 414 200 83 69 54
263 878 259 101 82 65
325 98 217 87 60 41
328 533 318 136 5 41
391 911 270 89 74 60
390 895 303 70 59 48
304 380 304 118 83 62
330 187 216 124 97 64
365 277 215 135 98 58
324 107 219 131 44 49
340 679 235 56 36 39
420 496 225 132 26 46
347 577 199 190 8 44
320 445 111 45 43 52
323 108 223 133 84 67
266 428 197 85 30 31
337 927 303 74 65 63
399 744 246 71 51 40
326 109 218 130 71 60
244 741 316 183 23 64
287 313 343 145 99 80
325 110 222 126 87 63
266 18 299 109 42 53
435 424 225 85 23 29
326 113 223 120 87 60
290 481 171 97 22 33
304 955 276 84 76 77
332 113 213 125 85 62
416 673 338 152 107 90
282 400 218 99 85 70
330 110 214 135 91 72
264 414 200 119 18 34
342 597 209 46 31 38
423 463 266 100 14 29
331 113 218 114 80 54
346 582 346 158 22 54
364 839 246 60 48 47
322 653 324 56 29 33
411 523 268 45 35 37
402 813 283 157 104 79
329 925 391 85 69 56
337 113 203 148 71 65
357 612 224 89 33 39
337 115 207 136 89 67
305 352 294 97 75 52
37 581 175 191 125 114
299 389 238 100 82 63
327 128 223 112 87 58
305 914 244 83 77 79
333 118 214 118 85 54
359 703 314 138 6 42
288 443 309 63 26 31
201 768 212 149 103 66
329 119 220 113 86 54
333 128 214 122 92 57
367 892 299 63 55 48
342 103 197 136 36 42
242 643 248 139 1 39
247 678 313 71 28 35
341 111 199 166 89 84
182 638 187 149 104 69
349 103 206 132 25 43
373 253 223 126 98 62
332 687 329 106 15 34
244 697 220 75 55 48
398 488 340 64 28 32
315 436 300 94 20 33
350 103 208 124 29 41
345 107 200 129 24 38
327 313 218 103 86 69
347 543 179 139 19 39
345 111 203 147 56 63
268 390 234 101 87 72
337 763 323 79 64 59
350 106 209 134 32 48
341 878 244 75 61 58
37 583 183 165 108 99
351 98 218 110 65 55
414 483 249 166 16 49
446 673 438 184 136 109
352 103 223 115 51 49
272 413 193 115 21 32
331 488 308 43 27 28
425 433 326 135 14 43
345 113 214 104 81 57
334 49 260 124 12 45
248 664 239 110 28 37
381 493 315 134 11 39
350 106 213 123 51 55
384 475 341 65 20 28
272 293 279 96 77 54
271 318 334 126 94 67
272 223 314 112 92 70
357 218 208 123 97 64
228 558 223 41 36 41
348 108 218 105 77 55
260 535 186 34 34 39
42 568 193 123 81 71
290 446 306 38 26 24
350 106 218 111 79 60
247 598 224 162 0 39
62 554 178 134 104 81
403 708 316 150 107 88
339 458 331 130 15 46
271 154 286 110 89 66
477 912 257 92 78 66
342 114 208 130 91 65
327 594 206 192 9 42
228 826 247 50 32 40
338 258 257 94 75 54
344 113 212 110 85 57
376 718 293 94 34 37
460 925 293 90 78 68
356 913 389 75 68 62
347 188 255 118 95 71
415 858 262 65 53 44
424 683 428 157 114 94
343 118 212 118 94 63
407 783 259 58 46 39
276 93 272 111 42 46
376 393 223 102 86 69
338 128 210 136 100 61
341 123 210 134 95 58
347 208 257 114 92 68
