ply
format ascii 1.0
comment Created by Open3D
element vertex 2226
property double x
property double y
property double z
property uchar red
property uchar green
property uchar blue
end_header
304 192 235 104 87 70
440 564 283 172 10 49
365 854 203 95 76 64
471 469 218 59 27 31
375 446 371 66 33 31
294 939 277 72 67 67
306 194 238 102 85 66
406 554 334 84 23 36
370 957 327 60 54 51
400 405 234 96 81 66
362 965 319 58 52 51
306 199 239 104 85 66
287 269 223 134 101 68
404 244 260 118 92 61
238 589 249 142 105 71
321 194 237 88 72 55
428 453 340 75 31 35
301 369 287 146 105 84
391 789 328 55 48 47
354 354 251 81 67 54
276 524 188 87 28 36
249 678 241 135 95 63
375 728 203 61 42 38
311 200 241 102 83 62
395 154 253 112 90 64
304 202 240 106 88 68
356 939 353 58 52 51
346 424 128 90 74 56
306 204 242 106 87 66
306 209 244 107 87 66
341 30 260 96 56 43
393 407 310 97 78 58
370 204 246 102 82 58
366 474 68 169 10 43
326 972 280 93 89 91
311 204 243 103 84 62
341 494 98 96 32 41
316 204 242 97 78 58
355 504 299 93 24 37
332 319 269 67 51 34
372 159 250 117 87 51
320 205 241 90 74 56
266 754 270 134 93 71
359 393 246 83 70 56
320 220 246 91 75 57
376 504 92 134 25 41
408 69 238 113 38 46
436 468 87 107 32 33
421 624 263 70 32 40
422 694 292 69 29 34
384 40 272 94 26 35
371 484 318 109 16 39
321 209 242 90 73 56
398 616 330 146 101 86
311 214 246 106 85 61
306 219 248 107 86 64
386 438 340 50 37 30
316 214 245 99 80 60
436 789 233 55 47 44
315 216 246 102 82 60
257 654 233 155 105 77
375 403 236 93 78 63
328 17 296 191 151 153
356 845 209 77 68 64
398 234 251 109 89 64
321 214 244 91 75 57
297 729 209 119 17 33
329 248 205 130 95 62
351 824 219 60 51 50
341 607 175 217 14 47
338 200 201 118 93 63
316 219 246 100 81 59
406 438 133 90 65 47
366 109 276 115 92 68
318 217 245 96 79 59
321 218 245 90 74 56
381 169 284 117 94 67
341 504 103 84 32 41
321 224 246 89 73 55
339 314 266 93 70 53
374 567 155 173 58 76
277 399 224 105 88 69
456 412 233 63 35 26
336 430 129 78 40 31
339 238 224 100 80 57
371 443 358 80 14 27
263 479 218 77 32 36
295 234 207 126 100 71
414 584 322 112 26 43
441 704 278 70 52 40
278 395 225 109 90 70
261 689 227 124 92 54
411 463 78 95 74 50
287 569 173 163 3 43
430 739 341 173 117 84
295 239 207 129 101 68
318 295 221 83 68 51
311 294 218 109 82 56
406 64 233 87 34 35
427 804 208 76 58 43
301 229 202 128 99 65
301 234 202 130 101 65
301 239 203 131 100 64
300 924 263 61 57 59
303 234 200 131 101 63
362 154 259 112 89 62
297 954 328 44 41 42
303 237 200 132 101 63
289 229 223 116 94 70
311 872 333 78 60 61
347 474 84 77 33 36
406 599 366 184 130 103
292 239 209 126 100 69
245 744 248 162 111 82
289 239 218 116 93 66
289 237 221 115 92 66
403 398 294 99 80 61
319 429 285 53 27 31
298 244 205 132 101 64
271 813 224 188 128 97
453 759 310 156 109 76
369 891 313 130 102 84
405 389 244 100 87 73
296 249 208 132 101 64
280 619 218 56 32 36
308 850 327 171 130 112
350 27 261 85 53 38
393 700 199 60 43 38
441 413 228 80 43 37
386 214 244 99 83 64
298 248 205 134 101 63
391 44 228 97 44 34
301 249 203 136 101 65
308 447 125 97 12 37
346 415 213 92 78 64
299 254 206 137 101 64
351 938 250 79 74 77
333 204 196 128 97 60
362 695 331 125 1 37
290 244 213 125 99 68
356 549 302 58 28 32
293 248 210 128 100 65
357 955 344 58 53 51
331 29 273 139 100 86
311 894 268 120 81 54
286 299 233 128 99 67
250 819 248 218 148 118
289 244 216 121 96 67
399 190 276 118 94 68
289 249 217 124 98 68
331 164 188 132 100 61
293 253 210 132 102 65
261 724 219 126 94 58
291 529 294 89 19 35
257 594 240 116 88 57
451 724 262 53 43 37
437 499 334 154 2 49
404 354 268 119 96 70
270 774 275 130 98 66
311 254 201 140 99 64
311 704 207 122 11 30
411 418 203 96 80 61
382 38 274 100 21 37
284 384 280 127 97 71
301 833 267 52 43 43
289 254 217 129 100 67
367 86 276 108 92 71
411 644 293 98 27 40
291 484 285 101 11 34
368 170 250 113 88 55
434 684 323 136 98 62
373 139 250 121 91 56
468 429 235 123 16 40
407 586 191 198 19 48
400 204 278 118 94 65
311 228 195 133 100 60
311 230 196 133 100 60
306 239 199 134 100 62
279 435 171 129 17 38
316 363 216 91 81 71
311 234 196 133 99 60
456 524 173 186 14 44
369 486 315 142 12 46
316 228 195 132 99 60
316 230 196 132 98 59
415 489 88 199 13 45
326 24 273 131 30 46
417 893 320 49 43 40
370 48 281 130 23 49
278 622 225 127 36 56
320 227 195 133 100 61
316 749 304 65 56 53
447 504 313 153 2 41
403 68 226 85 49 28
307 958 342 57 54 55
321 239 198 132 96 60
381 209 292 122 97 69
441 699 278 85 65 54
336 159 218 84 71 57
456 889 290 59 50 42
347 871 221 65 56 53
306 244 199 136 101 62
316 407 186 100 85 68
307 249 200 138 100 64
311 249 200 138 99 63
305 250 201 139 101 64
453 474 279 63 23 35
218 513 279 209 140 117
321 289 268 78 63 47
306 254 202 139 100 64
316 244 199 135 97 62
405 494 382 163 116 88
259 575 233 136 13 42
469 504 198 99 18 36
371 299 247 89 78 67
321 244 200 134 96 61
437 494 334 147 4 46
458 732 276 65 51 39
319 247 200 136 97 62
316 410 178 100 85 68
457 534 228 159 13 45
321 249 202 136 96 62
293 427 150 144 5 35
321 549 143 168 6 39
321 254 203 136 96 63
395 214 249 108 89 68
366 649 311 111 16 39
316 559 296 141 6 42
376 839 298 155 114 88
289 229 233 111 90 68
371 309 247 88 77 67
456 429 268 72 26 33
323 22 283 156 116 92
386 179 247 110 88 62
288 230 228 113 92 69
407 629 237 53 32 37
405 60 238 83 32 31
301 965 318 75 70 69
288 230 232 111 91 68
444 557 277 83 24 35
290 229 238 109 89 67
255 659 237 128 89 56
389 75 266 99 28 35
359 436 372 74 16 27
288 235 237 112 91 67
386 394 228 95 81 66
285 694 227 71 30 34
289 238 239 114 92 68
358 464 311 146 0 42
402 506 97 211 14 46
285 634 223 150 13 41
421 414 223 95 77 59
384 40 254 109 95 80
391 134 248 123 94 59
386 430 143 88 71 52
381 614 309 143 6 46
328 286 226 86 70 51
296 229 247 108 89 69
399 239 286 124 98 67
314 918 246 72 63 64
473 464 213 114 22 43
387 722 184 71 52 41
290 239 243 114 92 69
296 234 249 108 89 68
409 856 230 61 49 44
316 399 287 94 49 41
297 239 252 108 88 66
386 785 202 83 62 50
290 909 308 154 121 96
298 225 246 106 88 69
301 229 249 107 87 66
302 230 251 107 87 64
288 240 241 116 94 70
271 664 261 163 124 103
329 382 276 75 54 40
440 818 308 150 92 69
291 244 248 113 92 69
405 84 228 127 30 45
301 699 300 131 6 40
430 729 341 173 113 84
362 124 258 117 88 62
406 684 344 171 124 98
289 247 245 115 93 68
290 249 249 114 92 68
338 198 230 87 73 60
292 249 252 109 88 64
482 849 283 76 65 54
296 249 254 107 86 63
361 54 280 119 69 62
288 250 247 115 93 67
286 409 208 101 88 74
418 510 350 132 22 45
399 299 268 116 93 66
291 904 303 172 126 104
342 398 226 91 77 62
357 459 74 74 35 36
396 894 318 37 34 34
299 445 152 115 24 37
361 409 238 82 69 55
289 254 250 116 93 68
304 227 250 107 87 64
312 559 296 155 8 47
306 399 284 101 61 47
306 229 251 108 87 63
334 849 237 61 50 48
375 578 165 104 25 32
278 738 226 89 60 42
310 230 251 108 87 63
337 690 316 64 25 32
374 43 281 111 63 56
338 209 201 121 95 65
312 228 250 108 87 63
366 814 207 59 50 47
429 507 120 58 31 38
340 454 103 63 32 34
306 238 255 109 88 64
310 659 289 148 2 45
418 408 263 68 63 55
408 501 96 195 10 45
311 234 252 109 87 63
311 239 254 110 88 63
293 447 160 83 35 36
399 169 263 115 92 66
369 460 324 152 0 45
452 480 102 207 18 52
372 483 367 103 24 38
390 144 272 113 89 61
410 695 214 60 46 39
436 704 258 72 35 37
446 494 118 139 35 52
316 229 249 101 82 60
395 569 353 148 104 87
314 231 251 106 86 63
264 574 221 36 33 37
465 509 218 160 3 47
361 239 252 114 89 63
321 229 247 90 74 56
407 780 211 72 56 47
454 487 115 133 15 33
316 234 251 105 84 62
390 902 329 37 33 33
337 369 288 89 63 49
258 484 235 80 28 34
352 449 308 132 5 40
401 728 183 76 59 48
421 774 228 51 43 41
318 233 250 99 80 60
251 639 238 149 104 72
353 802 311 198 146 126
364 227 251 102 81 56
335 325 235 80 70 60
319 236 251 97 79 59
316 244 254 106 85 61
377 489 384 92 58 49
326 134 187 129 102 72
446 419 288 111 21 38
279 464 176 126 14 39
331 29 278 130 25 49
358 195 260 110 88 64
326 139 187 130 103 70
326 144 188 130 101 68
273 384 240 118 95 69
328 134 185 131 104 73
367 417 188 93 78 63
435 789 223 58 48 43
331 134 185 132 104 70
399 602 200 199 18 49
330 694 314 43 27 30
331 284 233 87 71 53
394 164 250 113 91 64
281 394 277 122 94 70
331 138 185 132 102 66
356 768 211 82 50 47
356 398 247 78 66 52
286 411 183 101 81 67
329 136 186 131 102 68
334 264 247 82 68 54
361 24 259 96 71 47
331 144 187 131 100 63
441 408 268 88 46 33
336 144 187 136 101 62
398 208 280 118 95 68
385 511 350 127 14 44
326 149 188 129 100 66
414 446 115 91 54 40
332 134 215 83 67 50
301 894 288 137 106 78
331 149 187 133 101 64
336 149 188 136 102 65
371 189 247 107 84 56
346 418 153 95 79 62
443 790 335 183 124 97
336 154 189 135 102 65
343 134 193 125 96 64
339 496 101 50 33 37
400 474 60 127 44 47
391 219 288 115 91 64
339 144 189 135 102 66
381 824 203 88 68 52
390 386 234 97 83 69
346 519 109 162 8 40
342 139 193 125 97 64
341 144 193 127 98 66
284 324 237 126 99 68
314 546 146 104 15 33
476 489 178 38 31 34
469 863 257 70 56 54
338 159 191 130 100 63
276 834 253 204 143 115
376 194 245 99 80 59
446 412 237 76 38 33
365 179 252 116 92 64
421 739 232 48 40 38
326 169 188 132 101 62
334 440 114 70 39 31
311 469 123 161 1 42
331 169 189 134 101 61
469 739 298 69 52 40
352 412 203 97 82 66
371 913 334 39 36 37
334 169 190 134 101 62
400 104 252 120 23 44
443 479 320 153 8 47
336 169 193 129 99 62
341 410 183 100 84 68
321 279 213 117 87 60
440 504 332 155 8 49
366 439 103 84 67 48
362 884 314 143 106 81
332 175 191 133 99 60
487 869 270 91 76 61
348 439 306 133 8 41
454 489 278 157 6 45
336 174 193 131 100 62
371 474 64 185 10 42
348 377 231 73 61 48
326 179 190 133 101 62
371 229 247 92 74 54
339 438 117 89 33 25
326 184 190 134 101 63
305 464 143 72 28 34
329 179 190 134 100 61
277 714 283 149 4 46
325 195 236 85 70 54
384 424 320 61 51 41
332 179 191 134 100 61
386 739 334 73 29 35
286 805 216 182 125 92
329 182 190 135 101 62
398 479 390 164 116 90
291 410 183 100 84 70
274 384 270 129 97 71
331 184 192 134 101 61
426 436 148 98 21 34
331 189 193 132 100 61
321 846 313 94 74 50
343 368 227 84 72 60
290 500 291 71 15 27
326 139 219 87 70 51
286 415 158 137 39 40
390 499 368 70 39 34
325 145 221 86 69 51
271 784 214 168 115 80
333 139 215 83 68 52
414 639 288 155 5 46
390 129 268 112 90 65
326 581 156 96 36 38
351 30 289 119 69 61
411 514 118 117 27 42
334 145 216 83 69 54
335 489 103 94 30 37
326 149 221 83 68 50
296 354 222 98 84 69
328 148 220 81 66 49
295 939 328 187 138 117
375 475 62 197 11 43
326 154 222 84 68 51
274 359 258 120 95 65
326 159 224 83 68 51
329 151 221 82 67 50
255 554 228 171 0 43
433 833 287 49 39 35
335 149 216 83 70 55
387 103 235 140 13 37
425 439 337 42 27 28
330 154 221 81 66 50
457 444 264 132 8 42
326 204 238 85 70 55
331 159 222 82 67 52
363 140 276 114 91 67
378 956 313 63 54 51
407 494 379 166 117 91
479 454 192 45 28 30
368 19 290 105 33 45
312 474 124 159 0 39
336 154 217 84 70 56
367 844 304 152 117 90
371 483 74 214 13 51
333 157 220 81 68 53
334 160 221 83 69 55
289 596 181 71 27 31
260 529 218 114 20 36
273 434 280 92 18 32
343 134 198 110 87 60
356 934 354 62 57 57
327 255 206 131 95 63
381 169 248 116 90 58
401 894 263 65 56 54
433 707 254 56 37 36
347 454 89 62 30 30
415 639 268 58 31 36
340 134 207 92 74 55
342 134 203 97 77 55
290 459 166 97 25 36
342 139 203 99 79 56
346 623 189 43 35 38
348 488 90 121 29 43
343 144 203 100 80 57
289 451 166 107 22 38
338 138 210 87 71 55
280 479 177 153 2 38
390 451 381 109 89 67
300 494 158 85 23 31
251 519 293 118 8 37
339 141 211 87 72 56
339 144 211 88 73 58
290 448 280 106 9 34
343 149 203 103 83 60
316 489 129 76 30 37
315 471 121 164 0 40
376 504 317 69 27 35
341 16 274 121 58 56
376 659 312 119 7 36
342 154 198 116 92 63
399 612 210 50 36 39
296 699 298 124 0 37
435 419 308 53 27 32
296 474 162 90 21 34
341 159 198 118 93 62
340 149 212 89 73 57
396 50 225 116 26 28
233 554 277 174 123 99
341 154 213 89 73 57
326 14 298 147 58 75
337 189 197 125 97 63
341 159 213 91 75 57
284 484 171 141 0 33
451 809 303 87 60 46
339 160 216 88 74 58
444 533 302 55 28 35
376 594 179 178 17 48
332 168 225 81 67 52
336 169 222 83 70 56
371 419 237 92 77 61
288 613 194 47 31 35
311 359 285 142 99 76
272 489 193 120 18 38
336 174 223 84 71 56
363 144 276 116 94 69
306 454 282 56 25 29
326 374 214 92 81 70
335 184 194 132 101 62
350 416 211 93 79 64
286 354 279 131 98 72
334 188 195 129 99 61
346 608 175 214 12 48
382 494 379 85 47 43
339 168 195 125 97 63
453 484 279 92 17 36
340 169 198 123 97 65
381 429 143 90 72 52
373 252 245 85 71 56
425 753 208 62 47 40
342 164 203 113 91 65
338 175 196 125 97 64
350 411 193 98 83 67
401 279 278 126 92 61
334 26 289 128 41 52
391 529 368 123 76 68
342 174 203 116 93 65
439 568 228 191 24 56
346 384 258 92 72 62
401 279 268 117 90 58
421 435 148 95 30 35
300 594 177 154 14 41
350 568 305 116 2 36
322 885 346 126 98 77
342 174 208 107 87 64
367 23 261 104 89 73
271 464 198 57 33 37
313 349 285 140 96 74
346 734 204 139 4 37
339 164 217 90 74 57
446 489 108 190 19 49
340 169 218 91 75 57
340 174 218 92 75 57
458 419 265 92 22 35
338 179 196 125 97 64
341 179 203 114 91 65
342 179 208 107 87 64
341 184 203 112 90 65
342 184 208 105 85 64
341 189 203 111 89 65
248 739 257 163 112 86
247 734 228 144 102 70
342 189 208 105 86 64
342 184 213 101 83 64
304 449 146 85 30 37
415 579 366 168 117 85
271 409 223 99 55 51
247 729 229 140 100 68
339 837 236 65 51 51
385 69 267 105 82 65
337 179 225 85 72 58
468 496 152 155 17 46
306 644 207 142 14 39
340 179 222 90 74 58
342 184 218 95 78 58
389 391 230 95 80 65
369 859 302 145 107 85
340 184 223 90 75 59
306 449 138 61 33 36
455 809 269 77 59 51
331 514 288 78 24 34
433 708 270 60 30 32
381 99 273 113 57 55
341 914 348 151 118 94
266 779 214 167 114 78
342 189 218 95 78 61
446 524 163 203 20 49
382 479 388 103 58 52
441 729 247 53 44 39
409 376 276 115 91 63
341 189 223 92 76 59
420 778 220 47 39 39
358 432 224 89 75 59
321 819 222 87 68 58
323 162 225 83 68 52
346 30 288 135 30 53
343 347 246 101 74 61
325 659 300 136 8 41
338 464 100 51 32 31
326 169 227 83 68 53
280 359 238 119 95 68
331 174 227 82 68 53
333 173 225 82 67 52
271 509 294 168 7 53
332 199 234 82 68 53
359 352 246 80 68 56
395 649 328 167 123 106
282 319 248 131 102 70
446 463 98 112 19 28
433 779 231 55 46 43
384 54 272 110 69 62
406 827 317 117 79 68
334 176 226 81 68 53
416 759 208 52 42 39
323 177 230 83 69 53
286 594 183 85 24 38
356 414 203 96 81 65
327 178 230 84 69 53
479 478 178 168 7 46
325 180 231 84 70 54
322 803 296 180 136 111
326 184 232 83 69 53
425 482 84 210 15 47
397 64 258 113 89 73
376 564 309 131 1 40
319 893 248 52 48 49
334 499 106 105 26 37
250 779 264 163 121 92
289 656 226 55 31 35
402 567 376 189 131 104
326 189 234 83 69 53
329 26 272 140 102 84
405 224 278 119 94 65
331 179 229 82 68 53
248 744 256 160 112 83
372 223 245 94 76 55
273 726 276 147 15 47
382 427 320 59 49 38
331 189 232 82 68 53
406 894 268 68 57 54
333 188 230 83 69 54
365 449 328 139 6 44
410 598 326 97 46 35
336 189 228 84 71 57
338 183 225 87 73 59
340 592 160 171 22 38
367 249 249 88 71 51
297 434 148 134 16 37
363 872 310 149 114 89
339 189 226 89 75 61
234 516 266 131 94 81
291 369 284 136 101 77
376 479 372 86 21 35
366 144 254 119 94 64
309 444 122 111 22 39
245 759 228 165 112 81
334 198 195 128 99 63
238 624 258 153 107 77
369 905 223 71 62 64
367 149 254 118 93 64
370 168 285 114 93 69
419 689 233 58 44 37
457 490 127 204 22 51
367 154 253 117 91 61
367 159 253 117 92 61
380 559 310 144 2 44
376 134 247 123 91 57
398 274 257 113 89 62
301 509 289 117 0 35
444 558 213 67 33 36
401 69 224 104 43 28
263 464 223 111 18 34
370 134 251 123 94 60
474 765 287 70 53 42
372 134 250 122 92 56
464 512 170 201 17 53
338 344 292 108 74 54
334 21 295 123 84 64
326 411 173 101 85 67
370 139 251 121 93 61
370 144 252 119 91 59
316 504 285 119 0 37
376 104 275 118 94 69
376 139 248 123 92 57
356 804 218 53 45 44
398 84 254 103 59 55
356 33 256 83 29 29
336 688 314 68 26 31
372 154 249 118 88 51
416 879 308 42 38 36
369 159 251 116 89 56
369 648 210 138 3 36
483 466 127 65 38 39
453 759 313 168 117 83
301 529 148 102 25 37
273 619 260 133 93 81
376 154 248 121 90 51
386 249 245 92 78 63
376 159 248 119 89 50
381 149 247 123 93 55
409 781 340 180 134 106
282 424 164 78 30 39
293 919 293 100 83 70
421 544 327 130 14 42
410 441 125 92 63 44
271 754 273 120 74 59
376 859 292 45 34 31
346 596 166 211 13 46
381 159 247 122 93 56
363 169 255 107 86 60
326 199 237 84 69 53
446 774 333 175 118 87
388 430 336 54 46 37
321 398 197 100 85 70
368 179 250 110 87 58
451 704 304 64 48 38
237 609 253 152 108 76
293 438 155 113 34 42
367 184 249 108 86 60
371 169 249 114 86 51
361 958 337 69 60 57
371 174 248 111 86 54
404 234 260 117 93 63
337 339 288 97 63 46
288 750 210 126 98 63
376 179 247 110 86 57
448 457 285 53 31 28
436 854 283 55 47 42
393 930 282 63 55 51
376 184 246 108 86 59
248 663 261 183 136 113
325 393 277 92 66 54
376 188 246 105 84 60
268 449 213 54 35 39
372 196 291 117 96 72
411 384 263 100 81 61
381 188 246 102 83 63
422 624 328 126 95 64
431 769 342 171 118 85
244 556 230 179 29 52
289 534 177 51 27 30
361 689 208 93 21 31
381 190 245 99 82 63
342 400 312 138 14 42
388 457 76 79 59 43
357 903 224 73 64 65
326 194 192 132 100 62
371 859 208 77 67 64
306 344 221 91 80 69
326 204 193 132 100 63
391 199 247 107 90 72
326 209 193 131 99 60
336 709 202 105 28 36
281 549 285 116 21 43
331 369 217 92 80 68
346 639 307 34 28 30
331 199 194 129 98 60
417 633 317 107 83 55
301 784 207 169 117 82
235 514 263 86 61 55
265 434 223 94 26 37
458 434 264 48 30 30
381 214 244 96 80 62
461 427 182 94 15 35
404 391 291 117 92 66
334 31 275 136 98 86
311 559 153 161 4 39
311 823 282 175 128 108
377 509 379 135 95 87
370 613 190 121 27 42
476 428 183 132 10 41
291 599 282 156 6 48
336 194 197 125 97 63
456 442 142 100 18 29
331 209 194 131 99 62
333 201 196 128 98 62
242 529 243 165 17 47
337 219 202 123 96 64
336 204 198 124 96 62
254 520 291 119 3 38
466 442 146 101 16 25
336 209 198 125 97 63
321 417 147 98 82 65
368 150 281 113 91 66
476 434 163 92 23 30
325 223 195 132 99 61
346 868 213 75 64 60
326 224 196 131 97 60
363 458 316 150 1 45
381 354 244 89 78 67
394 418 233 96 80 63
328 220 196 131 98 62
371 449 373 84 30 36
286 804 278 51 43 39
326 619 184 185 15 44
308 905 263 150 102 83
316 390 204 100 87 73
330 214 195 131 99 62
323 207 240 87 72 55
338 409 212 97 82 66
332 215 196 130 100 64
496 926 285 92 74 55
398 228 285 118 94 66
336 214 198 126 98 65
329 217 195 131 99 62
331 219 197 130 99 62
376 863 233 56 50 52
415 489 363 131 89 79
400 584 343 139 98 82
331 224 199 131 98 61
334 222 200 127 97 62
404 360 258 105 87 68
400 99 233 104 77 70
303 842 256 45 36 46
403 89 243 131 16 48
401 420 328 59 49 39
336 224 203 123 96 63
305 854 313 161 127 98
339 197 200 116 91 61
265 599 236 66 47 40
340 199 203 114 91 64
391 199 284 116 93 67
411 424 337 50 28 29
361 915 237 64 58 59
306 509 287 117 3 36
338 204 201 119 93 63
391 64 264 114 32 47
366 289 300 122 96 64
340 209 203 118 93 64
389 118 245 135 91 65
341 209 208 110 88 63
314 902 256 69 54 49
366 454 373 77 19 28
342 194 213 101 83 64
335 279 243 81 67 52
343 199 213 104 85 64
251 609 239 130 98 61
416 579 193 202 20 51
342 194 223 93 76 58
343 204 213 106 86 64
336 654 304 140 17 48
384 209 291 119 94 65
343 204 218 100 81 61
406 809 208 84 64 53
403 712 206 56 44 36
458 486 121 82 25 41
342 209 223 95 77 58
401 79 253 113 29 46
338 214 201 122 97 66
283 502 295 96 12 30
340 214 203 118 93 64
339 223 205 119 94 63
445 558 218 111 32 45
408 69 243 117 37 48
486 900 193 97 83 69
245 524 232 56 36 37
403 573 322 107 21 39
339 224 208 113 90 62
347 379 302 126 93 72
284 304 263 122 93 61
341 214 223 96 78 59
296 339 287 141 99 77
341 219 223 97 79 59
391 909 336 50 45 43
404 65 252 110 32 41
452 439 273 144 5 43
284 304 237 130 101 70
454 469 276 146 7 42
326 194 235 83 68 53
351 899 226 67 59 61
301 354 287 140 100 79
328 197 235 83 68 53
335 195 231 81 67 53
383 514 375 145 100 90
336 199 232 83 70 55
330 443 110 51 32 43
361 920 243 73 67 70
290 429 157 126 16 39
366 909 224 74 65 67
336 209 234 85 72 57
351 684 204 127 11 32
476 439 153 100 19 27
258 430 244 119 21 35
438 697 304 91 12 31
257 492 301 52 29 31
397 54 253 79 39 34
400 179 263 116 93 67
412 822 326 170 120 97
331 214 239 82 68 54
391 169 248 118 94 64
331 845 318 107 84 56
410 479 377 140 105 75
278 599 209 123 19 40
332 219 239 82 68 53
292 260 257 110 89 66
322 568 150 132 23 46
333 223 240 82 67 52
326 319 229 80 70 60
315 285 272 105 82 56
395 528 124 214 12 49
336 848 318 115 89 61
329 215 241 84 69 54
330 219 242 83 68 52
330 224 242 82 67 51
402 64 254 104 31 41
466 900 267 96 80 66
299 454 156 41 36 38
340 194 227 90 76 61
292 443 159 46 35 37
341 204 228 91 76 60
418 762 208 60 47 42
341 214 228 92 75 56
333 248 245 85 70 54
350 416 169 98 83 67
340 224 228 92 74 54
358 204 263 107 87 64
497 909 184 93 80 68
373 839 300 157 117 92
326 234 246 81 67 51
432 536 166 194 16 44
339 224 232 90 73 54
337 219 234 89 74 57
338 224 235 90 74 57
323 226 196 133 99 61
355 249 283 114 91 66
326 229 197 134 99 62
437 730 190 84 61 47
326 234 198 133 98 62
367 447 81 84 67 49
330 229 199 132 99 62
373 492 345 82 23 36
336 349 288 88 61 45
323 499 286 124 3 38
396 819 213 64 50 47
366 244 249 91 73 52
391 574 312 119 15 40
357 109 268 121 97 72
333 229 201 129 98 62
346 754 318 78 63 56
311 404 286 122 9 38
336 410 178 100 84 67
330 234 200 131 98 61
453 462 275 141 8 45
376 419 198 95 80 64
301 379 213 90 79 68
239 544 256 121 79 58
334 238 205 121 94 61
341 28 288 132 77 68
322 245 201 135 96 62
371 279 298 128 98 62
428 571 196 137 11 40
325 242 200 133 95 59
364 416 185 94 79 63
296 329 224 94 80 65
328 241 201 132 96 60
356 917 340 47 40 39
330 244 204 128 95 61
331 334 278 62 48 31
336 244 213 111 87 60
351 25 298 136 20 53
356 14 283 96 56 52
331 649 302 40 26 31
285 389 280 125 96 71
405 522 124 204 13 46
335 249 213 111 87 59
336 249 218 108 86 60
389 427 232 96 80 63
374 557 145 146 46 55
335 254 218 109 86 60
338 226 206 116 92 63
258 439 239 137 6 37
358 199 263 109 88 64
386 519 103 96 37 42
439 419 301 67 28 34
404 225 259 117 93 65
454 539 243 185 13 50
344 304 262 112 85 70
322 547 140 169 7 40
339 228 209 114 90 62
340 229 218 104 83 60
311 719 306 164 0 51
278 484 180 153 1 39
340 229 223 100 80 58
338 234 213 111 88 61
455 484 273 63 24 33
466 434 163 93 18 35
339 234 218 104 83 60
389 246 245 96 80 62
386 394 312 121 95 65
466 458 108 102 25 35
338 236 217 106 85 60
292 439 281 112 10 36
338 239 218 107 85 59
291 411 168 111 68 62
404 80 225 115 24 39
396 74 222 138 15 32
298 509 153 104 23 35
349 75 256 115 75 56
402 626 315 119 55 52
444 518 316 54 30 36
400 254 254 110 87 60
283 453 170 107 21 35
321 589 298 61 24 33
245 619 242 144 104 68
338 240 223 102 82 58
420 410 263 68 63 55
390 214 245 103 85 66
277 384 233 116 93 67
292 880 313 134 106 79
386 819 314 68 57 53
365 440 372 70 17 28
344 302 266 104 82 63
426 589 228 95 36 45
337 244 218 107 85 60
367 469 64 81 28 35
287 624 208 82 32 39
338 244 223 103 83 60
456 884 274 78 64 56
341 569 303 118 1 36
368 235 296 120 96 70
361 739 208 85 28 35
279 420 166 113 26 39
252 729 262 161 112 86
402 413 309 64 55 46
444 739 331 171 117 85
455 479 273 84 22 35
336 234 238 88 72 55
338 334 292 111 74 56
473 496 178 62 27 35
336 239 238 89 72 54
421 884 309 43 39 38
420 494 352 59 27 31
327 229 245 82 67 51
322 238 250 87 71 53
456 503 143 177 25 49
326 849 333 153 123 96
348 460 85 122 14 33
333 492 105 85 36 39
423 697 288 72 29 33
329 239 246 77 63 49
308 426 125 102 72 46
351 459 363 74 24 33
334 239 241 86 71 54
246 565 238 117 44 38
336 244 238 89 72 53
325 254 252 74 61 47
277 359 243 119 95 66
399 587 346 154 110 92
244 560 251 112 68 44
396 104 233 130 35 41
450 699 278 57 45 37
331 249 247 80 66 51
351 954 257 86 81 85
247 564 244 116 50 43
334 244 242 87 71 55
265 444 223 73 28 35
359 244 290 119 96 71
423 784 231 58 48 44
320 485 126 78 29 34
366 719 208 115 19 32
388 532 381 177 127 105
366 479 348 80 22 34
335 249 242 87 72 56
339 234 228 96 76 55
339 233 231 91 72 51
338 236 230 93 73 51
371 134 280 113 91 67
416 814 199 101 77 60
331 749 203 92 27 38
436 428 173 93 22 34
469 493 149 200 19 52
338 240 228 96 76 55
396 819 199 98 76 60
436 416 214 92 57 45
407 74 243 127 22 48
338 244 228 96 78 57
448 724 318 142 99 67
376 498 396 195 139 124
334 274 252 83 71 61
421 479 78 195 17 48
246 564 233 146 40 42
337 244 233 92 74 54
235 579 263 153 107 75
319 292 220 87 69 50
337 249 233 93 75 54
384 496 324 95 20 38
370 544 305 108 17 38
336 254 228 96 78 57
336 254 233 95 76 56
364 149 256 112 89 62
381 830 208 107 82 59
349 499 295 77 24 33
361 99 273 119 97 73
255 759 265 161 119 90
361 204 253 123 98 69
459 472 99 197 17 47
270 479 198 112 26 38
431 694 284 60 40 33
400 845 295 41 36 35
455 434 268 77 23 32
451 463 98 111 18 28
367 194 249 108 86 60
364 199 251 112 90 62
376 419 193 95 79 63
363 208 250 110 89 66
358 219 255 114 91 64
361 219 252 118 94 67
474 493 168 159 15 47
358 224 254 123 97 65
426 558 179 77 30 41
350 299 299 111 87 61
361 224 252 115 91 64
392 676 213 75 50 42
426 859 253 79 62 49
464 778 291 82 61 49
463 799 278 78 62 52
410 908 313 76 64 55
246 544 238 158 31 47
364 214 251 108 87 62
254 528 226 69 31 33
444 444 293 93 18 33
339 40 261 110 30 42
357 690 326 127 10 39
329 863 233 46 42 42
363 220 250 106 86 62
364 218 251 106 85 62
390 204 286 116 93 66
322 432 123 77 53 41
262 444 229 107 20 34
255 524 226 49 36 39
416 453 103 88 62 38
370 194 247 106 84 58
421 470 74 87 49 37
376 199 244 98 80 60
370 209 246 99 79 55
296 649 273 150 1 45
284 479 171 141 2 34
252 799 267 175 130 104
376 204 244 98 80 61
251 579 276 171 120 97
463 467 255 147 10 53
377 590 177 190 12 46
381 204 244 96 80 63
376 435 118 84 68 50
470 421 199 122 9 34
398 531 131 211 14 47
403 654 236 113 11 32
461 888 228 92 75 60
473 739 277 74 56 41
370 214 247 97 78 55
462 705 303 92 76 63
281 639 254 71 34 31
351 420 148 94 78 59
408 467 360 106 45 47
317 274 264 101 80 56
310 631 196 41 35 43
346 664 204 130 4 31
372 215 245 95 77 56
484 468 168 88 23 36
343 780 211 77 59 51
376 214 244 96 79 59
382 539 311 149 3 46
331 15 299 152 85 88
446 466 90 117 20 24
376 223 245 93 77 59
386 734 334 152 12 49
416 483 79 200 14 46
331 414 163 100 83 65
381 219 244 95 79 62
337 819 296 167 125 106
381 224 245 94 79 62
358 229 254 126 99 67
361 229 252 114 90 64
316 429 284 56 25 29
357 234 254 134 103 71
406 890 317 38 35 35
286 574 284 57 23 32
361 234 252 114 90 64
357 239 254 135 106 75
263 468 290 121 4 36
476 437 157 101 17 29
305 397 201 99 85 72
363 230 250 103 83 58
320 431 123 80 63 53
445 774 253 59 46 44
434 484 336 144 1 44
364 240 251 98 78 53
248 734 257 165 112 86
438 697 316 124 90 61
357 244 254 132 104 75
362 139 273 116 92 66
311 674 294 94 14 37
386 540 133 214 14 49
361 244 252 114 90 63
336 544 294 54 25 29
416 764 203 64 49 45
314 536 291 113 3 33
248 609 240 132 99 62
401 744 334 127 79 67
357 249 255 135 106 77
269 566 211 156 15 46
361 249 254 113 90 64
441 780 227 55 46 42
366 429 128 90 73 53
351 34 257 88 29 35
485 879 277 93 76 63
391 224 247 104 86 64
316 374 212 91 81 71
396 515 103 162 24 49
462 519 183 199 16 53
330 591 161 170 23 49
401 684 218 55 41 39
299 955 304 80 73 71
397 110 237 132 82 77
364 244 251 98 78 53
349 283 278 92 71 49
368 254 250 87 71 52
257 564 228 178 2 45
341 459 98 70 30 33
384 766 330 62 55 53
371 234 247 91 74 54
265 419 218 68 34 37
360 852 207 115 84 64
402 394 293 116 92 67
279 364 237 118 95 68
386 754 333 68 57 53
400 446 109 88 69 46
365 470 66 108 31 41
376 234 247 91 76 59
380 229 246 92 77 60
473 452 126 111 23 29
400 879 245 66 55 53
346 974 273 83 81 85
389 119 267 111 90 65
346 39 257 93 20 31
459 529 198 145 28 50
303 553 291 166 11 52
394 914 336 54 48 44
382 229 245 93 78 61
331 359 223 90 78 67
357 104 268 121 98 74
460 809 278 72 56 50
469 482 130 212 23 58
379 237 246 91 76 61
274 650 230 131 87 59
228 518 270 185 128 103
353 850 209 80 68 60
364 124 275 115 93 70
356 649 204 141 6 36
376 244 244 88 74 59
443 439 293 139 8 39
334 436 120 60 36 37
471 484 138 188 22 51
373 248 245 86 72 57
376 254 244 85 72 58
374 254 246 85 71 56
270 439 193 118 25 41
244 620 270 173 123 98
261 804 273 175 133 105
381 244 244 89 76 61
344 824 227 56 48 48
454 424 272 92 15 33
330 324 273 61 47 30
441 524 158 216 22 52
391 64 223 100 30 23
392 34 228 92 53 50
387 667 310 64 20 28
259 459 237 101 24 37
399 686 209 52 42 39
348 312 261 123 98 83
376 496 86 207 11 43
287 279 263 111 88 63
450 754 323 178 125 91
392 39 231 86 59 49
447 779 328 175 116 84
284 328 269 124 95 63
308 449 128 149 7 43
341 764 207 117 28 39
392 44 232 82 66 56
339 375 220 87 77 65
395 35 228 93 42 40
396 39 228 96 32 33
395 39 231 88 38 36
243 514 235 134 18 32
401 421 189 96 80 62
433 448 329 36 29 30
336 829 299 149 118 95
397 48 227 109 31 29
399 49 229 94 27 32
371 729 339 89 32 42
294 901 325 156 106 93
400 49 233 88 22 29
386 45 248 115 101 86
285 324 273 128 94 66
391 48 248 102 90 78
371 917 243 61 57 59
389 46 250 106 93 80
433 810 237 65 51 47
390 54 232 93 71 52
353 294 255 97 82 66
395 199 281 116 93 65
391 50 238 100 88 75
459 799 270 78 59 49
354 51 280 125 7 46
306 404 193 100 86 70
346 854 318 127 97 67
358 873 320 141 106 81
386 59 228 85 35 24
271 694 226 123 92 58
346 394 257 99 78 71
386 56 230 91 71 53
385 64 226 102 24 27
358 408 241 86 71 53
388 61 225 91 28 20
358 430 337 94 15 33
420 731 193 76 55 42
413 576 186 50 30 37
276 514 188 78 32 36
393 50 225 117 17 20
393 55 225 103 23 19
302 449 148 96 30 36
406 555 350 82 48 35
396 54 225 112 29 23
400 54 228 93 35 30
385 509 372 113 60 57
396 50 238 89 78 65
399 51 237 79 58 45
330 344 228 88 77 66
336 13 283 143 87 89
345 379 224 79 68 56
391 445 103 88 70 49
396 713 183 74 51 45
397 52 239 90 76 64
371 494 348 72 21 32
400 64 224 99 43 30
458 468 265 140 15 41
306 299 220 111 85 58
394 51 243 95 84 73
301 349 287 143 102 80
370 374 241 91 78 66
365 874 228 64 60 61
395 50 248 94 84 73
322 934 250 82 75 76
335 284 243 80 67 53
400 55 243 85 65 60
336 16 273 126 68 63
361 249 293 120 96 70
255 724 264 160 113 88
397 53 248 86 74 66
399 56 252 86 31 30
287 599 184 47 33 38
405 409 303 67 58 50
401 59 253 101 32 41
335 464 107 91 28 35
271 804 219 181 126 91
266 474 208 60 35 38
404 219 263 119 95 66
401 54 233 85 30 30
402 63 227 85 41 27
378 377 310 128 100 65
341 967 332 72 65 63
404 60 233 79 32 31
404 60 230 77 30 30
405 64 229 81 41 31
348 446 90 117 43 35
261 549 218 151 4 39
271 489 294 32 26 27
348 364 244 76 62 51
278 602 267 110 27 44
371 319 246 85 74 63
331 635 196 194 9 42
403 57 238 77 35 28
405 60 243 88 36 35
400 789 204 70 54 47
405 64 248 108 34 43
336 34 263 113 59 53
391 79 224 147 9 37
266 554 288 37 26 27
392 49 258 79 45 36
396 79 222 143 19 38
292 914 328 114 95 85
410 421 190 97 79 61
401 79 224 130 27 39
459 528 218 127 15 39
392 84 224 150 7 39
395 689 323 93 51 47
294 328 226 100 84 66
361 435 108 84 68 48
393 569 367 175 125 103
428 668 334 143 99 65
281 424 279 123 1 37
396 84 223 149 11 41
324 951 261 84 78 82
391 487 70 234 16 53
410 583 190 177 20 52
326 879 253 40 37 39
282 304 248 129 101 70
383 846 216 62 54 53
456 840 248 71 59 51
343 469 90 97 29 38
400 84 224 137 28 43
418 457 96 89 64 37
384 69 226 146 6 32
368 621 196 35 35 44
431 457 102 99 37 35
384 75 226 148 7 41
421 804 237 73 59 52
336 604 304 35 29 30
266 414 278 112 34 41
424 653 346 177 123 92
413 474 353 88 18 34
386 79 227 148 6 40
431 685 261 48 36 32
385 85 232 146 7 44
361 304 302 134 95 67
441 554 293 174 9 49
388 89 230 147 12 43
359 957 341 75 64 58
420 680 299 54 36 35
479 431 174 117 22 41
385 89 232 144 8 43
478 897 193 107 88 66
367 369 244 86 74 62
281 714 226 72 43 38
388 82 225 151 18 42
387 524 373 150 101 88
389 180 281 117 94 69
302 622 190 73 34 32
390 85 227 149 9 41
388 92 230 145 13 41
344 319 249 94 69 52
392 93 229 144 10 38
362 444 338 72 18 32
338 403 217 96 82 67
396 754 332 49 41 39
356 429 328 93 18 34
399 88 225 146 22 45
395 604 358 174 126 103
452 468 92 141 15 32
396 94 228 147 16 40
335 679 310 75 26 34
413 484 374 159 115 89
401 89 228 146 21 48
397 624 328 152 107 90
366 944 344 48 44 42
471 915 298 92 82 74
401 84 252 108 32 44
398 552 327 133 13 44
464 497 145 46 37 38
397 94 254 111 46 50
360 134 263 117 92 65
311 509 286 111 4 34
400 94 252 120 22 43
404 609 327 119 69 60
425 450 341 97 30 40
404 74 225 107 36 30
337 354 288 90 63 49
463 785 271 64 52 44
316 334 224 86 76 66
406 74 228 116 29 37
371 439 337 78 22 27
408 74 233 121 27 39
256 554 284 98 21 35
354 456 365 115 20 40
426 455 103 92 48 37
431 784 223 53 44 41
406 79 228 119 28 41
463 516 178 204 18 55
361 14 288 95 52 50
377 258 245 84 71 59
407 79 233 134 24 45
352 422 137 93 76 57
366 609 310 52 26 30
407 79 238 134 23 49
406 79 243 134 20 51
234 549 262 157 113 84
421 594 218 45 35 39
405 79 248 129 18 48
404 78 251 127 9 46
311 945 263 74 67 69
386 690 322 87 7 28
403 81 226 120 29 40
421 411 233 94 73 57
404 88 238 138 14 49
403 90 231 142 33 52
288 314 281 135 93 73
437 529 324 177 5 56
402 94 233 113 54 54
402 94 238 133 26 48
410 460 351 61 21 28
296 554 288 148 12 46
404 92 234 132 34 50
403 84 249 131 20 51
385 694 212 73 42 41
403 86 244 134 12 49
253 739 261 163 115 88
400 573 175 70 34 40
314 287 215 117 85 58
266 449 218 40 35 38
406 695 214 57 44 39
397 244 251 107 87 63
241 569 279 176 121 100
402 89 248 129 14 48
404 83 247 134 27 53
429 665 327 140 98 63
404 87 242 133 19 50
403 81 250 124 19 46
403 664 236 92 19 32
402 94 243 130 20 49
421 774 223 46 38 36
264 454 222 56 32 35
370 444 343 93 15 30
299 441 151 151 3 38
258 827 256 219 151 123
468 496 215 170 8 45
402 94 248 129 23 49
356 469 358 64 25 32
388 241 246 97 80 63
353 284 260 122 97 68
391 99 232 141 12 38
326 924 352 193 153 131
413 394 274 96 79 60
326 479 118 86 29 37
384 99 236 136 11 35
384 376 235 93 81 69
385 104 236 140 13 38
256 789 223 170 113 81
371 804 317 58 51 49
391 104 234 141 15 36
351 444 373 133 11 44
388 108 235 141 15 33
460 730 313 66 48 35
391 119 253 110 86 57
391 108 235 142 15 37
407 853 233 60 50 45
402 417 315 62 52 42
376 438 113 85 69 50
357 469 74 152 4 38
316 934 349 180 136 116
393 98 230 144 13 41
399 98 230 147 29 40
420 624 357 171 120 89
399 104 234 102 91 80
343 424 360 97 16 32
270 459 203 92 30 38
326 384 273 92 63 51
421 459 93 89 61 34
396 108 235 122 50 47
255 519 227 52 36 36
401 430 153 88 67 52
399 107 235 134 126 118
260 565 279 97 15 33
346 30 260 87 62 45
400 109 243 132 33 49
322 269 259 81 67 52
366 525 107 78 36 40
392 106 255 109 81 62
396 107 252 103 63 54
314 584 295 155 7 47
440 865 286 51 45 40
308 474 134 143 8 39
386 112 239 142 85 68
391 112 239 147 62 60
392 114 248 124 87 62
370 932 250 66 60 62
391 934 283 63 56 53
397 899 268 66 58 56
451 427 181 95 14 35
386 123 245 130 90 56
401 99 238 127 36 49
467 470 108 107 26 41
401 104 238 113 47 48
321 14 298 136 47 59
402 99 248 125 19 47
339 759 310 76 62 55
341 379 263 86 67 54
402 104 243 128 30 47
325 535 132 90 35 41
386 134 246 126 92 56
261 489 223 133 7 36
429 740 190 88 61 46
336 433 127 73 37 29
364 455 320 144 3 42
386 144 246 128 96 58
397 264 289 128 96 63
390 139 248 122 94 59
380 544 310 149 2 45
391 144 248 121 94 60
393 144 251 116 92 64
328 456 116 83 18 29
372 965 298 66 61 60
386 154 247 127 97 59
459 523 253 176 10 49
355 449 352 113 1 36
286 809 277 50 43 39
386 159 247 123 95 60
399 324 264 118 95 68
416 689 346 178 123 93
349 890 341 167 123 100
399 294 273 117 91 60
321 13 288 142 80 76
393 148 251 115 91 63
267 785 276 174 132 100
394 149 253 113 91 64
307 449 133 66 31 36
394 150 250 115 91 62
404 249 259 117 92 62
267 479 203 72 34 36
446 554 208 86 32 41
386 804 322 69 57 53
441 544 303 153 16 46
363 483 356 55 24 33
394 154 250 113 90 61
395 159 253 111 89 64
333 260 221 103 82 58
459 524 243 49 29 34
386 164 247 120 93 61
454 479 277 35 28 34
389 59 266 118 17 43
405 259 273 125 94 59
386 169 247 117 92 61
386 174 247 113 90 62
358 259 255 126 100 74
238 609 266 168 120 95
400 214 254 109 89 67
410 379 273 113 90 64
436 499 113 122 31 45
330 455 116 62 30 30
302 958 337 52 49 49
463 510 166 203 17 49
391 174 248 116 93 65
395 174 249 113 91 65
397 174 253 109 89 65
302 659 282 142 0 43
440 784 243 55 45 41
390 209 245 105 87 68
409 777 210 74 58 45
339 455 295 69 22 31
386 184 247 107 87 63
243 755 235 159 108 79
285 364 228 115 94 70
311 584 163 95 30 40
394 179 250 114 92 66
268 429 198 60 34 36
421 594 353 154 109 75
316 714 204 121 19 35
422 594 348 155 112 79
394 184 250 113 91 66
397 189 253 110 89 64
284 769 285 71 58 51
396 674 328 139 96 81
370 436 336 73 22 25
399 190 255 110 89 65
401 533 361 115 68 56
280 491 291 69 24 31
399 268 286 131 98 64
276 399 273 117 92 67
391 194 247 107 89 70
466 432 167 93 17 35
388 198 246 103 87 71
408 536 330 40 26 32
276 479 183 159 0 42
386 204 244 101 85 68
341 799 219 73 58 52
293 958 315 74 71 73
281 411 208 97 84 71
428 458 340 86 22 34
376 99 275 115 82 63
381 274 297 129 96 61
386 209 243 100 83 65
413 551 166 98 21 39
389 200 245 105 88 71
394 79 262 109 18 39
324 878 237 49 44 44
248 809 239 182 124 92
390 204 245 106 89 71
384 907 330 39 36 35
397 199 252 108 90 69
442 784 248 54 44 41
392 209 247 108 90 70
302 434 138 144 10 39
402 349 263 115 93 69
317 579 296 155 9 48
397 204 252 108 90 70
274 434 176 85 33 38
246 809 258 190 136 110
388 223 246 101 83 64
458 424 264 138 15 43
446 426 183 93 21 33
364 416 188 93 78 63
326 449 112 73 31 39
389 217 245 102 84 65
308 583 165 106 34 44
276 474 287 31 24 27
400 224 253 110 89 66
409 772 204 66 51 44
389 226 245 102 84 64
381 445 368 93 77 62
397 254 252 107 86 63
390 230 245 101 83 64
392 229 247 104 85 64
301 288 280 107 86 63
317 436 110 73 29 48
392 234 246 102 84 64
350 374 233 71 61 49
251 534 227 99 28 38
453 541 250 184 13 47
396 229 249 107 88 65
248 788 230 172 115 82
395 234 249 106 87 65
339 323 263 114 83 70
395 239 249 105 85 63
364 159 280 113 92 70
385 244 245 94 79 62
456 509 153 65 28 34
387 244 246 97 80 63
422 629 353 161 111 79
386 252 245 92 78 63
386 379 308 120 94 62
339 31 280 112 52 45
305 636 202 185 12 45
243 545 250 114 36 37
306 399 198 99 85 72
396 568 169 125 33 47
394 249 250 102 83 62
351 274 268 86 71 55
394 254 250 102 83 62
386 704 208 71 48 44
298 881 327 155 121 101
321 20 288 165 122 116
321 11 294 140 55 66
356 429 223 87 74 62
365 425 234 90 75 60
342 12 298 144 85 96
366 454 68 78 62 45
336 534 123 156 9 41
321 12 292 140 67 70
305 604 289 115 27 43
321 19 293 181 133 136
326 13 283 143 90 82
304 492 141 136 1 34
331 15 273 127 74 67
316 378 211 90 81 71
331 14 278 133 81 74
356 609 309 71 26 33
371 354 239 82 71 59
290 269 217 141 104 72
331 12 288 149 86 90
305 412 186 101 86 70
398 432 146 86 68 50
327 19 269 126 67 62
240 543 286 174 123 103
376 374 237 96 83 70
396 249 289 122 95 63
332 362 222 89 78 66
346 419 223 81 68 55
366 879 233 61 57 58
331 20 264 123 40 47
331 16 270 125 68 62
278 401 276 115 91 68
416 469 363 96 77 59
278 344 258 118 94 64
331 869 338 154 123 95
336 18 268 123 56 54
335 29 262 112 50 51
300 285 216 143 99 70
287 504 294 123 7 39
326 24 278 140 13 48
457 795 267 77 61 50
335 30 279 127 28 50
379 481 328 66 27 39
276 569 198 76 31 38
316 494 285 122 1 37
332 27 282 125 55 58
331 25 288 123 64 59
273 394 235 114 92 68
331 619 183 215 13 46
333 27 286 141 23 57
425 639 328 150 108 74
312 896 264 100 67 48
242 619 244 148 106 71
291 409 203 101 87 73
331 704 202 60 37 40
336 27 288 139 46 60
283 304 239 130 101 70
448 804 261 57 46 42
406 495 83 168 18 45
341 14 278 131 76 76
341 12 288 148 92 100
346 15 278 118 65 63
304 619 285 159 4 50
351 15 278 102 64 54
366 923 350 42 38 38
378 851 216 62 54 53
346 14 283 136 83 88
261 469 228 78 24 31
316 411 173 100 85 68
236 574 273 175 121 98
346 13 288 138 84 92
364 474 360 60 25 28
351 13 288 115 66 69
395 364 293 126 98 66
338 17 271 124 58 56
341 17 271 118 51 49
326 369 214 92 81 70
341 21 265 110 45 43
346 19 268 103 56 44
304 816 285 38 24 31
346 21 265 97 58 43
351 19 268 98 72 52
334 277 234 90 73 53
456 438 153 94 18 35
351 17 272 100 71 54
328 680 306 68 25 32
458 509 264 157 4 45
351 21 265 94 68 49
274 403 227 100 84 67
374 857 215 63 56 56
473 496 168 166 10 44
353 398 250 75 62 50
354 254 278 104 84 61
344 31 285 139 20 54
325 13 292 151 86 86
323 12 301 145 28 60
326 11 298 147 42 66
298 818 281 68 56 52
332 11 290 151 83 92
394 527 120 130 5 38
331 11 301 148 54 75
332 13 301 143 41 64
326 464 287 92 17 33
330 20 294 146 106 83
332 23 292 141 104 82
381 483 69 222 14 50
461 714 288 91 68 43
251 654 264 188 139 117
461 456 114 102 27 34
456 704 288 82 63 44
336 19 298 142 100 81
400 654 233 79 28 34
400 829 209 64 52 47
337 27 291 134 30 55
299 679 216 93 33 37
448 718 272 59 41 35
447 509 308 156 5 44
297 594 286 165 6 51
340 11 294 154 93 104
351 13 293 120 70 75
322 400 292 73 32 32
390 319 254 96 80 63
346 12 298 133 78 87
443 429 290 150 4 45
400 264 258 112 89 60
351 15 301 104 44 50
339 305 245 78 67 55
288 329 230 116 93 66
390 441 114 87 69 49
431 704 273 58 32 31
377 233 295 124 98 69
341 23 297 126 86 69
340 26 294 128 49 56
387 560 157 163 21 46
240 589 247 134 102 68
346 24 298 130 44 58
271 729 273 133 43 48
328 869 229 52 46 46
342 360 262 90 71 58
347 22 301 116 44 50
405 379 249 92 80 68
325 709 310 110 18 40
301 504 143 101 21 33
350 22 301 117 19 43
346 28 293 141 15 54
321 534 134 60 33 36
428 701 276 77 38 36
476 479 198 69 28 34
440 708 272 62 44 36
331 417 152 97 81 64
351 28 293 128 61 61
285 314 268 120 92 61
352 863 323 141 109 76
352 26 295 133 56 61
333 32 265 107 81 62
335 324 283 75 55 39
437 759 340 164 112 78
333 32 272 124 76 63
347 449 358 129 8 39
338 33 260 108 17 38
341 34 259 95 38 32
367 154 281 113 92 68
466 879 274 80 68 57
294 319 285 128 92 70
351 89 268 105 53 51
341 39 259 109 24 38
378 447 91 87 69 48
301 831 231 98 75 67
461 474 103 202 19 48
341 44 258 113 82 65
450 549 213 121 34 47
331 890 351 179 132 111
339 45 262 121 92 70
340 49 263 115 51 54
337 44 268 107 43 47
338 47 268 107 31 41
418 566 181 130 10 33
361 918 239 67 61 63
339 49 268 113 18 42
340 44 274 117 80 65
350 38 256 84 17 27
344 43 256 97 38 40
243 789 248 170 119 87
362 234 292 121 98 74
344 49 256 112 45 47
340 35 280 122 15 43
256 824 258 216 150 123
338 38 277 122 1 41
341 39 278 121 20 45
446 894 283 98 87 79
271 554 203 57 30 36
262 499 218 150 0 40
417 495 97 202 14 48
398 607 361 175 126 102
380 34 277 88 46 41
421 416 213 96 79 61
264 429 223 88 26 35
375 421 169 93 77 59
454 868 268 80 68 57
456 432 167 95 8 35
311 714 306 157 0 49
374 426 145 92 74 54
316 853 298 102 79 56
406 468 68 98 79 60
342 33 282 122 34 50
361 744 333 118 28 48
343 37 281 132 12 47
436 844 263 78 64 52
410 815 330 177 128 105
343 48 276 130 101 77
388 421 221 96 80 63
419 426 336 113 21 38
347 32 286 130 34 54
351 35 285 119 31 48
350 89 258 113 42 49
351 33 286 114 70 61
371 724 339 44 31 33
351 39 283 123 21 47
295 724 212 113 14 28
350 459 83 130 8 37
338 842 230 60 48 47
328 290 231 82 67 52
348 42 281 122 98 79
346 631 196 195 9 42
384 62 271 104 20 36
378 468 55 163 28 47
277 439 280 63 23 29
386 74 267 92 49 44
351 44 281 111 47 49
257 479 238 47 34 34
352 48 281 118 17 41
295 825 274 63 51 49
322 494 123 93 29 38
341 54 263 116 46 47
340 54 268 120 49 52
346 59 273 119 22 47
247 550 235 149 28 45
343 58 271 117 61 58
376 249 297 127 99 67
456 744 307 75 54 40
345 64 263 124 94 71
306 264 264 117 93 65
446 443 138 96 20 35
375 670 316 131 8 41
345 64 268 124 90 73
322 624 297 44 28 31
274 412 198 71 49 46
446 724 323 152 105 72
347 64 272 117 21 44
345 54 274 117 48 51
434 430 316 73 26 32
348 58 276 122 13 42
251 589 242 120 91 58
351 59 277 113 39 48
406 244 263 120 94 62
468 433 234 145 10 40
275 444 177 90 31 38
421 804 342 193 143 115
291 454 281 113 3 34
381 754 196 61 47 39
349 60 275 125 7 44
352 63 276 117 25 46
381 504 92 112 28 42
355 249 258 116 92 67
455 859 268 84 74 65
360 436 105 84 67 48
394 88 261 120 19 44
352 398 238 77 64 53
403 446 346 68 19 27
364 602 175 117 35 50
361 15 278 93 68 60
356 14 288 100 54 52
366 16 278 93 65 58
351 424 223 82 69 56
366 15 288 92 55 53
356 23 262 90 63 43
360 22 261 97 71 48
359 213 285 117 96 73
366 764 326 65 57 55
296 894 333 163 117 100
351 544 299 72 24 32
338 311 287 99 73 48
356 18 268 100 80 61
408 620 232 83 33 40
365 745 211 79 30 33
356 384 253 85 70 55
271 779 213 158 110 74
302 298 220 125 92 64
394 534 320 134 10 41
358 318 250 75 65 55
357 26 260 84 52 34
402 407 305 67 59 51
356 17 272 99 77 60
361 714 337 162 3 50
361 17 268 101 81 66
471 450 128 110 22 29
297 412 167 119 75 64
374 617 195 89 26 37
452 903 293 73 63 55
356 29 258 78 38 29
284 784 211 162 110 75
302 244 256 111 89 66
299 484 161 141 2 39
352 26 260 82 49 34
384 244 296 122 95 62
477 471 126 49 34 39
363 21 260 105 89 72
400 559 323 107 19 38
366 25 259 105 89 72
351 434 108 86 70 51
316 784 207 83 64 54
433 786 236 50 41 43
332 439 292 90 20 33
406 709 208 51 40 35
366 17 272 98 71 62
352 855 203 95 78 65
366 29 257 92 76 62
404 759 335 170 124 98
356 16 274 97 74 60
361 16 274 96 74 62
353 798 311 193 142 122
396 674 314 76 58 55
370 16 279 94 58 55
338 306 272 85 66 46
426 828 298 87 54 43
370 16 287 91 57 55
371 495 87 208 12 43
472 484 208 117 24 42
351 510 102 71 37 40
290 694 222 65 29 34
371 24 263 104 88 73
316 789 297 58 48 45
433 591 274 59 30 37
425 468 341 125 14 42
371 20 268 102 71 63
311 389 283 121 88 69
431 704 277 78 39 36
371 18 273 101 60 57
373 22 266 101 71 62
417 729 213 48 39 36
391 469 58 96 70 57
306 412 163 103 83 69
342 384 221 85 72 60
376 24 268 93 59 49
386 774 329 66 57 54
374 21 270 102 59 56
314 509 137 126 6 34
253 788 225 169 111 79
338 368 221 87 75 64
333 267 250 82 69 57
375 20 273 101 44 48
450 479 288 142 13 43
377 23 273 91 32 36
275 419 172 69 35 34
385 770 330 63 56 54
331 354 284 69 50 35
377 28 263 100 85 70
438 459 291 102 23 36
351 964 333 84 80 81
391 274 293 126 94 61
419 628 283 44 32 32
379 26 273 86 31 31
380 29 273 94 28 39
371 498 89 198 9 43
306 309 287 131 91 69
400 264 286 129 98 65
301 689 214 97 29 37
431 425 183 90 43 38
370 19 288 93 38 46
373 19 284 93 42 47
321 594 298 39 30 32
375 19 282 105 30 42
280 754 284 66 53 48
373 24 285 98 30 39
371 29 287 115 86 69
266 684 227 126 92 56
454 539 228 77 29 38
453 449 270 146 2 43
377 29 278 66 49 40
471 824 293 81 64 52
375 399 236 94 79 64
456 880 282 77 67 58
351 419 153 96 79 61
379 29 276 80 47 42
356 13 293 104 56 57
379 456 70 82 62 44
455 474 273 136 14 41
265 604 267 153 111 94
360 16 296 96 44 45
314 589 295 123 18 43
365 16 292 92 50 49
356 19 300 107 78 61
473 496 173 179 16 56
354 19 301 113 94 72
356 24 298 128 33 52
336 859 223 58 51 51
320 309 225 78 68 58
361 19 297 98 32 39
406 424 338 75 26 31
470 488 143 194 17 48
486 924 291 99 86 76
360 23 297 120 15 45
284 408 212 101 88 75
356 26 295 137 64 67
309 286 276 107 84 59
437 723 247 58 43 39
378 448 231 94 79 63
258 481 235 52 37 37
361 31 290 122 69 65
409 659 249 113 15 35
453 540 258 70 31 36
352 279 288 104 83 59
366 19 293 98 39 46
366 24 292 108 26 43
365 28 291 121 43 54
368 24 290 103 14 38
403 712 204 64 50 45
367 32 256 83 67 52
356 34 287 127 19 48
271 704 224 121 90 57
399 562 165 172 36 50
426 739 234 59 50 45
356 39 284 127 18 48
392 179 279 116 92 66
354 36 285 129 11 45
374 756 330 74 62 57
361 38 286 134 9 48
366 824 306 169 126 104
337 499 104 99 31 41
340 864 212 91 73 61
410 412 300 67 58 49
340 449 107 88 29 29
356 44 282 113 40 48
363 149 259 112 88 62
356 49 281 121 16 46
361 44 282 137 111 87
301 774 206 148 105 69
291 410 178 101 80 68
411 421 336 57 27 25
361 49 281 123 34 51
348 971 320 56 51 50
350 847 217 57 49 51
241 654 253 177 124 95
401 584 370 183 128 103
367 878 236 60 55 56
385 259 296 125 95 60
362 134 273 117 93 67
463 509 248 58 29 33
406 419 333 63 43 34
464 731 281 102 77 49
366 38 286 132 11 48
472 474 213 81 30 38
263 534 209 69 30 35
406 417 208 96 80 61
395 159 272 115 92 67
