ply
format ascii 1.0
comment Created by Open3D
element vertex 2227
property double x
property double y
property double z
property uchar red
property uchar green
property uchar blue
end_header
407 733 176 59 44 41
334 449 248 47 26 29
420 689 203 73 49 40
346 429 183 89 73 56
365 314 283 139 98 68
377 626 171 64 23 27
364 659 180 84 29 35
380 694 167 70 50 40
348 431 176 92 75 57
380 569 113 99 34 44
347 432 162 95 80 62
417 485 97 138 19 40
350 434 163 94 78 62
342 439 184 85 70 54
355 324 287 143 97 70
375 445 138 89 73 58
340 439 188 84 69 54
260 639 258 170 119 94
464 881 212 84 68 55
398 434 314 142 16 44
341 434 193 81 68 53
435 464 103 144 15 40
340 439 193 81 67 52
375 805 164 102 76 56
385 445 153 100 82 64
359 868 188 75 71 71
344 434 183 88 73 56
341 444 183 84 70 54
345 444 178 86 71 55
411 808 301 178 128 100
343 442 181 85 71 55
341 449 179 85 70 54
341 444 188 83 69 54
346 447 186 82 68 53
347 434 179 89 74 57
348 434 177 90 75 58
370 818 282 44 36 37
420 834 218 56 44 39
435 609 278 158 108 73
349 439 177 88 73 56
347 275 271 121 96 68
260 584 133 161 5 44
350 444 177 86 71 55
395 419 298 88 31 35
350 449 178 84 69 54
390 467 57 101 81 58
350 444 193 80 67 52
507 496 230 41 29 28
349 446 189 82 68 53
352 447 191 82 68 54
355 443 133 88 73 57
360 444 133 88 72 56
353 441 139 90 75 60
272 682 250 100 77 63
355 441 143 89 75 59
360 443 138 89 74 58
365 444 138 89 73 57
448 493 277 181 123 99
355 440 148 90 75 60
255 519 163 150 1 41
355 439 153 92 77 61
352 437 156 93 78 61
353 436 158 93 78 61
487 495 245 154 9 48
300 863 273 100 81 58
289 859 314 167 133 112
358 441 145 89 75 59
510 459 234 135 20 45
361 442 152 90 75 60
365 443 148 91 76 60
365 442 153 91 76 61
363 441 154 90 76 61
420 684 233 46 41 39
363 441 158 90 75 60
480 434 208 76 28 38
365 442 158 91 76 61
375 446 133 85 67 54
375 445 143 94 78 60
326 572 90 229 15 47
379 446 130 83 61 50
360 443 198 88 74 59
364 568 94 215 19 49
380 446 133 84 63 51
382 447 131 83 60 49
385 447 132 84 56 47
400 879 248 78 65 60
380 445 138 88 69 55
385 446 143 95 74 58
420 544 289 144 97 81
370 444 148 93 78 61
370 443 153 95 79 62
375 445 148 97 80 62
385 445 148 99 80 62
350 764 174 68 53 48
380 446 158 100 83 64
385 446 158 100 83 64
353 436 163 92 77 61
347 531 281 49 24 33
356 438 163 91 76 60
438 799 234 59 47 42
380 473 187 95 79 62
353 436 168 92 76 59
392 811 192 71 54 49
355 438 168 89 74 58
355 440 173 87 72 57
384 834 203 50 44 44
359 441 168 90 74 58
356 443 174 87 72 56
400 810 162 107 85 62
361 443 168 90 75 59
432 614 261 144 99 70
441 804 254 62 47 38
365 443 163 91 76 60
410 414 293 95 29 40
365 445 168 91 76 60
433 817 278 165 105 80
346 489 267 151 6 47
364 446 172 90 75 60
475 435 203 82 25 35
365 449 174 91 76 60
455 530 157 199 14 39
355 445 176 87 72 56
360 449 178 88 73 58
355 449 188 84 70 55
270 539 107 84 30 36
452 744 250 60 46 34
355 447 192 85 71 56
370 445 163 94 79 62
260 554 118 137 11 40
369 446 167 94 78 61
370 448 169 94 78 61
240 814 228 194 131 101
375 446 162 97 81 63
375 447 164 97 81 63
442 506 267 137 93 79
380 446 161 99 82 63
421 834 233 40 33 35
484 487 135 67 33 37
393 294 253 113 88 59
375 706 153 79 58 44
380 447 164 99 82 64
385 447 163 100 83 64
258 661 216 153 104 77
341 388 197 109 72 56
384 598 154 198 14 47
317 557 80 193 11 44
357 463 286 105 32 45
346 388 202 110 60 51
470 915 197 102 85 68
346 394 197 106 77 58
260 594 188 124 28 45
370 899 322 49 44 41
358 967 264 88 83 86
452 476 280 171 113 95
346 388 208 102 63 57
348 391 200 110 68 54
335 955 324 67 61 58
349 394 199 105 73 57
355 605 132 209 15 50
405 739 292 158 113 89
335 920 323 67 54 46
255 624 218 128 97 67
351 394 202 101 70 56
406 604 278 155 109 92
350 399 208 91 71 59
342 388 215 97 74 70
345 389 213 98 73 68
459 502 140 111 24 30
310 959 322 66 61 60
337 394 220 84 74 67
431 739 198 71 55 45
337 399 220 78 67 58
340 399 218 82 71 62
343 392 216 94 78 73
351 389 223 87 73 58
412 780 201 64 50 43
347 400 210 88 71 59
300 826 260 113 81 63
352 394 219 88 74 60
350 394 223 87 73 59
350 399 223 87 73 58
329 515 52 78 36 39
460 448 124 185 17 31
342 416 200 81 67 53
344 412 208 80 67 54
393 469 305 125 13 39
430 509 292 165 118 85
299 559 249 84 23 35
347 405 196 93 75 59
327 518 55 111 31 47
346 409 198 88 72 57
390 604 162 49 35 38
348 407 199 87 72 58
348 409 208 85 71 57
385 469 179 96 80 63
345 404 213 84 70 57
338 847 184 58 51 48
342 405 215 81 69 56
360 469 287 104 28 42
326 562 271 163 16 50
342 407 215 81 68 55
441 465 112 172 9 39
383 928 312 58 50 47
337 402 220 76 65 53
338 405 222 75 62 49
342 408 219 80 67 53
443 721 262 126 89 58
346 689 176 117 16 33
345 409 217 82 69 56
275 734 187 111 18 35
345 414 213 80 67 54
350 934 333 59 53 52
342 415 211 79 67 54
412 424 295 79 16 27
345 409 223 81 67 53
419 483 99 147 17 42
345 414 218 81 68 54
347 404 209 86 72 58
254 559 182 180 4 48
351 405 214 88 74 60
405 419 223 109 92 76
346 404 223 84 70 55
407 585 166 181 13 41
347 405 219 85 71 57
292 679 180 124 15 36
415 688 227 54 41 38
348 403 222 86 72 57
348 409 221 83 70 56
348 413 218 82 69 56
304 544 82 154 3 39
432 601 225 163 16 46
325 389 233 63 53 42
354 494 274 151 10 45
388 376 276 125 97 64
490 469 242 64 29 33
322 389 235 65 53 39
325 394 233 62 52 40
327 399 230 61 51 40
322 399 235 60 48 34
330 389 228 67 58 49
303 646 166 194 8 45
384 679 188 72 37 37
328 389 231 63 54 45
332 389 225 89 82 75
414 670 245 69 54 40
336 389 238 85 68 53
328 393 231 63 55 46
456 864 223 56 47 43
330 399 228 63 53 42
422 672 251 92 68 45
273 502 261 157 111 84
325 964 248 87 84 87
332 394 225 79 72 65
228 744 228 148 104 75
390 844 204 62 54 50
336 394 238 80 65 49
334 389 243 80 66 51
448 568 241 58 32 36
291 587 110 81 34 40
355 499 274 148 11 45
332 387 245 84 71 58
350 399 284 145 105 81
333 394 243 81 65 48
411 806 212 78 59 49
333 394 248 90 68 49
336 414 258 128 12 41
495 939 213 95 83 71
545 464 203 107 25 41
272 758 190 153 105 76
333 394 253 110 76 57
270 799 268 129 103 80
244 609 238 150 109 78
322 403 234 56 44 30
325 613 134 228 15 49
325 406 236 54 44 30
325 409 238 100 15 31
241 764 262 153 113 83
325 414 239 109 7 34
330 403 228 60 50 38
330 404 233 57 48 38
229 734 238 147 102 72
335 404 228 67 55 43
334 403 233 65 55 43
438 715 277 150 102 67
328 408 240 94 24 33
331 405 242 58 49 38
331 409 242 107 18 35
355 879 292 78 65 54
243 684 221 140 99 68
371 890 318 38 36 35
335 409 248 107 29 39
335 409 253 93 35 41
336 414 253 122 11 39
430 599 193 183 18 50
395 589 158 190 13 46
339 369 279 144 104 81
343 386 236 104 78 61
425 449 283 63 20 31
350 844 164 94 74 63
342 391 235 95 74 58
438 482 120 181 13 44
339 398 232 79 64 50
341 400 230 80 66 51
343 394 232 91 74 57
346 274 263 119 95 69
337 396 235 78 63 49
348 388 231 97 79 60
344 754 182 84 30 33
346 399 225 87 72 57
349 393 226 90 74 59
315 609 132 229 15 49
340 405 231 73 61 47
301 954 322 50 46 46
394 364 263 132 100 69
341 408 228 73 61 48
382 709 295 103 23 40
247 595 230 137 105 73
418 482 94 177 11 42
344 409 227 78 64 51
341 407 231 72 60 47
432 857 212 105 91 83
343 418 197 81 67 53
410 863 235 70 57 55
280 939 298 191 145 123
256 658 215 154 106 75
342 425 194 79 66 53
458 435 237 67 25 28
294 678 260 123 7 37
341 423 207 76 64 51
365 600 133 198 14 48
341 429 203 77 64 50
346 429 208 80 66 52
412 419 295 63 22 27
350 424 210 82 69 56
294 959 314 49 46 47
250 744 213 131 95 65
349 422 211 80 69 57
291 675 257 71 16 32
328 728 285 115 31 47
388 424 295 124 11 40
352 419 210 84 71 59
305 659 262 127 16 42
291 919 243 60 57 58
395 854 218 65 56 52
347 430 211 81 67 52
420 484 294 148 105 88
349 429 211 81 68 56
486 432 224 99 26 37
344 435 199 79 65 51
345 439 197 78 65 52
485 439 233 70 21 28
342 432 201 77 63 48
340 443 197 79 66 52
325 858 298 125 101 75
251 529 243 146 102 81
350 439 198 80 67 54
347 432 207 82 68 52
347 437 201 80 67 54
346 774 178 69 54 48
310 604 265 79 25 37
310 744 177 126 18 39
350 432 211 83 69 55
232 729 224 142 103 70
353 278 280 115 91 67
325 419 239 119 9 38
390 779 294 52 43 42
435 453 267 60 14 23
358 957 245 82 75 77
325 424 239 52 24 29
325 429 239 42 26 27
447 555 250 158 20 52
335 544 64 89 33 38
250 714 259 157 109 82
470 435 230 76 19 29
449 452 118 188 17 34
328 419 240 122 6 37
286 743 281 154 27 58
390 259 237 103 83 61
325 634 158 200 18 50
331 419 242 122 8 36
371 319 280 143 103 71
390 808 184 82 63 52
460 474 124 91 34 42
331 424 242 67 22 32
256 543 169 54 29 36
446 764 243 66 50 41
335 419 248 93 16 33
331 429 242 38 26 26
315 924 217 83 76 78
466 444 268 131 96 76
333 429 244 48 25 27
411 509 108 97 32 41
335 429 248 44 26 27
416 616 203 121 30 47
336 429 253 65 18 29
325 439 239 88 14 32
328 637 160 196 6 45
425 865 258 89 69 60
285 564 103 101 16 36
325 444 240 99 10 33
470 469 123 100 29 42
295 709 177 85 23 33
325 449 240 107 3 32
328 434 240 41 25 26
285 611 136 222 18 52
258 581 210 58 25 32
424 619 254 130 89 63
328 438 240 35 24 24
374 299 281 145 104 72
281 874 283 159 124 94
330 439 242 47 25 27
334 434 248 46 25 28
334 439 248 51 24 28
391 529 88 48 36 39
355 769 177 64 50 43
330 449 243 50 22 26
243 669 243 142 99 69
333 444 245 44 26 26
244 669 248 158 110 82
334 444 248 46 26 28
438 843 286 58 45 30
335 534 57 135 26 41
333 448 245 44 24 25
246 669 252 162 113 88
336 444 253 69 28 34
346 464 273 123 16 42
399 474 170 99 83 66
336 449 253 45 29 31
337 419 253 132 5 40
337 424 253 121 7 38
388 376 220 98 87 75
330 839 287 158 128 102
344 294 278 111 88 65
353 390 203 104 66 53
365 389 208 92 79 66
441 724 273 148 101 67
424 614 238 176 14 53
366 391 205 92 78 64
356 390 214 90 76 61
357 386 215 90 77 63
353 387 221 88 74 59
434 502 130 155 21 40
486 535 183 189 19 53
300 539 84 146 2 36
355 399 214 89 76 62
251 770 210 102 77 44
227 759 243 163 113 85
360 454 288 60 27 32
359 394 212 89 76 63
355 764 290 66 58 54
360 399 212 90 77 64
267 648 210 103 41 39
354 394 217 89 75 60
430 489 292 166 119 91
440 840 214 61 50 47
353 398 216 89 76 62
406 589 167 146 21 44
402 389 248 117 92 64
380 454 173 97 81 62
361 393 210 90 77 64
364 396 211 95 80 65
338 791 186 67 53 48
228 784 253 167 117 87
435 799 298 181 126 99
417 456 74 92 43 44
365 399 213 93 79 66
367 397 210 93 79 65
400 464 68 96 73 51
365 414 208 93 79 64
354 404 212 90 76 62
279 939 278 109 86 77
354 409 212 88 75 62
360 403 212 91 77 64
414 614 289 168 123 96
405 416 302 62 33 30
450 443 163 95 18 42
360 409 210 91 78 64
249 544 198 154 3 45
355 414 212 91 76 59
365 403 211 93 80 66
280 749 184 129 12 38
389 334 268 138 103 75
365 409 209 93 79 65
419 811 154 99 85 72
370 389 206 94 80 66
398 379 257 126 97 65
375 389 207 97 83 68
460 479 127 128 22 39
370 399 208 95 81 66
375 399 204 95 81 68
260 504 259 165 118 95
373 400 206 94 81 68
429 451 114 121 23 32
380 389 208 98 84 70
384 390 209 100 87 73
380 394 205 96 83 70
384 464 294 57 27 30
348 846 286 153 123 95
405 477 42 110 72 47
381 393 206 98 84 70
430 437 193 98 75 60
387 771 171 72 56 49
385 399 208 100 85 70
385 554 103 69 33 38
402 765 191 53 43 40
383 400 205 99 85 70
375 404 203 95 81 68
274 675 246 113 83 67
409 824 213 57 47 43
373 408 202 95 81 67
455 889 228 73 58 41
387 324 270 140 104 79
371 410 204 97 81 65
375 414 200 95 81 66
255 529 257 164 120 99
370 414 202 96 80 64
368 412 206 94 79 64
372 414 200 95 80 65
279 564 112 133 2 37
380 404 202 97 83 69
490 524 223 129 21 46
388 309 271 136 101 72
363 800 286 51 45 44
365 339 283 137 100 67
379 406 200 96 82 68
485 938 219 100 82 67
264 774 197 151 106 72
384 404 204 98 84 69
382 409 201 96 82 68
443 784 286 173 115 82
384 409 204 98 83 68
381 415 202 97 82 67
384 414 204 98 83 67
368 402 211 96 80 64
355 419 209 89 75 62
360 419 208 92 78 63
357 705 175 90 23 30
457 571 192 69 33 41
251 554 198 156 0 44
355 424 208 86 73 58
421 684 203 75 52 40
358 422 206 90 76 62
356 429 205 87 73 59
405 504 93 86 37 44
290 719 282 171 13 55
360 429 203 90 76 62
421 585 176 172 15 42
362 898 306 102 75 64
357 426 205 88 74 61
365 424 202 97 81 63
361 421 205 95 79 62
365 429 201 92 77 60
360 875 287 32 28 28
434 457 280 57 20 24
390 813 166 67 46 32
337 315 259 106 76 55
444 694 238 67 51 39
355 417 211 88 75 61
355 416 210 90 76 63
359 417 211 92 78 62
262 550 121 92 20 37
356 438 201 85 72 58
360 439 202 89 74 59
259 554 173 150 2 40
355 444 198 86 71 55
354 446 194 85 70 55
401 474 173 99 82 65
357 442 201 87 72 56
471 480 254 172 116 104
414 504 108 116 20 39
292 644 252 145 14 46
365 439 198 92 77 60
278 524 248 104 68 59
366 435 199 91 76 61
416 441 179 100 83 65
364 434 201 91 76 60
335 744 177 105 27 38
363 438 201 92 76 60
364 442 196 91 75 59
365 449 193 89 75 61
367 441 195 92 77 61
320 789 189 83 63 54
370 424 203 98 83 65
242 812 225 186 126 96
435 832 278 73 56 43
375 424 202 98 83 68
303 838 255 170 119 97
370 429 202 93 79 63
374 429 202 96 81 67
375 894 224 82 71 68
500 500 147 180 19 47
380 419 203 99 83 67
464 426 232 66 32 33
355 955 308 60 54 53
380 424 203 97 82 66
385 419 208 98 83 67
263 659 251 153 110 90
343 532 268 42 25 27
384 425 204 99 83 67
247 832 240 238 163 137
355 895 213 58 53 52
386 423 206 99 84 68
411 678 232 68 40 36
380 429 198 96 81 63
255 804 271 171 129 97
382 427 201 98 83 67
383 430 200 97 81 64
504 446 184 96 24 35
247 792 210 168 114 82
426 664 285 175 117 89
331 854 188 55 49 47
485 529 228 118 25 44
370 434 198 93 79 63
430 579 178 169 16 43
460 484 129 107 25 37
233 732 221 138 101 70
370 439 194 92 78 63
328 861 302 122 98 73
255 804 209 180 124 90
294 884 261 139 107 77
415 534 283 56 28 29
395 744 292 104 24 38
416 417 267 71 63 56
372 436 195 93 78 61
371 809 168 89 67 49
368 438 196 91 77 63
375 435 195 95 80 64
374 433 197 95 80 64
336 359 277 142 99 79
375 439 194 97 81 63
373 432 201 97 82 65
280 669 243 33 25 26
398 508 83 133 27 47
360 564 88 220 18 50
370 444 193 92 77 61
478 911 219 95 77 56
314 570 91 195 12 46
370 449 193 91 76 60
375 444 194 94 79 61
380 434 197 97 82 64
310 953 326 51 48 48
380 439 198 96 81 65
425 729 293 167 112 80
383 434 200 96 81 66
401 515 97 59 33 38
260 836 243 202 139 111
449 744 252 61 45 35
384 439 200 98 82 65
445 429 278 59 28 31
456 445 117 206 22 32
270 553 110 82 29 37
378 440 195 99 82 62
427 649 266 155 106 77
309 649 264 49 25 32
385 444 198 99 82 64
385 447 196 99 82 64
362 768 291 67 57 54
370 384 288 141 104 72
345 454 179 84 69 53
405 819 293 154 109 85
345 453 182 83 69 53
350 450 183 83 69 54
348 452 181 83 69 53
345 629 272 77 28 36
309 569 259 79 14 30
414 479 298 92 40 43
355 450 183 85 70 55
428 426 235 78 55 49
360 864 188 74 69 69
359 450 189 87 72 55
342 459 267 149 8 45
357 452 184 86 71 55
455 896 243 86 86 86
392 900 268 62 51 48
365 454 178 90 75 59
400 814 198 63 50 47
362 453 191 87 72 56
365 454 192 89 74 58
344 524 263 77 17 33
365 459 183 90 74 58
450 878 228 71 57 44
325 494 244 65 23 30
366 458 180 91 75 59
253 559 232 130 90 67
450 881 219 74 61 48
364 459 188 89 73 56
367 459 191 91 76 59
366 463 188 92 76 59
367 464 191 92 77 60
365 605 279 189 13 60
367 467 191 92 77 61
370 453 174 93 78 61
374 451 171 96 79 62
262 607 140 166 3 40
387 914 278 52 45 43
449 482 125 180 11 44
290 775 186 85 66 57
352 836 160 106 82 63
376 457 175 95 79 61
380 451 171 98 81 63
369 455 176 93 77 61
510 464 234 99 20 38
370 459 178 93 77 60
350 344 286 143 100 75
368 461 181 92 76 60
370 464 183 93 78 61
471 484 250 126 12 38
373 456 176 94 78 60
385 464 177 96 80 63
404 488 34 109 38 46
380 459 193 94 78 61
450 433 208 79 31 33
277 919 279 165 131 107
294 683 264 119 7 38
347 966 247 83 80 83
381 465 190 95 80 62
385 459 191 96 80 63
382 936 273 63 57 55
394 789 295 140 108 85
385 462 191 96 80 63
372 468 184 93 78 61
264 826 221 202 140 111
261 561 126 125 0 38
360 939 323 49 43 41
374 469 182 94 78 61
388 659 195 100 15 31
370 469 188 93 77 61
246 629 253 151 109 80
303 571 96 176 2 32
370 469 192 93 77 61
271 664 244 139 102 81
362 499 281 136 13 46
405 446 143 88 47 45
500 449 163 97 27 35
375 470 190 93 78 61
490 448 153 90 27 35
380 469 179 95 79 62
300 813 271 159 117 96
380 471 181 94 79 61
378 468 191 94 79 62
382 875 226 76 64 61
380 469 189 95 79 62
400 594 272 76 27 32
385 469 189 97 81 63
380 753 296 72 59 53
385 473 184 96 80 63
444 587 198 207 15 54
410 413 258 73 64 55
325 454 241 110 0 32
386 635 188 119 27 44
325 459 242 113 3 34
325 464 243 116 5 34
334 454 248 89 16 33
336 454 253 87 23 36
329 459 244 120 6 36
410 654 248 83 55 40
332 459 246 123 7 36
385 479 298 107 14 35
332 464 247 126 9 38
316 723 280 145 17 47
334 459 249 130 8 40
336 459 253 139 9 42
355 369 287 141 105 76
476 447 117 169 19 35
465 904 213 86 72 58
325 469 243 112 7 33
325 474 242 64 20 29
325 479 243 51 25 30
392 760 166 85 64 53
333 469 249 51 20 29
336 469 253 44 25 29
375 439 292 54 28 32
355 409 287 139 102 79
332 479 246 52 26 29
334 474 249 31 26 29
295 605 128 157 36 53
365 792 286 72 61 58
350 354 286 148 106 81
336 479 253 91 25 37
325 484 243 36 26 28
325 489 243 33 25 26
354 874 184 77 68 68
329 489 245 35 24 26
500 509 228 132 23 46
340 976 278 49 45 45
495 479 132 162 8 43
334 484 248 59 23 29
334 489 249 83 25 35
395 399 218 104 89 73
360 664 273 160 16 50
336 484 253 92 24 37
355 794 173 56 46 42
438 421 264 76 67 59
329 494 245 72 24 31
334 494 249 66 22 31
365 620 157 183 20 48
433 602 222 180 38 65
325 499 245 65 19 29
250 794 209 169 114 81
327 500 246 33 26 27
260 599 138 159 10 42
265 464 257 136 98 80
325 504 247 79 13 30
356 729 169 58 40 38
321 506 246 113 3 32
335 549 68 84 29 37
325 509 248 109 0 33
390 449 193 98 81 64
330 499 247 46 23 27
396 684 153 92 68 50
293 954 258 80 75 77
330 504 249 73 19 30
336 499 252 117 12 39
333 503 250 37 24 26
335 504 252 102 10 33
332 506 251 59 17 24
370 634 268 78 24 36
338 480 255 63 24 28
384 564 113 120 32 45
365 649 179 89 31 38
338 489 255 111 14 38
320 958 239 90 86 90
336 494 252 60 24 31
388 708 139 96 69 51
465 914 212 91 77 63
338 494 254 81 18 34
449 854 213 51 44 42
338 499 254 93 14 36
302 530 246 35 27 28
396 723 167 68 48 42
281 515 244 69 26 31
370 454 193 91 76 60
360 578 103 143 30 48
375 459 194 94 78 60
359 854 184 83 72 67
380 454 192 94 79 62
310 851 232 163 109 83
385 454 192 96 80 63
387 258 236 101 83 63
505 474 132 90 30 38
240 724 254 155 107 80
275 739 187 85 27 38
340 535 56 145 25 48
387 264 236 101 83 64
393 472 305 138 20 47
390 269 238 105 85 63
430 833 273 68 52 42
474 446 148 107 23 31
400 446 148 92 60 51
360 590 117 108 31 45
490 934 213 95 82 68
396 259 242 103 82 57
398 259 245 110 86 57
399 259 248 116 91 59
336 612 276 34 28 30
405 415 298 78 38 39
320 795 275 174 125 106
398 262 245 108 85 58
399 264 253 120 92 58
412 417 242 80 69 59
397 265 246 109 86 58
250 689 215 133 99 66
444 544 257 168 13 52
485 459 118 171 5 35
397 269 247 112 87 57
340 384 278 145 104 82
446 769 278 169 115 78
387 274 236 102 83 61
387 596 156 197 12 41
386 279 236 104 84 62
390 274 238 107 87 64
389 279 239 107 86 63
388 289 239 105 86 65
390 719 292 141 17 45
495 444 183 93 24 33
380 304 278 141 102 70
392 279 241 109 87 62
391 284 242 111 88 63
339 874 303 132 100 73
250 719 260 159 111 84
391 289 243 109 88 64
392 274 241 107 85 62
394 274 243 106 84 57
394 279 244 109 86 59
395 279 248 111 86 56
301 968 278 88 84 86
398 272 250 116 90 56
475 440 188 91 21 33
394 634 264 119 48 50
332 636 161 148 16 39
398 272 253 118 89 56
510 453 158 108 29 29
394 284 248 110 86 57
392 289 246 112 89 61
393 289 248 111 87 58
388 294 240 100 84 65
331 894 320 159 120 96
462 459 248 96 20 32
437 785 252 130 86 62
390 299 243 106 87 66
391 304 243 109 89 67
238 747 255 155 112 81
348 441 280 103 10 29
392 294 247 113 91 65
392 299 247 113 90 65
411 484 299 107 33 45
425 434 218 98 47 36
365 719 303 163 16 53
393 299 253 112 89 60
390 440 200 100 83 65
283 928 262 56 53 54
393 303 249 120 96 68
347 748 291 73 61 55
305 740 280 77 63 55
306 855 278 102 81 61
386 474 297 88 19 34
320 884 195 87 75 72
393 304 253 119 93 62
388 309 240 100 82 63
392 309 248 123 96 66
390 319 243 116 92 66
448 487 281 175 120 95
358 967 286 71 63 60
311 534 74 131 11 38
391 319 248 123 95 65
391 314 253 120 93 64
391 319 253 115 90 61
386 324 237 97 81 65
386 329 237 95 81 66
249 529 208 148 7 45
388 329 239 100 83 65
389 334 239 101 84 66
466 893 223 85 71 57
450 579 218 166 18 53
390 329 243 114 91 65
421 509 291 155 113 93
391 329 248 118 94 66
386 404 284 107 86 64
391 324 253 114 90 61
492 530 188 209 17 54
400 466 190 98 82 64
478 542 221 141 35 52
391 329 253 115 91 64
392 334 248 116 93 67
392 334 253 116 93 65
386 344 232 95 84 73
405 416 288 88 45 45
355 469 283 98 26 40
415 694 292 169 120 89
387 338 236 94 81 68
388 340 235 92 80 68
402 881 315 58 46 45
390 339 238 100 84 67
389 344 234 93 81 70
391 344 238 102 85 67
387 348 231 94 83 73
254 544 213 158 0 46
229 754 248 157 109 80
390 349 233 94 82 70
275 759 269 59 49 43
393 350 239 112 91 69
374 534 283 45 25 29
391 339 243 114 92 67
352 660 176 129 10 33
392 344 243 113 92 68
452 485 275 182 121 101
392 342 246 116 93 67
321 944 331 55 51 51
393 341 249 118 95 67
480 528 159 174 17 42
393 344 253 120 95 67
237 696 233 143 101 68
435 690 234 95 73 55
268 589 153 111 11 37
392 347 241 113 91 68
329 349 258 102 74 53
428 707 225 60 40 39
250 704 215 129 97 62
393 349 243 114 92 68
268 574 162 116 15 36
246 813 224 187 128 96
342 750 181 94 23 31
387 382 216 101 88 74
304 565 92 182 9 44
389 379 219 101 88 74
391 378 222 100 87 74
390 384 217 101 88 74
394 379 224 99 86 72
325 754 178 132 22 41
496 460 121 85 25 31
394 385 220 100 87 74
449 484 282 176 121 97
386 359 226 95 85 74
453 431 258 67 43 39
391 354 233 95 82 69
330 519 254 111 0 32
431 858 208 72 61 53
392 359 232 98 84 70
470 543 169 66 30 36
387 364 226 94 83 73
390 364 228 94 82 71
410 813 144 114 89 65
388 364 225 93 83 72
252 519 248 147 114 91
393 355 235 103 86 69
393 354 238 110 90 69
394 359 238 109 90 68
393 364 234 102 85 68
393 370 229 95 82 68
335 674 173 133 2 32
295 899 323 169 126 109
455 434 268 89 69 61
332 334 263 103 75 51
395 364 238 109 89 68
270 554 128 114 11 41
396 369 238 108 88 66
265 719 208 106 18 35
388 810 290 46 39 38
394 354 243 116 93 68
395 359 243 114 92 67
396 359 248 118 94 66
399 264 258 124 93 60
499 451 129 145 21 28
395 354 253 122 96 65
504 436 219 87 30 33
461 476 126 101 33 41
397 364 248 117 93 66
347 454 277 90 20 37
398 369 248 118 94 66
272 554 143 90 23 37
397 364 253 124 97 66
398 366 250 119 95 67
430 629 263 167 120 88
398 366 252 121 95 65
409 819 213 58 47 42
398 369 253 123 97 66
332 326 270 110 77 55
397 367 255 125 99 68
374 883 294 32 30 30
389 371 225 96 84 72
295 709 280 153 8 48
298 636 161 199 13 52
250 799 270 168 126 96
310 830 212 82 62 52
466 550 233 77 31 41
392 368 231 95 82 68
393 375 225 96 84 72
395 374 228 96 82 68
397 374 233 100 84 66
431 820 273 139 88 66
474 543 227 113 31 45
397 373 237 106 87 66
345 379 283 142 102 81
310 524 247 103 20 38
397 378 259 127 98 67
398 374 238 109 88 65
397 377 231 100 83 63
403 729 290 151 104 86
398 379 233 101 84 64
450 428 228 85 22 32
425 494 118 179 12 41
398 385 228 94 80 65
399 374 243 114 92 66
406 813 296 168 121 96
399 374 248 119 94 65
400 379 243 112 90 65
313 530 71 146 11 38
400 379 248 118 93 63
243 664 238 128 90 60
399 379 253 123 97 65
401 384 243 110 89 64
401 384 248 116 92 63
400 384 253 122 96 65
355 564 273 114 8 35
396 429 308 139 14 43
441 450 102 188 23 40
497 447 176 90 27 36
444 449 103 190 27 45
232 818 253 207 145 117
405 699 192 54 42 39
237 700 228 141 100 69
446 449 108 191 25 46
435 744 288 159 108 74
244 664 248 155 108 82
383 670 190 88 28 29
247 612 225 140 104 73
447 449 111 196 23 41
390 479 28 96 77 55
430 465 287 56 32 31
361 950 308 64 58 55
394 481 29 96 76 53
390 473 43 100 80 57
228 804 248 181 128 98
391 472 47 100 81 58
445 854 253 80 66 52
389 493 25 199 23 48
396 477 37 98 78 54
340 349 282 142 99 80
295 604 257 61 28 34
400 475 43 99 80 57
238 788 265 160 117 86
398 476 40 99 79 54
390 466 59 100 81 58
415 844 302 65 51 39
390 465 63 99 80 58
395 468 58 100 80 57
340 949 233 85 81 86
270 555 111 93 25 39
394 466 60 99 80 57
396 467 61 99 79 55
404 476 44 100 78 55
321 849 223 82 61 54
378 597 144 203 15 48
410 474 48 109 66 37
409 479 43 159 43 44
383 715 296 43 26 31
257 574 184 42 29 33
325 969 303 61 57 55
408 476 45 108 72 37
460 442 173 105 18 25
411 479 48 170 24 41
395 594 274 55 29 32
357 871 196 68 64 65
428 588 253 131 46 54
405 471 55 99 77 55
405 472 52 101 79 56
407 409 248 93 78 61
397 850 216 63 54 48
410 467 61 95 69 43
315 949 329 50 46 46
410 465 64 93 67 43
439 504 134 49 34 39
320 924 327 160 124 101
362 566 91 220 20 50
410 469 58 97 71 42
415 465 59 86 44 38
410 473 53 105 64 43
413 476 50 135 35 37
413 476 53 154 25 42
405 684 192 82 55 41
413 478 50 176 16 47
413 479 53 182 13 47
411 473 56 103 65 42
416 474 63 174 16 45
437 435 285 137 14 45
405 445 153 92 59 50
435 441 174 93 33 43
300 597 119 159 32 51
280 836 227 94 70 61
338 469 258 78 21 35
414 479 63 173 14 45
389 481 25 94 74 55
390 484 22 91 57 41
253 667 256 171 122 97
355 540 61 185 25 50
390 489 23 135 33 44
259 534 223 160 0 45
390 495 27 212 22 48
394 485 24 81 52 39
415 524 285 81 29 37
388 314 271 138 105 76
389 690 174 74 53 45
394 488 24 68 39 37
301 728 175 111 31 43
399 694 188 60 46 40
330 824 278 144 117 92
392 482 26 93 71 50
399 484 28 126 54 41
276 813 205 69 59 56
255 679 216 128 92 60
401 483 32 113 58 41
375 889 223 77 66 64
407 480 305 70 26 35
396 490 27 69 37 40
505 444 233 91 23 35
395 494 29 183 24 50
390 499 33 213 22 49
400 494 38 156 22 46
390 504 38 213 21 51
386 510 47 212 22 52
425 824 248 54 43 39
389 507 44 213 21 51
382 344 275 139 107 73
284 816 206 90 69 63
397 496 36 208 20 51
505 469 238 64 29 33
394 503 43 198 19 51
402 428 216 100 84 68
395 504 48 197 19 49
470 894 222 79 64 50
399 498 43 99 34 43
384 409 287 90 74 57
401 495 42 64 34 37
460 914 209 94 81 67
400 499 48 168 19 47
397 501 46 171 24 54
395 854 288 31 29 28
396 505 53 120 22 42
401 499 53 97 27 40
345 579 274 119 10 37
370 709 302 54 27 31
398 503 53 154 28 50
385 774 293 62 54 50
393 507 49 205 20 52
394 508 53 199 20 51
397 506 57 66 26 35
397 506 62 117 34 47
250 809 269 179 135 108
406 484 37 73 41 38
404 489 38 85 34 40
407 486 42 78 19 34
325 719 171 102 29 36
399 420 214 101 85 68
406 489 43 106 26 41
399 634 273 152 106 91
402 491 37 164 27 49
250 754 213 126 93 61
403 492 40 115 49 52
315 964 318 72 67 66
256 559 256 152 110 86
440 724 238 81 60 46
408 481 40 160 44 45
238 785 216 171 117 82
409 484 43 175 18 48
418 721 190 71 52 40
408 488 48 190 14 48
407 491 58 164 13 43
412 481 52 188 14 47
411 484 58 178 13 46
395 404 218 102 87 72
409 489 58 188 14 49
252 539 252 163 117 96
365 419 292 141 17 44
340 601 122 211 16 49
409 489 63 183 14 48
299 574 254 36 25 28
413 482 57 179 14 44
380 324 277 144 106 76
408 492 64 160 17 44
401 500 58 105 28 42
325 629 270 64 27 32
418 468 60 183 20 38
228 748 244 160 109 81
390 462 73 95 74 53
305 824 208 88 68 58
268 738 265 145 15 47
390 461 75 95 74 52
369 583 114 191 25 52
406 724 291 158 114 91
420 449 123 119 36 40
390 460 78 93 72 51
375 949 268 54 49 47
252 529 169 145 11 37
436 589 278 157 108 77
394 639 263 119 53 54
395 464 68 96 75 53
228 799 253 175 125 95
395 462 73 95 72 51
395 461 75 94 71 51
287 549 241 31 25 27
427 729 217 54 45 44
395 460 78 93 69 50
257 595 142 142 12 44
390 459 83 91 69 50
390 458 88 89 67 48
390 457 92 88 67 47
376 469 291 76 19 31
261 554 122 102 12 35
390 456 94 87 66 47
395 456 93 87 58 46
500 444 234 97 21 36
395 457 88 89 62 48
239 729 254 156 107 82
400 457 88 88 55 48
398 457 91 87 55 47
405 462 73 93 67 50
282 871 283 158 123 94
441 855 254 77 60 48
405 461 75 93 65 50
269 539 118 101 21 34
405 460 78 91 62 50
245 644 243 158 109 82
465 529 157 202 16 43
408 778 195 62 48 43
292 966 292 75 70 71
410 464 68 93 66 46
423 482 105 169 12 43
409 462 72 92 65 49
434 809 263 127 83 61
415 459 73 88 51 46
265 634 183 79 32 40
425 455 88 94 32 37
411 461 74 91 61 49
408 411 238 87 73 59
345 814 277 186 138 113
410 460 78 89 56 49
510 479 138 80 32 36
405 458 83 89 55 48
405 457 87 88 50 46
415 455 93 95 37 38
354 892 205 59 55 55
359 839 276 143 112 90
410 458 83 88 48 46
469 534 243 54 26 32
415 457 83 94 41 43
405 466 65 95 72 50
334 719 289 118 18 42
425 629 291 182 125 95
415 479 73 162 16 44
470 446 138 124 22 33
416 479 78 134 15 39
390 455 98 86 64 46
390 454 103 86 62 44
333 318 273 117 83 59
390 451 113 84 54 41
258 544 228 112 31 37
455 468 120 124 25 40
397 895 273 72 59 56
395 453 103 85 53 42
400 453 103 88 46 40
395 451 114 85 50 38
359 894 305 91 70 58
395 452 108 84 51 39
301 856 289 91 74 56
252 667 256 172 123 98
306 549 251 125 9 38
400 452 108 86 48 38
388 552 104 135 16 44
390 449 123 85 47 39
390 448 128 85 47 40
375 707 148 83 54 40
299 742 281 68 57 53
351 449 282 114 24 43
395 450 118 85 47 38
400 450 118 87 45 38
286 843 238 65 55 55
283 882 303 114 42 52
395 449 123 85 42 37
395 448 128 85 41 38
270 589 129 70 29 33
400 449 123 86 41 37
400 448 128 86 41 39
445 438 188 97 21 33
405 454 98 90 42 41
250 664 217 135 93 63
380 559 297 179 13 56
335 744 284 69 57 49
410 453 103 95 42 38
311 912 210 83 72 70
415 454 98 94 40 38
415 453 103 94 42 37
440 454 283 70 32 33
410 452 108 95 42 37
405 450 118 90 46 38
238 784 265 162 120 89
435 423 253 73 64 56
405 449 123 88 43 39
291 704 180 121 13 35
405 448 128 88 43 42
418 553 154 70 33 39
510 448 183 102 22 33
410 450 118 98 44 38
436 551 166 31 33 43
388 588 281 87 25 37
415 450 118 105 41 38
410 449 123 95 44 42
415 449 123 108 41 40
255 749 262 171 122 96
506 504 223 116 23 41
375 833 272 81 65 57
396 510 73 69 32 37
367 923 231 62 55 58
430 419 263 73 64 56
400 504 68 123 28 45
338 459 259 141 8 43
398 507 68 168 20 47
511 500 162 195 16 46
398 507 73 101 33 42
390 863 274 33 31 30
504 504 228 149 17 48
396 510 78 55 34 36
401 504 78 109 32 46
401 504 83 162 22 48
392 855 293 34 31 31
347 285 277 109 88 65
406 494 68 150 24 45
397 856 228 63 51 47
285 514 101 57 31 34
406 494 73 118 26 43
406 494 78 108 27 42
411 484 68 169 15 42
265 544 107 77 31 35
475 525 157 205 18 46
411 484 73 152 18 42
350 517 40 171 14 47
466 511 146 55 40 36
409 489 68 182 17 47
409 489 73 141 22 44
387 352 270 135 103 71
412 481 65 167 14 45
412 480 68 165 15 46
427 586 181 179 16 43
445 869 198 71 55 45
257 554 218 150 3 43
412 481 73 156 18 40
285 934 313 189 145 124
408 492 68 176 15 46
242 679 228 142 99 69
360 734 164 61 47 41
408 492 74 90 31 49
408 492 78 55 29 35
325 849 293 152 125 99
382 259 280 134 101 66
407 495 86 50 32 40
319 864 228 46 39 41
350 929 334 64 60 59
290 943 243 79 73 75
417 479 83 162 14 43
415 484 83 139 19 43
315 855 298 116 96 76
375 494 289 123 12 37
436 500 131 126 27 35
416 484 88 184 14 46
300 644 258 149 12 46
414 488 88 185 15 48
385 585 133 129 26 44
367 851 265 40 30 27
343 476 265 151 7 46
409 494 88 91 30 40
311 885 327 133 104 75
410 494 93 106 27 42
402 501 73 76 29 36
295 799 195 90 69 60
410 464 197 98 83 65
449 583 208 210 16 57
406 404 243 102 84 64
404 499 73 94 31 41
372 314 280 140 100 68
404 503 88 40 32 37
408 497 89 41 32 36
435 459 98 100 28 39
285 749 277 67 53 51
417 636 251 124 92 63
414 493 98 76 30 41
340 534 268 42 26 30
406 505 97 52 34 37
311 830 272 152 116 92
226 769 243 164 113 83
410 441 208 101 85 68
405 509 98 59 35 38
360 629 163 123 26 43
416 424 318 77 27 35
460 438 253 74 35 34
230 784 258 164 117 87
412 500 102 150 24 46
414 498 104 121 24 42
408 504 99 55 34 38
416 499 108 150 17 40
393 294 258 122 90 62
412 505 106 124 32 46
507 471 131 160 13 46
480 474 127 79 30 40
408 507 100 53 36 43
415 416 283 62 43 40
409 509 104 83 34 41
290 957 260 82 78 79
277 724 276 142 21 47
333 329 268 104 75 51
413 508 109 80 35 37
415 820 294 163 106 81
414 509 113 64 33 37
411 871 253 86 67 64
325 789 279 168 128 110
416 509 118 119 24 43
282 939 259 58 54 55
420 455 78 101 33 45
425 454 78 110 33 37
460 519 255 158 2 49
345 602 124 222 14 48
376 860 216 56 48 48
291 544 94 66 32 36
424 459 73 71 41 39
431 699 227 74 58 48
421 464 68 104 25 36
436 864 198 76 62 57
422 465 73 39 33 36
417 456 77 95 42 43
250 594 228 128 99 67
281 643 179 134 25 45
428 454 80 105 38 44
342 722 296 32 28 31
292 529 90 133 3 31
287 842 246 45 33 41
424 464 78 135 18 43
279 634 241 32 25 26
244 634 238 157 111 80
420 455 83 103 32 42
438 812 253 71 57 51
420 456 88 96 33 38
395 454 308 96 19 36
488 493 246 153 12 49
395 754 293 77 60 50
383 719 296 136 23 49
420 455 93 91 34 35
425 455 93 87 33 34
419 457 84 100 34 41
365 354 285 129 99 64
431 450 88 80 38 41
430 454 83 72 39 40
430 454 93 87 34 37
381 545 87 107 31 44
337 306 276 115 86 60
428 458 83 71 39 46
426 457 91 87 32 37
428 462 89 56 33 37
429 463 93 50 36 38
419 469 68 154 18 46
422 469 78 187 14 49
488 508 241 150 19 49
423 468 80 182 15 47
240 764 213 148 106 72
418 473 69 181 15 47
417 475 73 167 16 46
394 384 268 123 97 65
403 633 209 125 25 41
419 474 78 172 13 46
541 470 199 168 19 52
417 476 76 167 13 49
403 739 170 59 47 40
423 468 83 157 19 47
385 489 302 105 19 38
422 470 88 104 22 39
430 440 178 94 56 49
425 469 93 62 37 38
422 471 92 75 34 38
442 714 258 99 71 51
247 580 234 135 103 70
435 714 242 90 64 48
420 474 88 170 12 44
419 598 179 46 33 36
267 642 193 166 12 46
384 869 283 32 30 30
421 474 93 151 13 45
423 473 94 93 30 42
351 665 176 83 23 31
267 529 112 108 14 36
434 453 88 74 37 42
281 669 189 80 27 36
435 454 93 75 33 42
435 564 283 165 114 84
301 962 250 80 76 79
364 818 172 95 74 59
346 274 258 114 91 65
273 594 251 147 97 79
438 450 95 140 26 46
433 457 94 83 36 43
263 542 260 154 111 88
284 751 275 76 62 58
420 453 103 93 38 32
505 509 218 148 27 52
330 724 172 138 10 37
430 604 203 203 16 52
425 453 103 98 33 29
256 639 215 134 101 69
420 452 107 100 37 32
379 937 298 59 51 49
424 451 109 108 30 30
425 451 113 115 28 31
430 455 98 100 31 34
430 454 103 108 28 32
428 451 110 114 26 31
312 851 291 106 87 66
290 939 238 77 71 72
430 453 108 114 25 32
439 539 273 170 115 87
431 452 112 125 22 33
420 450 118 113 34 35
425 450 118 125 25 33
420 448 128 111 40 44
425 448 128 120 32 43
430 450 118 125 21 36
430 449 123 133 20 39
355 619 273 116 27 44
411 824 218 56 46 44
228 799 248 177 124 95
440 559 172 82 32 40
272 550 144 51 25 31
412 619 287 171 124 99
430 449 128 123 22 41
340 779 283 69 58 53
424 474 98 95 28 39
421 479 98 180 12 45
304 906 325 177 121 107
450 474 283 159 110 84
423 477 100 173 13 55
400 399 263 115 92 66
427 466 96 53 31 39
275 504 259 158 111 85
431 465 102 178 9 48
431 470 106 178 10 41
427 476 106 161 6 42
430 474 108 173 8 40
250 709 215 129 95 62
440 449 278 56 18 25
429 478 109 170 8 40
431 479 112 174 9 41
436 450 97 128 27 37
319 864 242 122 88 66
435 455 98 123 29 41
435 455 103 121 28 35
257 563 179 154 1 40
439 453 99 150 18 41
440 454 103 163 18 40
384 548 94 110 31 44
365 629 270 128 24 46
440 455 108 167 23 38
440 454 113 169 26 40
351 907 310 59 47 38
433 462 100 117 24 40
309 961 246 76 71 75
369 690 291 116 4 34
436 459 102 104 30 41
438 457 100 129 20 33
439 458 104 123 19 40
438 462 105 171 26 55
439 463 109 171 9 38
268 629 211 52 30 31
444 454 104 175 12 40
445 454 108 178 14 40
445 454 113 182 18 38
443 462 110 168 8 34
446 460 112 173 9 40
517 444 230 87 23 36
434 451 115 138 20 32
493 517 160 197 18 47
435 451 118 141 20 36
440 452 118 169 21 36
311 957 240 81 77 79
330 899 322 158 115 93
350 971 273 61 56 57
243 688 250 151 106 79
288 682 260 108 2 32
435 450 123 133 18 39
435 449 128 115 16 39
440 451 123 134 16 38
440 449 128 119 12 38
443 451 120 176 18 33
260 589 183 63 33 37
510 438 218 84 34 30
445 451 124 150 13 33
435 469 108 172 10 40
255 629 218 128 98 68
438 467 110 171 8 36
404 649 279 159 117 98
440 469 113 173 10 38
349 780 285 65 57 54
439 473 114 174 10 42
440 474 117 175 12 41
439 479 119 178 12 41
443 467 115 174 11 39
446 466 116 177 13 40
503 507 226 185 15 55
249 554 243 146 109 83
445 474 119 176 12 39
429 841 229 48 40 41
444 477 120 176 12 41
446 475 121 176 13 43
417 481 87 179 13 47
392 309 258 119 91 62
419 489 104 118 27 41
425 484 108 171 10 43
300 709 279 151 4 47
417 490 102 92 31 41
417 495 107 51 32 38
250 832 238 237 162 135
419 494 108 72 32 39
426 485 112 175 10 40
287 924 316 180 140 123
428 488 115 181 12 43
430 494 123 183 14 43
420 499 113 174 13 42
403 882 282 66 53 45
407 640 238 150 20 46
417 501 111 171 14 42
510 494 228 84 26 39
418 503 114 158 14 41
420 504 118 176 13 41
482 536 172 68 35 40
426 499 123 181 13 43
422 505 122 183 14 41
424 504 124 183 14 41
247 614 252 152 111 82
340 830 281 155 126 95
266 474 261 141 97 79
273 818 266 36 32 36
417 506 116 123 23 27
420 509 123 181 13 41
375 334 279 145 106 74
423 508 125 184 14 41
425 509 128 187 14 43
350 970 288 69 66 68
422 510 126 180 13 40
375 939 313 57 51 47
284 879 303 154 129 123
463 467 271 182 128 111
269 754 192 144 95 69
427 501 126 184 13 43
267 639 198 153 3 43
426 504 127 187 14 43
343 292 256 102 81 58
429 498 124 184 14 43
532 457 182 96 30 29
282 874 293 170 132 107
433 488 120 185 15 44
320 738 175 151 5 38
435 489 123 177 15 42
439 488 125 160 19 39
334 848 197 54 47 48
434 493 124 164 15 42
436 495 127 168 15 42
298 534 86 60 22 30
440 494 128 143 25 45
366 591 122 195 17 49
445 489 127 93 27 40
288 699 181 67 34 38
446 485 126 170 13 40
448 446 105 194 35 52
335 614 274 34 29 30
448 448 105 188 21 48
265 674 214 105 70 58
450 446 112 203 27 41
450 449 113 198 23 39
460 444 118 205 28 35
465 443 118 200 33 39
465 445 114 198 30 39
465 449 113 167 5 35
315 857 303 111 91 69
461 445 122 193 23 34
465 443 123 178 18 34
451 580 213 164 20 52
405 754 188 58 46 42
465 444 128 158 15 33
253 584 255 149 109 81
462 446 126 178 13 31
449 583 213 208 16 57
359 309 286 146 100 73
460 450 128 151 18 31
470 449 114 169 8 34
470 443 123 167 12 32
470 443 128 158 13 34
475 446 118 169 19 36
328 835 211 52 46 47
480 448 118 166 14 34
475 444 123 162 11 33
377 880 299 37 33 34
475 444 128 157 15 34
480 446 123 156 17 34
355 814 177 61 51 47
435 704 233 73 60 49
480 445 128 150 20 33
389 695 168 78 58 44
481 447 122 156 18 34
485 448 123 156 21 32
268 724 264 149 15 46
486 447 127 150 24 32
490 448 128 155 24 31
399 624 269 130 74 66
290 659 179 173 4 41
450 453 109 188 10 37
373 719 301 45 29 31
450 454 112 185 10 36
470 440 183 93 23 32
252 624 220 133 98 68
453 452 110 196 11 35
342 300 281 109 86 61
455 454 112 188 8 33
420 849 298 59 49 41
387 389 280 123 96 63
279 939 288 175 135 115
448 457 110 178 8 41
450 459 113 176 9 36
320 894 328 169 125 101
452 450 117 192 19 35
309 688 275 64 27 33
397 699 181 53 43 36
282 514 101 56 31 43
448 451 125 154 11 32
419 784 209 66 50 43
418 793 210 74 57 48
451 452 126 150 13 32
377 809 186 73 54 49
360 850 179 98 79 66
454 452 120 183 14 32
454 452 123 170 15 31
465 489 134 99 25 39
455 452 127 148 17 32
391 404 212 102 87 70
450 464 117 168 14 39
289 679 182 75 27 33
283 502 256 163 114 97
452 461 116 171 15 37
500 489 139 49 36 40
456 460 116 149 18 34
426 594 253 123 62 56
280 714 188 89 26 34
455 464 118 145 23 38
459 457 115 171 10 37
460 459 117 147 16 35
383 883 225 78 66 61
465 483 130 89 35 42
460 464 119 99 28 35
465 459 117 174 9 33
300 584 258 127 11 39
465 463 119 119 23 41
468 463 267 158 110 94
452 471 121 112 30 32
450 479 124 176 12 42
455 474 123 114 29 41
454 478 125 162 16 44
265 609 183 74 30 36
315 855 237 136 90 69
250 674 255 161 112 87
294 846 244 181 129 97
455 480 126 174 14 41
458 467 120 98 29 36
502 466 126 65 41 40
461 466 121 72 34 39
387 339 270 142 107 77
495 459 238 78 26 34
438 791 296 176 118 91
280 599 244 71 19 28
465 466 121 83 33 41
458 477 125 156 18 45
391 874 228 62 55 54
465 473 125 112 32 44
465 479 128 91 34 40
334 804 192 57 47 46
391 319 258 117 92 61
436 864 203 93 96 109
470 454 115 152 3 33
365 309 283 143 98 70
470 459 117 150 12 36
470 463 119 158 16 43
234 719 223 140 101 71
475 454 115 124 15 35
475 456 116 49 31 38
390 309 268 131 98 68
480 453 115 181 11 36
475 459 117 42 36 40
390 764 168 84 63 52
475 463 120 56 38 38
404 539 293 169 17 55
470 466 121 123 14 39
469 473 125 98 31 42
265 560 127 120 2 37
470 479 129 92 31 39
320 972 293 63 59 60
475 469 123 75 33 38
480 469 124 113 23 37
475 472 125 52 34 35
415 844 278 36 31 30
475 474 127 47 35 39
325 796 275 180 131 113
480 472 125 122 28 38
452 481 126 177 11 42
450 489 129 78 28 39
485 450 118 172 16 34
282 777 271 59 50 45
255 759 264 169 124 93
483 453 115 197 20 48
490 454 118 177 13 41
495 454 119 173 14 35
494 451 123 154 21 30
422 436 200 100 83 66
490 459 119 159 6 36
402 536 116 171 13 41
342 484 262 55 25 30
489 462 120 174 2 41
463 567 203 81 34 41
490 464 122 124 18 37
436 804 268 160 106 79
486 471 126 73 32 33
415 644 249 111 79 53
320 679 272 85 23 34
483 472 125 78 17 22
355 679 179 67 32 34
490 470 126 94 32 38
500 454 123 171 17 33
263 724 211 75 29 32
325 759 279 66 55 49
498 456 120 187 14 24
501 452 128 148 19 27
511 510 193 217 17 58
469 704 245 107 80 53
498 458 120 165 12 36
505 459 124 146 13 36
507 458 126 169 16 37
510 459 128 173 12 36
448 905 224 88 76 64
510 464 128 162 6 42
505 469 129 71 30 35
390 447 133 86 49 42
279 924 303 125 109 99
390 446 138 90 59 49
239 819 232 203 138 109
390 446 143 93 67 54
285 599 122 117 36 46
395 447 133 86 43 40
255 699 215 131 96 64
379 797 180 75 61 54
400 447 133 87 43 42
394 446 139 90 53 47
266 565 132 126 5 40
395 447 137 88 48 44
400 446 143 90 52 47
410 419 313 60 31 30
283 869 298 177 136 111
390 446 153 99 80 62
395 446 153 97 76 60
360 944 237 77 69 71
420 649 288 187 135 108
395 446 158 99 80 62
350 613 139 113 34 45
269 709 203 82 29 36
412 576 281 146 101 86
300 564 93 171 7 40
400 418 303 60 35 32
417 840 209 45 33 32
404 447 141 88 46 44
257 537 165 45 34 33
315 769 278 67 58 53
410 447 133 89 45 45
415 448 133 90 45 45
410 446 140 88 45 45
415 447 138 89 45 45
248 734 260 163 115 88
405 445 158 95 69 55
346 284 273 112 90 66
414 877 277 74 59 54
410 445 153 90 51 45
396 789 296 167 129 100
415 446 148 88 45 43
421 609 248 123 42 47
415 444 158 91 52 46
355 349 286 140 98 71
370 589 123 189 23 49
383 304 276 140 102 71
390 447 163 100 82 64
418 442 176 100 81 64
390 449 168 99 82 64
395 446 163 99 82 64
394 447 164 100 82 64
397 446 166 99 82 64
365 759 293 75 63 58
399 447 169 99 82 63
405 445 163 98 77 61
388 649 194 73 29 35
439 458 284 64 29 29
456 924 203 131 113 96
405 445 168 99 81 63
444 425 273 77 66 56
264 593 149 125 1 40
385 669 267 58 21 28
401 446 173 99 82 64
392 766 171 69 53 46
372 616 161 42 35 36
400 639 208 105 31 44
405 445 173 100 83 64
415 444 163 94 63 52
480 439 232 93 7 28
421 417 253 74 65 55
415 443 173 100 81 63
402 446 178 99 83 65
402 446 184 99 82 64
405 443 188 100 83 65
264 639 212 103 54 46
404 442 192 100 83 65
407 441 189 100 83 65
330 684 278 66 24 33
485 438 198 85 28 37
415 439 193 100 84 66
385 749 165 75 56 44
400 549 123 176 14 41
415 442 178 100 83 65
272 514 116 130 0 39
424 454 293 135 90 82
355 589 113 120 35 47
415 441 183 100 83 65
411 441 189 100 83 65
396 644 203 52 32 36
428 602 194 100 22 35
414 424 313 99 23 38
498 522 203 213 17 60
410 440 193 100 84 65
267 634 201 148 12 38
415 440 188 100 83 66
420 448 133 96 39 44
425 448 133 102 29 42
339 419 268 149 10 46
420 447 138 91 40 44
447 900 215 85 71 57
420 446 143 89 39 43
365 304 284 149 103 74
430 448 133 104 22 42
532 470 215 105 16 42
424 446 140 90 32 43
335 940 227 80 76 79
354 274 280 120 96 68
475 510 146 57 33 37
430 447 138 91 25 43
370 514 293 94 27 39
430 446 143 86 24 43
391 809 292 50 41 39
430 447 141 87 23 43
361 606 137 116 32 48
425 445 153 87 32 43
430 444 158 88 26 44
435 447 141 88 17 42
343 454 270 150 11 46
346 874 294 138 110 83
474 542 170 142 38 52
440 447 138 93 16 40
440 446 144 89 22 41
245 804 270 168 126 98
445 448 138 93 15 42
248 530 176 42 32 34
240 684 233 140 98 67
445 447 142 91 20 40
435 446 148 87 21 43
395 664 268 103 67 60
395 614 172 58 35 39
435 445 153 87 22 43
333 334 275 127 87 66
392 586 147 201 15 45
462 566 191 58 30 34
440 446 148 88 20 42
440 444 158 91 22 41
459 435 244 70 18 28
445 446 144 90 21 40
365 839 168 94 76 63
445 445 153 92 21 41
505 459 237 73 27 33
392 389 274 122 96 66
445 444 158 93 21 40
276 774 190 143 105 70
420 444 163 92 53 48
406 664 233 58 31 35
425 443 163 90 40 45
425 443 168 93 52 47
305 791 191 87 67 57
420 442 173 99 77 61
425 442 172 95 61 51
430 442 168 92 38 42
297 645 256 148 13 47
430 442 172 94 45 44
420 439 188 100 82 65
245 769 264 154 116 84
420 440 183 99 81 64
425 441 178 98 74 59
430 438 188 98 69 57
435 443 163 91 24 41
320 774 278 68 58 53
435 442 168 92 26 42
465 485 132 108 34 45
440 702 229 57 45 33
440 443 163 92 22 41
440 442 168 93 20 41
265 809 269 172 131 100
435 442 172 93 29 43
440 441 174 95 21 41
380 878 293 32 28 31
445 442 168 96 16 41
445 442 172 97 15 40
445 441 174 97 16 39
262 682 255 154 112 83
435 439 183 95 48 45
440 439 183 96 28 39
300 874 262 108 79 50
439 839 282 65 53 40
380 629 267 180 8 56
237 827 244 233 158 127
435 438 188 97 53 47
419 688 199 79 50 40
365 334 282 136 96 67
435 437 193 96 60 50
297 570 251 36 26 27
312 972 269 91 86 88
440 438 188 97 36 37
342 525 261 74 19 33
435 440 178 94 40 43
440 440 178 95 23 41
370 705 158 67 48 44
229 809 253 189 134 108
427 653 266 145 100 72
445 437 192 95 27 32
307 874 254 156 120 95
445 440 178 98 17 37
386 388 212 101 88 74
359 904 304 95 71 62
387 392 211 100 87 74
274 684 197 94 30 41
388 396 210 100 86 71
388 399 210 100 86 72
396 389 222 106 90 73
392 394 216 104 88 72
394 394 218 105 89 73
392 398 216 102 87 72
285 724 182 116 17 32
397 393 221 110 94 79
420 437 198 100 84 66
400 394 223 126 105 83
428 862 282 81 60 46
397 397 221 107 92 77
292 915 244 66 58 55
390 409 209 98 84 69
382 565 112 90 33 40
371 845 197 61 55 55
386 414 206 98 83 68
268 562 130 101 17 37
390 414 208 98 83 68
424 603 189 187 20 48
299 549 87 78 28 35
326 904 325 158 112 91
394 409 214 101 85 70
396 409 217 101 86 71
359 948 239 79 72 74
398 405 220 106 89 72
399 409 219 104 88 71
401 409 222 110 93 76
342 324 286 137 95 76
393 414 210 100 85 68
397 412 217 101 86 70
393 538 99 115 26 41
430 709 287 161 105 74
459 444 243 77 10 27
399 414 218 103 87 70
347 306 286 121 88 64
370 644 269 159 13 50
390 654 198 115 20 36
308 879 252 130 103 80
404 404 224 137 113 91
450 880 208 78 60 45
401 414 222 107 89 71
415 649 250 112 79 54
405 414 224 120 101 82
471 922 207 119 96 71
250 544 248 160 117 95
408 769 195 66 49 44
246 614 228 145 107 74
398 386 225 103 87 71
370 294 283 135 100 66
400 389 238 106 87 65
403 396 228 88 76 62
263 744 201 60 40 39
401 394 233 98 81 63
404 399 228 94 80 66
442 796 241 58 46 40
277 572 245 91 36 39
401 394 238 105 86 64
403 396 238 105 85 63
287 891 321 102 52 54
404 399 238 102 83 62
452 714 243 81 65 53
363 943 239 76 68 69
402 389 243 111 89 65
424 629 255 127 91 65
403 394 243 111 90 66
227 754 243 160 109 82
403 394 247 115 92 65
408 594 170 40 34 42
508 464 236 44 26 28
404 399 248 114 92 67
404 399 243 109 88 64
401 394 253 120 95 66
402 398 254 119 95 67
406 404 228 96 81 68
407 408 233 88 74 60
407 413 226 120 100 85
408 410 229 84 72 61
268 574 256 155 105 80
408 416 225 112 92 76
409 414 238 85 72 59
406 404 248 105 86 65
405 404 253 105 85 64
407 412 253 78 67 57
408 411 247 86 73 59
426 634 258 136 98 68
409 414 243 82 71 59
360 714 302 182 12 58
410 414 248 80 69 58
370 654 270 147 15 47
410 414 253 77 67 57
414 416 249 76 66 56
415 416 253 75 66 56
387 427 206 99 84 68
247 574 239 142 108 75
388 430 205 97 82 65
395 429 209 97 82 64
390 419 209 99 84 68
394 420 210 99 84 68
430 462 285 46 23 26
394 424 209 99 83 67
397 429 211 98 82 63
425 569 290 171 116 89
379 364 282 127 98 64
400 429 213 99 83 65
390 438 202 100 83 65
430 749 294 156 109 73
386 446 195 99 83 65
390 444 198 100 83 64
390 447 196 100 82 63
340 955 236 87 83 88
257 802 270 171 129 96
400 440 203 101 85 66
400 438 207 102 85 67
395 443 197 99 83 64
402 417 221 107 89 71
367 452 291 36 27 29
385 419 293 76 29 32
478 548 193 215 17 56
428 610 291 165 115 85
464 917 195 102 86 69
404 424 219 103 86 69
406 424 222 104 88 72
244 629 233 153 111 77
403 430 215 101 84 66
255 774 267 159 123 87
