ply
format ascii 1.0
comment Created by Open3D
element vertex 2208
property double x
property double y
property double z
property uchar red
property uchar green
property uchar blue
end_header
202 674 261 157 110 90
185 554 236 59 25 31
382 514 254 117 13 35
316 915 309 38 36 36
382 411 271 75 33 30
376 408 279 62 28 32
191 560 256 109 9 37
376 405 285 59 27 32
216 554 285 167 119 97
370 413 279 63 23 28
375 413 274 72 30 29
241 654 274 154 15 49
366 409 290 43 26 29
363 416 294 91 12 29
382 704 210 57 42 33
368 410 298 75 12 30
368 406 290 56 17 30
219 664 252 88 23 36
301 604 291 81 27 35
368 406 294 56 20 34
261 514 108 56 33 35
369 407 296 62 19 30
275 874 275 138 105 79
376 404 290 62 24 31
372 406 299 60 22 32
336 899 245 38 35 34
385 509 284 56 28 30
373 414 303 70 34 32
381 404 295 68 27 30
381 409 305 118 25 43
188 594 269 153 114 88
381 414 304 101 23 40
356 420 260 67 45 43
366 418 260 72 28 31
364 587 196 202 26 49
366 419 270 70 25 29
239 663 198 102 19 29
357 424 279 60 38 33
358 421 278 60 32 27
356 430 285 41 28 27
230 745 277 53 26 30
200 831 224 209 139 110
326 689 296 127 9 40
393 798 228 68 55 46
182 719 217 122 94 60
360 427 281 57 33 34
366 419 280 62 16 27
362 419 285 63 10 24
364 418 283 61 13 26
370 417 260 75 27 31
372 416 265 76 27 30
375 549 255 47 28 32
371 418 270 75 21 29
217 764 260 60 50 46
373 416 270 76 23 29
375 417 268 77 29 29
270 688 292 34 27 29
370 418 274 71 24 29
326 684 199 52 38 36
358 425 290 85 13 25
384 739 207 79 62 50
357 429 294 88 13 29
358 426 293 107 0 27
360 429 297 119 12 37
361 419 290 88 7 27
362 419 295 109 5 34
363 424 298 150 15 49
197 543 268 60 25 29
266 869 205 46 42 45
251 644 279 160 18 51
231 535 129 131 15 40
366 424 299 156 16 49
354 433 290 43 25 27
310 554 281 109 6 33
393 496 282 179 12 57
357 439 298 75 30 37
358 443 298 52 27 30
241 629 189 181 7 40
361 449 296 112 23 41
367 440 297 96 28 39
341 709 295 104 55 48
217 739 192 123 80 53
366 449 294 147 22 50
363 441 297 50 28 26
290 843 179 48 44 44
374 416 302 72 20 32
376 419 301 151 19 49
376 424 299 170 12 53
371 429 299 158 15 48
375 428 298 174 13 55
376 417 303 96 15 31
376 439 294 59 26 31
371 434 298 152 20 51
208 937 274 177 135 112
371 439 296 103 29 43
370 448 293 138 27 52
215 649 225 58 43 40
375 443 293 131 32 52
376 449 291 67 24 31
381 434 295 78 23 35
381 449 291 98 27 38
328 455 297 172 15 57
351 644 235 100 25 40
329 452 298 166 11 49
392 509 265 184 18 50
273 862 272 142 108 80
330 464 294 164 18 52
406 909 246 84 72 64
337 459 292 89 25 39
336 464 291 116 23 43
332 465 292 150 19 50
349 552 142 195 14 44
326 469 294 177 13 57
326 474 291 174 15 55
325 472 293 180 10 57
411 898 265 93 73 58
329 468 293 161 23 58
282 900 184 74 66 67
331 474 290 142 21 47
336 474 291 65 23 30
251 813 254 177 126 104
336 479 291 46 27 28
338 450 292 148 15 45
343 456 293 43 24 26
343 459 293 40 25 26
217 618 196 111 33 44
346 454 294 60 26 30
341 474 293 82 28 38
351 469 294 78 21 32
346 474 294 66 28 34
346 479 293 137 20 47
350 473 293 141 26 48
326 489 287 105 26 41
326 494 286 39 23 26
329 494 287 37 27 24
326 487 288 115 27 48
365 874 220 76 63 60
331 484 289 36 26 27
323 507 291 62 26 28
209 944 270 66 56 54
326 505 288 66 17 28
326 509 290 78 27 31
325 509 295 127 87 67
322 548 303 180 131 106
328 499 288 68 25 28
331 499 289 113 21 41
395 499 275 188 8 60
336 499 290 163 17 51
311 729 310 175 16 56
336 504 289 133 18 45
226 744 275 114 32 47
336 509 289 130 13 42
392 480 287 55 24 30
366 689 299 161 109 79
341 489 291 160 13 51
346 484 292 174 14 55
351 489 290 168 12 52
346 494 290 167 7 53
341 499 290 169 14 52
180 534 225 64 25 32
346 499 290 166 5 50
346 504 290 165 3 49
280 880 274 133 106 78
351 499 290 164 9 50
275 957 294 76 68 63
351 509 289 163 4 48
356 454 296 44 27 30
207 934 265 145 112 95
361 454 294 106 28 41
361 459 294 127 28 49
292 518 289 172 111 90
367 454 292 131 28 49
365 893 242 35 32 29
315 690 192 106 18 26
365 453 293 156 26 52
361 464 291 72 27 34
355 468 293 151 34 56
281 582 152 218 14 49
395 711 174 83 62 48
361 469 291 55 29 33
356 474 291 155 19 52
356 479 291 169 15 53
384 514 256 137 12 40
366 469 289 113 18 41
371 454 291 96 25 40
376 459 290 49 28 34
311 729 191 87 28 32
256 649 281 69 22 33
381 454 290 98 26 39
266 940 209 87 84 86
381 459 290 93 25 39
381 464 290 34 28 32
371 469 289 158 18 51
201 683 223 114 86 62
281 585 154 220 14 43
376 469 289 105 26 41
376 474 289 72 29 37
381 469 289 53 30 34
362 499 287 61 29 35
362 504 287 60 27 32
372 824 280 186 125 99
431 889 275 49 40 32
366 509 287 64 29 33
373 486 287 165 16 53
174 709 245 159 108 84
381 484 287 89 27 39
371 504 287 51 29 30
376 499 287 58 26 29
371 509 287 55 30 31
376 509 286 52 27 30
322 783 179 55 44 42
381 504 286 52 28 29
361 484 288 158 17 51
356 494 288 121 21 43
361 494 288 51 25 32
361 559 279 60 28 32
211 794 253 166 126 94
356 499 288 144 19 49
360 498 288 53 24 27
382 689 200 70 58 49
356 504 288 162 15 51
360 504 288 119 20 42
359 509 288 165 15 53
381 482 288 78 18 30
386 411 260 89 23 31
384 412 260 86 25 31
391 409 270 74 35 30
396 409 265 74 29 30
256 961 224 95 91 95
182 544 215 156 6 47
401 409 260 68 29 31
386 406 285 58 37 37
391 409 275 69 37 34
394 794 235 64 51 40
396 408 280 70 39 36
396 407 285 69 40 38
411 409 280 69 25 29
401 407 285 75 32 32
396 408 275 71 36 32
275 674 287 75 27 34
336 589 170 67 32 39
401 408 275 74 29 29
366 904 256 57 51 47
406 409 270 67 30 30
411 409 260 52 32 27
376 714 295 163 109 80
416 410 270 74 28 30
406 409 275 71 26 29
406 408 285 76 22 30
411 409 275 70 27 29
416 410 275 71 25 30
331 579 160 209 15 46
416 410 285 64 24 28
372 654 269 152 115 83
386 405 290 55 35 34
421 429 280 179 17 52
386 405 295 53 31 29
308 921 313 42 38 36
391 405 290 58 43 40
391 406 300 51 22 26
396 406 290 65 45 40
396 406 295 70 40 37
368 561 168 50 29 35
291 960 240 78 74 78
398 407 288 70 40 37
286 894 184 68 61 61
397 407 301 45 29 29
250 873 223 105 86 65
188 523 181 108 18 37
391 414 304 99 24 41
399 488 262 166 18 44
350 933 308 74 62 55
406 408 290 77 22 31
402 416 302 164 21 57
411 410 295 56 24 28
414 411 294 64 26 32
417 413 295 76 22 34
265 604 282 87 24 35
370 544 156 47 37 38
417 420 259 46 32 33
276 579 149 200 17 46
414 423 257 95 28 37
200 554 275 153 123 99
416 424 260 56 30 31
282 844 186 44 42 42
318 863 171 89 83 80
413 430 258 51 31 35
389 731 219 68 48 36
415 429 261 49 31 31
410 439 256 75 27 33
412 439 259 62 28 34
326 754 174 69 55 47
415 434 261 94 25 33
410 444 256 52 29 29
301 699 309 142 13 45
408 449 258 36 33 34
413 445 264 139 28 50
414 442 262 62 13 20
412 449 265 65 33 38
376 928 270 91 70 59
414 448 271 47 34 36
416 439 285 178 7 56
414 449 280 77 26 36
412 449 285 177 13 55
391 429 296 185 7 60
396 417 303 165 21 51
396 419 301 186 15 59
358 750 178 74 53 45
195 604 220 88 20 36
401 423 298 185 5 58
381 912 298 50 41 35
396 429 296 184 2 57
396 426 297 190 0 61
431 913 275 98 83 77
211 609 195 92 29 41
386 438 293 154 19 52
386 444 292 85 19 34
391 440 292 116 19 42
391 449 291 138 18 46
396 434 294 178 6 56
359 621 267 97 74 51
396 438 293 177 9 56
291 604 295 65 33 38
401 444 291 175 9 53
434 913 283 101 82 66
406 419 300 154 15 52
406 429 296 175 8 55
415 418 298 134 19 50
173 749 240 171 116 90
416 434 290 153 14 49
256 840 264 117 94 70
414 438 289 176 8 56
414 442 288 174 7 55
418 412 264 63 27 28
174 704 242 161 112 84
421 414 265 128 24 42
424 415 272 96 26 35
356 724 169 73 57 47
421 413 275 71 22 38
424 415 275 112 31 46
424 415 280 64 31 34
256 669 189 53 35 38
417 412 290 66 30 31
418 425 263 48 18 35
191 784 201 159 110 73
419 422 262 40 29 20
421 424 270 163 21 46
424 418 272 159 29 49
423 420 274 166 21 52
422 424 275 182 20 53
424 422 277 184 27 51
419 437 278 179 13 55
419 433 271 85 23 31
288 941 301 63 55 53
345 798 179 101 78 65
419 434 275 175 16 51
313 552 288 156 96 78
418 436 282 184 10 62
418 425 292 44 31 32
359 747 177 81 59 45
419 428 289 152 18 53
262 620 284 69 23 29
424 418 288 55 29 34
402 469 259 161 17 42
338 789 293 171 129 99
397 480 259 155 16 40
296 719 187 129 14 31
398 476 258 155 16 44
400 479 261 163 18 43
330 587 167 215 16 45
183 547 216 178 1 48
398 471 287 58 26 31
396 479 285 55 28 30
231 679 274 98 15 35
399 478 283 71 27 30
296 544 121 216 14 43
401 479 280 125 18 43
286 899 284 125 84 72
408 454 258 74 22 32
246 939 211 84 77 80
407 459 260 110 23 43
404 462 257 61 38 41
406 464 260 139 21 42
238 589 273 154 22 51
408 464 265 171 18 49
248 639 278 165 18 53
291 630 188 158 12 35
409 454 260 39 32 33
412 454 270 143 22 44
271 840 202 78 58 52
356 764 301 171 125 88
409 458 261 126 26 49
410 459 265 106 24 41
296 630 188 153 11 40
402 464 286 174 15 54
248 847 275 109 87 60
413 451 281 112 17 40
414 452 276 104 21 40
411 459 275 185 16 54
409 464 275 184 14 55
236 724 186 99 22 33
221 830 235 53 45 44
405 468 261 169 20 46
263 700 293 42 25 28
407 469 270 182 17 51
403 476 263 170 19 46
389 699 190 75 58 45
404 472 262 167 18 41
177 669 235 143 102 71
405 474 270 183 16 53
404 478 270 183 15 55
407 469 275 185 10 58
345 883 244 39 34 32
403 470 282 176 9 54
404 468 283 177 7 59
368 644 292 163 111 83
286 639 190 126 9 34
218 612 192 68 31 38
403 480 275 183 9 58
404 478 274 184 10 58
358 926 307 57 47 37
296 649 289 80 21 35
256 973 241 61 55 54
408 466 275 184 12 57
241 639 195 162 7 40
390 869 239 65 57 51
386 454 291 109 24 41
371 709 240 91 48 44
391 464 290 110 25 43
401 454 290 65 23 32
325 644 202 82 32 37
396 464 289 169 20 55
236 629 269 97 21 38
391 469 290 41 28 30
225 688 203 81 25 29
211 774 190 151 106 69
399 468 288 162 20 57
395 474 288 53 30 30
369 635 289 143 107 70
394 477 288 53 28 34
225 530 129 64 32 39
392 494 259 154 16 43
396 489 260 159 17 41
400 484 262 164 18 44
393 490 258 149 15 42
398 491 263 171 18 40
399 493 266 186 18 52
198 521 274 42 30 32
399 493 270 190 14 57
193 518 161 163 4 43
386 481 287 111 24 43
391 484 286 122 21 46
391 489 285 172 18 54
399 488 279 136 14 43
395 489 284 161 20 53
400 484 280 106 20 38
394 828 239 62 52 44
310 685 192 103 18 28
400 489 275 185 10 58
216 604 270 146 96 76
398 491 276 184 10 58
256 894 300 155 112 89
397 494 275 186 7 60
392 499 260 157 16 42
381 902 255 79 68 60
190 544 255 59 23 26
389 503 257 142 14 41
391 504 260 160 17 43
396 499 265 183 18 49
394 504 265 185 18 49
226 669 260 74 28 36
396 499 270 189 13 57
394 504 270 190 16 56
393 506 270 190 17 58
256 796 188 82 65 54
392 499 281 166 12 53
388 506 282 52 29 36
394 498 279 182 6 58
402 484 265 178 18 47
202 754 201 112 87 57
292 512 97 67 23 38
340 559 299 149 114 83
402 484 270 185 14 55
218 514 127 143 13 35
221 514 126 142 3 35
221 519 126 117 13 34
222 523 127 84 30 37
231 514 119 135 6 33
225 514 124 130 3 30
228 519 122 140 6 34
345 603 191 67 34 38
226 524 125 72 25 33
228 522 122 123 13 34
271 960 224 88 84 89
311 914 220 73 66 68
229 525 123 151 17 47
281 515 275 141 89 82
223 547 142 105 31 43
232 527 122 185 11 38
238 512 112 63 30 28
241 514 112 124 17 36
200 520 257 124 0 38
241 519 114 152 13 42
238 523 117 166 9 42
236 528 121 191 11 42
241 529 120 179 9 41
232 533 126 86 18 34
235 530 123 194 11 44
231 844 285 137 112 88
236 534 125 192 13 46
242 533 121 150 17 44
281 886 283 154 121 94
238 537 127 193 11 45
362 804 185 67 56 51
256 514 109 85 27 36
246 524 114 172 7 38
246 528 116 189 9 41
251 529 115 182 7 39
303 850 252 137 103 80
255 525 113 103 13 41
319 902 217 67 59 59
214 548 288 176 126 106
246 534 120 152 16 42
250 531 118 196 10 44
214 520 133 59 37 35
251 544 125 198 11 44
339 759 292 140 95 73
256 542 122 210 13 45
252 547 127 145 3 41
192 519 165 140 11 40
192 594 274 152 115 86
191 519 170 127 18 38
229 549 268 91 20 32
267 723 288 146 19 52
189 519 174 45 35 34
190 524 175 47 32 34
339 702 188 57 43 36
192 529 175 88 22 35
281 669 288 124 20 43
183 514 190 70 32 34
183 522 192 147 12 50
314 902 212 73 66 67
187 519 180 65 30 35
207 822 243 188 144 119
188 518 177 45 33 34
184 514 188 99 25 31
486 863 241 109 84 67
189 525 179 61 26 34
188 527 182 176 8 52
189 530 184 162 5 36
192 534 180 104 19 37
190 534 184 124 11 39
192 539 180 43 31 35
188 538 191 160 5 42
190 544 190 160 4 40
361 559 160 72 32 38
501 849 245 114 93 72
269 791 267 186 133 111
181 514 195 130 18 42
326 744 175 51 42 41
182 519 195 112 12 37
366 569 175 70 31 37
182 524 195 150 2 39
183 528 196 155 0 38
184 525 193 159 0 36
221 614 190 119 27 42
184 529 195 155 1 39
296 674 191 76 28 31
382 734 291 173 118 89
246 514 275 155 100 84
179 514 210 153 1 39
178 514 215 134 12 41
336 902 251 35 33 33
221 943 225 65 61 62
351 905 260 35 33 33
179 515 214 153 2 41
179 519 215 101 19 38
416 900 255 95 73 47
178 518 217 54 23 32
363 692 217 50 42 35
178 518 225 76 27 31
187 809 211 175 117 85
326 933 265 72 66 66
179 520 225 116 21 42
179 520 220 68 34 37
386 834 246 53 42 33
194 582 248 68 44 33
351 849 204 65 53 48
179 524 225 103 24 38
180 529 220 99 23 36
227 584 268 41 32 31
183 534 200 159 0 40
267 619 288 53 29 30
183 538 201 163 0 42
182 539 205 164 0 42
184 540 199 165 0 41
185 544 205 174 0 46
451 873 255 101 75 58
181 534 215 161 0 42
180 534 220 159 4 43
302 599 291 75 27 34
181 539 215 123 9 40
183 543 210 175 0 46
387 839 215 118 105 97
246 579 155 172 11 41
377 719 170 91 67 46
180 539 225 123 25 43
178 514 230 38 30 32
178 519 230 61 22 32
180 514 240 85 21 35
178 524 231 73 28 33
179 529 230 67 27 33
178 524 235 94 20 37
178 528 234 88 31 40
179 530 235 57 25 31
183 514 243 94 28 40
194 605 215 175 3 49
188 519 248 62 27 37
184 525 242 94 17 40
173 792 228 177 123 94
277 898 287 152 119 95
382 878 222 96 79 78
379 743 201 71 54 44
195 608 238 114 85 62
184 529 242 89 28 36
191 529 249 31 28 29
179 534 230 57 30 34
242 854 240 83 66 49
215 620 199 68 29 39
179 539 230 66 29 33
216 814 249 143 110 84
179 544 235 63 28 32
318 693 193 106 19 28
302 681 298 58 26 28
184 535 242 79 31 37
187 534 245 46 27 30
293 747 298 78 65 57
191 535 246 36 27 31
192 533 248 48 27 32
214 664 240 124 117 114
246 559 140 201 14 45
186 539 242 39 27 31
187 538 243 40 26 28
222 850 261 132 105 80
191 539 245 69 28 35
189 541 242 76 37 45
190 549 195 172 2 45
187 549 205 180 0 48
192 559 200 166 1 39
188 553 206 170 1 43
190 559 205 170 1 44
256 735 182 101 20 32
331 903 295 37 35 36
186 554 215 173 2 46
187 559 215 75 21 36
381 859 225 78 61 54
185 554 220 133 9 37
193 574 205 171 6 44
181 569 225 58 28 34
187 564 215 39 31 37
387 554 215 145 23 47
346 580 169 194 18 46
190 564 210 136 11 40
188 563 212 76 21 32
388 555 210 123 24 43
200 564 180 101 25 37
391 803 218 83 65 51
336 929 270 78 70 68
243 816 193 94 74 62
190 569 210 92 19 36
231 570 154 106 28 39
185 574 219 40 33 35
181 549 235 85 19 35
182 547 238 68 28 33
182 553 234 66 23 33
182 559 235 45 28 32
183 560 240 49 29 31
184 557 236 44 31 27
184 557 240 58 26 32
183 560 245 132 14 43
183 560 249 155 1 47
460 868 254 110 86 57
189 549 242 50 24 30
224 567 273 136 85 68
190 549 245 34 27 28
189 547 253 58 24 26
184 557 245 117 16 35
322 843 168 82 68 59
249 885 303 161 120 95
186 554 255 156 5 49
186 559 255 162 6 51
388 550 216 120 24 42
182 574 230 44 31 34
183 574 235 50 27 31
184 576 237 63 26 31
301 684 299 55 31 32
246 694 286 143 13 45
186 574 240 58 27 32
368 566 174 71 35 36
191 574 240 62 26 32
186 564 250 157 5 51
308 648 287 119 16 42
186 567 248 154 9 50
191 562 253 93 13 33
190 567 248 97 8 30
187 579 215 71 25 33
310 544 285 126 63 54
366 879 239 52 46 42
189 579 213 112 10 32
191 584 210 141 8 36
185 584 220 127 15 43
421 898 255 79 64 49
190 589 214 180 4 47
188 588 216 170 5 48
187 589 220 115 17 37
187 588 225 72 29 37
352 939 290 94 82 72
390 884 223 110 95 86
185 579 235 95 24 38
435 859 205 88 77 68
187 583 234 102 23 39
431 854 200 103 87 76
191 579 236 77 24 35
191 583 234 89 20 37
188 587 229 96 31 46
342 527 288 138 14 42
191 590 226 51 21 30
211 744 260 146 30 48
190 579 255 108 87 65
196 639 230 116 89 61
192 580 251 85 66 46
191 584 250 93 73 53
188 589 251 118 96 73
395 907 241 82 69 62
203 598 196 152 19 48
183 605 251 154 118 88
183 604 255 156 118 90
183 609 250 150 114 84
183 609 255 154 115 86
190 599 244 109 87 63
352 785 190 69 54 46
185 594 255 148 117 88
185 599 250 138 110 83
372 670 273 124 96 66
184 599 255 156 120 93
186 604 245 129 104 76
192 760 202 114 88 56
185 609 245 136 108 79
199 596 203 110 32 46
188 619 237 111 90 66
187 624 236 117 94 69
406 896 276 73 61 51
188 616 237 111 89 63
183 611 247 145 114 85
347 514 114 73 23 35
356 817 186 75 62 57
345 613 201 80 27 33
183 614 246 143 112 81
182 619 245 145 112 82
348 596 188 167 25 47
325 734 180 52 40 38
371 564 175 71 32 39
346 689 195 79 55 41
336 839 260 40 33 32
182 629 240 151 119 87
183 630 237 144 116 85
181 634 240 149 117 84
180 639 240 122 97 67
186 629 235 125 101 74
188 630 232 119 96 69
191 634 231 118 94 67
191 639 230 123 96 68
261 527 112 60 37 32
185 634 234 132 105 76
256 899 300 153 111 87
184 638 233 136 107 75
391 799 221 76 61 49
227 700 283 109 14 36
203 582 187 172 1 48
182 629 255 145 106 75
178 640 245 127 94 68
284 817 193 55 49 50
178 640 248 138 102 72
181 634 255 148 106 79
196 609 276 170 124 98
180 639 255 156 111 85
201 514 140 169 9 42
197 514 145 137 12 41
313 916 223 77 71 73
229 853 287 166 127 104
356 901 249 38 35 34
206 514 136 83 18 35
351 934 294 80 70 62
206 519 140 109 24 39
207 524 141 73 31 38
206 529 145 60 33 36
361 609 275 125 100 72
314 872 192 67 63 66
193 512 152 174 2 42
195 514 150 154 8 41
198 523 151 77 33 40
199 520 148 45 24 40
354 612 222 128 42 58
200 524 149 48 34 39
195 524 160 175 2 43
436 873 209 83 74 67
203 533 151 173 12 45
205 534 149 138 12 41
316 863 252 42 37 35
207 539 150 177 11 44
351 629 303 166 115 84
202 543 161 71 20 33
206 544 155 179 12 44
363 606 229 99 22 32
208 543 152 178 12 43
313 631 193 64 35 40
210 515 134 58 29 34
216 519 130 60 30 35
213 518 132 91 38 38
231 539 265 123 13 40
212 524 136 60 31 33
246 784 264 72 61 55
211 529 140 72 30 34
213 527 137 97 36 43
292 808 269 181 132 109
220 524 129 77 35 37
383 861 222 94 68 59
222 714 283 102 17 38
216 864 265 162 123 100
267 869 195 54 50 52
209 530 143 78 37 36
214 530 138 80 30 37
211 539 146 156 10 41
296 948 280 67 57 53
365 854 221 62 54 58
219 536 138 170 8 35
222 544 141 161 9 41
208 537 147 151 3 39
194 530 169 172 11 46
193 533 176 149 12 43
390 514 275 74 26 36
194 535 174 162 11 44
198 539 166 91 27 40
196 539 170 121 22 41
196 544 175 53 34 36
280 767 187 81 63 52
194 544 179 75 22 37
275 725 182 123 13 32
207 553 161 161 14 46
221 549 145 76 27 35
212 553 156 175 10 42
217 559 156 130 19 40
217 548 147 175 7 45
218 553 152 175 9 47
222 558 151 71 29 34
219 556 153 140 11 40
218 562 157 120 22 29
256 944 310 75 70 69
221 564 155 71 27 35
220 565 158 128 14 41
223 562 152 72 38 43
218 582 172 177 11 43
223 567 157 96 28 43
220 699 276 71 24 32
200 549 170 133 25 45
200 554 174 92 30 40
198 553 176 108 20 39
306 709 189 126 16 31
203 548 162 38 30 38
374 689 293 157 109 76
285 953 221 83 78 81
204 551 163 40 39 37
283 768 283 81 66 58
202 554 170 86 30 39
194 554 185 91 19 36
199 560 179 67 23 33
193 553 187 150 9 44
193 557 191 180 1 44
250 798 187 82 65 55
346 925 265 72 64 63
208 562 167 38 33 41
286 540 118 213 14 43
205 565 174 72 32 38
206 569 175 115 25 42
342 664 295 151 101 83
208 568 171 44 33 34
198 562 182 156 15 48
381 913 241 84 74 71
291 804 270 188 138 115
198 568 190 135 10 41
291 679 294 82 23 35
191 804 209 166 112 78
200 574 190 162 5 39
216 899 291 175 129 115
203 567 177 92 39 38
202 569 180 51 29 33
209 565 168 41 34 38
210 749 194 123 95 60
217 573 166 106 28 41
209 570 173 163 26 59
210 574 174 83 22 36
221 574 164 57 31 35
222 573 161 66 29 31
226 534 130 142 17 39
346 857 207 60 51 48
205 629 229 111 41 42
309 539 285 135 73 60
347 795 175 103 75 55
232 538 131 195 12 40
230 540 133 192 11 42
231 544 135 182 11 42
225 550 144 91 23 36
321 531 113 149 40 43
229 546 138 164 16 36
330 760 178 71 54 47
240 546 133 130 26 45
241 549 135 183 16 46
235 550 138 195 11 44
236 559 144 71 33 38
242 553 137 199 12 40
230 560 148 175 8 42
231 564 150 129 24 42
232 568 152 106 32 42
214 658 237 75 65 61
226 574 160 92 28 40
246 789 261 69 56 51
386 559 215 164 19 49
230 575 158 88 23 34
232 562 147 166 18 52
235 565 148 81 29 37
241 604 175 200 11 43
201 644 272 176 127 99
241 564 145 154 20 44
301 885 263 36 32 30
235 571 153 60 32 34
251 961 297 66 60 58
242 573 151 192 19 51
251 779 266 65 55 54
371 938 295 79 64 54
245 550 133 85 17 32
244 556 138 201 7 53
249 546 128 76 14 26
256 553 131 133 28 43
255 556 133 174 18 45
246 765 272 73 61 56
326 905 285 43 40 39
256 559 135 153 16 44
242 562 142 174 28 50
442 876 257 78 64 49
247 563 142 205 14 46
401 913 250 86 74 68
278 961 228 88 84 87
251 569 145 205 13 48
256 562 137 174 14 44
304 952 246 88 83 86
212 729 200 51 38 38
253 567 142 203 12 40
271 914 193 88 78 78
256 567 142 147 22 44
196 749 206 105 83 56
256 570 144 148 19 43
252 572 147 206 14 47
316 629 285 112 26 41
256 573 146 123 22 42
210 904 276 93 73 66
256 575 148 153 19 46
296 540 118 214 13 41
196 519 255 123 4 39
197 524 254 54 22 29
302 616 183 57 27 34
195 529 251 32 28 28
192 540 256 54 21 27
193 559 195 183 1 48
270 957 298 79 72 69
347 564 290 137 108 80
194 565 199 163 6 41
193 572 202 173 9 49
194 575 204 173 8 45
256 592 162 213 13 49
195 566 247 55 26 28
194 561 256 100 7 33
392 901 244 89 78 68
198 569 250 82 18 34
194 571 242 47 21 25
370 814 195 63 53 51
340 789 176 89 66 46
194 574 241 73 25 35
196 574 245 118 13 41
271 540 118 199 11 42
208 577 177 83 19 33
207 579 180 176 12 44
367 544 281 35 28 30
204 576 183 202 14 56
201 579 190 158 7 38
202 584 190 71 19 33
296 694 304 132 11 41
203 588 191 44 32 36
204 586 188 81 17 27
205 589 189 55 28 36
208 593 187 59 28 31
211 579 175 41 30 37
220 585 173 164 7 43
276 923 310 34 33 34
209 586 183 173 11 36
210 589 184 148 13 42
379 902 263 68 60 54
212 588 181 119 12 36
213 592 182 45 29 30
215 599 184 121 23 41
209 596 188 47 32 37
211 604 190 74 31 35
324 737 183 48 41 38
217 604 186 75 29 36
376 900 270 63 55 50
208 622 212 68 28 37
215 605 189 119 25 41
216 609 190 134 22 42
220 595 178 169 8 41
188 827 227 229 150 122
220 604 184 132 21 43
206 584 280 170 123 97
381 704 265 105 72 53
351 919 311 57 51 47
220 610 188 92 28 38
222 618 191 63 27 38
231 579 160 132 22 43
241 584 160 197 15 48
243 582 157 207 12 50
245 576 153 185 6 51
356 684 240 39 28 32
246 582 157 206 12 51
251 580 154 206 12 46
251 584 156 208 12 49
256 584 155 211 13 47
254 586 158 213 13 47
226 579 164 119 26 39
371 664 290 148 102 71
230 581 163 118 24 37
231 584 165 72 31 37
364 859 220 67 58 58
225 590 173 132 8 33
233 582 162 122 28 46
326 550 133 77 32 37
236 583 161 123 20 41
311 550 129 144 30 47
235 585 164 62 33 36
239 586 163 147 16 51
226 598 176 182 9 41
231 593 171 195 12 44
305 839 253 157 117 94
174 769 219 163 111 80
231 599 175 192 10 42
367 958 282 91 79 69
345 699 297 149 103 82
361 704 302 172 117 88
238 592 167 62 18 37
241 595 169 169 9 42
378 830 248 42 37 33
236 604 176 197 10 41
358 688 244 42 31 30
227 608 182 151 15 41
226 610 184 126 19 41
231 604 179 190 10 43
241 607 177 200 10 41
241 609 179 139 14 37
316 848 166 84 68 61
242 587 162 199 13 52
250 591 163 210 12 45
246 594 166 202 13 47
245 839 230 163 116 90
246 599 170 204 11 46
312 894 213 69 63 63
246 604 175 204 11 45
225 955 235 77 73 74
252 597 167 210 12 47
251 599 169 208 12 46
306 911 299 37 34 35
251 602 172 209 12 46
232 534 265 125 15 42
256 609 176 191 14 45
230 611 183 61 30 29
351 838 255 41 31 31
226 614 186 106 29 39
224 615 188 158 14 45
363 623 292 150 112 75
397 819 235 60 49 41
228 617 187 119 36 44
276 928 317 43 40 41
227 623 192 40 32 40
231 618 186 72 30 38
231 624 190 75 27 38
231 864 290 138 75 79
383 560 194 199 21 52
241 614 181 139 19 41
240 616 183 172 13 42
346 904 234 76 63 61
373 811 291 188 127 100
246 619 184 186 7 40
296 669 192 71 33 36
246 624 186 180 5 39
256 614 179 169 13 43
251 620 183 186 7 39
256 618 181 193 9 41
256 620 183 188 7 38
291 734 186 99 25 32
256 624 185 180 4 38
214 941 282 136 94 80
181 699 255 163 114 89
242 627 187 181 6 36
256 884 299 155 117 93
246 630 188 180 5 39
246 634 190 182 6 41
396 864 216 96 79 72
247 639 192 162 7 39
256 629 187 172 1 36
255 631 188 172 0 39
251 634 189 175 2 39
251 639 191 156 3 37
256 634 189 166 0 36
199 579 193 159 9 44
196 579 200 170 9 42
198 584 196 166 11 45
336 539 125 207 13 45
196 584 200 161 8 43
198 587 197 139 29 55
193 588 207 152 12 43
194 591 208 167 4 44
196 594 205 67 28 35
201 599 200 85 27 38
274 972 250 62 58 57
317 601 178 53 38 39
251 724 287 187 13 60
203 592 192 44 32 44
204 595 193 160 17 48
207 604 195 54 33 36
204 600 198 53 34 33
205 605 199 65 32 38
271 734 182 101 25 35
204 606 203 112 25 41
336 838 190 60 53 52
193 599 212 139 1 34
381 874 242 51 44 40
195 594 225 65 27 33
208 602 192 85 44 50
210 605 194 60 33 37
208 607 197 45 36 36
194 580 236 45 24 33
194 586 232 145 11 49
374 739 298 172 114 81
302 517 298 190 132 107
195 590 226 90 21 35
326 744 299 113 26 43
366 689 195 96 70 47
195 579 245 80 25 37
194 589 244 72 43 34
256 699 290 83 23 36
287 599 294 53 28 31
196 599 230 92 26 38
196 594 235 70 30 34
281 907 192 80 70 74
199 605 231 105 19 37
198 604 235 78 42 43
199 601 236 76 33 37
395 844 230 74 63 56
196 609 236 114 79 59
315 748 303 88 37 44
371 554 165 126 29 41
360 699 235 65 26 33
203 612 207 97 14 33
208 613 202 55 30 35
202 614 210 149 19 47
340 598 181 58 34 39
198 613 220 65 30 36
199 615 219 48 32 33
201 619 225 77 34 38
206 619 210 108 34 44
202 619 220 82 34 42
341 674 290 114 76 62
384 764 215 72 54 43
204 621 219 150 38 47
206 624 220 101 32 40
208 628 221 98 25 31
211 614 200 110 30 44
221 534 290 166 117 97
212 613 196 157 20 47
214 611 193 89 26 42
212 618 201 48 34 37
220 625 199 86 22 36
256 848 215 166 114 84
323 936 273 77 71 71
209 621 209 106 49 57
335 547 132 211 13 37
217 628 206 62 28 35
223 627 197 188 9 33
236 769 184 73 58 50
218 627 202 27 28 37
399 810 225 64 54 46
220 630 204 172 16 50
276 819 259 157 117 95
222 633 205 122 21 44
223 632 202 44 35 38
374 754 298 169 115 81
210 625 215 82 35 43
212 629 215 77 32 39
266 973 250 56 53 53
214 626 208 43 37 32
215 629 210 86 28 39
302 880 178 64 57 55
214 630 214 119 22 42
361 920 250 74 65 60
210 630 220 130 32 46
216 634 215 141 21 47
211 634 225 112 33 37
215 635 220 146 17 46
188 654 264 151 106 79
217 639 220 135 16 41
214 636 224 114 22 36
215 639 224 88 34 39
220 635 209 96 23 36
219 636 214 60 43 38
218 638 216 86 14 36
222 639 210 91 25 37
356 809 180 65 52 45
192 610 237 115 87 59
276 949 217 88 84 87
196 614 235 104 73 55
196 624 233 108 80 54
326 863 252 42 38 37
198 619 232 93 66 50
365 639 294 161 109 84
198 624 232 109 74 50
201 624 230 105 57 46
463 871 242 140 103 69
196 629 231 115 87 57
201 629 231 113 71 52
196 634 231 114 88 60
361 898 245 37 33 33
201 639 230 117 83 55
208 633 226 118 37 39
206 634 230 112 51 43
224 674 209 44 34 38
210 636 229 102 38 36
213 639 226 98 38 41
212 639 239 93 49 43
196 694 221 114 88 60
352 819 200 68 56 54
213 636 239 94 46 43
214 640 240 75 40 38
215 635 247 80 18 31
213 667 239 122 115 111
213 640 244 93 27 35
295 789 189 51 44 44
216 634 250 80 17 31
217 634 255 91 29 35
216 639 250 75 22 29
217 631 251 92 15 30
217 630 255 101 29 38
219 639 252 56 17 24
217 639 256 83 36 36
221 639 255 74 12 26
224 621 193 42 28 34
225 625 194 55 26 36
351 822 293 189 131 105
231 630 194 140 10 40
226 634 200 60 29 38
260 864 219 108 85 62
231 633 196 128 25 45
230 635 199 106 21 38
231 639 200 172 8 43
226 639 205 164 9 42
311 689 191 104 21 26
236 634 194 178 13 43
237 638 196 177 8 45
429 869 221 93 84 76
235 640 198 149 5 38
266 587 157 220 14 48
240 636 194 187 12 45
224 640 208 117 11 37
361 794 302 182 133 102
221 704 280 101 19 39
183 644 232 139 107 71
177 644 240 123 89 64
176 649 240 151 104 80
359 608 258 38 30 34
191 799 254 178 133 105
183 641 232 138 108 74
182 654 231 133 96 64
180 654 234 131 95 65
178 654 237 131 92 63
176 654 240 151 103 78
186 649 229 142 107 74
256 850 275 115 92 65
191 644 229 126 98 68
219 674 252 40 28 28
393 729 238 83 61 49
191 648 228 131 100 68
350 644 303 155 111 74
185 654 229 147 108 74
188 654 227 141 105 69
385 803 254 63 47 36
348 674 219 89 25 29
191 654 227 135 102 69
178 641 242 113 87 61
176 649 245 159 109 86
178 644 250 153 109 81
179 643 251 155 109 82
189 578 260 130 106 80
389 840 210 79 70 61
178 649 250 166 114 87
181 649 255 165 112 86
177 654 245 162 109 86
182 654 254 149 100 75
254 860 223 139 105 76
202 544 275 128 96 79
181 664 230 115 88 56
178 659 236 128 92 62
176 659 240 156 106 81
236 809 189 80 64 56
294 532 272 78 16 28
177 664 235 134 96 66
179 663 233 115 87 55
176 664 240 154 105 80
185 659 229 131 99 64
187 664 227 128 97 63
353 836 252 39 29 28
185 664 228 125 95 61
191 664 227 128 98 65
185 668 228 123 95 63
191 734 255 173 119 93
191 669 227 123 95 63
393 734 245 80 53 42
177 659 245 155 104 80
178 659 249 154 103 79
221 789 189 107 82 63
178 664 249 149 101 76
291 555 129 145 19 43
180 664 251 147 100 73
182 659 254 146 98 73
251 749 279 76 62 57
361 699 230 78 36 40
182 664 254 146 101 74
178 669 249 150 102 75
179 669 252 150 103 74
182 669 255 152 105 77
181 684 225 122 95 61
181 689 225 121 94 61
186 684 223 120 94 64
185 688 223 121 95 63
234 692 282 139 13 43
276 699 183 71 32 36
191 679 224 118 91 62
191 684 222 116 91 62
191 689 222 118 93 64
180 694 224 121 94 61
376 840 231 67 51 45
183 690 222 123 95 63
182 694 222 122 95 62
177 699 225 127 96 63
384 769 285 176 123 89
181 699 221 120 93 60
348 641 228 79 27 33
176 704 225 133 100 67
225 853 254 110 89 68
373 644 286 142 99 72
186 694 221 121 94 63
191 694 221 119 94 63
186 699 220 120 93 62
191 703 218 119 93 62
286 604 171 152 24 44
176 679 235 147 104 74
313 875 194 63 59 61
221 827 239 49 41 41
171 729 230 156 110 80
175 684 240 149 103 75
175 689 235 145 105 74
356 912 241 66 58 58
213 876 247 145 111 82
174 689 240 150 104 77
176 679 245 152 106 77
176 684 245 152 105 78
176 689 230 134 100 67
176 694 230 137 101 69
174 694 235 147 105 76
174 694 240 154 108 79
175 699 230 140 103 71
174 699 233 146 104 76
173 700 239 156 109 81
174 699 241 159 111 83
349 580 298 150 114 78
340 639 212 106 31 39
173 704 235 150 106 78
173 705 232 147 106 78
173 704 239 158 110 82
281 919 195 79 72 74
175 699 245 161 112 85
174 704 245 161 111 85
369 645 267 126 101 73
178 674 232 137 100 67
402 759 245 90 66 46
386 844 221 90 71 60
182 675 227 122 94 61
182 679 226 122 94 61
176 674 235 148 105 74
176 674 240 150 104 77
186 674 226 122 94 61
186 679 224 122 95 64
388 712 250 93 50 47
178 679 250 152 106 78
181 679 255 153 108 82
182 674 255 152 106 78
177 684 250 152 106 79
179 684 252 153 109 81
371 897 279 46 41 38
181 684 255 156 110 85
219 678 252 42 28 28
177 689 250 155 107 83
178 690 227 124 96 63
178 690 253 156 109 87
181 694 255 163 114 90
266 957 299 77 70 68
178 696 253 161 113 87
208 943 250 75 69 67
178 698 253 161 113 88
175 709 225 140 103 72
306 944 235 72 67 69
174 714 224 143 103 75
174 718 224 143 103 74
173 719 226 147 104 75
174 724 223 144 104 72
175 729 219 138 102 71
389 715 260 99 76 54
350 538 131 143 9 38
173 726 222 144 105 73
173 730 221 144 103 74
177 729 216 127 97 64
334 880 213 62 52 52
176 734 215 133 98 67
177 709 221 127 97 61
192 794 201 158 112 75
181 709 219 123 95 62
183 711 217 120 92 60
228 690 278 82 26 37
182 714 217 121 93 60
186 705 217 118 92 62
185 708 218 120 92 60
191 705 217 119 92 62
191 709 217 119 92 62
186 714 216 118 91 60
338 931 312 70 58 48
186 719 215 117 90 59
181 729 214 123 94 60
181 724 216 123 94 60
361 885 223 78 66 66
178 726 217 125 96 63
326 929 250 75 67 68
297 562 282 147 10 45
179 732 213 125 96 62
181 734 211 126 96 62
216 944 285 67 49 46
178 736 212 129 98 62
186 724 214 117 90 59
186 728 213 117 91 58
186 730 212 118 91 59
295 953 275 68 60 56
186 734 210 120 93 61
247 535 268 125 19 43
191 729 211 113 88 57
191 734 210 114 89 59
174 708 229 148 106 77
284 923 201 77 73 75
371 894 290 43 38 36
173 709 239 158 110 81
173 715 227 147 104 73
172 714 235 155 107 78
221 804 250 45 39 37
172 719 235 155 107 78
173 719 240 159 109 81
390 713 173 79 61 48
176 709 250 161 110 85
174 718 242 161 111 84
318 668 198 43 35 35
177 714 249 162 111 85
172 724 230 152 106 78
231 835 214 69 58 57
172 724 235 157 107 80
172 729 235 160 110 81
173 729 240 164 112 85
380 514 250 38 26 30
172 734 230 160 111 82
172 734 235 164 112 84
173 734 240 167 114 87
456 885 245 105 82 71
324 877 207 61 54 54
464 857 258 108 87 67
173 721 243 162 111 87
173 724 243 164 112 87
174 724 245 164 111 87
173 728 243 166 113 87
344 804 297 173 132 104
173 734 243 163 106 83
175 734 245 168 113 88
179 705 252 161 112 87
321 784 289 68 55 50
180 719 252 165 115 90
226 929 300 187 146 126
182 714 254 166 116 90
281 794 270 194 139 119
186 714 256 168 116 91
180 729 251 170 117 92
251 684 284 149 14 46
183 728 253 171 118 93
186 724 256 170 117 92
186 729 255 173 119 93
186 734 254 174 120 95
176 739 215 142 102 72
175 744 215 151 106 78
173 739 221 155 108 80
174 739 218 150 105 77
172 739 225 159 110 82
173 746 217 160 110 83
388 521 264 181 18 49
173 754 217 169 114 84
301 940 286 57 50 46
175 764 215 169 116 85
356 534 286 33 28 30
174 761 218 171 118 85
172 764 225 163 113 82
176 769 215 167 114 83
336 789 174 94 71 50
173 769 221 161 110 79
183 750 207 135 101 64
192 644 269 164 118 90
187 745 207 126 97 62
313 687 193 103 14 26
191 745 207 118 92 60
295 957 265 71 64 61
191 749 206 117 90 57
406 754 250 80 62 51
376 700 260 87 53 43
178 744 212 140 101 70
181 744 209 135 102 65
178 749 211 147 104 73
186 739 210 124 96 63
186 743 208 126 97 63
271 789 186 79 63 55
191 739 209 117 92 61
191 743 208 119 93 61
182 754 207 141 104 68
331 864 201 60 53 53
182 764 206 154 107 74
182 769 206 160 111 76
186 759 204 135 100 63
191 754 204 118 91 56
218 742 268 54 16 28
186 764 204 144 104 67
186 769 204 154 108 72
188 764 202 139 101 64
230 815 193 85 66 58
189 762 203 131 98 57
180 754 209 145 105 71
177 759 211 162 111 82
180 764 209 161 111 78
259 664 282 178 12 56
178 764 212 166 113 82
216 654 255 64 52 52
178 768 212 167 114 83
180 769 209 165 113 80
394 799 230 70 57 46
436 909 271 105 83 68
172 739 230 163 112 85
293 882 262 77 62 52
172 739 235 169 115 86
342 539 129 198 12 40
173 739 240 170 116 89
276 555 129 135 26 44
205 894 265 184 131 114
286 719 184 131 6 32
175 739 245 171 117 89
176 744 245 171 118 90
363 585 267 35 27 31
174 749 242 171 117 91
176 749 245 168 116 89
331 514 100 52 35 39
172 759 230 166 115 85
384 529 223 36 29 28
173 754 239 170 117 89
173 759 239 168 119 87
172 764 230 162 112 82
366 929 304 68 54 43
173 764 235 165 115 84
173 764 239 166 116 86
347 689 298 154 108 85
387 713 184 74 58 47
173 769 235 165 114 84
173 769 239 168 117 87
320 878 206 60 54 54
174 769 241 170 119 89
407 910 248 91 76 67
176 754 245 167 116 88
376 744 195 68 52 42
346 870 251 39 35 33
176 764 245 169 121 91
176 769 245 171 122 93
296 799 276 173 127 107
178 738 248 168 115 91
181 739 250 172 120 94
220 739 271 75 28 37
178 744 248 169 118 91
181 744 250 171 121 94
178 749 248 167 116 90
181 749 250 169 120 92
205 684 259 138 96 78
184 739 252 174 123 97
186 739 254 174 121 95
184 745 252 172 123 95
426 904 255 90 73 70
271 544 121 187 14 43
186 744 253 172 122 94
191 739 254 172 120 93
188 749 253 172 124 95
191 749 254 172 124 96
178 752 248 166 116 89
281 564 136 121 26 42
331 849 249 39 35 34
181 754 250 168 120 92
347 574 296 146 114 81
181 759 250 169 121 92
178 760 248 166 119 88
178 764 248 168 121 91
173 788 235 177 124 94
181 769 250 173 127 97
187 754 253 174 126 96
184 759 252 174 126 97
351 880 219 67 59 58
187 759 253 176 130 99
196 714 216 117 91 62
191 754 254 173 126 97
301 549 126 217 15 45
191 759 254 174 128 98
191 764 254 173 127 98
251 644 192 177 2 41
388 551 189 73 23 37
256 644 190 174 2 39
256 654 191 130 7 30
251 659 192 74 28 34
256 659 190 90 17 29
256 664 190 86 29 34
435 855 205 90 79 70
338 926 286 79 65 54
241 694 190 93 22 33
271 889 180 74 65 64
238 695 192 103 16 28
236 699 191 100 20 30
241 699 189 112 15 28
241 704 188 120 16 32
385 842 243 66 53 44
286 889 185 65 59 60
247 674 192 47 32 36
246 679 191 80 26 34
242 684 192 67 28 36
241 689 191 62 29 36
246 684 190 63 31 35
266 953 303 74 66 64
246 689 189 47 34 37
241 884 225 91 73 53
251 674 190 42 34 36
376 534 250 131 18 42
256 674 188 44 36 38
250 684 188 41 34 38
252 685 187 42 36 39
252 689 187 49 35 38
256 684 186 44 36 38
254 682 188 42 36 41
302 654 193 88 24 33
256 689 185 80 31 34
246 694 188 50 33 35
437 906 283 81 63 51
341 904 280 43 39 38
243 705 187 97 24 33
232 525 265 129 28 45
214 697 261 136 17 49
247 699 187 56 33 37
247 695 187 49 33 38
346 849 251 43 38 35
246 704 186 71 33 37
244 702 188 114 24 37
251 694 186 45 34 37
251 699 186 58 35 37
373 815 286 190 128 101
226 649 210 110 17 34
251 704 185 87 33 38
302 899 267 34 32 33
206 884 255 166 120 97
266 889 180 76 66 64
256 704 183 78 28 35
223 643 212 88 23 37
375 715 171 89 63 43
221 644 215 105 20 40
221 649 215 55 31 36
219 649 219 119 16 35
254 867 223 96 75 51
221 654 215 65 32 37
226 755 266 82 67 61
223 654 212 63 33 39
219 654 218 103 27 35
215 664 225 65 40 37
216 669 220 77 31 35
326 634 200 127 16 36
223 660 212 49 33 34
220 664 215 106 21 36
273 780 188 81 63 54
217 659 220 115 8 31
215 659 225 84 35 37
219 662 218 97 20 34
284 640 287 99 31 40
220 669 214 80 30 37
394 809 240 56 45 35
218 670 216 68 28 32
222 669 211 59 27 34
218 665 217 99 18 29
195 648 228 129 99 67
201 644 229 122 87 62
265 710 292 111 26 45
345 664 216 83 26 31
196 649 227 130 98 69
246 719 184 125 10 31
198 646 227 125 94 64
196 654 227 131 97 69
286 944 216 80 73 74
199 652 227 128 92 68
201 654 229 123 90 65
198 655 228 127 94 68
202 649 228 122 87 64
215 619 265 138 88 69
206 649 231 103 74 55
371 898 295 40 35 33
206 654 231 109 79 59
208 655 233 100 72 57
196 664 227 127 96 67
197 659 228 127 94 67
201 659 229 124 92 65
198 663 228 127 95 66
394 842 233 77 67 60
336 842 253 35 30 29
201 666 227 125 94 65
201 669 227 124 95 67
206 664 228 105 78 58
301 554 279 127 9 38
208 657 233 102 73 58
208 666 227 95 71 53
213 644 227 77 56 49
213 644 230 69 48 39
358 618 297 153 112 78
321 789 176 55 46 40
213 649 227 70 55 47
211 644 235 74 50 43
212 644 240 120 80 65
211 649 235 77 57 47
227 788 260 60 51 45
214 644 237 54 41 34
214 644 240 71 48 43
214 650 235 47 39 34
213 652 227 70 53 47
213 654 230 54 44 40
368 579 255 144 16 45
327 931 290 64 55 51
211 654 235 69 53 44
351 849 251 47 41 38
212 654 240 126 104 95
214 650 232 54 43 42
214 654 240 80 68 63
213 644 245 109 63 61
215 644 245 82 43 44
214 649 245 87 67 68
399 814 220 64 54 46
215 644 250 91 42 45
215 644 255 96 47 46
213 649 250 110 86 84
390 754 260 73 55 40
213 650 255 112 80 74
216 649 255 78 51 48
214 654 245 100 92 92
215 654 250 100 94 94
262 946 307 64 60 59
219 642 252 65 27 31
286 624 290 94 29 40
221 644 256 48 22 24
380 774 294 174 120 89
221 649 256 32 24 25
250 970 245 77 73 74
343 649 218 120 20 39
221 654 256 52 23 28
278 831 263 164 127 98
212 659 230 64 45 39
213 660 227 97 68 58
259 584 282 178 15 55
213 659 240 119 106 100
213 664 240 127 118 114
296 709 186 92 29 37
212 668 229 60 45 36
213 667 235 98 89 85
214 668 240 128 120 115
214 664 245 123 119 118
368 576 256 90 20 32
376 894 290 45 40 38
453 886 263 98 81 72
203 884 265 178 127 110
213 659 249 111 107 107
215 659 250 109 107 109
213 659 255 99 86 82
201 774 255 170 130 97
213 665 251 97 96 98
211 664 255 77 59 49
216 669 250 96 74 79
220 660 252 47 23 26
310 942 275 64 55 52
330 837 177 71 64 61
220 669 252 90 21 39
357 650 259 69 51 42
197 683 223 115 89 60
338 658 289 112 69 61
196 689 222 114 88 60
377 694 290 159 111 80
206 684 223 94 72 56
345 679 211 71 39 36
206 686 222 93 72 56
206 689 221 92 70 54
201 699 219 105 81 58
274 927 197 91 86 87
196 705 217 117 90 62
384 715 198 76 56 48
201 704 218 101 78 57
206 694 220 85 66 53
261 739 182 112 21 33
206 704 218 69 57 48
223 680 207 116 41 54
223 685 206 73 35 33
222 689 205 107 15 29
283 920 198 76 71 74
256 972 255 59 55 55
383 744 214 83 68 57
211 674 225 71 52 42
210 679 225 76 54 46
217 674 216 44 34 37
216 679 215 83 29 35
214 678 218 80 29 33
368 541 282 32 28 33
281 968 245 86 82 85
215 684 215 61 32 35
241 779 184 75 60 51
215 689 215 47 32 35
209 684 223 79 62 50
211 689 220 57 41 39
273 845 197 53 43 43
213 685 217 56 35 36
302 571 288 106 5 34
371 704 226 58 38 37
213 690 217 41 33 36
220 674 213 41 36 40
219 678 213 40 37 40
222 674 211 41 35 40
344 927 272 55 44 39
370 834 232 76 64 59
218 684 212 67 33 36
226 828 239 63 52 49
297 872 172 90 75 71
219 688 208 98 24 34
217 704 205 111 14 32
291 804 185 54 48 47
357 688 235 42 31 33
218 695 207 119 5 33
221 694 205 113 16 31
222 699 201 97 25 33
221 704 200 109 16 30
220 699 204 104 17 29
346 926 275 54 43 36
219 703 203 114 15 30
212 694 215 55 31 34
210 704 215 93 22 33
212 704 211 108 15 31
213 700 212 97 24 35
326 674 290 134 5 41
209 698 218 55 46 42
208 700 217 67 50 43
196 674 226 122 93 63
311 829 260 112 87 72
201 679 225 119 91 63
206 674 227 104 79 58
291 533 272 52 22 27
326 574 300 170 121 96
206 679 225 99 75 57
227 765 266 70 59 53
357 689 240 36 31 32
209 676 228 85 67 52
213 678 252 37 30 27
216 679 251 35 26 27
211 689 255 54 36 29
281 958 285 69 61 58
215 683 252 40 22 25
216 689 255 71 24 33
220 679 255 44 26 27
218 681 253 45 23 28
231 649 205 164 2 41
256 604 280 93 26 40
228 648 207 149 0 36
231 654 205 124 4 31
238 643 197 171 3 42
241 644 196 177 3 42
241 649 196 130 2 31
374 553 273 69 24 32
233 648 202 185 7 51
236 654 201 148 2 36
240 654 199 170 3 44
234 654 203 129 1 29
484 857 236 129 100 66
225 644 210 151 9 45
231 649 265 143 13 45
224 646 213 59 30 28
228 659 207 78 34 37
231 659 205 90 21 32
231 664 204 57 33 36
242 686 283 144 14 46
230 669 204 70 34 39
240 659 199 119 6 30
236 664 200 81 25 31
238 546 268 104 27 40
236 659 201 110 12 30
234 658 203 121 12 31
233 661 202 76 29 33
349 542 132 188 13 43
286 709 184 123 13 33
239 667 198 73 26 34
306 834 255 151 115 94
238 670 197 53 26 30
225 664 209 89 28 35
316 609 286 69 22 33
246 644 194 179 3 42
248 642 192 171 1 38
353 631 259 95 38 36
246 649 195 139 4 33
246 654 195 105 13 32
250 654 193 109 10 28
252 654 192 112 11 30
242 659 197 117 9 32
322 544 304 183 133 108
246 659 195 130 20 41
246 664 194 61 28 34
246 669 194 68 30 35
301 824 260 143 112 92
249 667 193 67 36 39
226 674 206 73 33 37
363 545 148 147 22 44
306 649 194 83 30 35
389 751 265 130 95 63
232 674 201 77 29 34
229 678 203 49 34 37
306 949 245 86 82 84
231 679 200 50 34 37
226 684 204 55 34 37
201 754 254 162 116 90
228 685 202 48 34 39
227 689 201 80 26 32
235 674 199 81 28 34
234 678 198 50 33 36
236 559 269 111 19 39
236 679 196 58 34 37
241 674 194 103 17 29
308 604 287 123 24 44
240 679 194 69 28 33
326 905 265 31 30 33
233 684 197 100 25 34
236 684 195 69 29 34
236 689 194 119 12 29
232 690 197 117 10 27
240 684 193 54 29 38
239 688 193 114 25 39
224 678 208 102 29 39
225 699 199 63 31 36
281 629 187 111 25 38
230 704 194 90 26 31
232 704 192 86 26 31
418 897 208 86 86 86
235 694 194 106 15 27
238 691 192 116 18 36
234 698 193 91 19 27
243 679 192 123 14 31
222 724 192 61 29 36
295 958 240 75 71 75
221 729 191 45 33 38
221 734 190 104 19 29
217 744 191 123 93 59
223 745 187 97 38 34
220 749 189 114 87 54
222 749 187 101 75 51
212 754 191 126 96 59
276 814 196 69 56 49
281 859 176 73 60 52
211 759 191 129 97 60
216 754 189 120 92 57
340 764 292 142 95 70
426 898 255 82 67 57
216 759 188 128 97 59
262 894 296 147 108 84
302 950 270 70 61 58
211 764 190 134 99 60
219 754 188 115 89 57
221 759 186 124 96 61
222 754 186 111 87 57
314 866 157 80 68 60
351 824 291 182 125 101
221 769 187 140 103 73
233 920 202 71 64 64
231 709 191 88 25 30
224 940 297 78 62 56
227 714 191 112 16 30
231 714 190 107 17 29
382 744 290 176 121 90
381 897 275 57 50 46
231 719 189 121 10 28
236 709 189 91 23 30
204 909 270 109 92 80
240 708 188 107 19 28
236 715 187 118 12 27
293 732 303 190 20 61
235 713 188 111 15 30
382 774 211 94 70 51
236 719 186 107 17 31
226 724 189 115 16 31
231 724 187 125 8 30
229 724 188 125 8 31
231 729 186 129 8 33
228 734 187 128 10 33
241 724 184 94 25 33
241 729 184 123 13 33
262 908 297 124 98 74
247 594 278 173 20 56
236 734 184 127 10 32
241 734 184 110 16 32
251 709 184 65 34 36
250 522 262 39 23 27
251 719 183 130 4 32
256 719 184 130 7 31
388 889 236 77 68 63
256 714 184 127 11 32
246 729 183 132 7 32
246 734 183 105 16 33
251 724 183 132 5 32
336 829 175 66 56 52
251 729 183 133 5 33
256 724 183 122 14 33
335 913 240 75 66 65
256 729 183 111 18 32
226 744 186 90 22 29
226 749 184 83 27 34
241 739 183 39 35 40
236 749 183 111 17 29
377 669 280 157 110 79
241 749 182 117 13 30
296 714 309 66 27 37
226 754 184 68 47 41
232 754 182 58 36 39
270 786 272 91 75 62
232 757 182 63 53 49
353 616 228 40 27 25
226 764 186 77 65 55
359 572 172 64 24 30
226 769 186 74 61 54
236 754 181 45 36 41
236 759 182 70 57 49
357 520 287 164 13 51
234 760 183 73 57 48
242 746 182 124 14 33
247 745 182 97 21 34
246 749 182 124 12 30
244 747 183 125 16 28
250 738 183 66 29 37
261 614 281 72 26 32
356 909 265 64 56 51
251 740 182 67 32 37
382 704 215 64 43 35
367 691 191 99 71 45
251 744 182 92 24 35
256 739 182 100 27 35
256 744 182 97 29 36
331 683 291 127 22 42
247 878 302 151 120 91
251 749 182 129 11 30
246 759 182 72 50 44
247 769 182 73 58 48
311 684 300 126 15 40
256 754 182 109 24 36
256 759 182 74 50 45
286 915 299 39 37 37
251 764 182 69 55 47
251 769 182 70 57 47
256 764 182 67 54 46
256 769 182 68 56 48
199 705 217 110 84 58
391 902 254 69 57 50
184 609 260 159 118 89
196 719 216 114 88 59
201 719 216 98 75 55
202 708 218 90 70 54
206 714 215 83 50 41
208 715 212 93 25 33
367 824 230 70 58 51
207 734 205 97 78 56
345 573 161 193 19 48
197 728 213 110 85 57
201 729 214 94 72 51
201 724 215 97 75 55
196 730 212 110 85 57
201 734 213 85 68 48
201 736 212 84 67 47
359 618 250 169 19 50
207 724 210 59 36 34
206 729 210 55 41 36
206 734 210 69 55 40
360 644 261 96 70 51
204 733 213 59 50 41
215 709 205 109 14 30
206 724 260 135 52 51
211 719 205 83 29 33
188 659 264 155 112 85
275 614 292 81 27 38
214 714 204 111 13 32
216 714 200 113 10 30
217 710 201 112 12 29
220 708 199 110 14 28
223 706 197 84 40 42
218 706 202 113 12 34
221 714 196 111 17 32
370 908 260 71 62 55
218 720 197 97 23 34
223 720 192 99 31 38
211 709 210 93 21 31
208 711 212 96 26 31
231 724 286 183 18 59
214 707 208 103 13 37
210 714 210 69 27 31
286 634 288 88 36 45
209 719 209 82 30 33
328 533 302 165 126 102
215 724 199 42 34 39
212 725 201 41 33 38
265 859 210 56 48 47
294 708 307 30 29 35
216 729 195 43 33 37
310 859 187 63 58 60
209 729 204 58 43 41
208 726 207 42 34 37
211 734 200 110 88 65
215 734 194 97 52 43
213 735 197 107 84 60
220 724 194 40 34 40
219 728 193 45 35 41
209 722 208 66 30 30
196 734 256 170 117 91
206 734 255 121 55 51
209 735 256 125 43 47
236 783 263 73 61 56
194 746 207 111 86 57
208 740 201 113 91 65
311 834 255 132 104 85
207 744 200 115 91 64
205 744 204 99 80 57
322 787 288 70 56 48
205 749 199 117 92 62
200 747 208 76 62 47
204 739 209 70 57 43
216 724 270 176 15 56
204 742 208 76 59 40
201 759 199 115 88 56
376 815 215 64 54 49
195 769 198 136 101 60
236 934 305 51 45 45
199 763 198 121 93 57
201 769 195 136 100 61
322 935 265 73 66 67
362 939 290 98 86 80
202 760 196 123 93 57
206 754 195 124 95 59
204 753 198 119 92 59
336 654 209 107 16 29
206 759 194 127 96 58
208 764 192 131 98 59
205 769 193 137 99 61
185 824 230 224 154 125
311 854 180 66 58 56
292 798 274 186 135 113
208 769 192 138 100 61
326 577 157 181 11 47
210 739 199 118 94 65
212 739 196 121 95 64
361 901 250 40 35 34
209 743 198 119 93 62
209 524 287 143 97 88
215 744 193 124 95 61
208 736 202 114 92 68
208 746 197 119 93 64
277 686 293 49 24 28
209 757 193 128 97 60
208 760 192 129 97 59
196 744 254 171 120 94
201 739 254 157 107 86
201 744 254 155 106 85
251 879 300 155 120 93
196 749 254 170 120 94
