ply
format ascii 1.0
comment Created by Open3D
element vertex 2227
property double x
property double y
property double z
property uchar red
property uchar green
property uchar blue
end_header
386 589 268 72 27 32
160 468 248 62 41 36
334 463 214 62 32 35
296 204 255 116 93 66
186 743 282 149 104 73
341 648 310 78 23 34
430 460 232 50 36 38
155 478 243 142 104 83
201 423 318 125 11 39
282 537 358 179 13 57
309 603 334 42 29 31
158 488 228 157 109 83
328 405 199 128 50 36
156 486 230 151 106 79
193 545 236 110 28 37
258 493 316 31 24 26
306 178 245 120 92 57
199 633 234 156 110 76
439 813 323 114 91 63
157 489 244 159 113 93
429 448 288 78 24 32
341 69 240 103 42 43
332 328 303 126 100 69
160 483 253 147 105 85
157 490 240 159 113 89
157 493 243 157 111 89
385 478 213 74 27 34
158 498 233 153 109 81
350 769 183 74 58 47
191 423 288 60 31 35
204 658 239 151 103 73
215 615 257 57 46 48
364 428 233 88 31 29
160 503 229 159 111 84
368 568 249 123 7 30
158 503 233 158 112 84
158 503 238 150 107 81
329 98 252 110 87 63
202 397 274 126 98 69
309 658 233 117 15 29
275 358 278 74 59 47
176 617 245 170 117 85
305 824 228 46 45 47
160 508 229 157 113 84
393 573 272 61 29 31
214 318 263 115 91 63
284 760 320 62 52 46
293 832 358 48 43 39
159 513 233 154 111 83
390 523 303 186 5 60
158 513 238 149 107 81
335 213 288 121 97 70
347 553 224 138 0 37
229 383 312 118 93 66
160 498 248 157 113 90
396 432 205 111 17 28
194 422 198 107 17 32
158 503 243 155 111 86
371 507 236 71 25 38
191 498 311 75 31 36
212 613 239 123 80 59
335 435 348 94 28 35
160 503 247 160 116 93
298 23 268 145 21 36
159 508 243 155 110 86
284 926 295 82 75 76
418 482 279 78 23 32
289 767 316 61 51 46
169 453 217 106 72 56
301 517 330 128 11 37
268 473 311 39 25 27
174 458 212 133 88 74
210 562 229 131 22 41
174 463 212 125 83 70
340 793 184 78 61 52
341 840 293 37 33 34
380 500 282 42 24 28
368 815 285 96 69 56
326 96 195 126 61 52
169 478 213 114 85 59
176 469 210 97 64 50
349 547 320 50 24 28
236 485 330 92 16 28
308 476 329 107 2 33
198 799 262 184 121 90
343 88 233 109 35 42
478 890 265 91 82 73
350 413 283 103 84 62
175 473 210 130 93 71
264 854 371 53 44 42
348 850 304 42 36 37
196 596 291 102 46 57
395 473 318 103 4 32
205 501 175 62 36 44
175 478 210 151 103 84
337 174 271 118 95 69
184 453 208 52 30 30
309 818 368 44 38 37
294 503 186 166 2 36
239 353 303 114 90 62
179 458 209 72 38 34
184 463 204 123 79 65
274 67 276 117 47 51
308 822 232 51 47 50
206 374 259 115 93 68
182 461 206 92 71 46
260 48 277 117 52 57
219 419 198 87 71 58
402 423 313 50 16 25
434 419 253 80 24 30
280 438 166 145 3 34
348 438 338 120 18 41
223 574 227 181 11 44
304 618 334 150 24 52
188 453 203 101 65 57
190 463 199 91 16 34
391 515 241 46 28 33
381 560 251 61 27 32
339 14 244 97 79 67
244 878 408 45 42 43
235 923 298 82 72 68
189 473 198 94 17 30
364 658 248 89 72 66
181 449 210 99 62 57
216 438 331 90 19 34
179 468 208 123 83 66
374 463 268 40 23 25
324 203 293 114 93 71
317 408 201 134 20 33
254 533 190 112 17 34
179 473 208 148 98 87
357 852 308 52 44 40
369 432 228 72 36 34
183 474 206 95 58 60
219 793 309 143 115 90
287 886 401 53 49 49
329 138 264 110 89 66
384 798 283 116 91 71
339 407 203 96 48 31
340 768 213 48 44 47
190 468 198 105 12 34
315 469 328 101 12 34
204 488 168 122 23 42
188 478 198 49 29 31
321 98 204 120 10 37
215 278 273 123 94 68
399 788 205 83 64 52
185 478 204 54 29 29
340 614 236 122 23 40
220 373 302 118 94 68
361 838 320 66 55 49
332 501 311 45 20 25
279 522 190 146 2 34
259 761 321 69 57 52
187 478 202 42 31 31
340 788 184 78 61 52
269 823 308 67 55 42
342 837 293 36 33 33
189 653 249 131 89 54
254 831 250 202 146 122
277 51 281 115 87 69
279 23 257 102 30 24
338 488 214 126 3 28
176 464 210 62 37 41
334 29 229 120 74 51
302 219 251 127 94 56
213 673 283 72 46 36
309 103 233 127 68 61
164 453 239 49 34 29
169 453 238 54 35 31
260 163 268 112 88 61
175 450 232 72 28 33
274 683 234 79 26 30
339 821 300 49 41 39
269 582 214 69 35 42
324 493 318 42 26 27
252 504 185 134 18 22
246 829 318 155 118 91
281 348 317 122 89 69
170 453 234 54 35 30
422 487 244 169 12 40
176 450 238 75 20 30
174 452 238 67 30 32
332 174 276 115 94 70
175 479 262 110 6 34
291 503 353 77 23 32
264 22 297 129 26 50
345 24 274 123 63 59
170 455 242 59 34 34
164 453 253 127 96 82
203 423 248 66 52 41
368 716 226 108 86 62
168 454 253 80 54 40
290 413 178 89 39 40
224 824 288 53 45 46
348 58 218 106 33 40
169 455 249 75 46 38
214 433 174 48 40 40
347 82 213 119 52 49
249 952 338 79 73 74
162 461 240 32 24 26
348 473 213 47 34 38
269 14 302 114 74 62
163 462 243 46 30 30
283 513 353 47 28 30
166 459 242 46 29 28
168 457 243 61 29 33
312 178 241 130 98 58
267 118 258 119 85 62
162 463 253 131 93 73
316 145 266 100 81 60
400 420 210 124 18 23
174 453 243 56 38 32
361 469 300 97 13 30
176 483 276 118 12 36
239 428 167 154 6 36
174 457 249 55 39 30
469 459 260 141 102 82
178 509 247 95 13 33
173 459 252 52 35 28
384 468 279 65 22 29
290 353 327 130 94 76
263 198 244 123 96 63
161 465 247 61 33 31
384 433 208 65 31 36
161 465 251 105 64 47
332 124 256 114 91 66
444 803 339 74 57 41
344 93 223 140 46 58
369 613 263 85 25 34
345 824 202 109 81 59
373 483 259 40 21 24
161 468 252 102 66 51
304 472 392 79 25 32
459 474 253 134 78 52
404 433 183 121 20 36
222 732 305 35 33 33
234 388 239 85 75 65
162 468 254 135 96 78
405 783 243 74 53 41
438 488 288 81 41 39
390 841 295 62 48 41
161 473 252 104 72 54
275 514 369 52 27 29
162 473 254 134 99 79
289 618 231 124 25 38
346 398 298 114 89 61
244 414 193 87 72 58
162 478 255 133 97 79
271 84 236 88 55 37
266 288 268 79 66 54
177 451 243 42 32 31
339 758 219 55 36 40
204 603 298 152 13 48
200 502 179 82 35 41
354 853 313 53 45 40
280 319 264 111 88 73
179 453 247 37 28 28
318 78 203 132 6 41
339 463 213 63 32 36
314 383 244 101 87 73
396 529 275 98 22 36
461 470 259 116 73 47
184 449 246 91 8 32
302 481 366 56 17 24
176 483 273 97 13 33
321 895 360 61 57 56
179 461 250 41 28 29
257 829 294 158 108 83
259 818 333 121 99 79
189 453 248 78 15 29
318 818 208 66 56 50
217 454 175 105 9 23
209 448 322 59 29 33
244 658 253 77 20 29
349 408 283 104 85 64
185 460 252 62 22 30
262 688 236 114 20 36
244 818 298 48 40 41
187 461 255 56 16 28
328 152 230 143 103 67
217 343 285 123 96 67
210 403 303 116 92 67
396 663 236 126 91 57
279 886 233 104 91 86
179 468 255 58 21 30
335 148 264 115 93 67
206 452 171 58 26 30
388 453 283 78 20 27
182 466 255 35 26 29
166 482 215 147 105 81
345 434 328 100 22 36
164 483 218 162 111 91
162 484 221 155 110 85
309 813 401 60 50 43
162 488 222 156 107 86
167 488 216 165 113 94
303 502 343 137 20 49
335 228 293 121 96 67
161 493 224 151 107 82
328 444 324 81 50 37
168 493 217 165 116 94
392 726 216 63 50 37
385 448 273 69 23 27
319 728 222 80 32 34
173 484 211 156 102 87
366 468 293 60 20 27
249 562 347 189 14 59
215 522 185 188 17 48
395 802 350 77 61 48
187 509 207 53 29 39
367 493 219 106 19 36
179 513 258 112 7 37
380 528 234 78 31 38
174 488 212 180 122 109
324 638 236 74 30 34
459 828 327 113 93 75
199 414 293 71 60 50
174 495 216 185 132 115
219 513 179 85 30 34
164 498 223 155 111 86
287 58 258 110 53 51
415 420 268 76 23 30
204 478 163 159 0 34
334 503 309 72 24 32
418 421 243 62 27 26
396 585 245 112 88 61
166 497 220 155 110 86
311 63 225 107 31 35
240 572 214 161 35 55
316 272 320 117 92 63
165 503 223 153 110 84
294 268 273 102 79 56
169 503 219 183 128 108
338 805 394 64 51 42
229 668 268 68 34 36
186 440 270 58 25 28
285 578 335 162 22 53
229 607 244 170 0 40
327 456 320 93 57 45
167 504 221 167 119 95
419 428 198 115 26 26
169 508 222 176 131 104
233 867 369 132 107 84
354 698 323 127 10 42
319 368 327 136 96 69
174 498 217 186 133 117
252 831 340 102 70 59
326 293 314 131 99 67
174 505 221 193 136 119
298 10 293 130 46 54
332 268 302 128 97 63
184 508 213 141 13 38
353 478 208 120 19 33
219 503 174 130 19 38
237 435 171 131 0 40
196 513 316 44 29 31
174 508 222 179 126 110
174 513 223 160 111 93
313 863 392 51 47 46
276 99 248 129 29 42
186 483 198 35 31 34
306 410 211 116 56 24
227 301 285 123 94 67
399 718 238 138 96 66
195 553 307 167 4 50
185 488 198 86 24 35
199 568 308 163 7 49
330 629 320 118 35 50
185 483 203 59 29 35
332 323 293 120 94 64
185 488 203 66 28 35
186 493 194 48 30 34
186 493 198 62 30 37
222 416 213 84 70 56
365 428 228 80 28 28
185 493 203 101 23 36
217 273 275 121 92 66
410 488 308 92 24 38
289 808 238 78 62 55
178 485 211 130 88 81
234 419 178 87 71 56
409 533 263 114 94 87
284 528 191 152 1 32
179 488 212 113 78 74
306 380 245 94 82 70
336 143 236 124 98 68
249 423 162 139 29 31
179 493 214 126 81 75
271 73 223 143 30 44
284 893 256 84 75 73
340 415 180 113 64 41
186 498 199 79 28 34
213 421 230 64 34 34
224 533 329 70 25 33
343 243 273 125 97 64
273 83 272 118 37 48
188 503 198 162 2 43
269 758 322 68 56 51
264 198 263 112 88 65
185 498 203 126 11 37
264 638 331 147 21 50
341 198 253 135 104 66
249 808 303 61 52 48
185 498 208 132 3 35
187 504 202 143 3 33
249 658 324 146 18 48
264 416 178 85 70 52
199 713 243 134 97 64
336 367 272 104 87 69
424 473 238 170 13 44
185 503 208 103 19 35
340 178 253 122 98 71
399 548 272 74 26 35
213 608 243 116 57 48
379 693 229 95 78 60
294 493 182 157 12 39
374 805 342 49 39 30
191 511 199 158 7 46
408 420 214 97 28 24
263 323 244 89 77 65
360 739 214 61 51 47
445 822 324 122 103 83
188 508 203 142 11 41
249 608 332 64 29 36
254 405 223 94 79 64
186 506 205 107 18 34
359 828 223 87 68 58
194 513 198 162 11 45
369 708 232 104 83 60
245 432 165 162 0 34
304 783 224 74 60 53
338 408 317 131 98 67
338 183 273 121 97 71
384 678 266 130 94 68
323 453 373 80 22 33
239 372 310 122 95 67
337 611 326 119 49 64
317 467 342 77 28 38
277 430 300 37 31 26
331 368 320 126 96 66
190 513 203 132 18 42
198 439 169 49 47 45
189 513 208 97 23 38
181 497 215 99 39 41
179 498 217 153 96 91
365 433 238 76 39 34
204 498 173 74 35 38
274 73 233 120 54 52
312 412 215 109 70 41
366 734 304 159 10 51
182 500 216 101 20 31
366 447 263 66 24 26
334 48 259 125 75 66
368 808 290 129 99 80
389 713 269 156 110 80
274 829 247 179 129 104
325 863 243 86 73 67
341 103 233 130 70 61
269 398 248 76 62 47
178 505 221 175 121 111
345 827 321 59 49 44
179 508 222 159 97 91
361 609 300 116 21 43
234 918 378 56 53 53
314 168 237 129 97 57
207 368 273 121 93 66
356 613 247 44 36 40
370 713 283 148 1 45
324 813 296 111 83 68
181 506 220 119 36 42
399 785 221 84 63 53
305 488 378 141 16 46
244 433 167 158 0 35
320 232 305 113 92 68
325 64 190 106 42 27
239 908 393 59 56 56
183 508 218 136 16 37
243 708 242 68 28 33
222 909 379 49 46 48
179 513 224 165 105 94
442 486 278 153 111 101
251 501 186 141 0 38
339 873 264 73 60 58
185 513 218 156 8 40
360 593 247 79 36 41
259 608 332 119 28 46
190 438 263 95 21 33
254 308 297 96 73 51
188 514 213 144 18 48
162 483 255 154 108 93
164 493 254 156 113 98
169 508 252 129 78 73
279 909 268 82 74 72
313 468 383 114 24 43
379 488 228 126 13 31
214 488 169 84 36 37
384 800 350 59 49 41
167 495 255 147 106 95
345 459 323 101 24 40
162 499 226 150 108 83
319 433 322 109 78 60
162 503 226 155 110 85
442 424 261 118 14 42
270 617 235 141 19 41
304 738 328 60 49 46
163 513 227 143 108 80
161 513 230 151 110 83
289 728 334 165 14 55
223 398 241 93 80 66
332 116 220 133 96 65
364 715 225 95 77 57
274 13 263 96 84 74
374 726 192 96 70 51
351 416 243 75 50 45
187 733 251 141 101 70
279 463 308 38 26 28
166 513 225 146 112 83
265 413 305 86 59 42
377 811 326 73 60 52
354 417 218 73 26 31
323 537 200 99 30 38
362 723 317 91 32 42
367 498 219 88 26 36
267 208 258 115 93 69
319 405 213 104 66 37
185 488 302 83 19 34
161 496 251 157 113 92
184 543 288 57 25 33
266 119 252 125 91 64
216 415 316 85 69 53
391 742 270 169 117 87
372 491 230 122 18 36
261 26 291 139 21 53
328 476 327 73 25 34
359 488 204 115 23 38
236 657 260 108 23 42
268 556 352 179 12 58
162 499 250 159 115 93
335 750 320 67 55 50
208 438 324 53 31 32
327 242 250 142 100 65
368 648 238 110 88 64
303 882 249 82 73 72
374 468 224 130 8 33
329 808 297 69 56 50
259 183 239 131 103 69
165 503 252 166 119 103
361 463 202 70 30 35
168 498 255 150 106 96
229 493 173 152 1 34
263 605 231 56 32 36
169 503 254 144 90 85
160 513 247 142 102 78
291 261 270 108 82 58
201 557 235 135 30 45
163 508 249 150 109 87
308 508 326 63 25 35
319 303 274 104 83 60
200 603 273 62 34 37
366 800 370 58 45 30
338 50 210 122 101 72
248 649 251 163 1 39
292 257 299 110 88 65
227 293 285 122 95 68
381 839 330 64 52 46
328 442 348 86 9 28
164 513 249 143 104 82
319 378 327 138 99 71
344 743 224 39 34 38
312 472 348 116 7 37
260 458 315 27 24 23
169 513 250 111 66 59
254 413 314 96 73 50
219 798 248 118 87 72
211 622 303 37 29 33
235 498 177 144 2 34
169 511 251 116 69 63
376 609 274 61 27 33
259 883 288 84 70 61
191 439 260 90 13 28
301 505 360 178 4 56
172 504 255 118 38 46
174 508 253 104 30 39
174 513 249 70 35 37
229 298 287 123 93 67
354 848 303 44 37 34
249 402 236 94 81 67
262 143 245 123 94 62
178 513 248 68 19 29
296 376 326 135 98 80
311 143 239 117 90 58
287 308 329 132 95 73
322 32 236 52 40 28
239 298 294 126 92 66
178 510 245 87 23 34
369 498 273 30 22 23
345 464 314 58 22 30
178 512 245 78 24 31
341 238 262 135 102 64
431 444 264 150 17 46
184 783 293 167 119 90
330 893 323 57 51 48
214 458 172 91 20 26
281 393 302 118 82 66
366 478 217 97 19 35
177 510 253 121 8 36
379 503 228 77 30 37
261 126 246 128 95 63
199 423 193 98 34 37
309 12 288 127 38 54
207 392 289 120 95 66
194 431 177 75 24 40
249 488 185 58 34 37
309 403 324 143 104 79
238 834 273 61 55 57
194 428 183 86 28 38
263 158 258 112 87 60
199 431 177 63 31 49
354 783 179 88 67 57
467 472 260 183 132 110
274 13 303 127 88 73
379 798 353 59 49 41
272 418 302 50 38 27
194 426 187 91 33 36
289 643 331 164 18 54
340 93 198 154 19 47
238 782 316 79 64 56
384 822 317 80 65 58
194 425 189 95 31 35
194 424 193 104 24 34
229 684 263 50 37 43
204 424 188 94 53 44
297 267 315 109 89 68
309 798 398 68 54 39
459 873 269 94 78 65
204 422 193 95 51 45
249 743 332 70 29 36
335 422 193 101 27 37
224 548 203 170 15 48
320 139 266 107 86 62
383 769 169 91 66 50
209 423 188 91 61 51
307 157 253 101 82 60
275 895 400 52 49 49
260 847 269 183 125 98
389 424 228 82 29 27
342 208 272 117 94 67
343 409 203 78 43 27
256 278 285 69 56 43
295 237 260 123 93 60
209 422 193 92 61 51
265 844 366 119 89 74
376 505 287 50 25 26
329 48 261 119 37 47
341 880 287 71 59 53
367 468 288 48 21 27
204 427 183 89 48 42
401 570 249 106 82 54
337 276 287 128 92 63
210 429 180 84 47 43
409 518 252 128 20 38
224 288 282 118 93 67
234 348 299 110 88 63
392 436 260 60 21 25
209 433 178 72 29 41
238 887 398 39 37 38
317 308 326 127 92 64
209 425 184 88 60 50
350 23 258 134 25 49
337 804 385 50 39 37
329 859 243 88 72 66
193 439 165 51 45 48
194 435 170 80 46 33
422 463 307 49 26 28
192 448 299 131 0 39
320 820 338 57 48 42
334 778 308 56 46 42
329 138 227 145 106 69
199 434 173 90 40 37
237 513 326 71 11 24
229 458 336 65 29 36
159 523 243 158 112 89
293 303 335 119 89 66
333 811 352 43 36 37
200 438 172 79 33 39
334 53 257 125 22 47
358 435 287 99 82 65
194 443 164 51 41 44
359 704 240 61 32 34
343 518 302 85 2 27
234 408 228 90 76 62
166 556 235 164 111 82
196 442 166 46 41 44
243 328 300 118 88 62
244 398 236 93 81 68
355 663 252 64 35 32
194 448 162 71 31 35
226 699 306 74 29 37
337 193 277 119 96 70
362 537 320 53 20 25
371 849 303 67 57 49
199 443 168 55 41 42
402 806 286 98 80 67
400 688 248 156 107 73
198 448 164 46 39 39
200 447 167 48 39 41
211 258 263 120 93 64
279 803 237 72 58 53
200 442 171 52 40 39
354 813 195 87 67 55
219 283 278 117 92 66
214 788 244 176 119 86
203 434 175 98 28 30
255 391 241 95 80 65
324 233 304 114 91 66
404 608 268 170 117 92
209 438 175 129 11 25
417 772 223 88 65 43
204 443 173 51 38 40
213 421 330 90 34 37
336 674 236 97 22 26
202 445 170 42 39 47
324 268 262 140 97 67
216 429 174 71 41 41
349 18 268 116 37 48
254 566 205 164 28 55
185 648 266 157 116 92
241 946 330 81 75 75
305 407 222 98 84 64
279 423 302 59 46 34
359 829 352 57 47 40
185 473 298 40 30 32
339 12 263 116 45 56
345 402 263 101 87 72
224 424 173 88 73 55
220 425 174 86 76 59
315 468 343 87 23 35
203 438 319 133 14 46
219 433 172 58 36 40
312 284 326 127 97 63
236 284 291 110 86 61
422 473 283 84 64 58
304 393 234 99 85 71
258 293 244 105 88 69
324 473 208 82 30 32
223 427 171 102 47 50
239 408 320 120 94 67
441 434 227 130 23 45
224 428 170 96 33 43
197 423 309 46 30 32
246 628 326 105 24 43
267 198 256 118 95 68
225 431 170 159 30 56
298 277 324 101 84 65
212 458 325 95 29 40
279 793 235 72 58 52
241 302 296 131 92 70
214 424 183 86 69 56
279 508 378 58 27 30
338 153 248 117 93 67
214 428 178 72 49 43
312 136 255 102 80 56
212 426 181 80 65 57
324 738 220 96 29 34
274 383 268 68 57 46
219 424 178 85 71 55
322 887 362 46 42 41
406 441 180 87 38 36
207 408 251 102 83 62
328 453 323 72 39 34
219 422 183 86 72 58
281 314 312 111 83 58
385 425 227 83 27 29
290 11 267 107 73 55
224 422 178 93 76 59
234 907 392 59 55 55
223 421 182 90 74 58
219 421 188 87 72 59
195 468 312 135 4 40
230 906 392 63 59 59
356 677 299 110 18 38
350 436 175 125 32 43
219 420 193 87 72 59
321 474 360 139 20 47
220 420 189 87 74 60
403 557 256 96 66 44
325 358 262 95 84 74
224 420 188 88 75 61
344 694 326 128 10 39
224 419 193 87 74 60
368 653 254 57 38 28
222 421 186 91 75 59
214 438 175 128 12 33
321 293 320 122 91 60
292 396 246 93 79 65
264 428 161 154 5 35
192 433 294 83 24 36
213 443 175 129 1 26
190 433 288 64 30 36
239 597 234 162 11 42
294 338 264 84 72 60
194 658 247 131 87 54
224 438 174 129 11 35
189 493 308 126 12 40
214 443 176 131 0 27
239 804 305 56 48 44
185 448 278 119 5 37
303 493 378 173 9 54
301 183 250 114 90 60
264 448 313 30 24 24
323 388 253 104 90 74
219 443 176 140 0 32
274 463 175 52 35 41
349 18 248 118 61 59
185 648 250 141 96 62
229 473 177 121 14 24
232 760 320 104 87 74
224 448 177 127 9 35
400 458 322 75 17 29
234 415 198 86 73 60
382 537 303 140 20 51
257 73 270 119 29 47
264 83 273 103 63 54
348 826 205 111 84 61
215 709 291 60 33 30
241 415 190 88 72 57
442 436 238 158 18 45
249 415 185 90 74 57
294 658 235 65 34 36
327 896 308 59 53 52
249 415 188 89 74 58
249 383 312 128 96 67
398 473 298 68 17 29
261 189 241 127 98 65
230 424 170 92 66 40
349 718 229 41 32 36
325 775 310 58 47 43
231 420 175 87 70 58
421 475 289 108 18 44
229 432 170 72 40 43
258 24 289 122 54 60
292 385 320 129 94 78
310 483 192 111 9 28
239 422 168 97 62 44
407 788 217 83 62 52
234 420 174 90 73 55
269 877 268 57 51 52
281 386 306 121 85 67
249 393 314 125 93 68
252 512 185 73 38 35
254 618 328 55 28 31
343 383 298 111 89 64
242 307 295 125 91 65
353 811 336 52 44 40
398 683 239 131 95 64
264 328 297 66 49 30
344 814 379 55 45 40
234 421 172 89 70 50
234 416 324 97 78 59
297 486 325 108 11 34
239 419 173 89 73 57
240 420 170 90 75 57
240 427 165 154 2 34
229 419 183 83 70 58
371 588 294 86 29 40
264 405 219 85 72 58
375 748 279 124 83 61
266 367 257 78 68 57
228 421 177 86 69 55
378 513 232 53 33 38
407 789 213 87 65 54
354 798 363 58 48 42
334 43 262 128 20 48
304 678 330 119 23 43
230 420 178 83 69 56
399 773 263 161 112 78
239 418 178 89 72 57
291 525 335 144 14 42
193 443 253 87 13 30
225 903 388 44 42 43
344 557 324 56 23 28
270 653 331 166 15 52
403 427 288 51 19 23
239 417 183 89 73 58
234 417 188 85 71 57
296 945 336 84 77 77
342 238 283 124 98 67
234 416 193 85 72 59
314 18 248 96 38 35
229 378 309 118 94 67
273 856 374 59 51 45
404 428 273 81 19 29
222 901 373 51 45 44
319 196 290 111 91 71
308 213 294 108 89 68
239 416 188 87 72 57
294 828 402 52 44 37
323 797 213 52 47 48
238 416 192 85 71 57
188 438 283 42 29 33
409 448 322 37 28 28
221 432 336 98 21 37
283 62 272 130 95 81
199 488 169 140 22 43
289 829 328 58 50 42
229 434 171 56 32 39
406 504 275 54 24 23
380 553 293 79 25 36
222 356 295 114 91 65
338 107 228 130 94 72
244 498 183 128 5 31
231 446 175 70 36 26
234 434 171 71 31 32
196 420 205 97 16 30
388 782 190 66 51 43
230 385 240 87 76 66
214 508 177 108 25 36
340 178 263 118 94 67
320 636 236 48 33 34
343 842 372 58 51 49
304 403 323 139 100 81
234 438 172 76 31 36
324 682 325 113 26 42
329 99 196 109 82 71
220 802 249 79 61 57
184 778 268 172 115 84
336 638 241 83 23 28
252 406 221 93 78 62
240 438 169 153 0 35
199 482 165 134 12 39
326 508 201 114 22 35
206 369 272 120 93 65
174 528 247 89 55 46
293 413 199 106 60 41
234 443 174 67 29 37
336 78 245 128 23 50
235 448 175 124 17 37
209 748 243 141 102 72
340 67 192 106 42 30
196 501 180 192 18 56
239 448 173 121 14 36
228 444 176 91 35 40
332 847 378 61 54 52
384 488 278 58 20 27
259 549 196 63 32 37
201 425 250 67 31 30
233 449 176 148 12 37
322 462 367 162 22 53
411 500 246 174 6 43
261 335 246 80 70 61
360 648 283 107 23 41
323 105 256 110 89 66
352 415 190 106 70 57
236 350 301 111 89 63
253 429 322 63 50 38
429 508 254 165 125 103
241 424 165 134 14 21
243 421 167 83 69 52
254 946 367 52 49 49
377 577 255 79 23 29
350 856 316 58 49 42
195 593 288 93 23 37
273 102 243 126 55 49
249 778 232 74 61 53
249 325 301 121 85 63
254 473 319 43 21 24
244 420 169 88 74 58
228 934 354 59 56 57
249 419 168 89 75 55
229 463 178 120 7 28
264 658 330 102 21 39
289 683 232 101 21 28
273 825 336 87 74 61
318 458 383 86 27 39
212 625 300 49 25 28
229 458 179 138 3 31
244 418 173 89 72 56
272 340 260 70 61 52
165 548 234 163 114 84
249 417 173 90 73 55
384 433 243 65 24 25
244 428 164 139 15 36
309 298 333 118 90 62
347 49 224 107 40 45
315 123 257 101 80 57
163 538 233 164 112 85
224 413 233 89 75 61
242 430 166 141 3 39
249 428 163 141 13 35
292 308 335 130 95 73
235 374 311 119 94 66
249 283 292 84 68 51
290 762 230 70 57 50
264 789 237 82 65 57
236 853 310 152 112 84
315 798 224 71 59 53
317 811 395 65 53 46
249 433 164 172 2 38
299 444 383 75 24 30
274 618 337 78 26 36
310 293 270 116 89 59
193 509 192 181 8 47
333 15 239 108 69 54
384 813 333 83 64 49
250 420 165 91 68 42
338 138 248 116 92 66
389 767 180 100 73 57
171 573 235 157 111 81
213 421 233 66 36 36
276 314 285 70 58 47
191 424 274 48 33 35
375 809 218 88 66 55
254 419 164 108 61 38
259 423 160 173 12 38
348 664 245 44 35 36
218 298 279 120 95 69
365 693 238 98 79 60
339 608 232 61 34 37
238 723 329 164 15 52
424 427 203 110 30 31
254 418 168 89 73 52
254 423 161 159 23 32
304 448 373 78 19 31
249 416 183 90 74 57
251 713 235 130 5 33
219 588 324 56 25 30
243 416 187 89 73 58
254 416 178 90 74 56
328 253 307 124 96 63
349 738 324 168 13 55
399 788 221 83 62 49
276 314 296 98 74 57
268 49 234 101 80 65
254 416 182 89 73 57
378 468 273 48 23 25
386 520 320 73 3 21
181 513 292 61 28 35
247 435 166 172 1 38
371 728 281 134 28 49
224 478 333 70 25 33
244 443 169 168 0 36
305 448 198 112 13 27
340 248 288 123 95 62
443 424 233 89 26 34
242 445 171 163 0 42
212 353 279 123 96 67
271 332 283 65 56 48
248 449 171 67 31 36
329 238 303 119 95 66
326 533 201 59 34 40
250 436 165 174 3 33
328 51 207 110 80 50
254 437 165 170 2 32
254 439 166 171 1 35
254 448 170 169 4 37
176 632 258 172 120 92
317 467 372 73 27 34
276 383 263 66 59 50
290 438 172 51 40 41
224 415 213 87 73 58
182 773 279 165 113 81
212 333 268 115 91 63
221 415 218 82 68 54
371 583 295 101 28 42
331 845 385 61 55 52
297 399 320 130 94 78
224 414 218 86 72 57
192 446 245 99 1 33
307 53 243 78 50 38
206 399 292 117 93 66
233 493 331 112 8 36
224 414 223 86 73 59
329 837 208 102 80 64
206 385 255 112 90 65
294 453 309 68 28 32
277 521 348 89 16 37
249 413 198 86 72 58
208 388 252 107 87 64
206 388 255 112 89 63
344 498 304 48 25 28
213 660 276 94 62 48
310 233 249 135 99 62
208 393 252 106 85 62
364 420 179 185 25 34
207 398 251 103 84 62
369 858 318 70 57 53
195 433 303 141 10 44
205 398 254 108 87 63
446 499 257 198 132 113
205 408 253 104 84 61
333 887 318 59 52 50
263 228 268 96 77 56
244 848 303 135 101 72
243 443 331 39 26 27
357 607 307 141 18 48
263 98 224 146 23 41
389 578 263 60 42 42
254 483 184 68 35 41
344 628 244 105 25 37
362 458 204 96 25 36
252 430 326 60 44 36
309 103 238 126 86 70
404 774 208 72 56 47
207 402 251 103 83 62
209 408 248 103 83 62
262 280 250 93 77 59
319 202 240 134 103 65
204 413 253 98 79 60
246 905 285 60 55 54
410 513 269 30 24 23
297 232 289 110 89 66
206 410 250 99 80 59
301 255 311 108 88 68
259 873 412 56 50 49
283 323 323 123 90 66
206 384 282 124 97 69
216 616 316 152 33 56
210 388 249 105 86 64
210 393 248 104 85 64
215 658 242 133 89 61
330 835 207 103 81 65
199 422 198 97 30 35
419 429 193 116 12 21
214 388 247 100 83 65
363 593 253 41 30 34
399 438 303 62 16 25
234 258 288 119 93 67
254 467 180 84 36 36
212 392 246 102 84 64
258 253 243 117 92 61
254 793 308 58 49 45
215 393 244 99 82 64
289 803 304 110 79 63
245 870 381 124 99 79
210 398 248 102 84 63
360 854 273 85 68 66
367 473 220 130 12 32
294 22 298 141 96 76
373 653 232 138 96 67
405 498 293 160 14 53
214 398 244 100 82 64
395 842 295 65 48 35
326 445 378 166 16 51
212 398 246 102 84 64
372 612 281 153 22 52
322 461 332 81 18 34
276 15 260 108 94 82
375 733 183 94 73 56
224 388 242 89 77 65
283 486 315 32 27 26
176 498 273 145 7 43
383 498 218 128 12 34
224 393 241 91 78 66
394 543 253 96 25 35
279 413 168 92 45 39
220 903 333 53 49 50
224 408 238 92 78 64
334 208 247 134 102 63
279 638 238 131 12 32
349 414 223 69 35 34
224 413 228 87 74 60
221 415 233 87 72 59
309 393 325 144 103 77
269 452 170 51 34 39
368 563 328 188 1 59
219 413 238 91 77 61
283 338 323 129 93 72
212 412 310 109 88 66
309 406 208 120 49 21
219 768 312 165 122 92
378 493 268 29 23 22
258 544 365 172 18 56
211 408 245 107 87 66
387 724 184 90 71 50
212 402 246 102 84 64
311 73 225 125 18 37
348 849 308 49 41 40
431 423 279 74 17 28
254 577 214 207 12 50
192 428 293 55 30 33
197 416 268 82 62 49
261 18 296 110 79 64
414 598 243 144 104 69
214 408 243 103 84 64
343 399 264 114 96 77
210 414 244 101 84 68
260 413 309 92 66 46
216 415 240 88 73 59
269 83 228 139 31 47
364 803 290 107 86 69
202 412 256 104 83 61
324 12 248 86 64 53
392 507 323 49 28 32
356 784 181 91 69 58
274 592 220 49 33 39
219 403 242 97 82 66
349 633 248 64 28 35
219 408 242 97 81 65
192 463 197 101 14 36
376 544 323 190 4 59
371 794 370 52 42 32
223 403 241 95 80 65
289 503 187 159 0 33
251 489 186 45 38 40
225 403 239 93 80 68
274 383 278 76 60 49
222 406 241 94 79 65
317 283 321 121 93 58
389 478 273 56 22 25
334 699 331 134 11 42
405 624 265 172 121 92
227 394 241 92 79 66
373 449 241 55 19 25
372 847 303 66 57 52
334 687 324 76 27 33
388 829 309 84 73 67
314 43 232 69 40 30
184 558 226 144 102 75
205 739 296 135 100 71
301 479 369 76 12 33
208 393 293 119 94 67
198 421 202 95 21 32
273 403 263 69 55 41
197 437 251 84 19 27
277 546 354 174 14 57
325 197 290 113 94 73
329 478 323 130 17 45
199 408 268 118 94 67
333 363 317 123 96 64
204 421 198 90 46 42
400 523 274 128 16 43
242 718 335 161 16 51
292 749 226 147 6 38
400 748 238 123 86 55
383 828 298 75 60 52
303 22 288 151 29 58
204 420 200 87 43 39
192 463 189 50 24 32
324 202 240 135 103 62
304 878 233 86 74 69
333 348 313 119 94 66
204 420 203 82 34 34
332 776 216 55 46 46
309 548 328 59 25 31
204 420 208 70 29 29
209 419 208 65 39 34
309 683 228 38 35 40
328 872 363 55 51 49
182 468 258 77 16 30
193 421 213 99 14 30
194 421 218 99 14 29
309 653 327 34 27 30
347 54 219 88 41 40
241 922 381 57 55 56
329 223 298 117 94 68
369 808 203 95 70 58
195 420 216 94 19 26
239 698 248 50 35 38
276 52 241 90 33 25
351 427 298 120 92 64
258 203 238 125 97 64
337 503 210 127 8 33
199 420 218 68 23 25
324 52 261 120 66 57
351 658 300 47 25 29
209 638 267 103 71 58
198 421 219 80 19 28
208 368 258 113 91 67
333 158 234 135 102 63
209 419 213 54 35 30
354 816 331 62 52 46
263 308 248 93 80 67
205 420 222 51 22 24
355 683 303 141 9 44
263 428 308 63 47 28
269 472 179 83 30 38
209 419 223 54 28 28
313 138 259 100 79 56
334 658 317 76 24 33
222 693 299 76 25 34
340 24 280 125 57 58
371 502 274 30 23 24
214 420 198 87 65 53
318 483 358 162 15 52
468 875 272 90 78 70
401 428 308 48 19 23
244 800 305 63 53 48
332 103 251 118 96 71
215 420 194 89 68 56
340 263 278 124 93 59
212 421 196 89 64 53
215 308 273 121 94 67
382 557 286 71 29 34
306 73 243 101 71 54
179 623 264 152 110 85
294 218 258 117 91 61
334 83 189 141 28 43
333 841 219 110 81 66
367 861 318 71 59 53
323 857 382 54 48 45
214 419 203 80 59 49
219 418 203 85 69 56
384 833 278 71 58 54
219 417 208 80 66 53
399 478 328 109 20 40
318 152 270 99 81 61
329 438 325 89 57 41
205 641 235 129 91 65
214 418 213 61 47 39
298 198 253 116 92 65
440 827 319 114 92 69
241 310 296 115 86 59
421 445 202 198 18 51
347 454 197 86 33 37
294 418 188 103 27 32
219 417 213 76 63 50
219 416 223 76 61 49
284 559 201 125 29 41
194 424 227 98 5 39
334 673 235 101 22 27
372 720 288 142 8 43
284 68 253 107 47 44
199 423 228 81 9 31
377 551 306 183 17 56
317 98 217 102 65 52
315 821 305 89 69 57
264 497 315 49 24 29
194 427 233 94 7 30
274 412 279 66 47 39
361 426 234 72 26 27
370 593 293 95 29 42
196 425 232 102 4 36
223 362 299 115 92 67
356 653 256 78 33 36
239 303 294 130 92 69
349 413 293 110 87 61
199 428 237 97 8 31
234 758 322 44 38 37
199 433 238 98 6 30
269 348 299 76 54 38
204 424 233 70 12 25
319 577 215 58 38 42
298 541 195 152 19 45
394 503 323 53 28 33
329 794 402 63 52 44
342 200 266 118 94 66
317 451 356 87 0 32
389 513 323 101 31 42
319 263 258 143 101 68
432 434 200 87 36 35
353 824 325 71 59 53
203 798 305 157 117 92
210 420 227 57 24 27
381 440 252 66 20 25
209 422 233 70 19 31
219 608 323 77 26 34
254 373 308 127 93 64
190 728 248 132 97 65
190 444 259 95 33 39
204 427 238 81 17 29
278 333 258 77 66 57
419 417 303 69 24 27
202 431 240 92 13 31
202 434 320 66 30 35
303 942 343 65 58 55
259 557 200 173 13 43
360 549 332 73 20 29
206 425 238 62 13 24
254 503 318 54 20 27
209 423 238 66 29 35
187 776 295 156 113 82
338 503 306 93 20 35
279 393 298 118 82 67
259 13 268 91 65 57
210 378 288 121 95 66
352 636 301 146 19 46
207 426 238 56 17 26
218 363 294 118 93 66
339 778 203 41 39 41
200 423 253 65 38 35
319 842 214 127 96 71
291 401 316 125 91 74
293 409 183 98 50 35
428 421 236 74 30 32
423 418 303 90 26 38
372 601 286 174 10 53
357 746 211 53 43 40
274 955 333 87 83 86
196 430 255 63 25 28
169 468 257 110 68 61
196 433 254 65 24 30
329 243 252 142 100 66
423 814 332 90 74 57
383 578 260 79 27 33
348 848 243 76 61 57
234 408 320 122 96 68
226 706 256 71 17 31
207 417 247 83 68 52
232 686 310 126 19 42
209 418 243 72 59 50
244 932 308 77 69 69
327 198 240 138 103 62
205 418 249 81 67 53
289 888 248 76 67 66
242 886 389 66 51 48
208 422 242 65 47 42
264 248 258 102 81 57
309 58 233 89 33 31
286 910 390 60 56 55
300 433 197 112 11 30
232 342 295 110 88 63
216 364 292 119 94 66
246 835 310 118 94 69
205 424 244 60 41 37
349 668 244 39 33 39
369 798 357 58 47 41
177 513 273 135 5 38
397 753 263 159 110 75
206 420 245 64 52 45
203 418 252 87 72 56
203 534 208 147 18 43
188 640 246 176 116 85
344 608 234 102 30 40
319 558 207 58 36 40
202 422 251 72 55 43
203 428 243 74 22 29
314 648 234 81 27 30
443 486 284 88 53 40
407 421 292 70 22 27
394 678 263 150 109 78
340 108 208 145 29 51
201 433 243 97 6 30
239 448 333 91 21 34
262 54 220 108 90 67
198 436 240 99 2 33
240 541 325 29 27 27
259 833 344 89 76 70
229 303 287 125 94 68
431 448 260 147 13 45
248 493 322 57 16 25
198 437 243 98 3 26
198 437 248 91 6 30
195 438 253 80 15 28
193 441 240 99 0 29
440 423 263 87 18 33
288 333 329 131 96 75
253 324 301 120 83 64
193 443 243 99 0 30
304 793 227 78 62 54
194 443 248 96 1 31
280 433 166 137 10 34
270 63 223 113 35 29
388 732 208 60 50 41
237 912 296 55 50 53
192 448 253 90 18 31
329 368 262 98 85 72
334 678 233 80 26 30
356 422 279 89 71 55
179 638 263 166 117 91
215 420 233 67 48 42
213 421 237 66 47 43
257 163 240 124 96 61
242 692 325 100 24 41
195 483 313 137 3 40
455 475 263 97 70 47
213 417 241 81 68 57
385 721 221 77 55 38
230 415 204 88 75 61
298 826 319 62 53 46
229 588 233 176 5 41
236 415 195 84 71 57
195 508 188 97 25 40
234 414 203 88 75 62
239 413 203 87 75 61
401 668 241 145 100 72
274 388 263 68 58 46
221 333 286 122 96 70
219 323 284 124 97 71
382 462 254 73 21 29
238 411 212 89 75 61
304 543 332 42 28 29
234 411 218 89 75 61
324 53 208 106 83 58
232 411 222 89 75 60
412 496 270 87 9 26
269 638 241 119 15 32
166 537 229 169 117 91
361 437 283 85 59 44
239 409 218 89 75 60
290 333 332 133 96 74
427 478 248 107 21 34
405 648 242 143 101 67
239 408 223 90 76 61
441 505 285 192 131 111
433 528 273 171 114 85
389 743 203 67 52 41
244 411 208 89 75 61
345 796 389 69 58 48
438 828 322 103 86 70
296 930 370 56 52 53
309 83 228 112 29 37
319 118 259 106 85 61
249 411 203 88 74 60
348 603 322 184 6 59
347 482 306 141 12 45
277 521 340 83 8 35
248 411 207 90 76 61
274 399 233 67 55 43
254 383 309 126 91 66
257 538 365 102 22 39
383 828 332 78 64 52
265 847 264 176 121 96
284 478 312 99 7 32
234 902 397 61 57 57
254 411 202 88 74 59
354 848 358 51 44 39
183 513 298 65 28 34
255 410 204 89 74 60
207 377 280 123 97 69
260 468 315 59 17 24
339 409 233 88 69 57
304 228 252 130 95 57
449 488 288 150 109 93
370 823 232 82 63 56
254 409 208 90 76 61
269 10 273 92 72 61
274 434 302 42 35 28
317 790 221 73 59 53
427 800 320 81 64 49
244 407 223 92 77 62
267 290 266 76 64 51
244 408 218 90 75 61
312 110 250 108 78 59
248 406 223 94 79 65
390 729 213 65 56 49
261 263 252 101 81 57
179 518 227 140 86 76
354 558 333 56 24 30
368 442 198 66 35 38
227 728 241 123 13 32
245 410 210 89 76 61
196 511 190 176 31 56
249 409 213 91 76 62
254 408 213 91 77 62
294 563 335 80 32 39
250 405 223 94 80 65
382 776 180 87 67 57
384 838 332 67 55 50
254 405 220 93 79 64
229 388 239 86 75 65
260 223 273 112 87 63
229 393 239 90 78 65
200 433 317 82 26 36
277 369 273 66 55 47
229 398 238 94 81 69
364 438 268 82 52 41
340 103 203 142 26 44
225 399 240 94 81 68
398 802 224 94 70 56
433 453 229 112 30 43
284 16 306 165 126 109
364 568 243 143 8 36
239 388 238 89 78 67
202 540 217 184 9 50
213 393 303 120 96 69
324 405 203 122 55 31
234 398 235 93 80 67
343 688 235 89 26 30
239 395 235 93 80 66
330 843 388 53 47 44
287 62 259 127 23 47
274 418 293 51 38 29
212 263 269 122 94 67
437 441 225 92 32 39
438 493 293 168 118 97
179 608 262 137 101 75
239 398 234 93 79 66
226 388 240 87 76 65
379 733 188 79 65 51
319 83 254 112 31 44
303 238 256 128 94 56
226 870 358 71 65 62
378 808 292 97 73 58
259 403 238 90 76 62
229 308 288 122 94 66
384 526 230 114 24 40
226 393 240 90 78 65
263 328 244 84 73 62
218 589 241 132 11 36
442 425 225 119 30 42
230 409 229 90 76 61
265 84 222 158 20 45
379 658 231 126 93 60
332 257 260 145 101 67
220 821 265 59 51 54
326 538 315 134 11 43
284 848 258 130 95 77
268 363 301 74 49 32
202 406 284 114 92 68
247 871 402 38 36 36
259 453 172 114 25 40
234 403 232 93 80 66
332 856 240 82 69 61
354 818 353 60 49 43
269 758 228 64 51 48
233 406 231 92 78 64
304 323 335 133 93 66
239 407 228 92 78 63
308 279 326 116 92 67
191 562 263 60 32 37
183 508 298 93 26 38
200 419 313 108 24 38
339 44 219 119 103 86
255 822 296 160 115 94
239 403 234 92 80 68
308 344 260 91 79 68
242 395 235 93 80 68
274 401 228 69 57 46
384 658 231 127 92 59
242 398 235 94 80 66
197 448 310 129 1 37
249 398 237 94 81 68
209 723 242 148 107 78
360 516 220 63 33 37
254 393 238 96 82 68
269 308 288 63 53 43
334 528 208 69 36 38
217 357 290 119 95 66
328 898 328 52 46 43
252 390 240 96 83 70
240 906 396 55 52 52
453 493 268 184 121 104
202 454 165 63 35 30
239 633 254 156 0 38
250 394 234 95 83 71
253 394 234 96 83 70
433 437 268 139 8 44
263 158 253 112 89 61
206 464 321 61 30 35
354 834 351 52 44 38
421 489 247 157 12 37
253 397 234 95 82 69
249 838 263 195 133 104
296 244 297 109 89 67
244 390 241 92 81 71
250 387 241 95 82 69
344 877 308 52 46 45
303 857 224 105 84 72
254 388 243 95 81 68
336 431 200 89 36 44
227 570 221 49 28 29
342 243 283 125 98 66
277 363 263 65 57 49
222 728 304 58 30 34
244 406 228 93 79 65
253 289 292 76 62 47
366 648 251 66 47 35
244 405 234 93 80 67
312 496 352 173 10 55
254 658 326 137 20 47
249 405 228 94 80 66
286 278 303 111 88 64
254 508 187 76 26 31
323 867 243 83 72 67
249 405 233 94 80 66
234 508 178 160 0 32
244 403 236 93 81 69
229 809 304 39 33 34
289 593 219 130 16 41
254 404 228 94 80 65
276 343 302 104 77 59
214 643 268 90 50 41
425 433 313 149 14 47
266 340 251 77 68 60
254 404 233 94 80 65
218 598 319 121 25 46
335 488 211 124 5 29
355 558 232 145 1 35
204 403 288 115 92 66
277 96 245 130 20 40
309 493 363 171 10 53
314 618 333 99 34 44
296 463 391 143 16 49
376 734 180 93 71 52
345 393 293 110 88 63
229 416 198 87 75 62
369 583 253 112 10 27
269 423 304 56 41 26
375 653 230 147 100 74
233 416 197 87 74 61
434 493 268 108 65 42
269 417 161 134 35 35
386 559 280 68 30 34
264 463 177 67 33 38
192 442 295 138 0 41
362 531 314 39 27 27
194 463 160 151 0 35
213 481 165 156 0 31
194 468 160 156 0 32
199 453 164 74 32 30
340 34 264 138 29 57
337 55 199 100 59 19
204 693 285 120 91 67
235 883 382 145 109 90
299 927 303 74 66 67
218 338 284 124 97 69
249 789 310 52 44 42
313 163 237 128 97 57
194 458 162 135 2 32
333 203 244 136 103 62
402 448 186 113 22 34
274 753 229 95 37 41
193 460 160 144 0 35
185 768 292 155 112 82
195 462 161 141 2 29
328 293 279 116 90 63
302 333 266 85 74 64
329 454 211 124 13 35
199 458 162 118 10 30
324 423 323 131 98 77
320 64 194 87 42 25
203 458 164 95 25 31
265 57 222 80 50 28
386 454 281 70 21 26
211 470 326 121 26 43
369 828 288 40 33 32
204 463 163 99 20 27
308 517 190 70 32 37
206 461 166 46 36 33
185 453 283 126 1 37
210 463 167 83 26 31
373 796 356 60 49 42
208 464 165 85 37 32
299 358 330 138 102 79
257 18 290 91 62 53
341 83 234 103 37 39
380 793 284 121 95 73
226 916 363 73 67 67
192 459 190 119 13 40
245 448 329 62 22 28
248 605 236 129 11 34
193 463 193 88 17 35
264 123 268 119 92 65
345 533 218 62 35 40
347 413 303 119 91 61
194 473 161 162 0 34
279 428 302 57 45 34
343 773 306 64 51 47
278 903 396 53 50 49
390 508 328 56 27 31
198 468 160 152 0 31
300 498 378 167 14 53
200 468 161 148 0 32
267 207 254 108 87 63
182 540 278 162 4 47
304 418 319 132 96 77
415 847 299 70 53 45
427 436 194 160 29 53
253 363 306 127 92 63
229 453 337 46 27 31
338 811 195 76 58 49
432 461 238 89 29 38
324 188 239 141 104 63
204 473 162 151 0 33
323 883 363 47 43 41
279 821 309 65 54 43
377 805 291 129 98 78
209 468 164 126 5 26
209 473 163 143 0 30
247 375 311 127 97 66
409 423 273 82 19 28
265 228 253 113 88 57
202 411 289 98 80 62
263 188 243 122 95 63
204 813 268 205 136 107
318 249 311 118 94 67
209 478 164 156 0 35
293 38 278 129 22 47
225 643 273 148 16 44
379 803 287 127 98 80
192 468 193 78 23 33
261 258 252 103 82 59
322 303 275 103 83 62
262 868 388 45 38 38
204 613 233 146 105 76
370 773 294 131 95 75
214 453 174 95 18 29
280 672 235 81 27 31
179 618 263 147 107 83
212 460 170 100 24 23
274 88 238 126 28 34
292 834 246 117 85 70
344 858 253 75 62 59
279 73 248 122 72 61
213 464 169 106 20 22
242 594 330 85 25 35
216 390 306 119 95 68
259 368 304 124 87 63
215 462 171 102 13 26
219 453 176 113 9 23
404 798 258 104 71 56
224 453 178 130 2 29
456 485 256 140 64 57
317 808 222 50 46 46
317 109 226 134 91 68
220 457 176 103 17 23
327 868 367 52 47 45
300 11 303 130 51 56
224 458 177 114 10 25
283 38 253 104 25 26
296 473 383 100 12 34
263 533 370 106 24 41
225 463 177 107 7 24
214 468 168 117 6 26
222 758 315 168 124 97
361 483 294 54 18 26
284 658 236 51 34 36
324 348 323 126 97 66
212 470 165 127 0 26
324 778 309 55 46 42
213 473 165 136 0 29
215 473 167 128 2 28
361 826 345 73 57 44
373 847 347 61 53 47
305 805 389 49 39 30
214 478 165 147 0 32
319 183 284 107 89 69
220 468 171 108 13 22
319 688 227 46 37 38
284 588 334 169 13 53
293 313 335 133 94 75
302 354 255 89 77 65
254 293 292 79 63 46
240 478 329 34 24 26
338 123 238 118 94 66
159 528 238 164 113 87
314 328 268 90 79 67
393 503 328 61 25 31
389 488 207 141 15 40
342 198 263 119 95 68
214 703 244 138 100 70
343 42 257 134 37 55
223 468 174 110 11 24
357 822 209 104 79 58
235 694 317 47 29 32
334 12 248 93 73 62
190 538 231 128 19 34
387 490 282 66 22 34
221 471 171 118 0 29
279 538 363 108 21 42
256 193 275 114 91 63
300 488 358 31 29 32
224 473 173 120 8 28
209 703 242 139 102 69
268 313 291 63 53 43
375 467 274 56 24 28
191 420 278 49 29 33
324 603 227 119 26 37
333 363 268 102 87 71
324 233 248 141 103 64
240 840 349 82 63 49
269 333 253 73 64 55
218 638 288 97 27 41
279 842 368 41 36 34
322 847 396 50 45 43
456 490 273 189 125 106
219 478 167 138 2 32
212 338 273 120 93 64
195 482 165 110 13 39
282 323 319 120 88 64
192 480 166 173 0 50
284 433 168 67 36 39
362 841 249 83 65 60
194 484 167 158 16 47
369 733 208 56 51 47
203 412 298 96 77 61
271 68 223 127 26 39
209 768 242 130 92 57
199 485 166 118 24 40
194 487 169 145 26 49
195 492 174 109 36 45
273 374 260 68 56 43
196 419 263 76 31 37
414 603 264 176 121 94
199 773 304 155 119 89
199 493 173 78 32 37
224 737 241 95 26 32
464 468 258 137 86 60
204 482 165 156 3 33
309 193 243 122 94 58
293 318 335 133 93 74
204 713 290 128 95 69
235 298 291 126 91 67
209 484 166 129 10 35
209 488 168 74 35 40
264 913 394 84 81 81
356 455 314 52 25 28
294 243 263 122 91 59
335 437 358 126 21 44
239 873 308 166 125 95
395 543 275 58 28 34
204 492 170 89 34 39
214 308 268 119 91 64
246 829 323 157 117 93
200 497 174 67 38 40
307 167 265 100 80 58
299 248 262 126 91 57
234 824 258 79 63 57
209 498 172 72 37 35
229 820 294 54 45 44
193 499 182 143 13 40
205 419 322 81 34 35
164 468 257 138 98 83
384 793 363 54 44 34
355 790 377 55 45 37
198 499 177 45 33 36
318 690 331 52 30 34
267 97 229 112 67 49
269 923 387 64 62 64
198 504 182 91 30 39
216 420 331 74 51 44
294 673 331 157 9 50
385 774 183 79 60 50
277 398 294 109 77 62
193 504 187 91 24 41
289 298 278 79 67 54
293 396 232 95 82 68
196 506 185 78 33 39
210 408 307 112 90 66
302 767 226 69 56 49
198 509 187 84 35 42
347 42 252 133 18 46
297 441 310 125 94 76
208 403 298 114 91 65
336 30 270 140 87 78
188 553 258 124 9 40
242 686 320 40 28 28
202 500 176 58 37 41
276 73 238 127 37 47
265 415 168 87 67 42
344 417 178 127 68 50
211 277 258 127 95 64
434 493 296 165 116 100
410 504 270 55 23 28
249 543 327 76 15 30
204 503 178 58 36 39
208 505 176 81 33 42
220 607 250 145 19 39
247 914 282 82 72 70
390 508 233 154 8 38
268 318 250 84 72 61
205 508 179 71 36 38
254 743 228 71 35 38
379 718 219 85 67 49
334 33 268 131 82 70
284 893 255 78 69 68
411 488 288 145 5 48
203 509 182 69 35 37
304 173 263 100 80 57
274 448 308 62 23 29
204 513 183 77 32 36
251 488 320 46 22 25
298 453 378 58 23 30
209 512 180 147 31 48
304 267 319 98 82 65
274 934 379 77 75 76
266 46 281 110 83 67
226 687 267 59 45 49
399 618 234 132 99 61
193 428 263 38 32 34
362 501 286 50 24 23
360 728 318 51 28 32
244 458 178 90 29 40
173 477 260 101 15 33
201 511 185 78 31 34
277 379 290 106 74 60
404 572 246 113 90 64
344 826 204 110 81 61
315 199 291 108 89 69
181 765 276 159 110 78
350 593 232 94 31 39
214 483 167 109 17 37
274 418 288 52 36 28
208 483 324 140 4 42
219 483 168 123 13 37
419 849 273 109 84 53
354 433 298 99 71 53
328 252 255 145 101 66
219 488 170 108 26 40
223 483 169 141 1 31
330 574 331 140 14 43
223 487 170 148 3 30
440 498 289 151 102 81
224 328 288 122 96 69
273 788 236 74 59 52
239 843 333 97 77 61
404 578 269 121 82 66
224 488 171 152 1 33
217 491 170 105 23 41
255 288 289 70 58 45
286 283 308 112 88 61
432 452 277 67 14 29
319 209 296 111 91 70
357 811 374 79 63 52
407 501 277 108 19 36
396 480 300 88 9 28
339 402 257 113 98 82
219 493 172 141 13 34
389 753 273 168 119 87
355 473 304 45 25 28
304 408 208 119 50 21
269 53 279 115 59 56
421 478 264 43 23 33
368 431 185 87 36 47
220 384 307 118 93 67
220 489 171 139 7 34
219 508 329 97 19 37
226 718 312 101 31 44
433 448 268 153 17 43
186 801 280 188 127 96
224 493 172 161 0 33
442 475 295 153 101 91
422 572 267 183 121 96
214 498 172 127 15 43
368 423 179 143 29 37
332 484 210 116 12 29
219 498 173 168 2 35
333 243 254 139 101 64
294 23 264 114 21 29
222 667 250 113 79 58
224 503 174 58 33 37
219 506 175 178 10 46
224 506 175 102 20 37
324 618 232 93 32 39
338 467 323 155 14 50
275 611 230 72 30 37
284 11 266 101 81 67
176 606 240 165 113 83
439 508 258 208 145 118
214 513 179 78 32 37
325 800 375 54 46 38
219 509 177 167 7 38
226 350 296 110 89 64
294 868 402 56 52 52
224 508 176 145 9 35
334 613 233 90 29 38
314 783 308 52 44 40
215 348 283 122 95 66
264 12 268 90 71 61
225 354 297 111 89 64
224 513 178 142 17 41
193 758 246 166 112 82
289 10 303 141 51 62
271 387 267 72 56 40
229 343 294 111 89 63
299 728 222 79 36 40
234 453 177 147 11 37
333 443 362 169 16 54
373 848 343 58 49 44
234 458 179 133 11 36
234 463 180 105 19 33
308 226 300 109 90 70
384 817 321 70 62 57
298 423 314 127 94 77
239 458 179 90 25 38
228 474 174 118 8 30
294 448 309 105 78 63
229 468 178 120 9 28
315 553 324 113 19 40
231 477 176 92 26 26
274 83 238 111 41 40
234 468 180 110 15 32
320 402 237 102 88 72
429 797 333 89 73 57
236 465 181 95 42 39
300 928 368 53 50 51
396 736 227 81 62 46
236 468 181 118 19 32
264 903 263 85 74 72
239 468 181 130 6 32
356 421 234 65 29 31
237 474 180 81 29 26
238 478 180 77 33 36
329 43 263 119 57 56
240 478 181 102 21 34
299 10 288 130 43 52
254 453 173 133 20 40
185 508 303 64 29 33
306 538 330 76 23 33
302 202 279 104 84 61
320 484 328 41 27 28
212 338 263 110 88 64
175 583 234 160 111 80
370 838 348 71 60 52
254 457 175 119 27 39
226 692 261 61 25 29
243 455 176 81 32 38
275 47 242 92 34 28
389 442 268 77 20 28
276 339 306 107 79 59
224 503 330 144 1 44
200 817 283 211 134 108
244 462 180 114 24 37
375 454 217 134 18 36
318 467 338 80 24 38
249 944 323 74 69 69
309 198 288 105 85 64
254 459 176 90 34 42
254 463 178 97 30 42
244 468 181 134 10 35
216 350 286 120 94 65
248 465 181 138 28 46
334 223 249 134 102 61
259 343 302 122 82 64
311 113 247 108 79 58
209 658 239 148 100 73
249 468 181 82 33 38
378 836 273 82 65 60
191 420 287 34 31 33
249 473 182 79 33 37
393 523 293 180 8 56
237 482 331 78 15 28
296 495 337 84 28 40
264 878 410 64 59 57
310 875 225 92 77 71
337 149 262 118 95 69
329 623 235 64 35 39
312 872 229 95 78 71
359 838 238 84 67 61
277 368 263 65 58 50
228 263 285 119 93 66
244 478 182 130 12 31
325 78 189 137 23 37
254 348 303 132 93 67
311 123 247 106 82 57
451 494 284 190 121 109
382 537 308 167 17 55
249 478 183 93 28 35
254 469 181 73 34 39
342 83 232 104 30 39
299 809 236 80 64 57
254 843 268 190 127 99
254 473 182 53 36 39
229 483 173 126 11 31
278 513 379 81 28 34
400 443 198 96 22 30
193 417 288 46 33 33
225 403 317 118 94 66
310 733 331 154 22 51
229 488 173 141 1 34
254 871 385 99 79 63
269 763 319 65 53 48
318 98 213 113 37 44
212 614 310 65 30 37
324 433 207 75 29 38
329 857 238 85 70 64
316 890 370 54 51 50
232 483 175 97 23 28
232 488 175 128 12 32
389 608 238 123 95 64
298 208 252 118 92 59
310 493 333 78 24 34
235 483 177 77 35 33
429 543 263 168 116 86
261 53 276 109 47 51
367 743 302 104 22 40
187 447 262 89 15 28
235 488 176 108 21 35
235 493 176 139 0 33
239 493 178 133 1 30
306 302 335 130 92 68
325 624 325 110 34 48
169 473 257 103 60 54
229 498 174 91 20 37
379 658 262 120 87 67
229 503 175 52 34 38
280 697 340 146 12 46
339 613 234 134 25 42
192 458 197 62 25 33
232 501 175 119 3 27
424 419 288 84 23 30
230 504 176 88 21 32
324 533 199 86 31 42
329 118 257 112 90 66
254 628 244 57 35 39
229 348 297 109 88 64
229 508 177 136 10 37
339 794 388 74 60 48
399 598 268 135 93 75
277 511 372 56 26 31
289 16 306 187 133 135
229 513 179 130 10 35
259 952 329 74 70 72
312 438 205 71 34 32
239 498 179 135 2 31
341 207 274 117 94 67
269 406 217 76 63 50
222 258 280 116 91 66
234 513 179 160 5 35
342 90 236 112 96 76
239 508 180 153 1 34
238 512 180 146 4 33
309 822 353 44 39 37
259 158 242 118 92 58
258 853 283 184 129 96
241 483 181 98 26 32
244 483 183 131 7 32
322 820 302 83 63 53
244 488 183 117 16 31
333 60 190 108 39 21
342 197 255 130 102 69
211 370 286 122 96 65
322 41 226 77 56 39
337 118 243 120 96 70
336 401 256 111 96 81
249 483 184 126 14 31
254 487 185 62 38 38
254 489 186 73 37 43
166 558 243 164 113 87
306 93 242 95 30 38
269 444 166 100 21 34
419 578 248 152 109 73
379 785 187 81 61 48
400 803 227 96 73 62
215 368 293 120 95 66
259 318 243 94 81 68
