ply
format ascii 1.0
comment Created by Open3D
element vertex 2218
property double x
property double y
property double z
property uchar red
property uchar green
property uchar blue
end_header
347 521 380 64 41 34
383 687 316 134 5 40
264 124 243 136 105 70
383 697 326 139 5 44
346 203 301 105 86 66
277 298 322 122 93 66
242 403 262 110 89 65
249 316 272 110 88 63
262 487 172 55 35 37
269 537 364 107 13 38
242 293 295 133 99 75
262 36 249 113 97 81
202 498 285 109 14 37
227 668 351 177 126 101
267 489 173 70 35 40
394 809 225 70 58 52
243 298 290 130 95 71
359 803 192 68 55 48
296 657 342 172 15 53
252 698 335 138 89 75
354 58 252 130 26 35
243 298 295 129 95 72
277 28 295 144 28 57
425 433 252 113 20 34
243 303 290 123 94 68
410 887 291 42 37 36
243 303 295 126 95 69
247 298 305 124 97 71
249 318 308 125 97 72
474 530 333 181 134 110
363 629 244 62 30 35
258 454 374 48 27 26
365 577 481 153 16 43
364 149 257 123 96 64
244 303 300 127 96 71
395 82 258 102 55 56
426 554 311 71 47 32
242 388 266 109 89 66
342 463 318 108 79 56
425 562 280 83 41 40
398 454 269 79 57 39
245 303 302 129 98 72
224 788 325 184 126 99
392 438 216 59 38 42
322 443 311 83 60 38
242 328 290 118 93 65
392 20 230 91 55 47
336 43 270 119 56 52
250 293 307 118 95 70
280 63 241 117 31 35
462 503 325 91 7 26
253 293 309 120 95 69
447 488 320 73 28 36
410 492 275 77 29 33
310 864 288 157 100 72
260 35 282 122 19 42
260 444 350 98 52 45
252 303 309 124 97 71
216 723 320 162 111 85
352 564 470 119 7 37
246 388 325 123 97 69
278 632 251 69 33 37
322 552 385 109 26 43
243 454 343 80 26 36
437 832 251 60 51 43
262 58 275 100 35 40
344 411 228 103 77 64
267 583 354 124 16 44
283 277 311 104 82 57
256 303 311 125 96 70
243 308 295 125 95 68
277 509 352 97 60 51
297 513 192 158 2 33
402 643 229 122 93 58
243 313 295 124 95 67
307 498 192 157 0 33
244 308 300 126 96 70
244 313 300 127 99 72
416 472 250 119 23 42
254 474 383 82 26 38
278 128 265 107 84 58
241 378 269 110 90 68
243 318 295 125 97 68
244 318 300 129 99 71
244 318 303 131 100 72
337 613 345 72 29 37
432 498 301 95 19 23
255 313 312 123 98 71
268 743 256 101 21 36
257 313 314 122 95 68
416 703 225 96 77 55
357 534 315 79 46 44
305 436 177 139 1 34
257 318 315 123 96 69
220 500 332 103 40 52
466 458 304 104 28 37
375 531 303 99 84 83
302 518 350 79 27 32
328 526 407 69 38 34
286 423 329 129 93 68
391 112 241 106 93 84
322 558 203 74 33 39
367 524 390 62 36 29
239 353 286 120 95 67
364 770 182 59 49 44
361 58 249 86 42 34
312 552 405 101 23 42
386 556 363 100 29 41
257 328 269 106 85 62
254 546 202 184 6 39
219 480 333 68 23 28
402 518 340 59 30 27
393 443 218 122 20 36
362 33 290 101 50 47
248 323 275 118 93 65
294 408 321 130 89 67
244 323 281 132 101 74
392 98 234 154 33 51
376 942 339 61 55 58
257 473 385 67 28 33
370 556 467 108 9 34
326 515 389 75 29 34
268 13 299 104 65 58
244 637 286 139 22 47
422 902 290 70 60 58
482 508 335 148 21 39
346 633 328 63 28 35
245 323 279 130 101 72
248 328 276 118 93 65
496 868 255 106 84 75
250 678 303 87 33 38
307 535 324 79 39 37
308 353 270 66 58 50
215 743 315 167 115 89
394 579 291 95 29 38
243 323 285 122 95 68
327 633 237 134 19 39
415 556 270 147 36 54
394 930 325 72 65 66
279 36 253 80 49 26
365 365 303 118 93 63
402 503 305 66 29 28
280 678 253 128 6 30
243 328 285 118 94 66
244 328 282 126 100 72
400 557 309 92 35 41
243 333 285 115 91 64
331 520 394 70 31 32
227 583 325 132 14 45
252 473 380 82 22 32
420 705 204 78 63 49
339 610 347 57 22 28
347 14 260 114 67 44
225 689 302 133 98 64
238 368 280 117 94 67
246 323 305 131 101 74
244 333 282 122 97 68
417 491 301 66 15 25
374 662 302 152 16 47
367 813 301 163 116 96
205 502 259 134 3 36
419 668 250 154 104 70
467 817 239 101 86 75
258 437 345 107 69 51
371 426 242 62 25 26
283 463 174 101 24 38
481 502 332 54 31 32
227 443 260 89 22 27
293 583 390 123 44 54
248 353 271 104 87 68
375 547 226 85 31 40
300 314 280 71 61 52
287 10 275 131 75 69
294 53 270 110 31 42
367 718 336 74 29 37
250 333 273 111 88 63
234 579 340 60 27 33
297 9 295 140 54 60
278 489 331 121 87 71
252 343 271 104 86 65
377 692 326 133 11 42
272 478 170 46 36 41
439 489 318 87 10 27
385 503 293 115 79 64
267 343 264 96 80 64
354 11 280 103 74 69
312 369 261 79 68 57
287 38 284 121 18 45
324 290 318 103 83 61
466 540 370 74 20 29
361 533 298 70 46 41
475 521 352 62 17 24
387 417 236 68 13 27
253 338 271 106 86 64
317 463 305 86 59 40
257 338 269 103 84 64
383 653 254 69 51 50
344 189 267 112 90 65
229 409 299 124 99 71
284 559 438 71 31 41
430 532 277 169 19 48
352 248 315 121 96 67
317 623 350 91 33 42
334 492 308 90 63 48
272 208 249 133 104 69
394 713 321 39 29 31
410 753 171 80 64 53
252 348 270 103 86 67
256 347 268 100 84 66
254 668 286 138 0 36
258 348 266 99 83 67
277 438 166 166 4 38
382 748 321 87 57 56
248 343 275 109 88 65
347 11 269 111 82 68
330 25 287 131 42 52
373 423 203 75 33 37
389 98 261 111 64 58
244 343 281 115 92 66
357 218 309 118 96 71
397 908 286 62 53 53
336 213 280 106 87 65
393 440 258 70 28 30
374 102 242 125 13 26
282 413 235 88 73 57
242 343 285 115 92 66
470 855 333 66 54 45
251 386 263 102 85 66
298 806 252 78 62 54
242 353 280 114 92 67
256 605 243 116 16 39
256 363 263 97 83 69
244 354 277 110 89 67
240 353 284 117 93 66
373 708 230 63 40 39
312 308 305 86 64 45
222 423 270 104 23 34
262 718 334 50 24 28
357 268 315 126 95 61
250 347 273 106 87 66
332 468 192 86 33 40
377 198 290 119 95 66
345 787 213 53 45 42
297 668 343 111 21 42
239 353 290 122 97 68
374 127 252 129 95 56
247 638 371 180 124 100
256 565 213 45 36 41
247 427 336 99 64 48
347 38 257 122 22 30
287 520 418 134 12 42
271 78 221 149 22 48
239 350 293 122 96 68
377 78 230 148 13 44
452 485 328 114 4 36
387 478 280 117 81 62
307 503 304 101 22 38
386 628 250 78 61 43
242 328 295 125 97 68
338 243 266 122 95 60
244 323 300 128 99 70
383 559 360 138 23 49
250 342 312 123 96 68
337 413 181 151 14 32
444 857 255 93 77 67
230 604 320 152 16 51
220 593 285 129 20 45
242 463 340 80 28 32
276 63 235 113 52 47
339 270 318 115 93 68
381 163 280 119 94 66
390 576 308 83 23 39
285 485 367 93 38 41
310 570 387 49 27 35
244 323 303 131 100 73
241 333 290 117 93 65
370 66 238 124 22 28
282 483 330 126 92 76
373 428 260 98 80 59
368 423 249 68 53 42
342 388 324 139 99 73
243 333 300 127 96 70
367 743 330 125 41 54
283 258 301 114 90 61
232 613 315 171 10 51
373 488 208 133 12 32
286 14 262 132 71 40
476 532 356 52 23 22
324 395 235 99 85 71
452 492 331 107 7 33
244 333 304 128 98 72
417 778 205 69 52 43
286 938 345 186 136 115
248 328 309 128 100 75
322 531 333 80 37 37
240 347 290 121 96 66
345 207 302 106 88 68
272 517 416 43 28 30
205 492 302 33 30 33
289 379 262 71 60 48
275 68 231 76 45 34
252 323 311 128 99 73
257 323 315 126 98 71
243 507 365 181 0 55
509 845 265 92 77 62
247 378 264 103 86 69
345 631 237 44 37 38
332 793 235 80 62 54
470 512 347 109 14 36
273 57 234 73 40 25
420 773 206 77 57 45
238 448 349 79 24 34
392 58 229 119 29 25
323 22 276 141 28 50
278 423 337 130 95 67
254 328 313 126 98 71
272 273 260 109 86 61
402 536 420 92 23 37
304 465 307 98 61 51
317 628 346 134 33 51
230 481 347 110 23 39
372 128 254 126 95 58
387 783 299 81 63 56
229 635 332 106 84 59
342 513 198 67 33 37
294 601 468 178 122 117
257 328 315 125 97 70
452 477 316 90 32 36
344 440 193 120 28 39
253 333 313 123 97 70
298 25 291 151 28 58
268 703 334 69 27 33
372 706 233 62 37 36
220 564 229 130 16 41
241 338 295 123 96 67
225 451 258 81 25 28
295 497 187 137 18 39
267 193 248 120 96 66
240 343 290 119 95 67
309 550 438 65 24 31
271 450 378 94 27 40
380 68 274 112 86 70
240 348 295 124 97 68
373 83 236 149 14 45
390 736 323 166 19 55
249 566 363 145 2 45
288 238 265 126 97 63
242 783 344 165 121 92
326 287 272 89 75 62
240 352 296 123 95 67
260 544 352 32 27 32
243 348 305 124 96 68
242 353 305 125 98 69
241 809 294 193 131 100
292 592 420 172 113 96
262 39 246 117 100 83
245 648 304 52 28 34
235 487 366 90 19 34
296 828 263 82 63 57
248 338 309 127 99 71
244 350 308 124 97 69
281 563 430 92 66 58
400 91 240 147 19 53
242 453 340 79 25 33
322 553 380 107 24 43
288 58 254 110 79 59
434 530 310 70 30 39
244 354 308 124 97 69
412 824 240 81 59 51
407 544 475 81 29 33
257 358 264 99 84 69
478 871 247 99 78 69
381 163 265 124 97 65
223 592 271 69 33 41
329 249 289 107 86 64
212 533 231 141 4 36
416 708 220 75 61 47
252 343 315 121 95 68
318 723 232 55 34 38
256 338 316 119 94 67
432 753 210 98 77 62
413 568 305 99 51 52
226 413 285 113 91 68
259 14 289 98 63 55
286 578 460 171 121 110
402 483 290 78 19 30
342 288 268 98 80 61
421 879 283 46 41 38
255 342 317 118 94 67
249 348 313 123 97 69
251 348 316 120 95 68
351 528 202 91 26 39
252 353 319 116 92 66
372 732 194 55 45 42
253 617 256 186 13 49
343 286 267 101 82 60
377 521 360 72 37 36
234 469 353 35 29 31
257 343 319 114 91 65
347 948 370 62 56 55
304 348 310 111 67 55
255 346 317 115 91 65
257 348 320 113 91 65
409 905 335 62 54 54
225 416 274 95 77 64
312 517 355 80 26 33
323 273 290 102 83 62
336 370 252 95 84 73
221 499 335 105 28 42
239 369 277 115 93 68
287 253 295 111 87 59
237 363 285 118 94 68
302 572 400 108 39 49
272 203 249 128 100 67
239 360 282 115 93 68
432 899 290 70 59 58
267 173 290 110 90 69
236 368 285 120 96 69
237 373 280 119 95 68
223 643 330 111 88 61
235 373 285 120 96 67
362 543 300 80 55 54
235 378 280 119 95 66
248 627 271 190 12 49
265 251 252 135 102 66
303 563 442 63 26 28
237 378 275 117 93 67
234 383 280 120 95 67
373 17 280 96 37 44
323 517 400 75 34 38
267 318 267 101 84 65
297 416 190 96 45 32
382 58 235 122 107 92
297 9 300 139 42 55
235 383 278 119 94 66
296 862 314 127 95 73
313 507 380 89 25 34
342 203 295 103 84 62
321 898 240 62 57 58
215 673 322 159 108 81
234 379 281 120 95 67
234 378 285 122 97 67
272 148 280 108 86 61
280 111 268 113 83 58
383 88 231 155 16 45
304 590 418 188 131 112
427 533 275 160 18 42
237 528 341 61 28 33
367 503 206 148 10 35
248 358 270 103 87 69
354 231 257 131 101 64
297 737 358 117 28 48
388 603 285 149 19 50
306 388 305 112 75 60
244 364 271 104 87 68
332 528 335 78 36 36
273 41 248 79 41 28
251 358 268 101 85 69
465 450 299 112 21 41
321 437 182 162 4 41
445 518 296 187 15 45
332 575 465 123 18 42
258 498 399 58 29 31
297 963 350 65 61 60
253 358 266 99 84 69
290 536 327 77 33 34
420 673 246 144 100 65
253 504 353 105 66 55
420 547 271 126 38 51
342 218 265 120 93 60
252 368 265 98 84 70
334 220 281 105 86 65
277 498 356 106 63 54
267 108 275 114 93 72
375 622 303 184 13 58
282 98 245 119 44 43
308 804 327 68 55 49
247 398 330 123 97 71
402 532 375 105 14 35
346 53 258 132 19 36
357 562 466 147 14 44
249 364 267 100 85 70
315 307 311 91 68 45
354 338 312 131 100 66
252 363 265 98 84 70
492 562 390 161 24 58
250 361 268 99 85 70
412 853 260 89 75 62
357 11 275 102 83 73
278 158 275 106 83 58
292 733 244 113 18 35
248 368 267 102 86 70
327 410 181 127 47 30
257 503 345 104 66 55
243 358 276 109 90 69
364 353 301 128 101 68
332 673 236 44 33 36
304 353 310 112 67 56
241 358 280 113 92 68
278 813 337 161 125 95
293 878 305 145 109 82
228 433 324 32 29 31
260 50 231 124 106 90
381 89 233 154 15 46
387 828 230 76 63 59
361 473 313 134 96 77
432 813 242 62 52 44
399 893 305 44 37 40
245 357 273 107 89 68
309 577 418 132 76 74
464 830 246 83 72 65
273 234 253 135 104 68
240 357 283 116 94 69
388 35 228 92 52 51
221 508 331 48 27 30
360 369 313 123 95 62
203 513 265 150 0 40
242 363 275 108 89 68
231 584 239 204 14 52
240 363 279 114 93 69
249 379 262 101 85 69
359 798 192 65 51 46
512 846 240 118 90 78
397 58 235 94 32 34
241 368 275 111 91 69
307 417 190 127 49 39
242 373 270 108 89 68
244 374 267 106 88 69
372 143 254 132 99 60
247 373 266 102 86 69
347 878 205 111 94 84
206 528 260 58 32 35
282 844 285 80 64 60
233 778 339 165 118 90
261 523 350 90 61 53
228 413 300 118 95 70
512 848 250 104 84 71
401 907 349 48 42 40
244 474 374 68 24 32
351 547 207 95 26 36
247 383 264 105 87 67
505 852 284 91 73 61
243 383 266 108 89 67
264 370 333 122 96 67
375 20 283 106 31 37
240 383 269 111 90 67
272 323 266 96 81 64
432 742 200 77 61 51
394 103 245 136 30 48
251 373 264 99 85 70
257 368 262 96 83 69
242 652 363 187 128 103
247 473 340 89 50 44
349 501 308 95 66 50
452 543 390 109 11 36
231 608 320 181 6 53
357 29 292 125 39 52
302 368 315 123 77 61
357 523 385 62 40 32
250 376 263 100 85 70
261 614 387 180 126 105
400 882 257 65 58 58
385 448 270 105 80 55
249 381 262 101 85 68
337 768 224 66 53 47
417 899 275 67 57 56
297 598 351 123 12 39
253 508 399 86 29 38
497 849 328 83 69 57
297 388 265 67 56 44
387 527 395 57 30 31
332 980 316 54 52 52
228 488 355 72 25 33
343 63 265 115 54 49
421 643 245 140 102 68
351 383 251 99 86 73
251 384 263 101 85 68
256 382 262 99 84 69
296 794 253 78 61 53
257 503 352 105 66 55
502 869 339 98 82 67
472 543 331 147 100 75
374 243 302 121 95 63
211 548 265 172 0 45
240 372 274 111 91 68
238 358 290 122 97 68
238 483 370 75 24 32
309 324 295 67 54 43
378 92 237 149 15 44
239 358 295 124 96 68
299 399 294 110 70 55
238 363 295 124 97 68
333 32 279 130 36 55
429 572 298 111 89 61
372 118 284 116 94 70
225 416 296 109 91 73
307 383 265 79 66 54
237 368 295 124 96 68
239 363 299 126 97 69
255 703 279 125 9 36
226 416 300 105 88 70
272 633 339 65 25 34
238 368 300 125 97 69
246 453 361 66 26 30
239 369 303 124 97 69
226 417 305 94 76 59
279 168 275 104 82 57
381 488 211 63 35 35
238 373 300 125 98 69
235 376 292 122 96 68
342 9 285 130 67 74
235 378 295 123 97 70
437 867 315 53 45 39
234 383 295 125 99 70
394 701 284 133 11 40
337 393 323 141 101 74
247 568 360 142 4 45
343 521 386 65 37 31
362 44 252 91 34 31
235 382 296 124 98 69
230 600 326 188 0 54
248 483 384 47 27 31
375 268 295 134 99 68
221 428 305 68 30 35
422 935 364 78 69 62
342 10 295 125 58 70
237 378 300 124 97 70
249 618 378 165 118 94
236 383 300 123 97 70
338 338 327 131 89 65
272 743 254 106 22 35
492 557 400 156 22 55
302 792 333 73 59 52
356 588 222 121 22 38
238 383 305 124 97 68
342 411 215 101 80 61
413 493 280 105 21 32
382 938 335 59 52 55
240 356 297 125 96 67
367 193 301 117 94 68
252 613 345 63 44 33
431 467 275 102 33 43
240 358 301 125 98 70
242 358 305 124 97 70
301 862 309 110 74 50
306 388 270 81 63 43
241 363 305 124 97 69
265 757 258 137 8 35
398 463 224 123 26 40
240 366 302 124 97 70
282 14 261 117 93 74
467 820 215 94 83 75
251 758 269 131 8 35
311 537 427 57 28 30
448 545 410 113 18 41
236 448 340 46 28 31
240 368 305 124 97 69
243 358 309 123 97 68
427 573 295 105 84 58
362 103 253 118 45 38
381 941 365 58 53 52
302 453 306 106 72 58
364 416 248 84 63 48
245 358 311 122 96 68
383 739 181 62 50 45
242 368 310 124 97 68
280 233 257 134 103 67
357 158 294 106 87 66
381 704 223 67 50 43
214 439 290 47 33 33
387 694 210 72 58 45
344 178 280 103 84 64
358 228 258 131 100 63
252 528 194 122 24 39
247 363 315 121 96 68
269 493 353 107 65 55
237 418 260 103 85 64
457 548 440 160 20 53
357 563 474 119 10 38
306 388 300 110 73 59
244 364 313 122 97 69
249 359 318 120 95 67
367 593 330 186 2 58
427 542 431 118 18 38
277 468 391 78 25 32
386 537 374 106 22 39
250 356 317 120 95 68
252 358 320 118 94 68
350 93 263 108 69 49
251 363 321 120 96 68
350 172 292 107 88 68
440 535 390 114 4 35
366 961 291 88 80 80
240 373 306 125 97 68
319 309 324 108 84 58
320 410 212 93 86 77
274 592 403 173 117 97
344 565 460 121 30 39
381 443 275 111 85 57
241 373 310 124 98 68
302 509 413 129 14 43
247 373 320 123 97 69
382 228 290 121 96 67
477 488 330 115 19 36
515 855 257 100 78 73
467 468 316 74 29 33
270 491 402 50 24 26
372 88 283 95 36 40
240 376 307 126 98 68
225 714 337 167 115 90
439 566 318 134 96 60
391 783 195 83 62 45
215 524 322 158 12 48
354 53 252 130 17 31
240 378 310 125 98 69
326 728 349 170 2 54
472 869 335 91 78 67
266 421 220 80 53 46
442 438 275 88 15 31
408 463 234 123 18 35
285 208 261 125 98 67
241 383 315 124 97 68
414 905 294 70 61 60
275 616 370 164 103 89
244 379 318 123 97 68
350 849 313 144 113 87
243 383 320 124 98 69
409 897 320 45 39 39
370 158 293 115 92 66
308 852 272 173 116 89
440 891 334 96 80 71
246 378 320 123 98 69
393 73 261 101 30 39
256 352 321 112 90 65
421 787 206 80 60 51
383 213 275 128 100 66
283 893 316 172 126 101
502 807 231 94 81 68
257 358 325 114 92 66
380 483 294 130 92 72
250 367 322 122 97 70
321 473 307 89 62 42
252 368 325 121 96 70
362 803 189 70 57 49
293 493 310 113 76 62
499 553 356 161 104 95
281 531 338 77 35 32
248 378 324 122 97 70
245 382 322 123 98 69
233 478 355 79 22 32
517 843 310 88 66 55
247 383 325 122 96 69
259 748 262 42 32 39
409 706 202 71 59 46
249 374 323 122 97 70
267 598 360 59 31 29
310 924 253 77 67 65
252 373 326 122 97 70
302 438 176 157 8 37
232 478 350 89 21 34
257 373 330 122 97 70
240 640 367 166 115 92
263 503 341 99 65 53
383 173 275 121 96 67
385 806 195 83 63 50
224 602 300 49 30 35
495 856 322 79 68 63
292 411 220 83 68 51
306 887 293 115 88 64
311 504 192 125 12 32
251 378 327 121 96 70
299 413 305 115 73 58
250 382 327 121 95 69
299 370 279 63 51 36
349 624 327 139 29 50
224 602 295 95 32 42
292 412 215 82 67 51
202 498 275 144 0 38
264 630 372 182 118 97
375 450 303 128 92 64
222 473 330 99 14 36
253 378 329 121 96 70
287 584 218 193 9 47
397 422 246 60 18 22
224 467 333 129 6 39
295 433 313 127 86 65
342 383 249 102 88 74
252 383 329 121 96 70
402 83 245 132 17 51
337 843 319 145 111 85
226 608 290 123 27 45
256 382 332 121 96 70
272 493 404 48 29 31
320 591 467 92 4 33
223 419 271 78 58 42
302 509 360 87 24 34
224 424 267 110 17 33
302 503 370 91 28 35
372 68 235 127 28 29
230 421 316 82 62 48
338 32 283 112 45 49
219 433 271 89 22 29
290 432 167 48 36 42
224 428 266 104 19 31
246 392 326 122 97 70
221 428 270 106 19 33
223 433 266 102 13 29
274 192 292 109 88 65
353 194 303 110 91 70
262 228 305 113 92 70
442 488 316 90 17 28
219 423 275 89 29 37
365 293 304 136 100 71
377 702 332 146 7 44
466 517 347 94 10 30
219 420 277 81 24 36
219 420 280 88 32 39
390 116 245 150 84 86
402 923 375 47 42 40
262 368 262 95 82 68
222 418 280 79 59 48
366 837 197 100 76 58
423 463 255 126 20 38
220 422 274 98 24 40
322 912 237 85 73 73
434 539 403 89 9 29
219 523 328 66 27 35
218 423 285 67 29 36
373 413 270 105 86 64
222 418 285 84 58 47
488 859 252 90 71 64
313 298 295 85 71 59
270 60 277 121 96 73
284 93 248 115 52 47
218 428 275 84 30 36
254 513 399 59 30 33
217 428 280 47 33 36
278 567 373 168 7 53
217 433 275 77 27 34
275 663 337 56 27 34
384 91 232 155 17 46
204 513 299 37 28 32
355 436 197 95 32 39
216 433 280 79 24 36
465 805 233 81 68 55
217 428 285 75 28 35
216 433 285 113 18 36
372 558 475 101 15 36
392 763 176 76 58 48
245 477 377 100 15 32
222 443 265 95 19 27
417 544 460 100 30 41
232 448 330 122 9 39
223 448 261 84 26 24
482 553 415 102 31 42
372 483 208 134 10 33
218 443 270 98 14 29
345 767 213 64 51 47
268 549 399 108 13 34
399 552 258 119 12 28
219 444 267 95 19 26
364 579 337 180 16 55
205 498 263 133 2 34
362 238 311 122 95 64
428 808 225 80 63 53
388 673 271 61 30 34
218 448 266 89 21 27
369 525 213 164 11 38
338 582 472 45 30 36
287 643 343 92 24 38
387 52 250 112 96 80
287 478 179 145 17 39
216 438 275 117 14 32
426 537 385 49 27 27
517 828 231 109 84 65
214 439 280 131 9 35
333 397 234 100 86 72
263 47 278 123 97 81
352 633 324 71 32 39
286 218 261 125 99 68
292 343 324 125 83 61
347 328 268 92 80 68
283 603 380 143 88 76
214 440 277 130 11 34
261 48 277 113 49 52
301 793 249 77 60 53
319 295 277 86 73 60
234 822 325 200 138 109
436 583 305 164 112 82
215 436 285 111 17 35
211 448 280 130 6 35
227 723 301 132 98 65
312 401 235 93 78 63
373 163 291 117 93 67
260 416 243 93 79 63
215 443 274 112 10 31
396 68 259 90 39 40
282 683 341 82 31 40
213 443 280 129 9 38
330 257 301 105 84 62
333 273 271 103 83 59
427 597 303 201 132 108
360 248 313 121 95 63
442 529 360 67 25 26
391 768 304 90 73 64
214 443 276 125 7 35
204 478 290 77 19 33
215 447 274 104 11 31
407 783 185 105 80 60
312 743 355 150 18 51
295 592 360 92 26 40
388 103 261 112 52 52
234 398 271 114 92 66
357 198 258 117 94 66
213 448 275 116 7 30
390 931 301 66 59 59
374 840 213 65 56 55
437 468 290 134 21 43
211 448 285 118 8 32
352 138 275 106 86 64
219 423 290 58 31 34
352 693 233 100 22 26
357 433 319 132 95 66
427 493 305 74 11 26
447 467 301 47 34 32
219 424 294 42 32 34
215 438 295 73 32 37
237 513 345 78 29 38
297 788 250 77 60 51
283 753 247 41 36 40
419 712 228 81 64 46
369 208 302 121 97 70
222 418 290 83 55 47
202 493 285 96 27 38
224 419 304 54 34 31
256 508 401 47 29 30
210 462 302 49 23 26
221 423 300 39 32 34
271 286 317 110 88 65
397 88 255 119 23 45
282 528 191 171 2 37
324 492 303 83 50 39
300 10 292 139 73 69
274 625 346 50 26 31
218 428 290 86 28 36
392 653 227 120 91 59
300 10 295 135 63 60
352 133 280 102 82 60
422 865 253 66 56 53
218 428 295 56 33 35
257 588 346 125 20 46
227 783 335 170 120 91
216 433 290 88 26 35
300 10 300 131 50 54
331 566 446 78 25 35
261 397 337 128 99 70
246 643 290 64 30 39
219 429 300 65 29 33
217 433 300 62 32 34
363 687 238 55 33 34
357 529 325 74 37 34
472 558 360 164 108 102
306 505 371 92 31 35
219 430 304 79 29 39
259 601 237 61 25 25
384 58 272 111 86 73
259 599 388 159 116 94
358 323 274 113 91 67
205 488 300 57 29 33
460 521 337 59 11 22
300 10 303 132 48 55
235 387 301 124 97 69
288 238 275 114 90 64
282 308 266 91 80 69
280 82 242 140 25 45
424 541 431 94 21 36
224 423 309 46 29 33
216 563 235 154 9 40
381 663 240 92 70 51
229 409 276 114 92 68
274 700 252 81 36 41
214 496 328 158 22 61
223 428 310 54 32 34
294 590 377 126 36 42
224 429 314 43 32 31
343 784 322 76 59 52
262 533 191 61 34 39
318 293 280 84 72 60
215 437 290 55 33 34
215 448 306 125 5 39
336 238 305 108 88 67
472 494 339 83 12 30
287 248 265 120 94 63
327 968 285 90 86 89
213 443 290 70 28 34
326 865 353 152 122 90
396 622 245 93 78 61
516 846 316 76 58 50
272 398 250 92 78 63
341 883 354 156 120 96
216 658 330 150 105 76
399 530 372 97 18 39
211 448 290 111 15 34
380 444 284 124 94 70
356 773 195 57 48 45
289 874 328 150 107 88
213 443 295 40 31 33
337 938 375 55 51 49
229 410 303 124 98 71
397 523 255 83 31 36
417 798 216 64 48 40
212 448 295 102 14 36
238 388 310 125 98 68
400 65 253 101 39 37
352 818 305 162 115 92
490 877 299 80 65 55
215 441 296 50 30 36
215 442 301 49 29 33
272 323 324 114 88 60
214 444 299 56 28 33
448 860 325 39 32 32
323 410 184 132 46 37
216 443 305 80 23 33
383 218 280 125 98 65
213 448 300 117 9 37
215 446 302 108 13 41
302 653 343 173 5 53
292 373 262 63 55 46
318 348 267 80 70 61
220 438 311 76 23 35
332 543 200 60 33 38
285 44 252 125 45 41
237 723 299 120 76 53
249 673 302 49 38 41
222 438 315 109 14 38
274 520 347 89 54 47
262 840 326 199 137 112
224 438 319 129 8 39
335 218 285 104 84 62
225 504 336 146 13 46
258 522 187 94 32 39
218 443 310 116 12 39
388 630 236 89 73 54
302 488 188 158 5 34
219 444 313 127 5 41
247 488 385 56 30 31
380 523 226 132 18 36
418 827 242 97 78 67
347 458 196 118 24 39
219 449 314 124 2 36
316 388 316 129 88 75
254 697 332 115 73 64
224 415 284 103 84 65
221 443 315 125 4 37
315 572 436 162 16 48
223 443 319 127 4 38
375 153 288 119 95 69
327 713 348 161 18 53
462 533 329 119 80 53
282 38 254 94 36 25
435 583 301 149 106 72
306 738 238 62 31 39
332 848 324 128 100 75
220 448 316 125 2 38
329 269 309 107 86 64
222 448 320 126 2 38
268 827 276 84 65 58
261 476 167 56 35 37
260 512 407 54 30 33
261 162 287 111 91 71
460 914 357 74 57 44
270 106 232 122 29 38
286 563 400 48 24 29
322 574 465 54 26 28
238 388 270 112 90 66
262 478 391 33 27 30
410 422 232 89 29 33
239 389 267 112 91 67
422 541 436 72 28 30
347 43 256 119 47 45
344 48 283 113 88 66
378 824 215 62 55 54
222 703 304 137 101 66
227 753 335 172 120 94
238 393 267 112 91 66
298 493 296 96 42 43
386 502 220 65 34 38
244 403 328 125 98 71
486 860 244 89 74 65
416 419 241 87 28 32
233 388 280 122 97 67
272 308 267 97 82 67
357 243 313 121 96 66
232 393 280 123 97 67
407 618 285 187 121 105
249 664 331 147 99 84
290 263 272 95 78 60
402 798 286 69 55 50
297 590 377 155 18 50
231 398 280 123 98 69
390 488 282 103 65 54
233 398 275 119 94 67
229 399 281 125 99 70
318 463 188 145 9 38
230 397 285 123 97 68
417 638 240 112 88 61
391 102 236 141 49 54
379 609 249 35 32 36
278 183 254 126 99 67
297 918 280 113 82 67
383 468 285 127 91 68
234 389 276 121 96 67
460 517 332 65 5 26
420 708 263 159 108 77
380 781 177 79 61 49
331 233 275 109 88 65
256 549 203 178 7 43
432 526 360 65 26 28
388 803 292 77 60 53
377 123 280 118 95 69
233 393 275 119 95 67
234 394 272 116 93 67
422 505 313 75 6 27
392 43 230 97 37 36
295 476 182 159 1 28
438 788 245 97 67 48
233 413 266 103 85 66
381 243 285 127 98 64
327 574 465 64 22 28
310 333 316 104 70 53
227 688 303 130 96 62
237 403 265 112 90 65
384 98 276 112 57 54
344 72 270 113 20 41
387 532 399 142 20 47
424 470 264 164 26 54
327 383 323 136 98 75
248 393 329 123 97 70
268 333 323 119 92 64
239 408 262 113 90 64
234 409 267 111 90 68
283 513 188 169 0 34
450 545 424 141 16 48
237 413 261 111 89 65
337 9 285 138 71 75
236 388 305 125 98 69
379 32 270 92 66 51
415 549 316 54 21 24
427 599 300 201 130 108
230 402 279 122 97 69
332 10 300 146 35 62
227 408 285 120 96 69
509 815 234 101 84 72
228 403 285 123 98 70
267 573 360 166 4 52
227 413 275 103 85 66
357 448 200 63 37 38
226 413 280 108 88 66
365 573 227 146 8 36
232 537 202 172 1 37
412 725 196 84 61 49
227 423 315 51 31 31
247 388 263 106 87 67
362 548 215 150 11 36
407 443 264 68 17 25
248 393 262 103 86 67
467 839 248 95 86 79
233 433 330 105 19 37
274 679 338 95 26 39
262 223 249 133 103 66
410 695 268 146 94 71
307 373 310 112 77 59
279 569 444 139 104 88
302 19 300 182 130 128
282 602 399 193 129 108
290 613 347 29 26 28
432 463 295 60 21 26
241 398 264 110 89 65
332 338 265 89 79 68
313 488 298 79 39 35
278 163 275 105 83 57
249 389 262 103 86 66
356 388 319 130 97 66
257 393 259 97 83 67
230 808 330 189 130 103
328 298 271 88 76 65
276 148 255 120 96 67
465 513 322 44 37 35
376 497 299 133 96 81
258 28 284 115 26 44
313 762 237 102 44 46
252 398 259 100 84 68
267 44 241 117 100 83
240 402 263 111 90 65
442 733 210 100 75 52
437 899 295 71 58 57
213 478 320 88 17 35
338 723 342 109 33 46
291 299 319 105 82 54
435 579 306 140 100 65
242 408 262 112 90 63
337 363 325 137 97 72
225 441 263 94 21 24
467 828 215 128 109 92
353 118 270 115 92 66
336 878 259 53 48 52
317 854 269 172 115 91
247 403 261 106 87 66
388 703 210 64 53 45
364 137 257 126 99 66
337 962 355 82 77 77
367 378 275 110 89 65
272 173 250 130 102 67
241 409 263 113 90 64
432 743 205 89 70 55
297 728 241 150 4 37
272 418 200 76 55 46
227 598 320 136 19 45
418 503 285 62 22 24
271 578 400 135 102 80
265 586 390 127 94 71
352 423 321 135 96 67
242 413 260 111 89 63
247 413 259 109 88 64
246 408 331 125 98 70
303 439 178 162 3 37
387 518 315 84 45 55
321 951 267 88 79 82
376 421 237 69 15 26
544 823 313 100 85 74
249 782 272 133 97 72
449 882 266 97 86 83
247 415 257 108 88 64
448 506 324 74 9 25
466 549 375 118 21 37
279 274 263 101 83 62
277 419 170 91 58 37
381 44 256 117 103 89
221 588 310 174 1 49
252 403 259 102 84 66
352 333 315 131 96 66
325 18 273 133 77 63
251 408 258 103 84 63
372 433 305 127 95 64
372 878 236 65 59 60
378 208 264 126 98 63
255 403 258 99 82 65
239 753 292 93 69 45
367 188 300 116 94 68
252 388 331 123 97 70
417 638 270 192 128 99
282 813 261 78 62 54
376 593 319 189 10 59
293 602 465 172 114 107
255 406 258 100 83 63
251 412 259 106 86 64
261 249 253 134 101 65
437 798 245 82 60 48
232 393 295 125 98 69
410 545 347 95 12 34
230 398 290 124 97 68
388 895 264 64 57 56
267 153 285 110 90 68
231 398 295 125 98 68
428 511 317 75 16 29
232 398 300 123 97 69
282 543 195 67 32 37
374 635 297 158 17 50
233 388 295 125 98 69
471 468 316 93 28 38
304 575 362 129 25 47
364 358 301 125 98 66
261 11 280 97 40 43
309 883 291 145 109 84
375 419 294 120 92 62
372 537 410 175 17 53
234 385 298 123 98 69
234 388 299 124 97 69
397 940 375 65 58 54
327 778 236 76 60 51
235 391 302 124 97 68
233 398 305 123 97 69
216 728 320 163 111 85
337 453 191 120 20 36
330 400 227 100 86 70
362 113 259 129 95 63
239 389 314 125 98 68
302 423 170 112 21 38
251 562 354 40 27 30
281 208 256 126 99 68
326 447 187 153 7 41
381 138 270 116 92 65
386 48 270 93 34 40
292 522 344 80 28 32
346 556 435 55 29 34
235 396 307 122 97 70
258 832 290 172 119 94
306 368 290 82 64 50
236 398 310 123 97 69
321 814 248 78 61 53
389 33 226 93 49 40
280 426 162 86 41 30
301 854 295 167 111 84
238 398 315 123 96 68
509 913 363 87 72 59
229 403 290 124 98 70
247 584 229 195 16 50
230 401 292 125 99 69
490 549 364 117 80 71
229 404 294 124 98 69
352 113 270 118 93 67
233 428 329 106 20 36
302 518 193 154 2 33
219 582 271 62 31 37
230 402 296 124 98 69
385 428 212 100 37 45
452 448 294 75 23 30
302 852 276 180 122 93
231 403 300 124 98 70
376 428 270 104 83 59
446 473 310 112 25 40
262 188 248 127 99 64
232 403 305 125 99 69
253 577 222 76 34 41
226 413 295 118 96 71
492 533 360 139 100 85
224 415 288 108 90 69
230 412 306 122 97 70
336 34 264 136 29 45
391 523 250 84 32 40
339 205 288 104 84 62
232 408 310 125 98 70
320 328 327 119 85 65
422 877 310 60 52 46
447 494 330 108 4 35
240 412 327 127 100 72
347 393 246 101 86 70
229 415 308 114 92 69
233 413 315 123 98 70
358 901 342 82 66 54
297 508 191 164 1 37
294 631 348 95 21 36
407 468 280 77 46 35
234 409 314 126 99 69
374 423 260 91 75 58
376 603 314 190 10 60
242 598 245 208 14 53
287 248 290 113 89 61
292 613 235 169 13 44
236 408 316 126 99 69
352 308 269 103 85 65
238 403 319 124 97 69
292 519 318 84 25 35
235 412 316 126 99 70
380 414 207 143 8 31
294 347 274 71 61 51
234 415 318 125 99 70
231 433 258 99 14 30
380 208 288 119 95 67
380 822 205 74 61 55
292 578 469 101 75 62
472 923 394 93 78 63
362 40 287 113 40 47
267 748 336 99 19 37
297 764 347 85 69 63
397 443 260 68 27 26
267 488 339 118 78 65
240 388 316 124 98 69
249 464 373 70 20 27
379 254 291 132 98 68
242 608 255 205 14 53
394 100 246 138 25 49
341 193 270 116 94 69
384 924 283 69 59 60
362 37 288 120 12 43
432 932 352 68 61 59
381 453 285 127 95 68
418 658 240 137 98 68
337 550 376 179 15 56
242 388 320 124 98 69
333 233 290 108 87 63
309 393 313 110 71 58
240 392 316 124 98 69
461 518 316 55 32 37
342 410 205 109 71 52
205 508 305 74 30 36
321 428 311 86 61 40
241 393 320 123 98 70
463 518 320 74 34 37
365 902 247 64 58 58
264 442 342 113 82 58
342 368 325 135 98 70
300 28 271 116 75 62
357 888 225 73 64 64
276 813 264 77 59 53
273 484 337 126 89 72
250 510 391 45 28 31
432 518 280 129 12 31
240 398 321 124 98 70
210 504 317 45 25 29
256 634 268 177 9 44
374 23 286 103 28 40
288 443 325 130 92 70
423 552 309 42 28 31
270 220 303 116 94 71
227 423 265 94 37 34
231 418 264 90 77 64
310 353 317 114 77 60
516 832 297 111 85 69
230 421 263 83 72 58
280 170 269 106 83 57
388 864 238 64 55 56
342 944 264 93 85 86
228 419 266 81 72 61
371 763 318 85 67 57
384 106 237 144 21 38
242 518 350 55 28 33
210 476 312 37 31 31
457 521 336 62 9 24
347 883 345 145 112 85
226 417 269 85 74 62
269 179 248 137 106 68
427 522 345 58 33 27
321 932 367 76 54 50
250 510 376 172 9 53
349 154 279 100 81 61
228 433 261 104 14 31
327 549 385 96 24 40
340 796 218 52 46 44
380 198 288 119 95 66
362 613 321 101 33 45
367 753 324 82 63 54
425 769 273 152 112 78
327 517 365 74 37 36
316 454 307 84 60 38
225 433 263 104 12 32
244 773 277 138 96 64
352 29 291 105 60 51
343 238 262 129 99 63
231 428 259 94 22 30
499 560 382 83 14 27
236 423 259 88 74 59
382 443 211 80 34 38
234 429 257 103 15 34
276 49 242 94 38 25
283 421 174 73 53 44
426 753 265 153 110 76
233 433 257 97 17 30
225 438 263 100 16 26
297 418 180 131 43 33
228 438 261 100 14 28
277 607 236 170 20 47
231 438 258 100 14 29
289 403 327 129 91 69
227 488 350 91 22 34
373 473 209 156 10 38
432 533 325 49 31 33
391 648 261 98 63 53
259 688 328 56 26 30
226 447 259 81 29 23
233 438 257 99 16 28
302 358 280 62 51 40
348 930 253 88 79 79
229 493 358 43 26 32
432 498 309 70 7 26
268 57 278 118 95 74
297 533 195 165 0 35
241 417 258 110 88 62
452 922 385 93 77 62
372 944 355 77 70 69
372 103 283 114 92 67
227 418 310 88 67 52
225 422 311 60 27 33
230 416 311 113 91 68
384 478 285 126 88 68
249 501 348 107 67 56
396 738 310 50 31 34
233 418 320 116 93 69
354 416 231 89 66 50
322 534 331 80 38 37
288 78 255 137 28 44
228 424 319 38 28 30
288 417 180 72 57 50
251 793 274 136 97 70
375 643 257 119 25 38
231 422 321 62 49 40
358 313 311 133 98 69
227 428 320 37 32 32
382 738 326 160 17 54
216 513 326 75 27 33
332 394 240 102 87 71
318 898 255 46 43 44
225 432 317 58 32 35
302 358 285 66 53 41
226 433 320 57 28 32
382 888 255 69 61 60
224 435 318 116 20 39
239 632 290 42 34 37
265 342 322 112 90 64
225 438 321 120 14 40
300 654 342 173 6 55
277 34 287 115 46 51
375 632 257 143 16 37
300 313 295 84 68 54
408 424 254 63 21 23
409 480 255 85 23 38
417 749 198 63 51 46
239 409 324 127 100 71
238 413 325 128 101 73
352 408 190 160 23 32
383 819 214 62 55 52
438 879 343 45 38 34
316 401 229 97 82 67
246 662 354 174 114 90
219 533 220 116 16 36
272 73 275 108 35 43
234 497 364 166 1 50
318 517 406 76 35 38
500 556 349 210 143 130
494 560 348 218 97 104
248 389 328 123 97 70
451 508 306 89 24 28
245 398 327 123 98 71
287 591 222 192 11 46
262 348 324 112 90 65
442 563 325 142 98 65
382 158 275 117 93 65
396 59 250 85 67 53
249 384 328 121 96 69
345 196 297 104 85 64
251 393 331 124 98 71
369 479 307 137 100 79
251 468 342 96 49 45
367 527 320 101 79 73
357 808 195 61 50 44
218 578 270 108 32 43
257 388 334 125 97 70
438 882 343 52 45 39
355 142 287 103 83 60
257 393 335 126 98 70
367 133 257 125 97 64
447 882 285 78 65 59
333 425 183 162 0 37
251 398 332 124 98 70
241 403 325 125 98 71
242 768 280 134 96 63
272 183 249 136 106 69
243 408 329 126 98 71
297 859 315 119 88 66
308 348 270 66 58 51
399 90 242 144 27 57
372 773 314 85 66 57
292 918 290 60 55 56
220 579 265 84 29 38
247 403 330 124 98 71
302 579 390 126 43 52
248 413 334 126 99 70
403 545 461 144 17 44
239 470 363 67 27 35
217 483 330 105 15 35
378 253 295 129 99 68
252 403 334 125 98 70
332 873 356 155 121 87
256 673 280 94 18 35
359 430 198 83 40 45
231 504 345 176 0 52
249 404 333 125 98 70
354 128 284 101 82 60
401 83 250 130 17 50
249 408 333 125 99 71
477 493 340 96 16 33
383 47 254 116 102 87
252 413 336 128 99 71
255 407 337 127 99 70
379 233 268 133 101 62
257 408 339 129 99 71
254 414 338 128 99 71
230 433 326 51 29 33
229 429 324 36 31 32
235 417 321 125 99 71
265 307 317 124 93 65
252 503 350 106 66 55
508 818 221 160 140 131
447 552 364 55 25 26
317 358 266 81 71 60
396 768 175 89 70 55
281 243 299 110 87 60
261 614 249 145 26 47
302 838 264 164 117 93
433 483 309 84 11 31
279 108 271 112 85 60
234 420 323 117 94 70
311 368 316 121 81 66
285 590 438 194 130 111
273 173 286 107 86 62
236 422 326 107 86 64
383 223 280 123 97 67
277 33 253 60 38 30
245 456 362 46 28 28
306 778 248 79 61 52
293 420 167 114 35 37
277 458 170 158 3 35
237 423 329 105 73 54
251 508 395 95 25 39
312 643 241 89 28 36
234 425 328 97 34 39
432 443 260 149 16 38
297 573 465 73 62 51
307 418 172 154 7 32
225 477 336 54 27 30
283 463 331 134 99 78
353 179 262 123 95 58
238 428 334 112 20 37
412 533 404 72 18 28
357 183 258 129 100 63
442 753 225 72 54 37
237 433 335 95 22 36
473 466 307 121 47 55
227 478 340 74 26 33
288 488 321 124 88 72
451 500 317 89 18 21
263 713 333 57 29 32
332 977 325 60 56 55
239 430 338 96 21 38
416 838 259 74 60 48
230 437 327 81 24 34
233 438 330 90 21 36
312 453 185 160 0 34
248 474 378 109 19 35
373 765 172 80 62 54
406 535 423 91 24 37
477 551 410 98 28 40
341 329 267 88 78 68
225 442 322 128 5 38
220 568 316 150 1 44
362 418 195 99 29 37
322 373 324 133 95 76
218 488 335 95 21 35
226 448 326 127 4 38
262 12 290 96 43 44
472 523 351 66 15 25
307 408 310 96 62 48
229 798 301 194 129 101
402 760 163 90 68 53
233 443 327 110 13 34
259 657 272 154 0 39
397 828 270 40 34 33
377 68 230 106 30 26
394 790 190 106 78 53
229 440 328 123 7 41
235 434 332 120 18 39
372 218 300 122 97 68
235 438 332 74 24 34
481 555 370 144 17 52
333 10 276 145 64 59
337 9 295 136 59 75
215 565 268 130 28 46
416 553 270 112 33 45
236 438 335 81 21 35
407 605 256 98 81 63
420 751 188 78 59 47
367 233 260 133 101 61
235 442 331 89 31 36
467 549 435 163 22 53
278 108 250 145 101 78
234 443 334 84 19 34
368 203 302 120 96 68
368 383 285 109 87 63
234 440 334 73 23 33
347 343 265 94 83 72
272 421 164 112 45 32
444 518 294 182 16 45
235 443 335 73 22 34
221 678 341 176 121 97
266 398 254 92 79 66
258 663 275 126 8 36
262 114 235 144 98 74
250 662 335 149 97 81
407 553 335 144 18 50
432 488 306 61 28 29
267 648 336 114 19 39
238 438 340 78 20 32
259 245 308 118 95 70
260 678 327 47 25 28
262 626 378 192 130 106
316 334 267 77 66 56
239 440 344 69 25 37
369 530 312 111 95 87
262 298 265 92 74 55
285 253 298 112 87 59
382 73 226 132 25 35
236 443 340 79 23 36
359 600 228 86 45 47
433 727 204 82 63 47
298 578 399 114 45 53
447 873 290 65 54 45
353 448 198 52 37 39
236 448 345 49 29 32
337 564 366 177 5 56
238 443 345 42 27 31
395 53 235 95 29 34
285 250 298 111 87 59
376 84 234 150 14 44
242 418 330 125 98 70
247 418 334 125 97 70
374 903 261 67 59 60
375 423 271 106 86 63
247 423 335 118 90 65
233 628 340 109 86 58
392 749 160 83 61 51
271 421 214 75 55 45
240 426 332 93 48 34
328 243 275 114 91 64
220 733 303 143 101 72
339 278 267 115 91 63
401 718 300 141 21 49
415 744 162 104 75 51
357 728 336 134 22 47
242 427 335 81 45 35
335 228 268 115 91 64
254 459 374 55 23 28
241 433 341 81 22 32
263 627 257 186 8 45
280 540 413 90 19 32
313 873 285 148 107 77
244 430 343 105 23 35
264 114 239 149 107 77
287 278 266 91 77 63
381 573 323 178 4 56
311 747 353 178 17 57
418 849 255 71 60 55
409 449 233 88 39 44
370 427 202 69 31 35
247 429 339 99 47 39
267 29 291 126 34 51
412 511 321 68 27 31
317 873 280 157 114 84
335 222 275 106 86 65
356 843 204 82 66 61
418 601 263 103 86 68
272 419 215 78 59 48
272 333 325 122 92 65
245 430 343 100 27 32
329 714 347 169 16 54
248 431 341 93 45 37
344 174 275 108 89 68
287 533 424 94 20 35
253 418 339 128 99 71
432 533 300 57 27 38
316 955 274 80 74 76
250 423 337 123 96 69
257 418 340 131 100 72
252 428 339 110 81 59
272 557 390 156 10 50
267 663 264 141 0 35
383 78 227 149 19 39
403 751 159 100 70 50
428 748 255 144 103 66
449 465 308 100 33 41
203 508 275 147 0 38
412 863 270 67 60 55
365 413 313 130 99 70
252 432 341 101 65 49
218 558 315 164 0 50
349 200 303 108 90 70
287 593 224 167 15 44
468 885 285 75 63 60
244 435 348 123 12 36
243 444 339 82 25 35
409 578 298 106 60 59
252 608 380 152 112 87
334 420 183 161 0 33
243 448 339 71 26 32
389 849 229 66 57 56
332 748 227 99 23 34
282 8 295 123 49 49
487 867 270 81 69 57
240 442 346 82 23 33
358 458 317 130 94 69
352 522 355 67 39 34
252 434 345 99 51 41
393 778 296 80 64 56
257 434 344 112 77 56
291 677 342 40 30 31
247 583 350 30 27 31
421 505 277 73 24 33
252 435 350 97 41 34
379 648 249 90 57 49
310 326 306 77 55 37
418 698 230 100 79 55
247 438 355 112 11 37
343 203 299 103 83 62
268 733 339 156 19 51
367 183 258 132 101 63
266 58 277 109 88 71
243 443 354 121 10 35
379 543 233 123 29 43
425 829 234 86 71 66
302 328 305 104 69 49
266 64 217 97 43 19
277 783 254 71 58 50
271 73 221 137 25 44
277 133 265 106 84 59
318 383 319 132 91 76
265 121 242 132 99 64
382 534 411 107 18 33
246 442 356 99 14 34
509 906 347 91 78 65
282 8 290 119 60 56
357 223 257 129 99 62
479 874 267 111 93 76
248 443 359 66 23 29
404 885 270 65 60 60
217 458 315 127 1 38
380 138 278 118 93 64
417 583 310 167 109 100
250 661 340 151 95 79
447 923 354 68 54 47
463 549 432 168 20 56
326 912 237 92 79 78
247 448 360 102 16 34
421 463 250 137 19 39
250 435 353 108 20 26
446 540 370 147 16 45
380 911 272 73 64 64
237 628 310 48 31 34
252 436 355 107 22 36
296 406 240 78 65 51
252 439 359 113 14 35
512 841 306 91 69 57
285 590 446 194 123 109
251 443 361 76 22 32
277 138 270 109 84 55
372 78 235 144 18 44
372 68 281 98 73 59
250 446 362 121 9 39
464 819 249 97 80 70
352 68 256 128 25 35
435 814 232 95 77 65
281 799 258 75 60 52
437 891 335 85 70 64
436 489 310 75 22 29
312 393 245 91 77 62
257 443 365 78 15 32
342 818 309 160 115 93
255 446 367 75 19 29
323 487 303 85 54 41
280 540 385 129 0 39
257 448 370 68 21 31
379 433 280 112 88 59
356 153 291 102 83 62
255 698 279 68 26 35
347 528 201 105 30 39
207 463 280 122 10 35
287 238 285 115 91 64
437 778 240 89 63 47
342 448 320 107 79 55
392 653 261 92 58 47
267 223 304 115 94 71
393 755 171 73 56 45
278 506 353 97 60 51
292 753 244 77 33 36
238 597 246 207 15 54
502 844 305 88 68 55
367 378 280 109 87 62
242 823 340 193 138 113
360 796 313 158 117 99
304 398 290 96 64 50
208 473 270 119 12 32
277 845 305 56 48 47
370 428 308 130 97 66
206 478 270 118 10 32
209 463 275 70 24 35
370 288 290 131 93 64
401 537 425 95 18 39
317 520 351 78 33 35
285 93 251 103 79 58
374 619 306 125 17 46
362 538 409 122 17 40
208 468 275 118 11 33
425 708 245 142 97 62
307 593 435 176 116 100
434 588 300 174 118 88
206 468 280 126 4 34
381 592 314 142 31 54
427 547 465 155 21 50
382 893 260 72 63 62
205 473 280 126 2 32
392 28 228 94 44 33
205 472 285 128 2 35
296 483 310 123 85 70
297 512 311 93 24 37
374 619 248 69 33 36
392 433 254 66 23 27
272 148 250 125 99 68
205 478 275 128 3 33
359 417 238 78 56 44
204 478 285 117 10 35
432 552 320 112 77 37
466 848 244 106 93 85
389 672 263 51 38 39
382 116 242 163 22 47
204 474 285 131 3 35
224 532 202 176 7 44
274 316 268 96 81 66
204 475 282 129 1 34
359 343 306 135 103 71
234 511 343 110 16 39
404 416 228 56 41 41
213 453 271 90 21 27
217 453 265 64 29 29
215 462 264 37 34 35
213 463 265 40 33 37
252 644 366 189 127 102
279 472 368 89 32 36
314 406 313 117 77 64
300 318 285 70 61 51
211 463 270 36 33 35
299 411 279 66 50 39
214 459 266 67 31 32
279 846 302 63 53 51
464 514 340 91 2 29
216 458 265 73 31 33
383 69 227 96 36 20
229 468 343 75 30 34
426 741 163 123 87 62
215 456 268 88 23 24
277 29 291 134 31 53
333 836 252 151 107 82
335 867 264 68 61 61
220 451 263 81 29 24
372 193 260 136 103 61
369 77 237 134 26 40
218 458 260 48 34 37
317 793 240 76 60 52
372 148 290 115 92 66
219 460 257 38 35 35
332 473 311 93 67 47
232 503 350 183 1 55
374 217 297 121 96 67
220 457 258 41 33 29
210 458 274 101 18 30
532 813 299 95 79 64
317 525 342 79 36 37
394 809 287 73 57 49
267 508 352 101 65 54
210 456 278 132 10 38
208 458 285 123 3 34
381 634 260 141 79 67
252 633 374 185 127 103
269 84 224 152 19 46
437 823 230 94 73 61
367 58 284 97 32 38
210 472 264 76 28 31
352 521 365 64 42 36
232 659 307 108 78 47
262 52 230 125 108 92
359 303 273 114 92 67
213 469 261 60 33 33
225 751 298 132 98 64
247 534 199 171 2 37
287 468 325 131 95 76
328 458 313 91 67 45
228 493 355 84 22 36
297 398 265 73 60 46
227 768 294 139 101 67
370 233 304 122 97 66
216 467 259 71 34 35
293 53 265 119 30 39
252 583 226 149 20 42
301 338 280 60 52 45
373 613 311 161 20 55
214 464 262 66 32 40
372 525 393 63 35 29
374 108 282 115 93 68
340 853 254 53 47 49
209 470 267 86 25 34
383 658 235 114 87 62
291 484 399 58 20 29
367 113 286 114 93 70
474 550 417 93 28 37
251 473 343 91 50 44
367 638 310 137 21 48
207 463 290 124 2 34
402 438 259 64 21 25
352 410 213 119 60 48
343 193 267 117 94 67
352 891 212 95 84 81
205 473 290 130 2 36
208 543 300 136 11 43
378 438 290 125 95 66
387 63 229 97 33 24
208 468 300 74 24 33
427 829 254 63 51 42
207 473 300 81 24 34
255 471 382 74 25 33
402 428 254 58 19 23
337 23 295 122 87 66
204 474 289 130 6 32
362 238 260 131 100 62
347 563 460 117 23 41
376 453 300 128 93 66
236 798 341 177 127 100
359 453 317 131 94 69
205 476 292 128 8 38
368 418 310 129 97 67
205 478 295 118 15 38
444 498 328 99 0 35
252 498 350 106 66 56
208 473 305 46 27 30
462 480 324 130 15 40
357 943 370 60 54 52
210 453 295 123 2 35
298 303 310 100 71 50
290 561 446 75 62 50
223 459 329 126 1 37
325 450 312 84 63 40
209 454 289 123 1 35
467 543 330 140 94 68
209 455 294 122 2 36
276 458 370 94 33 37
278 842 285 85 66 60
212 453 300 122 1 36
426 539 400 100 16 33
209 458 295 124 3 35
282 498 180 70 34 40
391 516 320 79 38 46
498 865 250 111 88 68
216 533 321 152 4 45
241 488 376 81 20 33
369 540 424 70 16 34
301 318 295 83 67 53
284 610 347 141 28 50
417 418 245 71 26 30
352 973 330 76 74 75
229 472 343 111 18 42
412 708 269 151 99 75
210 457 296 124 3 34
280 242 257 133 103 67
235 570 223 140 33 45
256 477 386 92 26 37
412 778 182 104 78 58
209 463 300 78 22 32
436 545 430 165 18 53
215 452 307 121 1 34
414 601 263 99 83 66
295 294 282 86 75 64
240 482 371 68 27 31
219 748 328 172 116 91
216 453 310 124 1 37
230 809 314 195 133 103
362 633 245 64 33 37
374 534 302 119 106 99
272 803 340 171 129 97
412 919 374 50 43 40
214 455 308 124 0 37
214 459 309 125 1 37
457 560 357 202 143 131
304 483 188 164 2 33
495 554 399 113 19 36
388 51 255 104 92 79
215 458 311 126 1 37
216 463 316 129 1 37
296 764 243 85 50 48
332 808 239 76 60 53
319 976 307 90 86 87
214 464 314 129 1 37
384 679 231 92 74 55
272 58 230 102 49 29
219 455 318 125 3 36
334 738 342 45 26 31
221 453 320 126 2 37
407 478 290 75 6 31
357 410 214 125 34 31
348 383 322 136 98 70
281 83 245 133 31 42
210 467 306 51 25 30
257 543 199 162 9 40
240 778 283 145 99 68
244 459 363 55 28 32
211 468 310 98 16 35
209 470 308 33 31 32
337 718 344 154 26 55
346 813 210 55 48 46
392 823 235 73 61 58
421 482 291 75 26 36
347 343 320 125 93 63
262 118 240 140 102 70
209 474 309 43 29 31
243 822 301 201 135 105
252 498 345 106 67 56
324 270 298 102 82 60
249 511 382 178 9 51
292 702 352 46 29 31
210 472 311 59 24 31
348 83 265 116 36 40
357 940 372 59 54 51
213 468 315 111 12 36
370 411 222 87 20 28
256 515 385 92 29 37
216 468 320 118 9 36
384 105 272 121 65 58
367 783 181 74 58 50
214 469 319 66 22 30
213 473 320 73 18 32
209 478 313 31 29 31
312 363 319 122 83 68
342 38 259 125 32 35
418 493 290 62 20 26
207 483 265 86 21 33
267 31 253 108 93 77
338 538 312 76 35 35
205 483 270 119 10 35
205 487 269 129 4 33
297 863 310 117 86 62
204 493 270 135 0 36
421 725 191 84 61 45
417 793 281 157 117 89
203 483 280 134 3 37
357 298 271 114 91 65
357 58 250 78 46 37
366 283 275 134 97 67
272 88 274 105 52 48
203 488 275 133 4 35
205 482 274 131 2 36
426 604 266 102 83 62
252 572 359 149 2 46
357 488 201 146 8 36
347 399 241 100 85 69
483 542 338 123 93 69
203 483 285 134 6 37
234 616 318 179 0 50
203 493 275 139 1 36
357 537 310 82 52 51
357 278 315 128 95 62
202 493 280 131 9 39
269 529 347 85 54 45
304 590 453 102 34 47
214 557 237 137 21 44
204 498 265 136 0 35
383 483 213 122 19 31
368 97 247 141 25 43
275 148 252 122 98 69
414 668 233 117 91 60
204 504 261 137 1 36
433 433 259 113 19 36
347 12 301 107 48 54
294 286 295 109 88 66
204 500 262 134 1 37
317 408 215 97 82 65
261 458 344 112 70 57
342 368 253 95 83 72
442 524 315 134 18 43
204 503 265 140 0 37
203 498 270 140 0 37
427 867 256 73 58 54
387 413 230 59 20 24
322 507 302 101 21 40
286 63 250 115 31 34
472 553 375 146 18 46
203 503 270 143 0 38
307 693 238 109 18 28
362 223 309 121 96 69
204 508 260 139 0 37
292 444 173 63 38 39
341 877 214 78 67 61
204 513 260 145 1 39
224 558 323 154 0 46
346 694 338 96 24 38
203 508 265 143 0 38
277 123 270 110 83 58
317 568 364 52 24 30
338 620 233 89 22 36
467 465 313 109 26 39
203 508 270 146 0 38
409 898 342 54 47 42
262 123 276 109 91 72
203 513 270 150 0 39
215 663 314 161 108 83
359 138 262 121 94 59
361 383 314 125 96 65
284 223 258 129 100 65
202 498 280 142 2 39
428 513 279 137 16 35
417 548 285 144 19 48
203 503 275 146 0 39
272 533 380 153 1 47
307 473 186 159 0 32
315 409 312 115 76 63
242 668 350 171 114 91
418 479 294 61 17 26
442 493 315 85 11 30
202 503 280 146 0 38
202 508 280 148 0 39
414 880 338 36 34 34
377 407 220 106 21 28
202 508 285 124 11 37
204 483 290 93 22 36
203 488 290 99 22 37
287 88 255 115 51 48
204 483 295 71 26 33
279 415 221 88 72 55
332 548 418 76 21 30
455 886 308 72 58 58
357 883 201 100 83 74
350 85 263 128 24 31
205 483 300 79 25 34
286 777 343 71 58 51
378 438 270 105 82 55
367 138 256 125 97 63
206 483 305 64 25 31
352 18 302 103 50 55
284 68 248 115 90 68
281 188 280 102 80 54
387 48 260 94 80 65
369 284 301 138 101 72
465 540 374 73 24 33
204 489 299 45 29 31
