ply
format ascii 1.0
comment Created by Open3D
element vertex 2226
property double x
property double y
property double z
property uchar red
property uchar green
property uchar blue
end_header
268 398 277 77 60 38
390 708 244 83 22 33
350 80 232 92 26 36
374 30 206 87 68 67
340 95 199 110 70 54
451 811 331 51 41 31
291 740 311 69 25 34
330 215 234 124 96 67
374 89 206 138 18 49
328 408 324 72 52 29
380 460 42 100 47 29
306 210 193 110 92 71
382 796 334 147 98 73
345 815 152 185 127 96
371 16 208 85 85 85
399 540 207 50 32 34
370 16 211 85 85 85
349 685 337 115 91 62
362 448 50 86 74 55
335 140 199 118 98 75
450 755 317 79 60 48
360 442 67 90 66 44
311 891 237 63 56 54
367 46 203 87 50 44
404 504 72 191 14 50
379 595 212 178 17 50
340 745 365 157 111 84
379 437 93 114 44 36
424 420 252 151 7 44
298 255 190 118 94 65
298 762 190 47 46 51
320 230 316 115 93 68
294 591 170 83 24 35
391 485 132 102 18 37
262 440 262 77 26 35
307 447 74 110 36 33
428 790 293 50 45 41
367 46 206 81 47 41
342 922 235 72 65 67
423 420 256 152 6 46
294 255 196 116 93 65
302 444 88 169 9 47
330 625 117 157 106 66
277 707 204 48 35 37
353 47 213 101 88 76
421 820 297 79 68 60
353 47 217 96 80 68
277 353 240 131 90 73
360 55 198 97 66 53
355 51 203 105 91 79
347 393 242 67 58 49
416 430 117 166 19 43
289 670 202 42 39 42
386 19 313 52 48 45
305 426 382 99 9 33
323 661 167 138 91 79
260 295 287 106 87 67
327 299 195 103 84 65
288 670 205 40 37 39
405 730 252 61 44 37
355 50 207 106 94 83
424 129 287 132 18 48
385 675 262 80 24 33
354 600 127 155 111 80
321 110 230 114 92 69
375 80 212 125 11 45
360 51 207 101 87 77
296 630 343 174 126 99
303 475 102 110 28 43
292 763 212 88 71 65
384 845 318 36 32 32
315 545 132 140 7 39
360 52 203 99 80 69
292 912 243 95 76 59
375 399 298 109 8 31
344 670 142 135 94 63
295 345 248 97 72 53
370 398 298 95 29 32
415 40 302 112 96 80
360 53 201 101 81 69
400 810 247 73 60 58
325 870 357 36 36 38
410 878 323 69 60 57
326 543 124 56 37 27
354 220 315 131 100 63
441 751 342 70 51 38
417 450 181 165 13 43
456 801 330 64 52 40
352 86 229 85 44 37
333 279 198 107 84 58
284 485 152 143 3 35
355 59 196 101 42 22
342 96 200 90 58 37
340 432 94 98 81 63
412 736 226 62 49 40
300 431 97 95 71 45
305 928 350 72 66 64
307 245 235 117 93 69
360 61 194 100 41 23
400 530 202 99 23 37
291 345 194 111 90 66
310 180 227 108 88 66
365 61 193 88 44 20
380 900 302 54 49 47
365 65 192 108 39 26
303 524 130 96 27 33
310 404 157 100 87 73
316 375 179 90 80 71
345 710 142 139 96 60
326 271 319 143 99 73
352 48 210 106 94 82
389 885 287 59 52 51
314 135 223 114 92 69
291 440 127 120 22 38
355 49 217 93 79 68
369 849 177 138 111 84
360 51 212 98 86 76
467 812 334 83 66 57
364 170 285 104 83 57
360 51 217 91 80 68
360 826 328 65 41 42
355 50 222 82 61 49
302 484 104 89 37 43
318 720 347 178 124 99
356 76 229 84 49 45
268 470 212 121 8 39
347 200 217 123 96 66
395 750 343 47 35 28
295 500 137 85 34 40
352 675 155 143 99 73
358 523 74 213 135 123
334 365 287 99 81 61
360 55 222 69 45 36
370 398 257 64 54 43
365 52 212 93 79 69
293 747 309 53 28 32
284 885 260 154 116 86
337 200 229 123 95 66
361 510 67 150 91 83
291 240 202 115 93 69
366 53 213 91 79 70
410 710 250 59 41 33
288 238 219 118 95 71
415 705 292 66 53 39
392 736 337 34 27 23
405 404 217 100 22 30
335 200 231 122 95 67
318 709 170 76 57 47
279 520 232 148 0 40
350 85 194 137 29 38
270 399 252 81 52 43
372 480 63 95 15 31
315 444 72 94 72 52
335 423 116 100 85 69
393 495 305 64 22 30
384 585 217 145 20 45
365 55 217 86 75 65
304 790 227 80 64 59
355 220 277 117 91 59
279 435 162 113 23 35
283 502 292 115 11 37
275 437 342 68 27 24
364 56 221 66 50 38
388 48 275 128 5 34
410 399 242 113 29 40
282 437 395 53 31 24
406 805 277 59 48 47
264 404 217 103 63 50
366 165 284 102 82 58
317 423 369 36 30 26
365 60 222 72 32 28
289 403 246 83 63 49
364 125 292 100 82 62
335 640 342 138 98 67
277 509 226 156 0 43
370 40 203 85 29 28
381 615 262 56 29 35
392 719 292 47 32 26
414 445 271 80 23 32
370 40 205 82 28 28
351 621 171 90 29 37
374 33 203 88 58 57
360 104 221 109 40 45
370 45 201 91 36 33
287 915 277 77 64 53
370 45 206 77 32 30
339 510 355 141 12 43
384 65 303 101 17 39
350 910 236 62 55 56
405 730 332 46 37 29
329 371 184 95 84 72
373 42 204 86 25 27
373 42 205 85 25 27
393 717 276 68 34 33
274 280 286 88 78 69
303 782 257 83 65 60
385 830 319 37 33 32
372 163 309 126 97 66
357 891 231 63 57 58
360 485 333 159 2 47
375 80 197 133 27 42
410 855 323 74 65 56
315 270 186 113 86 59
368 785 164 155 107 76
373 45 205 89 22 28
288 564 350 130 95 69
409 510 262 158 10 44
328 199 292 97 81 66
275 445 177 90 21 38
347 885 202 84 72 67
370 55 197 92 36 20
328 555 107 158 107 82
344 569 104 168 111 81
373 50 199 100 30 23
333 289 203 123 95 69
370 50 208 77 42 34
414 116 280 100 14 26
441 105 287 120 37 46
285 640 262 95 25 41
371 115 283 89 71 49
312 13 264 102 42 39
374 575 316 171 11 53
310 865 248 148 118 89
375 55 207 88 27 31
275 866 282 104 86 67
310 411 142 100 86 72
363 700 189 95 26 25
325 505 363 98 22 40
370 65 192 104 40 26
283 515 272 117 22 40
361 843 421 91 70 55
337 360 223 117 93 68
320 490 37 83 30 39
320 215 185 120 96 68
305 350 185 93 81 68
320 444 71 96 79 59
331 280 223 134 100 72
278 725 282 73 32 39
398 814 243 59 49 47
350 844 391 70 58 53
374 60 197 91 38 22
288 530 301 70 24 31
378 61 203 95 27 31
335 655 174 97 65 55
415 876 342 64 57 54
403 510 286 33 27 31
377 58 207 91 27 33
387 414 294 134 12 41
340 145 223 121 93 66
375 530 322 65 27 34
277 475 172 128 12 38
373 676 209 39 32 37
408 465 87 154 6 45
377 64 200 101 35 32
314 906 373 59 54 52
378 65 202 101 33 35
345 645 316 122 15 41
380 155 307 127 98 66
320 406 153 100 86 72
381 615 247 116 23 42
361 724 358 151 105 76
309 410 325 93 75 55
369 56 216 82 66 56
305 871 325 121 91 75
372 53 209 76 32 27
300 941 338 68 63 63
441 95 287 118 28 40
342 230 196 114 91 65
276 525 212 108 17 39
422 73 298 119 102 85
374 56 211 78 35 32
382 455 314 74 19 31
305 660 187 81 34 43
440 849 313 83 67 60
339 205 193 119 95 68
373 57 215 79 49 40
423 106 310 137 6 54
419 75 283 90 76 59
390 490 52 197 14 41
370 60 218 75 44 34
311 660 307 85 18 35
264 465 332 107 18 36
330 220 316 120 97 71
299 235 229 113 91 66
374 60 215 78 39 32
385 881 332 41 37 36
311 690 347 177 126 99
266 460 312 170 1 44
305 315 246 108 78 60
365 85 194 148 15 39
376 60 213 79 32 28
297 205 203 109 91 72
308 685 337 172 123 101
305 200 197 115 95 72
451 750 317 91 70 54
356 485 71 68 35 23
439 750 317 93 73 57
382 453 56 97 56 39
342 215 224 128 100 69
375 65 217 92 27 35
422 74 303 120 103 86
272 712 209 60 28 32
301 775 272 80 64 58
361 454 338 56 28 30
372 64 219 89 30 34
305 515 122 134 9 35
379 883 329 36 34 34
370 65 222 91 29 36
316 14 264 102 46 47
345 690 142 136 95 59
325 590 122 148 103 75
360 469 63 133 5 38
352 116 214 130 95 70
325 645 352 129 87 55
360 406 167 98 84 69
378 61 211 86 30 30
380 454 52 93 57 41
363 492 73 86 29 28
351 694 353 131 96 63
413 448 152 100 33 44
298 547 319 169 9 54
425 709 308 78 57 46
377 64 213 85 26 35
387 556 191 184 19 47
415 135 297 146 13 54
312 226 235 118 93 70
398 725 187 86 50 47
354 51 227 70 29 29
274 370 232 133 95 71
329 565 342 60 24 32
420 435 172 177 3 54
331 325 202 113 91 68
297 257 282 94 81 67
356 55 227 66 25 25
313 700 180 64 33 36
461 725 363 94 70 53
408 445 212 139 6 39
274 350 212 113 90 63
357 53 224 65 34 28
355 65 231 78 26 30
400 849 367 63 51 40
389 490 137 122 20 43
351 394 257 60 50 39
267 464 227 106 17 38
394 737 194 77 52 46
410 475 237 51 32 35
360 65 227 73 37 35
277 364 240 128 87 72
380 432 107 142 31 37
340 700 361 146 102 70
363 61 225 75 32 30
325 305 193 102 84 65
284 410 318 121 92 73
355 80 191 141 18 34
360 75 190 145 21 38
300 876 357 58 56 58
285 460 147 73 33 37
292 712 189 46 31 31
330 210 314 114 92 69
409 845 377 66 57 50
365 70 191 135 26 33
307 855 254 127 104 78
365 75 191 144 16 38
300 240 302 106 88 70
392 495 117 85 26 37
370 70 192 129 30 33
392 795 192 60 49 44
329 397 168 99 85 72
381 45 282 107 22 36
279 495 272 141 8 43
327 81 204 119 41 36
333 69 205 93 65 44
330 190 232 118 94 68
454 745 337 95 74 58
422 431 132 196 15 50
332 72 204 85 67 45
344 250 278 115 87 55
350 106 222 113 78 59
266 440 202 144 1 39
331 75 203 95 53 34
295 530 368 161 112 91
363 233 297 141 103 71
329 74 205 92 76 58
302 469 103 50 36 39
345 415 337 52 25 27
335 75 201 98 34 28
268 384 218 134 100 70
369 471 61 67 28 34
425 740 312 64 50 40
348 918 345 48 44 42
323 70 210 117 65 55
288 615 283 93 32 40
332 295 222 121 95 67
313 461 72 196 0 54
264 443 373 66 32 28
313 154 224 110 90 68
454 839 332 72 59 50
322 80 209 128 28 42
268 465 197 55 31 33
310 805 237 185 136 115
345 194 314 120 98 73
258 426 247 171 0 47
361 620 197 176 16 46
347 165 207 126 99 66
267 395 212 133 99 70
325 540 107 101 61 55
326 85 203 119 41 35
310 693 314 120 8 36
317 136 204 111 93 75
371 110 282 90 62 44
322 90 208 105 87 66
323 90 206 112 87 65
317 691 157 157 117 91
340 125 223 116 89 66
333 486 29 81 37 29
340 150 197 119 96 70
323 95 205 122 31 33
300 351 259 81 60 39
321 95 208 121 33 37
287 681 204 43 39 42
296 520 369 129 58 57
298 512 135 40 39 35
359 225 283 123 95 61
326 90 203 128 31 36
287 692 199 65 42 41
345 103 230 106 65 56
381 65 301 101 22 41
308 475 91 43 37 40
335 85 199 122 38 39
408 475 276 57 25 31
316 215 302 105 88 71
335 245 320 129 100 68
333 84 200 124 38 36
329 898 218 69 59 55
471 810 317 99 76 63
400 85 277 96 66 48
371 897 348 46 42 40
376 85 282 94 22 34
378 630 242 115 25 41
369 195 288 126 96 62
332 89 199 126 68 53
334 92 200 127 98 70
296 399 185 93 82 72
317 805 153 160 113 79
345 70 197 134 32 39
275 595 217 164 0 45
339 70 200 121 24 33
264 490 356 57 20 27
320 146 199 117 96 72
290 650 282 90 26 37
378 55 287 96 66 51
320 140 227 112 90 66
341 75 199 98 47 39
370 859 405 70 57 47
342 174 195 126 99 67
322 489 41 64 27 31
376 535 142 53 26 29
270 395 312 129 97 72
340 80 198 124 37 35
345 765 367 163 118 89
406 515 227 164 13 44
345 80 196 130 32 37
272 509 192 166 0 42
342 185 224 125 99 69
380 410 162 82 58 47
271 335 227 121 90 60
338 75 200 96 39 35
365 826 322 48 38 38
363 715 178 96 33 29
269 390 202 120 94 64
289 915 272 80 67 54
309 170 224 109 89 68
315 430 377 63 22 30
410 120 281 90 22 27
375 20 312 108 30 43
348 70 195 137 31 39
267 511 328 63 26 30
301 335 314 132 101 67
305 370 183 91 80 69
377 34 283 124 39 48
380 55 297 105 82 62
317 195 189 119 98 75
325 962 260 91 88 91
351 70 193 134 28 33
369 447 54 97 62 42
341 165 223 120 94 66
334 760 363 158 113 85
343 254 215 130 99 68
348 75 195 115 73 59
283 288 234 98 80 60
355 85 192 144 17 37
338 270 284 120 90 61
335 565 132 84 15 33
304 185 223 111 91 70
340 90 198 141 29 41
282 555 183 83 21 35
345 95 198 135 51 50
345 545 97 177 112 88
304 565 365 158 113 81
376 901 327 60 54 55
350 826 167 177 119 89
342 176 293 100 86 72
351 95 228 91 64 49
295 750 188 147 0 39
380 405 182 69 53 44
350 90 195 109 48 40
393 524 178 155 13 39
378 851 309 40 38 39
419 839 299 65 56 52
350 95 197 139 32 41
330 695 361 157 110 82
363 220 310 145 107 77
321 75 240 102 56 48
385 25 316 92 49 43
418 56 305 123 104 83
300 890 251 98 76 54
322 78 240 103 32 40
309 505 112 104 23 38
410 405 222 105 24 30
330 67 244 99 30 40
330 70 243 95 42 42
330 880 207 53 47 46
366 205 285 124 95 61
400 845 324 39 35 34
280 445 398 104 19 38
339 403 318 69 59 46
330 75 242 100 41 44
300 525 367 148 42 58
342 175 224 124 97 68
367 723 182 103 25 37
273 309 309 118 90 60
395 709 237 92 51 48
330 80 241 99 45 48
434 732 301 72 49 42
392 817 236 54 46 49
275 720 232 159 0 48
289 255 202 117 93 66
435 755 346 61 44 31
371 625 217 75 26 34
335 80 240 96 15 34
324 81 239 100 34 42
304 785 267 77 62 57
293 575 299 165 2 50
325 85 239 107 80 62
416 45 302 120 101 83
322 94 235 105 35 43
270 431 322 58 28 25
278 288 229 104 83 62
276 890 268 163 119 96
319 300 282 98 76 51
271 465 187 94 29 39
330 90 238 96 66 52
288 660 205 117 16 39
313 239 275 99 83 65
314 437 334 70 52 36
275 320 238 123 85 66
286 845 292 148 110 89
346 140 201 122 96 64
330 95 237 98 40 42
391 887 312 67 58 56
335 90 238 86 35 35
365 770 363 161 110 80
445 775 307 73 58 47
278 575 238 137 0 39
295 420 329 106 81 59
346 106 223 117 81 64
340 576 105 170 114 79
320 285 277 99 73 49
316 494 87 95 27 36
288 560 161 142 3 38
335 95 237 92 32 36
367 69 224 95 37 42
362 522 97 87 16 32
273 379 266 90 69 46
419 700 301 64 45 36
390 110 308 100 69 55
401 428 127 139 26 38
327 83 240 109 87 64
313 865 245 147 118 89
330 84 240 97 78 59
366 837 412 76 61 47
334 84 240 92 38 40
378 67 199 104 37 36
268 475 347 183 0 49
343 250 212 127 98 67
345 70 237 83 62 51
376 670 293 131 12 43
346 180 207 123 96 64
341 75 238 90 55 48
305 280 188 119 91 61
350 471 66 42 28 35
340 80 237 92 34 38
414 480 52 99 28 41
372 110 279 99 48 42
301 882 349 64 62 64
348 69 235 71 59 49
355 690 182 45 38 39
341 165 196 124 98 68
371 95 202 120 64 60
379 590 207 182 18 49
407 33 285 105 79 67
278 465 166 144 6 40
346 670 185 59 38 38
320 360 260 87 65 48
350 70 234 76 52 43
280 345 259 95 72 43
371 765 172 102 76 50
382 166 304 130 98 70
315 580 153 81 23 34
345 422 122 100 85 69
347 72 234 72 59 48
337 262 280 110 84 54
393 45 274 123 90 64
391 881 287 57 49 49
340 70 240 87 33 37
389 700 252 92 29 36
331 345 196 97 84 70
338 79 240 98 12 34
408 397 259 85 21 32
344 85 235 93 24 37
353 528 93 198 128 115
355 85 228 88 51 45
293 937 339 64 59 58
303 235 190 114 93 71
340 95 236 82 48 40
396 60 275 108 56 44
353 878 204 74 65 64
342 90 234 72 53 37
300 360 249 98 70 56
297 623 179 113 23 37
305 855 257 115 93 69
265 515 357 150 86 77
317 150 199 119 97 74
345 90 233 82 39 37
295 412 142 98 83 68
282 483 154 139 0 36
278 538 228 141 0 40
338 860 225 71 57 52
317 176 230 110 89 66
345 95 233 85 40 37
466 782 326 78 63 46
343 95 235 80 48 37
376 11 288 132 71 71
365 520 97 89 9 35
350 85 231 90 24 33
273 731 223 186 0 57
327 624 348 145 108 77
346 85 234 91 21 35
411 495 247 117 20 36
400 550 277 173 12 50
350 442 59 99 73 57
395 25 282 116 53 45
417 64 291 116 66 58
378 447 64 98 58 42
361 870 211 73 63 62
385 739 337 46 33 26
356 183 285 106 84 56
313 185 229 106 85 64
381 520 137 54 26 33
344 387 225 76 65 53
362 887 235 64 56 56
286 555 167 145 3 40
302 185 204 110 92 74
316 639 174 188 7 46
347 393 198 85 73 60
470 817 351 83 68 53
398 470 295 145 5 42
351 91 229 91 36 39
380 10 289 121 69 68
340 389 232 71 62 53
356 695 347 129 97 64
324 100 206 128 77 59
323 649 158 156 113 95
287 524 287 36 29 30
305 180 222 110 90 69
321 100 208 124 82 63
403 520 208 157 13 42
324 105 206 122 98 69
416 136 286 116 51 53
294 540 343 94 20 40
335 720 363 160 110 83
412 447 140 95 21 27
288 475 142 144 1 40
279 340 243 105 66 57
343 240 217 129 99 68
307 180 225 107 87 66
260 935 302 52 47 47
390 475 37 98 29 37
303 891 379 63 57 55
396 80 310 114 30 48
326 100 203 133 53 50
316 740 162 168 116 86
357 866 194 99 82 64
381 890 261 69 57 54
312 132 213 113 94 74
327 104 204 126 99 67
377 690 211 71 35 36
411 790 276 59 49 44
345 403 166 101 85 67
338 188 309 107 88 69
295 370 186 102 86 68
347 892 215 77 69 68
376 80 296 97 40 43
289 645 202 171 11 47
321 110 208 114 95 75
325 250 186 113 89 59
320 380 247 87 67 52
288 424 324 116 88 68
285 295 202 122 96 64
308 894 242 79 68 62
352 585 117 158 110 79
274 725 227 167 0 52
335 100 199 138 24 35
348 253 284 129 96 65
330 100 201 136 39 44
332 320 207 113 91 66
434 786 309 66 54 44
417 89 280 84 41 25
266 340 306 126 94 69
330 105 202 129 100 68
369 829 188 87 66 57
330 110 203 126 101 71
394 427 124 149 33 41
347 176 310 108 89 69
322 105 209 117 96 73
407 475 231 67 22 31
400 120 306 114 73 63
392 475 304 143 9 44
324 115 206 115 96 74
385 435 102 141 24 34
317 625 359 154 107 79
325 120 203 117 97 74
335 205 231 124 96 67
278 485 170 147 2 39
321 125 204 115 96 76
332 785 360 166 121 96
335 370 277 91 71 53
399 883 322 65 56 56
334 330 226 125 96 68
299 245 191 114 93 68
300 195 222 111 91 71
300 315 192 100 84 67
340 886 187 105 86 76
330 115 202 122 99 72
429 91 305 105 34 40
296 870 254 128 102 74
282 630 222 98 28 41
300 429 102 89 70 51
328 796 353 165 120 94
335 115 202 122 98 69
325 135 200 116 95 71
257 325 279 129 95 63
344 520 350 168 9 51
340 100 199 135 27 35
269 375 212 131 99 69
302 504 124 94 27 39
263 322 275 114 88 60
274 500 217 103 16 35
336 103 199 137 20 37
320 564 350 132 11 42
349 145 207 128 99 67
330 848 294 95 72 54
320 245 271 97 79 60
330 360 231 120 92 71
384 885 262 70 59 56
275 420 316 110 80 62
310 424 357 64 27 29
340 370 197 88 77 66
337 843 213 177 132 106
346 220 207 125 98 67
340 104 199 142 22 40
290 300 243 105 81 58
385 95 276 98 22 26
340 110 202 115 87 57
289 605 347 169 122 94
400 35 319 110 40 47
390 10 292 82 62 60
413 61 284 72 36 25
276 700 222 135 0 40
325 190 187 119 97 72
420 420 237 153 13 39
357 616 182 96 31 40
350 100 198 115 36 37
347 108 199 134 65 56
272 306 231 113 87 62
277 350 315 126 97 69
290 408 175 97 81 68
303 219 229 112 90 66
350 108 199 143 43 48
311 296 314 143 98 69
311 336 244 110 79 60
347 112 219 120 87 63
345 891 212 75 67 67
389 848 382 75 58 43
273 283 285 90 80 70
349 108 220 122 86 63
340 115 202 113 90 63
395 129 306 124 76 65
405 500 67 205 15 52
350 120 203 121 95 64
304 165 212 112 93 73
465 825 341 92 71 60
306 190 198 117 97 73
310 655 183 65 36 38
326 98 235 110 77 62
339 929 239 69 63 65
340 120 223 116 88 65
447 831 337 87 73 61
344 120 221 116 89 65
352 936 318 50 44 42
343 125 220 117 90 66
393 144 284 106 82 56
364 105 199 133 28 39
322 770 149 143 104 64
307 764 316 73 59 53
299 428 382 74 33 33
350 115 217 127 93 69
410 471 42 111 17 21
313 159 200 118 97 74
272 499 207 36 26 33
307 846 258 127 104 80
320 825 277 139 105 82
393 22 302 57 51 49
374 615 217 176 17 48
439 790 326 68 54 44
305 470 97 70 38 37
341 181 288 96 82 67
409 479 38 68 34 39
347 115 219 118 87 65
365 397 267 58 51 39
335 895 387 78 72 70
264 440 212 60 29 32
280 460 162 86 27 36
300 185 217 112 92 72
319 295 240 121 94 67
346 120 218 123 92 68
351 125 212 130 97 69
397 546 289 114 32 50
385 45 277 113 37 40
290 475 383 86 20 35
306 455 87 178 0 48
379 863 392 74 62 56
416 435 197 76 18 33
346 125 218 123 93 67
324 97 234 111 82 64
292 215 212 116 96 74
335 725 141 142 95 57
375 145 284 98 78 54
325 105 232 112 89 66
263 404 292 97 71 51
325 110 231 111 89 65
326 420 358 77 14 28
281 341 315 128 99 71
372 85 213 124 4 43
415 90 310 114 31 48
260 406 252 54 40 30
330 105 233 107 81 62
397 527 190 169 14 45
292 753 262 81 64 59
335 105 232 110 79 62
334 285 207 125 95 69
310 280 268 95 75 52
374 85 198 144 27 45
310 885 386 57 51 49
356 886 187 102 86 78
364 195 284 120 93 60
310 740 327 127 10 41
322 113 230 114 92 69
375 701 341 119 8 38
286 868 314 102 75 58
325 114 230 111 89 66
325 231 274 95 78 58
336 217 274 100 82 62
362 861 202 83 72 66
361 539 120 89 6 25
316 310 272 97 77 54
324 116 229 111 89 66
423 422 134 153 11 37
405 860 347 66 58 53
368 804 169 124 85 60
325 120 229 109 88 66
333 326 208 109 89 66
390 760 191 61 46 40
328 565 107 162 108 81
341 220 223 128 100 68
324 421 361 69 20 29
300 705 318 47 27 30
276 545 217 140 0 39
325 125 229 108 88 65
380 110 306 99 22 40
275 735 207 166 15 53
330 115 230 110 86 65
378 70 199 109 35 35
325 150 227 108 86 65
396 438 101 122 26 28
319 370 240 106 79 63
335 120 227 112 87 65
330 125 228 109 87 65
354 889 202 88 76 71
311 595 364 159 112 79
289 910 352 60 54 53
340 104 230 110 73 60
340 102 233 101 66 56
401 495 182 87 24 34
345 104 227 114 75 62
340 99 235 93 31 38
356 565 121 103 28 34
306 160 217 112 92 71
343 98 235 85 36 35
268 393 219 135 99 73
285 589 168 125 16 43
366 90 218 111 26 44
307 515 118 138 8 36
430 124 287 144 18 55
355 696 327 124 12 43
343 109 225 119 85 66
274 485 327 164 0 43
349 100 231 95 30 37
323 337 272 85 68 51
391 708 232 91 48 45
338 125 225 113 87 66
335 458 44 91 74 57
355 165 284 107 87 65
343 873 198 73 63 53
375 455 47 94 59 28
342 937 334 53 48 45
366 76 224 109 23 42
294 552 314 78 22 35
283 957 270 79 75 78
366 80 223 105 36 45
401 709 285 92 70 54
355 95 195 144 24 39
395 430 117 151 33 41
313 510 102 116 13 34
339 180 226 123 95 66
302 774 281 77 62 57
395 708 227 89 44 42
315 255 184 117 91 62
360 95 196 144 20 39
392 817 227 68 57 55
371 90 212 125 9 45
402 530 207 108 26 38
352 152 298 101 83 64
363 88 194 144 14 38
370 890 247 63 54 53
315 450 377 96 23 38
365 85 222 113 19 44
360 220 312 142 104 74
296 750 312 96 28 38
294 264 275 98 84 69
367 86 219 119 11 42
356 225 281 117 91 60
353 883 209 76 67 67
267 435 198 124 9 36
317 820 271 170 125 102
328 565 117 138 89 72
364 89 221 102 51 49
363 515 335 126 8 42
295 340 259 87 64 40
274 475 277 102 16 39
325 220 235 123 95 67
295 360 319 132 103 69
284 895 363 54 48 47
280 410 172 116 58 51
410 415 217 86 24 34
373 75 194 132 20 35
295 445 117 160 7 44
262 415 217 81 23 32
379 75 202 117 31 42
363 800 159 127 84 59
314 830 262 148 116 89
378 78 199 118 26 37
287 758 212 90 72 64
420 870 322 77 65 61
401 770 217 63 50 44
403 838 414 99 78 66
350 205 315 125 99 69
295 570 368 167 120 89
379 75 207 120 23 43
345 210 276 105 84 59
378 79 206 131 25 47
346 834 306 43 36 36
338 264 199 112 87 60
390 495 127 55 26 30
341 240 222 132 100 70
330 250 232 131 97 73
370 70 222 102 23 39
325 25 258 102 41 46
312 205 189 114 95 75
372 70 219 104 20 40
375 70 217 108 17 40
312 162 199 119 97 73
348 727 365 161 111 80
339 381 253 69 58 47
354 870 177 136 108 92
297 340 260 86 64 39
308 805 182 171 133 104
395 90 310 108 34 45
376 76 213 120 13 43
356 111 212 134 95 72
369 79 221 115 13 43
411 495 267 156 8 45
380 510 72 161 11 38
317 140 225 113 91 67
318 695 158 158 116 92
353 680 157 148 104 77
377 71 214 119 24 44
383 574 203 185 15 48
378 68 215 109 28 43
288 270 200 119 94 63
360 431 102 97 74 57
378 74 211 118 17 44
389 565 207 186 16 50
325 381 248 80 63 49
323 638 153 159 118 96
300 240 192 114 93 70
367 101 214 122 7 44
369 84 194 148 13 38
280 320 261 101 79 51
365 900 352 56 49 46
366 16 288 150 95 94
330 704 139 156 103 67
376 85 202 144 20 49
364 823 336 97 63 53
335 250 192 112 88 59
346 806 150 178 121 88
363 808 159 172 114 85
331 840 222 192 143 115
264 450 297 184 0 48
370 90 197 145 21 42
295 583 164 83 30 33
369 95 199 138 38 45
393 88 274 100 35 25
371 95 207 127 50 56
389 149 284 111 87 59
312 704 341 173 124 98
400 405 202 71 40 42
306 645 332 179 131 109
394 412 159 88 35 36
378 25 314 107 40 52
310 645 327 152 109 90
354 515 58 151 97 81
402 532 217 95 26 40
393 570 277 104 25 40
405 459 57 116 20 27
372 92 202 143 22 51
362 570 324 165 0 53
418 455 252 108 22 36
294 435 112 130 20 42
350 615 152 146 102 87
291 255 297 101 84 65
390 875 337 49 43 39
413 485 252 76 24 35
326 295 195 101 83 64
373 93 203 133 32 50
318 427 340 57 41 22
270 510 327 37 32 28
400 402 217 95 23 30
291 580 343 130 93 71
266 460 232 159 1 44
288 455 140 78 27 37
373 84 211 128 10 44
350 458 54 131 6 38
320 210 185 120 96 69
290 310 315 134 103 72
378 37 293 113 85 61
320 438 80 96 80 64
316 730 157 165 113 82
369 90 216 119 8 43
333 377 254 79 63 50
370 95 212 122 14 44
324 933 345 58 53 52
300 412 138 99 83 69
341 705 140 143 96 60
380 165 306 128 98 65
326 240 185 117 91 62
283 265 217 120 96 68
364 495 330 147 0 44
373 88 210 133 17 49
326 355 234 123 92 72
353 79 230 97 22 37
313 700 330 124 56 52
355 80 228 95 23 38
328 500 62 102 62 53
360 75 228 91 44 46
331 815 317 64 53 52
283 348 200 110 90 67
302 176 208 114 95 78
323 537 121 67 23 37
402 535 222 114 25 39
358 73 230 97 16 36
290 235 222 117 95 71
365 70 226 88 45 43
360 85 226 99 34 43
379 185 297 141 101 69
446 846 329 77 63 53
412 486 57 99 28 43
472 796 306 101 76 61
320 910 222 68 61 59
355 90 227 91 21 34
355 95 226 98 59 50
371 489 69 103 5 36
320 490 366 68 22 33
358 210 279 119 93 60
317 660 179 38 36 39
358 95 225 102 36 44
307 450 73 119 29 37
300 560 327 70 27 34
368 73 225 104 34 41
334 495 37 65 38 35
396 458 56 105 42 32
345 439 77 102 81 62
278 477 170 123 7 27
395 715 307 60 52 48
360 100 197 141 18 36
360 105 198 138 19 35
332 393 314 117 93 68
311 140 212 112 94 74
291 934 238 97 85 83
285 300 241 105 83 61
325 899 212 79 69 67
314 175 196 119 97 73
359 697 327 121 4 41
421 763 345 61 45 33
272 943 264 72 67 68
265 355 272 110 85 56
315 670 323 105 61 51
413 42 289 121 102 84
367 101 200 123 51 45
300 935 343 70 64 63
281 585 182 52 32 35
300 285 190 121 95 65
366 106 201 110 75 66
335 878 395 66 59 58
289 279 271 96 81 65
354 691 342 120 93 62
420 855 342 45 37 33
373 840 178 101 84 74
400 510 82 167 12 46
375 403 197 76 62 54
365 520 332 161 9 50
450 820 337 46 37 31
375 15 311 71 49 44
365 110 207 141 59 66
338 250 194 112 88 60
475 756 297 90 71 52
411 480 77 160 0 52
360 110 212 132 69 63
290 430 122 56 32 35
355 106 222 114 68 58
364 899 357 53 47 46
320 275 236 125 93 67
401 456 127 93 29 41
439 105 282 112 33 41
277 402 189 88 78 68
360 107 218 121 52 53
329 430 361 107 15 36
269 453 396 62 17 26
290 445 393 152 13 50
364 108 216 130 32 47
397 434 289 135 2 39
310 280 239 109 85 60
354 115 207 138 100 71
352 121 206 132 100 67
336 655 342 132 95 61
364 230 292 140 103 70
344 155 198 121 96 67
385 894 337 65 57 54
358 528 99 73 35 34
383 686 290 49 27 28
278 612 230 100 16 39
354 115 212 134 97 71
385 115 274 90 25 25
263 430 212 51 33 34
293 885 255 153 120 88
405 105 281 96 36 31
321 166 194 115 95 73
270 395 257 79 59 41
279 585 187 42 32 35
355 195 313 124 98 69
361 837 304 31 29 30
368 98 199 132 50 50
380 145 308 124 96 67
369 100 202 112 81 73
368 899 249 55 48 51
290 850 301 127 50 68
370 100 207 129 50 59
343 234 274 108 83 53
368 103 211 129 20 46
318 418 337 65 44 27
355 104 226 107 41 44
315 285 272 94 73 45
281 437 382 57 35 26
320 180 191 117 97 76
356 840 420 83 66 52
320 190 188 119 98 74
300 275 237 105 83 60
324 209 286 97 82 67
327 653 124 182 125 90
431 835 307 86 75 66
316 130 207 107 90 73
375 180 287 122 94 62
288 892 292 65 52 36
318 129 205 111 93 74
449 746 341 75 55 43
320 135 202 114 95 74
350 165 307 104 86 68
298 547 325 97 20 46
316 140 203 113 95 75
312 141 208 108 91 74
320 417 128 101 87 72
342 467 349 179 11 59
406 500 72 193 13 52
318 174 229 109 88 66
340 270 312 158 112 88
319 144 200 117 96 72
296 580 339 111 75 53
312 135 212 113 94 74
325 216 235 121 95 66
377 187 304 142 103 78
355 615 132 161 115 85
311 135 217 113 92 71
401 455 117 126 27 44
285 445 147 51 36 39
419 755 252 81 57 50
310 140 217 112 93 72
300 260 313 116 92 64
410 855 351 68 59 51
309 145 212 113 94 75
280 900 361 54 48 47
300 310 262 87 68 45
392 791 194 57 47 43
312 140 221 114 93 70
313 129 217 114 93 71
269 289 282 91 78 65
271 435 187 138 9 38
442 743 355 80 62 48
312 132 217 113 93 71
310 180 197 119 97 74
428 734 324 87 66 48
373 869 300 32 32 33
313 134 211 110 92 73
314 655 181 49 34 37
405 495 282 140 10 42
343 178 290 96 82 67
399 790 222 76 60 54
467 799 322 76 59 46
405 424 137 119 11 27
437 107 299 129 30 55
314 130 222 112 91 69
395 800 202 52 44 42
373 184 310 128 99 63
406 720 202 59 45 36
278 698 262 82 22 38
312 137 209 108 90 71
280 305 241 105 80 58
314 145 223 112 91 68
306 160 208 111 93 75
340 225 318 120 97 70
265 945 287 69 64 64
410 444 82 124 19 23
379 655 282 133 14 42
308 159 206 108 92 74
436 95 298 97 24 32
340 895 386 71 65 63
310 270 185 117 89 60
315 962 318 86 80 79
320 150 198 118 96 72
430 99 281 103 26 19
312 146 204 109 91 74
395 510 302 53 28 30
417 814 303 69 58 49
358 139 297 103 85 66
315 160 198 120 98 73
374 85 287 94 69 51
261 925 292 94 78 70
299 570 337 92 26 36
320 160 196 117 96 72
313 155 200 118 97 74
307 152 213 113 93 73
319 830 278 130 100 76
310 844 298 101 78 57
320 670 157 152 115 92
350 820 157 179 120 87
340 409 152 99 85 69
338 245 225 132 101 73
308 150 217 111 92 71
287 524 292 41 29 31
311 150 221 111 91 69
352 575 117 162 110 85
305 160 212 112 94 74
370 880 327 31 30 31
310 325 245 107 77 58
405 405 282 51 26 29
308 153 210 112 94 75
307 161 220 112 92 71
387 704 232 95 29 35
399 550 282 163 15 49
295 436 330 95 70 51
356 720 152 123 92 60
310 155 222 111 91 69
399 485 167 176 14 47
280 944 327 52 50 50
306 446 335 77 60 43
310 160 222 111 90 69
383 670 247 99 24 37
403 450 286 144 10 42
316 135 225 113 92 68
340 384 224 74 64 54
435 835 378 70 59 50
315 904 377 57 51 49
320 130 227 111 90 67
434 735 352 78 61 49
352 488 56 90 59 35
320 135 227 112 90 67
395 30 319 97 47 45
338 356 220 117 93 67
320 150 227 108 87 65
305 315 190 92 79 67
257 407 234 108 25 39
330 445 367 56 28 31
322 755 345 178 127 100
316 181 230 110 89 66
298 581 304 52 25 26
380 11 307 72 57 59
288 265 201 119 94 64
267 406 198 81 70 53
401 455 122 73 27 33
316 155 226 110 89 67
310 286 190 106 83 58
319 816 155 184 128 96
313 159 224 109 89 67
304 170 207 113 95 77
370 510 78 117 24 37
360 860 187 113 95 87
301 190 203 110 91 72
324 350 307 123 96 65
303 175 206 112 94 77
379 35 281 116 77 61
278 496 322 114 16 41
302 172 212 112 92 72
375 730 327 60 33 29
379 450 316 81 17 29
386 19 297 82 58 58
403 545 242 107 26 38
342 650 319 59 25 30
429 794 297 49 44 41
372 107 279 94 17 24
278 715 298 157 0 48
304 239 308 107 88 68
302 175 212 113 94 74
320 432 92 96 80 64
383 41 303 107 59 51
405 50 281 72 47 36
390 715 262 41 27 34
303 174 219 111 92 71
372 107 300 94 24 35
305 255 236 116 92 67
456 721 362 105 78 60
392 832 416 87 71 57
305 180 202 113 95 77
365 855 207 69 59 56
412 435 274 135 8 37
305 195 197 116 96 73
292 525 149 156 10 41
289 910 347 54 49 49
346 170 212 126 99 66
410 720 217 73 51 42
441 765 301 98 81 62
433 724 329 80 59 41
304 185 201 112 93 74
320 230 235 123 94 67
420 710 350 77 61 47
300 185 207 111 93 75
300 235 192 114 93 70
360 640 202 137 11 37
363 500 69 105 54 49
290 935 337 63 58 57
333 372 259 88 70 56
302 182 204 111 93 76
300 180 212 114 95 75
278 490 405 135 92 79
296 911 238 113 78 62
301 185 221 112 92 71
380 50 297 105 25 41
396 730 322 45 35 31
415 751 344 72 52 41
289 340 196 114 91 65
297 192 212 114 95 75
398 558 234 184 14 47
321 172 230 109 88 66
405 739 355 64 51 37
303 291 189 112 88 62
315 175 228 109 88 66
317 354 314 129 98 66
298 189 212 114 95 75
297 246 302 107 89 69
298 190 217 113 93 73
299 962 314 66 62 63
312 182 194 116 95 72
310 695 317 121 8 39
283 275 211 120 95 66
284 530 167 163 10 43
381 650 262 131 20 43
384 95 304 107 21 44
275 525 192 87 25 34
403 728 345 81 67 52
273 430 181 134 12 37
312 165 199 119 98 74
309 427 381 100 10 29
289 640 202 116 15 37
392 876 277 55 47 45
346 160 217 123 96 65
366 705 191 84 31 37
370 416 142 104 81 67
300 845 301 129 103 79
315 330 243 118 84 66
310 175 198 119 98 75
320 830 177 211 147 115
376 905 272 64 56 50
310 240 277 99 83 66
286 245 212 119 96 70
310 175 226 108 88 66
316 710 347 178 124 98
409 40 282 114 24 36
384 461 44 93 53 36
350 216 274 109 86 58
309 170 201 116 97 76
277 603 213 161 12 44
385 30 317 100 62 52
315 165 197 119 97 72
321 215 283 99 84 68
315 490 82 103 24 38
405 465 97 144 11 43
320 164 195 116 96 73
270 950 292 68 64 64
360 915 247 68 59 58
315 170 196 119 97 73
316 175 194 117 96 72
370 470 332 60 23 29
318 168 195 115 95 73
347 389 278 70 61 52
339 235 226 131 101 70
310 185 227 108 88 66
296 225 198 114 94 72
406 837 379 57 46 36
385 414 152 101 43 40
320 175 192 117 97 75
406 686 351 73 57 43
261 474 358 183 0 48
306 165 221 112 92 71
371 575 181 112 22 41
339 265 202 121 92 63
278 551 191 36 32 35
375 559 117 184 15 42
374 485 326 174 0 56
326 785 352 170 124 98
300 325 244 107 76 59
310 165 223 110 90 69
425 839 382 64 53 44
314 855 246 145 115 86
307 181 199 117 97 75
264 403 252 56 44 30
421 424 130 166 15 32
351 161 289 96 80 64
365 833 310 35 30 28
311 190 193 116 95 71
305 265 270 96 79 61
330 675 176 81 48 47
432 781 295 54 46 40
313 179 195 117 96 72
304 235 297 103 87 70
302 779 188 185 134 105
282 887 354 43 41 42
417 456 262 80 36 39
316 824 192 142 107 92
364 605 316 132 21 48
315 180 193 117 96 72
311 170 226 109 89 67
395 417 148 112 20 31
423 712 350 78 58 42
272 375 230 133 95 71
408 420 280 42 30 29
420 845 376 65 55 47
308 174 224 108 88 67
304 445 334 79 61 44
278 606 258 93 24 41
312 162 225 110 90 69
346 200 207 115 92 67
276 385 236 133 92 75
336 951 323 55 49 49
320 165 229 108 88 66
326 498 34 130 24 45
337 962 308 56 50 49
300 245 232 115 91 66
320 175 230 110 89 67
375 480 57 111 15 33
395 708 201 102 58 42
315 245 317 119 94 65
310 190 228 108 88 66
329 968 268 84 80 81
363 223 310 144 104 77
330 374 257 86 67 53
320 200 187 119 97 72
278 602 267 63 31 34
275 570 217 133 11 40
371 740 181 112 24 36
308 865 250 146 117 88
350 130 212 126 94 66
309 805 197 55 49 50
353 636 155 155 109 83
315 205 188 117 97 75
407 510 212 180 13 50
309 210 191 111 93 73
362 500 67 122 64 63
295 454 381 174 8 56
323 476 47 182 0 54
282 534 173 142 23 49
310 685 183 120 22 39
308 214 190 111 93 73
368 114 292 103 85 65
418 118 305 147 3 55
304 225 191 112 93 71
361 176 285 104 83 58
314 453 60 90 61 40
415 725 247 51 40 31
285 590 357 173 123 95
407 520 277 155 12 44
339 485 351 41 26 29
310 225 187 116 96 74
294 382 184 97 83 69
315 210 186 118 97 73
350 529 345 31 29 31
279 320 211 117 90 56
350 446 52 101 84 64
314 220 185 116 95 72
307 659 352 187 134 107
300 859 308 79 47 43
390 580 272 98 21 39
333 208 314 115 94 70
405 505 282 110 15 38
339 190 193 128 100 67
412 457 79 150 6 44
331 345 228 123 93 68
319 219 185 118 95 69
316 226 184 116 94 70
301 770 287 76 61 56
349 700 147 135 95 61
300 429 362 65 30 27
348 645 189 119 11 33
320 225 184 116 94 68
301 225 193 113 94 72
409 430 222 110 16 35
405 726 283 64 48 41
344 240 207 125 97 66
303 230 190 114 94 72
417 50 302 119 100 80
332 528 74 222 147 125
320 954 254 96 90 93
360 397 272 56 48 38
306 230 188 116 96 74
305 235 188 116 95 72
333 453 50 115 60 50
343 628 320 59 26 25
302 241 189 114 94 71
296 280 315 120 93 63
305 240 187 116 95 71
313 766 324 76 58 47
353 884 170 115 92 76
325 260 188 111 86 58
433 119 283 134 23 48
278 605 192 139 10 40
344 381 276 75 62 47
321 494 77 107 28 41
274 919 332 50 43 44
305 245 186 118 96 70
373 553 150 166 12 45
396 801 237 50 43 45
390 410 291 120 6 36
301 245 189 116 94 70
299 250 191 116 93 67
291 432 377 64 38 30
358 215 279 118 93 62
351 605 121 161 114 84
336 384 246 69 58 46
342 236 275 109 84 53
334 194 309 106 89 71
385 510 142 122 18 41
296 255 193 117 93 65
332 304 212 115 90 62
293 756 191 149 7 41
335 827 160 227 159 139
293 223 205 111 92 73
301 255 188 121 96 66
385 860 242 69 58 53
287 305 198 124 98 67
272 325 310 127 94 67
336 501 41 93 47 43
300 490 377 102 6 33
388 513 158 68 18 32
315 255 237 117 93 66
310 795 272 173 128 109
278 490 297 37 31 32
280 435 322 79 57 43
305 250 186 120 96 68
461 717 363 95 70 51
301 250 188 118 95 68
324 315 194 98 81 64
306 795 232 75 61 57
318 822 210 80 66 61
395 426 127 147 30 40
372 16 310 94 42 40
328 342 272 84 69 53
309 230 186 118 97 74
311 230 184 119 97 72
392 830 258 48 42 47
310 240 184 118 95 69
292 608 344 160 116 86
412 410 274 63 27 30
340 465 352 113 13 41
311 235 184 118 96 70
308 238 185 118 95 69
372 709 195 89 32 32
339 869 222 53 46 49
315 230 184 116 94 70
300 270 236 107 83 62
329 489 24 126 21 30
359 145 303 101 84 66
320 230 183 117 94 67
296 364 319 131 102 68
316 465 67 196 0 56
265 511 342 64 21 32
305 250 313 115 92 66
391 60 274 117 40 35
276 550 197 46 34 36
370 401 212 79 69 59
367 931 287 55 50 48
260 423 313 61 42 27
315 240 183 118 93 66
259 471 356 181 0 43
297 247 305 110 90 68
323 480 44 128 9 43
320 235 183 117 93 65
310 250 184 120 95 66
310 480 87 45 36 40
268 396 304 132 96 72
292 842 274 107 86 64
312 329 244 110 80 61
307 251 184 121 96 67
370 399 302 121 4 34
365 841 298 39 34 33
303 249 281 97 83 68
315 245 183 118 93 65
372 510 80 124 13 27
325 660 357 141 99 66
403 495 286 61 23 32
351 246 314 149 106 78
320 245 184 116 91 62
415 835 386 49 39 31
315 250 183 118 92 63
319 255 184 113 88 60
385 741 333 39 26 22
287 236 212 117 95 70
287 236 216 117 95 70
287 237 209 117 94 69
278 694 232 144 0 43
383 859 385 73 60 51
265 410 202 131 16 41
287 240 208 120 97 71
418 128 300 147 0 55
275 525 187 99 23 37
382 13 309 56 57 59
312 794 286 59 50 50
439 96 283 105 34 29
287 240 220 118 95 70
335 625 117 162 108 72
277 588 275 155 3 48
312 625 328 135 85 65
287 245 208 121 97 71
345 225 202 123 97 65
316 465 62 190 1 53
361 930 312 48 42 40
286 250 207 120 96 69
287 255 204 117 94 67
260 430 247 172 0 48
276 539 317 199 4 59
296 195 217 113 94 74
315 480 77 92 29 36
286 255 207 118 95 68
315 465 72 171 1 48
315 925 226 91 80 79
277 695 217 131 4 40
283 465 155 109 29 40
287 245 221 118 95 69
365 735 167 105 81 61
424 870 332 70 60 54
285 250 212 121 96 69
316 425 342 61 42 29
285 250 217 118 95 68
284 255 217 117 93 66
387 501 122 177 13 50
382 886 260 66 55 52
286 250 221 117 93 67
280 600 182 50 32 36
335 245 272 100 78 49
331 565 122 112 59 56
412 50 286 91 34 31
286 255 222 116 92 65
272 473 327 160 3 46
265 905 312 165 127 102
346 420 338 59 22 29
295 205 207 112 93 73
299 195 206 111 93 74
385 890 347 64 55 51
400 125 305 120 49 54
310 495 102 91 27 38
381 50 282 99 25 35
301 195 202 110 91 71
408 470 233 94 20 35
353 427 109 97 80 62
310 440 383 126 19 42
343 160 220 123 95 64
300 200 202 110 92 72
296 200 207 111 92 73
357 410 324 128 7 39
330 670 131 189 130 97
309 620 331 138 90 72
321 330 281 104 84 61
347 171 288 92 78 63
329 204 285 96 82 66
298 199 205 109 91 73
288 545 277 62 26 33
303 199 200 114 94 72
390 100 307 99 24 38
370 402 207 80 70 60
385 875 327 39 34 34
302 202 199 114 93 71
342 240 200 125 97 64
406 857 325 77 67 59
304 205 196 114 94 72
365 460 53 175 3 41
367 726 170 96 47 46
272 716 209 137 14 43
264 290 298 105 85 64
266 455 207 143 1 39
302 205 198 113 93 71
454 747 333 93 72 52
375 397 268 69 48 37
299 395 181 94 83 72
330 870 352 37 36 36
297 201 204 109 91 72
300 570 367 164 118 82
295 200 212 114 95 74
403 708 314 54 41 28
269 480 197 112 21 38
378 32 280 119 57 57
361 800 156 132 87 62
345 819 347 139 87 66
406 525 277 118 15 38
347 398 191 90 78 66
295 200 217 113 94 74
403 498 58 212 22 51
294 205 212 114 94 73
289 364 190 106 87 67
330 225 234 129 97 69
305 409 147 101 86 71
286 640 267 43 31 34
296 205 221 114 93 72
422 725 302 67 53 43
296 195 212 114 95 75
334 157 194 114 95 75
276 474 392 44 25 29
297 196 220 112 93 73
412 491 262 160 10 46
297 200 220 113 93 73
381 845 227 62 54 52
409 470 276 59 27 31
333 310 213 109 87 63
299 205 223 112 92 71
277 515 217 70 19 34
296 215 202 110 91 71
275 437 357 68 30 27
339 390 183 102 88 74
300 431 357 63 35 29
366 20 292 168 115 116
294 225 202 111 92 72
425 830 302 70 58 54
335 255 193 109 86 59
285 390 188 97 83 70
294 215 207 112 93 72
307 489 98 161 20 50
291 225 207 114 94 73
342 374 197 88 77 66
368 185 284 119 92 59
303 214 195 111 93 72
413 458 179 150 21 43
350 535 342 112 27 44
365 200 311 133 101 67
297 210 203 109 90 70
316 305 308 130 92 67
298 214 200 112 93 72
390 705 272 93 10 34
297 221 199 113 93 72
310 976 287 55 51 52
310 235 282 100 85 68
281 916 253 68 62 63
271 410 187 134 21 39
310 15 266 105 41 45
299 225 196 114 94 72
256 509 347 147 23 47
367 838 195 96 76 63
390 405 187 67 41 35
409 429 122 128 24 36
353 243 284 130 96 66
381 70 301 106 88 67
293 210 212 116 96 75
293 209 217 114 94 72
271 325 232 127 86 65
292 211 213 116 96 74
360 399 247 65 58 49
289 235 207 115 93 69
292 221 221 115 94 71
333 812 342 152 104 81
423 417 144 107 29 38
268 390 222 134 98 72
412 780 275 65 53 45
292 211 217 114 94 72
346 232 275 111 86 54
274 460 177 141 11 39
356 235 312 145 106 77
293 213 210 116 96 74
418 456 70 156 18 47
349 451 50 102 44 36
383 519 147 49 30 31
410 845 302 60 51 50
339 195 193 125 99 67
335 850 387 56 47 42
337 158 195 116 95 71
400 760 202 71 58 51
306 795 202 77 65 59
292 216 209 115 95 74
293 214 219 115 94 72
289 250 202 117 93 66
295 215 222 114 93 72
292 889 371 58 52 49
290 220 212 116 96 74
417 440 264 140 18 44
353 640 143 154 109 83
291 220 217 115 94 72
365 150 283 101 82 59
289 225 212 116 96 74
282 748 236 91 51 56
333 375 184 100 87 74
291 225 221 114 93 71
365 550 112 153 11 36
310 320 263 85 66 44
314 636 176 190 7 50
320 220 235 122 97 69
400 510 77 187 14 49
294 220 223 114 93 71
285 579 296 158 0 47
292 434 118 87 26 36
294 225 223 114 94 72
417 757 251 74 55 48
388 893 336 65 57 53
334 225 188 118 93 63
281 750 217 147 18 50
268 470 207 140 12 44
298 210 224 114 93 70
420 75 307 105 58 48
307 200 194 115 94 72
337 733 365 160 111 84
360 840 412 96 74 57
305 720 183 82 27 35
323 270 235 127 96 70
345 510 51 167 109 95
306 205 194 113 93 72
293 756 267 82 65 58
305 195 226 111 90 69
343 953 311 58 55 55
302 201 225 110 89 68
322 493 29 49 40 39
305 335 314 130 101 70
305 205 228 111 90 68
298 214 224 114 93 71
300 215 226 113 92 69
333 188 302 103 87 72
376 115 278 104 72 47
344 665 142 128 87 57
304 210 228 111 90 67
345 441 67 102 78 60
408 716 329 70 61 53
303 215 229 112 91 67
312 605 328 98 43 43
317 315 280 100 78 53
366 195 286 124 96 60
297 221 225 112 91 69
385 120 276 102 50 37
270 495 342 72 13 30
309 195 229 109 89 66
401 520 197 96 20 34
284 530 262 70 26 36
400 139 287 115 73 56
290 451 387 161 10 54
308 200 229 110 89 66
310 200 231 110 89 66
320 255 320 118 93 65
325 460 52 157 13 42
410 830 325 43 36 34
336 280 207 129 98 70
385 570 202 185 14 48
375 90 282 89 28 33
307 205 230 111 90 67
398 464 132 83 28 35
325 640 162 104 67 63
379 543 98 93 21 34
418 469 67 46 31 30
310 205 231 111 90 66
277 875 315 130 96 79
410 60 282 91 28 27
320 195 233 113 91 67
320 200 233 115 92 68
380 409 167 78 59 47
321 650 147 171 126 104
410 399 247 109 31 42
327 197 298 101 86 69
455 820 343 63 52 43
315 205 233 112 90 66
288 516 155 84 27 32
290 540 321 91 14 37
271 433 327 61 26 24
306 210 230 111 89 65
360 840 416 97 76 58
340 655 173 117 74 62
306 215 231 112 90 66
310 215 233 112 90 67
305 335 189 93 81 68
315 210 234 113 91 67
317 514 88 148 4 36
365 215 287 129 99 65
272 918 350 57 51 49
315 215 234 115 92 69
314 270 269 94 75 53
320 210 234 118 94 69
362 131 293 99 81 62
273 438 358 71 27 28
326 200 307 105 89 73
420 109 280 107 7 20
360 464 59 117 9 31
374 610 212 68 28 37
400 120 280 93 55 41
390 25 277 120 45 36
320 214 234 119 95 70
320 216 235 120 96 70
297 475 118 93 35 40
348 623 169 63 39 41
291 640 197 116 28 41
416 441 137 162 17 46
283 375 243 116 78 61
314 220 234 117 94 70
305 305 245 106 80 57
385 126 280 105 77 47
278 556 196 35 31 36
257 452 395 75 24 31
320 325 302 122 90 63
301 475 107 132 23 42
316 220 235 119 95 70
300 290 239 101 80 56
266 450 202 128 9 39
313 224 234 117 93 69
386 791 334 116 77 57
261 491 414 172 124 105
362 679 195 93 27 31
315 225 235 120 96 70
408 446 96 173 13 49
296 230 198 114 94 72
338 254 274 108 83 53
382 659 262 48 29 33
346 135 218 123 94 67
317 499 93 85 24 37
340 896 217 77 68 69
450 734 335 103 82 70
292 230 203 112 92 71
305 10 262 104 45 40
367 704 318 87 9 30
291 846 296 126 94 73
335 485 42 91 26 38
294 245 196 115 93 68
340 555 98 171 111 83
262 380 292 140 100 76
290 230 207 115 94 71
292 226 204 111 92 71
335 155 227 116 91 65
336 245 228 131 100 74
294 230 201 112 92 71
323 667 140 170 127 102
295 235 197 114 94 71
296 877 358 54 53 54
295 240 197 115 94 69
319 355 240 120 89 72
387 576 216 185 15 51
303 640 299 143 5 45
291 235 202 113 92 70
278 520 222 144 3 43
322 799 312 66 54 49
288 240 206 118 95 70
353 650 152 140 98 73
295 875 362 50 45 45
355 475 338 154 7 50
293 234 200 112 91 69
332 814 326 130 97 78
293 238 200 113 92 69
297 237 194 115 94 70
345 951 312 58 55 56
330 544 123 48 28 34
384 417 144 126 37 40
443 757 304 104 89 75
416 465 257 38 29 33
371 12 293 129 55 62
360 400 212 78 68 58
465 745 328 96 71 55
295 881 353 61 59 58
297 240 194 115 94 69
288 230 212 116 95 72
308 453 340 75 58 40
325 145 227 109 87 65
288 230 217 116 94 71
356 560 122 66 28 24
436 750 302 70 56 46
291 230 222 115 94 71
288 234 212 117 95 71
305 330 245 101 74 55
389 590 252 114 25 44
312 300 270 93 74 51
325 480 27 94 37 19
289 240 222 117 95 71
315 379 252 90 67 52
315 920 223 86 77 76
292 242 199 114 92 68
328 496 62 71 22 33
307 232 293 101 86 69
292 250 199 117 93 66
305 305 315 135 98 71
300 705 187 58 36 39
361 146 305 103 86 66
279 610 207 39 30 33
312 452 63 108 45 28
335 410 147 100 85 70
291 261 287 96 84 71
333 248 189 113 88 58
390 851 367 60 48 40
398 478 154 87 26 35
378 180 306 134 99 70
294 250 196 116 93 67
296 250 193 116 93 67
371 130 305 111 91 69
290 660 282 104 15 37
279 700 277 112 16 37
285 550 370 167 119 90
288 249 205 119 95 67
402 816 257 65 52 49
297 245 194 115 93 68
385 145 282 109 86 59
272 470 184 47 35 36
289 245 223 117 94 69
395 475 37 55 38 40
387 116 310 119 24 45
295 935 342 65 59 57
288 250 224 117 93 67
355 834 312 39 32 31
407 415 207 123 16 42
395 570 242 67 28 34
327 553 107 150 100 80
464 821 342 104 82 70
383 160 284 116 91 62
288 254 224 116 92 66
296 230 226 113 91 69
358 736 149 121 93 61
293 234 224 114 93 70
367 136 305 106 87 67
295 235 226 113 91 68
334 770 364 163 117 90
315 525 101 177 9 47
385 40 312 122 48 56
343 170 221 124 96 65
400 500 182 77 23 32
268 383 210 131 98 66
315 535 341 54 19 29
292 237 225 115 93 69
286 310 315 130 99 73
420 855 337 41 35 31
315 275 187 109 84 58
292 241 225 116 93 69
301 230 230 114 91 67
305 230 232 114 90 67
345 910 232 67 60 61
407 475 278 89 20 36
261 370 297 138 98 76
298 240 229 114 91 67
371 460 48 159 6 34
280 270 297 93 79 63
309 675 185 65 34 37
304 600 165 46 30 33
300 770 282 78 63 57
300 240 231 114 91 66
286 515 157 127 10 39
340 195 227 121 94 66
291 245 226 117 94 69
277 739 208 116 31 46
400 725 248 70 31 32
345 531 343 32 27 30
350 390 212 77 66 56
331 295 202 120 95 69
301 250 282 96 82 68
321 340 307 122 95 62
295 245 228 114 91 66
302 325 245 104 76 59
295 615 292 84 19 36
263 445 231 39 32 33
325 255 186 113 87 59
372 539 94 101 21 31
395 85 310 104 17 38
350 871 317 32 30 30
310 650 182 89 29 38
290 515 372 147 93 79
291 250 226 117 94 68
296 255 231 114 91 65
320 371 179 93 82 71
330 235 186 117 92 62
299 540 366 156 110 85
268 461 257 57 32 36
298 243 229 114 91 67
297 246 230 112 90 65
300 255 233 115 91 65
282 267 297 96 81 66
413 475 211 130 11 39
381 535 117 162 12 48
373 867 299 33 32 34
340 465 57 115 7 30
393 725 267 68 25 34
304 249 234 117 93 68
302 256 235 116 92 67
275 400 247 81 59 45
475 758 289 117 87 62
285 715 311 61 27 33
278 481 301 133 6 39
311 235 235 118 93 69
308 239 234 116 93 68
278 554 232 139 0 40
310 240 235 118 93 69
316 370 243 104 76 60
466 816 305 118 91 70
352 857 394 57 46 37
370 400 227 76 66 55
315 240 236 118 93 68
307 241 235 115 92 68
321 650 152 162 120 97
350 515 346 136 13 41
310 245 236 118 94 69
306 250 235 117 93 68
310 250 236 118 94 69
383 873 371 58 49 48
262 420 214 132 14 41
324 240 184 117 92 62
370 100 292 101 16 37
377 724 195 81 45 36
415 841 300 66 56 52
320 245 236 122 93 66
320 250 237 123 92 66
342 888 176 98 78 70
325 360 261 90 69 52
395 720 247 94 23 34
280 335 243 103 68 52
453 736 324 92 69 52
325 175 190 117 97 75
354 485 336 97 10 36
325 170 192 115 96 75
334 490 37 80 28 36
313 500 101 61 30 35
326 790 352 169 124 98
330 170 191 117 96 73
375 750 352 154 106 76
295 250 292 103 87 72
375 80 292 96 62 50
411 465 272 75 28 33
283 279 211 119 94 66
373 30 292 126 38 51
362 664 200 87 30 37
278 578 269 137 0 44
330 175 190 119 97 73
304 240 287 98 85 71
355 450 48 133 35 40
335 170 191 120 97 70
335 175 191 124 99 71
336 230 191 114 91 64
338 832 298 120 87 69
279 403 239 89 66 52
324 183 190 117 96 74
321 186 189 116 96 72
346 385 202 77 67 56
410 415 193 51 29 31
329 179 190 120 98 72
374 185 288 123 95 61
303 782 190 183 135 106
367 506 75 126 64 60
301 485 107 53 36 36
399 819 252 66 53 51
331 181 189 122 98 71
427 83 297 107 93 80
334 180 189 125 100 70
345 185 283 98 82 64
336 180 190 127 101 69
434 740 292 58 49 40
388 533 174 30 21 39
305 265 237 109 86 63
277 445 169 118 25 39
282 665 218 150 0 43
334 190 189 128 102 69
310 268 184 120 92 61
440 755 317 88 70 56
349 159 303 102 85 66
336 190 190 129 102 68
260 930 297 79 71 66
395 504 58 227 25 51
414 480 257 123 21 42
281 349 246 109 70 55
