ply
format ascii 1.0
comment Created by Open3D
element vertex 2233
property double x
property double y
property double z
property uchar red
property uchar green
property uchar blue
end_header
295 874 177 72 65 64
301 868 169 76 68 67
306 870 171 72 67 65
302 931 220 69 64 65
305 874 177 68 62 61
289 878 179 68 59 57
293 877 179 65 58 56
296 876 181 61 55 54
297 876 185 62 56 57
300 879 188 63 59 61
288 882 179 71 63 60
290 884 182 64 57 57
288 887 183 63 56 57
292 885 186 56 51 51
289 894 189 70 62 62
300 884 186 65 59 59
327 822 285 143 107 87
304 884 187 67 63 64
303 881 189 64 58 60
301 885 184 62 55 57
300 889 184 65 57 57
297 894 187 71 63 64
300 895 192 76 72 74
304 889 192 69 66 68
510 875 222 136 110 85
303 892 189 67 62 62
307 871 182 67 63 64
307 871 187 65 62 66
308 869 192 64 61 63
260 834 196 133 93 71
260 838 198 125 85 67
265 834 197 97 67 56
260 840 201 111 76 62
350 889 223 84 74 75
261 849 207 76 58 51
268 839 195 57 49 46
286 961 267 65 58 56
267 849 194 56 46 45
267 846 194 61 51 49
259 849 212 112 79 61
262 851 199 54 46 44
360 829 267 146 94 72
262 854 202 53 46 46
264 859 197 52 46 46
263 858 201 48 44 45
261 864 202 45 41 44
260 864 207 46 42 44
305 948 247 85 80 83
267 855 193 53 44 46
258 859 216 112 85 65
260 859 212 74 59 52
258 864 216 89 70 56
260 834 257 136 107 83
263 868 195 49 45 46
258 872 206 45 41 45
259 869 212 53 47 46
331 814 296 179 135 110
258 867 215 77 62 52
320 854 197 61 55 55
321 855 201 61 55 54
316 859 196 59 55 55
321 859 201 60 54 54
320 864 202 60 54 54
355 885 226 70 59 56
300 834 256 155 120 98
299 839 255 160 122 98
301 839 254 158 119 95
305 833 256 128 99 81
298 844 255 162 122 97
300 844 253 161 121 95
300 849 252 153 116 90
305 844 251 158 119 93
304 848 250 145 107 82
294 854 256 156 117 93
293 864 256 143 107 84
301 855 248 105 75 57
300 864 248 44 36 32
305 859 247 44 36 33
297 861 249 92 63 49
297 864 249 57 37 31
310 839 253 151 119 95
308 836 254 133 105 84
306 850 248 123 88 66
300 913 297 37 35 36
311 846 249 141 101 77
310 849 247 109 75 57
321 935 283 53 48 46
314 841 253 129 99 78
320 847 246 57 41 34
315 843 252 120 93 71
260 879 292 156 120 94
315 846 249 123 89 66
320 842 255 36 31 33
309 854 245 42 32 29
311 853 244 39 29 26
310 863 249 43 38 37
315 850 243 46 32 28
361 849 226 49 42 41
320 850 243 39 29 27
320 854 243 33 28 28
315 856 245 35 30 28
315 859 246 38 34 32
320 864 248 42 37 36
301 895 197 73 72 75
303 893 197 72 70 72
304 894 202 69 66 68
306 875 196 61 58 60
308 872 194 63 59 61
336 809 301 176 132 106
308 877 199 57 54 56
307 880 202 59 56 59
307 880 205 60 57 58
311 876 205 57 53 54
316 866 201 63 57 57
314 873 202 59 54 55
356 889 238 43 38 35
320 872 204 57 51 51
319 879 212 64 56 55
305 884 197 63 60 62
307 884 207 61 58 60
305 889 202 65 63 65
306 889 207 64 60 62
309 884 209 60 56 57
311 881 210 61 55 56
310 888 209 62 58 59
310 890 211 65 60 61
307 890 210 64 60 63
314 884 212 64 57 58
313 888 213 66 59 60
316 885 216 66 58 58
315 889 217 67 59 59
320 884 218 66 56 56
294 869 252 96 70 57
334 888 233 61 54 52
292 871 254 124 91 72
292 874 254 112 83 66
291 874 257 121 91 74
326 870 212 61 51 49
300 868 249 42 36 33
301 870 250 42 36 34
305 865 250 44 39 36
360 930 272 74 60 52
305 869 251 43 38 36
300 874 252 39 34 32
274 957 219 85 82 86
294 881 255 48 39 35
295 884 257 45 38 34
300 884 258 37 33 32
310 865 250 41 38 36
373 784 300 183 126 96
320 866 250 43 38 37
315 879 255 38 35 35
316 877 254 38 34 32
355 954 287 88 78 70
320 891 225 65 58 59
321 894 226 65 58 58
322 775 174 63 51 45
324 773 176 69 53 47
325 784 173 87 65 46
336 774 176 96 71 45
328 782 174 84 60 35
333 777 174 99 72 47
422 923 239 98 79 63
335 779 177 94 68 45
326 789 177 85 63 47
323 792 174 85 64 44
331 800 173 106 83 65
336 794 172 114 88 62
334 797 177 98 76 64
327 790 180 95 69 48
382 913 224 81 75 74
326 800 178 86 64 52
325 799 182 84 62 49
322 800 180 89 67 49
330 789 182 91 67 47
408 897 200 96 86 78
331 785 181 82 62 45
336 789 187 76 55 48
330 797 181 84 63 50
330 799 188 73 53 49
330 799 190 69 52 48
335 794 187 77 57 52
335 798 188 75 57 51
336 798 191 65 51 47
337 770 175 72 53 43
333 831 279 139 102 81
339 774 178 96 73 48
342 771 180 96 73 45
345 774 183 93 69 48
345 843 206 61 50 43
340 780 179 92 70 52
344 779 183 79 60 48
340 784 187 76 58 52
342 781 187 73 58 49
345 779 187 72 55 46
340 784 192 70 55 49
350 774 192 65 51 44
350 779 193 67 54 46
340 789 173 101 76 53
339 789 177 96 72 49
337 791 174 103 77 40
335 854 202 52 45 44
337 791 177 104 80 53
341 786 174 93 73 56
337 796 169 121 95 69
345 798 169 68 54 43
349 795 176 78 65 57
350 799 172 61 49 43
338 789 193 67 53 50
344 795 181 73 54 48
270 973 247 62 58 57
341 797 184 80 60 55
345 798 182 65 53 51
338 796 185 87 65 56
349 800 181 63 54 52
326 805 174 105 81 60
325 809 174 90 68 54
325 814 176 88 70 56
330 804 175 97 76 66
335 809 175 68 55 49
324 802 187 82 59 53
325 821 174 72 60 54
325 824 172 71 58 52
335 818 176 73 62 56
381 851 224 90 68 54
329 828 173 59 51 49
336 826 176 64 54 48
335 830 182 59 51 48
345 889 223 78 68 70
335 829 187 56 48 46
336 830 191 57 51 49
340 809 177 67 54 48
346 803 172 50 40 33
350 803 177 62 52 47
340 804 177 66 54 48
344 808 183 64 52 46
341 802 192 59 49 47
342 814 181 76 62 54
345 809 186 68 53 44
345 804 186 56 45 41
350 812 189 68 54 47
340 823 174 65 56 51
350 820 178 66 57 53
342 818 181 78 64 59
345 819 182 77 62 55
345 824 182 61 54 52
339 828 187 58 49 46
341 826 187 59 50 47
342 826 192 59 51 48
350 824 181 65 57 56
359 806 188 61 54 51
358 806 191 62 55 52
360 809 192 63 56 52
355 813 189 72 58 47
355 815 191 75 61 51
353 823 181 62 55 55
346 782 194 60 48 46
352 779 196 59 47 44
341 789 196 59 50 49
345 789 198 60 52 49
344 798 199 63 52 48
352 786 200 59 49 42
351 789 201 62 51 46
350 794 201 62 52 46
342 803 197 61 49 47
345 804 197 64 51 49
346 803 201 68 54 51
360 829 248 31 27 26
350 805 197 62 51 48
345 913 238 67 59 61
350 804 202 73 57 52
351 810 207 61 50 46
342 829 196 57 49 45
345 824 197 61 52 50
344 829 198 56 47 45
346 829 201 55 46 43
347 821 196 65 56 53
346 819 207 61 52 49
346 824 207 61 52 49
347 827 205 56 47 44
331 799 296 168 128 100
347 819 210 55 47 45
351 824 211 54 49 48
352 831 243 31 28 27
349 907 275 42 38 37
356 774 201 55 45 41
359 774 203 54 43 39
361 774 206 50 41 39
454 908 252 130 104 86
353 779 198 54 45 42
410 924 248 92 74 63
355 779 202 55 45 42
361 779 207 50 41 39
358 784 204 54 45 40
361 784 206 50 42 40
364 774 208 49 39 35
283 917 194 72 64 67
360 781 210 52 43 40
365 785 216 66 54 48
355 789 202 58 47 42
358 788 204 58 45 43
353 798 204 69 55 51
357 795 206 75 58 50
350 949 292 86 75 68
359 794 207 72 55 47
361 795 211 81 61 51
363 788 209 60 46 39
365 789 212 77 59 49
362 790 210 76 56 45
366 790 216 67 54 48
367 784 220 67 59 56
367 790 221 63 54 52
363 797 214 72 56 47
364 799 217 66 54 50
368 774 214 60 47 38
370 774 217 57 46 40
372 774 221 66 55 48
375 774 222 77 59 48
350 910 267 58 52 48
370 779 217 66 50 44
371 779 222 71 58 52
495 891 217 123 97 68
370 783 223 68 53 47
375 783 223 85 64 57
380 774 217 74 58 50
379 778 214 81 62 53
375 829 252 45 38 33
291 925 205 66 62 65
381 779 216 84 63 50
380 779 222 93 70 59
383 784 218 82 64 50
369 790 221 62 51 48
375 789 221 69 52 43
368 792 219 67 51 48
370 793 222 65 52 48
368 799 223 68 56 52
375 794 221 69 52 42
380 789 216 88 66 51
384 789 218 81 63 50
378 796 220 88 64 52
380 799 221 86 65 55
384 799 219 89 67 46
386 799 222 76 59 49
367 795 226 63 51 49
379 814 232 77 60 49
371 784 226 68 53 46
375 784 227 81 62 50
380 772 231 80 60 49
370 908 248 64 56 50
383 771 224 86 65 48
386 774 226 81 62 47
498 882 237 95 78 61
377 770 235 81 59 46
379 779 227 88 69 60
370 789 227 63 50 45
370 794 227 64 50 47
370 794 232 65 50 47
374 794 226 65 50 45
374 799 226 61 48 40
372 800 235 62 49 44
345 869 251 47 41 38
373 800 236 61 47 41
352 807 199 68 53 53
355 804 207 75 60 53
316 920 310 54 49 45
354 808 208 66 54 50
355 814 202 68 55 49
357 813 205 65 53 47
363 815 204 69 58 54
355 809 211 65 53 49
359 804 213 69 56 52
361 809 217 60 51 45
360 811 209 62 52 48
360 814 217 56 47 43
357 816 221 49 41 38
343 848 204 62 49 45
364 803 218 62 52 47
365 804 222 62 53 49
362 806 220 59 51 47
362 808 220 57 49 46
364 809 222 56 48 45
363 812 217 56 49 46
363 812 222 54 46 41
355 818 197 62 50 44
353 830 208 46 43 44
353 819 214 48 43 40
353 824 213 56 51 49
352 827 210 51 46 48
355 829 212 51 45 45
357 828 216 55 48 44
357 827 220 54 47 44
358 825 223 52 44 44
358 830 218 56 47 44
380 809 222 69 52 43
382 804 218 80 59 48
382 814 223 68 50 39
382 819 223 63 47 36
384 824 222 73 53 38
382 823 224 63 49 39
367 805 225 61 49 46
366 810 227 54 46 43
363 812 228 51 45 42
362 815 230 54 46 44
387 803 220 87 65 50
362 820 231 54 47 45
364 819 232 63 51 47
365 824 237 97 78 67
365 829 237 69 53 47
355 830 247 34 28 27
357 826 248 33 26 26
360 826 248 31 27 25
361 825 251 40 29 27
359 828 252 50 34 29
366 821 242 93 75 63
331 864 212 57 50 49
365 824 252 43 37 35
364 821 252 47 35 33
365 824 257 93 62 47
364 826 249 41 39 37
362 826 257 96 61 47
390 844 241 64 53 44
368 802 224 66 53 49
371 805 231 57 46 38
368 808 228 55 46 41
370 809 232 58 47 41
376 804 227 71 55 45
310 944 252 87 82 84
374 804 232 64 49 41
372 804 235 60 47 41
370 814 233 72 56 46
370 814 237 78 61 51
375 813 237 86 67 54
378 804 228 76 66 63
377 808 228 73 58 49
379 810 226 60 45 37
378 811 230 63 47 37
378 812 236 100 78 65
372 810 243 72 58 48
375 808 245 66 59 55
380 809 257 50 40 32
370 818 234 79 61 52
370 819 237 86 69 57
375 820 236 77 62 51
370 829 238 71 60 56
377 817 229 55 41 36
380 820 231 56 42 37
383 829 226 68 52 42
379 829 232 58 45 39
377 831 234 57 40 40
384 828 233 58 46 39
455 909 227 104 84 64
375 818 243 76 61 52
370 824 253 39 33 30
370 820 257 68 47 38
260 965 278 63 57 55
375 819 256 54 42 35
374 831 240 66 54 50
289 923 198 67 63 65
368 830 249 36 33 30
274 805 259 187 131 111
359 916 305 43 40 38
380 819 253 49 39 32
380 824 252 51 42 36
385 819 251 54 43 36
324 839 167 69 62 60
325 834 181 61 55 54
321 837 181 65 60 59
321 845 180 61 56 55
325 844 182 60 55 55
323 847 184 59 54 55
326 845 187 60 55 55
324 849 192 60 54 54
327 846 191 60 54 54
365 884 241 48 42 39
330 833 180 60 54 52
335 834 182 57 50 48
333 837 179 59 52 49
334 837 182 56 50 49
345 906 250 37 34 34
335 834 187 54 48 47
331 840 187 58 54 53
445 899 256 87 63 52
334 838 187 55 51 52
334 838 192 56 50 49
322 851 192 57 51 53
325 849 197 58 53 53
335 840 197 54 48 46
328 847 198 54 48 47
334 846 194 53 46 45
334 847 194 54 47 45
331 846 200 48 42 41
325 854 201 54 50 50
327 859 199 57 51 51
330 859 202 53 48 48
329 864 207 59 51 50
334 858 207 54 47 45
336 855 207 53 47 44
365 834 248 45 40 38
331 861 212 58 52 51
336 859 216 53 46 44
315 924 311 63 54 48
332 860 215 56 50 50
341 834 197 56 47 43
345 839 197 59 49 44
266 971 259 57 54 54
344 833 200 56 47 43
338 848 198 55 47 46
341 841 201 60 49 44
340 844 201 58 48 44
340 849 202 57 47 45
345 844 203 62 51 45
350 842 199 54 45 42
450 899 256 89 65 48
350 849 207 54 45 43
325 874 252 40 36 35
352 846 206 49 42 42
350 834 287 171 111 87
340 854 207 57 48 46
345 853 208 64 53 49
340 855 211 58 48 46
345 855 211 63 53 49
340 859 209 57 48 47
338 856 215 55 47 45
345 864 213 63 53 51
355 904 243 46 41 38
347 861 216 64 54 50
346 865 217 65 55 53
350 859 217 57 49 46
350 864 217 61 53 50
352 864 221 57 51 49
335 874 213 65 55 53
325 849 245 35 31 29
325 845 248 33 28 27
330 845 248 31 27 28
452 911 247 170 140 114
330 849 246 36 32 30
305 915 302 37 35 35
335 849 248 42 36 35
330 843 252 32 28 28
334 842 255 32 28 27
324 850 244 35 30 29
321 856 245 34 30 29
325 859 247 38 34 32
325 863 249 43 39 37
335 854 249 40 35 33
330 862 249 43 39 37
332 861 250 43 39 37
367 816 293 191 129 103
500 884 227 125 100 73
345 839 252 33 30 31
339 842 251 32 28 28
347 947 300 85 73 65
346 836 246 31 28 27
350 839 243 33 30 29
350 839 247 32 28 28
351 835 251 38 30 30
351 835 257 63 43 36
349 837 256 48 34 34
350 842 243 36 32 30
350 844 247 39 35 33
350 849 248 47 42 39
340 854 249 43 38 36
341 856 250 47 42 39
345 854 249 48 41 40
345 864 251 47 41 38
350 854 249 49 44 41
346 857 249 45 39 38
351 858 249 48 41 36
324 868 204 58 51 50
325 869 207 60 52 51
327 865 206 57 49 49
321 875 212 63 55 54
325 873 212 63 54 52
325 875 217 65 56 55
355 908 228 76 64 65
321 879 216 63 55 54
322 875 223 67 62 62
460 906 247 127 95 68
331 869 217 60 51 49
335 869 213 61 52 50
331 875 216 60 50 48
276 864 269 138 106 78
330 879 217 63 53 53
333 876 220 58 50 49
335 879 222 59 52 51
329 885 221 61 54 54
333 883 218 61 54 53
335 884 222 64 56 55
469 899 251 110 86 65
334 888 223 65 57 57
340 869 217 63 56 54
343 867 214 64 54 50
345 869 217 65 56 54
338 874 214 62 54 50
340 874 217 63 55 54
341 878 214 63 54 53
344 879 218 64 56 56
295 919 302 36 34 35
343 878 214 64 56 56
340 874 222 63 56 56
339 879 222 61 54 53
347 866 221 62 52 50
350 874 218 63 54 52
350 879 219 64 56 54
349 879 220 63 54 52
340 884 221 66 57 56
345 884 221 69 60 61
350 882 219 70 61 60
495 899 256 100 79 56
331 878 225 52 46 47
355 819 300 193 131 101
325 869 251 45 41 40
325 879 253 41 38 37
330 869 251 50 46 45
330 874 252 45 41 40
330 879 253 45 41 40
335 879 253 45 41 39
445 924 269 99 79 65
325 889 227 63 55 56
326 886 227 61 54 54
325 894 228 65 57 57
330 889 227 62 55 54
329 886 231 57 51 49
335 884 227 62 53 53
330 889 232 56 50 48
279 958 223 84 80 83
331 888 235 47 42 38
331 893 229 65 57 56
335 895 231 64 55 54
330 892 235 53 46 45
336 885 247 46 42 40
335 884 251 44 40 37
335 889 252 41 38 37
355 921 246 61 53 51
331 894 254 39 36 35
263 784 269 60 49 48
337 880 226 62 55 53
427 876 179 88 81 76
344 880 226 64 55 54
345 880 231 69 61 59
349 874 225 62 53 49
499 885 212 121 98 73
347 877 235 72 65 62
350 875 236 66 60 57
350 879 232 77 70 67
340 879 251 46 41 40
347 871 249 45 39 35
349 868 250 45 39 36
351 875 241 55 51 49
351 880 243 49 43 40
347 874 249 45 40 38
341 885 228 64 55 54
313 918 216 74 68 70
340 883 233 64 56 53
339 888 230 68 60 59
340 894 227 71 62 61
345 894 226 83 74 72
340 889 248 43 39 37
340 884 250 45 41 39
338 889 250 42 38 37
345 889 248 43 38 38
345 894 247 39 35 35
346 881 243 59 53 48
346 883 243 53 47 44
349 885 246 43 38 36
351 894 243 37 33 32
350 894 246 37 33 32
354 839 202 51 47 46
355 844 207 52 47 47
358 839 213 54 49 48
394 890 217 87 76 71
360 839 217 52 45 45
358 843 213 59 53 50
359 844 217 56 49 47
361 839 222 57 49 47
357 851 221 48 40 45
359 854 224 60 54 53
392 803 238 53 43 36
353 858 219 52 44 41
355 859 222 57 50 47
359 864 224 78 64 54
370 859 223 66 57 51
370 864 222 62 54 47
375 864 221 76 64 58
385 849 223 98 74 57
385 854 222 104 80 64
380 864 220 101 81 73
386 859 217 106 83 71
384 858 221 109 83 71
360 834 227 60 49 48
360 834 232 66 53 50
360 839 232 67 56 52
309 933 228 72 66 67
357 834 235 67 60 60
357 842 234 64 54 51
359 842 233 65 56 52
364 834 234 80 67 60
362 844 226 55 46 44
375 857 240 57 47 39
364 844 228 60 48 45
366 844 231 57 44 39
355 839 247 36 32 30
360 839 243 52 46 43
354 834 252 47 35 32
355 849 248 51 45 42
365 838 243 62 57 55
365 839 248 48 41 37
365 849 246 42 35 31
356 854 231 53 44 38
359 851 232 55 46 41
360 854 227 54 47 42
356 851 234 57 48 43
357 850 235 54 46 43
357 858 230 66 54 46
468 902 250 114 92 72
359 858 230 66 53 45
361 859 224 73 59 50
364 857 227 75 63 56
260 919 193 66 61 60
355 854 248 51 44 41
360 854 246 47 41 38
355 859 248 45 39 36
353 860 250 42 34 31
364 853 245 45 37 33
365 859 242 44 37 33
361 859 244 40 35 33
376 921 245 80 69 65
362 864 244 44 39 36
375 839 237 59 44 41
370 844 231 58 46 39
370 848 230 62 51 43
375 849 228 65 52 42
371 842 237 64 51 42
375 843 237 65 52 45
384 834 226 80 63 49
377 840 233 56 43 36
380 840 237 64 50 42
384 832 236 64 50 43
384 834 232 70 54 46
380 842 233 62 49 40
385 844 223 87 66 51
383 848 225 91 67 54
368 834 248 49 44 41
374 835 240 69 54 48
374 838 241 52 39 39
370 838 250 48 39 34
265 969 227 82 78 80
340 919 313 62 53 48
375 834 252 48 39 33
375 840 248 51 41 35
370 849 246 55 45 37
375 849 243 61 51 43
376 845 243 60 50 43
380 839 247 57 45 35
384 838 245 62 50 40
381 835 249 53 42 35
379 843 245 59 48 38
380 849 241 61 51 43
385 844 242 65 55 46
382 841 244 60 48 39
386 840 243 64 52 42
385 849 241 65 53 46
375 854 226 67 55 45
368 856 224 82 71 62
375 857 225 70 58 50
451 911 224 106 85 63
371 864 239 50 40 34
378 852 225 75 60 47
371 851 244 57 46 40
370 854 242 54 45 37
369 864 240 48 38 33
380 859 240 55 44 37
381 863 240 52 41 34
289 828 260 167 131 106
355 869 220 70 57 52
355 871 219 69 56 51
355 874 219 66 54 50
368 779 305 177 122 90
353 872 220 68 56 52
359 874 219 76 61 55
360 879 219 73 60 53
365 879 222 79 68 67
355 884 222 72 59 56
355 889 223 72 59 56
359 884 220 72 60 56
359 889 221 72 61 58
355 894 223 69 58 58
366 883 221 95 82 84
345 904 247 37 35 34
367 889 220 78 71 74
361 890 214 71 60 57
365 892 219 78 69 68
371 879 223 87 75 71
375 874 222 85 72 67
379 874 221 95 81 76
378 879 220 85 70 63
385 874 218 100 82 77
384 879 219 77 59 50
375 884 222 87 76 74
375 889 221 76 64 64
335 907 246 35 33 33
375 894 221 89 75 76
380 889 220 86 71 67
386 890 219 117 99 87
380 892 219 91 78 77
361 867 227 76 62 53
358 874 233 69 64 63
355 875 234 63 58 57
360 875 238 52 46 42
323 907 229 60 53 54
440 919 266 96 79 70
271 940 212 84 80 84
366 875 230 60 51 45
365 879 237 51 45 41
356 870 244 39 33 32
360 869 243 47 42 39
289 889 272 125 95 77
355 874 242 43 38 36
496 892 213 121 96 70
355 879 241 46 40 38
355 889 226 70 58 56
356 883 233 62 55 51
358 893 230 50 44 42
355 894 238 43 38 36
360 893 237 39 35 32
364 888 233 48 42 37
365 889 237 47 41 36
353 892 245 36 33 33
365 887 240 48 41 37
369 869 227 55 47 42
272 971 254 56 53 53
369 868 230 54 46 40
369 880 225 79 69 65
385 865 239 55 46 42
385 869 239 56 48 43
380 874 239 59 52 49
385 874 239 57 50 47
379 870 240 57 48 42
264 916 159 63 56 52
380 879 240 58 51 47
281 955 221 82 78 80
370 890 238 53 45 40
370 893 238 48 42 36
380 889 238 52 46 44
385 884 237 52 45 41
372 880 240 54 47 43
375 884 240 53 45 40
373 887 240 55 48 42
370 896 241 45 38 32
276 915 159 68 58 56
278 916 157 68 59 56
279 917 155 69 64 61
280 917 154 71 66 63
258 909 175 73 62 60
264 910 172 66 58 57
260 899 178 77 67 64
265 899 178 81 71 71
260 905 180 87 79 78
334 789 299 173 131 101
260 908 183 92 83 81
266 900 181 78 69 70
270 899 182 76 68 68
270 904 186 83 73 73
257 918 168 74 67 65
261 919 172 72 65 64
264 918 168 64 57 54
265 919 172 71 64 62
266 915 162 66 59 56
266 918 162 63 56 54
270 915 162 70 61 60
271 916 165 74 63 64
260 912 189 75 67 67
260 915 191 64 57 59
265 912 189 87 78 78
405 934 291 72 57 46
265 914 191 72 63 63
405 894 197 120 105 98
265 920 182 66 60 60
270 918 182 83 73 73
271 916 188 88 79 80
270 914 191 89 79 80
366 804 303 184 126 97
270 919 187 81 71 70
267 926 182 73 67 66
268 923 182 77 70 68
269 925 179 77 70 69
266 924 188 74 68 67
269 924 188 75 69 68
455 904 256 145 122 99
270 925 190 76 70 70
270 927 187 76 69 68
269 927 184 75 69 67
275 904 188 77 67 69
274 907 189 83 73 75
275 909 191 84 76 78
277 905 190 79 70 72
438 914 275 70 56 42
284 897 188 70 63 64
285 899 192 65 59 60
274 915 165 66 57 56
275 918 165 66 57 55
275 915 178 87 78 81
275 916 180 88 81 83
274 916 188 89 81 82
277 919 191 86 80 81
279 919 193 82 77 79
275 928 192 80 75 75
296 951 231 78 73 75
285 914 193 72 64 66
278 930 192 79 74 75
290 899 192 68 62 63
290 910 192 83 71 72
290 911 189 87 76 77
296 897 186 64 58 57
301 897 190 75 71 71
291 915 182 74 65 63
294 917 179 80 77 81
294 918 182 82 77 81
399 911 254 54 40 50
295 914 192 81 77 80
292 917 192 66 59 60
295 919 192 72 70 72
275 824 258 158 121 97
298 916 190 89 91 98
298 917 190 90 92 98
259 925 195 72 66 67
260 929 198 74 68 69
267 927 193 71 65 64
284 902 194 70 64 64
282 907 195 71 65 66
285 909 197 68 61 62
278 914 195 81 74 76
278 922 194 84 79 82
508 883 237 104 84 64
275 929 197 80 76 77
280 929 202 74 69 71
285 928 203 70 65 67
285 930 206 69 63 65
265 936 205 79 74 75
270 938 208 82 79 82
260 941 210 86 81 84
260 943 209 87 82 85
265 943 209 85 81 84
268 943 209 84 82 85
260 952 214 94 90 94
260 960 221 95 92 97
266 951 215 91 87 91
275 931 201 79 74 77
275 933 203 81 76 79
285 934 208 72 67 68
280 939 211 77 73 75
280 944 212 83 79 81
285 944 213 78 73 74
286 945 216 76 71 72
281 950 216 81 76 77
275 954 218 86 82 86
275 959 222 85 81 84
280 953 218 83 79 80
285 949 217 79 73 75
286 950 221 79 74 75
283 952 219 81 76 78
290 904 197 69 64 65
292 901 195 76 70 72
294 902 198 70 67 69
290 909 197 72 64 65
296 905 206 71 68 71
294 910 202 73 68 70
300 909 212 66 61 63
305 909 212 66 59 61
296 913 202 73 69 70
295 919 202 73 68 69
296 920 206 68 63 65
289 927 204 70 64 66
295 924 207 67 62 63
300 919 207 65 59 61
305 915 207 66 58 60
305 919 208 64 58 58
297 921 210 63 59 60
297 924 210 66 61 61
300 921 210 64 58 59
305 922 209 66 60 61
304 929 213 70 63 64
309 904 213 71 63 65
311 904 216 70 62 64
454 908 270 81 65 49
311 910 221 68 61 63
317 903 220 67 59 61
320 904 222 66 57 59
318 906 219 68 62 63
319 909 222 66 58 58
310 919 208 69 63 64
310 913 212 72 65 68
311 920 211 71 65 65
400 819 232 68 58 50
311 919 222 75 69 70
309 922 209 70 64 64
309 923 217 74 68 68
311 921 217 76 69 71
307 925 222 74 68 70
313 916 212 71 65 68
314 914 218 71 64 66
313 918 209 68 62 64
330 899 232 64 56 54
321 909 227 61 55 56
311 919 227 71 66 68
307 926 225 76 71 72
312 924 230 71 66 67
365 913 249 69 59 53
315 916 226 67 60 61
319 914 227 61 55 55
321 915 231 63 57 56
319 924 237 72 66 66
316 929 236 75 69 70
318 928 239 76 70 71
321 924 242 73 66 67
304 930 198 68 60 53
271 864 273 139 105 77
304 930 202 63 55 48
290 932 209 69 64 65
295 933 213 71 65 66
289 943 217 77 72 73
291 945 221 77 71 72
300 932 213 68 62 63
299 933 217 70 64 65
303 932 212 67 63 64
288 947 219 78 73 74
296 945 225 79 73 73
299 944 227 76 71 71
306 935 226 73 67 68
301 944 232 77 71 72
302 941 230 74 69 69
305 940 232 71 66 69
291 951 225 79 73 74
360 906 296 41 38 36
293 947 224 77 71 72
295 949 227 81 75 75
291 955 231 84 78 80
289 958 232 84 78 80
293 952 228 83 76 77
294 953 232 82 76 77
295 954 237 77 73 75
292 956 235 82 76 79
299 949 232 77 71 73
300 949 237 73 68 71
305 944 237 76 71 73
315 916 306 38 36 36
302 946 235 70 64 65
294 958 242 82 79 83
294 958 247 91 85 88
297 955 247 94 90 93
355 899 242 40 36 34
290 960 257 70 63 62
294 958 257 71 65 64
302 951 252 86 81 84
304 948 252 84 79 82
302 951 256 88 82 84
299 953 242 86 83 86
299 953 247 91 87 91
299 953 252 89 85 87
311 934 232 76 70 71
309 938 233 75 69 71
307 941 235 73 70 72
410 900 282 55 47 40
310 939 237 79 74 75
313 932 234 78 72 72
312 935 236 79 73 74
316 934 242 83 77 78
317 931 240 80 74 75
280 824 259 165 124 98
318 932 244 81 75 75
318 932 248 83 77 79
317 935 251 84 78 80
319 933 252 77 72 74
320 934 257 75 69 70
314 939 247 88 82 84
312 941 252 89 83 86
317 936 257 83 78 79
475 905 232 103 82 66
307 946 247 84 80 83
307 946 257 88 81 80
270 962 224 87 85 89
434 921 286 86 68 50
274 962 224 86 83 87
260 970 232 78 72 73
264 961 225 95 92 97
264 964 226 90 86 90
260 972 238 58 54 54
265 972 237 65 62 63
271 965 226 87 84 88
270 970 232 93 89 91
270 972 237 60 56 58
260 974 247 56 53 53
265 974 242 72 68 68
265 974 247 62 58 59
260 973 252 60 56 56
265 973 252 55 51 51
270 973 242 74 70 70
276 965 231 92 87 89
275 970 237 88 84 87
393 893 226 78 70 67
281 965 237 89 85 88
279 968 237 92 87 91
458 904 270 83 65 49
283 962 234 87 82 85
286 961 236 82 77 81
279 967 257 63 59 59
282 966 242 89 85 89
283 967 248 75 71 73
321 793 290 42 38 39
445 920 277 82 64 48
285 964 252 66 61 60
506 885 237 104 84 64
283 967 251 63 59 59
282 966 258 62 58 58
285 964 257 63 57 56
288 962 243 85 82 86
291 961 252 76 71 71
288 962 256 69 62 59
394 809 223 67 56 48
322 905 226 62 54 55
295 912 293 36 34 35
324 904 228 62 54 54
326 898 231 64 56 56
326 905 231 64 57 58
325 909 232 65 57 58
322 909 231 62 57 59
327 908 235 74 66 66
335 904 231 72 61 59
333 902 236 73 62 59
330 909 232 73 64 63
325 904 257 32 30 33
296 907 276 56 47 43
325 907 257 31 29 33
336 904 246 36 35 35
329 899 255 35 33 34
330 908 248 34 32 33
332 905 245 36 35 35
322 920 236 71 65 65
329 912 234 73 63 62
330 913 237 75 66 65
325 919 242 70 62 62
327 916 240 72 65 64
326 920 246 68 62 62
322 921 240 73 67 67
322 926 246 72 66 66
323 927 248 69 64 63
324 928 253 68 63 63
326 925 251 69 63 64
325 930 256 67 62 63
330 920 247 67 61 61
334 917 244 64 58 60
335 918 247 69 62 62
330 924 252 70 63 63
328 927 254 70 64 64
330 928 257 68 63 63
335 925 257 70 63 63
337 902 229 74 64 63
345 899 227 73 61 60
345 901 230 68 56 55
340 908 234 74 64 62
348 906 230 72 62 59
345 903 242 38 35 34
370 809 297 188 126 97
337 906 244 35 34 34
350 899 243 38 34 33
350 908 253 39 36 35
383 779 271 146 98 68
340 912 239 70 62 63
340 914 242 67 60 61
344 915 241 67 60 61
340 920 251 68 62 62
345 925 257 69 62 61
355 899 224 66 57 58
360 899 224 67 61 62
365 904 224 108 95 96
370 903 223 112 94 99
358 898 237 42 36 34
355 910 232 68 58 58
360 908 228 87 75 76
365 906 225 102 87 89
360 904 243 44 38 34
355 907 247 45 40 37
356 907 244 41 36 33
479 892 245 128 104 78
306 822 270 56 41 41
360 907 244 39 35 34
355 912 234 67 57 56
355 914 237 67 56 55
360 913 233 70 61 60
360 917 239 69 60 58
365 913 232 74 65 64
365 915 236 72 64 62
354 916 240 66 55 54
356 913 253 62 54 49
358 921 245 68 58 55
355 924 252 69 60 58
355 926 256 63 56 53
360 924 252 73 62 58
365 920 241 80 72 70
362 912 249 70 59 51
379 789 287 183 124 91
365 915 252 75 65 58
365 923 247 87 77 74
365 925 252 74 63 60
364 926 256 59 49 47
376 900 225 95 79 77
380 899 226 99 86 81
384 899 236 85 74 66
384 903 236 89 80 75
379 908 228 83 72 70
394 829 241 65 55 48
356 831 262 120 76 56
370 904 243 46 40 36
375 908 243 75 65 55
370 910 257 77 68 61
375 909 252 76 66 59
378 900 240 82 72 66
380 909 242 77 66 57
385 909 241 81 72 66
383 907 247 77 66 58
386 906 252 78 67 59
421 879 185 92 84 81
384 907 253 75 64 57
384 907 256 73 62 56
370 913 232 74 67 64
375 913 232 75 66 64
370 915 236 74 66 64
370 918 239 91 82 81
375 915 237 77 69 67
383 917 226 78 71 68
375 920 242 94 81 79
369 912 256 74 65 58
370 922 244 95 87 83
375 923 247 91 82 79
370 925 252 86 74 71
371 928 254 96 84 81
370 930 257 93 78 72
380 919 242 102 89 87
382 913 240 78 69 65
377 927 249 108 96 95
380 928 249 92 75 69
381 931 257 100 78 71
385 930 257 91 74 69
385 784 222 74 59 48
389 774 228 72 57 48
391 774 232 74 59 51
387 780 226 73 59 49
387 784 230 68 56 48
388 782 229 71 59 49
389 784 232 68 54 47
390 784 237 63 51 41
393 771 239 69 55 40
392 774 237 78 62 51
392 775 242 71 56 44
393 771 242 71 56 45
393 773 242 74 59 46
362 936 299 78 61 49
394 774 247 79 60 48
393 770 249 77 57 45
396 774 250 81 61 47
392 779 245 70 54 44
396 780 251 72 55 43
395 784 257 69 52 41
397 781 256 66 50 39
386 789 227 69 55 46
389 789 237 64 52 43
387 798 226 65 53 47
389 799 227 67 55 48
391 799 232 64 53 45
390 789 242 56 44 37
392 790 257 60 46 36
390 794 242 58 47 40
390 799 242 56 45 37
391 794 252 62 48 38
392 786 250 54 41 33
393 788 257 65 50 38
388 801 223 69 53 45
388 806 219 84 65 48
391 809 221 78 62 50
393 815 219 88 70 55
392 812 220 90 71 57
395 814 222 77 63 52
386 823 219 78 58 44
390 829 217 89 70 56
489 903 233 108 85 67
374 809 287 182 123 95
388 829 220 86 65 49
396 817 220 84 71 60
399 820 218 76 63 54
395 829 213 71 60 52
398 826 214 75 59 47
398 828 214 69 57 45
397 831 215 65 55 49
402 824 222 64 55 49
402 829 222 68 58 52
393 805 227 62 53 47
394 805 232 64 54 46
395 809 227 60 51 45
394 809 237 51 42 35
392 809 239 53 43 33
399 815 232 70 59 51
392 814 239 58 47 36
391 804 242 58 46 36
391 809 242 56 44 33
389 804 252 56 43 37
389 814 247 57 45 37
387 816 249 55 45 38
395 819 237 55 45 35
398 820 235 58 50 42
400 824 232 64 55 48
398 824 235 59 50 42
400 829 232 69 59 51
397 829 238 60 49 40
389 829 245 64 52 43
392 829 244 69 58 50
394 824 241 63 54 47
401 819 227 67 57 50
416 875 188 84 70 68
412 881 191 88 75 68
411 882 189 91 79 72
410 884 192 87 74 68
480 903 222 109 87 66
415 889 192 91 78 67
415 893 192 95 85 80
420 870 188 78 66 59
420 871 191 81 70 62
265 942 311 62 56 54
426 877 183 88 81 76
422 877 184 86 79 78
426 877 185 88 81 76
424 879 193 86 74 68
417 880 184 88 75 71
421 884 191 89 78 70
388 834 222 90 69 54
302 907 268 29 29 30
391 839 218 91 74 62
389 839 221 85 68 56
390 844 217 116 97 80
364 824 292 196 131 107
395 834 216 74 62 52
400 834 222 74 65 60
398 837 219 74 64 58
399 839 222 78 67 60
395 844 217 87 68 59
397 850 220 86 71 62
398 849 222 89 73 69
391 850 204 91 73 57
397 850 233 68 57 47
390 849 207 94 74 60
390 854 207 88 69 56
389 859 207 88 70 57
394 853 204 88 72 60
390 854 217 104 85 76
388 854 220 112 91 76
387 856 208 96 75 62
387 857 214 117 95 80
389 859 212 94 72 62
390 859 216 93 74 65
391 865 221 86 71 60
398 852 223 89 74 72
389 838 225 75 62 52
400 839 227 78 65 57
399 834 236 64 53 45
400 844 227 79 66 59
399 844 232 74 62 53
398 848 231 74 62 53
400 839 232 74 63 54
391 834 244 66 56 47
389 833 245 64 53 44
390 839 243 65 55 47
394 839 241 65 54 45
394 844 240 62 50 42
387 859 239 54 44 39
389 859 237 56 47 41
392 859 233 59 50 42
389 864 237 53 46 42
397 854 227 76 65 56
395 859 227 72 61 53
394 863 227 71 60 53
392 865 227 68 58 50
326 809 291 164 128 103
393 862 230 64 54 46
400 834 232 77 65 56
387 874 220 102 81 75
386 880 221 80 59 49
334 934 308 67 57 49
400 891 200 124 114 110
400 894 207 95 84 77
386 884 220 91 73 63
389 895 217 105 92 86
390 896 222 75 63 58
395 891 209 92 79 75
393 894 217 81 69 63
407 893 194 143 133 127
404 895 206 97 86 79
409 890 196 93 78 64
416 880 195 91 79 73
377 781 294 182 124 94
390 906 252 82 70 62
410 894 197 98 86 79
409 894 202 95 82 71
391 869 227 71 61 52
390 874 237 57 50 45
390 879 237 55 47 43
391 884 232 75 65 59
387 890 234 69 61 56
388 894 230 83 73 67
393 890 226 82 73 68
445 895 257 74 58 41
455 890 257 73 58 41
454 894 255 89 69 48
456 894 253 86 66 44
462 886 253 93 75 58
465 889 250 95 74 48
460 888 257 74 60 46
462 890 249 91 70 57
480 896 237 141 112 82
469 886 252 100 80 58
468 888 249 105 81 48
475 894 247 121 97 71
476 891 248 114 91 67
475 889 252 104 83 61
491 895 218 122 95 63
300 904 267 33 31 32
496 890 222 133 106 72
506 880 217 117 96 75
506 879 221 127 102 77
511 875 217 136 111 88
509 878 222 123 99 77
497 889 212 123 98 70
501 884 217 122 97 72
485 895 238 132 105 73
495 889 232 133 102 65
496 885 233 101 88 75
492 890 234 136 101 62
486 889 242 113 90 64
485 888 247 95 76 56
487 886 246 89 72 55
482 891 244 125 99 72
485 894 257 87 69 51
490 885 242 93 76 56
490 888 248 100 82 62
495 889 247 96 78 60
489 891 251 98 81 63
490 892 253 96 77 58
490 894 256 92 73 53
493 891 250 99 80 63
495 894 252 97 79 60
493 895 255 95 77 56
505 874 227 120 96 74
500 880 232 105 86 67
504 877 237 97 79 60
506 871 228 119 96 75
465 905 247 123 94 67
398 899 212 93 78 73
507 871 230 118 94 73
507 874 232 117 94 72
510 875 227 120 96 75
510 879 227 136 106 82
510 879 232 121 96 74
506 876 237 107 89 69
511 879 237 106 87 67
509 879 240 114 92 68
505 884 227 141 111 89
504 884 224 135 111 87
504 889 232 122 94 72
500 895 237 101 81 64
503 892 237 98 81 64
506 884 232 127 97 75
510 883 228 125 97 75
508 883 233 108 87 67
501 889 243 94 76 57
504 889 240 99 80 59
500 894 247 95 76 55
498 895 250 96 77 58
508 882 240 104 83 63
407 900 193 101 86 76
405 902 193 95 83 76
395 898 208 130 114 112
400 898 207 97 85 81
392 897 212 107 97 91
388 897 224 78 68 63
395 898 212 102 88 83
398 898 216 90 76 70
405 899 197 99 86 78
402 902 198 100 89 84
388 898 230 85 75 68
390 904 247 79 68 61
392 909 246 78 64 59
389 906 258 74 63 56
391 907 256 75 64 56
394 914 248 72 60 55
396 913 251 62 54 49
400 914 252 72 59 53
398 916 249 82 65 58
398 922 244 89 79 75
269 832 259 159 123 98
400 924 247 87 74 67
395 928 252 89 76 68
398 927 249 87 75 69
400 928 252 93 80 72
401 926 250 90 77 70
405 910 257 75 56 39
405 926 252 95 81 71
404 927 257 86 72 63
406 926 257 87 75 68
410 914 253 75 59 49
410 912 255 78 61 47
410 918 250 87 68 55
410 920 249 92 73 60
415 914 252 81 64 50
414 912 255 81 65 45
414 917 250 87 69 52
415 924 247 91 73 60
390 930 257 91 76 70
446 917 222 102 81 67
420 911 254 87 67 53
425 908 257 80 64 48
425 911 254 87 69 55
425 921 238 118 93 74
426 923 233 98 80 64
428 923 233 104 86 73
428 923 237 123 105 99
420 920 243 124 101 83
425 920 242 165 148 138
426 918 246 139 118 105
417 921 244 93 72 52
425 923 247 125 110 104
282 797 270 192 140 118
425 924 242 121 102 91
420 923 257 87 74 66
425 922 257 90 74 65
430 919 248 127 105 86
430 914 252 122 102 91
430 916 249 149 125 103
432 919 253 97 77 72
435 909 256 82 66 50
434 911 254 91 71 56
440 909 256 105 82 62
445 910 254 189 148 151
446 914 227 126 104 89
446 917 227 103 82 66
447 917 230 105 83 71
440 915 247 130 111 98
444 914 244 106 82 60
465 907 218 105 85 65
461 906 222 111 89 65
469 906 218 107 85 66
469 907 222 107 85 69
475 903 223 112 89 68
451 911 227 102 83 66
455 909 237 90 74 57
465 906 231 89 75 60
465 910 227 107 85 69
390 901 292 41 36 33
456 906 253 135 109 82
460 898 254 100 78 54
460 904 252 132 104 74
465 903 252 120 95 71
459 907 246 118 91 70
465 909 242 108 87 71
457 906 249 115 90 70
450 914 232 109 89 72
455 913 227 102 83 68
450 913 236 114 90 68
455 913 237 114 90 63
459 912 232 115 91 66
455 913 257 98 81 64
460 912 242 106 85 67
460 913 247 105 86 67
463 912 242 100 82 69
460 914 252 101 87 74
465 913 257 92 70 63
472 901 228 96 81 67
478 904 227 103 82 63
480 899 233 124 95 64
475 899 237 131 102 77
472 901 239 204 162 157
475 907 228 99 79 64
474 907 231 99 78 60
471 899 247 112 88 63
472 904 242 119 96 74
470 911 257 109 87 73
473 897 245 114 91 66
474 906 242 104 84 61
475 907 242 102 83 66
480 907 243 107 86 69
475 908 252 108 87 72
480 907 252 99 80 69
481 900 217 118 92 70
485 899 222 106 85 68
491 897 218 121 94 63
488 902 223 107 85 67
485 900 225 104 86 69
486 903 227 100 80 61
490 899 227 109 86 62
488 902 227 104 81 64
495 897 228 112 87 64
494 902 238 117 92 75
485 906 247 95 76 64
279 957 291 77 70 67
482 906 258 95 78 69
495 903 242 109 86 73
495 902 246 97 78 68
490 903 252 96 78 63
495 902 252 99 81 68
499 899 247 103 81 61
497 901 247 102 82 69
264 770 269 77 62 55
260 779 266 78 63 57
260 784 267 59 48 47
267 780 270 85 67 62
272 773 275 80 64 57
260 788 266 109 84 72
265 789 267 168 123 103
264 791 264 177 126 106
354 950 289 87 76 68
266 787 270 143 111 93
269 800 259 192 134 112
266 792 265 192 137 116
271 793 266 193 138 118
280 774 281 79 64 58
276 779 276 80 64 58
273 785 274 66 56 55
281 778 280 78 63 57
285 784 281 71 57 53
285 960 272 61 53 51
274 791 269 193 139 118
279 791 273 186 134 114
275 799 263 192 136 114
280 794 272 191 137 117
280 799 267 189 136 115
282 792 275 184 132 113
270 829 258 158 123 99
279 804 263 186 133 111
277 808 260 182 127 105
280 809 262 181 130 109
278 815 259 174 127 104
282 807 265 184 133 112
285 809 266 181 130 108
283 810 264 179 130 109
285 814 263 171 125 102
280 819 259 170 127 103
276 830 260 161 124 99
280 829 260 165 127 99
286 824 260 165 126 102
287 830 259 166 130 103
290 784 282 72 60 55
296 782 285 73 60 55
288 800 273 182 133 112
292 792 280 41 34 41
295 793 280 60 51 48
299 786 284 79 61 55
300 789 283 78 62 56
300 794 281 75 60 53
297 797 280 53 45 45
300 797 280 70 57 52
334 794 299 174 131 102
305 794 282 75 61 54
383 774 272 146 99 71
310 785 288 78 64 57
311 793 285 72 59 54
313 795 284 68 56 50
315 799 283 66 54 49
265 958 297 74 68 65
316 798 285 72 58 53
319 794 288 60 50 48
300 774 290 83 65 58
304 780 289 87 70 58
309 771 294 90 72 60
308 781 289 82 68 59
315 784 291 66 53 47
318 776 294 68 59 51
320 779 294 56 48 46
314 786 289 66 53 48
320 789 291 51 44 43
318 791 289 69 58 51
289 810 268 177 129 107
290 814 266 168 121 101
295 809 273 170 130 109
292 812 270 173 127 106
295 814 271 172 127 106
295 804 276 147 112 94
300 804 278 59 49 47
297 808 275 149 114 95
300 809 276 88 70 63
305 804 278 73 61 54
305 814 275 50 43 43
303 816 274 57 46 47
290 829 259 166 130 105
300 824 262 127 97 81
301 818 271 150 110 92
305 819 273 67 51 48
303 821 268 120 85 71
300 826 259 133 105 87
305 830 258 114 88 72
310 809 278 60 51 46
314 809 278 59 49 45
319 809 283 63 51 47
317 812 280 65 53 49
310 830 262 96 75 66
310 828 266 52 42 41
309 826 268 47 38 39
314 831 264 38 30 33
319 831 269 51 41 39
384 937 291 90 71 57
316 823 276 64 53 49
318 826 274 59 48 46
260 839 262 142 115 90
303 947 275 71 61 56
260 842 264 142 114 88
265 845 265 147 114 87
270 834 261 161 126 101
271 847 264 156 125 97
265 855 271 129 102 72
270 854 267 135 106 76
271 858 269 135 106 76
270 859 271 136 105 74
260 854 277 124 96 67
288 844 260 154 119 94
258 856 280 125 98 68
261 857 278 129 100 70
265 859 277 131 101 71
260 864 287 141 112 81
264 860 280 133 103 74
265 864 282 136 105 75
267 863 278 134 104 74
268 861 276 135 103 73
275 839 262 165 129 100
280 839 262 162 125 97
275 844 263 163 128 99
280 849 263 162 124 97
285 839 260 157 123 96
275 850 265 156 123 94
275 854 266 147 115 86
278 851 265 161 124 97
275 859 267 138 107 79
274 864 271 141 107 79
285 859 263 151 115 91
285 864 263 147 114 90
282 859 264 152 116 90
283 861 265 150 115 89
263 866 285 140 110 80
264 869 286 146 115 85
266 868 283 140 109 80
269 869 281 139 106 79
272 874 278 139 103 77
267 874 284 145 113 88
265 879 288 150 117 91
269 884 286 143 109 81
274 869 272 139 105 80
277 872 269 131 102 72
276 879 272 137 104 77
281 878 269 136 109 83
283 865 265 146 114 89
289 890 281 133 92 69
284 874 266 140 112 88
272 868 274 138 102 77
274 879 277 138 103 78
280 883 272 134 107 83
286 884 268 136 109 87
284 885 271 138 112 89
286 887 272 134 106 85
401 907 298 52 44 36
273 881 280 139 104 77
275 889 283 140 107 76
280 886 280 145 115 89
276 893 284 145 112 82
274 895 285 134 100 73
280 894 282 143 101 80
286 887 277 116 84 64
260 884 293 155 118 92
261 889 293 151 112 87
264 889 291 145 110 84
259 894 296 151 109 86
262 894 294 148 108 85
268 895 290 143 109 83
295 834 257 158 124 100
291 844 259 155 121 95
288 840 260 157 124 98
288 849 260 152 118 92
291 859 258 151 115 91
289 859 260 149 114 91
288 864 260 146 114 92
317 837 260 37 31 34
316 832 265 55 45 42
289 874 261 135 105 85
289 879 262 121 95 76
290 884 262 109 86 68
435 909 276 59 47 36
288 885 266 124 98 77
290 930 315 51 47 47
295 893 264 50 42 36
292 894 268 103 80 64
291 894 272 122 90 71
336 832 281 151 108 86
300 893 264 36 33 31
300 895 265 37 33 32
292 894 277 128 88 72
293 896 278 125 83 72
306 887 259 33 30 27
310 894 262 35 33 33
315 888 259 37 35 34
320 889 258 37 35 35
314 890 260 37 36 35
315 894 261 36 34 34
355 814 302 190 129 100
319 895 260 36 33 33
327 784 295 171 123 95
334 774 298 168 123 95
330 784 297 165 123 92
334 779 299 171 127 98
336 779 301 176 131 102
435 938 283 96 84 75
327 788 295 173 129 98
323 799 289 48 36 35
325 799 291 144 111 87
330 789 296 171 130 99
328 790 294 174 131 101
328 794 294 172 130 99
331 794 296 172 131 100
345 774 306 175 131 100
342 776 305 176 133 102
345 779 306 176 132 101
345 784 307 178 132 102
350 784 309 179 131 98
341 799 306 176 133 105
345 799 308 179 134 105
350 789 308 181 133 99
322 813 285 36 32 35
322 822 280 56 48 45
325 824 282 53 41 40
324 826 279 52 45 43
324 831 273 53 44 41
330 824 286 163 119 97
329 825 283 139 103 83
335 830 283 159 115 93
326 813 291 170 131 105
328 804 294 163 125 99
329 809 293 167 129 105
331 809 296 170 129 104
329 814 293 175 132 107
336 813 300 180 132 109
331 819 292 175 128 105
332 822 290 170 123 102
335 819 296 183 134 110
334 820 293 177 129 106
340 814 302 188 138 112
345 814 303 196 140 112
338 816 299 184 135 111
341 818 301 191 139 113
345 819 301 199 143 116
341 828 291 170 119 97
343 831 289 164 111 90
346 822 300 201 143 118
350 819 301 197 138 110
350 827 295 194 132 107
384 784 267 98 67 48
383 783 270 145 96 68
382 774 277 167 113 80
382 776 274 160 107 78
382 780 273 159 107 76
379 779 287 178 122 89
381 779 282 174 118 84
383 788 266 98 65 48
382 790 268 133 90 62
385 794 262 61 44 35
378 799 267 138 90 64
380 794 277 167 109 79
378 799 277 164 108 76
377 795 288 185 125 94
378 793 286 184 124 94
378 797 285 181 121 90
355 774 308 173 122 90
360 774 307 173 121 89
355 779 308 179 129 95
365 774 306 172 120 86
355 789 308 184 132 101
360 794 307 183 128 101
376 779 297 181 125 95
378 774 292 180 125 92
378 774 295 180 123 93
378 778 295 179 123 91
345 924 313 54 46 40
378 784 291 182 123 91
368 774 305 172 118 86
368 784 305 179 123 94
374 789 297 185 125 96
374 794 297 184 124 96
266 912 294 69 61 56
376 794 292 186 126 96
375 799 292 184 124 94
374 799 297 184 125 95
373 793 300 184 123 97
372 796 299 182 124 94
378 789 290 184 123 92
400 902 270 94 72 59
368 788 305 180 126 95
360 828 262 124 80 58
356 831 267 141 89 68
357 831 270 154 98 75
366 825 267 149 97 72
363 827 264 136 89 67
364 828 272 170 109 86
367 825 272 169 111 84
362 831 276 171 107 83
364 829 277 181 117 91
361 831 283 182 115 91
365 829 282 190 124 99
258 971 259 61 59 60
364 828 287 195 130 102
376 815 258 63 47 38
372 816 262 118 78 56
372 815 267 140 91 63
374 814 272 157 104 72
378 802 265 128 86 59
377 801 272 152 99 71
376 804 272 152 99 69
375 804 287 180 120 92
374 814 277 171 113 84
373 814 282 182 121 93
377 801 277 165 107 76
377 804 277 163 106 75
370 819 262 119 78 56
370 819 267 145 95 67
371 819 272 161 105 76
372 816 271 154 101 70
371 820 277 175 115 88
373 817 274 165 109 79
260 963 282 69 64 64
373 817 277 174 117 88
370 819 287 192 128 102
369 823 287 192 130 102
360 810 304 188 129 100
364 813 300 187 123 97
367 811 299 187 127 98
355 824 297 197 133 107
400 774 262 64 49 41
356 820 299 195 131 104
353 822 300 197 136 108
360 819 298 192 127 102
359 817 300 190 125 97
360 828 292 196 131 105
365 819 293 194 130 105
361 825 293 197 134 109
363 827 290 198 134 108
374 804 292 183 124 94
373 803 296 184 126 95
373 808 292 185 126 96
373 808 295 187 128 98
371 804 298 186 127 97
368 808 300 186 126 97
372 810 292 187 126 98
369 813 296 189 126 99
325 840 258 42 35 33
325 835 267 54 44 40
322 832 270 57 47 42
330 839 262 41 33 32
328 836 268 49 40 36
330 835 272 45 37 35
327 832 275 45 38 36
330 833 276 53 39 38
335 834 277 125 88 71
340 837 271 91 61 48
324 928 307 75 64 55
344 837 267 82 55 44
348 837 262 65 44 38
346 836 267 98 64 48
340 836 274 125 84 64
345 836 277 139 91 72
342 832 286 156 106 85
345 833 287 163 109 87
350 835 277 144 92 71
350 835 282 155 99 76
354 832 262 109 69 52
354 833 267 133 83 63
355 833 272 151 95 73
359 832 273 160 102 79
355 833 287 174 111 87
354 832 290 181 116 90
278 900 285 144 110 89
281 902 284 120 90 72
285 899 281 118 78 67
265 899 293 134 98 76
262 899 294 145 106 82
260 909 296 139 108 80
271 903 289 92 71 58
265 914 296 66 58 54
260 918 298 60 52 49
265 918 298 43 41 41
260 924 302 40 38 38
265 923 303 35 33 35
270 918 298 41 40 41
270 923 303 34 32 34
256 926 305 36 34 35
265 929 312 43 41 42
273 906 290 69 59 52
285 910 291 47 40 37
280 916 295 40 39 40
280 918 298 39 38 39
280 921 301 39 37 38
285 916 295 40 38 38
285 918 298 37 35 36
280 924 307 33 31 32
280 925 311 39 37 38
285 926 311 38 37 39
285 927 314 42 40 41
280 959 282 66 59 56
280 960 277 64 57 54
285 958 277 63 54 52
286 956 278 64 54 48
260 934 313 43 41 42
260 943 311 70 65 64
265 944 307 62 56 54
270 943 307 62 55 51
270 942 310 61 55 52
270 939 316 74 67 65
261 950 303 77 74 74
260 958 297 65 58 56
265 958 292 69 62 60
260 958 301 73 66 63
265 954 302 72 64 61
265 960 287 73 66 64
271 956 299 78 71 67
285 943 302 56 50 48
280 930 315 49 46 46
280 941 312 60 50 47
275 939 316 73 66 63
285 930 315 54 51 51
281 941 308 57 49 45
281 950 293 62 57 56
275 949 301 68 61 58
277 951 299 63 56 56
274 957 296 80 71 67
274 953 301 75 69 68
282 951 289 61 56 58
284 947 297 61 54 52
287 946 293 62 57 55
295 899 267 68 56 48
290 913 293 37 35 35
292 897 268 103 82 64
292 897 272 125 92 72
293 900 272 119 89 72
305 899 264 34 32 33
305 907 268 28 29 31
300 908 273 32 31 32
294 899 277 126 88 75
290 905 286 129 84 71
293 896 280 108 68 56
294 905 285 90 64 57
296 908 273 47 41 38
290 908 288 92 64 54
295 908 287 55 42 40
300 908 277 39 35 34
298 906 282 51 41 39
297 907 284 51 40 37
305 908 282 32 31 33
310 903 264 30 29 31
316 903 264 30 29 30
320 904 262 31 30 32
321 904 259 31 29 32
319 906 265 32 31 32
320 907 267 31 30 31
320 908 272 33 32 33
310 909 282 33 32 34
315 909 287 35 34 35
320 908 287 36 34 35
302 911 295 36 33 34
290 920 301 37 35 36
296 916 300 37 35 35
300 915 301 38 36 36
300 923 308 38 35 35
300 925 311 40 36 37
305 922 309 39 36 36
300 929 313 47 42 40
305 929 312 53 46 41
310 911 296 36 34 35
320 909 297 36 35 36
321 911 301 37 36 36
310 914 302 37 35 36
314 912 299 37 35 35
315 913 302 37 35 35
307 916 305 37 35 36
311 916 305 38 35 36
310 922 309 43 39 38
315 929 310 66 56 49
320 924 312 69 59 53
294 943 287 56 49 46
290 960 262 71 64 62
290 959 267 67 60 57
289 958 272 67 58 54
295 955 267 72 64 60
293 957 266 71 63 61
304 948 262 72 65 65
300 949 272 68 59 56
304 948 267 59 51 50
304 947 271 65 55 53
299 953 267 69 60 57
292 950 279 67 57 50
290 949 282 58 51 47
291 946 288 58 51 49
292 946 284 55 49 47
290 954 277 66 57 52
301 945 278 65 55 50
306 945 272 71 59 56
305 944 277 69 59 52
310 943 262 79 72 73
313 942 259 86 79 79
313 942 262 83 76 77
313 942 267 84 80 85
314 942 272 80 71 69
320 936 267 77 72 72
320 939 272 86 77 75
460 913 262 96 81 69
310 944 277 64 56 51
310 942 281 58 49 44
320 940 277 68 60 57
315 939 282 59 53 49
315 938 287 54 49 47
320 938 282 54 48 46
317 936 287 57 49 49
296 941 292 59 53 50
295 940 297 66 57 52
291 941 298 69 61 57
290 934 315 52 48 46
294 930 315 47 44 42
296 934 314 64 57 53
295 939 307 69 58 51
292 936 314 79 71 66
300 937 307 71 59 52
288 947 290 63 58 54
310 939 292 54 48 46
320 935 292 72 64 60
315 938 292 58 52 51
315 938 297 60 53 49
318 937 292 66 58 56
315 937 302 57 48 43
318 937 302 65 54 46
310 933 310 75 64 56
422 932 288 98 80 64
315 934 308 80 67 56
260 971 262 61 57 57
265 971 262 62 57 56
260 968 272 58 54 52
270 967 272 70 65 63
270 969 267 68 63 61
256 967 275 70 64 63
260 961 288 66 61 59
268 967 275 70 64 62
271 966 274 77 71 71
269 963 282 66 60 59
272 961 283 68 63 62
268 962 285 68 62 61
275 969 262 72 67 67
275 968 267 82 78 79
274 967 271 84 79 80
280 965 267 71 68 68
280 964 272 66 62 61
285 963 262 66 59 57
287 961 259 67 60 58
276 961 279 72 67 66
279 962 276 65 59 59
325 899 257 33 31 33
321 907 258 31 29 33
322 907 263 33 31 32
323 906 260 33 30 33
335 909 262 34 33 34
330 908 267 35 34 36
335 909 272 46 43 42
325 908 277 46 42 41
325 908 282 41 38 36
324 907 287 35 35 35
326 906 288 35 34 36
327 906 284 35 34 34
335 908 277 45 41 40
329 907 281 42 38 38
331 906 283 35 33 35
334 907 280 40 38 38
335 904 287 35 34 35
334 927 259 69 63 64
335 928 262 69 63 61
340 910 262 36 34 34
345 911 262 39 37 36
340 908 272 51 46 44
345 910 267 48 44 42
350 911 262 53 48 44
350 908 272 53 48 44
345 903 287 36 35 35
345 905 282 35 33 34
350 904 282 36 34 34
420 907 260 86 70 53
350 902 287 37 35 36
350 906 277 39 36 35
344 912 258 35 33 33
340 928 262 70 63 62
345 927 259 67 58 57
352 912 257 56 50 45
351 912 260 54 48 44
350 928 262 73 65 62
350 928 277 62 49 37
345 929 282 72 57 45
350 927 287 72 55 42
351 926 286 75 58 45
324 907 293 37 36 37
325 908 297 37 35 35
326 906 291 36 34 36
325 910 301 37 35 36
335 904 292 36 34 35
330 905 292 37 35 35
331 906 296 37 35 36
335 905 297 36 34 35
335 911 305 40 37 36
325 912 304 38 36 36
325 914 307 41 38 37
325 916 310 51 44 41
325 924 312 72 62 55
323 927 310 68 58 52
326 925 308 74 63 55
327 926 304 73 62 53
328 912 304 39 36 36
330 914 307 49 43 41
331 916 310 57 47 41
330 919 313 58 49 44
335 913 308 55 49 44
330 924 307 70 59 50
330 923 312 68 58 52
330 929 306 71 58 50
334 924 308 70 59 50
334 929 308 71 59 48
336 928 311 72 60 50
334 922 315 67 59 55
340 903 292 36 35 36
340 905 297 37 36 37
