ply
format ascii 1.0
comment Created by Open3D
element vertex 2217
property double x
property double y
property double z
property uchar red
property uchar green
property uchar blue
end_header
225 507 221 104 12 30
307 23 264 124 35 39
328 878 293 37 34 35
230 492 206 167 5 43
218 728 196 149 99 67
231 657 269 113 28 44
393 828 259 74 57 50
254 373 323 135 103 77
277 433 323 65 28 33
230 478 292 137 9 41
230 493 209 162 4 41
234 488 199 134 3 31
246 386 272 103 85 66
268 397 239 103 88 74
305 15 271 145 44 36
59 586 184 112 94 78
236 488 197 128 3 31
427 682 314 109 87 59
318 673 324 147 13 47
420 808 272 61 49 43
370 327 227 108 87 62
192 668 204 158 112 87
431 737 494 191 131 113
248 397 259 107 93 79
349 57 204 92 47 26
363 878 247 71 62 63
253 533 303 48 26 29
58 588 189 116 92 79
238 488 196 127 6 29
291 243 276 121 92 62
235 678 204 86 65 44
299 948 362 57 50 46
352 33 239 99 36 36
368 478 359 128 4 39
246 398 315 134 104 73
298 548 304 49 24 29
288 13 309 144 47 61
234 493 199 125 14 33
270 712 192 69 45 39
128 632 208 185 131 113
338 303 216 100 84 67
238 493 195 121 16 32
330 35 226 111 81 58
302 556 176 66 39 43
288 833 199 72 62 56
413 898 214 106 86 71
229 483 214 157 2 42
358 426 144 85 68 50
278 293 281 98 76 51
220 463 264 133 0 37
339 40 261 127 17 46
282 513 177 68 32 36
205 767 206 154 104 66
253 938 348 46 44 44
318 752 328 72 56 53
312 947 323 62 55 55
229 488 214 153 1 41
219 473 264 133 5 38
388 558 286 82 12 32
404 468 292 68 20 29
226 483 223 137 3 36
351 94 237 114 52 52
267 128 246 126 91 57
225 488 225 83 22 33
278 513 179 116 16 33
342 118 210 130 96 61
229 493 214 148 2 38
258 843 264 173 124 95
321 843 210 62 55 57
88 613 192 145 98 68
237 819 222 154 109 89
274 201 306 111 91 70
346 477 334 73 22 34
323 684 327 74 25 36
226 493 222 126 10 33
278 148 274 110 87 59
358 593 339 194 9 60
262 755 190 68 53 47
230 498 209 107 19 36
159 633 211 160 122 103
353 498 354 80 26 36
269 14 302 101 58 53
263 603 307 131 14 43
425 478 267 84 17 31
273 188 254 122 94 58
333 13 289 154 48 74
373 418 209 94 64 45
278 972 309 65 60 57
231 498 207 153 14 39
251 263 311 127 97 71
359 683 248 82 28 33
277 35 251 62 41 26
468 909 231 110 91 71
389 438 218 75 35 39
230 503 210 49 30 36
380 411 280 77 63 51
410 705 440 143 113 91
365 545 187 177 7 38
381 738 299 73 53 41
231 503 208 92 24 34
495 933 249 90 78 67
247 492 307 166 13 52
348 523 333 56 22 28
353 773 315 73 60 52
255 638 236 127 9 34
318 378 224 83 72 62
332 243 213 133 103 67
278 873 194 96 79 68
333 893 250 73 63 61
188 624 208 83 68 51
398 427 319 64 22 27
269 888 209 86 75 71
337 567 343 60 27 32
438 698 309 173 117 88
231 508 208 76 34 39
351 693 205 81 61 47
274 278 332 109 86 62
234 498 200 56 27 34
253 263 279 150 101 72
294 453 300 30 25 26
361 163 229 118 96 72
303 498 308 105 13 36
239 503 195 55 36 35
339 68 251 121 20 43
248 863 278 109 81 44
237 508 198 58 37 34
404 808 253 73 56 47
240 513 196 52 32 35
270 786 176 80 61 45
320 380 216 89 78 68
313 569 187 183 10 42
388 458 209 53 37 39
235 508 201 67 36 37
273 73 275 115 91 67
334 892 299 33 32 34
230 405 278 130 5 41
337 568 334 65 25 34
235 513 201 53 31 35
417 699 394 177 119 99
208 798 254 167 130 103
330 228 247 97 79 59
229 503 214 72 26 36
348 33 259 127 35 52
328 153 224 107 84 56
220 548 236 78 34 43
226 498 222 116 13 34
397 872 258 77 65 62
227 503 219 140 8 38
318 868 288 34 32 32
255 343 318 122 95 64
398 413 254 70 61 53
493 932 306 95 82 72
352 442 120 148 11 38
229 508 214 44 33 35
441 660 324 119 95 68
336 173 212 127 98 60
370 536 301 34 27 25
254 328 304 130 99 71
22 593 199 107 81 62
260 879 261 118 94 70
413 895 227 98 80 68
230 513 211 47 32 39
409 724 507 143 113 97
288 778 183 65 50 43
273 401 224 103 88 72
218 753 197 157 107 71
434 700 345 189 123 97
255 349 280 105 87 68
418 883 324 73 61 54
263 109 229 145 64 59
288 388 328 152 104 82
227 513 219 97 20 36
23 613 184 203 130 122
253 278 289 147 100 74
253 967 314 71 67 68
318 874 233 65 59 60
243 483 196 123 15 30
387 408 254 71 63 55
323 658 323 91 28 38
249 273 294 147 102 77
397 846 364 53 43 36
343 133 249 119 94 66
283 548 174 119 24 39
248 483 195 121 18 31
339 469 133 145 29 50
243 493 194 92 27 32
230 408 277 118 15 39
262 338 278 100 85 71
268 579 203 182 5 40
373 473 169 106 13 33
250 395 261 108 93 77
492 845 357 105 84 63
365 387 212 107 87 66
284 857 305 133 103 76
209 738 200 150 100 64
344 16 243 100 82 69
348 428 334 96 9 33
233 399 259 62 52 49
248 493 192 98 20 32
357 193 252 118 95 69
243 498 193 84 30 35
248 498 192 129 16 32
343 24 235 105 90 73
243 508 193 50 35 37
254 900 250 97 71 54
254 338 309 130 99 70
327 118 239 126 91 70
387 833 256 74 58 50
323 10 279 136 47 70
361 719 318 91 21 35
318 796 307 66 55 51
263 43 279 126 101 81
243 513 194 68 29 36
334 668 321 109 14 36
362 218 210 122 97 66
224 880 329 118 94 74
285 58 252 108 66 53
247 508 192 60 35 39
234 598 235 97 25 36
247 263 289 146 103 74
296 800 301 182 135 112
478 848 349 104 86 68
354 133 224 110 91 70
322 78 209 128 17 42
252 259 278 149 101 73
352 153 248 118 94 68
255 262 276 147 100 71
272 401 228 103 88 72
362 673 254 62 31 34
303 648 324 59 28 33
307 23 269 115 27 41
343 78 245 110 29 44
374 353 254 126 100 71
250 261 281 151 102 74
248 718 214 84 26 36
416 416 291 62 23 28
353 252 206 133 99 58
360 711 237 66 42 41
251 264 282 152 103 73
258 966 318 71 68 69
252 268 283 150 102 73
353 433 348 71 21 28
358 163 244 118 95 70
276 83 240 122 29 38
319 884 239 56 51 51
279 183 295 111 90 66
251 270 287 150 104 74
440 688 394 165 115 84
221 453 259 109 15 35
288 566 311 83 25 35
425 420 216 109 15 18
251 274 288 148 102 74
334 480 137 114 28 43
319 948 284 61 56 54
254 283 289 144 99 74
313 603 208 120 22 39
45 621 202 196 137 130
246 260 293 140 101 73
268 368 333 145 106 84
245 375 286 117 94 69
249 653 307 144 9 44
238 483 304 145 14 45
246 263 299 137 101 73
298 653 224 96 23 28
323 735 336 203 8 65
302 843 292 140 111 89
413 443 319 147 15 47
433 453 285 106 27 42
248 268 294 146 103 75
423 763 283 81 63 49
168 628 188 105 86 64
274 177 296 108 88 67
315 505 147 188 10 33
327 78 194 139 7 41
224 443 264 123 1 33
317 373 229 76 67 59
233 523 298 101 26 40
233 528 209 159 10 39
360 203 251 122 98 72
308 373 289 105 79 57
230 556 221 43 36 39
250 272 290 148 102 75
93 623 209 182 131 114
366 430 145 92 44 42
258 803 214 66 53 49
371 438 179 95 20 32
283 328 275 86 74 62
413 513 224 129 11 32
285 838 209 59 53 51
249 273 299 147 103 79
305 428 301 64 50 33
405 742 496 168 119 112
249 273 304 142 102 79
249 258 308 125 96 69
263 748 193 68 47 42
400 905 250 103 77 67
251 258 311 124 95 68
295 490 161 39 30 32
230 689 293 64 32 36
435 448 231 49 28 31
266 226 316 107 88 67
313 448 159 105 9 30
255 263 317 124 95 68
318 648 323 33 29 31
284 934 239 91 86 87
378 805 306 171 127 100
375 474 301 41 18 31
316 401 246 79 67 55
249 268 308 129 97 70
235 527 206 164 11 36
389 412 234 90 58 47
250 273 308 133 100 74
258 188 254 136 103 63
249 519 302 39 25 26
253 268 314 123 95 68
278 883 330 145 111 88
255 268 317 123 96 69
253 943 348 51 48 48
282 873 324 143 111 84
228 798 210 176 116 85
255 273 317 121 94 67
223 818 225 205 132 104
243 508 303 121 19 44
251 275 292 145 103 75
251 278 294 145 102 75
344 638 315 124 21 45
250 276 295 146 102 77
250 277 299 147 103 79
355 650 247 150 26 47
353 378 211 94 81 67
250 277 304 144 103 80
311 16 257 118 39 34
58 624 189 230 159 142
298 909 339 34 33 34
252 283 294 143 101 74
264 14 298 127 99 90
318 333 244 71 62 53
255 287 290 140 96 74
438 659 334 107 87 64
343 308 274 95 74 50
347 694 323 109 10 34
254 288 294 139 97 73
268 563 305 136 10 41
400 490 334 73 28 38
362 425 150 87 67 50
333 198 249 95 77 57
431 706 424 198 134 108
310 445 146 96 12 30
252 283 299 143 101 77
340 238 257 96 77 56
227 933 269 55 52 54
234 433 299 91 21 36
283 423 198 106 24 28
346 50 210 129 112 96
256 954 346 63 58 57
275 132 275 116 90 60
376 563 304 68 30 37
229 683 284 120 20 43
70 599 207 132 99 85
380 840 271 62 54 51
252 283 304 143 103 79
318 585 197 102 22 40
291 28 261 113 11 24
323 772 317 78 63 59
253 389 267 108 93 79
306 906 328 35 33 33
370 213 224 121 97 71
447 831 355 60 47 37
369 338 255 129 102 69
213 683 190 156 101 68
325 112 239 133 95 75
249 383 269 101 85 68
322 103 239 136 97 78
319 318 239 85 71 56
328 543 173 103 31 40
253 288 299 135 96 72
290 860 186 102 84 68
253 288 304 135 98 74
392 733 314 153 110 94
273 458 193 66 35 32
254 278 314 125 97 71
270 117 276 112 90 65
373 363 224 106 88 68
365 550 356 178 12 54
410 510 254 62 29 31
388 715 270 111 75 49
255 278 317 121 95 68
340 178 252 106 85 62
238 548 300 159 14 49
254 313 309 134 101 73
378 838 253 58 47 42
252 283 309 135 100 75
222 698 269 81 31 39
153 647 199 208 143 115
282 228 313 110 89 66
332 143 217 118 94 66
343 743 329 76 26 36
301 289 323 119 92 61
255 283 317 122 96 69
306 472 153 96 21 30
278 748 190 65 50 44
261 842 286 120 94 72
264 41 242 116 99 84
270 469 191 55 35 38
303 603 210 135 24 44
198 743 224 169 118 88
318 13 259 119 49 41
223 678 190 144 97 62
254 288 314 130 99 73
255 288 318 126 98 72
254 423 322 98 23 38
400 565 233 195 14 52
259 339 280 100 85 70
363 288 215 126 97 62
394 593 274 171 15 46
255 292 295 131 95 72
263 888 249 60 53 52
254 298 299 116 91 66
370 436 183 110 13 33
351 34 235 103 29 26
258 508 301 50 25 28
254 303 299 113 90 64
286 63 255 125 28 46
367 425 169 85 54 46
53 608 175 172 116 89
217 583 274 78 24 37
243 663 304 48 25 31
254 348 314 120 94 65
278 253 269 132 94 61
351 422 341 128 13 42
254 298 309 129 98 70
323 433 119 75 55 47
341 409 205 91 77 62
282 888 328 138 105 83
430 655 316 113 90 61
265 889 239 38 36 38
362 348 268 113 88 59
278 203 258 128 96 58
254 298 314 134 100 74
336 513 310 82 19 34
271 476 307 154 23 51
371 338 253 130 103 71
318 588 199 155 20 44
388 470 312 71 28 35
314 63 249 109 42 49
315 63 234 104 26 37
348 924 324 57 51 47
283 638 326 115 29 46
98 618 210 161 122 106
350 445 122 195 15 38
278 32 253 67 34 26
239 408 304 127 21 41
418 823 255 63 51 44
358 263 260 119 92 60
255 298 318 132 100 75
286 58 255 101 68 52
253 618 303 58 29 33
255 308 299 112 90 64
311 426 174 90 26 27
255 308 304 125 98 69
153 613 194 106 91 77
373 718 254 100 38 36
255 313 299 118 94 67
309 398 239 98 79 59
428 449 217 96 31 38
406 723 326 178 124 100
258 718 326 172 9 55
328 548 175 51 36 39
228 688 193 126 87 54
352 93 214 131 36 51
254 313 304 127 98 69
323 478 134 177 9 40
223 448 264 126 2 36
343 418 294 66 53 38
273 483 186 95 24 29
254 318 299 120 95 67
328 378 215 92 82 71
418 493 225 81 23 30
344 53 250 117 16 43
371 294 247 128 99 64
372 278 244 127 96 62
258 903 342 138 112 88
420 454 252 152 16 46
254 318 304 129 99 70
450 773 280 89 74 67
308 393 249 101 80 59
254 308 314 134 100 75
309 448 169 94 18 28
403 890 260 84 70 64
238 498 304 157 17 51
278 10 294 113 72 60
221 538 266 153 1 43
368 588 214 41 33 38
255 308 318 136 102 77
307 393 234 95 78 60
331 278 217 126 100 69
363 813 229 61 48 43
255 318 314 139 104 78
255 343 285 110 90 69
424 679 317 105 84 59
369 488 163 78 28 39
244 378 289 119 96 69
236 401 285 77 60 51
377 543 335 135 15 39
256 858 269 144 110 81
290 514 165 109 15 37
261 784 202 51 43 40
340 896 296 39 36 35
280 16 307 186 137 146
282 83 259 114 47 49
374 703 284 67 37 38
373 543 324 54 29 35
398 738 320 177 126 104
270 62 222 109 29 28
362 683 303 48 27 29
128 607 199 107 93 80
269 453 196 80 33 34
283 322 277 85 73 60
382 894 268 64 52 44
335 834 232 55 48 50
378 433 204 109 16 29
420 696 339 172 113 95
250 355 286 120 95 67
293 399 210 88 75 60
254 353 279 108 89 68
243 918 342 176 135 115
254 348 284 113 91 68
217 498 264 49 30 32
252 348 289 122 97 69
335 510 162 85 15 28
252 353 284 117 94 68
226 729 301 183 9 56
338 418 299 59 47 35
277 23 256 96 36 25
228 528 294 53 28 32
251 352 288 122 97 69
254 328 294 118 94 67
254 323 299 124 96 67
254 323 304 130 99 69
225 695 283 82 40 44
253 333 304 128 99 70
304 318 288 91 74 57
254 323 309 134 101 73
391 596 266 119 22 37
353 903 288 50 43 42
329 273 219 129 102 70
224 443 259 122 5 35
352 727 216 66 39 35
221 463 274 100 17 36
254 328 309 134 102 73
371 684 281 46 31 37
383 835 284 106 61 46
240 390 285 116 94 70
234 700 234 71 38 41
338 113 249 123 97 68
255 328 314 135 102 73
289 782 307 71 60 56
328 183 219 118 94 65
200 694 222 148 110 87
362 572 201 183 12 42
255 327 317 136 103 75
331 263 251 92 76 59
368 757 220 70 54 48
359 610 222 111 37 45
358 493 363 90 23 34
219 468 259 132 4 37
348 213 257 110 89 66
386 576 221 166 15 41
246 403 315 136 104 75
374 463 174 119 2 32
284 44 281 133 99 79
252 343 294 125 98 68
251 372 273 108 88 67
300 386 252 90 74 59
287 498 178 55 35 33
252 343 299 126 99 69
293 463 183 66 35 36
353 773 220 64 50 44
342 463 314 128 3 39
247 724 199 82 47 37
250 349 294 124 98 69
208 638 213 102 78 60
228 538 219 77 24 37
238 403 294 105 66 52
294 952 260 80 76 77
311 39 260 102 8 34
329 228 215 126 100 67
263 908 342 134 107 86
250 353 294 123 97 69
291 446 307 45 23 24
368 839 279 72 47 39
352 68 199 125 40 47
254 821 272 175 124 104
317 358 259 76 63 48
282 282 281 119 85 57
355 136 232 113 92 69
320 335 262 79 73 67
437 438 219 89 30 38
298 17 308 153 103 86
357 425 145 85 69 52
353 98 229 115 24 41
251 348 299 124 98 70
268 208 311 111 91 71
264 889 229 40 38 39
423 493 224 121 16 33
252 348 304 124 98 68
323 774 316 78 63 58
278 976 298 53 49 49
213 663 218 117 88 71
378 452 335 74 15 26
268 338 274 95 83 70
325 82 209 124 9 39
239 403 299 116 86 63
405 794 301 182 127 98
401 474 221 47 40 40
250 353 299 123 97 69
437 683 404 136 107 73
415 683 374 165 118 102
432 468 270 137 19 41
323 78 214 114 72 64
255 338 317 129 99 69
372 533 358 103 31 44
252 348 309 124 98 68
333 574 192 196 11 43
253 353 314 120 94 65
239 858 323 123 62 62
268 98 234 93 49 35
255 364 271 103 86 68
228 790 207 169 112 77
273 208 309 110 91 70
266 476 192 88 32 34
248 598 224 164 2 38
260 160 292 107 89 71
236 423 301 129 9 39
255 359 275 105 87 69
413 924 279 81 69 61
372 911 332 60 53 48
251 361 311 123 97 66
285 198 263 131 100 63
373 463 344 94 11 31
251 358 283 119 95 69
351 63 234 115 27 46
286 354 261 92 79 66
249 358 289 122 97 69
220 455 258 96 30 38
323 513 297 94 13 34
197 718 209 175 114 83
290 518 165 123 9 30
250 359 285 121 96 68
218 738 242 130 97 70
252 368 274 108 89 68
313 808 205 52 47 50
278 338 270 90 78 66
251 366 278 114 92 68
348 273 209 139 104 64
314 15 250 114 49 39
270 878 209 56 51 49
372 488 169 124 7 31
326 647 226 56 34 36
251 361 282 117 94 68
278 355 261 95 82 69
369 472 355 120 6 37
259 303 290 126 96 71
248 363 289 121 96 69
398 808 251 66 52 47
444 688 324 161 109 75
237 758 200 138 92 59
392 415 225 92 39 26
253 373 269 103 86 68
313 541 301 77 20 30
267 878 337 150 117 90
257 298 294 127 96 71
334 178 248 99 79 57
298 587 200 118 27 41
33 617 189 171 108 98
415 433 316 85 27 36
254 378 264 96 83 70
220 942 299 78 70 68
325 178 229 105 84 62
255 383 261 96 83 70
263 278 278 141 99 70
219 918 314 180 139 117
373 548 329 57 28 34
294 473 179 66 33 31
429 655 324 103 84 64
443 909 235 90 79 69
261 76 211 146 18 38
405 534 250 151 19 50
250 379 270 104 85 65
383 423 300 52 27 27
358 153 224 114 94 72
325 248 224 126 99 69
247 373 284 117 94 69
339 183 211 129 99 62
381 513 186 132 3 33
245 374 289 119 95 69
358 383 283 129 96 64
248 378 274 109 89 67
332 133 245 116 89 65
334 406 202 92 78 63
311 21 252 114 20 32
247 378 279 113 91 67
208 783 208 163 108 71
228 418 264 144 6 42
423 778 279 95 71 56
263 966 324 65 62 62
290 247 315 118 95 70
353 128 239 112 91 68
247 383 274 107 87 66
315 88 242 112 2 41
298 629 330 84 31 39
351 703 223 70 46 38
244 383 279 111 90 67
246 382 277 111 90 66
299 394 233 94 79 63
224 548 229 55 34 36
244 378 285 115 93 68
337 742 333 135 26 50
242 383 289 118 95 70
303 478 154 45 36 36
258 52 218 100 72 48
263 29 250 105 90 74
242 729 321 181 14 58
291 733 191 67 52 45
228 883 333 164 125 105
303 423 184 72 34 35
246 377 283 115 93 68
378 518 329 147 14 43
388 503 329 148 14 41
285 434 316 104 26 41
343 443 118 174 9 38
249 373 275 110 89 67
180 656 207 181 127 105
247 368 299 123 98 70
412 508 259 65 30 37
353 143 244 115 93 68
231 876 326 124 90 69
416 673 369 147 108 90
98 618 191 142 99 64
249 358 294 122 97 69
268 658 229 69 27 31
383 748 233 68 51 43
240 404 303 122 93 68
226 590 281 50 23 34
292 396 230 97 83 68
250 354 303 123 97 68
318 333 254 67 58 48
294 513 160 82 25 34
250 358 304 123 97 67
252 358 314 121 95 66
258 153 247 140 106 67
368 723 224 61 39 37
389 753 313 165 118 97
253 358 319 127 99 70
302 932 361 57 53 51
349 68 194 119 42 40
256 333 288 104 85 65
351 23 263 119 24 45
387 743 310 149 105 89
250 363 309 124 98 67
527 923 249 104 89 76
333 43 197 118 40 20
249 368 309 127 99 69
423 743 502 189 128 115
252 368 319 132 101 74
247 373 304 126 99 69
219 463 259 129 6 36
363 468 154 76 27 35
387 463 205 62 34 36
245 374 299 124 98 69
358 293 214 117 93 64
336 215 251 97 78 57
421 733 275 102 73 50
285 445 311 64 24 30
243 383 294 119 95 69
418 416 228 61 35 33
247 393 314 132 101 73
411 486 292 140 19 47
413 698 414 159 113 93
243 383 299 123 97 69
223 673 189 145 100 63
276 106 251 133 95 74
258 93 218 142 15 36
245 379 303 127 100 71
230 663 204 85 64 43
248 373 309 129 100 70
248 969 299 66 61 61
318 613 340 89 32 42
264 363 332 143 107 81
333 158 214 126 98 63
246 382 306 127 100 71
367 298 220 115 92 65
98 608 194 136 102 67
257 338 284 102 85 67
412 848 245 67 55 53
248 383 314 133 101 74
328 761 322 83 67 61
308 833 184 94 74 62
313 813 299 169 125 102
250 378 318 133 100 73
251 378 320 134 102 74
199 713 204 171 112 80
370 825 242 63 49 44
254 363 323 133 101 73
381 404 273 114 90 63
263 402 224 102 87 70
254 368 323 135 103 76
399 563 249 147 17 44
232 523 209 164 13 38
253 378 324 135 102 76
304 397 219 85 72 59
248 908 248 84 56 47
421 507 226 52 34 36
317 353 249 74 64 54
224 408 259 51 32 36
338 451 121 136 19 39
311 410 288 69 55 40
266 267 326 117 93 67
333 68 187 103 43 25
222 448 259 113 15 35
288 783 305 72 60 56
235 632 256 41 27 34
363 788 309 175 126 99
263 63 214 106 35 27
268 10 274 92 66 58
333 408 199 90 77 63
223 448 274 119 13 38
229 400 259 42 33 36
225 928 276 56 53 54
248 393 264 118 101 84
384 553 286 126 8 40
233 399 264 57 47 43
375 253 239 122 94 61
298 958 359 87 79 74
238 398 264 77 67 58
288 533 169 130 17 31
312 893 236 65 60 60
262 893 234 41 40 41
238 398 269 73 60 54
363 553 190 174 8 40
263 188 254 133 101 63
240 395 274 98 75 58
372 368 269 116 92 63
240 394 279 102 84 64
323 103 244 126 90 72
408 453 226 64 30 36
362 658 298 59 26 30
343 118 248 120 95 66
281 93 251 99 75 48
343 703 333 112 12 35
473 849 354 92 77 63
262 232 316 110 89 67
235 914 260 61 56 57
238 399 279 93 68 56
240 393 284 113 92 69
320 338 226 85 72 59
248 528 194 149 3 34
384 474 286 134 1 46
410 849 246 56 46 36
238 398 284 98 77 60
427 448 238 81 25 35
313 463 134 136 1 34
222 953 314 57 54 56
418 913 289 75 62 55
214 753 254 124 95 63
416 436 302 71 25 34
227 401 260 43 29 31
373 278 224 135 98 61
298 403 314 137 95 76
262 388 254 100 87 74
262 40 240 116 99 82
297 378 254 91 76 61
219 798 263 164 131 107
313 498 143 188 9 35
333 168 214 124 97 62
366 364 216 105 88 70
227 408 264 36 29 33
306 368 319 130 94 70
229 403 269 95 25 37
228 408 269 75 26 35
268 348 269 94 82 71
230 400 267 60 33 35
305 392 228 90 76 62
332 887 245 68 59 58
263 932 235 82 75 74
343 173 210 127 99 63
225 412 258 141 25 50
296 745 326 78 63 58
306 290 304 117 95 70
226 409 261 32 30 34
364 538 360 70 26 34
339 845 271 29 27 27
333 98 249 125 100 72
228 413 264 54 24 33
263 974 299 59 54 54
221 722 280 75 23 36
398 568 284 61 25 31
229 413 269 104 20 39
209 679 222 127 97 77
230 404 273 143 9 42
311 822 180 102 77 58
237 568 218 36 33 39
280 299 342 111 88 61
233 403 279 109 31 41
296 660 227 118 23 34
343 383 210 86 76 66
230 408 274 132 12 39
377 773 306 130 90 63
259 32 283 118 33 47
363 188 244 120 97 71
231 408 280 71 22 32
262 123 240 132 94 58
300 297 336 111 87 59
232 408 284 52 30 35
274 454 315 130 24 48
230 413 274 84 22 33
350 254 262 106 85 60
259 273 322 119 93 68
235 400 278 71 62 54
363 178 229 118 96 72
430 422 257 109 7 31
421 705 249 82 65 54
356 219 257 120 96 69
358 729 218 69 40 35
344 108 245 119 96 70
329 519 162 80 38 44
358 938 398 90 71 51
55 626 196 202 140 120
321 332 261 75 69 63
248 697 215 81 50 44
257 353 324 125 98 69
235 404 288 113 23 37
273 203 256 131 98 61
262 638 316 125 15 41
373 323 244 127 98 65
348 204 257 113 92 68
234 408 289 129 15 42
358 303 214 111 89 63
294 233 284 115 91 62
242 393 269 100 85 69
245 389 270 98 84 69
348 288 212 122 96 65
411 513 260 138 24 44
367 223 248 122 97 69
248 388 268 107 91 75
243 394 265 123 103 84
388 502 292 146 10 47
405 555 232 176 21 57
360 158 229 118 96 73
278 49 281 120 87 66
257 893 254 87 72 59
276 118 256 123 92 63
243 398 259 108 93 80
430 689 301 138 99 58
360 233 207 126 97 59
269 108 244 132 90 63
242 396 263 117 99 82
271 81 230 133 21 39
350 62 202 101 42 37
396 572 234 195 14 52
333 263 214 135 104 68
327 123 234 117 86 63
252 396 258 105 91 76
383 923 289 58 51 46
320 388 215 88 75 62
259 257 271 143 99 67
242 388 279 109 89 68
330 133 242 116 89 65
417 699 399 173 118 101
373 448 334 80 20 32
258 783 203 51 43 43
353 338 275 120 90 62
242 392 274 94 80 63
288 402 209 93 79 64
381 393 234 97 82 65
371 530 316 150 14 47
308 398 249 92 75 57
205 755 242 146 108 80
294 518 160 131 13 37
245 385 275 109 89 67
323 425 139 83 69 54
333 435 116 84 67 45
338 638 230 139 14 36
304 453 174 96 18 31
338 103 249 126 100 71
241 388 289 119 95 68
241 391 282 115 93 70
381 384 244 114 92 67
274 227 316 112 92 70
366 343 221 112 92 68
269 762 307 73 61 55
303 503 309 115 3 36
383 473 312 34 27 32
240 398 294 122 97 70
428 702 374 174 118 95
235 409 293 122 11 38
337 49 194 113 39 18
359 158 239 115 93 68
263 403 214 104 71 54
327 168 234 100 80 58
235 413 294 125 10 39
270 152 252 123 92 55
236 412 296 126 9 38
228 533 294 55 30 33
235 415 297 128 9 40
284 173 274 112 89 63
268 58 224 90 39 22
241 391 291 121 96 69
286 68 255 104 72 58
226 433 264 123 1 34
242 388 299 123 97 69
108 629 204 199 135 116
413 710 269 89 70 51
238 673 249 47 33 35
244 388 304 128 100 71
283 572 191 194 8 44
304 854 180 103 85 76
315 853 180 83 72 64
233 528 298 71 29 36
368 353 264 116 92 64
277 407 203 107 57 44
282 617 316 45 22 28
263 588 308 49 30 33
308 904 334 35 33 34
323 98 220 88 61 40
240 399 298 126 97 69
242 398 304 132 101 74
422 473 243 161 12 47
306 866 200 71 68 69
245 384 307 128 100 71
293 723 190 68 52 45
241 702 320 37 29 30
326 224 241 102 82 59
396 827 272 91 63 52
244 398 309 134 102 74
318 948 279 67 61 62
358 912 333 38 34 31
256 274 282 146 99 69
249 393 318 135 104 75
245 398 313 132 101 72
363 783 311 176 125 99
291 285 337 109 88 65
283 33 254 87 44 35
403 424 309 55 24 28
308 544 302 46 25 29
413 923 274 80 70 63
224 498 284 137 15 43
288 828 199 76 64 57
372 508 175 155 6 35
346 685 217 73 54 49
338 553 180 149 25 44
222 503 279 114 14 39
249 398 318 138 105 77
368 653 269 131 23 45
249 388 318 133 102 73
285 970 311 79 74 72
333 338 275 75 57 35
333 14 249 93 77 64
268 748 193 61 44 39
450 904 236 97 79 65
278 972 270 78 73 75
241 401 301 132 103 75
333 11 279 143 72 93
243 403 309 131 102 74
242 408 309 114 55 50
252 663 311 35 29 32
473 921 215 94 78 62
352 108 224 106 84 59
398 478 288 96 0 27
286 225 307 116 93 67
293 633 225 120 20 35
245 403 313 132 102 74
393 833 270 90 68 58
418 513 284 121 17 43
248 408 318 134 103 77
332 932 375 60 50 45
327 109 219 129 84 62
253 628 235 130 8 38
241 413 310 96 23 39
324 223 239 101 80 57
378 473 299 79 12 30
243 413 314 83 24 35
217 653 185 135 94 59
373 298 234 120 94 62
316 94 239 94 61 47
291 531 167 134 9 30
246 412 316 111 27 39
358 421 174 90 73 57
312 53 249 109 16 35
276 180 297 112 92 70
248 413 319 132 34 48
228 418 259 155 2 43
229 418 269 126 6 37
303 463 298 38 25 26
376 607 303 187 8 58
334 34 226 116 70 50
229 423 269 122 4 35
345 64 245 109 55 51
328 473 300 76 13 25
228 428 259 132 0 37
228 428 264 127 1 36
428 666 348 109 88 65
373 823 300 150 107 84
333 658 321 104 22 39
363 419 199 92 73 59
228 428 274 130 6 37
331 123 217 116 90 58
149 646 198 211 145 114
226 433 274 127 6 38
237 623 248 123 22 42
258 838 264 178 127 98
311 447 150 109 10 31
224 778 278 177 137 115
216 752 246 130 100 69
364 283 255 126 97 62
193 633 189 99 83 65
338 93 250 112 35 48
314 10 287 101 23 37
335 233 252 96 78 57
295 910 362 46 42 41
318 420 164 80 65 51
417 893 206 94 77 67
230 429 288 59 31 34
264 938 352 50 46 45
428 443 215 104 30 39
231 426 286 38 31 33
253 719 194 84 46 37
231 428 289 46 30 33
332 577 334 101 5 32
217 498 259 51 31 32
290 490 176 49 34 40
244 613 235 47 30 37
230 433 289 78 26 34
344 885 344 37 33 33
326 104 246 120 91 72
353 918 328 45 40 38
379 803 239 61 47 41
86 625 197 214 140 115
233 418 289 48 30 33
225 435 259 129 1 36
225 647 194 98 73 49
376 398 221 108 89 68
336 556 322 55 22 29
240 438 307 41 30 31
357 937 381 93 73 57
350 166 251 119 95 68
326 51 208 115 94 69
234 943 334 53 47 47
225 435 269 122 4 33
220 728 279 112 17 40
225 438 269 126 3 35
282 448 313 52 27 30
350 64 236 103 18 36
327 373 215 91 81 71
217 768 274 187 136 111
435 416 267 74 43 46
349 128 245 116 93 68
338 602 343 186 5 59
226 437 275 126 3 35
352 709 328 39 26 29
226 442 280 61 24 32
333 298 217 105 88 70
310 545 172 195 14 48
330 214 247 96 78 59
421 748 271 108 80 56
225 445 282 56 27 32
248 583 215 138 15 38
372 438 159 40 36 35
225 448 283 83 26 36
247 938 345 43 41 42
364 188 239 117 95 69
229 443 289 71 27 35
188 658 208 180 126 104
228 448 289 87 22 34
334 458 303 43 21 27
257 397 253 104 90 75
313 728 338 103 23 43
341 438 314 141 7 44
232 433 294 87 28 39
360 167 222 116 96 73
233 423 294 93 24 36
403 693 314 132 93 79
275 106 271 121 91 64
273 153 254 120 91 55
278 78 244 107 54 43
234 428 299 113 18 39
416 879 196 74 65 57
326 109 245 125 93 73
237 428 304 54 26 31
350 103 208 127 26 41
237 433 304 75 26 35
284 208 300 115 92 66
308 768 318 71 59 55
371 303 226 121 94 62
178 619 194 108 91 73
240 418 308 124 18 42
435 709 314 176 112 84
358 233 258 120 96 68
258 972 284 79 75 77
298 910 334 34 32 33
240 428 307 55 28 31
318 413 184 81 58 49
319 68 214 95 63 47
368 868 359 55 45 37
369 559 351 179 3 56
231 438 294 61 26 33
372 479 357 97 11 29
343 353 280 112 82 58
256 857 273 124 97 71
163 628 210 142 110 92
230 443 292 46 29 32
254 679 317 76 21 33
263 193 304 107 90 71
271 158 251 128 95 57
236 435 301 104 26 41
236 448 301 31 28 30
342 123 210 130 95 58
238 448 304 75 27 36
303 599 208 155 19 45
241 418 311 124 16 42
364 193 244 120 96 70
248 418 318 129 19 44
328 15 245 91 77 62
436 461 277 107 42 50
247 653 305 142 7 44
274 872 331 146 114 86
206 768 250 146 115 82
376 483 185 110 6 28
246 419 316 83 26 35
253 719 199 90 43 34
238 458 304 83 27 36
280 26 257 97 24 32
428 453 288 108 16 38
339 874 237 67 57 56
384 458 204 83 28 30
246 423 316 87 29 39
206 810 246 184 133 106
283 38 253 108 24 27
287 437 192 63 32 35
440 443 279 161 12 46
368 508 309 48 23 30
221 468 274 127 8 39
355 488 354 83 22 32
249 428 318 64 28 32
252 433 320 88 24 37
248 834 244 48 43 51
378 808 306 171 128 101
238 513 302 112 25 44
217 518 254 146 0 39
244 438 313 88 27 37
339 672 233 51 36 38
356 486 356 116 17 32
240 443 307 63 30 34
288 397 238 98 84 69
368 709 255 91 33 32
240 448 307 81 26 36
398 803 250 60 48 45
393 878 379 100 79 59
268 488 185 85 27 31
244 443 313 66 29 33
257 696 215 83 48 43
306 813 201 49 46 49
324 293 249 88 71 52
338 123 249 119 94 67
318 483 135 142 16 41
252 438 320 141 17 45
330 325 272 63 50 34
345 443 349 116 18 39
249 443 317 139 12 41
253 448 319 103 24 41
348 393 210 86 75 65
186 620 200 93 81 68
309 483 298 82 16 32
329 243 215 131 103 69
251 388 321 136 103 76
292 369 256 93 78 64
306 906 241 66 62 65
368 428 154 69 44 41
318 358 264 73 62 53
333 621 221 53 36 41
384 484 317 132 15 47
259 248 318 115 92 67
422 902 313 75 67 64
251 393 321 138 104 78
328 609 340 151 23 52
373 788 228 59 47 41
123 618 190 129 96 62
278 213 260 128 95 60
388 434 323 67 21 27
270 455 316 101 23 40
227 468 289 144 10 44
253 388 323 140 105 79
320 295 237 101 83 64
254 393 323 143 107 81
371 597 221 124 40 50
353 78 214 113 50 52
251 398 321 141 106 80
333 28 274 130 52 57
309 28 269 113 51 53
401 908 258 86 69 62
278 377 248 96 84 71
355 662 248 89 23 29
226 658 191 124 88 57
253 398 323 144 108 82
289 614 329 73 23 35
257 898 249 68 58 53
334 503 304 59 23 30
368 868 282 45 40 38
357 178 248 119 96 71
223 778 202 170 112 78
358 917 284 64 57 55
49 620 178 205 134 117
252 413 321 122 64 57
254 413 322 119 82 66
417 443 292 93 20 35
254 418 323 69 22 30
368 268 249 128 98 62
317 808 209 55 48 50
256 352 321 122 95 66
255 428 322 85 20 34
351 690 206 86 66 52
283 371 253 96 82 68
319 28 240 69 40 30
278 24 300 143 104 83
262 11 289 94 48 49
317 755 326 78 63 57
298 838 293 151 118 94
220 464 268 135 1 37
363 852 275 34 30 29
361 258 257 124 96 62
285 877 321 140 107 82
255 442 322 91 27 41
338 17 239 97 81 67
277 159 287 110 88 63
363 533 363 151 20 51
305 398 304 121 85 65
465 921 241 95 79 66
221 453 264 129 1 36
315 68 231 120 93 74
220 455 256 46 28 33
258 378 328 139 103 78
262 88 219 143 14 37
370 283 246 126 97 61
222 453 269 124 9 37
348 198 209 119 96 67
353 443 124 184 15 46
283 793 300 102 84 77
199 753 229 164 119 87
269 128 248 125 91 56
220 458 259 109 14 33
400 548 222 46 32 37
221 457 264 131 2 35
253 969 284 77 71 74
352 318 273 126 90 64
220 459 264 131 2 36
219 468 264 134 0 37
276 291 336 121 91 66
296 411 192 108 53 42
221 458 269 127 6 38
333 813 298 65 53 48
224 453 279 51 28 33
298 708 333 37 29 30
419 889 207 95 77 61
359 758 222 67 53 47
218 473 259 130 7 36
381 733 289 70 58 50
331 368 276 76 55 34
403 413 249 75 54 49
220 468 268 137 2 38
227 568 229 78 27 35
328 407 286 63 48 32
292 923 360 47 44 44
221 472 271 132 15 43
379 383 229 107 87 66
203 673 188 176 113 80
218 478 259 83 24 33
238 563 215 63 31 36
257 624 232 144 2 35
218 478 264 87 26 37
291 895 322 93 75 55
103 611 192 137 99 64
423 698 349 179 120 97
325 25 236 81 63 41
219 478 269 70 29 35
296 392 322 147 103 85
273 243 265 131 95 62
338 925 298 75 68 68
328 358 275 66 50 32
222 468 279 121 11 39
260 271 276 143 100 69
263 78 214 145 15 38
308 533 298 75 18 30
325 273 239 104 84 61
341 562 342 38 28 27
224 473 284 138 7 40
361 709 240 59 41 39
396 459 220 54 38 37
220 474 272 40 26 30
352 438 120 168 15 38
350 520 351 46 30 31
243 852 294 106 85 60
393 773 312 184 131 102
217 488 259 42 30 32
277 243 266 130 93 61
219 488 269 127 16 41
343 228 206 130 100 62
427 741 471 188 122 109
219 493 269 69 29 35
316 363 239 73 64 55
254 489 306 137 16 45
329 258 248 95 78 60
178 653 184 183 124 92
221 481 276 57 22 29
368 658 289 34 28 30
338 523 329 97 21 37
377 608 299 179 14 57
305 366 278 89 71 52
221 483 279 122 16 41
356 148 243 117 94 68
256 840 249 195 138 105
318 682 224 88 30 37
353 889 248 59 50 53
220 488 277 56 27 31
273 488 185 113 14 26
348 318 215 102 83 63
355 493 358 40 29 30
313 683 326 62 27 32
305 494 300 43 26 29
320 45 226 60 38 22
291 47 273 126 88 76
228 663 209 81 60 42
257 333 319 130 100 70
224 488 284 148 10 43
257 839 254 195 140 108
220 493 277 42 28 32
362 283 258 124 94 62
230 806 267 63 55 51
305 18 271 140 47 43
313 478 134 157 2 35
365 730 311 158 12 50
392 888 377 91 76 64
348 798 305 60 51 47
309 955 304 65 57 54
343 198 209 116 94 68
217 503 259 105 24 38
218 498 269 79 26 37
278 685 209 74 37 43
206 732 236 148 110 85
361 437 131 151 13 43
370 318 227 112 89 63
217 508 259 98 19 36
411 459 320 111 31 46
328 168 239 100 80 58
226 733 248 135 99 71
369 814 233 75 56 47
293 508 293 50 25 30
321 363 223 79 70 61
303 308 289 95 78 58
314 453 134 101 23 35
276 102 245 132 31 45
340 915 361 83 73 66
354 68 214 116 46 51
218 508 264 143 9 43
259 313 323 138 103 79
343 193 210 120 95 66
217 513 259 137 4 39
323 12 264 125 59 60
268 64 276 115 87 67
218 508 269 117 11 39
430 796 277 87 73 63
293 512 295 67 21 31
272 88 235 116 28 35
219 498 274 113 17 41
343 348 215 96 82 68
271 725 186 61 46 40
353 93 229 107 65 54
218 768 200 164 110 75
333 477 135 153 17 43
335 293 216 106 87 66
353 43 239 111 53 47
424 709 331 191 123 95
220 498 277 114 12 38
221 504 276 150 7 45
274 567 190 56 27 34
226 478 286 137 8 42
336 138 212 131 101 63
188 667 189 213 136 104
224 503 284 39 26 29
349 458 344 58 25 31
220 513 274 147 8 43
347 128 214 116 93 66
373 288 234 126 96 63
328 478 299 63 17 25
419 718 264 84 58 47
271 282 331 121 93 66
221 508 276 147 9 43
341 235 256 97 78 56
244 966 314 63 57 54
320 590 352 157 15 49
351 59 205 103 39 38
221 513 276 129 16 42
224 508 284 50 29 33
320 303 226 111 91 71
207 753 203 147 102 64
398 438 328 95 8 30
225 453 283 84 29 37
377 513 358 126 16 44
243 798 279 74 61 56
339 52 193 99 48 17
295 392 242 93 79 64
266 371 257 98 85 73
324 273 234 112 90 65
308 773 200 50 41 44
265 57 277 121 96 74
321 511 296 68 12 25
226 453 285 58 24 32
362 904 272 68 56 51
332 415 180 88 73 60
249 603 302 71 31 39
207 748 241 152 111 84
263 133 244 130 93 55
424 870 202 83 73 64
228 453 289 110 18 37
378 783 309 167 124 94
277 148 259 116 91 62
353 373 211 95 81 67
328 203 244 98 80 60
377 518 358 122 22 44
357 153 243 117 94 68
225 458 284 109 19 39
223 783 204 168 109 75
525 926 243 108 87 68
153 642 208 187 132 112
365 203 245 120 96 70
296 876 189 92 81 78
292 428 313 119 87 68
350 90 202 142 23 47
367 433 348 74 24 30
224 463 284 122 11 39
268 197 306 109 90 71
324 233 224 118 94 66
212 803 255 177 136 111
225 464 287 141 9 41
227 473 289 143 10 43
293 693 327 54 27 30
262 152 246 136 102 65
339 458 309 57 21 29
269 469 311 61 27 33
230 453 292 111 23 41
271 765 306 75 61 55
295 428 310 112 82 62
268 903 209 90 79 77
309 953 314 60 55 54
305 768 197 56 46 44
230 458 292 125 19 42
428 664 343 100 82 64
333 828 289 50 42 40
304 393 309 129 91 70
343 258 260 96 76 52
234 458 298 130 20 44
277 53 239 87 32 27
306 522 296 93 5 30
234 463 299 69 22 31
299 508 155 116 20 35
286 833 204 61 54 50
236 458 301 118 22 45
315 899 247 61 57 58
252 638 238 128 5 33
317 378 229 79 69 58
287 967 266 85 81 83
326 248 222 129 101 70
353 153 214 114 92 67
232 468 295 47 24 30
314 418 284 53 43 35
259 777 297 77 62 56
230 473 292 147 12 45
232 473 295 117 17 41
383 457 340 97 8 31
424 503 234 57 30 34
318 728 190 72 55 44
378 718 274 95 57 47
318 945 344 67 61 60
390 917 275 103 88 82
300 470 166 70 30 32
426 672 378 116 96 76
234 468 298 92 23 39
234 473 298 82 18 34
327 10 293 147 32 62
360 158 234 113 92 69
271 393 242 100 87 73
236 468 301 140 15 44
338 598 345 187 4 59
217 644 186 125 93 57
236 473 301 142 13 43
212 814 245 187 135 109
376 723 294 71 36 33
312 428 159 89 25 29
286 401 212 96 82 67
323 673 324 138 11 43
234 478 299 129 8 38
271 154 251 124 92 51
236 478 301 133 9 39
261 293 326 127 96 71
348 18 244 106 74 63
254 931 236 84 73 72
336 272 256 88 72 54
298 398 239 93 78 62
238 478 304 139 12 42
378 623 264 38 33 38
319 323 239 79 67 53
264 464 196 81 30 33
370 693 273 48 34 35
276 193 256 123 93 56
357 857 235 64 51 47
163 623 189 98 84 69
240 453 307 69 33 38
433 418 291 124 21 42
268 937 240 94 86 87
318 433 299 95 15 31
408 433 223 53 33 35
220 735 261 139 109 80
306 383 254 122 95 67
375 441 326 72 24 25
404 533 222 139 14 36
307 398 294 108 80 59
325 939 299 74 64 59
275 80 237 136 27 42
245 453 313 87 20 33
233 743 303 78 32 39
371 760 307 148 104 76
427 738 294 134 90 63
364 838 244 62 49 48
247 453 315 142 18 45
217 573 259 121 12 36
294 352 268 88 75 61
278 398 224 101 87 72
408 473 292 92 17 37
343 133 211 128 97 60
293 953 360 61 56 54
368 419 204 90 69 50
352 942 381 93 77 61
316 383 244 71 62 52
240 458 307 91 35 43
281 224 312 112 90 66
443 693 354 190 126 97
323 51 262 121 79 63
223 528 229 82 31 39
243 458 309 89 22 35
269 369 256 95 84 73
253 849 323 147 120 93
243 463 309 140 16 44
248 458 314 138 20 46
273 318 279 88 76 63
346 103 243 121 97 71
343 208 256 103 83 61
245 462 312 157 16 49
383 419 298 45 29 28
341 698 208 70 47 33
336 43 195 119 39 18
317 348 234 76 67 59
291 47 261 116 49 46
371 637 264 101 21 38
364 594 335 137 24 50
343 768 218 73 56 49
248 463 314 69 23 34
221 944 299 81 72 68
253 453 318 111 27 45
359 488 363 110 16 35
353 138 244 115 92 67
473 921 219 97 80 64
363 638 249 109 29 44
370 682 284 46 30 34
333 368 215 89 79 68
227 563 229 70 27 34
250 456 317 123 23 45
253 463 316 48 28 32
348 153 250 119 95 67
254 461 317 73 36 40
278 868 199 61 54 52
223 713 238 97 62 53
223 663 189 136 94 61
241 468 306 137 11 42
339 73 250 120 15 44
293 668 227 81 25 32
310 428 174 90 25 27
285 623 332 126 37 52
243 468 308 141 12 42
50 610 202 103 83 63
241 473 306 136 9 39
288 463 185 54 35 37
389 598 264 77 32 40
358 153 229 116 95 72
253 643 309 152 10 48
265 31 287 147 18 57
49 589 187 132 93 83
351 456 136 186 11 44
203 703 228 141 105 83
319 93 225 119 58 52
356 546 181 145 18 44
246 468 311 121 23 45
270 536 181 46 25 25
330 248 248 98 80 60
268 223 316 110 91 70
246 473 311 139 18 45
381 737 295 61 51 43
284 923 224 94 82 84
249 468 313 52 27 32
325 243 239 104 83 59
283 183 289 107 85 59
194 688 209 160 110 83
240 479 307 146 16 46
249 765 201 102 72 41
312 596 316 118 2 37
363 393 210 108 87 64
259 627 231 140 3 34
294 509 308 100 21 38
285 470 301 40 22 24
248 478 311 152 17 52
298 693 185 75 53 41
380 416 217 87 76 59
253 468 315 52 29 32
253 473 313 39 25 29
299 503 308 109 13 37
293 528 299 55 15 25
227 483 289 143 10 43
276 128 259 115 88 59
296 877 199 89 82 84
225 486 287 147 10 45
308 905 359 40 37 36
56 620 206 181 138 130
338 493 154 89 32 41
278 48 244 94 33 26
312 444 164 100 13 30
278 518 178 112 14 27
372 303 229 118 93 62
226 493 286 146 13 46
342 871 236 67 56 56
323 948 364 73 62 55
221 543 284 70 28 36
227 493 289 117 16 40
226 498 286 98 19 35
256 49 271 127 13 44
236 671 252 43 35 40
278 68 275 117 52 54
291 913 349 37 34 36
233 733 309 60 24 35
226 503 286 38 29 33
312 644 227 103 21 33
256 852 284 81 68 54
273 11 268 96 80 66
226 513 289 73 28 36
366 263 252 125 97 64
200 679 217 147 109 86
231 483 295 149 12 46
356 447 135 199 16 46
320 343 226 83 72 60
231 488 295 138 12 43
213 748 243 143 108 80
229 493 293 78 22 33
422 716 434 214 140 118
298 778 189 72 59 48
418 478 289 95 25 38
231 493 296 52 21 27
358 492 161 101 27 40
350 117 241 116 94 70
233 493 299 50 25 29
268 108 276 112 90 67
240 616 241 33 27 34
353 58 219 111 24 39
234 483 299 148 13 45
200 748 233 167 119 90
315 465 307 93 22 33
402 518 219 138 9 34
304 483 150 62 36 31
235 483 302 146 13 44
186 620 202 90 78 66
330 40 221 112 87 67
390 483 351 83 27 37
372 308 229 118 92 63
230 659 269 86 28 37
320 58 214 71 33 26
297 253 294 118 93 65
429 920 271 90 73 63
337 642 231 61 32 34
208 723 199 159 103 70
360 233 256 122 97 70
278 934 234 100 94 95
235 493 302 72 18 29
324 228 229 112 90 64
229 498 294 36 27 29
263 688 323 137 9 43
315 900 328 32 31 32
261 897 229 50 46 47
233 498 299 75 27 35
437 723 470 172 120 94
414 693 424 148 116 94
338 323 215 102 85 66
278 598 314 124 2 38
233 503 299 71 27 36
292 605 317 105 0 32
229 508 294 43 28 31
230 508 297 53 28 30
274 152 285 110 89 64
424 758 280 106 87 75
352 493 346 54 20 26
339 188 253 103 83 60
235 503 302 103 23 40
329 108 209 129 23 44
235 592 231 92 24 38
350 529 339 51 26 30
238 503 304 147 17 49
282 168 264 110 88 62
238 508 303 162 15 50
236 510 301 152 21 49
328 698 335 111 8 35
273 53 279 118 28 47
418 758 269 108 81 61
200 743 233 166 117 88
412 893 319 92 75 67
237 514 301 103 25 42
336 40 194 119 40 19
333 595 207 189 10 37
258 503 188 120 17 30
339 304 272 83 65 44
331 138 217 117 93 64
389 849 359 49 41 35
322 313 254 71 58 43
260 308 290 119 95 69
240 482 307 147 14 46
327 597 206 174 11 44
67 621 191 212 137 115
371 244 216 124 97 65
243 483 309 162 14 52
158 616 206 104 86 68
222 723 289 162 3 48
351 83 233 103 31 40
243 493 307 164 13 52
353 183 253 120 97 71
349 133 245 115 92 66
267 377 253 98 87 75
248 488 308 168 13 52
301 26 284 149 22 53
375 524 182 54 32 35
343 888 290 39 36 36
248 759 300 87 71 65
315 590 340 85 0 29
348 303 214 104 86 67
410 449 308 165 13 50
240 490 307 165 15 54
260 908 221 90 80 79
244 495 306 164 13 53
248 967 309 62 55 54
308 858 289 84 66 53
363 258 209 137 99 59
363 253 209 135 100 57
261 332 282 100 85 69
235 688 245 150 4 47
348 293 270 102 81 58
280 47 247 108 35 26
295 955 269 78 73 74
308 949 324 60 53 52
352 103 219 118 37 45
508 943 307 91 81 73
252 487 307 170 13 53
438 663 313 109 88 66
270 15 261 95 82 69
334 143 214 125 97 63
369 293 249 130 99 65
248 503 303 154 14 49
389 553 214 78 31 39
243 513 302 49 25 29
311 862 183 96 85 79
318 427 134 79 55 45
243 503 304 162 14 50
352 58 229 120 60 59
247 508 302 46 25 29
340 515 167 167 1 37
336 50 191 121 31 14
248 513 301 42 27 29
438 443 224 88 25 37
255 737 201 82 37 33
230 694 298 68 31 36
367 198 229 120 97 71
385 534 197 40 37 42
383 783 234 66 52 45
424 738 284 107 77 55
246 512 302 30 28 30
248 498 304 157 14 49
288 33 258 96 42 34
253 498 303 96 25 39
328 11 274 141 72 91
364 438 138 42 35 36
288 613 318 66 21 30
473 928 259 97 81 69
296 322 342 140 93 72
248 874 333 126 104 82
252 502 302 131 11 41
323 13 295 140 28 55
250 505 301 128 15 44
272 693 179 83 60 44
327 543 305 65 24 32
374 448 164 39 36 36
249 508 301 44 24 28
385 559 212 67 27 33
318 20 285 166 114 98
183 658 185 199 131 100
93 612 191 152 104 74
377 493 184 105 11 32
253 508 300 112 16 39
304 872 294 54 46 40
334 243 210 134 103 66
260 211 256 134 102 65
330 294 262 81 70 58
300 736 332 170 16 54
352 83 204 139 28 50
252 512 301 75 18 29
243 498 306 162 13 50
419 734 321 185 121 96
285 241 316 114 92 67
256 24 216 133 7 13
288 396 229 99 85 70
256 29 217 133 7 13
263 24 255 104 90 75
418 413 274 72 33 33
331 85 192 145 11 42
308 803 203 52 50 52
55 626 197 197 137 115
293 22 299 143 99 77
258 24 256 106 92 77
422 488 287 111 19 40
350 83 235 103 43 47
263 33 248 108 92 75
348 613 219 114 31 42
372 473 164 62 25 36
383 844 257 138 124 121
417 857 338 71 57 46
268 643 230 124 17 29
268 23 255 103 89 75
68 593 184 125 98 75
365 721 234 53 43 40
370 533 304 111 20 41
409 684 304 115 79 58
312 952 309 63 55 52
352 473 350 66 21 28
327 163 229 105 84 60
413 493 226 117 9 27
363 178 234 115 94 70
220 888 312 174 126 110
334 878 291 38 35 35
238 603 234 98 28 39
331 21 237 102 77 58
273 23 255 96 79 63
273 212 311 110 91 70
256 166 291 110 92 75
264 924 227 87 78 77
244 692 209 89 59 46
269 27 252 102 88 73
303 13 304 118 56 54
316 63 229 119 39 42
513 927 241 98 85 74
427 419 244 99 25 39
309 338 309 109 83 56
381 388 249 111 90 66
267 29 251 105 89 74
273 34 251 72 47 32
408 538 285 113 20 41
195 626 206 75 62 47
278 28 255 72 32 28
282 29 256 89 28 33
370 503 313 139 15 44
421 506 271 122 26 39
445 688 364 172 115 83
258 48 224 119 99 80
403 707 279 102 79 49
270 51 232 73 41 29
258 49 220 112 87 64
285 776 307 73 61 56
296 293 286 98 80 59
261 50 220 119 101 83
376 353 235 125 99 68
423 453 289 128 13 43
288 725 326 86 24 39
338 98 249 123 98 70
225 683 192 136 92 61
183 632 188 102 84 64
262 53 220 113 95 75
437 679 399 132 106 75
300 390 232 94 79 64
283 903 214 85 77 78
303 824 291 165 125 103
297 487 297 27 24 26
365 351 266 112 88 59
329 680 219 65 41 34
264 52 224 118 102 85
340 233 206 132 102 65
258 58 214 90 34 22
350 107 235 119 96 71
363 673 299 44 25 27
221 902 310 77 52 57
349 47 219 94 65 50
343 503 163 154 16 40
353 698 319 112 11 36
257 64 210 111 30 33
338 218 254 97 78 56
246 775 291 82 66 60
323 728 339 168 15 57
343 223 257 101 81 60
348 168 252 119 95 69
261 59 215 86 32 25
258 173 252 138 103 64
257 902 244 56 51 51
220 540 277 87 23 39
254 538 301 70 20 29
260 56 217 81 46 13
263 58 219 81 40 26
296 382 327 150 101 83
343 813 298 56 47 45
267 54 225 108 91 71
274 338 337 135 98 73
335 824 227 59 51 51
317 59 255 124 84 72
305 448 176 93 18 27
264 638 318 133 15 45
378 426 309 56 39 33
341 223 207 129 99 62
265 56 222 91 72 45
278 9 274 98 78 63
265 61 217 88 35 22
233 703 192 109 76 49
417 688 299 99 78 52
266 64 216 110 26 23
272 63 224 117 32 38
304 408 304 115 82 61
324 39 230 70 41 26
258 45 230 120 101 83
409 548 239 115 29 47
308 838 288 142 112 91
390 490 322 42 24 21
263 48 229 116 99 83
62 608 180 148 101 76
266 760 185 71 54 47
262 45 230 118 101 84
366 663 265 51 31 35
368 508 304 55 24 30
259 171 251 138 103 65
301 329 281 98 79 58
399 850 259 78 62 49
242 917 248 62 51 51
313 568 312 88 11 31
348 748 325 71 29 36
258 398 249 103 89 75
258 40 240 115 99 83
353 433 124 106 59 44
386 792 241 66 50 42
263 42 239 116 99 82
371 348 225 107 89 68
304 813 198 51 47 48
354 498 359 42 28 29
264 46 233 114 97 81
273 104 244 132 71 59
301 452 182 106 14 26
310 397 258 84 67 49
264 10 288 95 51 51
384 398 254 93 77 61
267 49 230 117 98 80
230 698 250 105 20 40
310 24 251 101 27 28
301 856 182 97 81 76
375 352 233 121 96 67
350 650 242 142 30 56
202 743 209 152 103 69
415 435 307 56 27 22
268 44 239 108 92 76
225 747 293 174 13 56
267 45 236 115 98 81
284 909 228 92 87 90
427 713 285 114 86 56
298 503 293 55 23 31
360 697 248 83 33 31
326 188 240 99 80 58
409 914 409 97 82 67
330 495 147 83 26 36
277 108 259 127 89 67
268 48 234 103 85 66
310 448 297 74 16 26
288 198 284 115 92 65
406 723 253 102 77 53
411 731 246 89 63 48
293 458 184 78 32 30
415 484 250 159 14 45
270 46 237 81 65 47
349 688 214 69 57 48
272 44 240 79 41 26
291 214 293 120 97 71
326 338 222 94 78 63
383 912 274 73 60 56
273 48 239 83 37 26
306 456 167 111 15 29
260 35 246 108 92 76
296 750 321 79 64 57
328 268 249 95 78 60
248 967 314 64 60 60
258 38 244 115 99 84
228 779 202 170 112 77
333 143 244 110 85 60
360 656 257 64 35 33
303 398 214 84 71 58
263 38 244 115 97 81
329 238 215 130 102 68
378 498 295 141 5 42
355 256 261 115 91 62
360 454 147 119 15 39
353 563 358 178 10 56
320 924 263 80 68 64
266 35 246 111 94 77
228 783 279 54 45 45
348 138 248 117 94 67
209 712 196 158 104 68
278 573 194 186 8 41
269 37 247 106 90 72
353 603 335 175 17 58
272 39 246 76 45 26
273 38 248 77 40 31
301 293 329 113 88 59
215 755 249 119 92 61
326 89 212 92 63 45
268 41 243 105 89 72
287 823 199 73 61 53
299 503 154 124 15 35
242 663 248 63 31 35
305 317 325 109 83 54
273 43 244 78 39 27
289 965 316 57 52 51
284 494 301 85 23 36
287 238 270 125 93 56
428 702 469 118 100 83
349 902 266 64 54 57
345 474 147 105 26 40
323 12 259 115 60 51
444 672 354 126 99 65
269 53 229 96 67 48
363 193 214 116 93 67
326 562 311 111 4 37
425 425 246 61 27 29
272 54 230 62 41 26
266 103 230 115 33 35
402 563 234 136 20 45
263 753 193 64 50 46
327 278 223 124 99 71
272 49 235 82 34 31
273 53 234 69 40 29
270 57 227 92 45 28
81 595 203 96 83 72
403 458 308 80 26 37
268 608 310 32 28 29
257 959 346 73 68 67
273 58 229 94 34 28
329 148 239 104 82 57
359 653 300 73 23 31
318 890 312 34 33 33
283 976 294 55 51 51
271 60 225 108 41 20
260 89 272 102 38 40
278 38 250 88 38 26
431 704 459 152 120 90
235 633 287 155 5 47
431 685 422 132 110 88
349 16 249 104 62 57
274 46 242 81 42 35
357 238 206 129 97 57
302 418 188 45 38 40
343 43 219 119 102 84
397 768 249 65 51 45
383 897 304 81 67 58
277 44 245 62 45 29
330 193 216 119 94 64
377 378 264 114 90 63
229 578 230 140 11 39
278 692 171 100 69 52
413 858 249 84 73 66
263 233 318 112 91 69
368 882 324 63 56 51
317 438 301 63 23 29
349 33 233 88 52 39
287 38 256 120 23 32
332 168 244 100 80 58
351 693 213 63 49 40
308 888 309 41 37 35
360 162 234 115 93 70
282 43 250 137 43 41
319 303 234 104 86 66
236 629 253 109 22 42
255 909 231 60 56 58
42 619 178 199 131 119
277 103 269 121 90 65
272 338 336 132 97 71
293 638 225 119 15 30
284 43 253 122 53 38
307 313 294 103 81 56
325 322 221 104 86 66
503 918 228 101 85 70
352 422 333 114 9 34
284 48 252 123 38 39
342 503 324 74 25 35
351 426 316 67 17 29
283 9 294 120 63 58
348 233 259 106 86 63
287 43 255 108 77 59
228 758 197 156 107 71
348 343 216 97 82 68
472 921 223 104 86 66
351 106 214 121 41 49
288 368 334 152 104 80
316 406 202 89 74 57
429 863 239 76 65 62
328 613 338 93 29 39
287 48 255 129 39 47
