ply
format ascii 1.0
comment Created by Open3D
element vertex 2229
property double x
property double y
property double z
property uchar red
property uchar green
property uchar blue
end_header
406 64 237 96 36 36
282 203 294 110 90 68
266 578 477 122 26 47
324 398 242 80 65 49
402 58 242 75 28 24
243 598 307 96 21 40
252 635 302 56 41 32
404 60 242 89 37 36
406 64 242 102 41 41
342 38 280 112 15 41
330 919 367 51 41 39
346 19 301 110 58 57
403 62 249 101 36 40
375 44 280 110 65 60
402 64 253 106 30 40
344 21 299 119 79 67
304 17 301 172 119 102
301 514 181 152 8 42
404 65 251 112 32 43
299 432 140 93 74 51
350 239 304 110 90 67
386 69 223 139 20 34
465 764 212 75 59 47
416 454 302 79 28 35
281 40 284 113 26 43
320 341 306 90 68 60
406 489 372 65 15 26
386 74 223 149 16 42
272 639 327 145 93 80
388 78 224 151 13 41
396 519 397 148 12 47
271 109 273 113 93 72
261 491 320 74 45 38
262 574 397 187 127 107
326 679 234 105 18 30
391 79 223 149 14 38
247 604 257 170 12 45
287 64 273 109 64 57
289 428 161 79 60 48
434 852 331 42 37 34
447 509 382 125 65 64
292 589 362 137 20 49
360 21 259 114 91 62
424 521 436 160 16 54
366 344 307 128 99 66
396 69 221 119 31 31
316 524 172 143 13 35
442 744 231 63 49 40
416 873 332 41 36 34
271 274 307 122 95 70
401 69 223 105 46 29
396 79 223 145 24 41
232 554 257 115 29 42
392 82 224 153 15 40
323 906 274 130 89 75
258 23 286 109 15 37
381 699 222 53 45 38
353 174 263 113 91 67
437 492 367 79 22 32
259 542 373 123 2 39
446 535 407 202 125 122
400 73 255 91 37 39
438 864 291 76 64 62
281 419 177 84 67 57
305 503 472 189 16 58
396 79 257 107 27 41
296 309 261 92 81 69
327 406 213 94 80 66
386 84 228 153 14 44
351 969 287 91 88 92
482 842 349 74 60 51
391 111 235 152 25 40
377 470 332 61 41 31
321 319 311 103 67 50
384 86 230 150 14 44
394 83 260 110 62 58
385 89 231 148 13 43
296 593 346 159 15 50
318 396 304 126 80 66
344 426 134 67 55 48
390 81 225 157 14 47
246 515 382 78 30 34
336 419 152 93 77 59
399 109 242 127 32 44
391 89 228 151 15 40
262 464 198 110 13 26
242 729 316 172 118 92
396 85 225 153 21 46
502 853 336 86 71 61
302 278 307 102 81 56
271 826 319 197 142 118
393 451 337 83 15 32
406 864 242 59 55 59
320 365 272 61 54 48
272 350 315 119 94 67
416 494 257 72 32 36
376 579 217 60 35 40
396 89 227 154 22 43
399 82 224 135 34 41
343 224 272 108 87 65
376 688 334 54 26 31
471 863 358 103 82 67
223 514 267 37 32 37
379 321 290 134 101 68
406 774 206 67 53 47
331 477 357 59 43 28
401 84 226 137 30 47
395 108 234 120 49 38
395 675 249 59 43 41
401 89 228 151 26 50
395 84 257 110 65 59
337 285 311 98 79 59
411 434 347 82 13 32
404 87 237 139 15 50
395 89 257 117 31 45
466 835 347 55 46 38
444 863 317 79 63 57
397 84 253 100 53 50
228 548 277 176 4 49
397 89 253 114 45 52
397 94 253 111 40 48
416 489 277 164 16 46
278 466 334 82 46 36
561 799 308 91 86 82
399 94 251 119 23 44
403 68 225 90 49 29
288 570 423 161 113 106
350 209 292 105 85 63
252 588 448 177 115 102
408 69 237 115 41 46
414 883 268 79 65 61
407 74 232 124 30 41
396 910 367 60 54 52
311 364 317 127 89 67
345 742 335 77 61 54
316 639 331 169 18 55
438 617 295 123 95 60
405 79 228 124 33 45
351 64 277 103 11 38
418 523 360 91 54 35
282 739 327 167 16 53
407 74 237 127 28 46
403 69 254 115 28 42
269 244 304 117 94 69
403 80 249 124 15 45
291 54 276 106 17 38
278 749 249 108 19 38
268 256 305 119 94 68
404 74 251 125 23 49
396 504 222 41 33 37
320 353 266 65 58 54
404 77 250 124 13 47
341 924 377 54 48 46
404 416 288 128 13 36
327 496 442 99 40 51
404 83 228 129 37 51
291 804 251 79 62 56
404 84 232 140 26 47
286 284 314 115 92 66
403 89 237 137 17 48
391 484 217 118 8 32
415 813 228 76 60 53
396 111 243 133 55 61
401 94 237 132 32 49
354 902 362 35 32 33
241 699 287 130 97 62
379 324 287 129 100 67
391 815 304 112 85 70
408 458 256 127 20 39
325 299 292 76 66 55
223 514 277 69 31 37
403 84 247 130 22 50
299 452 320 127 92 74
301 524 186 92 26 36
390 948 327 52 45 42
402 89 242 131 13 49
351 379 241 101 87 73
470 856 351 89 72 58
295 33 282 116 79 65
386 804 310 130 102 85
341 799 232 61 49 45
401 89 247 126 16 47
320 409 292 113 71 59
296 568 366 71 27 38
284 553 468 49 18 30
381 619 236 76 29 38
306 419 172 89 73 57
404 82 246 132 21 51
379 339 273 122 97 70
401 94 242 130 21 48
319 417 175 89 74 58
419 469 289 115 22 39
353 93 270 97 14 36
426 694 217 67 55 45
302 254 272 113 91 65
386 99 233 137 17 36
324 917 265 55 46 52
338 300 264 92 80 68
258 292 278 143 100 75
387 104 234 140 23 37
250 809 318 180 128 100
417 638 301 171 114 100
336 39 267 125 16 40
368 444 160 154 12 38
397 674 307 101 18 37
314 404 311 130 85 68
358 181 259 120 95 63
441 774 301 164 121 90
338 27 259 118 76 56
271 294 263 140 102 74
359 154 260 114 91 64
391 104 233 145 23 39
388 108 234 143 23 39
331 844 312 85 62 46
326 891 283 109 82 54
439 679 259 105 85 62
476 774 247 107 79 61
391 108 234 145 23 38
383 554 337 124 8 39
392 945 291 81 72 72
399 660 295 105 25 38
385 254 263 141 102 66
286 478 335 73 46 35
396 104 233 129 53 50
397 629 261 102 23 35
399 98 234 104 85 77
267 11 272 97 68 60
402 569 342 165 105 97
398 101 235 106 73 65
346 685 335 77 28 36
312 617 229 48 34 38
376 402 232 102 72 58
317 409 252 79 64 46
238 558 300 155 1 48
322 404 247 79 64 47
346 499 172 177 10 38
398 104 235 114 94 83
441 494 397 63 20 25
399 104 238 117 49 48
278 17 305 144 102 96
396 109 237 132 96 91
399 108 238 116 53 44
354 96 260 131 27 50
422 604 286 95 78 57
331 314 317 115 84 62
381 574 218 86 26 39
391 105 257 112 71 59
391 834 221 92 70 59
288 556 402 83 27 38
285 48 280 119 90 69
301 254 282 114 90 64
398 504 225 43 33 40
281 489 322 83 59 44
360 453 154 160 11 38
399 99 242 128 28 47
400 99 247 124 19 45
402 510 417 164 15 52
397 99 253 106 55 50
365 426 320 133 98 77
284 482 384 45 26 29
394 802 210 74 56 44
365 977 303 75 69 72
281 413 227 98 83 67
395 103 256 111 38 44
323 334 268 62 54 48
356 869 342 137 109 84
370 20 264 111 96 80
263 468 198 101 18 28
281 484 182 124 16 37
399 99 250 119 18 42
399 108 247 128 21 46
289 461 358 79 12 30
257 119 266 112 93 73
400 104 247 126 20 46
387 112 238 153 72 68
268 141 280 111 91 70
426 527 326 68 23 35
432 618 281 113 93 70
289 464 325 111 79 62
409 867 350 33 32 32
400 439 242 113 22 36
391 112 238 153 57 60
394 112 238 149 69 87
281 684 318 66 25 32
296 459 157 142 7 42
246 664 289 128 90 58
386 114 242 139 90 69
391 112 242 137 94 75
260 339 297 130 98 72
249 620 277 108 30 43
389 113 247 137 94 70
406 909 287 72 62 60
389 114 252 119 88 62
271 11 297 84 36 36
331 399 308 129 87 74
341 11 301 124 32 56
353 520 384 95 11 33
380 144 281 116 93 66
374 423 159 143 13 37
367 856 218 75 63 57
276 249 307 118 95 69
319 413 233 82 69 55
389 114 256 112 86 60
267 709 324 157 109 90
389 118 256 111 88 61
371 973 317 59 56 56
496 819 325 98 81 67
274 724 255 95 25 34
347 884 233 84 73 72
251 530 411 85 27 34
388 119 257 108 85 59
387 109 267 120 96 68
408 695 203 81 60 47
378 128 279 112 91 67
306 804 318 65 56 51
309 549 420 115 26 43
378 535 200 71 24 28
408 905 327 59 51 48
387 129 252 131 100 66
371 734 338 115 25 45
388 129 255 125 99 68
298 229 282 108 84 56
321 694 232 118 13 29
341 359 318 138 100 74
395 112 240 139 52 63
312 939 273 76 69 68
301 553 199 87 33 35
316 610 225 97 35 41
238 704 289 142 101 71
385 133 249 136 101 64
366 629 324 86 31 39
386 139 252 130 101 66
275 413 236 99 84 69
355 830 231 59 51 50
384 144 249 132 100 61
326 594 342 171 17 55
246 658 290 130 91 61
382 439 313 70 46 31
386 144 252 129 99 63
388 139 257 123 98 68
486 858 348 101 86 73
314 412 200 94 79 64
388 144 257 123 98 67
276 415 227 94 79 64
351 502 411 157 18 53
394 514 219 132 14 35
386 149 252 128 98 61
386 154 252 129 98 60
302 551 402 127 25 46
387 164 256 125 97 61
281 819 321 184 137 109
281 27 297 138 35 58
256 630 359 193 132 109
385 169 254 132 101 62
455 837 332 67 57 48
276 364 258 97 84 70
386 174 256 128 100 64
340 894 242 65 59 59
384 179 254 135 103 63
453 512 390 116 96 72
268 289 305 120 95 69
384 183 254 136 104 63
415 649 265 85 71 56
386 194 257 130 100 63
362 971 333 87 85 87
442 850 286 69 56 52
386 204 257 124 98 66
361 923 254 82 75 76
467 800 266 78 61 52
299 239 277 115 91 64
377 784 209 73 56 50
401 489 377 64 16 27
386 219 257 128 100 65
337 440 135 153 18 39
331 469 147 107 23 37
262 15 263 95 78 65
386 439 202 96 27 36
257 16 267 94 59 52
317 329 271 64 56 48
238 734 310 172 115 91
271 15 262 99 85 71
276 837 306 199 137 113
266 13 267 96 76 65
356 369 246 98 86 74
390 194 262 126 98 63
301 486 328 75 52 40
306 372 265 87 74 61
371 571 344 77 25 36
271 11 272 98 77 67
271 334 267 110 89 64
310 518 427 182 16 56
392 89 263 116 32 46
421 729 212 65 50 42
359 812 310 165 120 102
260 12 276 96 42 43
420 734 307 130 25 44
276 419 182 99 53 46
376 685 203 83 64 50
356 224 302 113 92 70
262 11 278 96 42 44
381 129 277 115 92 68
386 264 272 137 99 66
266 538 433 110 7 36
280 109 271 109 86 60
361 499 176 165 10 36
441 774 223 86 66 50
258 15 286 88 42 41
320 417 289 104 71 62
320 790 240 79 62 53
260 799 324 176 131 102
351 909 377 45 40 39
286 389 247 98 85 70
262 11 282 95 33 40
266 49 277 117 63 62
345 239 260 109 87 61
256 558 382 147 20 49
266 11 287 91 35 38
240 594 287 135 18 45
271 158 284 110 90 69
356 683 334 56 26 30
271 10 287 88 41 40
251 721 279 120 88 56
261 20 259 105 91 77
406 690 213 75 48 38
381 464 182 64 31 37
386 505 402 155 16 51
258 21 259 108 94 81
261 24 258 105 90 76
371 669 326 76 20 35
259 795 265 172 114 82
292 584 358 136 21 48
374 508 188 135 20 40
266 20 258 106 91 77
391 684 222 74 54 43
384 409 202 88 28 36
385 519 377 36 26 27
376 429 162 146 14 36
253 624 301 89 30 40
281 494 184 106 20 35
339 400 314 133 94 75
266 17 260 98 85 72
366 309 308 133 99 67
316 428 137 75 59 48
252 794 321 177 130 102
271 20 258 107 93 78
339 34 260 124 43 41
257 19 286 94 35 41
382 109 273 118 94 68
421 689 298 115 67 53
234 541 299 173 0 48
466 774 247 74 56 46
260 25 288 110 38 46
258 27 285 102 26 36
336 749 231 103 22 32
346 539 372 115 26 44
289 235 300 111 88 63
380 294 287 130 96 66
276 12 265 102 88 77
462 799 282 81 64 52
336 421 147 94 77 59
366 384 242 98 86 74
236 719 307 165 112 86
406 854 242 56 50 53
281 12 265 106 87 77
423 534 366 147 97 66
511 882 330 96 82 69
238 554 243 166 13 43
282 16 259 123 94 60
285 16 259 141 77 37
346 398 217 97 83 69
411 444 352 94 21 37
276 279 311 119 93 67
336 10 277 133 63 65
321 664 332 159 13 50
343 894 359 140 103 83
309 487 320 84 61 47
346 29 257 100 33 31
341 971 291 81 78 81
276 10 277 98 74 65
370 379 248 102 86 72
360 780 205 68 54 46
336 374 253 94 81 67
276 10 287 91 49 44
286 10 282 112 57 52
382 502 436 147 17 48
252 624 297 69 29 35
370 214 300 121 97 70
364 309 310 130 95 64
285 19 259 99 32 26
321 324 287 61 52 45
268 480 351 118 24 42
286 24 259 106 42 36
325 309 313 104 77 54
379 26 276 87 44 43
316 874 347 148 99 97
332 491 426 66 22 25
286 544 198 92 31 38
286 30 288 119 90 71
371 444 318 94 68 50
311 364 261 70 60 50
261 469 202 111 13 27
286 89 267 107 76 57
432 851 370 49 42 38
261 14 292 88 32 37
263 15 295 87 59 45
268 11 296 84 37 36
271 274 256 137 99 67
321 580 353 184 7 57
427 534 287 122 16 35
324 407 217 91 77 63
403 437 255 53 36 35
264 12 289 90 32 36
265 12 293 86 35 36
270 417 212 87 63 51
351 309 261 98 84 71
271 10 292 85 38 37
272 11 301 87 35 36
266 274 258 139 98 67
428 497 311 86 28 28
406 424 292 89 28 34
295 504 181 161 1 38
320 595 215 74 35 40
322 719 344 159 0 49
229 530 250 155 5 44
361 486 397 55 33 24
269 12 299 83 36 36
263 22 295 119 30 44
376 881 330 38 35 33
263 27 290 124 15 44
411 430 342 82 17 31
400 411 297 71 30 34
402 519 401 155 13 50
337 17 300 144 107 100
277 574 472 88 19 36
409 904 302 59 52 52
276 344 316 118 93 65
271 25 298 130 21 50
410 739 203 61 47 39
411 899 322 61 53 49
247 635 307 84 68 50
286 269 257 129 98 66
272 23 300 111 44 48
235 554 247 96 24 37
371 459 167 160 14 41
321 500 453 94 19 37
454 788 234 85 65 55
297 296 320 121 95 69
257 614 317 64 28 34
390 868 213 79 67 62
272 27 296 136 28 54
276 10 292 90 39 38
361 13 292 88 38 41
266 534 203 160 3 38
404 514 234 144 13 38
276 10 297 91 34 36
282 174 283 106 85 62
281 10 297 100 30 36
406 439 267 137 15 39
385 599 228 75 34 41
281 10 302 108 33 40
286 9 297 110 28 39
301 827 259 89 69 60
277 14 306 123 77 66
424 646 299 170 116 98
389 479 213 142 18 43
414 705 306 95 20 38
362 946 363 60 54 52
392 504 217 121 14 35
384 277 290 142 101 73
278 11 305 107 40 41
325 25 277 143 16 51
341 953 361 86 80 79
332 29 267 137 50 53
431 654 263 109 87 61
281 11 306 116 36 44
373 548 354 87 22 44
256 659 290 108 76 45
388 439 217 37 30 32
281 14 307 135 85 76
281 24 301 136 99 77
276 30 292 134 25 51
326 489 297 50 33 26
278 31 289 140 21 53
371 454 167 160 14 40
381 483 378 61 32 27
281 29 292 125 67 63
270 635 255 124 17 42
286 334 262 95 81 66
341 388 237 97 83 69
454 705 250 77 63 47
444 842 336 42 36 31
265 144 279 109 90 71
422 493 344 65 20 26
269 477 349 61 20 31
336 14 262 135 42 41
316 589 348 177 15 57
276 734 322 116 28 41
286 19 303 140 99 79
403 707 200 62 49 41
356 494 173 167 8 33
286 25 298 134 97 76
321 14 282 153 88 75
423 806 230 56 45 40
344 417 155 94 79 62
262 714 278 93 45 39
371 500 417 154 18 52
356 882 229 76 66 65
290 15 263 128 43 33
382 364 287 133 102 69
257 33 280 109 50 50
411 694 202 72 53 39
286 841 287 58 37 45
421 474 382 72 15 27
394 504 219 60 26 32
356 649 326 92 25 39
292 719 341 152 16 49
261 34 283 112 30 44
406 543 377 193 133 117
416 644 263 87 72 56
341 964 282 90 87 91
262 39 281 118 15 42
295 479 172 116 23 39
276 174 288 110 90 68
263 32 285 111 86 70
403 626 270 41 35 31
283 566 439 157 34 63
321 444 132 142 14 38
366 544 196 120 29 43
313 847 290 158 113 84
433 477 387 74 9 28
411 515 458 158 23 54
257 43 275 120 20 44
421 626 269 87 73 56
387 889 251 62 56 59
261 44 277 117 80 68
266 823 320 195 142 115
230 549 257 66 33 37
259 50 274 122 14 42
305 514 177 72 28 35
276 804 258 164 114 83
265 35 284 105 74 61
517 879 318 105 83 62
266 39 283 119 21 45
262 389 317 127 98 70
268 37 285 121 22 47
426 514 407 59 16 25
266 43 280 121 89 71
299 254 296 111 87 59
370 402 228 100 79 64
246 644 298 82 65 47
272 48 280 107 43 44
352 174 277 104 84 63
257 53 271 119 25 47
271 709 321 112 76 62
261 54 273 116 16 42
311 475 372 55 33 24
426 689 299 139 93 69
261 59 272 106 30 42
346 64 262 118 50 49
262 53 275 115 16 41
311 719 349 161 10 51
415 883 282 61 52 55
346 480 317 62 47 32
376 374 252 111 92 72
372 354 256 110 93 74
297 919 312 164 127 103
271 54 278 113 54 55
339 377 250 95 81 68
346 578 350 183 11 57
357 625 329 130 30 50
318 404 282 111 70 58
271 417 202 88 53 45
264 56 274 91 55 41
367 471 325 66 49 35
280 564 496 125 19 44
382 284 287 136 96 67
324 308 287 76 66 57
265 60 274 92 58 47
268 62 275 107 87 70
386 99 272 110 34 47
276 40 284 109 22 39
357 180 290 106 88 68
397 457 309 64 50 44
401 664 262 70 36 34
276 44 282 104 47 45
276 48 280 110 31 41
286 39 283 118 19 43
276 54 278 110 32 45
336 11 267 128 52 54
281 54 279 107 49 47
377 45 279 114 92 76
438 635 304 188 126 102
316 854 343 158 120 99
341 24 259 119 35 32
376 844 307 101 82 65
276 59 277 111 82 63
415 479 372 81 1 27
356 358 250 93 82 72
388 564 319 42 27 32
440 649 296 182 123 96
353 93 259 118 24 35
276 64 276 108 60 53
516 879 327 102 83 64
261 565 467 85 44 44
291 11 272 120 59 53
246 559 367 71 31 38
311 539 412 86 17 34
386 269 277 133 95 63
291 13 266 121 59 51
289 603 357 78 34 40
412 555 293 141 19 48
417 870 261 75 62 58
292 12 271 122 53 49
344 868 265 76 65 58
358 134 276 102 81 58
296 13 272 122 47 45
456 829 302 68 56 48
252 554 417 99 70 59
287 84 267 103 49 47
346 402 207 97 82 67
266 489 357 72 27 32
480 819 303 85 65 51
291 11 277 119 55 51
366 294 308 133 99 66
258 415 248 98 82 65
366 563 351 69 31 36
282 124 267 107 83 55
253 556 337 50 30 30
419 501 274 36 33 35
294 11 278 120 51 48
320 374 277 61 52 44
295 11 282 120 50 47
367 866 214 108 88 74
264 718 275 110 27 36
371 119 280 114 93 70
300 15 277 119 48 47
300 11 288 122 51 48
375 654 320 81 30 37
301 14 282 120 54 52
298 12 285 122 51 48
256 539 402 53 28 32
439 858 288 70 58 56
332 494 452 132 22 50
330 538 376 46 26 30
277 334 264 98 81 64
294 19 264 100 33 29
387 144 272 116 92 63
301 404 323 132 94 70
295 24 263 114 53 42
342 54 272 113 32 45
314 872 295 133 102 72
313 838 259 81 63 58
347 204 272 109 89 68
279 677 314 44 25 28
353 194 259 122 97 68
391 715 193 67 52 41
290 29 259 97 52 38
256 648 346 191 130 104
376 69 276 98 47 47
295 29 263 112 90 68
300 19 272 124 40 43
443 826 270 85 66 59
375 274 301 126 94 63
276 99 272 115 94 71
319 414 257 77 63 49
297 24 266 112 38 33
341 44 277 110 83 65
292 495 411 62 20 29
299 29 268 129 32 41
284 577 422 190 128 113
267 419 326 133 101 74
300 29 272 115 76 60
291 779 329 47 42 42
398 649 293 129 27 47
392 417 304 84 37 30
303 19 281 118 56 50
296 495 412 61 20 25
366 384 317 133 98 66
302 24 282 142 36 52
461 729 247 70 56 45
298 31 278 121 39 43
320 13 287 148 82 74
332 526 389 176 16 59
296 489 327 82 58 43
320 19 282 155 102 85
412 474 372 92 1 27
361 84 278 97 42 40
367 490 176 153 15 39
400 709 336 85 24 36
317 18 288 175 122 121
390 634 253 54 33 36
481 849 357 61 48 38
321 20 287 162 114 108
326 439 310 81 56 39
427 855 307 36 31 30
372 50 279 114 10 42
291 10 292 118 42 43
252 568 219 58 29 35
291 9 297 120 36 43
388 866 217 81 71 66
353 174 281 102 83 62
390 842 210 103 80 66
301 289 316 104 83 60
296 10 292 122 48 45
296 10 297 122 43 45
296 416 188 95 79 63
300 11 297 122 48 46
336 798 320 67 52 48
411 521 402 111 19 43
303 12 297 124 55 49
406 689 238 79 44 36
300 11 302 124 43 48
288 12 310 139 32 57
353 901 235 78 67 66
291 12 310 151 35 62
416 869 302 42 37 34
404 416 307 122 19 38
412 685 238 66 44 45
311 454 307 117 84 66
296 10 307 136 32 57
356 11 282 97 66 61
300 22 296 163 113 90
441 809 296 140 94 71
301 14 307 119 53 53
326 624 231 72 30 39
410 439 327 125 17 41
299 13 310 125 35 54
385 579 331 171 11 54
291 24 297 124 74 61
342 234 263 110 88 64
396 789 311 70 55 49
416 485 327 89 15 29
416 618 275 87 71 53
307 338 271 78 68 59
296 20 302 191 142 140
275 445 346 89 50 42
296 23 297 145 105 83
299 798 244 82 65 57
333 396 229 93 80 66
281 494 322 84 60 45
276 379 253 95 83 70
336 583 209 190 8 43
295 27 291 140 28 51
321 468 302 55 38 30
369 54 280 100 19 36
376 614 322 82 26 39
425 798 223 94 69 53
381 354 272 125 100 70
303 21 289 153 20 54
327 678 334 134 16 44
439 823 289 43 33 28
428 728 220 60 46 35
393 224 277 121 96 66
302 20 297 157 104 86
296 18 306 168 119 108
403 434 257 59 34 34
370 15 287 92 49 45
301 409 323 132 94 71
319 12 291 137 73 71
373 213 299 122 97 70
266 729 267 125 12 36
356 967 341 68 65 66
317 14 296 132 67 67
341 589 347 163 18 54
339 45 266 129 95 77
425 838 278 31 28 28
326 955 357 66 62 62
422 860 320 34 32 30
321 13 301 146 27 59
346 639 234 58 35 37
413 751 314 84 68 59
304 15 305 121 83 65
317 18 292 171 111 117
321 19 292 191 143 147
371 499 442 165 19 56
271 449 347 94 26 35
317 17 296 150 92 86
408 609 271 99 22 36
436 854 327 55 46 39
321 18 296 157 109 94
367 589 334 181 7 57
290 34 258 98 37 27
295 34 262 111 59 45
321 952 360 68 63 61
295 39 263 126 32 44
337 429 130 132 45 44
415 543 306 116 22 44
356 364 319 132 98 67
296 39 267 128 37 48
337 788 228 65 52 46
380 349 272 123 99 70
391 735 191 61 48 41
277 724 252 107 18 31
400 704 335 60 22 29
295 44 272 111 73 60
302 477 340 66 32 30
257 74 266 117 26 46
282 601 364 74 53 49
294 49 267 111 52 51
257 634 272 41 32 37
297 34 267 126 32 39
291 600 225 187 10 44
381 865 210 110 90 78
321 448 134 179 6 35
376 109 278 115 93 68
451 808 248 77 60 54
423 598 290 97 79 57
298 35 272 114 60 50
292 579 377 77 27 38
291 419 177 95 79 61
376 729 339 125 23 48
248 568 428 177 119 107
247 605 348 127 97 66
346 454 146 95 30 38
299 33 272 115 82 62
412 895 322 60 51 49
297 39 272 118 25 41
293 40 279 114 10 42
242 799 302 188 130 103
376 914 377 57 53 52
291 39 282 115 18 42
406 416 317 89 24 34
294 32 285 125 30 51
256 829 312 208 147 120
334 832 309 160 114 89
265 560 378 132 13 45
286 424 168 93 69 55
294 38 280 110 28 44
288 46 279 119 89 68
361 423 319 137 101 80
291 49 277 104 39 45
351 411 167 95 79 61
433 715 299 153 106 77
294 43 276 109 12 40
456 510 393 113 92 68
293 54 262 111 32 36
286 469 342 65 27 29
293 55 273 108 55 52
316 644 330 177 16 56
322 914 268 103 75 64
294 53 271 106 24 39
293 59 262 99 44 38
290 64 271 114 84 67
260 314 292 126 96 68
293 56 267 103 79 60
379 299 292 133 97 67
300 239 263 119 94 63
332 521 394 177 14 55
361 304 311 131 94 64
293 50 274 108 3 40
290 58 275 103 62 54
241 574 302 32 28 32
311 874 297 134 102 73
257 69 266 95 32 37
325 508 427 81 24 36
306 449 133 179 4 39
262 794 325 175 131 101
426 478 377 75 20 31
261 74 268 100 56 50
258 78 265 116 17 44
351 749 228 128 9 33
284 501 185 53 36 37
264 74 269 108 60 55
353 270 259 102 83 62
266 74 271 109 34 46
271 79 272 103 36 44
372 113 279 115 93 70
395 439 233 115 19 32
292 535 442 180 8 57
279 582 424 182 119 102
258 89 265 102 86 68
261 89 267 95 41 42
259 659 290 93 63 40
378 546 205 66 34 35
280 530 195 161 0 33
510 780 267 111 79 62
336 494 161 66 33 39
261 94 268 103 37 44
386 499 407 87 25 32
263 95 270 105 15 40
254 633 301 50 31 30
294 792 325 50 44 41
316 477 346 65 31 28
263 268 259 139 100 68
264 92 269 107 17 38
265 84 269 90 71 54
388 106 264 118 87 64
291 476 386 55 39 28
265 88 269 92 36 37
327 521 398 186 2 59
276 274 256 133 98 66
268 84 270 101 84 66
266 94 270 104 20 39
403 814 225 66 53 52
306 417 181 93 77 60
260 179 284 115 96 76
271 279 258 140 102 70
286 69 272 104 21 41
314 304 278 79 69 61
285 74 271 101 68 53
318 308 302 81 59 37
343 234 287 109 87 64
418 512 407 61 17 25
425 580 309 100 81 58
281 68 275 98 39 40
336 24 261 133 24 34
380 405 192 137 27 35
277 837 283 224 153 122
276 74 273 102 71 54
336 684 335 43 27 30
264 653 332 170 110 91
276 94 272 103 56 50
278 611 353 125 85 76
296 529 442 182 14 57
321 869 292 129 93 64
284 84 270 102 15 39
356 299 313 131 93 64
387 584 328 164 16 54
284 88 270 99 33 38
387 44 267 86 37 37
384 63 270 102 56 49
291 699 243 85 34 41
288 409 329 139 103 73
271 120 275 113 92 70
287 94 262 106 25 40
350 855 326 135 105 79
277 459 362 64 29 33
284 92 270 105 3 41
331 439 309 82 59 40
240 734 281 134 98 66
261 309 277 142 103 77
276 89 272 104 28 39
261 104 268 112 93 73
355 458 153 164 10 39
333 506 414 76 16 34
271 129 276 111 90 67
310 549 192 71 32 39
325 467 144 119 22 34
392 402 262 79 49 43
258 109 265 114 94 73
400 835 219 78 65 60
349 243 304 110 89 66
406 419 322 90 18 33
290 548 477 164 16 49
409 904 297 59 52 52
261 109 267 112 93 74
389 140 259 120 96 68
368 551 200 92 26 33
293 411 214 96 82 66
266 104 271 114 95 76
271 99 272 112 93 72
390 89 267 108 50 50
323 371 259 68 57 48
271 104 272 114 94 73
305 944 347 100 70 63
296 434 327 134 97 77
361 254 308 123 97 66
341 477 332 63 48 32
261 114 268 110 93 75
371 289 263 120 96 68
248 521 396 103 18 37
404 872 345 32 29 30
372 626 235 61 33 36
374 299 300 132 99 69
263 114 270 108 91 73
262 119 270 107 90 73
463 742 254 55 41 28
312 904 292 117 92 72
331 389 242 89 76 61
287 554 443 40 27 30
266 119 273 108 89 70
265 124 273 110 91 72
477 805 287 105 78 65
364 162 289 109 89 68
271 124 275 111 90 69
276 354 318 117 92 65
280 99 271 110 87 62
300 889 306 160 119 91
371 64 278 102 42 48
376 489 397 65 30 26
276 104 272 113 92 69
259 354 298 128 99 71
285 99 262 110 68 56
284 155 271 104 82 56
263 582 424 195 128 110
428 856 338 36 33 32
283 99 268 111 86 61
282 104 268 109 83 57
442 505 417 62 39 40
360 420 320 139 102 80
320 339 297 82 58 48
284 98 266 111 79 58
276 539 198 144 13 37
367 609 328 114 31 47
265 644 342 176 118 96
502 859 348 90 74 62
283 106 264 109 81 56
280 114 271 109 86 59
282 124 262 105 83 57
277 212 299 115 94 72
355 491 436 117 16 39
280 129 271 106 83 57
388 429 221 63 31 33
273 365 320 122 95 67
405 491 376 61 15 26
403 428 272 54 30 31
277 124 273 108 86 62
258 361 274 113 92 69
291 69 262 110 28 40
281 169 282 107 86 62
302 478 314 94 67 54
461 835 337 56 47 39
290 69 267 104 49 47
261 519 202 79 30 35
303 412 241 88 73 58
321 404 277 91 65 53
290 74 262 110 34 43
402 574 337 160 101 94
289 79 266 103 26 38
357 154 262 114 91 65
257 539 397 85 23 35
288 90 258 102 34 40
399 649 291 97 26 39
417 488 362 75 19 28
346 489 417 58 23 27
333 15 264 132 51 50
415 754 203 60 48 42
348 480 160 174 9 40
306 564 203 95 25 35
331 14 267 131 55 58
336 10 272 130 57 60
294 258 259 118 93 65
285 214 296 111 90 66
346 294 262 94 81 68
335 12 266 130 50 52
296 639 241 69 34 36
322 15 277 147 84 71
296 694 332 39 27 30
442 654 282 140 100 66
428 492 334 69 22 22
267 734 262 67 28 34
316 894 356 183 133 118
404 802 305 70 56 50
301 408 222 94 79 63
266 244 302 116 93 68
276 575 482 116 22 42
323 15 274 144 78 68
306 510 478 180 15 57
327 11 282 147 80 68
366 119 280 109 88 65
410 454 352 58 29 30
325 12 282 149 83 70
328 11 274 142 76 70
339 258 293 105 84 60
360 325 259 100 84 69
326 24 272 141 27 46
343 563 354 72 23 30
366 54 281 100 59 53
311 482 149 147 11 38
425 593 331 190 126 98
369 874 325 66 57 49
331 24 263 139 35 45
266 394 253 104 87 68
341 849 327 119 95 69
330 25 266 143 26 48
333 28 264 142 95 80
293 596 344 152 16 49
285 659 319 120 19 42
361 369 246 97 86 75
429 486 369 75 26 29
388 129 263 114 91 63
300 474 157 132 13 40
322 19 277 137 59 55
331 499 437 49 24 30
324 303 302 67 51 33
323 22 278 139 25 50
287 704 331 112 18 41
311 464 307 110 79 62
406 419 302 112 21 38
323 22 281 140 85 68
392 74 263 101 50 49
290 574 377 32 26 33
356 309 261 97 82 68
345 352 255 89 78 68
326 24 282 136 48 59
366 79 278 100 70 55
446 764 232 75 55 42
394 417 304 83 22 29
324 21 288 148 103 84
328 27 277 139 40 58
482 795 297 93 78 64
351 244 306 113 91 67
342 15 259 144 35 35
316 669 236 126 9 31
260 134 273 109 91 72
286 824 262 84 66 60
334 31 278 134 27 54
422 569 348 187 125 101
382 894 248 61 52 54
330 26 283 143 20 54
330 498 447 143 21 50
425 548 296 181 20 59
332 28 282 130 35 50
336 29 282 120 61 57
360 483 169 166 10 35
465 819 303 62 52 42
371 679 331 99 23 39
442 639 297 176 118 90
237 694 312 172 117 92
321 329 312 101 65 49
336 27 287 145 57 65
342 11 264 122 56 50
347 906 240 82 73 72
397 914 277 71 62 62
346 15 258 131 43 35
346 13 262 117 64 53
351 13 262 112 80 61
337 894 252 54 49 49
422 504 277 47 34 34
401 689 217 62 43 37
343 27 295 149 29 56
375 918 253 66 59 60
346 10 272 111 75 68
351 498 174 171 6 35
416 825 288 36 33 33
250 553 214 133 3 33
349 11 264 109 76 64
320 966 296 84 81 83
346 10 277 111 72 68
268 526 415 28 27 30
356 403 202 96 81 68
371 54 278 100 34 43
379 798 204 84 67 57
351 789 321 48 41 41
431 649 264 108 87 63
331 405 212 95 81 68
351 10 277 103 79 71
362 12 272 102 85 74
372 970 297 78 72 76
240 759 276 147 104 74
418 731 210 71 55 44
346 10 287 105 43 50
257 543 213 119 10 34
399 853 218 74 65 60
416 499 257 89 32 38
244 601 261 98 38 46
321 639 235 87 27 35
376 959 282 82 74 73
340 23 260 128 25 30
338 26 259 121 67 51
386 683 328 122 13 40
303 472 369 65 32 27
339 30 260 119 83 62
261 754 324 177 124 99
351 29 257 69 47 37
258 400 315 129 102 74
346 814 312 169 118 98
471 847 337 82 63 50
361 29 292 117 50 56
306 474 146 87 33 39
414 554 258 116 24 41
341 30 283 117 83 66
411 904 312 60 52 51
346 29 287 126 32 51
279 454 180 73 31 32
361 24 258 102 74 49
319 543 405 165 15 53
322 11 301 145 33 59
238 557 441 181 127 121
377 224 298 118 94 66
377 549 348 156 13 50
384 48 275 118 12 42
326 11 301 149 29 60
340 374 251 100 85 71
356 498 422 116 21 45
326 15 298 136 51 65
365 583 214 55 37 41
331 488 412 63 24 28
354 814 225 59 50 49
331 10 292 132 42 55
437 702 236 95 74 48
362 604 333 100 30 44
331 10 297 137 30 56
298 254 298 112 88 61
246 674 288 126 93 57
336 10 297 128 27 55
393 412 293 77 43 34
390 649 306 97 21 40
331 15 299 149 93 91
336 11 301 136 32 59
380 284 272 129 96 66
334 16 299 188 154 161
266 623 361 187 125 103
388 439 207 73 29 35
343 501 170 177 11 39
334 26 289 133 46 55
337 27 291 140 37 58
311 965 337 68 63 62
269 469 190 91 22 25
341 10 297 119 30 53
371 15 282 94 45 43
389 239 290 125 99 68
346 14 302 108 52 59
316 521 170 167 10 44
246 549 317 62 24 31
409 450 267 118 17 36
352 12 298 93 38 43
395 405 257 68 32 34
235 574 282 169 0 46
351 234 303 111 90 68
299 522 446 164 17 57
341 18 300 127 89 83
265 499 197 47 35 36
413 453 276 61 29 30
262 420 209 111 23 28
257 613 371 187 129 107
346 25 298 131 43 57
399 603 244 142 37 52
376 859 211 100 79 67
286 779 328 156 116 89
351 23 300 122 23 47
346 27 295 149 19 56
395 619 248 58 33 36
238 649 336 163 116 89
351 26 297 133 27 54
321 486 402 66 28 26
335 34 267 127 53 56
333 32 268 138 17 41
270 417 217 82 63 50
259 452 329 127 13 41
336 39 272 116 8 38
321 859 297 115 75 56
333 32 275 132 98 85
269 417 207 90 58 49
336 34 277 118 52 56
388 129 267 115 91 64
405 434 324 98 11 32
425 534 282 156 19 44
391 779 203 73 57 48
316 476 352 64 26 27
378 174 289 116 94 70
342 39 258 136 22 40
281 269 255 132 99 66
348 194 267 114 93 70
399 942 307 58 52 50
235 519 317 44 29 34
262 608 243 182 10 43
279 669 255 146 3 39
343 48 259 130 91 71
361 409 167 95 79 60
368 586 334 188 5 59
338 43 268 118 72 61
447 739 293 158 111 78
338 43 272 107 8 36
321 578 204 201 11 42
276 464 362 86 25 37
339 45 273 105 16 35
382 88 274 106 89 71
378 734 194 61 49 43
321 614 337 101 26 41
351 664 329 142 17 46
340 49 267 117 54 55
250 603 347 119 92 62
338 38 276 108 3 36
331 569 362 183 8 57
301 289 272 90 78 66
422 477 376 83 16 30
337 33 280 129 18 51
341 34 282 110 25 43
282 314 264 92 77 60
278 197 294 114 94 73
336 774 327 75 60 51
347 209 267 111 90 68
393 630 255 78 28 34
297 510 486 144 16 46
347 33 285 116 19 44
350 36 284 118 10 42
439 506 329 143 17 40
347 44 280 119 92 71
356 741 334 67 54 50
393 479 221 118 13 34
351 49 281 105 45 46
343 53 263 130 29 40
356 27 295 122 59 59
361 794 211 60 48 42
248 618 277 81 32 41
279 459 180 120 11 30
408 608 316 170 110 99
414 466 264 115 11 29
344 51 260 144 27 50
314 432 130 89 58 44
359 115 260 124 97 68
387 455 321 66 44 32
347 59 258 120 17 32
418 487 332 77 21 25
466 840 312 90 70 60
345 59 262 114 73 56
372 497 451 180 15 57
360 599 336 81 28 39
272 444 187 131 2 33
238 579 292 173 1 50
342 875 257 47 42 43
361 19 261 109 94 78
347 64 258 130 19 40
344 849 256 84 65 59
225 529 282 155 6 43
366 510 382 60 27 33
337 469 311 64 48 28
421 559 352 165 110 81
346 64 267 115 87 66
270 379 255 98 84 70
289 449 171 141 5 37
371 359 252 107 90 73
405 439 262 86 25 34
378 931 364 55 49 48
343 53 276 106 18 41
352 58 280 101 25 37
330 487 154 48 36 42
336 481 318 59 44 29
356 11 272 103 88 77
296 244 297 109 86 59
360 11 272 103 87 76
365 748 206 53 43 40
316 500 437 81 13 24
366 14 272 101 76 68
359 11 277 100 80 70
380 516 374 45 24 26
359 11 282 96 63 57
384 258 295 124 95 63
381 409 187 134 22 37
277 525 422 115 5 36
389 455 219 139 23 41
316 594 346 93 25 41
260 269 298 124 96 70
362 12 282 94 55 50
358 466 160 166 12 38
276 794 326 179 136 103
351 214 297 106 87 67
364 19 295 90 41 44
361 12 287 90 43 42
362 12 277 99 73 64
384 516 379 45 24 30
348 542 370 129 19 47
252 808 278 186 125 93
244 805 308 188 132 104
366 14 277 97 62 56
301 416 187 95 79 62
356 324 259 96 83 68
300 313 262 90 79 68
458 768 246 76 58 42
366 14 287 90 42 41
346 219 262 116 93 66
363 22 260 110 94 79
366 19 263 110 96 82
254 616 304 41 28 28
421 553 291 111 21 44
364 16 264 106 93 80
240 584 307 54 29 34
371 24 262 109 94 79
394 406 248 46 38 38
378 788 209 69 55 48
371 569 211 164 8 41
343 239 292 106 85 62
435 495 352 45 28 26
369 16 269 103 78 70
375 20 272 97 47 48
377 24 272 85 37 33
443 669 288 161 108 77
392 244 282 129 98 64
376 29 262 108 94 79
409 429 317 73 27 34
378 28 266 98 85 71
303 472 355 68 18 28
374 16 282 96 38 42
375 19 282 99 28 40
363 165 290 109 89 68
393 539 220 55 36 38
301 654 327 164 16 51
312 607 224 157 21 41
371 517 371 48 24 30
261 774 262 133 95 60
374 20 285 99 33 42
376 24 282 96 26 34
356 494 432 116 17 41
372 24 288 95 48 43
270 408 245 101 86 69
378 24 277 96 23 39
317 855 345 155 121 99
440 489 397 80 16 26
379 26 273 77 26 23
270 520 195 166 2 38
281 729 248 126 7 32
376 299 297 135 100 72
378 28 279 62 50 39
235 719 297 154 105 78
441 674 292 162 108 78
357 12 292 89 39 41
238 515 218 72 29 29
321 414 302 113 72 61
358 12 289 90 43 43
455 724 277 156 103 69
361 15 296 87 37 41
355 23 300 120 28 47
376 94 277 103 23 39
362 742 335 76 59 56
383 459 186 138 21 38
270 575 220 172 10 45
358 17 299 90 26 37
370 491 470 154 22 50
293 521 466 84 21 31
259 603 332 45 26 29
356 499 175 166 7 34
276 195 295 113 93 72
361 19 298 96 33 40
366 489 407 67 30 25
353 411 164 94 78 61
356 29 292 120 51 55
360 27 295 127 28 49
290 199 286 108 85 60
410 554 247 146 19 42
364 23 295 105 35 46
336 491 457 87 26 36
317 568 198 83 32 36
451 854 366 79 63 51
263 509 199 41 34 37
346 264 307 108 86 61
366 24 293 106 40 48
336 580 349 184 10 56
298 894 336 172 125 108
300 492 322 85 61 47
366 29 291 119 43 55
370 19 291 102 28 42
376 508 392 54 26 29
383 364 272 125 100 70
370 28 290 112 40 47
386 464 197 44 34 34
345 279 265 95 80 64
276 804 325 186 142 112
356 38 285 121 14 45
361 44 283 117 95 73
341 493 447 39 26 28
361 41 284 111 82 64
361 49 282 108 25 42
356 54 281 103 53 49
414 486 254 90 16 24
379 131 280 112 90 67
305 400 242 88 75 60
356 64 279 104 41 45
252 624 272 135 25 47
361 65 279 113 90 70
370 464 168 151 15 39
384 894 246 59 50 51
472 859 352 92 76 64
356 59 280 113 91 68
335 851 265 163 109 82
366 64 280 104 49 46
396 768 204 81 61 53
331 729 230 138 6 34
383 37 261 94 80 61
335 483 154 126 38 49
335 407 200 96 82 67
382 34 267 84 37 30
333 280 274 84 72 59
382 34 272 96 19 36
371 34 286 110 51 53
356 482 382 55 38 26
416 815 231 66 53 49
371 38 285 118 13 43
395 464 228 111 17 30
452 806 246 81 64 57
326 507 164 184 5 40
371 40 284 109 29 43
377 34 283 110 28 43
366 182 294 116 95 73
374 37 285 119 13 43
374 47 280 113 18 41
341 383 241 97 84 71
410 576 344 193 130 113
391 739 193 61 48 41
376 909 247 73 64 65
258 258 259 142 99 67
366 839 311 136 109 85
357 184 291 106 88 68
382 64 273 99 42 45
273 390 325 130 99 72
376 64 276 92 47 43
369 62 280 112 23 42
380 53 275 101 39 43
300 469 152 72 29 35
403 761 205 73 57 52
385 405 212 134 15 39
383 51 274 111 6 41
263 656 329 169 110 91
370 304 263 116 94 69
410 509 243 113 11 28
382 54 274 107 10 38
246 544 317 57 28 34
396 410 292 66 40 34
380 64 275 97 17 33
262 654 287 98 33 36
291 749 336 172 19 56
382 59 273 109 9 38
245 628 321 103 81 55
391 562 326 62 22 29
380 534 202 85 35 42
394 913 268 58 51 54
358 32 290 133 22 51
315 547 407 173 15 52
384 69 270 118 97 76
361 32 290 100 57 52
422 661 259 84 71 57
347 69 262 124 21 40
347 69 267 105 45 46
356 371 244 99 85 73
238 588 267 176 0 47
348 68 271 103 15 37
278 153 279 107 86 61
306 959 347 62 58 57
325 970 312 81 77 78
251 660 339 186 127 102
349 75 262 115 45 46
250 624 282 50 31 35
350 79 262 122 36 46
404 608 258 35 33 36
436 530 407 95 53 53
290 429 330 138 102 79
340 249 282 109 88 64
348 72 270 105 6 40
351 74 272 96 73 56
356 407 177 96 80 63
350 79 267 104 20 38
349 66 274 103 2 38
326 729 343 176 5 56
352 69 276 97 68 55
275 590 225 171 1 34
360 815 221 63 51 47
399 844 213 78 65 61
352 84 262 103 79 57
316 422 157 84 69 51
351 84 267 107 72 58
336 619 228 104 29 39
352 84 272 96 18 37
311 419 172 87 72 56
388 234 261 132 100 62
233 557 254 120 35 44
370 592 219 150 34 58
372 699 212 69 56 46
353 73 275 106 86 65
277 577 219 131 21 45
447 530 391 193 131 109
378 492 404 75 29 29
380 224 296 118 94 66
294 758 240 134 15 30
331 894 363 179 131 111
265 502 374 34 29 32
356 74 276 103 85 66
356 79 276 99 76 59
361 74 278 100 32 42
314 858 305 115 83 62
382 509 197 73 28 37
361 79 278 99 22 37
381 599 226 99 31 42
261 554 392 70 30 36
379 104 275 114 92 66
296 399 241 95 81 67
291 664 322 139 18 46
355 874 346 144 115 91
366 74 278 108 17 40
353 84 258 122 32 41
353 89 258 126 19 41
401 814 217 72 57 52
311 462 139 181 4 39
352 89 262 107 61 50
404 486 370 72 14 28
353 89 271 94 50 46
341 493 442 41 26 28
279 451 351 85 24 34
352 94 262 120 23 41
272 518 194 161 2 38
346 919 377 54 48 46
355 94 273 97 53 48
347 809 227 63 53 50
354 84 274 97 27 36
289 250 305 112 89 63
351 510 392 91 25 38
356 84 276 99 32 41
357 89 276 100 15 38
331 864 349 160 129 100
434 500 323 134 20 39
410 534 332 83 23 35
357 94 275 97 72 58
248 527 377 136 24 46
413 456 370 103 0 33
361 94 277 98 69 56
366 84 278 115 96 73
314 912 285 71 61 59
382 69 272 109 81 65
433 492 361 68 30 33
263 194 290 112 92 71
382 74 273 105 81 63
371 487 393 54 34 23
382 79 273 102 42 45
371 69 277 105 80 65
479 777 260 102 72 60
371 79 276 94 48 43
388 871 235 66 60 59
351 347 255 92 81 70
376 74 275 110 18 41
258 609 317 61 28 33
379 74 275 103 25 37
432 859 327 50 44 39
379 79 275 105 17 36
283 564 482 180 10 56
361 494 174 164 9 35
408 517 456 176 24 60
371 599 223 68 35 39
366 694 227 58 41 38
371 84 277 97 69 54
360 424 143 163 19 37
371 89 278 102 35 42
372 689 207 63 50 41
382 904 239 71 57 56
344 228 284 109 87 64
376 84 276 96 27 40
418 871 265 74 62 60
455 518 392 194 133 119
376 89 277 97 53 47
331 427 130 91 69 48
267 309 268 129 97 67
382 84 274 91 55 45
456 813 257 83 67 65
381 94 276 103 39 44
434 701 229 76 57 43
470 744 242 89 68 52
375 504 188 151 14 34
371 739 336 155 28 56
322 384 267 67 57 48
313 293 297 86 68 46
383 92 274 98 80 59
311 402 235 83 69 54
353 97 262 122 13 41
356 104 262 126 94 70
354 96 269 102 60 54
356 99 272 105 85 63
244 570 241 92 32 39
390 69 265 106 20 36
439 827 264 79 64 58
255 634 292 83 34 39
358 108 259 131 98 72
353 502 415 72 5 24
263 837 302 206 134 110
331 449 138 173 5 38
389 459 218 99 29 40
475 798 293 72 60 48
359 110 260 127 97 66
356 109 267 118 92 65
357 109 272 105 85 63
384 374 272 125 99 70
366 619 326 128 23 47
361 99 277 110 90 69
387 954 322 53 48 47
261 429 206 124 7 30
358 104 275 105 85 64
416 559 287 121 22 45
423 886 328 56 49 48
361 109 277 106 86 65
366 104 279 113 92 71
338 566 200 80 32 29
368 111 280 112 91 68
361 639 235 76 29 34
255 590 323 52 25 28
341 425 133 89 61 44
415 509 252 139 18 40
358 114 262 122 95 67
358 119 263 120 94 65
357 114 267 115 91 64
316 779 238 78 61 51
298 234 260 122 95 61
358 114 272 106 85 62
380 384 253 110 91 70
320 508 436 142 23 51
375 239 301 121 95 64
386 917 242 72 63 61
364 617 229 47 39 43
274 562 494 90 0 28
391 883 247 71 64 64
372 274 303 128 95 61
246 669 289 123 90 56
358 119 267 113 90 64
276 581 407 189 124 106
306 279 277 87 74 61
358 119 272 104 83 60
326 405 222 91 77 63
332 491 462 59 26 29
319 893 290 120 97 72
360 124 261 119 93 62
301 619 333 139 21 47
246 558 352 95 22 34
351 494 426 65 21 29
358 129 263 118 94 65
357 124 267 113 90 65
325 930 260 85 73 72
271 169 287 110 91 70
330 383 260 82 68 54
358 129 267 114 91 66
362 119 258 122 94 63
347 495 170 165 13 41
321 569 198 129 30 46
362 124 259 122 94 63
362 129 258 121 95 64
346 955 276 89 84 88
327 491 473 141 16 47
346 579 349 184 14 58
312 843 263 64 55 55
359 114 274 104 84 63
389 144 262 117 94 67
360 129 278 103 83 60
364 118 279 107 87 64
366 114 280 111 90 66
441 869 322 78 65 59
282 290 315 118 92 64
362 129 280 106 85 63
396 681 233 59 50 46
366 124 281 110 89 67
287 444 329 121 86 68
256 814 277 186 124 94
376 699 217 48 41 37
366 129 282 109 89 66
336 390 237 96 82 67
371 99 278 115 94 71
371 104 279 117 95 71
451 878 368 87 74 63
371 109 279 115 93 69
381 429 172 143 23 42
345 503 173 178 8 39
439 514 327 178 16 51
251 567 357 51 30 35
409 454 342 46 28 32
362 524 373 102 25 43
320 344 276 65 62 61
381 99 275 107 60 54
321 344 267 62 55 50
382 104 273 118 93 66
343 852 259 95 68 60
272 349 264 100 84 69
276 464 182 129 2 31
376 114 278 115 93 69
377 119 278 114 92 69
238 522 325 43 28 33
370 115 280 114 92 69
374 119 280 113 92 68
380 419 167 138 19 39
297 274 266 86 73 61
371 129 282 112 91 69
411 495 382 55 18 25
376 129 281 112 90 66
311 779 327 76 63 57
236 664 322 157 111 82
316 438 129 185 12 41
346 843 319 122 98 74
243 548 223 154 7 43
380 114 275 117 94 69
401 698 206 60 47 41
447 498 377 82 37 33
291 474 321 99 69 55
383 454 185 44 32 34
402 760 319 83 67 60
339 806 240 69 54 48
385 958 297 82 75 75
380 119 276 117 94 69
445 499 372 71 30 32
406 764 316 83 67 59
299 713 344 106 27 44
383 119 274 117 95 70
311 739 233 79 31 39
326 409 307 115 74 63
377 123 279 113 91 67
381 124 276 114 92 66
328 290 297 73 60 46
516 835 328 96 81 69
406 678 257 54 41 46
358 520 379 97 32 44
257 134 271 110 91 72
257 139 271 110 91 72
460 789 282 133 92 67
262 139 276 108 90 71
346 499 417 86 23 37
261 144 277 109 91 73
341 634 330 67 31 37
266 134 277 109 90 71
393 214 277 124 97 65
291 819 317 138 109 88
266 139 278 109 90 70
371 474 357 64 39 28
374 344 300 133 103 71
282 459 178 129 2 32
411 539 332 69 27 36
271 139 279 111 91 70
267 144 280 111 91 71
429 698 219 62 48 37
318 394 277 81 58 46
266 444 197 116 10 27
321 421 157 87 71 53
270 141 280 111 92 71
381 674 241 80 41 28
267 729 263 114 15 37
271 144 280 111 91 70
258 146 275 111 93 74
315 304 282 80 70 62
357 309 314 128 92 62
271 634 342 175 118 99
343 229 282 110 89 64
252 784 268 154 105 70
258 149 275 113 93 74
358 736 224 53 39 34
256 714 327 176 123 99
329 359 314 129 88 71
326 412 187 92 77 62
261 149 277 111 92 72
260 154 278 111 92 72
257 199 286 116 94 72
261 159 281 111 92 73
277 669 258 148 1 39
273 566 465 165 14 50
266 149 281 110 91 72
377 768 204 74 57 48
435 495 347 44 26 28
302 259 287 110 87 60
271 149 282 110 90 69
269 642 336 168 113 94
328 863 284 174 127 95
304 933 291 54 52 54
266 154 282 110 92 72
266 159 283 110 91 72
336 744 231 73 28 36
437 529 422 77 29 40
250 552 362 38 29 30
422 498 287 88 22 27
294 210 282 108 85 58
458 514 402 150 109 91
256 654 291 101 70 43
271 154 283 110 91 70
404 849 228 61 53 51
366 454 319 88 66 49
271 160 285 110 91 70
276 529 196 164 0 34
288 429 163 67 51 44
282 134 267 106 82 53
381 419 312 91 66 46
282 144 262 104 83 60
299 496 175 162 0 36
379 411 169 147 39 37
282 139 267 107 83 56
417 479 277 150 15 42
323 506 433 71 27 33
250 814 287 196 133 104
378 721 199 62 49 43
276 139 277 109 88 63
329 844 309 107 73 58
279 140 275 107 83 56
279 145 275 106 84 59
291 429 157 102 62 51
356 977 320 55 51 51
284 151 264 104 83 60
291 407 232 97 83 68
297 590 348 162 16 52
451 530 414 175 109 103
283 149 267 104 82 57
264 428 205 121 6 34
356 564 202 172 6 39
282 149 272 106 83 56
284 151 266 102 81 56
437 683 256 109 87 61
382 639 245 77 26 30
283 159 260 110 90 67
385 444 192 80 33 37
284 154 262 106 86 64
439 497 384 66 22 24
261 394 317 127 99 71
361 259 255 106 86 64
284 156 259 109 89 68
387 394 262 114 93 70
410 867 347 34 32 33
284 159 262 108 88 66
379 304 287 125 94 65
251 734 276 117 88 56
283 153 273 105 83 56
387 394 267 117 95 70
376 214 297 121 97 70
285 159 267 104 83 59
463 788 246 57 46 43
371 889 341 90 72 59
374 713 210 62 48 42
284 159 272 103 82 57
408 449 332 125 19 42
387 394 272 119 96 68
300 239 267 116 91 62
275 149 280 108 88 65
406 513 442 111 26 43
282 159 277 106 84 59
402 534 377 140 89 85
394 64 260 113 86 73
288 616 329 44 27 27
391 418 307 88 37 34
298 436 134 134 26 24
336 294 267 92 79 66
280 160 280 107 86 62
283 158 274 104 83 57
401 449 352 102 0 29
284 160 275 105 84 58
380 846 305 90 73 59
400 505 462 82 14 32
387 394 277 122 97 68
312 962 345 61 56 55
384 504 198 149 14 39
259 162 279 112 93 74
261 164 282 112 93 74
321 329 277 60 52 44
356 944 367 63 56 53
341 459 313 66 49 32
258 165 280 114 94 74
261 169 283 113 94 74
263 425 221 118 9 35
391 929 277 64 56 58
260 174 283 115 96 76
261 319 297 132 100 73
362 439 151 155 9 35
343 869 267 74 60 55
375 334 267 118 95 70
476 795 282 86 68 55
373 500 185 159 15 40
263 171 285 114 94 75
434 595 317 144 105 68
321 430 129 142 45 41
475 842 328 87 71 57
262 174 285 115 96 77
265 163 284 112 93 74
306 959 307 81 76 76
422 493 302 81 21 28
342 829 247 54 45 46
268 161 285 110 91 71
264 168 284 113 94 75
230 515 312 192 4 55
261 184 286 116 96 76
247 729 321 177 121 97
251 729 323 178 124 99
251 579 232 131 27 45
336 381 247 96 82 68
262 179 286 116 97 78
295 209 272 109 87 62
248 613 301 151 12 48
274 403 245 102 87 70
266 179 288 114 95 76
283 162 257 109 89 68
298 938 340 181 131 111
281 794 325 177 132 100
441 864 312 73 59 56
284 161 259 111 91 69
271 794 326 180 140 108
386 394 257 109 90 69
287 169 262 108 88 67
351 264 262 104 85 64
337 879 278 109 86 66
381 389 302 124 97 64
286 164 267 104 83 60
336 495 442 47 27 31
298 947 332 71 58 55
346 359 252 89 78 68
287 169 267 103 82 58
310 299 316 109 85 58
286 169 272 104 83 58
288 173 262 108 88 66
383 369 267 124 99 71
280 574 442 169 112 104
287 174 272 104 83 59
274 161 285 111 91 69
373 369 250 107 90 73
289 572 412 167 112 101
276 169 286 110 90 68
278 168 284 108 88 65
362 449 155 155 11 37
279 171 285 107 86 63
280 175 286 108 88 65
256 574 222 70 33 38
334 384 314 132 92 76
336 960 280 86 83 87
271 174 289 111 91 70
466 789 276 74 60 50
283 164 278 106 84 58
283 168 279 106 84 59
284 164 276 105 83 58
285 169 277 104 82 57
256 533 382 151 4 41
286 174 277 104 83 58
335 826 250 78 60 53
521 842 327 99 83 71
284 170 280 106 84 58
370 713 226 80 33 32
361 406 174 95 78 60
257 534 367 165 0 47
285 174 281 105 84 59
293 634 325 107 20 39
397 587 320 77 47 45
359 139 279 103 82 58
281 179 286 108 88 65
359 768 206 59 49 46
344 416 314 132 94 77
270 178 289 114 95 76
321 504 162 111 27 42
287 179 277 103 81 56
283 178 284 105 84 60
281 184 288 108 88 65
284 181 285 105 84 59
288 188 283 106 84 58
286 589 221 196 10 44
412 513 421 160 16 52
436 519 442 112 19 40
285 189 286 108 86 62
265 184 289 114 94 74
268 181 290 115 96 76
336 434 132 79 39 41
395 504 447 94 13 32
262 435 331 102 35 33
271 184 291 112 93 73
307 404 243 85 71 57
275 180 290 111 91 71
276 189 292 113 93 72
417 479 381 62 15 23
279 185 290 111 91 69
280 189 291 110 90 68
432 526 324 62 32 32
316 789 323 72 59 53
336 904 362 103 83 67
289 176 258 113 92 68
414 556 317 72 33 37
317 904 356 88 65 63
394 92 260 114 48 51
289 176 262 109 88 66
252 587 460 180 121 116
264 459 338 107 16 37
289 176 267 107 86 63
290 184 262 110 89 67
242 579 302 74 29 36
293 914 322 130 110 98
289 179 267 107 86 63
289 180 272 106 84 60
322 476 289 40 25 23
316 846 341 156 123 103
349 422 140 92 78 59
290 184 267 107 86 63
290 184 272 106 85 61
317 394 257 70 56 42
441 494 372 90 29 37
409 504 244 114 8 29
292 189 262 111 90 68
271 259 253 135 100 65
318 488 290 51 32 27
378 310 287 127 96 65
375 294 268 117 94 68
298 219 262 117 94 66
281 259 252 133 102 68
421 524 361 130 86 66
326 478 342 62 44 30
297 219 267 113 91 67
427 709 217 73 57 44
233 558 290 173 0 51
292 189 267 107 86 63
324 752 340 70 60 55
383 926 364 54 48 47
300 502 424 89 36 34
277 608 233 193 9 45
289 181 276 103 82 56
275 578 472 144 26 53
266 254 303 118 93 68
289 184 277 101 80 55
297 219 277 112 89 63
318 404 267 73 57 42
290 189 277 100 79 54
421 559 282 166 25 53
389 957 303 57 52 52
289 186 280 103 82 58
412 464 317 107 23 39
341 429 132 79 47 46
257 195 285 117 96 74
336 482 316 58 43 28
261 194 288 114 94 72
306 589 217 145 18 41
388 429 212 111 21 37
295 476 339 65 36 30
260 199 288 115 94 72
276 394 248 103 88 73
305 503 477 186 17 57
286 194 287 108 86 62
261 509 202 42 34 38
398 906 270 74 66 66
346 419 316 133 95 77
441 709 233 92 70 49
287 199 288 107 85 60
259 208 289 115 94 72
258 284 272 148 101 73
261 209 292 114 93 71
404 469 238 72 26 29
444 679 290 159 105 76
236 649 322 148 105 73
266 194 292 113 93 72
385 39 267 89 29 34
399 436 319 104 0 32
434 480 391 68 11 27
281 194 292 111 90 69
486 797 282 92 70 58
429 491 338 69 26 24
326 394 242 81 66 51
351 966 344 66 62 64
396 880 337 34 32 32
271 194 294 112 93 72
269 198 294 112 93 71
391 184 277 119 96 69
279 318 265 93 77 59
348 857 338 123 96 70
271 199 296 112 93 72
401 454 237 83 29 36
272 195 295 112 92 71
321 966 337 61 56 55
398 414 257 106 25 40
267 204 295 112 92 71
385 536 349 130 15 41
307 454 312 122 87 71
366 299 262 103 86 68
342 380 243 97 84 70
