ply
format ascii 1.0
comment Created by Open3D
element vertex 2224
property double x
property double y
property double z
property uchar red
property uchar green
property uchar blue
end_header
355 349 230 117 93 65
435 416 215 87 33 31
319 174 220 109 89 67
327 841 307 62 49 38
393 619 199 100 67 50
400 449 240 68 24 33
340 99 356 121 26 48
220 459 180 68 58 47
197 496 170 82 43 43
219 463 179 68 55 45
382 866 330 59 51 53
251 875 300 107 82 63
251 369 270 126 99 70
250 506 153 163 4 44
358 436 107 124 55 52
440 789 367 94 78 61
347 119 218 119 98 74
349 103 349 129 21 49
417 539 211 139 18 44
358 686 298 109 9 32
246 471 146 105 28 39
225 458 179 67 55 44
240 479 135 99 38 42
350 674 197 74 32 37
330 289 242 135 102 75
243 585 280 110 21 39
226 460 177 71 49 41
440 524 189 172 122 105
295 549 332 128 30 51
345 114 340 134 17 48
324 635 198 61 35 40
223 462 178 67 50 45
239 754 289 178 123 92
262 512 117 141 10 35
216 480 165 76 41 39
343 462 107 163 19 48
365 814 305 41 37 37
211 480 171 84 38 32
250 669 296 131 96 70
374 409 205 108 94 79
213 477 173 72 50 42
306 464 332 95 25 39
426 749 215 153 108 78
316 304 192 87 73 57
215 474 174 72 48 42
216 475 171 81 37 31
261 718 321 139 104 76
220 469 174 74 50 42
271 503 101 61 35 38
320 329 246 130 94 76
381 424 270 135 9 42
310 724 330 133 24 47
221 470 171 76 39 36
221 475 166 73 46 39
247 364 263 127 99 69
209 469 185 74 46 40
200 494 165 72 35 34
334 883 219 81 71 64
368 441 352 70 23 32
307 39 240 137 34 47
300 182 273 102 86 68
339 253 243 126 97 69
313 381 263 71 55 39
211 470 181 69 56 46
305 164 316 132 99 72
214 468 179 67 56 47
290 14 300 137 59 62
264 489 326 36 29 30
410 478 162 89 31 38
289 577 172 207 12 45
210 474 180 68 56 44
261 534 136 186 13 40
226 454 224 133 4 41
315 134 295 115 89 59
305 29 295 146 44 54
310 921 352 61 55 53
337 441 102 131 66 51
233 504 275 72 23 33
319 447 105 99 71 49
397 608 232 53 18 25
245 453 174 74 46 36
208 473 184 70 49 43
215 571 243 95 74 52
345 444 335 134 12 42
405 800 354 46 38 33
315 18 300 112 48 49
253 610 297 172 11 55
205 494 145 71 24 26
324 139 230 121 96 69
324 134 230 121 94 69
258 499 322 55 30 31
315 114 294 118 86 54
275 944 250 85 77 76
216 524 235 161 0 49
266 564 319 165 16 52
391 844 326 54 44 46
200 494 160 76 36 34
227 570 243 40 27 26
385 549 290 53 26 31
205 493 150 68 15 28
400 833 230 145 99 81
412 487 242 135 15 42
347 188 242 114 91 65
170 514 165 165 58 77
219 499 230 118 4 38
370 507 162 39 35 38
328 451 87 81 70 46
207 491 151 65 28 29
258 248 254 110 91 71
225 494 235 104 10 35
383 597 268 176 11 56
348 45 222 119 36 36
250 654 259 143 95 74
204 493 155 68 13 28
307 225 263 98 80 62
293 26 250 153 35 56
370 394 230 96 79 62
301 23 221 155 14 46
206 491 155 64 24 30
257 700 261 96 18 34
394 426 136 121 21 26
222 501 238 113 2 39
206 490 160 67 31 34
234 509 140 94 21 30
351 339 200 96 84 71
301 284 205 85 74 63
430 749 349 81 64 44
356 339 215 106 87 67
254 399 281 125 99 72
325 908 364 71 63 60
195 503 130 102 25 34
296 33 306 152 35 56
461 454 166 95 23 38
315 129 295 117 90 58
295 954 330 65 60 59
352 329 227 122 96 65
232 749 310 174 119 90
194 502 134 90 27 33
208 536 153 141 4 41
330 397 265 58 50 42
330 719 184 118 15 31
235 494 270 110 14 36
249 458 164 75 51 33
207 461 196 116 16 39
358 419 346 98 22 37
196 501 136 84 25 31
371 534 167 51 35 37
240 804 325 180 125 100
340 134 240 106 84 60
328 44 328 116 98 79
350 124 241 113 84 57
264 724 233 134 11 40
295 944 340 83 76 75
356 234 199 126 100 68
200 499 135 85 25 32
415 739 356 68 55 43
300 22 331 75 66 58
324 805 229 175 125 99
270 739 235 189 10 49
319 614 313 48 28 31
305 164 281 106 86 63
332 140 212 114 95 74
333 437 133 93 75 56
313 85 342 109 91 77
265 274 284 146 104 80
382 673 262 50 30 32
195 499 145 74 28 31
371 654 204 64 36 40
239 529 150 93 16 30
195 500 140 79 27 31
221 548 175 171 9 46
334 825 234 181 130 107
300 284 255 127 89 64
295 598 323 110 29 43
280 569 327 169 18 53
252 934 309 144 104 88
280 429 309 52 28 30
354 830 224 84 68 64
193 502 138 84 28 33
245 739 331 150 111 82
280 609 319 160 25 56
360 249 205 132 100 65
277 18 246 125 65 44
200 498 140 78 26 30
327 154 233 101 83 64
380 30 238 79 22 28
355 834 304 35 31 30
242 386 263 127 99 69
231 553 165 169 15 52
460 706 393 100 82 68
234 449 260 137 1 40
211 495 130 67 27 34
253 584 194 152 11 43
203 497 139 79 27 30
220 584 251 91 72 51
381 758 313 42 35 30
195 498 150 80 34 35
432 571 178 170 116 88
360 159 220 113 93 70
320 543 333 86 33 40
473 454 146 127 36 47
433 569 194 164 116 87
265 934 340 64 59 58
396 437 212 115 1 35
319 878 367 43 40 40
195 498 155 92 44 42
216 542 155 153 25 54
198 497 154 86 49 45
295 27 241 157 28 56
239 571 194 174 17 52
428 842 393 90 73 61
400 444 215 79 14 29
425 709 300 68 47 38
351 304 204 98 83 66
210 494 135 73 24 32
303 803 338 77 58 48
306 224 296 141 105 75
302 461 82 72 61 45
319 784 334 69 55 46
235 453 179 67 51 42
344 763 319 57 44 37
216 491 130 69 31 32
216 490 135 72 35 33
431 724 340 74 54 42
395 469 266 80 24 35
361 449 115 137 22 43
214 493 130 70 34 35
310 309 195 82 71 59
339 825 229 194 141 119
365 374 210 104 88 71
316 748 202 49 35 40
448 808 375 95 74 57
211 513 92 127 26 31
389 558 181 167 0 38
214 492 134 73 29 33
324 54 297 106 81 58
238 571 265 127 14 42
349 902 364 64 55 52
361 249 210 129 97 63
289 899 320 50 46 46
212 491 141 65 24 26
368 842 377 61 50 41
210 493 140 68 24 28
270 271 232 100 88 77
362 606 183 154 17 41
436 539 169 163 109 81
270 239 249 102 90 77
351 580 312 193 3 62
410 509 159 130 8 30
225 509 255 52 24 30
220 542 145 197 9 50
262 529 323 84 28 42
321 99 230 125 101 74
235 504 280 91 27 38
306 54 339 104 21 39
209 492 145 68 12 31
329 59 301 108 18 41
350 229 196 122 98 72
329 39 305 113 75 65
293 692 218 44 32 39
425 559 171 155 104 74
290 515 115 165 19 44
215 489 140 69 36 32
215 488 145 71 37 32
220 488 130 71 21 31
338 744 323 96 25 39
295 404 195 69 58 48
279 899 350 50 45 45
250 374 270 126 99 70
315 139 322 133 97 70
317 98 348 124 26 48
233 751 311 174 119 89
241 384 260 125 97 67
222 486 128 56 10 28
314 424 329 100 20 34
252 682 302 131 101 72
190 514 110 160 19 37
307 229 263 100 81 59
220 488 135 69 30 32
200 525 216 33 26 25
398 567 254 89 25 35
216 510 244 116 8 36
230 734 305 172 116 88
235 659 255 181 127 103
225 485 135 75 26 29
346 218 198 116 95 72
223 487 133 61 18 28
260 464 145 83 56 38
322 104 230 126 101 74
296 49 320 133 19 46
222 486 136 61 23 22
232 558 255 104 14 39
213 487 154 70 39 30
346 485 135 188 9 41
355 839 345 37 32 31
315 199 290 127 98 65
291 399 190 68 58 48
336 33 251 89 22 34
278 626 312 38 26 28
349 364 243 121 95 63
350 159 209 114 95 74
280 759 240 83 64 57
233 459 242 95 14 33
395 449 220 83 16 36
324 99 241 134 101 80
218 487 143 64 33 28
424 509 216 123 20 44
422 509 213 129 12 40
225 484 140 78 35 35
214 487 150 72 35 29
305 214 300 142 104 75
409 574 190 99 55 42
335 164 240 91 75 59
335 174 241 92 75 58
255 634 260 135 31 42
349 99 349 116 31 46
314 259 232 73 63 53
335 299 241 131 100 74
203 488 174 62 29 28
374 109 235 118 73 64
418 654 194 164 111 82
300 939 240 78 69 69
410 761 271 56 39 41
461 510 180 202 137 120
236 504 140 73 29 38
318 280 193 103 84 63
310 74 296 128 24 36
314 419 329 131 13 41
325 69 225 117 64 54
225 604 265 118 94 69
306 500 108 134 30 45
216 486 150 76 40 35
209 488 160 72 48 46
296 929 232 89 77 75
250 464 155 91 45 37
448 438 229 160 10 50
282 441 162 81 65 47
211 485 160 70 47 38
234 484 245 81 27 36
445 703 403 85 85 85
325 454 85 98 59 43
297 536 138 210 11 48
374 599 280 162 19 54
373 108 244 127 23 47
350 334 200 100 86 72
312 210 216 98 82 66
345 734 316 56 25 29
417 434 148 60 37 41
309 239 205 104 87 69
310 369 255 85 63 45
423 529 174 120 68 57
215 483 160 69 45 36
455 515 175 207 138 118
379 464 325 117 28 44
212 486 156 73 56 44
379 824 380 79 60 46
437 809 379 83 72 62
263 252 243 102 88 75
208 492 148 65 13 28
421 739 299 56 43 38
298 299 250 124 88 65
330 134 214 116 97 75
337 112 243 126 93 69
243 398 267 124 97 67
220 484 150 72 43 37
270 869 310 127 98 78
322 174 229 93 78 62
403 450 258 100 21 40
255 450 170 74 57 39
342 896 233 65 58 60
380 74 224 142 24 40
420 589 175 147 102 65
263 476 88 175 9 37
217 486 146 77 42 40
345 69 254 111 77 68
329 119 315 108 60 46
225 480 150 69 43 38
315 754 210 87 68 59
315 219 225 84 71 59
391 629 230 55 23 31
240 463 165 71 43 35
336 609 307 49 30 33
224 482 149 69 43 39
322 971 302 62 57 56
218 482 158 65 43 37
285 674 314 37 29 29
205 488 194 66 37 32
197 496 175 74 45 40
244 584 290 80 24 37
281 364 211 69 57 47
255 264 270 123 96 64
412 809 195 167 114 85
285 885 340 40 37 37
242 564 284 39 27 30
423 736 362 88 75 60
199 493 175 64 34 35
307 243 263 113 88 59
323 178 232 92 78 63
204 488 170 66 30 26
453 512 162 214 143 118
395 764 320 52 42 35
232 496 129 138 7 25
425 689 301 80 62 45
275 419 303 89 20 32
351 294 226 134 101 80
212 485 218 33 27 29
380 410 354 68 52 44
370 94 250 115 6 41
207 485 171 67 35 31
414 594 213 119 80 66
402 559 245 67 28 35
415 779 325 54 42 41
329 478 106 136 18 42
320 344 245 102 75 55
295 27 250 154 31 55
363 242 224 126 94 61
202 491 170 67 27 25
322 134 304 121 95 64
195 484 190 56 35 31
194 488 189 60 26 33
330 183 203 119 99 77
325 609 188 91 25 39
425 494 160 47 37 38
295 204 264 100 85 69
415 449 153 130 7 31
384 564 284 142 20 48
314 873 361 37 35 34
199 486 187 56 34 22
232 489 244 87 30 36
373 406 334 70 60 51
327 701 192 61 32 29
197 496 179 65 41 35
300 12 229 176 134 135
408 612 218 113 81 65
335 964 300 53 49 49
198 494 185 56 37 32
292 324 202 99 76 50
253 413 292 51 33 32
317 169 294 118 92 62
210 534 130 179 13 50
354 882 212 91 76 68
204 494 212 81 16 32
192 491 187 57 40 30
323 21 318 67 59 53
365 104 251 106 24 40
238 564 277 59 33 35
255 828 320 192 123 99
315 917 226 85 77 75
318 163 308 134 98 70
195 494 186 59 40 32
237 424 269 136 7 41
203 488 180 62 44 37
371 398 204 121 102 83
375 484 154 147 21 42
203 468 206 69 30 31
330 249 193 118 95 66
465 444 165 78 21 32
205 484 180 63 50 40
334 478 111 108 24 39
315 13 220 94 50 40
241 469 295 105 21 40
212 542 166 170 17 52
204 488 185 60 41 34
221 510 250 113 14 37
340 249 243 123 96 68
303 359 260 108 82 57
316 189 290 124 96 64
205 488 190 63 40 35
327 876 317 30 29 30
357 891 244 73 64 63
195 554 225 165 121 96
350 54 254 94 24 34
305 134 290 108 84 55
194 504 210 110 2 34
335 44 219 137 62 56
201 490 180 60 42 35
370 829 375 68 53 42
248 486 133 112 26 33
364 539 324 35 29 31
194 499 175 87 45 42
432 521 196 117 47 56
249 614 255 110 26 37
193 502 176 99 57 52
236 489 270 101 20 38
245 579 205 106 27 41
234 454 255 109 12 37
443 738 375 99 81 67
340 115 242 123 91 66
196 499 180 73 41 36
425 749 220 162 112 84
418 428 222 46 21 22
257 254 274 118 93 64
438 881 374 103 85 67
235 499 135 123 14 39
322 250 238 82 66 48
357 896 344 68 60 61
355 769 310 38 32 27
194 503 180 93 52 46
303 64 337 119 16 42
338 507 147 188 8 43
349 299 229 129 95 73
340 554 326 191 13 60
193 507 186 85 50 39
290 19 260 119 83 66
240 624 245 148 93 77
208 487 164 66 14 26
295 210 262 100 85 69
445 474 191 89 35 42
289 789 343 161 114 85
240 473 150 97 33 36
236 504 285 44 29 31
214 482 164 81 29 30
412 805 193 166 114 84
240 480 130 90 35 40
220 659 255 206 139 110
423 703 292 70 54 42
235 479 140 111 29 33
372 397 208 98 84 71
362 120 237 131 100 73
285 279 229 92 79 67
416 554 185 104 56 43
424 768 300 75 55 46
408 509 264 157 17 48
230 480 145 91 37 35
306 694 206 95 24 32
322 94 227 128 41 48
239 478 140 103 34 36
238 477 143 100 29 33
299 29 336 95 37 42
421 739 221 160 112 83
215 464 215 38 27 26
351 204 242 117 92 63
383 754 188 142 103 67
400 664 222 125 80 57
384 614 197 118 23 36
317 84 348 100 29 40
230 478 150 77 41 36
227 476 156 67 46 39
325 829 241 155 121 95
244 388 266 124 97 68
234 479 245 92 18 35
290 364 205 87 67 45
288 261 237 93 79 65
295 466 75 81 57 27
273 193 279 111 94 75
342 27 229 100 88 76
454 429 225 100 20 38
256 909 276 155 125 99
251 455 166 74 53 35
345 403 275 61 54 47
295 809 339 143 103 80
230 475 155 73 43 37
290 449 140 82 62 43
343 862 372 37 33 31
230 473 160 71 47 38
363 186 228 123 96 63
190 518 145 219 1 59
348 856 297 36 33 34
340 99 217 132 37 41
266 224 285 116 93 68
224 663 277 123 90 60
229 477 154 71 42 37
299 203 308 144 103 74
371 594 286 69 26 35
435 835 379 96 79 65
315 49 255 123 75 70
231 471 161 71 48 38
320 339 245 107 77 58
251 439 299 51 29 30
242 609 255 80 30 34
338 89 218 113 79 56
362 234 209 127 98 64
235 469 160 70 46 38
295 559 154 71 32 38
385 409 320 51 42 35
236 471 156 78 40 35
350 109 220 128 102 71
240 469 155 86 37 36
324 810 234 187 134 110
371 413 199 106 91 76
235 475 150 86 37 34
221 664 275 147 107 78
260 304 269 133 97 76
360 59 254 81 26 32
263 708 238 112 7 31
378 714 199 92 59 44
275 819 290 60 50 48
461 769 395 101 86 72
202 592 231 183 126 98
346 299 199 105 86 66
470 759 395 106 90 75
256 739 245 141 18 48
269 295 217 87 75 64
372 881 321 65 58 57
237 476 147 93 33 33
275 199 295 118 95 70
235 473 155 78 41 36
329 99 300 91 46 40
234 472 158 76 43 37
238 472 153 84 37 35
369 879 260 52 44 44
242 400 268 127 99 69
325 220 197 116 95 71
255 464 150 88 50 37
280 379 209 65 54 43
232 496 255 116 14 42
352 382 247 117 93 66
247 349 259 128 102 72
405 724 231 132 79 65
312 195 301 140 104 77
255 319 265 126 96 70
250 460 160 77 53 34
423 713 317 77 60 45
340 369 188 88 78 68
379 518 308 172 11 54
255 460 155 82 55 37
255 259 265 121 96 66
457 440 180 135 20 45
386 446 139 193 10 38
307 132 323 129 97 76
332 53 320 99 19 35
254 462 154 86 52 37
435 449 236 131 1 41
381 739 305 46 38 32
335 183 203 120 99 75
316 527 338 39 33 33
252 461 156 81 52 35
325 99 225 123 98 69
314 876 314 56 48 42
237 500 138 89 21 43
458 432 189 168 21 52
245 478 130 75 38 41
244 477 134 85 44 47
310 54 250 121 24 46
432 576 184 164 115 84
246 476 136 85 43 45
425 414 225 35 25 23
384 813 390 62 47 33
327 27 322 102 88 73
415 534 231 70 9 27
326 129 234 119 93 70
298 122 298 101 84 66
221 494 229 85 15 34
247 634 258 124 65 52
308 74 298 126 50 43
236 509 285 57 30 33
395 824 295 58 47 45
290 428 174 74 62 49
358 862 324 35 32 35
339 75 340 90 76 61
285 679 230 68 31 36
245 475 140 106 34 39
257 612 222 190 6 49
286 421 308 84 24 35
330 699 319 125 21 43
328 120 237 123 94 71
315 264 196 118 94 66
251 471 142 92 34 39
230 459 175 69 50 40
255 454 165 76 58 37
255 470 140 85 43 39
319 384 250 58 48 38
267 214 284 117 94 69
396 453 215 42 21 29
329 39 258 115 16 43
254 468 144 90 44 38
292 415 315 66 28 34
250 475 130 70 38 38
255 473 130 68 39 36
244 458 169 78 38 32
240 709 270 164 112 81
294 414 330 102 21 38
365 394 200 106 91 75
337 308 193 96 83 69
255 473 135 74 38 39
321 136 322 148 102 81
280 184 300 118 95 69
218 541 144 187 10 48
350 289 201 116 92 65
248 472 143 97 30 39
396 827 192 230 154 124
215 504 235 108 7 33
416 740 365 70 55 43
443 886 378 110 85 63
308 448 333 144 16 45
391 816 345 35 33 32
411 604 216 114 74 63
245 470 150 104 33 39
275 374 211 74 61 49
244 468 154 93 37 37
397 493 276 101 27 41
375 84 225 150 18 42
378 857 230 102 82 68
238 508 146 154 12 44
298 650 218 86 26 38
243 472 148 109 29 38
426 524 206 124 22 45
253 467 148 93 43 38
310 144 320 129 98 69
377 580 184 51 33 38
270 244 295 126 97 69
229 462 173 77 22 32
262 256 242 100 87 74
254 624 245 121 23 40
235 465 166 65 48 41
360 879 220 90 75 67
315 339 192 87 77 68
241 461 166 71 40 29
241 660 293 132 99 69
368 820 203 204 156 126
427 738 343 66 53 46
282 837 312 39 35 37
295 10 310 74 45 43
318 214 232 83 72 62
446 459 186 91 24 38
362 204 230 118 93 64
230 614 271 123 95 69
280 889 340 40 37 36
235 455 176 68 48 40
290 809 340 173 122 95
351 89 218 130 28 36
285 354 277 114 91 64
311 224 210 100 85 69
234 463 169 65 49 40
233 717 312 142 101 72
481 751 413 103 91 81
252 459 309 107 19 37
362 214 220 118 93 64
219 529 235 147 1 44
341 102 248 133 89 76
262 225 274 116 95 71
249 359 265 129 101 71
307 398 282 69 60 50
204 484 212 73 19 30
350 637 192 88 39 42
305 402 315 100 35 40
258 718 243 133 5 36
384 83 231 143 18 42
240 459 170 69 44 36
285 179 275 105 91 77
350 899 366 63 55 52
331 59 310 103 58 49
340 514 337 117 17 40
352 901 361 60 52 50
238 457 173 65 49 39
285 831 326 123 82 63
238 462 168 65 46 39
274 756 243 91 69 62
230 454 180 68 54 44
240 450 180 66 51 42
411 729 359 64 51 41
354 159 239 117 91 60
226 471 166 68 53 42
285 484 338 157 18 49
437 544 174 169 115 88
380 408 220 84 63 53
300 384 190 87 73 58
232 466 167 65 51 42
293 345 268 113 89 61
231 454 235 46 26 32
297 16 222 160 110 111
289 614 210 62 33 37
258 504 120 57 34 34
277 18 250 132 91 63
456 794 395 98 81 64
347 329 198 100 87 73
310 654 209 123 14 36
402 550 188 151 2 35
226 466 172 71 51 40
337 370 188 90 79 70
237 444 270 134 3 38
229 467 168 67 55 44
417 416 218 36 25 24
234 467 164 65 48 41
308 80 337 115 11 40
461 774 410 106 90 75
331 511 144 171 10 46
199 525 135 217 0 59
325 474 330 147 14 46
242 456 172 69 41 27
405 804 185 152 106 69
274 684 239 59 35 40
294 942 241 77 69 68
341 455 99 166 9 41
245 455 171 78 40 32
355 764 194 54 47 50
257 602 206 193 12 48
275 285 281 163 114 92
288 349 208 66 53 41
235 524 265 90 21 37
250 453 170 75 50 34
369 82 222 145 22 38
257 251 252 109 90 69
197 494 208 32 27 27
287 386 209 69 56 42
353 467 122 133 33 50
257 919 277 167 127 101
375 74 254 119 9 44
387 770 313 50 41 35
370 429 120 106 83 65
254 452 169 75 57 38
308 254 204 97 81 64
253 457 163 75 58 35
326 825 317 39 33 29
266 494 328 108 22 41
295 218 258 100 85 69
285 968 280 83 78 79
281 456 130 82 61 39
229 482 139 102 32 34
375 423 155 99 78 61
309 54 299 120 86 58
309 755 338 64 25 31
285 164 285 101 88 74
301 28 235 142 52 57
235 483 129 117 20 39
235 494 265 62 26 32
426 534 166 160 111 86
350 674 301 72 24 32
394 484 280 47 28 30
325 360 187 90 79 69
335 401 310 53 45 37
232 481 137 115 27 32
352 811 307 30 30 30
168 527 177 175 106 93
327 184 238 85 73 61
255 314 265 126 96 70
331 49 310 104 27 38
319 189 225 90 75 60
249 529 175 94 24 39
234 494 131 146 3 34
418 780 357 57 47 40
297 125 296 100 84 66
326 174 234 90 77 63
330 884 371 59 52 49
300 11 305 85 45 43
290 894 250 102 84 63
369 389 206 110 93 75
386 619 245 80 24 36
240 489 135 132 16 41
215 479 219 58 26 29
298 388 189 85 71 57
271 441 171 76 61 44
350 89 252 100 33 42
420 524 234 37 24 25
394 569 265 152 19 51
227 481 146 71 43 38
188 521 168 68 43 43
239 493 136 132 13 44
227 534 249 145 0 44
234 464 255 89 25 39
262 236 257 104 89 74
425 454 234 71 12 26
363 533 328 154 25 54
310 244 270 128 96 65
227 567 210 158 6 40
436 549 190 169 118 94
356 844 373 42 35 30
241 494 140 62 30 37
280 519 334 138 19 46
335 724 321 113 20 39
297 120 301 108 89 69
373 769 307 45 36 30
410 444 231 52 18 22
280 410 299 94 29 32
231 499 130 132 4 31
357 431 132 103 87 67
268 669 254 136 2 37
212 506 233 102 7 32
300 339 255 119 89 60
335 114 242 127 95 73
231 504 130 86 18 33
232 501 133 135 14 35
340 654 198 148 1 36
232 504 133 113 6 38
337 90 318 108 24 38
403 819 330 57 49 49
238 503 142 80 23 30
380 619 196 103 31 41
265 899 264 169 123 98
337 475 333 142 16 45
325 869 335 30 28 29
280 429 180 74 61 46
367 724 297 56 29 26
300 264 250 98 78 56
267 414 202 64 55 46
232 508 133 112 7 33
250 699 314 134 104 74
370 839 220 82 69 66
255 729 330 145 111 81
233 509 135 109 5 30
205 575 213 199 130 101
289 172 278 105 90 75
279 462 94 103 54 37
252 599 298 97 18 38
214 503 226 106 9 33
417 780 286 59 44 39
233 511 132 100 0 37
283 669 233 152 5 39
265 334 273 123 96 68
236 509 144 133 13 34
240 509 150 101 16 34
340 84 218 116 46 36
325 324 191 85 74 64
241 486 133 143 18 49
219 664 265 193 132 104
242 491 138 70 48 36
278 427 307 51 25 28
300 10 240 165 116 112
335 185 202 120 99 75
405 420 175 88 27 31
441 694 345 99 75 53
375 427 130 99 83 60
245 495 144 86 26 37
249 485 130 63 34 44
266 957 276 84 80 82
284 775 343 165 116 88
251 488 130 127 30 50
250 490 135 101 21 36
259 539 144 183 12 40
385 829 354 37 32 28
345 89 354 118 21 45
345 144 211 117 96 73
252 493 136 73 31 45
426 619 190 167 118 87
292 329 201 95 74 50
195 533 181 137 81 79
248 491 138 61 22 44
309 288 232 67 55 42
253 496 139 64 30 29
285 709 321 135 14 42
297 54 320 129 99 76
253 499 317 69 29 33
241 499 144 159 15 42
245 594 285 143 1 42
311 431 162 89 74 57
304 299 231 60 49 37
385 789 325 50 41 35
412 794 275 77 58 48
255 499 135 72 30 37
208 536 150 215 10 57
330 159 209 116 97 75
406 519 158 49 33 37
290 769 342 162 113 85
301 401 330 127 13 38
252 497 142 76 26 34
281 634 230 123 23 42
238 489 290 149 5 44
310 15 300 112 55 53
377 616 267 172 15 53
355 129 240 112 84 55
250 499 145 96 25 39
196 564 210 189 124 96
275 654 306 105 25 42
326 708 322 135 19 46
254 499 140 64 35 37
374 878 329 58 49 52
326 99 244 131 89 77
288 752 337 131 96 72
351 856 332 33 30 31
256 504 140 68 26 34
374 109 240 124 63 68
387 79 235 128 29 45
244 549 165 54 33 40
357 896 352 53 47 46
233 484 242 109 21 39
243 412 277 53 24 28
260 635 255 156 10 41
335 401 300 55 47 38
254 504 145 74 31 35
413 755 234 129 80 63
284 847 274 105 83 56
282 450 329 58 27 32
232 496 260 76 27 34
215 528 116 63 37 41
315 344 191 89 79 70
305 794 339 59 47 42
245 499 146 152 6 35
244 503 147 54 30 37
298 937 237 99 89 88
245 504 150 56 29 34
469 469 170 103 83 62
316 74 240 124 96 71
247 501 148 85 26 28
427 734 340 67 52 42
335 218 198 115 94 71
242 506 148 52 40 33
350 83 253 101 49 46
358 268 228 133 96 71
242 510 153 124 4 31
280 654 235 54 32 38
246 511 158 163 0 44
228 561 199 160 5 37
315 474 331 50 26 30
308 977 298 57 54 55
470 479 160 141 95 78
295 192 268 99 84 67
242 732 277 169 114 84
252 503 146 58 20 34
351 94 335 119 27 41
432 730 331 64 47 35
227 558 195 121 12 42
258 243 259 116 95 71
410 854 387 71 60 50
310 450 110 98 68 45
249 501 148 71 27 35
317 777 222 84 67 60
433 784 356 59 46 42
250 504 150 103 24 37
252 583 196 87 25 35
400 604 230 46 26 28
256 509 145 103 11 39
355 74 254 107 69 64
310 319 194 79 68 57
243 549 281 138 19 45
375 544 164 123 3 27
370 834 340 35 31 31
271 479 329 127 12 38
365 404 285 67 43 39
253 506 148 137 38 39
334 953 318 58 54 54
383 484 309 69 23 33
314 163 313 142 102 77
422 759 226 173 117 93
250 509 156 180 2 37
315 199 210 110 93 75
260 909 325 157 120 101
358 933 299 56 50 49
212 527 224 128 1 43
290 914 242 135 96 74
282 381 206 65 53 41
375 889 305 52 47 47
204 535 160 52 42 43
253 510 154 153 11 35
428 712 364 92 80 67
285 899 354 51 46 45
206 464 195 113 23 37
260 759 255 93 57 59
373 66 222 131 37 32
256 509 319 101 24 42
207 460 204 33 28 30
404 609 184 135 96 62
207 465 209 61 28 30
343 108 331 128 14 40
196 479 195 67 30 27
200 474 195 69 30 28
277 194 298 119 96 71
221 553 195 117 13 35
313 765 223 81 64 57
305 34 340 100 41 43
315 64 235 124 53 51
371 470 347 115 31 47
260 474 320 133 13 42
286 788 257 88 68 60
352 41 356 99 52 35
383 489 309 148 16 46
350 564 320 191 14 62
197 475 200 65 39 33
221 611 268 137 105 76
239 566 184 138 23 44
421 784 200 169 116 86
445 454 220 172 15 53
252 947 301 60 57 58
199 473 200 62 28 28
450 479 194 106 61 58
275 624 230 176 25 50
197 476 196 66 33 26
310 438 150 89 73 54
197 476 204 61 29 34
378 93 231 141 17 42
345 114 243 114 81 57
310 419 335 129 17 42
469 440 160 56 30 37
316 119 339 129 23 49
387 673 227 116 22 38
325 384 249 60 48 35
335 134 213 114 95 74
310 668 317 139 26 49
198 478 207 109 10 39
367 626 193 76 28 33
250 589 210 60 28 33
205 479 211 76 23 33
384 410 220 83 59 47
261 259 284 126 97 68
340 871 307 29 28 29
305 454 100 106 67 45
309 194 304 144 107 79
203 467 200 47 23 26
201 470 204 77 27 34
444 709 355 93 76 59
350 869 305 31 30 32
324 75 252 123 49 54
374 61 253 79 29 25
213 644 260 165 115 88
201 474 209 75 22 35
200 479 209 99 16 34
387 425 340 101 25 37
342 926 332 55 51 51
380 34 238 79 25 27
328 29 217 116 65 51
205 469 210 51 26 30
293 442 153 82 66 48
205 474 211 86 23 34
300 19 220 132 79 75
306 239 290 148 107 82
211 455 200 35 32 33
215 454 195 64 47 42
330 779 211 87 68 61
317 446 112 94 70 45
211 454 205 49 31 32
331 866 336 30 29 29
213 452 206 58 29 37
229 524 260 116 12 40
310 279 196 105 86 66
210 459 195 86 38 37
217 451 196 68 49 42
345 714 314 91 20 34
308 941 243 85 76 78
320 59 295 119 45 47
320 69 250 117 52 57
325 412 173 96 80 63
327 102 243 136 103 84
209 464 211 54 28 30
249 339 260 129 101 72
300 193 268 101 84 66
383 411 216 83 54 43
211 464 213 38 27 27
320 84 230 113 71 56
217 455 214 49 28 29
215 459 215 45 27 29
222 450 218 131 4 38
390 669 194 123 96 67
221 454 219 128 5 40
350 69 221 121 22 31
360 929 295 60 54 52
216 505 239 106 13 32
343 923 247 79 71 70
305 16 217 135 70 66
240 649 289 127 93 70
256 399 284 123 98 71
400 853 385 62 55 48
195 523 120 187 11 58
324 693 198 111 15 26
234 509 275 132 21 45
300 164 280 102 84 64
224 454 221 129 2 41
219 459 217 93 22 38
243 379 261 124 96 65
317 204 228 87 73 59
218 464 217 62 25 29
346 319 235 127 99 69
310 401 285 67 59 50
310 354 253 98 69 50
390 422 155 98 38 35
384 649 230 133 18 44
355 89 252 96 26 37
318 442 133 90 72 52
335 249 193 118 94 67
343 80 252 111 56 52
229 484 236 82 22 36
307 369 260 96 74 49
420 423 165 93 22 35
270 610 210 86 36 43
385 814 380 65 51 39
221 464 219 79 25 34
224 459 221 135 4 43
330 113 348 157 14 59
344 30 235 92 79 66
375 834 210 225 162 136
223 463 221 91 22 36
290 509 337 97 23 39
277 14 254 91 32 39
448 443 215 61 25 31
208 469 212 54 23 28
448 442 210 81 28 33
296 690 217 72 33 38
462 758 387 117 99 82
211 469 213 62 23 31
391 480 158 93 34 41
410 419 185 83 21 39
301 876 336 39 36 37
403 538 268 108 17 38
215 469 216 61 24 29
335 433 145 94 77 59
249 344 261 126 100 72
208 474 212 79 20 32
342 308 237 124 98 69
269 863 302 132 114 104
353 308 223 130 100 73
210 474 214 60 25 30
363 220 211 124 98 65
403 827 246 87 65 54
231 504 260 141 5 43
363 209 220 118 93 64
264 540 138 198 13 51
214 478 217 64 24 32
285 794 260 81 62 56
300 224 256 102 84 64
365 724 299 62 25 27
348 199 243 111 88 60
325 239 239 83 67 49
218 468 217 65 28 30
256 494 319 53 29 32
345 404 325 62 32 29
348 282 197 120 94 64
220 469 220 47 30 31
311 60 343 100 26 37
350 402 305 55 45 38
400 459 220 69 22 35
400 669 223 123 79 55
307 250 282 144 105 78
217 471 218 97 22 41
215 499 225 107 12 34
228 549 255 141 2 44
340 423 164 99 83 65
312 230 202 109 91 72
285 578 170 210 12 44
251 524 314 137 15 45
224 659 276 125 87 60
345 443 98 160 51 46
224 469 226 41 26 29
220 544 225 46 24 26
238 462 282 117 10 40
217 474 218 64 26 30
265 635 250 149 21 46
331 470 100 161 16 46
315 274 234 72 59 44
266 229 256 103 91 79
373 478 343 114 30 46
327 64 298 92 14 30
221 479 225 32 28 29
305 349 255 107 78 53
370 819 200 198 150 122
223 474 227 34 29 29
325 79 225 122 63 50
320 214 200 118 97 74
223 478 227 34 29 28
341 109 329 128 14 42
310 489 335 149 13 46
265 369 215 81 68 54
304 394 183 85 73 61
225 479 230 38 27 30
286 430 314 97 22 35
313 224 203 110 92 74
194 484 195 67 29 24
384 509 305 159 11 49
194 484 200 106 6 28
324 20 300 102 43 44
410 474 255 115 20 40
469 494 170 145 101 80
193 487 199 112 1 28
286 154 295 109 90 71
194 484 205 119 1 38
192 486 202 118 0 25
345 124 241 108 84 55
280 254 296 154 111 83
325 254 239 90 71 49
290 24 240 152 107 83
192 486 204 119 0 40
336 23 224 89 68 55
358 273 211 122 93 61
245 759 335 166 123 93
210 543 190 145 7 42
325 878 310 51 45 41
202 482 193 67 34 38
350 449 341 101 18 36
204 502 217 111 0 30
253 942 305 51 46 47
197 484 208 119 3 39
345 249 242 131 100 71
222 662 257 209 140 112
428 779 367 51 42 35
249 429 290 75 30 38
281 709 319 134 13 42
310 884 246 124 101 80
438 539 189 176 123 101
302 266 258 123 90 65
369 825 302 40 36 35
197 489 208 85 16 33
291 15 227 195 148 150
200 494 210 47 21 29
252 618 241 145 10 40
310 449 331 123 15 40
204 489 212 41 28 27
382 832 370 58 45 37
222 522 248 169 0 52
320 99 350 133 27 53
206 490 213 47 25 28
304 244 290 150 109 84
415 789 329 55 46 44
330 674 199 123 12 29
361 859 235 79 66 62
238 509 291 122 21 41
350 533 161 187 10 39
424 521 208 61 15 29
299 283 215 108 88 73
390 454 265 98 18 35
353 248 238 134 102 73
266 319 208 78 67 56
252 456 308 105 16 37
206 494 214 98 8 35
364 429 351 150 17 47
330 541 332 169 18 54
361 229 205 124 97 65
423 533 222 153 16 47
375 849 379 51 42 36
325 12 235 80 67 57
194 498 207 99 4 33
273 795 274 73 59 55
381 833 201 237 168 139
266 224 260 102 88 75
255 874 309 126 97 78
354 309 220 128 97 69
410 569 190 102 42 37
242 379 259 125 97 66
302 86 302 97 51 37
285 159 290 106 90 73
290 654 225 74 31 39
370 843 330 34 32 34
247 465 304 134 5 38
381 689 196 111 83 59
352 916 258 56 49 52
353 58 358 102 48 36
300 914 240 71 62 57
240 549 275 126 11 40
199 503 216 108 3 30
192 511 218 108 20 24
198 508 221 102 10 34
287 439 330 58 28 31
429 818 365 84 75 67
359 179 234 125 98 67
244 374 260 124 97 67
390 684 250 70 27 34
335 864 335 30 29 29
360 569 310 165 17 53
205 499 215 106 4 32
237 555 273 50 22 25
270 606 203 58 31 37
206 505 224 102 8 34
340 144 240 101 81 59
202 506 223 100 6 31
405 870 376 86 71 60
312 274 230 71 60 49
362 72 223 126 67 57
322 109 234 127 98 73
340 444 330 130 11 40
270 749 239 121 21 44
296 629 211 70 29 35
212 489 219 29 28 28
423 755 337 75 60 46
335 189 243 96 77 57
376 734 195 93 62 44
305 634 314 60 32 36
209 494 216 80 22 35
238 570 276 123 9 39
211 494 219 66 19 30
398 509 284 137 16 42
377 90 247 127 9 47
406 427 144 77 36 32
214 494 221 114 16 39
275 955 320 54 50 50
297 330 197 92 75 55
218 482 222 61 22 34
217 486 223 121 28 41
308 26 223 164 21 53
233 474 250 96 21 37
275 679 309 63 28 34
292 695 217 55 35 40
217 489 223 109 25 42
220 489 225 70 21 33
420 729 340 54 41 27
243 494 302 128 13 42
390 699 265 56 28 34
356 144 219 115 96 76
416 634 211 169 122 95
208 498 217 63 11 29
285 910 254 123 97 76
210 499 220 114 5 38
215 520 105 166 20 46
251 494 314 128 16 44
259 569 311 161 13 51
229 609 236 156 98 79
360 184 234 124 96 63
246 439 290 92 28 37
258 800 342 162 112 87
209 502 221 110 4 37
348 104 336 129 14 41
210 504 225 96 10 31
315 469 329 45 28 31
256 464 314 107 17 37
202 511 229 117 5 36
304 394 284 72 62 52
441 493 192 130 6 39
326 84 299 102 53 42
205 509 230 108 10 34
380 549 164 163 3 34
355 754 309 98 4 31
294 44 325 117 31 45
433 731 300 71 55 45
380 60 248 84 31 29
224 484 230 84 21 36
350 104 219 130 78 58
295 729 332 85 26 36
351 374 195 90 80 70
292 807 262 142 103 87
369 394 235 99 82 64
223 494 231 125 10 42
362 169 220 123 98 70
378 56 227 93 56 54
374 669 275 60 25 29
220 578 247 73 53 36
211 506 229 102 11 34
343 117 337 130 16 44
380 424 145 98 68 50
343 247 243 128 99 69
348 437 108 139 63 54
209 507 231 101 13 33
358 159 216 106 90 73
210 509 235 110 9 35
305 10 245 129 86 81
262 421 207 73 60 46
296 491 93 183 17 46
240 419 275 76 24 35
215 509 240 109 9 36
380 406 291 92 31 41
253 489 317 41 28 29
290 24 245 143 96 73
329 719 323 103 22 38
200 549 227 121 96 73
218 498 227 97 11 30
346 644 297 119 15 40
217 500 229 114 1 37
360 559 169 131 2 28
228 454 227 130 3 42
362 392 198 100 87 72
329 347 193 88 78 68
221 500 235 114 3 36
219 502 236 110 2 34
356 724 306 84 22 33
290 749 229 82 63 58
250 549 165 78 26 38
220 504 240 108 6 33
352 402 257 67 58 50
355 879 375 59 51 46
404 584 194 79 39 33
349 89 335 102 28 35
359 659 289 109 16 37
345 109 218 124 99 71
290 174 276 104 89 73
435 454 236 133 2 39
225 504 245 110 5 36
320 59 341 114 97 80
239 769 294 168 119 86
315 859 301 84 67 51
219 508 245 107 14 34
424 619 205 168 117 88
226 505 249 106 9 36
224 508 251 102 18 34
341 402 266 63 55 48
325 704 191 80 25 32
310 59 245 130 43 55
410 799 356 54 45 37
332 836 307 39 34 29
380 406 305 49 35 30
305 444 335 107 20 39
380 829 199 224 161 133
310 844 310 42 36 34
370 882 378 71 62 56
232 451 207 80 36 29
363 239 215 120 93 61
351 50 356 95 52 32
166 523 214 166 120 100
349 574 174 99 18 34
295 10 240 170 114 107
234 453 206 83 33 25
211 538 150 217 11 61
226 459 225 132 1 41
234 452 208 73 37 33
362 169 230 122 95 63
365 819 304 42 39 38
311 22 327 65 60 57
317 68 248 117 64 60
229 459 230 134 1 40
375 524 166 69 30 36
228 544 252 134 0 41
229 464 230 131 3 39
406 762 268 69 56 47
317 69 232 134 22 40
232 454 239 57 26 31
404 820 296 54 43 43
310 379 183 88 77 65
382 861 388 57 50 47
385 429 330 109 27 41
232 464 240 88 19 36
287 890 353 47 43 42
284 439 320 38 27 29
328 882 234 55 52 53
401 829 245 87 63 52
243 479 301 144 3 43
454 792 370 105 82 60
233 454 245 132 6 40
271 664 304 60 25 33
234 454 250 122 10 38
417 534 187 43 40 41
297 295 202 95 81 66
416 594 212 133 94 75
233 464 242 62 23 33
352 479 343 56 26 31
248 349 261 128 101 72
304 472 76 192 7 44
255 374 275 124 98 70
345 699 311 123 9 39
382 489 312 151 11 44
261 544 319 82 27 36
234 459 255 87 27 37
287 287 228 87 76 64
253 944 300 56 50 50
234 464 250 92 23 38
229 469 231 111 9 37
246 374 265 125 98 68
330 184 240 86 73 59
383 817 379 78 63 48
345 409 175 100 86 70
360 734 192 128 6 32
230 474 235 92 17 35
358 214 202 123 98 68
414 842 362 90 73 62
406 815 335 68 58 50
232 469 240 93 24 36
324 24 259 113 15 41
237 794 320 181 125 98
247 671 263 149 102 76
459 460 174 104 74 58
297 294 256 132 90 71
234 769 320 169 117 88
236 459 270 101 15 36
235 444 260 137 1 41
233 474 241 58 24 32
316 561 168 71 35 38
400 679 186 133 98 63
315 49 341 119 100 80
462 494 191 135 90 77
233 479 241 100 16 39
406 570 193 115 26 38
305 489 336 150 12 47
233 469 255 81 28 36
445 684 354 106 79 61
272 199 290 117 94 69
294 24 299 122 85 58
320 239 235 74 63 52
265 759 250 80 61 58
229 569 220 130 14 35
315 64 295 133 94 66
234 474 255 51 26 33
357 678 198 116 27 36
234 479 255 42 28 30
443 824 375 102 78 58
231 489 240 58 25 31
281 179 300 117 94 70
341 789 316 55 43 35
340 188 203 118 96 73
363 70 223 137 38 40
251 284 260 126 99 67
346 304 199 102 86 70
332 109 318 117 52 49
228 719 295 171 115 88
290 339 205 91 70 46
229 494 240 103 14 36
233 489 246 67 23 34
280 814 339 186 131 104
364 769 193 150 112 75
320 74 250 128 14 46
254 614 230 178 7 46
234 489 250 83 26 37
313 61 247 133 97 81
454 421 196 159 21 52
365 104 226 135 22 36
347 402 262 64 55 46
235 489 255 80 20 34
247 617 288 67 27 33
340 399 179 97 84 71
276 639 308 83 23 36
212 581 248 121 97 71
309 383 183 87 75 64
424 754 201 146 103 71
253 424 296 36 32 31
357 105 223 135 49 52
233 493 247 110 14 33
340 689 194 40 36 40
309 219 265 100 82 63
323 129 225 120 96 70
233 493 250 101 15 35
330 84 222 108 38 31
270 229 254 103 91 79
232 496 250 126 7 44
303 274 260 129 91 66
294 314 199 98 80 60
350 104 250 102 52 47
318 61 343 117 100 82
325 654 201 151 0 37
386 69 230 110 36 38
330 85 354 90 25 30
357 402 252 87 73 60
233 493 255 62 21 31
296 354 270 113 89 62
290 457 105 89 62 39
339 339 243 135 102 74
344 40 249 89 23 35
229 498 241 125 2 38
325 719 186 126 10 32
271 282 283 156 107 84
226 501 244 115 2 35
242 460 293 135 7 43
232 499 250 123 10 38
280 274 231 96 84 71
311 26 293 151 28 45
230 504 250 87 18 32
330 344 192 86 76 67
227 506 253 77 21 32
228 508 256 83 16 34
370 464 140 184 10 43
408 808 187 152 104 71
210 554 230 81 53 38
253 264 260 120 95 65
349 294 229 137 100 79
310 549 151 103 34 41
445 751 356 85 67 49
252 266 258 121 95 65
375 889 290 64 56 53
252 270 259 122 95 64
253 269 261 122 96 64
255 369 275 125 98 70
254 269 265 124 96 64
356 229 199 124 99 70
429 702 334 89 78 68
305 22 331 67 62 58
435 709 370 98 77 59
360 134 225 112 92 70
255 269 270 126 97 66
313 219 221 89 75 60
359 189 206 116 96 73
342 673 307 42 28 29
347 909 244 69 61 62
252 279 260 126 97 65
307 235 291 146 106 81
303 824 259 163 121 94
345 433 135 98 82 64
271 240 247 101 89 77
310 759 339 77 40 41
401 769 350 52 43 36
350 814 214 81 66 62
252 274 260 123 96 63
252 279 263 125 97 66
328 715 323 135 19 46
292 289 219 90 75 59
304 44 304 135 28 46
255 279 270 125 95 65
260 334 209 86 71 54
385 794 325 51 42 37
251 289 260 123 97 66
252 284 264 125 97 66
257 498 116 55 38 27
382 86 242 128 11 46
255 284 270 131 97 68
330 360 248 106 81 58
288 423 312 77 26 35
340 159 241 97 78 58
299 64 325 126 14 44
371 803 301 36 33 32
383 37 235 79 28 28
303 84 326 105 51 49
367 906 305 60 54 54
256 274 275 128 97 67
256 279 274 130 97 68
370 405 285 68 43 39
250 294 260 126 97 66
407 598 227 44 28 29
253 611 235 166 0 46
266 245 246 104 91 78
294 508 337 127 22 45
252 294 264 129 98 68
363 201 217 122 98 69
403 623 183 136 98 67
232 728 286 183 123 94
254 294 266 133 100 71
348 144 212 118 96 72
408 809 250 63 51 49
256 294 269 138 101 75
263 228 263 111 93 74
275 354 210 72 61 50
406 860 387 81 68 58
330 409 174 95 81 67
329 94 300 103 35 37
293 842 268 78 65 49
441 454 205 69 25 31
250 299 260 131 99 70
252 298 263 133 99 72
315 976 285 68 65 65
275 617 221 105 43 49
305 564 328 176 17 57
315 879 365 41 39 39
270 244 245 102 89 77
270 946 332 63 59 58
237 494 288 68 18 38
335 239 194 117 94 69
275 629 310 105 29 43
254 299 265 136 100 74
271 818 291 57 47 48
237 582 217 68 31 38
258 425 217 83 68 51
335 693 193 42 37 40
338 928 334 62 59 60
252 304 263 132 98 74
368 427 143 102 85 67
311 360 187 92 80 69
391 814 334 50 42 42
192 552 223 175 126 99
433 421 182 98 24 31
250 309 260 133 100 75
314 199 215 103 86 69
333 188 242 91 75 57
401 619 221 61 40 39
252 309 263 130 98 72
296 388 287 100 81 60
340 219 197 115 94 71
326 480 104 87 22 39
315 209 205 111 93 74
271 874 256 140 112 83
280 460 105 105 55 37
255 309 265 129 98 72
317 367 247 80 61 45
248 314 256 134 103 76
248 324 257 128 101 72
364 83 222 138 33 38
248 606 249 61 32 31
278 463 331 36 27 31
250 324 260 128 98 72
290 409 180 67 57 47
250 329 260 128 99 72
200 525 120 172 16 52
329 29 300 116 32 45
263 649 269 125 23 38
345 584 311 194 8 62
355 679 197 57 34 37
465 504 180 187 123 108
429 834 385 95 83 72
305 17 317 51 49 47
249 554 174 71 26 34
252 324 263 127 97 70
275 271 232 99 87 76
332 298 242 131 100 74
247 808 333 174 121 95
353 887 220 89 76 73
255 324 265 127 97 70
252 329 263 127 97 70
250 334 260 129 101 73
461 459 150 56 36 36
325 104 225 119 97 72
280 845 298 113 88 70
312 118 333 106 74 60
247 340 258 127 100 71
417 574 177 145 98 67
316 110 293 117 84 53
357 866 230 95 81 76
247 344 258 126 99 71
296 704 212 75 31 39
248 337 257 128 101 71
266 219 265 107 91 75
344 65 223 117 88 65
251 344 264 126 100 72
340 375 187 90 80 69
265 314 209 77 66 54
256 339 268 123 96 69
398 794 182 141 103 63
197 573 220 184 126 98
253 344 267 124 98 70
301 124 320 119 96 70
379 94 240 124 46 56
224 679 275 184 125 97
256 344 269 123 96 70
370 422 160 102 85 68
302 216 302 145 105 75
323 109 228 125 100 73
310 894 245 76 66 60
251 529 170 102 31 41
186 515 213 100 8 33
431 714 335 82 64 50
251 349 265 125 100 73
310 12 225 97 63 56
355 418 169 101 85 70
285 359 279 115 91 64
350 845 314 36 31 35
253 348 267 124 99 72
404 439 255 77 27 35
291 278 234 97 82 66
340 64 256 115 35 49
365 674 201 53 37 38
320 12 255 98 51 47
295 189 269 100 84 67
383 618 197 89 28 37
255 349 270 123 97 70
248 357 262 129 100 71
252 354 268 126 99 71
319 972 304 55 52 53
325 64 255 129 26 49
254 359 271 124 97 70
372 80 252 123 4 45
303 250 256 105 83 57
249 364 266 127 99 70
315 976 295 56 54 54
433 529 193 134 96 79
391 609 240 105 26 40
327 94 222 134 28 34
251 364 269 126 100 71
373 670 278 95 22 36
350 249 194 128 100 65
359 92 222 149 27 38
254 364 272 125 98 70
382 840 376 52 42 35
320 394 177 87 76 66
345 119 242 109 83 55
360 94 224 130 53 51
310 836 317 44 37 35
235 607 267 77 46 37
256 364 274 124 97 70
340 494 335 149 17 46
253 369 272 125 99 70
285 487 87 89 33 37
263 239 286 116 93 66
411 574 186 112 69 51
243 383 262 126 98 69
255 824 330 195 133 109
389 659 194 124 97 69
335 124 240 119 92 69
375 74 221 148 21 41
247 384 269 126 99 69
340 706 187 87 28 34
385 819 355 38 32 30
326 124 221 117 96 73
248 377 267 126 99 70
241 609 275 114 21 38
321 295 243 126 96 71
170 521 173 214 136 124
365 454 125 176 11 42
438 487 163 47 32 28
244 574 290 73 26 36
409 779 186 137 99 59
249 384 271 127 100 70
434 494 234 87 24 34
252 375 273 127 100 72
364 809 200 159 126 95
383 88 236 147 25 51
255 924 320 167 123 102
283 906 352 55 50 49
305 249 260 114 88 60
251 384 275 126 99 70
354 309 210 115 91 64
291 689 221 66 31 33
363 229 215 120 93 62
292 144 309 113 92 70
263 249 287 123 98 69
201 533 156 65 30 39
254 379 276 125 99 71
293 138 307 112 90 67
308 249 209 90 77 63
330 654 309 146 16 46
381 51 243 83 23 29
256 379 279 123 97 70
265 301 212 91 80 69
325 292 242 130 98 73
415 462 157 81 28 36
370 56 249 93 82 70
430 739 321 62 45 33
301 309 245 106 78 56
299 543 147 81 28 37
240 394 260 126 98 68
381 486 158 80 37 40
380 809 308 46 41 40
239 399 260 127 98 68
304 729 215 135 10 40
232 501 273 119 8 40
247 598 293 160 8 52
238 402 257 130 100 70
268 219 287 118 95 70
334 127 338 135 127 125
225 546 155 231 14 64
345 105 218 129 99 68
437 499 197 98 12 32
360 479 144 172 8 38
382 662 252 144 18 47
273 189 285 112 92 71
237 409 260 127 97 68
236 414 260 108 55 49
426 794 355 66 50 43
357 861 237 65 57 56
385 876 381 67 58 55
352 152 213 115 95 75
354 853 334 32 29 29
303 12 228 151 112 111
394 732 298 52 44 36
465 792 394 92 75 63
237 411 263 122 97 68
391 424 229 102 15 34
241 409 270 116 91 65
448 808 380 95 73 57
295 409 200 66 55 46
280 414 194 65 55 45
242 390 264 124 97 68
380 54 230 82 46 29
335 494 334 136 15 43
305 389 280 77 65 53
350 239 194 125 99 68
243 393 267 124 97 68
350 39 230 102 91 80
328 21 306 97 49 49
245 394 270 125 98 69
335 209 198 115 94 70
248 388 271 126 98 69
461 501 158 174 113 94
248 566 184 61 29 28
252 391 278 125 98 70
264 892 312 112 86 70
240 560 175 83 32 41
405 589 227 103 3 30
451 699 374 96 74 58
240 524 290 100 28 42
330 364 186 89 79 69
364 869 216 106 84 68
238 469 286 141 3 42
248 392 272 127 100 71
250 394 275 125 98 70
364 419 351 99 22 37
252 395 279 126 99 70
365 422 163 103 87 71
341 329 241 132 101 73
432 511 202 37 25 29
372 881 278 66 57 58
254 394 281 124 98 70
335 44 256 110 47 54
296 675 318 151 20 49
290 289 230 89 75 61
361 229 230 127 99 66
366 619 281 41 25 29
269 889 259 167 125 98
242 404 269 125 97 68
291 29 305 148 23 50
352 48 223 113 41 37
315 369 184 88 78 68
340 314 240 129 101 72
330 15 230 83 69 60
420 769 330 59 47 42
305 169 279 106 87 65
243 403 271 124 97 69
245 404 275 123 97 69
415 488 163 55 37 34
244 408 276 106 81 60
275 319 211 77 66 55
252 568 181 79 32 37
247 405 278 118 95 69
325 889 370 61 55 52
264 443 174 72 57 43
250 774 339 169 120 94
402 531 175 99 17 36
242 410 274 97 65 48
362 209 210 121 96 67
244 414 280 82 22 35
375 405 300 50 42 39
319 893 235 58 55 56
259 868 300 137 92 80
238 429 272 78 22 33
305 282 222 65 57 48
271 483 86 181 11 41
378 618 264 171 11 53
325 794 329 60 47 40
242 415 278 43 31 32
184 521 173 90 48 39
242 735 328 149 108 80
373 457 137 184 9 46
247 411 283 119 21 38
246 414 284 126 14 41
422 516 207 33 26 30
261 875 266 144 115 87
248 403 277 124 98 70
261 668 260 75 38 40
362 745 193 133 8 35
250 404 280 120 96 69
291 374 206 82 64 45
340 437 120 107 74 57
317 214 202 117 97 74
430 744 345 85 66 53
248 408 282 99 73 55
285 22 254 158 112 98
284 250 242 95 83 70
290 585 185 211 9 44
251 405 284 106 87 68
365 434 351 140 16 45
291 880 335 44 39 37
279 629 312 104 36 48
290 209 307 138 103 73
420 524 215 103 14 35
311 28 221 146 70 67
343 487 132 189 12 39
329 44 301 102 40 43
267 371 283 119 94 66
278 607 207 46 28 40
467 470 158 88 37 40
255 404 285 111 90 68
252 739 265 173 12 49
253 407 287 61 49 36
421 789 340 72 57 52
312 209 274 112 90 65
363 201 218 121 97 68
315 159 314 142 101 79
249 414 286 100 22 37
222 572 242 57 31 28
353 932 272 63 55 58
342 171 243 103 83 59
292 531 128 134 42 63
283 836 309 45 36 40
252 410 289 50 29 29
428 587 177 155 104 70
254 408 291 43 30 29
290 620 317 79 28 37
364 86 252 102 42 45
423 719 335 79 69 59
256 405 289 77 64 52
279 199 301 117 94 69
340 644 196 136 9 36
322 181 233 91 77 62
255 414 295 44 32 31
386 724 186 141 99 64
368 406 343 68 60 51
236 419 265 133 7 41
444 689 350 106 80 60
327 466 93 176 9 37
290 453 130 83 64 41
285 299 220 89 77 66
321 184 206 115 96 77
347 105 334 125 10 40
392 484 291 74 24 32
234 424 260 136 7 41
236 424 265 136 6 41
345 359 193 89 79 69
396 704 240 93 21 37
386 479 300 121 21 42
380 444 320 154 11 45
321 144 315 127 90 61
324 129 230 121 95 69
310 349 251 98 68 50
237 416 268 141 2 45
299 69 315 107 84 65
321 12 250 92 60 52
361 359 215 105 88 71
241 705 314 135 100 72
314 21 324 58 55 53
290 912 320 59 55 55
296 334 197 91 75 57
311 824 246 166 126 99
237 419 269 132 7 41
344 30 230 98 86 75
238 419 271 130 10 40
238 424 271 133 6 40
371 684 203 86 28 35
347 486 138 186 8 42
235 429 260 117 18 39
341 714 316 122 16 41
237 429 269 118 16 39
315 451 95 122 66 46
237 469 284 141 3 41
240 424 275 120 14 40
260 444 309 113 9 35
242 489 299 136 8 42
325 464 90 174 8 40
206 533 140 215 1 56
266 499 328 133 21 45
240 429 275 73 27 34
239 519 290 61 31 35
408 476 234 71 20 29
236 434 265 126 13 41
209 568 212 179 111 88
467 500 181 153 108 87
235 439 260 133 8 39
235 559 175 183 9 48
266 724 232 56 28 37
265 294 275 147 101 80
236 439 265 137 4 39
258 696 308 132 101 75
466 499 185 160 114 95
408 542 234 141 12 48
237 434 270 123 14 40
250 594 215 134 11 38
237 439 270 135 7 41
290 835 295 49 41 43
235 449 265 137 2 40
180 524 175 195 124 110
236 449 270 140 3 42
380 519 164 96 28 36
354 269 200 135 101 68
324 486 333 149 10 45
385 524 300 148 21 50
316 99 345 112 62 60
237 436 273 124 16 40
318 173 303 131 99 68
310 610 193 100 31 40
362 174 225 123 96 63
239 434 275 86 24 35
291 144 305 110 90 68
237 439 273 128 12 39
295 450 130 82 63 44
238 439 275 122 16 41
359 649 197 130 18 41
266 288 278 151 103 82
310 19 217 137 48 44
395 479 159 87 29 37
321 714 191 127 7 33
363 482 147 108 22 35
265 260 237 100 87 75
392 476 158 100 31 31
383 416 207 88 53 46
240 439 280 99 21 36
321 224 197 118 96 72
237 449 275 137 3 41
377 881 283 68 58 57
317 248 233 74 63 53
242 419 278 37 29 32
309 239 210 94 80 65
422 837 378 98 83 70
376 489 330 152 21 49
365 429 130 104 88 68
244 419 281 52 27 32
422 743 299 55 43 36
340 239 243 118 91 63
227 670 283 132 94 66
299 109 320 109 37 44
242 424 278 115 18 39
433 574 190 157 112 79
374 494 335 80 24 37
244 424 281 128 17 43
196 523 135 220 1 56
377 407 231 81 46 41
307 250 219 75 65 55
467 467 166 116 93 70
386 459 290 105 17 37
246 424 284 117 21 41
242 429 279 69 29 33
324 164 231 98 81 63
333 967 290 72 65 66
422 415 224 30 25 23
396 705 289 88 66 57
243 429 281 66 27 32
309 30 338 104 89 74
431 743 304 76 58 48
246 429 285 49 28 31
303 273 208 90 78 66
270 329 272 120 93 65
327 109 299 106 24 34
340 84 354 109 24 41
248 424 287 89 25 32
317 194 224 92 77 62
239 684 301 133 98 69
303 69 304 110 80 57
302 401 298 70 61 50
315 284 194 100 83 64
325 269 192 120 94 63
390 599 195 90 29 37
357 921 315 54 49 47
314 11 227 89 53 44
387 640 225 75 23 32
367 393 236 106 87 66
258 355 213 92 73 52
248 428 287 68 33 39
390 839 255 81 59 49
241 434 280 57 30 34
225 674 265 197 134 105
365 64 255 94 30 37
271 743 237 189 7 49
387 64 235 101 29 35
305 784 340 59 48 43
243 433 282 47 30 33
327 114 304 114 37 43
374 483 152 147 29 49
330 174 205 120 100 79
319 784 224 84 66 60
306 244 260 108 85 57
351 304 226 129 100 73
244 434 285 42 29 31
353 859 310 38 33 37
242 439 284 93 22 37
325 619 191 152 13 40
307 269 224 71 63 55
350 799 209 79 66 61
316 789 230 81 63 58
310 34 226 150 29 51
363 216 217 121 95 66
243 439 286 88 22 35
387 625 242 24 28 30
351 920 326 48 44 43
294 149 311 117 93 67
310 909 360 70 64 62
319 378 249 66 52 38
389 624 204 47 33 36
241 444 285 131 13 41
162 532 187 195 131 107
348 675 303 87 23 35
379 836 209 233 159 131
236 557 170 182 15 52
425 559 200 141 101 82
243 443 287 119 18 39
240 549 160 148 11 41
224 571 228 50 37 38
290 828 329 87 59 48
361 52 246 100 89 78
327 104 298 92 64 45
311 249 201 111 90 68
432 504 224 75 25 33
362 179 220 127 100 67
404 534 265 104 24 40
319 578 323 40 29 31
441 461 163 147 9 32
265 794 281 59 49 49
250 419 290 87 26 37
252 424 294 39 31 33
455 424 185 131 27 45
445 469 190 78 37 38
408 798 284 68 53 46
