ply
format ascii 1.0
comment Created by Open3D
element vertex 2192
property double x
property double y
property double z
property uchar red
property uchar green
property uchar blue
end_header
176 539 270 172 7 45
173 534 275 142 15 42
204 812 324 205 137 111
314 936 324 87 79 78
174 534 285 146 16 42
346 783 170 78 65 56
176 539 275 166 9 44
176 544 280 94 24 35
174 538 285 133 16 38
200 796 294 190 127 97
175 540 285 104 19 37
177 544 285 110 26 40
178 539 260 150 11 43
277 759 226 100 46 48
452 798 250 112 83 60
178 544 270 177 6 47
387 550 313 64 26 32
162 514 300 141 88 76
162 519 300 132 88 71
249 521 353 87 26 34
165 514 302 148 106 97
168 519 304 123 84 73
167 528 298 115 82 65
173 514 295 61 25 33
282 952 363 59 56 56
181 594 319 141 99 71
266 836 363 91 76 62
173 514 300 60 40 38
173 529 290 121 16 36
304 836 221 59 55 55
309 896 239 96 82 72
171 524 305 107 81 65
174 524 300 75 44 43
171 529 305 113 89 73
175 529 300 82 33 36
175 526 302 93 47 43
170 519 310 103 72 61
177 514 306 43 30 30
176 519 306 53 33 32
171 514 315 119 77 68
170 514 319 141 94 81
171 519 315 117 78 63
171 524 310 93 67 56
172 524 315 126 86 68
189 787 315 192 132 104
217 619 265 133 20 44
171 524 319 133 87 73
412 569 330 102 21 37
162 534 297 122 87 60
162 544 294 131 99 73
199 613 295 83 41 32
171 534 295 91 61 53
298 849 365 136 103 79
175 535 292 79 20 32
373 712 198 104 80 53
175 534 295 67 31 34
337 744 208 78 29 31
326 919 320 79 70 70
176 539 295 94 26 35
171 539 297 107 77 54
177 544 300 101 62 54
173 534 310 99 65 53
367 568 217 163 9 37
171 534 319 133 85 69
174 537 309 99 65 57
176 544 310 109 63 56
166 534 323 143 99 80
174 538 316 132 79 67
366 594 285 113 30 48
371 749 270 85 33 41
176 544 315 129 74 65
174 544 317 133 81 67
180 513 307 34 25 27
182 519 311 58 23 29
178 524 309 52 34 31
297 839 355 125 101 75
178 529 310 66 44 32
357 549 309 103 22 38
184 514 313 63 25 31
187 519 315 71 25 32
317 753 309 69 55 46
189 514 318 54 28 30
400 857 293 84 60 49
192 514 321 58 26 31
216 684 300 145 99 96
192 519 320 69 25 33
189 523 318 100 20 33
192 524 320 121 19 42
177 534 305 78 35 35
178 544 295 76 26 34
209 679 288 108 70 52
236 654 317 34 28 30
182 534 311 75 17 28
186 534 312 120 11 38
190 530 317 118 18 42
191 534 316 147 15 46
187 539 311 120 9 38
188 544 309 119 8 36
182 549 260 172 4 46
292 669 223 77 32 36
180 545 265 177 2 47
190 694 322 160 112 85
179 548 271 176 3 46
180 550 269 176 3 46
372 880 305 69 59 57
182 554 265 172 4 43
182 554 270 157 7 44
387 770 205 50 39 32
235 537 337 34 27 29
184 557 262 136 30 48
185 560 264 123 30 47
181 554 285 98 29 41
183 559 285 76 34 39
184 562 271 53 29 34
402 574 331 112 29 44
186 564 265 76 29 39
189 568 261 112 32 45
184 562 267 54 32 33
189 582 281 56 27 38
185 565 270 47 32 34
187 569 270 49 33 36
464 516 318 130 24 45
257 844 295 175 117 89
339 901 371 49 43 45
184 563 275 69 33 40
168 514 321 134 80 70
185 565 280 39 30 34
187 569 280 43 32 34
189 573 280 76 32 38
472 529 321 36 28 28
188 574 285 58 30 33
163 559 292 131 101 70
319 926 367 55 46 44
387 744 210 100 72 49
172 549 296 95 63 45
176 549 296 81 59 42
176 549 300 119 90 77
383 729 241 158 110 82
172 554 294 104 71 54
477 565 278 172 118 90
178 559 294 94 59 49
172 549 319 142 92 73
234 628 323 71 33 39
424 559 268 51 30 31
172 554 319 142 94 74
177 554 315 127 78 66
176 559 315 133 84 70
369 636 228 73 37 25
407 883 445 107 85 66
167 564 291 123 94 68
424 565 269 40 30 31
171 564 292 113 84 60
290 896 239 100 85 74
172 569 291 114 87 62
223 709 265 103 21 36
177 563 293 93 61 43
178 564 292 86 54 43
297 794 306 158 107 87
162 564 320 160 112 90
162 569 320 159 113 88
172 564 320 144 100 75
177 564 315 135 89 69
302 605 334 94 18 34
315 712 213 119 18 34
394 836 265 139 125 128
228 546 338 38 25 28
175 564 318 138 93 72
237 724 325 51 24 30
362 874 371 51 45 42
401 582 259 43 26 27
176 569 319 136 91 67
242 928 330 73 68 67
179 548 290 51 31 33
181 549 295 52 28 33
413 865 325 80 66 58
182 549 300 70 39 37
178 554 300 113 91 80
178 554 305 111 86 81
372 589 300 166 21 51
179 558 299 113 94 83
187 554 305 86 5 27
185 559 300 76 30 34
171 634 315 174 125 97
178 549 310 110 65 56
387 719 235 161 110 79
180 556 306 100 71 66
180 556 308 100 69 60
273 952 363 57 54 55
188 549 308 116 6 35
189 553 308 114 5 35
193 559 309 127 9 38
182 564 295 102 75 70
327 829 190 89 72 61
183 569 305 87 68 64
184 573 295 85 58 45
185 564 296 89 52 57
183 759 315 177 121 94
486 804 346 107 87 70
186 569 295 101 56 58
187 564 300 72 28 36
188 569 300 69 32 34
188 569 305 74 29 35
186 574 290 66 33 36
307 579 206 55 35 39
187 574 305 67 44 42
379 816 208 95 75 63
181 564 309 99 71 65
179 573 317 136 91 70
192 569 308 88 10 30
186 575 309 59 29 28
192 574 308 84 14 29
402 809 235 116 85 68
151 514 321 151 111 86
364 820 204 100 75 60
153 514 323 148 109 86
153 519 324 156 113 91
377 855 359 36 34 34
153 524 323 165 117 97
157 524 325 164 117 97
154 528 323 166 117 96
167 594 320 156 112 86
157 529 324 164 115 95
371 719 265 156 19 47
155 534 322 163 115 93
159 544 323 163 114 92
252 649 324 36 29 31
286 758 324 67 54 45
396 664 220 188 126 97
242 779 330 98 76 60
510 557 287 213 148 133
168 519 321 131 82 70
300 572 202 77 45 41
166 524 324 145 98 81
168 524 321 134 86 71
337 904 405 64 57 53
168 529 321 135 88 70
162 544 324 159 111 90
166 539 323 147 102 80
175 620 283 146 107 74
166 544 323 149 103 83
169 544 322 144 97 75
162 549 323 156 109 88
179 724 309 161 108 82
231 694 260 42 33 36
303 571 203 38 35 40
168 549 322 149 102 80
162 554 322 162 111 91
247 925 310 76 69 68
357 744 199 87 71 55
347 684 304 43 28 31
167 564 322 154 107 83
235 884 365 160 122 99
167 574 322 155 109 85
157 579 295 157 112 83
158 584 295 160 113 84
207 744 275 108 78 50
156 579 300 165 117 92
157 584 305 168 119 92
302 839 225 68 62 61
158 589 295 163 115 85
267 536 188 54 36 36
158 589 300 169 122 93
158 589 305 168 120 94
401 553 240 138 22 43
158 584 310 167 119 93
159 584 314 166 117 93
159 589 310 168 121 93
159 593 305 171 124 96
363 679 197 139 101 65
177 584 287 115 85 61
235 908 319 61 56 56
357 884 285 63 54 54
383 757 168 87 64 48
177 589 285 121 90 63
168 599 286 148 108 78
244 904 393 49 47 47
168 604 286 149 109 77
172 594 285 137 105 76
475 812 292 124 94 74
206 805 294 200 135 106
177 604 283 136 103 74
193 584 270 69 30 37
180 586 287 114 79 54
349 720 207 111 83 57
189 577 275 101 30 37
191 584 280 58 33 36
220 734 259 62 29 42
189 579 285 80 32 36
188 589 285 104 49 41
191 589 285 106 24 37
182 659 281 150 101 73
303 881 408 42 40 40
182 599 284 125 88 66
182 604 283 130 95 70
191 594 285 93 35 36
193 594 280 117 24 37
192 599 284 77 42 40
238 832 285 50 48 53
192 604 284 94 55 47
192 609 285 106 70 53
162 584 290 146 108 76
312 784 211 77 61 53
166 583 288 135 104 74
225 770 258 74 58 52
162 589 290 150 109 78
165 587 288 140 105 76
162 579 319 160 113 88
160 584 316 163 117 90
161 589 315 166 118 93
462 825 295 127 102 82
160 595 294 163 115 88
357 815 267 42 36 35
161 599 295 168 118 90
165 594 288 147 107 76
161 599 305 173 123 96
307 876 403 39 38 38
162 604 295 169 119 90
163 609 295 171 120 92
166 609 289 160 113 82
292 573 202 76 30 37
230 572 338 177 21 56
286 623 329 100 26 41
162 604 300 175 124 98
364 636 215 83 66 46
162 604 305 175 123 97
163 609 305 177 124 99
164 594 318 160 114 88
164 598 318 161 112 87
163 609 310 175 125 97
330 872 352 38 35 35
341 818 182 87 67 59
163 604 315 170 120 95
164 608 314 173 123 98
165 604 317 164 115 90
179 582 288 109 77 53
182 579 291 92 55 43
183 587 288 115 73 53
187 584 291 91 35 32
189 583 294 89 56 46
392 869 350 60 51 52
190 585 290 92 25 30
191 584 295 83 47 42
344 761 197 62 51 43
373 594 230 105 20 32
190 579 305 76 27 31
189 582 300 70 54 46
191 583 305 69 33 32
191 589 290 86 33 33
218 534 333 102 24 39
177 579 319 143 99 71
182 579 315 133 87 69
367 574 219 161 12 38
184 578 312 102 64 53
183 589 316 137 91 68
188 584 311 81 47 40
297 895 412 58 53 52
186 589 314 137 89 70
187 594 314 140 91 72
184 598 317 138 95 69
342 804 171 82 64 55
186 614 318 146 102 76
192 604 311 130 83 70
185 610 318 145 100 76
172 614 284 150 109 76
175 612 283 146 109 76
169 618 287 158 113 79
367 814 200 85 64 55
172 624 285 155 111 80
177 619 281 141 106 73
382 882 335 67 56 54
176 624 283 149 109 74
197 679 322 154 112 83
401 587 320 103 24 43
173 629 286 158 112 81
175 634 283 150 105 78
217 699 315 118 85 68
283 530 326 166 16 53
174 639 286 153 107 77
372 881 309 65 55 54
338 785 196 54 48 46
176 639 284 137 95 73
397 584 300 168 18 52
178 624 281 146 106 73
354 644 265 145 22 49
192 614 285 112 76 54
367 589 295 184 20 59
208 619 280 99 32 43
187 619 281 123 92 63
190 616 282 121 87 61
291 836 359 110 89 67
172 599 322 154 111 84
178 629 281 154 111 78
182 634 280 155 113 80
445 598 266 176 119 92
282 947 369 64 60 62
182 639 279 141 102 70
178 604 322 151 109 80
197 604 300 69 26 30
178 634 281 151 106 76
187 639 278 158 115 81
167 579 321 157 111 87
167 614 290 163 114 82
386 769 245 144 107 77
165 615 305 179 126 99
168 624 290 166 117 84
168 624 295 178 125 97
376 599 240 116 24 40
291 947 368 58 55 55
170 625 288 159 111 80
164 612 313 176 126 101
166 619 310 176 125 97
338 620 296 161 28 56
168 624 310 177 125 98
282 683 336 128 13 40
168 619 319 165 117 92
169 629 291 166 115 88
455 832 332 85 67 57
168 629 300 182 128 100
272 724 225 66 35 40
207 514 330 141 20 47
359 629 245 170 25 57
169 632 295 180 126 102
169 633 305 177 123 97
370 719 280 100 27 43
333 910 365 55 46 48
327 629 305 52 29 33
169 629 310 175 122 95
322 905 290 81 71 71
203 775 338 161 120 89
262 654 236 130 8 32
361 744 295 61 31 35
310 859 343 92 75 57
170 635 310 168 118 87
171 639 310 166 115 85
169 632 313 169 119 89
172 639 315 175 124 98
177 639 320 171 120 95
182 614 321 150 108 81
182 619 321 154 110 83
433 541 255 51 34 37
397 624 216 106 88 69
186 619 318 147 104 79
188 619 316 147 101 78
186 624 319 148 105 79
191 624 314 149 103 81
186 629 320 152 109 83
242 543 353 63 31 35
342 863 305 40 36 35
189 634 317 146 106 84
167 584 321 158 111 87
172 589 321 154 110 84
177 594 321 149 107 80
171 604 322 154 111 84
171 609 322 156 111 84
173 600 323 153 110 84
267 514 325 62 19 29
282 935 381 82 80 82
175 601 323 153 111 83
176 605 323 151 109 82
174 609 323 152 110 82
177 609 323 152 110 83
171 614 322 159 114 87
174 614 323 157 113 86
177 614 323 156 112 85
175 625 322 164 114 91
183 624 321 157 113 87
253 895 399 45 44 45
182 634 321 164 117 91
182 639 321 167 118 92
227 699 315 66 28 35
198 549 319 145 13 46
451 559 289 105 42 35
197 554 315 143 13 45
197 559 315 140 13 43
202 549 321 145 13 44
202 554 320 143 14 45
327 875 405 41 39 39
202 559 320 143 14 45
200 560 317 140 13 44
196 564 311 134 12 41
198 564 314 138 13 42
201 569 316 141 15 45
203 569 319 143 16 46
248 840 330 129 102 75
206 569 321 117 21 42
206 574 320 54 25 32
257 869 305 176 133 107
474 517 283 83 26 30
194 519 323 76 25 37
287 689 221 82 26 32
197 519 325 115 25 43
197 524 324 98 18 36
201 519 327 151 20 48
201 524 327 153 19 50
204 524 328 154 19 48
212 784 340 162 122 93
202 534 325 124 21 42
202 539 324 117 20 42
201 544 322 148 13 46
206 539 326 65 24 33
294 844 251 71 56 53
324 784 297 51 41 41
207 544 325 150 14 46
211 514 332 155 19 50
214 519 333 43 28 31
367 848 286 35 31 30
212 524 332 83 28 38
209 602 257 186 11 47
217 524 334 33 28 30
247 826 307 41 33 34
215 526 332 45 27 29
377 639 235 110 67 56
218 529 333 65 27 33
222 524 335 35 27 30
337 605 330 122 24 47
482 799 280 110 85 64
216 534 332 85 27 36
386 587 297 156 19 49
282 828 346 135 110 83
480 546 322 106 22 43
210 544 327 147 15 45
212 544 329 133 18 43
217 539 331 91 26 37
452 534 255 186 4 45
216 544 331 80 25 35
222 534 334 81 25 35
222 544 334 46 25 28
309 830 212 71 62 60
200 606 292 49 30 29
204 549 323 143 13 46
402 875 315 80 67 65
247 774 330 103 78 63
204 552 323 143 14 43
207 559 325 142 17 46
339 669 228 34 33 35
205 564 322 150 17 47
208 569 325 67 23 33
216 549 331 94 25 38
210 554 327 75 24 33
366 883 370 59 50 49
213 554 329 63 24 31
212 559 330 89 26 38
302 944 365 58 54 53
215 559 332 89 30 40
362 764 171 63 48 43
218 549 333 79 27 35
326 748 308 70 55 47
218 554 334 88 25 35
221 554 336 52 24 29
223 554 340 51 24 29
315 632 222 43 39 42
210 564 327 146 20 47
210 568 327 81 21 32
376 598 245 138 16 45
211 568 330 71 25 33
212 569 335 80 27 35
382 514 304 131 20 44
211 574 336 53 29 33
217 574 339 61 30 35
220 563 342 158 26 54
412 620 257 176 117 99
222 567 343 170 24 58
227 519 335 42 27 28
227 529 335 41 25 28
232 524 335 55 23 28
232 529 335 40 25 28
237 514 334 54 17 23
254 840 312 130 94 72
232 519 336 54 23 29
392 590 315 173 19 55
237 519 334 53 19 24
237 529 335 44 23 27
227 534 335 85 24 35
247 609 331 139 29 50
230 542 337 43 24 28
277 933 384 95 93 96
262 829 305 148 101 78
232 544 340 36 25 26
184 754 319 169 118 89
367 862 334 44 40 37
233 540 339 37 25 27
292 759 215 118 34 44
236 539 340 47 24 27
244 518 332 60 19 26
247 524 335 59 20 27
222 818 285 79 64 60
247 529 335 91 9 30
250 519 329 48 24 29
257 524 330 95 7 31
255 527 331 93 8 29
480 782 343 89 72 52
253 525 336 85 4 28
252 529 335 88 7 29
254 831 321 132 101 76
248 525 346 49 20 27
245 528 350 43 26 29
254 520 341 68 11 27
257 519 340 65 13 28
251 523 345 50 20 25
258 520 336 86 7 31
302 909 407 69 62 60
247 534 334 93 8 30
242 534 336 86 12 32
241 534 350 46 27 29
256 542 344 180 9 56
404 546 233 40 34 40
383 754 169 87 66 49
256 538 349 182 18 58
287 604 215 72 35 38
274 521 347 51 27 30
254 541 347 182 14 55
307 897 240 91 78 71
239 540 353 68 29 37
229 827 296 71 59 59
239 543 353 57 28 34
235 669 258 53 35 38
247 529 355 54 27 31
333 619 301 164 23 53
254 516 354 73 20 33
253 520 358 129 23 42
364 755 282 86 69 61
257 519 359 148 23 49
252 529 357 142 24 50
179 699 295 163 112 87
398 861 368 50 44 40
253 524 358 155 24 50
310 642 222 84 21 28
247 539 354 63 31 35
235 703 322 84 26 35
252 534 355 108 23 42
208 609 310 129 17 40
431 845 268 94 77 69
257 529 356 175 22 57
224 551 338 41 26 30
433 875 454 103 83 66
230 547 342 33 25 27
230 548 346 87 24 35
225 552 342 56 22 29
231 555 347 172 22 55
237 554 349 161 23 55
234 557 348 190 22 59
232 574 335 171 25 57
457 829 285 95 81 71
227 569 341 178 22 60
232 568 340 179 19 56
277 948 326 82 76 78
236 562 343 181 12 57
236 567 338 180 21 57
246 548 349 142 20 51
241 553 349 121 24 49
252 553 339 186 4 58
307 897 245 79 70 66
252 559 337 176 10 55
199 598 271 171 7 44
250 557 338 185 5 55
253 555 337 179 6 55
247 569 337 169 20 55
251 573 333 151 23 50
254 570 332 40 26 28
257 574 329 55 28 32
367 912 403 68 61 57
391 694 225 157 106 73
246 564 338 178 14 55
245 568 338 161 18 52
462 814 275 105 85 71
242 575 337 82 25 38
242 573 338 42 22 29
388 629 244 125 76 67
194 582 262 117 29 44
402 901 399 64 54 46
194 583 265 51 31 36
390 802 215 86 66 55
196 589 265 125 27 45
195 590 270 104 24 39
197 594 270 146 15 42
356 639 241 132 24 44
457 784 245 98 85 72
199 597 267 172 4 41
200 595 264 173 7 46
202 599 265 177 7 44
204 597 257 178 11 49
208 604 260 186 10 48
206 605 264 186 8 49
202 604 270 169 10 45
196 594 275 153 13 42
405 652 228 193 131 102
195 596 278 130 24 35
322 863 236 109 83 66
198 599 275 158 13 41
194 598 281 76 29 38
251 936 362 56 52 53
197 609 286 73 40 40
341 904 350 65 57 59
199 607 282 53 32 34
395 787 192 79 58 49
200 601 273 148 10 37
202 609 280 94 30 40
262 952 350 66 63 64
201 609 285 60 33 38
277 694 224 100 25 32
210 605 259 189 11 49
178 674 290 162 109 81
212 609 260 190 11 49
196 579 310 125 15 41
196 584 311 112 13 36
498 538 289 89 44 45
198 579 314 133 17 43
198 584 314 115 19 39
198 589 314 138 22 47
282 890 255 80 70 67
261 818 330 120 96 75
201 583 316 100 21 36
298 946 329 88 81 84
197 600 300 83 30 37
198 604 295 64 25 29
198 609 290 73 32 37
198 609 295 72 32 30
197 604 305 68 28 30
368 716 191 95 68 46
401 654 215 182 121 93
199 609 300 62 29 28
201 605 295 57 27 31
267 574 205 182 3 41
203 609 295 39 29 30
201 600 306 84 28 36
203 604 305 53 27 30
342 602 321 44 34 37
196 595 306 54 29 32
198 594 310 98 25 39
447 537 265 166 14 46
494 581 293 198 118 105
194 597 306 56 40 39
370 715 266 141 17 43
199 592 313 158 27 55
382 828 225 87 70 64
346 822 192 98 76 61
196 609 309 124 79 68
203 599 310 83 26 36
202 594 315 154 23 51
282 589 327 40 29 31
204 598 314 141 19 45
204 602 310 104 20 37
205 605 307 86 24 36
329 687 317 61 29 33
207 604 315 148 20 46
209 603 319 160 23 49
209 608 314 151 21 47
212 604 321 132 29 47
202 714 326 159 113 84
237 913 370 76 70 68
208 613 271 137 22 43
184 674 318 165 113 89
359 749 167 76 60 49
207 614 275 116 31 44
472 799 269 117 91 68
203 613 285 85 33 39
367 859 314 40 36 34
205 616 284 62 31 37
272 940 376 57 54 55
197 629 281 120 82 58
199 629 283 113 71 48
197 634 280 129 87 67
197 639 280 134 91 70
202 629 285 100 55 44
200 634 282 120 74 56
180 734 293 161 110 83
213 613 261 160 14 44
216 615 259 146 15 44
215 616 264 44 33 34
211 615 269 69 29 37
217 624 270 156 11 43
221 625 264 176 8 45
271 790 238 79 62 56
210 616 273 75 32 36
210 621 278 124 38 48
213 624 276 54 31 36
216 625 274 133 27 46
209 622 281 82 31 43
477 529 275 61 35 31
222 629 265 172 6 45
473 810 328 102 84 69
224 628 262 176 9 47
218 628 271 104 19 40
214 627 276 59 28 35
441 538 260 65 31 37
219 633 276 158 12 45
229 654 276 117 5 35
223 639 275 169 12 47
221 639 280 134 21 44
218 638 285 58 36 40
220 640 285 139 27 49
322 744 208 63 31 37
199 613 290 81 36 32
199 617 288 82 45 29
300 732 328 82 36 43
202 614 290 69 33 34
200 614 300 73 42 38
324 866 318 31 31 32
205 611 296 37 27 32
208 614 305 87 22 34
201 619 295 88 48 40
202 624 290 93 49 37
201 624 304 128 88 75
193 614 311 146 93 79
307 553 197 56 35 38
196 624 309 149 97 81
198 619 307 137 89 76
257 859 375 124 101 78
401 616 222 106 88 70
318 929 365 54 47 45
204 628 290 114 68 58
204 628 295 112 77 70
373 855 278 76 60 55
205 630 291 126 79 72
238 879 335 168 125 100
205 630 295 110 75 66
204 628 300 110 76 65
205 630 299 109 77 67
204 632 288 127 67 65
206 634 290 144 91 85
206 634 295 115 77 67
208 639 295 123 81 71
442 826 265 92 83 77
447 563 290 106 50 41
202 634 304 139 96 80
206 634 300 119 82 71
204 634 302 130 89 74
207 639 300 124 81 70
204 638 302 131 87 73
198 629 306 147 99 83
196 634 309 151 103 86
247 724 335 167 21 54
371 587 295 174 21 54
196 639 309 144 99 81
199 639 307 146 101 81
209 622 294 52 35 35
211 625 290 64 34 36
210 620 300 45 31 31
209 617 304 48 26 29
315 548 197 44 33 38
211 619 305 59 28 32
212 624 300 38 30 31
213 624 305 59 29 33
210 615 311 130 21 44
214 613 319 131 23 46
214 623 309 69 31 37
215 621 311 67 34 35
505 562 287 166 95 80
215 616 316 91 31 39
218 618 319 73 32 38
218 624 315 84 28 38
238 869 365 84 74 69
222 619 321 69 30 37
269 550 327 165 2 52
221 625 316 124 34 50
223 623 319 59 26 32
292 889 235 110 89 79
213 629 290 76 31 40
213 628 295 34 32 35
357 875 409 50 43 38
215 630 295 39 31 32
214 628 300 36 30 32
397 561 323 88 25 38
216 629 305 47 30 33
216 630 300 38 30 32
182 759 305 186 127 100
197 759 280 119 84 53
265 538 338 175 15 56
214 632 288 90 12 35
216 634 290 131 30 49
218 634 300 69 30 35
334 781 292 73 56 49
218 633 305 57 30 34
219 637 298 104 27 42
220 636 301 87 27 36
222 639 305 102 30 43
280 872 280 58 45 46
215 625 306 71 32 36
219 627 313 116 21 40
399 522 303 172 20 58
222 629 315 159 25 54
271 604 328 133 26 48
219 632 308 68 29 30
222 634 310 112 29 43
276 742 338 59 27 31
224 638 309 95 28 41
252 719 339 170 22 55
223 633 314 160 22 52
227 629 260 174 8 44
297 943 369 47 43 41
225 631 264 172 7 44
308 849 335 118 93 69
229 627 257 175 7 45
231 630 258 172 7 45
228 633 261 172 8 45
352 835 205 97 73 61
366 633 220 79 60 39
230 636 263 170 7 42
231 639 264 159 6 43
225 635 269 153 6 40
341 862 242 77 63 60
224 637 272 154 11 46
276 764 228 73 58 52
503 549 285 56 36 30
387 574 240 86 25 35
235 640 258 129 4 39
225 640 274 180 4 48
227 629 319 173 22 55
226 630 317 175 22 57
232 629 321 162 26 55
420 615 232 126 96 59
226 639 311 131 22 46
228 638 314 169 22 55
229 632 318 180 22 59
232 634 319 179 22 58
234 639 318 158 20 50
252 944 335 79 75 76
206 579 330 111 26 44
204 580 328 124 30 47
207 584 330 164 26 55
203 588 324 134 24 47
332 874 400 42 39 38
206 590 326 109 25 42
337 579 211 151 7 35
252 694 334 96 22 37
350 692 219 65 45 40
208 588 329 117 27 45
387 804 250 120 92 69
204 592 323 145 25 49
207 594 325 104 26 41
208 598 323 115 24 41
510 540 311 78 27 26
212 579 335 90 31 40
382 848 285 95 85 80
212 583 334 137 35 53
181 674 316 168 114 90
217 579 336 127 35 51
279 709 222 97 20 32
217 584 334 103 33 45
211 586 332 148 30 52
187 739 321 159 110 83
212 589 330 107 31 45
366 889 385 59 53 50
217 589 330 101 33 44
218 586 332 70 29 34
248 789 247 81 64 57
222 579 335 75 29 38
221 582 333 94 36 43
216 577 338 69 31 36
217 595 326 55 27 32
217 599 325 53 27 32
212 592 328 42 26 30
217 592 328 103 41 50
196 804 315 201 136 106
352 865 320 35 32 31
216 605 322 60 25 31
216 609 321 78 31 39
223 594 328 135 29 49
367 801 183 87 65 53
351 789 278 72 56 50
224 599 328 72 27 33
209 740 271 104 18 36
218 608 323 59 28 34
222 609 325 136 27 50
240 898 314 75 59 49
226 684 275 51 31 36
221 615 322 118 31 45
223 614 324 147 28 53
224 617 323 92 31 38
227 584 331 72 29 36
287 579 205 55 36 39
277 836 359 95 81 68
224 581 332 48 24 27
227 581 332 105 30 45
232 579 334 79 26 36
230 581 332 96 21 40
232 584 334 63 30 35
227 589 331 85 28 38
230 589 332 109 32 46
462 519 265 94 28 28
232 589 334 81 28 38
237 579 336 81 29 39
237 584 336 113 31 45
201 670 318 140 103 73
237 589 335 73 29 37
227 594 330 131 27 47
227 599 330 64 28 34
411 750 182 79 62 50
233 594 333 104 26 41
225 605 327 109 33 46
224 602 328 36 22 28
227 604 329 86 33 41
228 609 328 76 26 35
458 585 284 196 130 101
302 629 321 117 30 47
232 604 331 143 31 51
237 594 334 99 32 43
242 804 327 56 46 40
382 873 404 71 60 52
233 598 333 136 37 55
237 599 333 54 29 33
343 886 279 77 64 61
237 604 332 121 31 47
317 609 334 39 28 32
206 811 327 201 139 112
403 753 202 66 51 37
238 602 333 46 26 28
242 584 335 77 29 37
247 579 334 92 24 37
246 584 333 45 26 30
248 584 332 66 29 34
352 559 212 153 2 34
359 776 277 79 61 53
242 589 334 43 28 31
247 589 332 77 30 38
314 756 207 95 36 40
245 588 333 61 31 33
252 579 331 104 30 43
227 784 336 155 121 88
277 920 284 91 81 82
252 584 330 79 29 36
257 584 329 93 29 39
249 863 312 174 130 99
257 589 330 86 30 40
387 865 297 99 91 90
237 924 320 80 74 73
242 594 333 103 30 43
242 599 333 32 28 31
247 594 332 63 27 35
319 562 312 155 17 48
234 736 328 96 76 62
392 873 420 89 72 57
245 596 333 30 26 29
357 874 374 40 36 35
337 880 260 80 68 65
246 599 333 35 27 32
317 608 217 51 36 37
482 805 300 108 86 67
248 599 332 60 29 33
488 804 349 108 88 71
242 602 333 36 29 31
336 881 263 86 73 68
342 904 340 69 60 63
242 609 331 102 29 44
247 604 332 93 29 40
246 602 333 38 30 31
207 704 324 156 109 79
252 594 331 52 30 34
300 754 318 73 57 49
257 599 330 74 32 37
252 604 331 147 28 52
372 564 320 54 28 30
257 609 331 94 30 41
227 614 326 128 31 50
227 619 324 112 31 46
226 620 322 142 35 55
229 622 323 39 29 35
237 614 330 58 28 35
236 620 327 58 30 35
237 624 326 51 30 34
234 617 328 105 45 56
237 618 328 68 34 37
237 629 324 33 28 32
238 633 323 104 25 41
239 637 323 139 16 39
242 614 331 125 38 54
450 572 317 89 18 33
247 614 331 64 28 34
242 625 327 106 36 48
222 754 331 142 109 72
326 607 313 36 28 32
372 800 184 82 62 50
262 755 332 67 55 48
354 900 388 67 57 54
242 619 329 56 28 31
247 823 309 43 36 36
336 817 278 38 33 33
243 623 328 64 30 35
307 592 322 110 18 38
247 624 328 60 27 33
252 614 331 55 27 32
233 679 314 37 26 28
301 597 326 115 7 33
252 619 330 95 28 41
252 624 328 129 28 48
328 615 307 46 30 31
257 619 329 90 30 40
247 626 327 82 28 38
282 809 309 160 111 87
481 526 287 77 33 31
317 549 312 63 28 32
247 629 327 151 28 53
242 634 324 145 21 45
390 562 230 59 31 38
368 799 266 148 115 91
242 639 324 170 24 55
247 634 326 148 21 48
337 554 310 123 22 42
307 559 199 148 17 42
291 769 218 71 57 51
416 634 235 190 128 99
250 629 327 86 25 36
288 837 252 172 122 97
257 629 330 55 29 33
257 639 326 182 20 59
249 634 328 146 18 46
252 634 328 137 26 49
174 643 286 166 114 89
268 861 383 51 48 49
176 644 285 161 109 88
177 649 285 173 114 90
182 644 279 132 90 62
386 669 228 147 96 74
182 649 280 156 103 77
302 549 316 50 28 31
178 644 281 139 93 73
179 652 282 154 102 78
178 654 285 164 110 84
182 654 281 150 100 73
334 795 185 59 51 46
192 644 278 154 108 79
192 654 280 151 103 74
179 659 286 164 109 84
180 659 283 161 107 81
286 855 268 135 96 80
392 865 411 77 64 56
179 669 287 164 111 82
187 664 281 136 96 64
380 734 170 75 62 52
393 742 168 101 75 55
282 564 324 126 27 46
187 669 281 144 103 69
192 669 281 134 96 64
175 646 288 179 122 96
241 699 326 41 28 30
175 649 290 177 118 93
172 644 300 173 113 89
172 644 305 156 103 76
354 674 210 114 88 62
174 649 300 149 97 71
173 649 305 143 97 68
352 524 210 106 20 32
353 674 215 92 72 53
175 650 295 165 108 85
176 654 295 158 105 79
390 709 220 149 100 68
175 651 298 156 104 77
377 534 213 40 37 41
174 652 301 144 96 70
354 640 262 169 19 54
175 654 300 149 98 74
174 654 305 154 107 77
323 606 319 65 29 37
175 655 304 152 106 76
345 649 289 137 20 46
172 644 310 162 113 83
296 607 332 82 18 29
173 644 315 178 124 99
177 644 319 171 121 96
175 645 317 175 122 97
176 649 316 177 124 99
174 654 310 174 121 94
278 880 256 59 55 55
175 655 311 179 124 99
264 786 322 92 73 61
177 654 315 177 121 99
176 659 300 151 102 75
175 659 305 164 113 86
336 909 380 56 50 52
174 657 307 170 116 92
175 659 310 178 122 97
177 659 315 177 122 99
178 649 318 174 124 97
182 644 320 167 120 95
179 653 318 175 122 98
180 656 317 173 121 97
186 644 319 161 117 94
452 925 418 91 76 60
186 649 318 158 117 92
188 649 317 152 110 88
192 649 315 140 104 81
342 614 296 88 31 40
187 654 319 158 118 92
189 652 317 155 114 90
192 654 316 143 105 82
355 659 265 130 25 45
190 656 318 152 110 86
177 659 295 155 104 77
322 764 205 73 51 49
280 693 223 105 24 30
255 774 328 93 73 61
463 815 310 90 75 65
178 664 290 163 109 84
177 664 295 158 106 78
176 664 300 155 105 76
176 664 305 166 112 85
476 797 267 113 89 70
416 863 330 75 60 54
177 669 295 160 109 79
177 669 300 156 107 77
299 854 236 69 62 62
182 659 318 168 117 92
183 664 318 166 114 90
179 669 314 179 122 97
184 669 318 167 116 89
187 664 319 158 113 87
332 868 246 74 64 62
212 674 290 135 85 70
282 614 221 60 37 42
399 560 249 55 30 35
192 664 319 150 109 83
187 669 320 161 114 88
179 672 287 162 110 81
182 679 285 156 107 78
183 684 286 155 108 77
183 689 285 150 106 74
388 591 315 172 20 55
184 674 282 155 108 76
187 679 281 148 105 73
185 680 283 151 104 75
327 900 285 84 73 71
192 674 281 137 99 67
192 679 281 139 101 68
188 689 281 146 105 72
183 694 285 149 106 74
437 570 295 149 25 53
183 699 286 148 105 75
351 858 300 34 31 30
183 704 286 153 108 78
352 828 197 103 79 60
185 694 283 145 104 70
402 742 192 66 53 41
490 799 341 107 84 65
426 609 241 140 101 65
327 799 200 58 52 49
188 694 282 143 104 69
186 699 283 144 104 70
188 699 282 143 103 70
322 544 311 44 26 30
186 704 283 148 106 74
188 704 282 147 106 73
192 699 281 136 100 67
246 904 304 60 46 48
277 764 325 68 54 45
311 567 202 164 3 37
192 704 281 140 102 70
178 674 295 161 110 80
179 679 291 162 109 81
180 676 288 162 110 80
180 680 288 162 110 82
344 901 340 68 61 62
178 674 300 157 107 79
178 674 305 160 109 83
178 679 300 159 108 80
178 679 305 160 110 82
409 813 246 96 78 66
253 904 290 61 55 55
337 843 280 30 28 29
179 684 291 162 109 80
178 684 295 161 110 83
179 689 291 160 109 81
417 529 225 84 26 39
341 794 284 70 55 49
180 684 289 160 110 80
180 689 289 157 108 79
178 689 300 165 113 85
178 674 310 171 114 91
287 729 219 108 23 35
192 779 330 172 121 91
179 674 313 173 117 93
179 684 310 164 111 86
318 678 317 93 28 40
412 754 185 98 75 58
180 685 312 165 112 85
182 684 315 164 112 88
182 689 315 164 112 87
187 679 319 161 112 87
364 831 234 146 98 78
184 684 318 162 112 87
179 692 292 162 111 83
319 847 292 55 46 39
181 694 290 158 110 81
179 694 305 164 112 84
181 699 290 155 107 80
364 740 291 43 29 31
180 696 293 161 110 84
306 597 327 109 8 34
181 704 290 161 112 82
460 794 248 110 86 65
179 699 300 166 113 87
372 671 233 121 78 63
179 704 305 159 106 80
179 694 309 164 110 85
282 548 192 167 7 40
182 694 315 163 112 86
179 699 308 162 108 82
180 699 310 164 111 85
216 754 259 58 48 47
180 704 310 162 109 84
182 699 315 163 111 85
182 704 315 163 112 85
353 669 215 95 73 54
187 694 320 161 112 86
187 699 319 160 110 84
184 700 318 160 110 83
184 704 318 159 110 83
267 559 326 165 10 52
187 704 320 159 109 83
192 674 321 156 111 85
192 679 321 157 111 85
190 699 322 160 111 84
193 704 324 160 110 84
362 865 330 38 35 34
183 709 286 155 109 80
188 709 282 149 107 74
192 709 281 143 103 72
186 719 284 149 105 75
189 719 282 149 105 75
337 595 334 145 17 45
192 719 281 146 105 74
353 614 286 149 23 53
184 724 286 151 106 77
184 729 287 149 104 75
186 724 284 150 106 76
188 724 282 150 108 76
192 724 281 145 104 74
192 729 281 144 104 74
186 734 284 148 105 74
238 894 379 112 92 80
192 734 281 144 104 73
181 709 290 162 112 84
179 709 305 155 104 76
317 779 209 75 60 51
179 714 296 160 111 82
229 918 330 70 65 64
181 714 290 160 110 83
180 714 294 162 112 83
341 903 330 73 66 67
181 719 290 159 110 82
180 719 293 160 109 81
179 714 300 157 108 79
275 677 332 78 23 33
179 714 305 156 106 77
179 719 300 156 106 80
246 889 310 129 87 74
179 710 308 157 104 78
475 807 286 94 79 62
180 705 307 158 104 78
180 708 307 156 103 77
212 770 338 159 121 89
241 904 309 121 86 70
180 709 310 160 107 81
296 529 318 47 29 30
281 686 338 120 18 42
179 714 308 158 105 78
180 719 310 162 109 84
182 714 315 162 109 85
457 819 345 94 79 64
182 719 315 163 111 86
187 709 320 159 109 83
343 769 195 64 52 44
187 714 320 160 109 84
184 719 318 162 110 85
212 815 325 202 139 113
360 622 237 55 23 27
302 889 230 111 90 79
187 719 320 161 109 84
179 724 295 158 110 80
233 664 314 83 25 36
181 724 290 157 109 81
180 724 293 159 110 81
180 729 293 158 109 81
245 860 318 173 128 99
373 805 189 87 66 57
179 724 305 159 108 80
178 729 300 160 110 82
178 729 305 162 110 83
181 734 290 157 107 81
317 913 385 63 57 55
267 849 371 145 111 93
178 734 300 164 112 86
289 730 337 29 26 32
178 734 305 167 113 85
179 729 309 165 111 85
180 724 311 164 110 85
485 551 322 126 13 36
182 724 315 165 111 86
246 910 391 64 60 60
181 729 315 165 112 86
463 513 274 93 25 30
452 825 320 100 78 68
371 594 226 111 28 39
180 734 312 170 115 90
181 734 315 168 115 88
187 734 321 161 112 85
184 724 318 162 110 85
184 729 318 162 111 86
389 550 218 68 24 32
327 834 195 86 69 59
186 739 284 149 106 75
354 710 202 136 103 72
381 755 249 158 114 86
186 744 284 152 107 76
189 739 282 149 108 74
347 819 190 90 69 57
192 739 282 145 106 73
242 809 325 48 40 38
189 744 282 150 108 74
189 747 282 152 109 76
187 754 285 163 111 81
422 540 245 190 3 44
188 759 286 166 112 82
327 624 223 139 20 39
193 754 282 148 106 72
243 879 380 149 114 90
191 759 283 156 108 76
188 764 286 174 117 86
191 764 284 163 110 78
179 739 295 168 114 88
179 744 295 173 117 90
469 934 423 90 76 62
181 744 290 165 113 86
282 619 334 157 26 54
407 546 313 91 26 36
180 745 294 172 116 88
410 750 185 88 67 51
178 739 300 169 115 91
309 824 225 53 49 51
282 835 355 74 59 46
342 710 217 92 25 24
379 524 302 167 15 50
282 956 350 63 61 63
179 739 305 173 116 89
179 744 300 174 119 93
413 554 259 107 24 39
182 749 290 170 116 88
179 748 297 177 120 95
179 748 304 179 121 96
358 851 289 35 31 30
180 750 306 180 123 97
287 954 345 65 60 60
179 739 309 174 117 90
326 918 316 81 72 71
180 744 311 175 119 94
357 824 261 60 46 40
181 739 315 170 116 89
367 669 196 137 99 64
399 616 222 105 89 71
184 739 318 163 113 86
181 749 315 174 121 93
183 749 319 168 118 88
260 864 298 165 125 95
183 754 290 178 120 92
447 519 244 119 20 30
184 759 291 183 122 95
428 559 274 79 20 30
180 754 300 184 126 100
180 754 305 184 126 99
183 764 305 186 127 100
502 534 323 114 26 42
185 754 288 171 116 87
185 760 289 178 119 90
272 947 368 56 52 53
184 762 292 187 125 97
188 769 290 188 125 96
185 765 294 190 127 98
184 767 297 190 126 98
185 770 299 189 127 100
353 880 279 75 64 62
452 789 249 96 76 60
293 799 307 158 107 85
236 893 330 57 53 52
182 759 310 181 123 95
182 754 315 176 122 94
184 759 319 173 120 91
353 679 210 117 91 65
287 860 379 112 94 76
184 768 310 183 125 97
184 763 318 176 121 94
185 764 320 175 121 93
184 768 314 180 124 94
185 766 317 178 123 94
185 769 315 180 124 95
301 639 223 98 26 36
338 634 296 56 29 33
190 709 322 161 111 85
193 709 324 161 110 84
277 549 324 164 13 52
193 719 324 161 111 85
190 729 322 161 112 85
192 729 324 159 111 84
393 789 225 83 59 45
190 734 322 159 112 84
198 793 291 189 127 96
192 734 324 157 111 83
186 744 321 158 111 83
312 583 207 107 26 36
307 739 319 76 60 53
341 758 299 76 58 49
189 740 323 156 108 81
188 744 323 155 110 81
191 749 326 153 109 79
185 754 322 165 117 86
360 752 288 81 63 56
188 754 324 160 115 84
391 798 205 86 66 57
185 759 321 170 117 90
187 759 325 163 115 86
191 754 326 155 112 81
190 758 327 158 114 83
193 754 329 154 112 81
192 759 329 156 113 83
187 764 325 168 117 88
187 769 325 173 120 92
192 764 330 160 115 85
189 766 328 164 116 86
189 769 328 167 117 87
197 649 280 147 100 75
202 644 284 127 78 59
200 645 282 132 84 64
206 649 286 131 75 65
207 654 286 132 79 67
197 669 282 127 88 59
199 668 283 127 87 58
203 659 284 130 85 64
365 719 300 32 29 31
202 664 285 130 86 64
207 659 285 129 75 62
205 669 287 122 77 58
224 648 285 170 10 47
224 665 286 54 34 36
224 669 280 67 32 35
322 529 197 47 35 40
205 641 303 132 88 73
488 539 284 72 38 32
202 644 305 138 99 77
335 612 303 177 30 63
370 598 270 52 28 32
207 644 300 128 84 73
287 834 250 178 126 100
205 645 303 138 93 78
206 649 304 138 93 78
209 648 301 132 85 75
197 649 310 131 96 73
364 713 249 148 12 45
199 644 307 132 94 71
383 694 204 121 91 58
198 654 311 132 95 71
195 650 313 131 97 73
203 649 306 136 100 79
267 769 325 80 64 53
204 653 307 134 98 76
202 654 309 134 98 74
207 654 305 134 91 75
208 665 288 120 72 57
197 659 315 132 99 72
198 664 316 134 101 71
196 665 318 140 104 76
292 953 355 69 65 64
302 559 317 35 28 30
357 860 345 55 49 45
346 541 308 158 17 49
422 568 280 96 29 39
199 658 312 132 97 71
197 669 319 144 105 77
202 659 311 132 96 71
351 883 281 76 64 62
215 680 296 172 114 116
206 660 309 133 95 72
207 664 310 132 95 72
202 664 314 131 98 69
356 597 298 185 16 60
316 655 222 112 23 27
271 898 407 50 47 47
204 663 312 131 98 72
202 669 316 135 98 71
466 582 287 202 133 104
206 669 314 131 95 71
348 754 190 61 51 43
208 668 311 132 94 73
209 649 290 190 120 113
278 828 347 125 100 75
260 874 299 155 121 95
210 649 295 143 93 84
264 637 328 175 20 54
210 651 292 176 111 111
459 577 308 153 114 107
210 656 303 130 84 74
224 648 295 116 24 44
212 818 305 215 143 112
223 644 300 100 23 38
321 558 202 164 1 37
224 642 304 106 24 38
302 679 325 49 25 31
224 648 299 111 22 35
297 709 336 154 3 50
210 659 290 185 115 111
212 659 295 170 111 107
211 664 290 156 99 87
344 646 233 134 18 34
212 664 295 168 114 109
279 714 222 86 29 33
299 822 312 126 101 74
211 659 304 128 84 71
212 664 305 127 83 72
212 669 290 147 91 78
327 744 310 70 55 47
214 669 300 140 96 87
213 669 305 125 83 71
223 664 290 58 32 35
308 848 221 86 68 61
224 664 295 69 32 39
224 669 295 102 26 40
209 662 307 134 90 74
210 665 308 133 89 75
197 674 281 127 91 60
197 679 281 129 93 63
197 684 281 130 96 65
202 674 284 120 80 56
202 679 284 117 79 56
402 554 245 108 27 42
200 684 282 124 89 59
203 684 284 118 81 56
202 689 282 124 89 60
203 688 283 119 84 59
392 820 244 87 66 57
342 840 205 103 80 65
206 684 286 111 73 52
207 689 286 109 74 53
189 782 324 184 127 99
197 694 281 131 96 63
197 704 281 132 96 65
201 694 282 125 90 60
322 519 311 150 22 48
207 694 286 109 75 53
391 814 244 121 89 70
201 699 282 126 89 60
203 704 283 121 84 58
265 851 284 190 135 102
207 699 286 110 75 54
223 674 285 51 33 34
224 684 281 41 32 35
221 689 285 53 31 33
224 699 271 100 20 38
222 704 270 82 26 35
388 729 215 140 94 64
210 692 287 98 65 50
212 705 286 78 49 40
387 630 210 104 88 73
215 704 284 66 34 35
217 699 285 65 36 38
223 694 275 95 18 32
222 694 280 77 23 33
219 691 287 67 35 32
218 694 286 76 40 40
219 700 281 59 31 35
218 705 276 78 25 34
389 759 220 126 89 60
261 804 318 59 49 46
222 699 275 82 24 35
221 703 274 56 29 32
220 702 278 48 28 35
219 696 282 66 30 30
208 674 288 114 72 53
202 674 319 143 104 74
202 679 321 149 108 76
383 689 204 124 91 58
312 839 210 85 68 61
207 674 315 132 96 71
229 910 331 57 53 53
205 676 318 136 98 72
206 679 319 139 100 72
208 678 316 133 96 72
207 684 320 143 102 74
388 771 173 105 78 60
211 679 290 119 75 59
449 571 313 105 32 48
334 756 302 72 56 48
369 724 285 137 22 46
214 674 295 181 123 120
256 854 371 152 116 99
214 679 294 165 109 107
215 675 301 141 96 89
215 675 305 121 82 69
214 678 298 173 118 118
215 679 300 142 98 92
212 759 335 153 118 83
195 789 332 176 123 94
212 684 291 107 69 55
209 688 288 104 69 50
379 778 257 149 112 83
212 689 290 98 66 53
298 828 320 121 95 67
214 684 293 131 84 74
214 688 293 100 68 61
260 816 253 84 66 62
223 674 295 53 31 35
297 519 186 62 36 39
352 794 165 83 64 55
224 674 300 57 42 37
222 679 300 60 38 39
223 679 305 87 36 41
220 687 294 47 31 35
218 689 300 119 80 81
217 689 305 102 73 66
220 684 300 61 40 43
222 684 305 77 37 41
362 829 210 93 71 60
220 688 301 70 47 48
220 689 305 61 36 37
213 679 311 128 87 71
215 676 308 121 81 69
215 680 309 120 82 68
216 684 310 120 83 69
214 683 312 128 87 71
402 540 309 38 28 30
212 684 315 133 93 72
210 686 318 139 99 72
447 579 295 148 103 95
216 689 314 126 87 72
217 689 310 112 80 67
223 685 308 67 28 31
222 689 309 45 26 28
209 696 288 103 69 50
306 923 384 59 53 52
212 694 290 89 59 48
217 694 290 82 46 49
278 600 327 85 23 38
214 695 293 89 58 57
209 699 288 103 70 53
212 699 290 83 56 45
212 702 289 84 55 45
235 826 279 80 65 60
214 698 293 71 48 40
215 702 288 61 39 32
219 690 290 65 32 33
332 819 185 81 64 57
218 694 300 104 69 71
266 822 314 93 67 51
218 694 305 92 60 58
241 884 380 158 119 98
275 532 333 169 10 53
282 615 334 73 19 30
218 699 300 85 54 54
211 694 319 139 98 73
287 784 224 77 60 55
213 694 316 133 93 72
214 697 317 135 95 75
215 700 318 134 94 73
377 634 235 100 53 46
212 704 321 142 100 73
272 639 231 102 27 37
216 704 318 134 95 72
218 694 310 98 69 58
322 564 204 146 6 36
511 554 286 164 112 95
417 534 230 175 8 44
219 699 310 77 56 48
220 699 306 74 47 42
342 878 260 86 72 69
220 702 307 50 33 31
407 855 285 99 76 68
220 704 311 41 28 30
262 694 340 105 20 38
218 704 316 109 78 62
228 644 270 141 5 39
336 793 190 51 46 44
350 739 203 101 80 60
233 649 265 165 1 44
249 922 383 56 52 52
349 689 222 46 29 35
231 654 270 102 9 33
487 580 290 199 131 109
457 789 240 113 93 72
235 644 259 162 5 46
234 648 262 177 5 48
236 649 260 160 2 42
233 654 265 118 7 35
237 654 260 136 2 36
337 890 280 84 72 69
239 654 257 136 0 36
226 644 275 140 6 39
263 820 339 153 118 98
424 846 368 64 52 42
224 642 277 160 6 45
228 649 275 168 4 46
241 739 332 121 21 43
225 645 278 147 6 38
224 647 281 171 6 49
227 654 280 128 6 38
307 674 321 107 20 41
230 651 273 138 2 39
382 827 222 87 69 63
225 650 285 154 6 42
226 654 285 126 7 36
232 659 265 71 25 34
277 954 360 62 59 58
390 668 207 161 109 77
232 664 265 98 31 42
231 664 270 69 26 35
357 519 211 133 9 31
229 670 271 67 27 33
234 660 262 64 27 32
357 862 339 42 39 37
235 664 259 91 28 35
229 659 276 135 11 39
328 649 306 99 23 40
228 664 275 91 20 35
418 571 289 145 29 49
230 664 273 99 22 39
226 659 285 96 16 32
225 663 284 46 30 32
227 669 275 61 28 33
342 889 413 60 57 58
225 667 279 58 30 35
224 666 282 45 31 31
226 644 305 113 23 41
227 649 305 114 21 41
225 650 290 137 12 42
225 650 295 104 29 40
225 654 300 74 26 36
330 872 355 39 36 35
272 913 280 90 80 79
227 654 305 90 25 38
227 644 310 84 25 36
420 862 325 81 64 58
229 644 313 82 20 34
232 644 315 104 24 41
302 649 321 36 28 31
232 649 315 32 27 30
230 655 311 41 29 31
233 654 315 32 28 29
234 642 318 114 24 39
237 644 319 100 32 43
235 649 317 34 27 30
247 799 249 78 62 56
238 654 318 35 28 30
224 660 291 59 27 37
224 660 295 55 30 35
374 876 298 77 65 63
407 856 304 79 65 53
225 662 288 55 30 23
224 660 300 89 24 42
402 525 302 168 18 54
317 584 208 101 31 40
332 559 311 150 18 46
226 659 305 113 21 41
352 861 350 51 46 42
227 664 305 123 16 43
389 724 230 163 110 77
206 694 323 155 109 79
224 670 299 79 25 37
225 669 300 95 23 37
427 853 325 75 57 48
227 669 305 94 21 36
229 659 308 83 26 36
431 548 271 49 34 37
513 566 316 188 26 63
267 819 309 131 90 70
231 659 311 92 27 38
231 664 310 70 24 33
284 809 237 83 65 58
229 669 309 78 24 35
233 669 314 88 29 39
268 821 315 74 51 39
234 659 314 60 27 32
236 659 316 40 27 29
236 664 316 66 27 33
249 900 398 53 50 51
238 659 318 52 27 31
238 664 319 60 31 36
382 835 274 46 39 34
235 669 317 63 29 34
238 669 319 57 29 33
242 644 321 57 29 36
242 649 320 38 27 30
242 659 321 45 29 31
242 664 321 60 32 35
231 674 265 41 31 34
230 678 264 38 31 38
227 679 270 90 25 40
213 808 281 99 71 62
368 855 274 64 55 54
223 795 337 158 119 89
230 672 268 72 25 28
229 679 265 100 27 40
231 684 260 44 35 38
229 681 262 62 34 42
229 684 262 52 33 37
189 787 318 189 130 101
229 684 265 81 31 40
230 689 260 57 35 38
229 687 262 44 32 33
229 689 265 43 32 37
227 689 270 81 26 37
235 674 258 44 37 40
338 664 228 49 34 33
235 678 258 42 37 40
255 734 337 149 19 45
234 680 257 40 37 40
224 674 276 82 29 38
225 676 278 82 27 43
225 680 279 51 30 33
224 679 277 49 31 37
447 572 315 111 19 38
225 684 278 53 30 33
230 693 263 42 32 35
230 699 259 55 34 40
231 709 321 81 23 33
344 678 228 55 33 32
225 698 269 91 18 30
224 705 266 109 21 38
350 742 203 100 80 59
224 690 276 94 21 31
228 674 309 80 23 34
262 809 250 85 67 60
228 679 309 70 25 32
481 769 272 117 91 66
366 794 269 143 109 86
230 674 312 80 28 38
397 874 440 79 62 47
230 679 312 105 26 42
233 674 314 71 29 36
225 682 307 89 26 43
227 684 310 73 27 34
226 689 311 67 27 33
230 683 312 73 26 32
232 684 315 33 28 29
229 686 313 42 26 32
231 689 316 80 27 36
236 674 316 49 27 31
382 551 313 74 22 36
236 679 316 63 28 33
217 804 275 66 56 53
322 894 255 86 75 73
238 674 319 64 27 34
239 679 318 111 27 44
234 690 318 75 29 36
237 689 320 68 28 34
190 770 288 185 123 92
226 693 312 56 28 31
382 830 265 43 35 30
227 694 314 81 26 35
230 693 317 119 23 41
227 704 315 80 26 36
500 526 302 126 61 63
230 699 317 68 25 33
232 699 319 96 25 39
227 794 336 155 120 87
396 649 206 137 101 62
422 854 360 86 68 58
237 694 321 53 27 32
241 674 321 69 30 37
242 679 321 113 24 41
286 820 330 113 91 68
242 684 321 112 22 41
457 799 244 95 80 66
194 685 323 156 111 84
197 682 322 156 112 84
197 684 323 156 112 84
363 791 170 76 60 50
197 689 323 156 111 85
202 689 323 156 111 81
204 688 322 153 108 79
193 694 323 159 111 85
277 709 348 146 22 50
197 694 324 158 111 85
350 768 183 48 44 44
307 613 334 124 34 50
193 699 323 159 111 84
197 699 324 159 112 85
197 704 325 159 111 84
297 898 409 61 56 54
202 694 324 158 112 82
208 694 322 148 104 76
202 699 324 160 113 84
202 704 325 160 113 84
206 699 323 156 109 79
209 702 322 150 105 76
210 705 323 150 104 77
329 791 292 36 32 37
372 798 182 84 61 50
247 644 323 66 27 35
220 756 333 147 113 77
323 839 281 58 47 37
246 649 322 80 33 39
292 759 320 68 54 46
248 649 323 48 28 32
246 654 322 86 33 42
248 654 323 46 30 33
252 644 324 102 27 43
257 644 325 168 22 55
261 894 280 58 53 53
257 649 325 113 25 43
357 574 216 162 8 37
248 659 323 33 29 32
247 664 324 41 29 32
311 829 300 131 102 80
242 669 321 57 28 32
257 659 326 148 25 51
201 779 279 175 115 85
332 905 381 51 46 48
257 664 327 126 24 45
252 669 326 109 29 43
448 587 293 190 131 116
257 669 327 65 29 35
238 699 324 54 28 33
244 674 323 46 29 32
245 680 322 43 24 28
308 829 220 59 54 52
241 689 322 102 23 39
245 682 322 99 29 42
372 872 403 56 49 45
243 690 324 66 25 31
198 764 334 156 115 85
437 556 323 121 19 42
247 689 325 53 27 31
252 679 326 43 28 29
256 673 327 47 27 29
250 869 313 173 132 104
296 844 365 136 107 80
257 679 329 39 29 30
276 629 228 106 32 41
382 865 410 60 52 47
250 687 327 35 26 26
370 702 197 101 79 54
257 684 330 80 24 34
256 688 331 102 20 38
240 692 322 75 21 26
402 805 234 99 73 57
288 897 261 83 74 72
245 693 327 37 28 30
322 866 310 31 30 32
248 690 328 43 28 30
240 702 327 36 32 32
242 704 330 45 29 31
246 699 331 47 29 33
247 704 335 45 27 32
250 693 332 43 27 30
257 689 335 40 26 30
397 544 220 135 16 41
256 693 336 89 18 34
251 704 337 93 23 38
255 698 337 109 12 37
322 845 289 41 35 32
254 700 338 138 17 43
257 704 341 149 18 47
332 899 290 82 71 69
197 714 281 133 97 67
357 629 265 179 5 56
197 719 281 135 97 68
202 709 282 124 87 59
203 708 283 120 83 57
285 718 343 163 10 53
207 709 284 104 70 50
207 714 283 101 68 50
203 803 334 194 138 114
207 716 282 101 69 51
197 729 281 135 98 68
387 734 200 77 60 45
202 724 282 127 92 63
355 664 269 135 18 42
202 729 282 128 92 63
207 729 281 83 52 43
236 799 259 77 61 54
202 734 282 128 91 63
219 710 271 82 26 35
292 569 201 154 6 37
221 708 269 65 27 31
223 714 261 115 12 32
372 595 325 82 27 38
219 715 266 99 22 34
217 714 270 123 17 38
220 712 268 82 23 35
215 708 279 86 31 36
317 879 240 97 79 71
456 916 415 104 83 66
217 709 275 97 24 38
294 849 250 63 57 57
214 710 281 67 35 31
212 708 285 75 47 36
211 719 280 63 37 36
398 644 208 132 99 61
216 714 275 100 23 36
260 936 313 86 76 75
214 719 276 79 26 35
211 712 283 78 46 39
208 720 283 90 64 50
220 707 273 67 32 29
215 729 269 104 13 35
212 734 270 115 15 35
217 734 265 110 20 38
215 733 268 110 12 32
308 740 317 78 62 53
219 725 262 128 20 41
219 729 261 143 8 42
382 878 414 66 52 42
217 729 265 130 7 37
221 724 260 87 26 34
221 729 259 131 14 39
332 565 313 147 17 46
219 734 261 84 27 39
342 714 215 89 26 25
361 689 285 125 11 39
212 729 275 90 23 35
210 728 278 67 31 34
209 735 276 109 25 39
211 733 274 109 17 33
217 709 319 135 94 71
222 709 315 45 33 31
466 833 341 105 77 68
217 714 320 136 94 71
409 541 233 174 14 37
222 714 316 70 40 38
222 719 316 70 35 35
347 846 279 34 31 29
221 724 320 120 85 65
370 604 255 161 17 53
223 724 316 56 32 28
208 749 270 99 63 47
197 739 281 137 101 68
197 744 282 134 98 65
452 536 260 187 2 44
202 739 282 123 89 61
202 744 281 113 81 51
204 750 277 116 85 53
297 724 334 155 9 50
206 749 275 117 87 54
207 754 270 114 83 56
412 574 331 65 27 33
207 759 270 124 88 59
207 764 270 130 91 62
197 764 279 130 90 57
252 918 295 83 72 67
193 764 282 148 102 70
444 601 270 200 138 111
194 768 282 154 105 72
405 759 176 94 72 55
203 754 276 122 88 55
326 669 222 88 26 29
296 854 370 134 100 77
201 754 279 109 75 46
200 758 278 113 81 49
205 759 273 132 92 60
296 693 218 52 35 36
200 763 278 131 93 58
202 769 276 151 101 68
470 817 332 96 74 62
205 765 273 142 96 62
205 769 273 151 100 67
211 739 269 108 18 33
212 744 266 109 19 32
210 744 269 98 26 34
214 736 267 104 20 32
212 749 265 86 29 37
217 749 260 68 27 34
218 744 260 116 16 35
218 739 261 99 31 43
309 825 220 56 52 52
200 806 304 202 134 105
220 739 258 48 34 40
212 759 265 53 45 46
217 759 260 67 54 49
214 758 262 65 54 48
317 529 312 107 28 43
258 699 232 118 16 36
392 529 302 157 15 49
209 754 267 60 44 45
440 852 306 102 80 62
215 760 263 67 54 50
218 764 261 70 56 51
513 553 305 133 108 84
215 765 263 68 55 51
210 765 268 66 55 49
213 769 266 59 50 49
308 539 193 52 38 39
219 758 257 66 54 49
219 768 262 72 57 51
220 761 258 71 55 50
221 764 259 72 57 51
227 709 260 82 27 37
336 764 299 74 56 49
444 536 259 110 21 38
224 710 262 130 10 37
230 707 258 44 31 34
287 554 322 79 25 37
303 868 232 81 68 65
225 722 258 88 22 32
228 714 319 70 33 38
272 861 384 66 57 50
227 719 316 72 27 33
228 718 318 54 29 33
