ply
format ascii 1.0
comment Created by Open3D
element vertex 2184
property double x
property double y
property double z
property uchar red
property uchar green
property uchar blue
end_header
348 526 277 33 29 33
446 854 212 77 62 51
310 970 277 88 83 85
426 830 287 84 57 46
488 452 136 121 18 28
491 453 137 116 19 32
496 455 132 128 21 29
301 853 317 117 97 78
492 452 142 110 19 33
386 878 324 49 43 40
496 454 142 109 20 33
341 919 222 73 68 71
449 864 208 91 72 59
486 450 147 107 21 27
491 450 152 102 26 31
492 452 146 107 22 33
426 719 191 68 51 42
500 456 137 112 19 31
499 456 133 120 16 29
501 458 132 122 14 28
502 457 136 115 17 30
506 459 132 118 16 34
541 479 147 76 38 39
506 459 137 110 19 32
510 461 132 116 21 32
512 462 132 116 22 30
511 460 137 104 25 34
366 813 285 70 53 50
405 484 310 102 28 42
506 458 142 110 22 32
504 456 144 110 21 32
501 455 147 109 23 32
499 451 159 99 26 35
360 474 284 110 22 41
498 452 156 101 28 32
506 455 152 105 27 32
405 578 153 153 22 46
429 842 256 51 36 24
510 493 220 81 22 34
509 456 153 104 28 31
512 457 156 104 28 28
301 887 257 104 80 57
500 451 162 99 26 34
502 452 161 98 26 35
327 829 208 51 45 46
504 451 164 98 27 33
228 803 248 180 126 96
432 739 212 54 41 39
511 453 167 98 28 28
506 450 172 95 26 34
416 424 326 57 27 32
351 764 290 64 56 53
403 424 307 137 13 43
511 450 177 95 25 32
512 452 171 99 26 28
270 574 137 132 0 40
482 501 130 147 35 62
300 954 323 47 43 45
486 498 129 71 32 37
376 404 289 132 101 74
487 500 130 151 17 49
252 589 256 146 107 80
394 753 174 67 51 45
486 504 131 112 25 37
452 888 212 96 78 60
262 574 260 154 110 84
373 569 295 170 16 54
306 778 189 85 64 55
486 508 134 92 36 34
418 616 212 128 39 54
248 599 251 148 109 80
486 510 135 102 34 47
451 874 222 79 64 50
491 504 132 116 28 39
494 497 129 114 36 45
281 719 281 159 18 50
296 848 242 193 131 102
490 508 134 113 38 47
496 509 137 93 29 38
508 491 130 121 34 37
505 492 129 71 25 29
512 490 131 78 31 39
511 493 133 66 30 35
501 499 132 56 33 39
381 869 217 72 60 57
500 503 134 66 33 29
381 484 292 118 15 39
390 518 83 89 31 37
252 554 252 151 112 86
381 629 268 180 9 56
501 504 136 116 30 45
270 645 211 117 27 38
503 501 135 57 29 26
501 509 142 203 17 49
503 506 140 192 16 59
506 504 142 139 29 47
228 764 229 173 117 87
512 500 141 62 38 40
510 503 143 89 24 40
408 677 230 52 36 37
504 507 143 217 20 55
402 404 262 92 77 61
502 511 146 198 21 47
256 579 228 110 82 58
511 504 147 179 23 53
506 509 147 195 21 50
508 506 146 168 17 49
533 449 209 127 22 45
305 659 264 143 14 46
286 823 212 92 71 63
509 507 149 190 17 47
510 508 152 200 17 49
511 509 157 161 23 50
420 492 295 160 114 95
512 511 167 186 25 54
424 670 253 99 73 48
348 646 170 73 22 34
467 454 253 102 9 33
321 563 88 166 22 47
283 669 189 126 16 34
444 792 274 161 104 72
472 459 249 70 25 35
347 449 276 141 15 46
470 464 251 145 15 45
476 454 246 42 27 28
336 554 273 175 16 55
276 919 292 143 119 104
480 459 245 49 29 30
476 464 247 120 20 42
468 469 254 138 13 43
358 911 325 36 33 34
471 469 252 130 16 42
466 474 257 117 33 43
466 479 257 161 115 98
402 722 175 60 47 41
477 469 248 115 36 47
473 467 249 137 13 42
261 764 267 148 108 78
397 413 278 65 54 46
475 470 250 112 38 45
349 449 279 114 20 41
512 499 213 54 30 32
480 474 246 150 75 78
478 480 244 119 9 39
276 544 97 88 25 33
457 716 256 76 59 42
240 739 259 157 112 82
472 480 248 136 30 46
367 819 177 84 71 61
348 274 262 117 93 67
462 485 257 172 93 88
270 589 256 152 104 81
359 470 284 75 12 26
351 734 172 66 37 35
462 489 254 145 11 45
433 564 258 107 28 44
456 494 257 107 18 37
459 494 255 137 12 43
395 854 313 47 39 34
462 494 254 142 9 43
278 589 249 99 63 52
459 499 255 141 7 42
276 544 252 126 77 65
456 509 256 151 7 46
462 509 254 153 1 47
521 465 142 111 21 25
465 483 256 181 111 104
311 719 174 120 21 35
468 481 253 182 116 108
469 483 250 141 19 41
373 885 317 40 37 38
292 963 311 54 50 50
466 494 252 145 4 45
246 764 215 136 99 64
469 490 250 141 3 45
331 569 271 183 10 57
471 494 248 146 2 44
476 484 246 138 13 42
478 484 244 141 13 45
255 789 210 169 115 81
372 889 221 65 57 58
306 810 274 177 125 103
481 484 243 143 14 44
400 579 275 85 33 40
481 489 243 145 8 44
481 494 243 150 2 46
464 558 230 126 15 42
293 860 320 192 143 129
408 434 320 73 20 30
469 499 250 148 0 46
470 504 250 153 3 48
250 811 221 189 129 97
472 504 249 154 3 49
472 509 248 156 11 51
284 946 303 185 139 117
476 504 246 152 4 47
479 498 245 150 0 47
295 544 81 163 4 37
481 504 242 159 7 50
331 559 272 171 14 53
476 509 246 150 15 49
386 859 307 38 36 35
478 509 244 145 16 47
432 448 275 63 11 26
511 479 222 99 28 41
492 454 239 77 29 37
496 459 237 95 28 38
371 389 288 141 105 74
486 454 242 76 26 33
318 819 275 171 128 102
482 459 244 69 26 31
486 464 243 49 40 39
401 554 122 177 13 41
280 905 303 153 105 92
490 459 241 56 28 32
326 560 86 227 14 46
492 474 239 95 25 38
490 469 240 80 25 36
266 835 242 96 57 57
483 540 218 113 34 48
490 474 240 95 19 34
487 544 182 187 20 54
490 479 240 37 27 30
499 464 235 40 29 30
227 764 237 166 115 85
253 560 234 129 97 68
502 459 233 50 27 30
508 455 229 120 23 45
260 544 259 153 110 87
236 814 237 200 137 108
506 459 231 75 28 35
508 459 229 110 20 39
507 464 228 63 26 33
512 459 224 155 17 49
281 899 277 167 121 96
526 454 213 89 25 35
501 479 232 67 27 35
510 469 225 158 17 51
295 569 248 99 17 36
512 464 224 161 16 53
506 479 227 94 23 37
504 478 230 73 21 31
509 474 225 158 14 50
407 870 317 72 57 47
509 478 225 84 21 33
510 489 221 82 31 39
457 744 237 76 53 43
506 494 222 74 27 36
411 734 178 71 54 43
511 494 217 63 28 37
256 767 269 161 122 86
508 511 208 98 27 37
346 739 177 101 35 37
391 484 306 142 14 43
502 504 222 162 23 55
269 674 211 87 31 38
253 563 193 173 0 47
500 509 222 130 24 45
292 653 178 175 9 42
506 504 217 111 22 40
509 503 215 87 18 32
360 938 233 74 66 67
326 594 272 71 32 38
508 500 218 58 27 31
505 499 221 94 28 40
288 942 315 192 142 122
505 509 216 163 24 55
509 508 211 168 27 57
508 506 214 159 26 56
494 493 235 93 11 32
496 494 233 92 25 39
434 874 214 84 68 53
486 489 241 151 11 47
416 834 307 59 48 39
448 754 258 102 72 51
489 489 240 155 14 49
488 510 234 179 15 56
264 759 200 151 110 76
402 859 232 76 60 53
497 504 228 113 21 42
493 510 229 183 14 59
238 729 256 155 106 80
339 409 263 118 25 45
485 499 241 159 8 50
251 739 217 133 97 67
501 484 231 118 28 45
503 484 229 99 22 38
386 664 267 122 16 39
321 664 172 146 0 34
500 489 231 104 24 40
414 686 229 56 38 37
437 815 252 59 45 41
498 484 234 59 23 31
321 553 78 219 15 49
502 494 227 69 27 34
506 484 227 94 28 39
234 718 231 143 102 70
365 608 149 169 35 55
359 828 174 100 81 65
505 489 226 111 26 43
458 576 208 163 32 57
430 659 267 138 97 66
508 485 224 79 30 38
471 544 232 63 26 35
498 500 229 144 26 52
499 507 225 64 24 26
423 611 196 172 39 58
291 314 257 127 90 68
316 679 173 85 25 34
291 319 257 132 92 72
426 849 197 121 108 102
294 616 254 151 23 57
296 319 258 131 90 71
291 324 257 126 90 69
301 654 261 149 14 47
291 329 257 127 90 70
431 444 277 108 9 35
296 334 258 130 89 73
421 614 202 77 35 41
301 334 257 124 84 68
237 818 266 200 141 114
291 339 258 140 96 77
442 760 231 66 51 44
291 344 257 142 98 76
296 344 257 144 100 77
378 708 299 58 33 30
291 349 257 143 100 78
296 349 257 145 102 78
301 339 257 135 92 71
301 344 257 141 95 72
301 349 257 144 98 74
373 521 60 203 20 45
291 359 256 139 99 78
406 809 299 164 119 93
296 354 257 145 101 80
296 364 257 145 102 79
428 789 215 61 47 46
351 259 262 116 93 68
350 264 262 117 93 67
425 816 222 58 47 43
351 259 267 124 100 73
419 554 289 152 103 84
349 269 262 117 93 67
350 269 267 121 96 70
351 269 272 122 97 69
347 279 262 115 91 65
349 273 263 119 94 68
363 680 172 63 47 40
396 615 171 50 34 38
348 279 266 118 93 67
348 276 266 120 96 69
351 274 272 121 96 69
348 429 280 150 12 46
434 604 267 159 110 79
346 284 262 111 86 61
358 581 115 49 31 39
347 284 267 114 90 64
345 289 267 103 83 59
257 549 217 157 0 45
348 281 270 118 94 68
396 834 277 35 30 29
349 283 273 114 91 67
413 616 190 65 23 26
422 800 216 65 52 46
348 290 276 108 87 65
352 289 281 108 86 64
260 559 177 154 3 42
475 539 232 55 29 33
343 295 259 101 80 53
343 295 262 102 80 54
343 295 271 112 89 63
381 934 312 65 56 51
340 304 262 100 75 50
375 533 73 203 18 47
283 930 263 54 51 52
391 774 296 47 41 40
236 719 252 150 103 75
341 299 267 109 85 58
342 299 272 117 91 64
417 439 297 64 27 33
344 293 272 111 89 64
349 292 279 106 84 63
345 459 272 143 10 44
351 294 282 112 88 64
401 873 321 65 55 50
301 719 285 169 8 53
345 299 278 114 90 63
265 604 182 40 29 34
344 302 279 110 86 60
266 604 177 73 25 36
347 299 281 110 85 61
350 299 283 114 88 63
351 304 285 122 91 65
338 310 264 98 74 49
421 559 152 141 19 42
361 875 291 27 25 25
435 458 283 58 30 27
338 315 263 94 71 47
338 314 267 101 75 50
401 594 272 73 29 32
431 664 272 126 88 56
343 305 280 112 86 60
338 315 276 118 89 61
306 784 278 63 54 48
339 318 279 121 87 66
296 649 257 142 13 44
348 310 285 120 88 65
377 499 296 42 27 28
450 869 212 91 72 58
351 309 285 125 91 66
346 319 286 125 90 69
354 259 274 128 101 71
361 259 281 130 100 73
358 260 280 127 98 72
346 899 212 58 54 56
361 264 281 130 100 72
403 546 294 177 15 58
376 879 307 40 37 39
361 269 281 127 97 68
540 469 192 154 22 51
355 278 279 115 90 65
361 274 282 126 94 68
371 709 303 53 26 31
356 289 283 114 89 66
361 284 283 122 96 69
432 674 277 147 100 66
366 279 282 132 97 68
335 724 174 140 10 35
366 289 283 124 96 64
287 529 83 132 6 34
371 259 282 136 103 69
376 259 282 136 103 66
376 269 281 139 101 68
478 536 229 111 30 43
383 259 279 134 101 65
441 784 246 64 50 42
521 468 127 131 18 29
383 264 279 136 101 65
428 446 264 69 12 30
390 617 169 205 19 49
382 269 279 137 101 65
371 274 282 138 101 67
296 594 117 102 34 43
371 289 282 131 98 65
441 834 232 44 36 33
376 284 281 137 101 67
382 274 279 139 100 66
290 587 109 64 33 31
381 279 278 139 100 68
228 772 229 176 120 89
380 274 280 139 101 67
381 289 278 136 102 68
379 284 280 138 102 70
254 578 230 122 93 62
355 293 284 117 90 66
281 554 97 63 33 36
291 729 285 68 22 34
433 624 288 168 117 84
251 724 218 130 94 64
361 295 285 127 98 68
251 749 217 127 93 62
366 294 284 131 98 65
252 549 252 153 112 88
364 296 285 133 101 67
266 679 257 150 109 82
273 774 194 150 109 71
364 303 285 145 100 73
420 416 272 67 59 52
369 957 268 69 65 66
296 644 256 146 14 47
316 694 283 131 25 46
356 309 285 136 98 73
361 309 285 146 100 73
360 319 285 137 94 67
376 629 172 68 37 42
362 314 284 133 92 64
253 552 201 160 0 45
401 599 273 99 41 43
363 319 284 140 96 69
366 314 282 136 95 65
252 639 222 143 106 73
371 304 282 147 101 72
375 299 280 144 102 72
417 794 211 64 50 44
375 304 280 146 102 73
378 291 279 140 104 71
378 294 279 142 104 71
361 682 289 78 18 31
381 299 278 141 102 70
467 550 233 96 27 43
383 539 300 138 18 44
227 769 242 164 113 83
377 304 279 146 104 74
381 304 278 142 102 71
376 309 279 144 104 73
374 309 280 143 101 71
373 315 279 140 99 67
326 524 256 103 7 32
290 862 286 126 104 83
256 554 212 161 0 47
372 319 279 143 102 70
376 319 279 143 105 71
371 314 280 140 99 67
381 309 277 143 104 73
381 314 277 141 104 72
390 513 77 91 29 41
335 329 262 98 73 49
296 614 142 233 15 49
336 324 267 106 74 52
344 838 177 82 70 61
398 841 303 39 35 32
252 534 243 138 103 77
335 334 262 103 74 52
408 630 216 55 31 35
335 334 267 113 78 56
336 334 272 123 83 62
412 866 297 74 57 49
281 589 247 42 30 29
341 729 176 137 10 33
326 351 260 96 70 52
341 324 282 131 94 73
333 340 262 104 74 53
535 478 192 180 17 56
334 338 262 106 75 53
401 678 197 113 60 37
333 344 262 107 74 54
335 339 267 118 80 58
355 719 162 73 55 46
335 344 267 121 82 61
238 695 237 143 101 68
436 690 238 119 96 79
270 589 157 77 22 34
332 350 262 109 75 55
372 334 279 138 100 67
333 346 265 115 79 57
388 508 300 48 24 28
333 349 266 119 80 60
337 324 277 131 93 70
392 754 172 65 51 45
337 329 277 130 90 69
398 460 306 80 16 31
341 329 282 133 93 73
339 330 279 131 91 70
288 902 325 193 143 125
383 886 235 67 58 56
441 593 197 209 15 56
243 794 219 174 119 85
341 334 282 131 93 71
346 324 286 137 94 75
351 329 286 143 97 77
347 334 285 135 94 72
406 459 316 148 25 52
371 494 286 103 13 35
366 618 158 192 23 50
261 654 216 150 104 73
334 359 268 132 90 70
443 795 277 164 106 73
351 334 285 137 95 72
336 339 272 126 86 65
527 494 187 185 8 56
339 344 279 137 98 75
339 349 279 139 99 77
316 623 148 221 14 46
340 434 262 139 7 42
408 871 266 68 56 52
411 769 302 169 127 96
345 339 284 137 97 74
341 854 293 149 120 91
228 794 247 175 121 92
347 339 285 139 99 74
321 634 270 121 27 45
347 344 285 142 99 79
256 807 214 188 130 96
351 344 285 144 101 79
537 467 161 91 27 26
345 349 283 142 98 79
331 354 262 114 77 58
331 359 262 119 81 62
332 359 266 124 85 65
435 694 262 114 83 54
333 354 266 119 80 61
441 739 282 164 111 77
336 354 272 136 93 73
234 820 247 213 146 117
255 515 241 174 127 111
336 359 272 139 96 75
332 369 262 125 85 66
333 364 265 131 90 69
311 543 73 119 26 41
321 654 271 145 27 52
335 364 268 135 93 72
336 364 272 139 96 76
316 829 278 152 120 95
241 684 242 137 97 66
391 894 257 68 58 54
462 729 242 86 66 48
333 372 265 132 91 71
444 469 285 155 107 81
413 644 250 109 72 49
310 956 245 75 71 73
334 375 264 132 89 71
336 384 262 135 91 73
336 379 267 139 95 76
342 354 281 142 99 80
343 364 280 146 105 82
343 369 280 145 106 81
393 469 301 98 14 34
253 513 242 180 135 118
346 354 283 144 100 81
456 914 177 107 92 79
348 353 285 144 101 80
350 364 284 145 104 82
422 678 241 88 68 46
352 364 285 144 103 80
350 369 284 142 102 79
337 374 272 142 100 78
338 379 271 142 99 79
338 384 270 145 100 81
384 923 282 51 48 48
436 694 267 131 92 58
338 373 275 142 100 80
339 376 274 142 101 81
390 509 303 44 27 29
343 372 280 143 105 80
423 816 299 151 95 73
344 385 279 144 104 82
386 924 272 45 40 36
267 568 114 173 4 41
346 379 281 142 103 81
350 379 284 140 101 79
356 324 286 147 99 74
360 324 285 141 97 69
356 334 285 138 93 68
237 704 237 145 102 72
250 534 182 92 28 40
363 324 284 141 98 69
271 524 97 85 21 34
362 329 284 138 96 66
366 334 282 136 96 67
356 339 285 140 96 70
356 344 285 141 98 72
254 599 225 128 98 70
361 339 284 140 98 69
359 339 285 141 97 69
400 863 233 84 66 60
359 344 285 140 98 69
356 349 285 143 100 73
318 884 194 88 76 73
360 350 285 138 98 68
246 749 264 157 114 85
394 733 164 61 48 38
362 344 284 140 98 69
266 534 262 160 114 91
372 329 279 142 101 70
434 421 280 60 42 40
376 324 278 145 104 74
275 559 137 91 17 35
428 629 261 138 99 68
431 840 257 66 51 39
296 909 242 159 111 86
376 329 278 146 105 74
370 334 280 136 97 67
381 329 277 146 106 77
350 479 273 151 8 46
408 649 246 61 31 32
443 739 231 115 86 78
381 334 277 146 106 76
285 554 92 61 34 35
524 493 200 124 21 39
377 344 279 134 102 67
436 599 272 162 114 81
380 554 299 164 17 52
374 340 280 134 100 67
375 344 280 130 98 62
375 349 280 124 96 63
382 890 241 63 54 54
381 339 276 144 107 74
383 339 274 142 106 74
383 343 274 141 109 73
381 349 277 134 103 69
297 704 178 51 34 38
404 443 313 62 22 30
361 354 285 137 100 68
371 623 163 140 26 46
311 644 266 100 21 39
442 784 232 60 47 41
361 369 287 140 104 73
363 353 284 134 99 65
504 517 162 161 26 49
366 354 284 131 99 65
366 359 285 133 101 65
356 379 287 140 104 77
361 379 287 141 105 75
387 369 277 127 98 66
393 545 105 145 11 37
361 384 288 142 105 77
366 379 288 141 104 74
370 360 285 132 102 66
382 585 131 116 30 44
376 359 282 125 98 65
371 369 286 135 102 68
267 614 258 153 107 81
409 697 201 68 46 39
376 364 283 128 100 65
374 366 285 131 101 66
383 363 279 129 101 68
381 364 281 127 99 65
371 384 288 141 105 73
256 524 256 150 111 87
376 379 286 137 101 68
303 898 330 192 141 126
376 384 287 137 102 70
380 379 285 132 101 67
380 384 286 132 100 67
266 469 258 130 96 75
422 673 289 166 114 82
265 473 259 142 98 81
460 914 187 102 90 78
272 473 258 131 94 76
296 719 285 173 10 54
270 475 260 144 102 83
253 558 188 177 1 49
428 812 138 104 84 67
271 479 260 164 116 97
274 480 260 147 109 86
261 489 258 156 112 91
261 494 258 158 113 91
266 484 260 162 113 92
266 489 260 161 116 94
271 489 261 163 117 93
429 825 223 55 44 39
396 529 304 115 29 46
251 754 216 121 88 57
261 504 258 162 117 95
263 500 260 159 115 92
412 429 325 42 29 30
301 607 134 66 33 38
261 509 258 162 117 94
263 509 260 159 114 93
266 499 260 153 112 87
454 883 194 104 85 64
271 499 261 153 111 85
271 504 261 153 112 87
459 909 187 109 94 79
266 509 261 163 117 96
278 483 259 143 107 81
281 484 258 124 88 66
281 489 259 154 109 87
279 494 260 166 118 97
278 499 259 156 111 84
278 496 259 160 113 88
281 499 258 164 115 94
278 504 259 158 112 90
281 504 258 167 119 97
526 469 137 79 17 27
391 749 295 66 53 46
275 509 260 161 113 88
288 542 84 132 26 48
277 509 259 153 106 84
420 439 291 124 20 41
338 387 270 146 101 82
304 904 227 52 47 47
339 390 269 145 98 81
338 394 262 135 90 74
338 397 265 140 95 78
339 399 267 143 98 79
384 562 109 66 34 41
343 399 276 146 104 83
376 854 272 29 27 27
344 394 278 147 105 84
345 399 278 145 104 82
311 699 281 66 24 34
347 399 281 144 103 81
339 409 267 133 28 49
339 416 259 143 6 44
432 875 213 88 71 58
340 414 267 146 11 45
361 533 63 215 17 51
343 410 275 95 49 45
379 924 325 63 57 55
343 414 276 130 17 45
351 582 114 118 36 46
345 414 278 153 14 49
347 414 281 150 14 47
340 419 262 145 5 44
326 615 141 225 15 49
342 419 272 151 11 47
341 424 267 145 7 44
403 789 300 168 129 100
296 929 326 194 151 133
343 424 271 146 9 44
343 429 270 146 9 44
391 725 158 73 54 41
344 424 273 148 10 45
350 419 283 148 15 47
354 877 187 75 69 68
350 424 283 146 13 43
437 885 204 96 81 68
350 429 283 145 13 45
339 434 258 132 9 40
427 831 283 77 52 41
434 819 273 101 67 49
339 439 258 102 21 39
343 434 270 147 9 46
342 439 267 130 11 41
343 438 270 144 9 43
339 444 259 30 26 28
267 624 258 160 111 87
340 444 262 48 25 30
342 449 267 140 10 44
345 434 272 146 9 45
478 521 239 157 19 53
250 534 192 52 30 34
316 626 150 224 14 48
373 649 185 83 29 40
426 504 294 156 114 85
347 434 277 144 11 44
455 840 243 81 65 52
349 440 279 134 16 47
504 512 149 111 14 31
406 679 207 64 48 36
348 432 280 145 12 45
351 439 282 115 17 39
351 449 282 100 23 38
326 903 202 89 81 83
353 394 285 146 106 82
356 394 287 146 106 81
359 967 277 65 59 59
353 410 285 128 93 72
376 389 287 137 103 72
300 629 258 80 20 32
383 388 284 127 97 64
381 409 289 105 85 63
456 579 192 174 23 54
412 494 297 53 29 31
270 579 162 67 28 33
439 793 295 177 120 89
361 389 288 143 106 80
361 394 288 144 106 80
361 399 288 144 105 80
366 399 289 142 106 79
342 839 187 58 51 50
407 509 303 44 28 30
416 439 321 94 27 39
359 413 289 117 72 56
365 403 289 141 104 78
362 410 290 132 98 74
364 702 166 67 48 44
346 556 85 232 16 46
371 398 289 140 106 78
376 394 288 137 103 74
376 399 289 137 105 77
371 409 290 132 101 75
281 524 88 88 24 34
375 405 290 132 101 75
376 414 291 108 59 50
289 912 260 67 62 60
306 970 297 56 51 49
378 407 289 119 94 69
330 874 321 148 117 86
311 557 84 222 15 45
475 559 197 175 20 52
382 412 289 86 71 55
311 594 267 99 28 42
353 434 285 87 19 35
233 818 252 209 145 114
271 649 202 140 12 38
478 555 197 195 18 56
353 438 285 119 21 42
356 439 287 98 23 39
450 579 227 182 16 55
418 814 208 44 36 35
356 444 286 102 24 40
354 445 284 42 23 29
425 613 207 132 40 53
354 450 284 118 19 42
361 444 288 46 26 31
406 874 282 70 56 51
358 424 290 127 20 43
359 952 311 63 57 56
358 427 290 68 14 24
251 529 177 40 32 35
361 429 290 115 18 38
359 430 289 49 27 31
366 424 292 54 26 30
539 458 201 163 19 52
366 429 291 71 27 34
406 838 309 67 52 38
360 434 289 69 27 34
362 434 290 112 32 46
366 439 290 34 29 30
436 844 202 62 49 41
366 449 290 35 28 30
371 419 292 139 16 44
371 424 292 127 18 42
382 576 120 41 35 40
321 819 208 76 58 50
305 893 242 76 53 43
376 419 292 128 17 42
371 429 292 99 25 40
381 419 292 63 25 31
371 434 292 68 28 34
371 439 291 47 29 30
376 434 292 73 25 32
462 560 228 70 28 39
273 894 292 189 135 117
371 449 291 37 27 29
376 444 292 80 24 34
376 449 292 44 25 29
381 449 292 108 13 36
431 804 221 70 55 49
294 692 274 108 0 30
340 454 262 93 17 36
340 459 262 143 7 42
256 819 227 205 139 108
336 914 323 116 90 71
339 464 259 107 13 37
248 812 224 188 129 96
342 459 266 147 8 44
343 464 266 146 8 45
347 601 130 217 14 50
350 459 278 107 27 44
352 459 281 43 26 29
301 598 123 134 37 50
281 835 232 93 70 61
340 469 262 108 16 40
341 474 262 99 19 37
339 479 258 53 26 29
366 649 181 83 32 36
387 565 116 175 29 47
435 735 218 55 41 37
341 479 262 41 27 29
343 474 265 143 13 46
343 479 265 37 26 27
344 469 268 139 13 45
348 479 271 125 13 42
352 479 276 155 9 47
340 489 258 133 11 43
322 957 244 89 86 89
342 484 262 87 21 36
442 433 273 71 39 34
343 483 265 45 22 26
465 569 207 54 31 34
466 914 217 92 76 60
340 494 258 99 16 37
344 486 264 147 16 51
351 859 171 100 83 77
346 489 267 150 5 45
422 464 287 61 40 37
344 494 263 145 6 44
311 583 108 114 24 41
351 913 323 32 31 32
367 905 326 40 35 35
343 498 260 141 7 43
343 504 261 136 7 41
345 499 263 144 8 44
352 499 271 145 10 43
366 699 301 139 14 44
350 504 268 143 11 43
296 618 148 227 14 51
352 504 271 144 11 44
452 754 252 74 56 47
391 469 297 73 23 31
344 509 263 137 9 42
457 914 191 94 81 71
251 654 258 171 123 97
434 681 267 128 92 59
539 464 196 141 26 50
347 509 266 140 11 43
247 639 247 155 108 79
354 454 284 32 27 31
355 459 283 61 25 34
357 459 286 56 28 35
358 739 300 35 32 34
358 463 285 109 24 41
353 469 280 62 25 30
406 415 292 72 54 49
358 468 285 128 40 55
355 479 278 158 9 48
357 479 281 158 9 49
366 469 288 86 23 35
275 579 112 150 8 38
254 556 199 156 0 43
284 775 274 55 46 42
406 639 282 169 126 107
236 814 267 196 139 112
362 474 286 86 27 39
364 454 289 67 27 35
532 473 136 116 14 29
366 454 290 65 30 36
294 930 324 192 150 132
367 459 290 109 23 39
376 464 291 38 27 27
381 459 291 87 25 37
376 469 290 80 23 33
381 469 291 115 16 39
299 535 75 161 3 41
381 474 291 63 23 32
377 479 290 56 23 29
424 547 144 127 34 45
366 924 332 54 49 48
355 484 278 156 7 47
403 463 315 59 23 31
353 487 275 156 6 51
354 490 274 154 8 47
521 485 131 121 21 40
354 494 274 149 9 45
412 864 317 73 61 54
359 490 279 156 9 46
424 603 246 181 15 54
266 824 222 168 118 95
541 469 162 85 33 31
366 484 286 155 12 49
416 749 197 66 51 42
444 804 247 67 56 50
266 824 266 197 150 123
364 485 284 159 8 48
362 494 281 146 10 44
355 499 274 147 11 46
355 504 273 147 12 46
291 589 112 69 36 39
357 499 276 148 11 46
361 504 278 144 13 44
343 595 280 56 30 34
363 503 280 147 13 46
316 884 331 142 112 82
245 816 230 200 138 107
363 510 281 71 19 30
371 489 286 140 12 44
368 494 285 100 15 36
399 619 269 111 47 46
375 494 288 118 12 38
441 529 147 181 14 43
368 499 285 35 26 29
371 499 287 34 26 28
378 490 290 127 10 39
380 494 297 41 28 30
374 498 289 45 27 26
450 859 222 58 48 41
373 501 290 40 26 30
376 504 297 79 25 34
284 909 308 118 84 76
396 729 167 57 45 39
379 499 299 32 27 29
382 504 300 53 27 30
381 509 298 90 31 41
445 836 227 57 46 40
294 719 180 142 8 38
392 259 273 131 98 63
305 641 165 212 12 47
394 259 270 130 96 66
400 259 266 129 97 65
399 264 265 129 96 66
379 873 313 35 32 32
400 269 262 129 95 63
396 269 267 136 101 70
394 269 270 137 101 70
306 774 279 65 55 51
274 888 297 158 119 98
390 394 281 119 94 68
296 654 176 176 7 42
386 264 277 135 100 65
410 829 287 58 32 29
389 264 275 134 102 66
386 269 277 137 101 67
323 826 280 142 115 91
341 915 220 71 66 69
247 589 237 144 107 75
389 268 275 138 101 69
391 274 272 138 100 70
242 709 256 150 105 77
384 333 275 146 108 78
390 284 271 137 101 70
390 289 271 134 101 69
345 864 295 141 112 85
398 279 262 135 96 67
394 272 270 137 102 70
396 289 262 134 96 66
388 279 274 135 99 68
388 274 274 138 101 68
385 284 275 136 102 68
338 850 174 85 71 60
308 531 250 33 29 27
387 289 273 133 101 67
401 259 262 126 94 63
316 634 268 87 27 39
392 294 268 136 101 70
392 299 267 135 100 70
387 299 273 137 102 70
392 304 267 133 98 69
383 934 282 61 55 53
426 853 197 118 101 89
394 294 266 135 99 69
395 299 262 126 94 66
245 810 226 184 125 92
437 564 282 164 114 83
349 823 180 74 58 50
395 304 262 122 92 62
384 299 275 138 102 69
387 304 273 139 101 71
316 939 331 48 41 40
392 309 267 132 99 69
387 314 273 141 105 75
387 319 273 141 106 78
393 306 264 129 95 64
394 314 262 123 94 63
393 319 264 127 96 65
384 309 275 141 105 72
384 319 275 143 104 75
391 324 267 136 101 74
386 324 273 140 106 77
391 329 267 138 102 75
386 329 272 142 107 78
275 519 102 130 2 38
416 469 297 99 61 53
389 329 270 141 107 78
391 334 267 140 104 76
389 334 270 143 108 79
421 808 155 105 83 58
393 324 263 128 98 66
274 512 94 129 0 36
384 324 275 143 106 77
386 339 272 141 107 76
391 339 267 140 105 75
390 894 252 65 55 52
356 709 162 66 52 42
393 520 90 76 34 39
248 609 229 143 107 74
394 344 261 131 100 69
403 750 190 56 44 41
384 350 275 133 102 70
336 919 221 74 69 72
392 359 267 134 103 71
342 744 290 74 60 53
253 644 260 170 122 95
268 827 265 187 148 122
439 739 286 163 110 78
390 369 272 129 100 67
395 354 262 133 102 70
396 364 262 132 101 70
398 369 258 131 101 68
376 882 299 30 27 32
303 954 325 45 42 43
394 365 265 134 103 69
393 369 268 130 100 67
394 369 266 131 101 68
385 359 276 129 101 68
384 370 280 126 97 64
395 374 266 128 100 67
281 616 145 235 19 56
297 629 256 54 23 28
267 554 116 121 2 38
445 769 257 160 112 80
389 592 148 200 13 46
399 385 261 125 98 66
389 374 276 127 100 66
385 374 281 128 99 66
442 884 182 97 74 51
361 903 224 65 58 60
388 379 278 126 98 65
365 873 182 76 72 73
390 379 276 125 97 64
391 384 277 125 98 66
385 379 281 127 98 65
386 384 282 126 96 64
446 740 223 87 68 54
429 813 142 106 86 68
400 389 262 123 96 66
398 388 264 123 97 66
381 809 192 50 41 37
397 389 267 123 97 67
264 618 178 138 5 39
340 844 182 74 65 59
395 389 272 123 97 67
399 391 265 121 96 67
272 549 117 128 4 39
230 769 258 155 110 79
398 394 268 120 95 67
401 394 262 120 96 67
413 626 227 63 31 33
255 564 231 120 81 60
297 642 169 203 15 50
396 394 272 119 95 67
342 728 295 138 25 51
397 399 272 107 86 65
533 491 173 62 32 38
398 397 269 113 91 66
399 400 271 100 82 64
520 474 216 97 21 40
391 574 287 123 20 45
246 709 218 130 97 62
393 846 303 36 32 31
384 390 285 125 97 66
390 399 281 107 87 65
365 842 182 80 68 61
355 963 297 59 53 51
393 576 284 62 27 32
256 829 262 206 143 118
394 394 276 118 94 67
399 404 271 79 68 57
388 404 284 95 78 59
386 409 286 85 71 55
388 408 284 78 66 53
386 779 182 60 48 44
262 549 260 154 110 87
389 411 285 73 58 46
391 415 287 60 50 44
395 404 277 78 66 55
398 408 273 67 59 52
255 519 241 152 104 88
402 413 273 68 58 51
401 415 277 71 56 50
396 416 287 61 55 47
402 399 262 112 90 66
403 404 258 103 84 64
469 527 144 203 14 40
514 487 129 127 25 47
403 408 259 84 72 58
402 409 267 71 63 55
344 810 279 192 143 118
406 415 272 66 55 48
411 415 267 71 63 54
411 416 272 65 56 50
406 415 287 75 53 49
411 416 282 77 44 44
411 416 287 71 42 42
293 932 234 79 69 69
378 586 130 82 28 40
391 416 290 63 50 33
443 769 288 167 112 79
406 416 297 69 54 48
411 415 292 79 45 44
412 620 212 144 30 48
411 415 297 77 50 47
273 560 126 130 3 38
411 414 307 50 30 30
415 415 312 80 27 35
412 416 316 75 22 30
377 626 170 50 32 37
414 416 262 69 61 54
431 854 202 77 65 56
413 417 267 71 63 54
244 692 254 149 104 78
378 920 246 77 66 65
376 846 264 31 27 26
416 416 268 69 61 53
416 416 272 64 57 51
391 429 294 106 18 36
396 416 291 63 53 43
396 418 293 97 29 33
432 659 277 142 97 63
397 424 296 126 11 39
401 416 292 66 54 45
400 417 293 64 51 39
251 814 271 193 140 111
326 699 287 32 28 30
393 430 295 34 24 29
427 424 292 168 11 52
304 926 329 186 145 123
386 434 293 33 28 29
391 434 294 49 26 30
401 809 297 161 119 94
390 439 294 98 17 35
371 664 272 155 10 49
386 449 293 124 8 37
234 796 230 177 119 88
390 449 294 126 9 38
396 434 297 122 10 38
267 584 259 158 110 84
393 439 295 125 11 38
400 439 302 131 12 40
228 789 237 174 118 88
398 444 301 129 14 42
397 449 301 113 15 38
403 416 295 68 55 49
401 424 302 135 12 43
327 581 110 184 19 47
405 417 298 63 55 48
258 538 168 53 32 37
316 769 281 68 58 53
403 421 306 142 15 43
405 419 307 84 21 29
404 424 312 144 16 46
531 449 192 105 29 35
405 429 312 142 14 44
407 429 317 126 19 42
406 694 202 77 48 46
332 571 100 144 20 42
410 418 318 98 19 35
416 444 297 46 26 31
416 599 292 159 115 89
415 449 302 61 24 34
402 434 307 138 13 43
342 699 295 94 21 38
254 568 254 149 109 83
402 439 307 133 13 40
404 433 309 140 14 44
405 439 312 103 16 37
300 863 276 102 82 59
291 859 318 178 138 119
407 434 317 114 17 37
403 444 311 68 20 28
434 568 255 112 38 52
404 448 314 77 20 28
376 513 296 102 33 44
321 699 173 114 18 32
411 449 318 62 27 32
368 711 150 70 53 40
416 444 312 127 16 41
421 418 262 73 64 56
431 809 133 100 82 66
422 417 272 69 61 54
426 419 262 74 65 56
426 417 272 70 62 54
431 419 272 70 62 54
341 849 172 90 73 61
285 734 283 165 18 54
421 416 277 57 49 44
303 854 257 185 133 103
425 416 288 49 28 30
427 417 286 59 29 28
431 419 287 113 23 41
432 429 283 94 18 33
428 448 263 59 18 26
273 648 193 162 25 55
351 729 297 187 18 60
274 580 115 138 6 43
431 446 266 76 16 35
446 569 173 48 32 37
431 449 267 64 17 27
431 449 272 56 14 24
429 538 143 112 21 38
417 449 277 55 26 29
381 558 103 103 33 43
440 873 218 106 84 58
421 447 276 71 26 31
419 447 282 59 22 28
422 439 289 139 13 42
422 445 282 86 16 33
432 434 283 131 14 42
305 914 329 74 61 62
429 434 285 147 10 45
431 439 282 124 13 40
425 442 285 137 16 45
321 684 277 62 26 30
294 584 254 132 9 41
428 441 284 136 12 43
396 808 200 55 45 41
280 674 192 64 31 36
433 422 261 74 65 57
514 507 158 183 18 51
434 421 267 74 66 58
406 669 227 62 31 34
398 894 307 48 41 34
398 881 307 67 55 48
436 424 267 74 65 56
274 534 145 95 30 40
268 526 95 58 29 27
441 426 262 76 66 58
440 426 266 73 64 56
441 428 267 74 64 55
247 589 247 149 109 80
446 429 262 79 69 61
433 424 284 109 20 37
439 430 275 65 25 28
435 429 281 78 22 30
325 814 206 70 56 50
446 434 272 106 82 62
441 439 276 70 36 31
375 829 197 58 51 52
326 909 328 151 111 87
434 449 272 54 13 24
366 702 157 70 49 46
436 449 277 49 15 23
446 444 278 119 92 68
394 824 203 70 57 51
336 943 335 56 49 46
448 449 278 141 102 82
498 516 219 141 28 60
445 449 281 137 97 77
253 734 265 168 120 94
375 685 286 114 0 34
256 624 261 157 113 86
428 419 293 133 20 44
245 784 215 165 113 77
425 424 302 158 13 50
376 939 297 57 50 47
424 427 302 168 10 52
264 624 183 83 22 36
417 419 312 67 24 31
444 498 281 178 123 94
420 424 312 79 15 31
422 424 308 77 20 32
431 574 291 171 120 87
286 919 317 163 128 108
418 422 313 57 20 27
259 589 209 35 28 33
420 424 317 68 21 29
420 429 312 93 14 35
400 514 97 43 33 38
247 624 252 153 109 81
301 749 181 165 5 40
424 424 306 67 18 30
418 435 301 99 10 32
417 439 302 70 21 33
417 444 293 55 27 30
425 433 291 156 8 48
311 519 61 92 31 40
380 814 197 48 44 41
418 435 317 80 16 30
476 549 217 113 36 48
416 449 307 103 21 36
251 832 252 206 137 109
426 484 294 159 115 90
451 584 192 217 18 57
408 424 321 140 22 51
342 824 188 69 56 52
413 432 325 77 30 42
274 666 200 109 34 47
416 744 298 171 125 91
411 444 320 110 26 41
420 424 322 99 26 37
291 858 292 117 97 78
418 430 324 138 28 45
386 454 293 128 10 39
345 637 164 121 47 60
386 459 293 91 16 33
266 620 156 163 27 51
396 904 307 56 49 44
387 621 170 117 35 48
386 464 293 70 27 33
394 458 299 125 14 44
399 454 304 69 20 30
330 903 203 75 68 68
399 462 309 139 20 49
271 529 263 164 116 93
415 694 194 71 52 42
305 649 263 145 15 47
400 464 313 115 20 40
282 559 97 64 29 32
357 669 180 85 27 30
384 479 294 36 26 28
401 469 313 118 22 42
303 864 262 182 134 109
394 472 304 116 12 35
392 479 306 135 11 41
413 455 300 64 33 35
272 569 157 88 23 36
414 454 302 79 32 41
413 459 302 58 28 34
331 598 124 219 16 49
413 464 302 43 30 32
401 454 312 79 22 33
371 774 167 78 57 43
406 454 318 131 23 47
283 926 264 55 52 53
406 463 315 135 25 48
413 455 313 108 16 37
496 529 207 74 27 36
414 457 307 34 28 30
412 459 312 82 22 34
413 469 302 74 32 37
414 468 300 59 32 34
416 474 297 107 59 51
412 469 307 40 30 33
409 478 310 143 26 50
386 484 297 109 11 36
386 489 302 84 22 33
388 481 300 124 12 40
249 514 207 86 26 37
390 483 303 127 12 38
386 494 303 57 29 32
389 487 304 102 14 34
391 489 306 93 26 39
391 494 305 49 26 30
398 482 310 133 23 48
411 711 194 63 42 41
399 484 309 90 17 34
400 489 309 125 25 45
401 494 309 109 19 40
333 855 182 87 75 65
386 504 301 46 26 28
446 854 217 69 56 48
390 499 304 47 26 30
394 837 204 69 57 52
253 548 210 163 0 48
390 504 303 41 26 27
392 499 305 42 26 28
396 499 307 113 21 41
249 639 226 137 101 69
393 504 305 65 29 34
286 618 148 168 15 46
396 504 307 116 26 44
401 504 308 90 23 37
360 877 185 71 66 66
393 509 305 69 28 33
412 484 302 82 30 37
495 534 182 207 16 54
411 489 302 111 29 42
413 484 299 105 38 46
385 709 163 74 57 47
361 804 287 123 97 84
416 695 223 48 40 38
416 489 296 98 63 54
413 496 294 69 32 34
386 808 158 96 73 52
410 484 307 92 33 41
377 889 227 85 72 69
408 481 309 86 25 34
410 489 306 111 28 43
409 493 306 122 25 42
253 552 184 172 3 42
416 504 292 97 43 43
406 499 307 128 21 46
405 504 306 48 28 30
405 509 305 47 28 28
277 924 287 174 136 114
409 497 305 167 29 59
419 456 284 51 26 29
421 459 287 59 36 34
426 450 274 61 21 27
426 453 274 44 24 25
431 454 277 56 18 25
430 458 278 55 20 23
426 463 283 45 26 27
341 924 336 42 38 38
413 590 165 180 12 40
431 459 282 46 20 24
432 604 232 44 27 34
275 528 89 123 10 35
430 463 283 42 21 24
430 468 289 71 49 38
482 545 171 72 34 37
434 449 269 57 12 24
438 450 280 60 23 23
371 628 168 69 32 38
441 454 283 125 89 69
274 527 103 129 10 35
433 456 280 55 25 26
387 639 264 147 17 48
397 669 272 120 77 69
344 876 300 134 103 79
306 701 280 140 14 43
436 464 288 115 86 67
442 458 283 148 106 83
447 459 279 96 61 50
447 463 279 104 72 56
298 954 320 49 43 44
441 469 288 158 107 86
248 801 275 166 124 97
395 904 297 66 59 55
444 466 285 150 104 81
444 474 285 159 110 84
420 454 291 116 81 66
430 857 246 66 52 49
418 464 294 129 90 73
421 469 292 122 87 68
431 864 197 86 74 64
419 470 295 128 95 74
401 734 172 62 45 40
422 474 293 130 98 71
437 468 289 134 96 76
383 649 190 82 29 35
426 471 290 70 47 38
426 474 292 100 74 56
436 470 290 141 100 81
445 494 282 173 119 91
441 509 263 47 30 31
411 824 292 113 78 60
446 504 263 95 27 38
447 500 267 170 108 94
445 504 272 182 127 105
442 505 264 65 32 35
273 584 118 104 27 39
277 514 259 147 101 79
446 509 262 60 26 32
348 739 295 81 53 53
442 505 267 122 78 70
442 509 272 149 103 84
443 506 271 171 120 99
440 509 287 166 117 88
445 499 277 177 121 95
444 504 277 175 119 95
440 499 287 171 122 91
421 484 295 153 109 86
251 831 258 215 148 124
421 494 294 163 118 97
424 485 295 160 115 91
227 784 252 169 118 88
446 754 277 169 116 81
422 810 138 101 85 71
424 489 295 166 119 95
431 489 293 161 116 87
431 494 293 157 116 83
460 724 245 66 49 35
426 499 294 167 121 93
228 774 232 173 117 88
431 499 294 164 120 87
440 729 282 161 107 74
326 939 335 53 49 48
431 504 294 164 118 86
427 506 295 155 112 84
504 523 187 212 18 57
429 505 295 159 114 85
432 509 294 160 115 82
441 529 277 177 122 95
438 480 289 161 116 90
438 494 289 156 113 82
473 520 244 177 13 55
438 509 289 162 115 86
452 433 263 62 51 47
456 437 264 63 46 39
450 434 267 85 60 52
461 435 262 129 107 90
248 519 187 95 24 38
228 769 252 159 111 81
258 721 265 166 118 93
463 439 262 115 80 68
461 439 266 124 94 71
373 951 277 61 55 53
460 445 271 132 105 80
425 738 188 71 52 42
463 449 268 125 86 70
316 856 307 109 88 66
449 445 276 117 87 68
446 779 277 167 111 77
257 534 256 161 117 94
452 448 274 63 18 26
461 454 272 150 105 88
455 579 212 114 24 43
461 459 271 138 95 78
325 971 294 72 70 71
461 464 271 152 108 89
353 529 285 71 28 36
463 465 268 179 124 109
456 450 275 106 78 58
456 454 276 131 96 75
451 464 278 147 107 85
455 464 276 183 130 112
274 694 200 50 31 34
316 719 174 115 23 37
340 898 203 65 60 59
276 669 247 99 73 61
459 457 275 167 116 99
412 624 217 71 38 43
369 563 289 67 22 29
276 694 197 55 33 38
405 844 277 35 30 29
460 468 270 181 128 111
454 468 275 171 121 102
450 466 280 138 104 78
451 479 277 168 114 91
382 595 146 208 14 49
453 480 273 174 118 98
467 454 262 147 109 86
227 759 242 166 114 86
465 454 266 128 97 72
465 464 262 132 56 59
292 934 321 189 146 128
465 464 267 174 119 105
337 724 175 136 14 34
346 829 282 151 122 91
455 484 267 158 110 89
452 484 272 174 119 96
452 489 272 176 119 98
333 545 271 105 4 32
301 774 278 69 59 53
256 614 261 148 106 78
454 492 261 117 60 59
460 484 261 179 125 108
450 484 277 177 121 98
391 864 273 39 35 33
449 489 276 178 120 98
449 482 280 175 121 97
449 492 275 179 124 97
320 860 316 130 106 81
451 504 258 144 10 43
272 709 202 116 14 36
449 504 260 138 16 43
449 497 267 183 120 104
376 684 282 113 0 32
382 742 299 156 23 52
421 806 146 99 79 61
449 497 270 189 133 109
452 509 258 140 14 44
255 514 167 146 2 38
255 519 167 151 3 39
252 514 173 143 12 39
251 770 270 160 123 90
250 514 177 74 29 36
254 514 170 146 4 36
373 692 294 116 5 35
238 700 246 141 99 68
251 519 177 56 34 35
256 524 167 153 5 40
257 594 223 103 76 56
417 624 247 97 46 45
253 524 173 77 30 35
251 524 177 57 33 34
248 514 182 50 33 35
248 518 192 152 6 43
249 524 182 52 34 33
250 529 182 55 33 35
246 804 274 171 127 100
411 584 282 149 104 88
249 520 192 135 12 43
249 529 187 63 30 34
249 529 192 62 30 34
257 534 167 91 27 40
270 584 157 49 30 33
380 934 287 62 56 54
253 539 178 169 7 44
255 544 177 167 10 44
521 446 193 104 28 33
251 539 182 130 20 44
252 544 182 46 28 35
251 544 192 45 31 34
257 549 177 176 5 45
401 854 317 49 42 37
253 548 183 142 9 41
254 546 180 116 11 36
252 549 192 75 23 36
270 759 196 155 110 76
426 864 197 77 68 62
253 559 192 164 0 44
256 564 187 175 6 46
254 560 190 179 6 50
259 804 275 172 133 98
255 569 192 179 5 49
248 518 197 156 3 43
270 579 157 94 29 39
249 520 197 156 2 43
301 704 176 55 35 37
249 514 204 83 32 40
415 858 267 77 60 56
252 514 217 48 29 32
252 519 217 50 29 33
253 514 220 52 29 32
316 589 116 206 15 49
387 865 287 32 30 31
255 514 222 73 27 33
379 807 189 69 52 44
254 519 219 54 30 33
373 556 95 66 28 36
251 524 212 86 22 36
257 529 221 144 9 46
236 824 252 223 153 125
250 534 197 65 28 34
251 534 207 165 0 47
363 561 280 37 25 30
306 719 285 167 10 52
438 765 226 67 48 43
251 539 202 164 1 46
252 539 207 165 0 46
252 544 202 163 0 46
254 538 240 131 101 73
252 534 212 160 1 47
254 534 214 158 0 47
257 539 217 158 0 47
465 558 227 125 27 45
253 544 210 164 0 48
257 544 217 155 0 45
256 514 237 159 88 81
368 777 169 79 58 46
356 528 58 101 32 42
253 519 244 140 98 76
253 519 247 141 109 85
425 614 237 178 14 54
401 883 272 61 52 49
409 872 278 72 57 54
340 804 186 62 50 45
255 514 252 157 118 96
326 858 302 121 98 72
251 529 247 159 114 96
529 462 210 35 26 33
252 529 243 142 100 78
254 523 254 151 114 90
254 529 254 172 123 104
257 534 237 115 66 49
445 900 187 106 91 75
255 544 237 128 93 69
255 534 241 127 97 71
251 539 247 158 115 93
301 539 248 51 26 31
308 901 209 89 82 78
251 544 247 160 117 94
458 744 242 80 60 46
252 539 252 160 115 93
252 544 251 157 114 92
410 769 198 72 55 46
254 559 199 151 0 41
313 881 221 41 37 37
254 554 202 159 0 44
291 924 322 178 142 123
253 552 206 162 0 46
255 559 202 155 0 44
254 565 197 162 0 44
291 838 228 88 66 59
256 564 207 156 0 44
250 639 258 160 115 88
393 866 225 70 57 54
286 809 270 58 50 46
256 574 197 180 5 51
256 574 207 84 20 35
328 732 285 59 48 44
255 549 236 131 97 71
371 769 293 79 65 57
257 549 232 117 58 49
418 790 210 63 50 44
246 634 232 147 106 76
376 704 142 89 57 46
255 559 232 123 79 61
330 962 320 79 73 71
252 554 237 134 103 74
251 559 237 133 102 72
336 809 277 177 131 112
276 837 243 78 64 63
418 621 231 37 29 36
366 524 57 181 22 46
257 549 256 152 112 87
251 554 247 155 113 88
250 559 242 146 109 81
250 559 247 153 113 87
358 709 149 76 56 43
254 553 254 150 111 85
257 554 256 151 110 85
250 569 237 134 104 71
253 564 234 126 97 68
248 575 238 140 106 73
250 564 247 151 110 83
249 569 242 149 111 80
252 564 252 149 110 83
542 479 167 97 29 42
251 569 252 149 110 84
396 659 267 91 57 52
254 564 254 151 110 85
249 572 243 148 109 79
368 951 294 51 45 43
251 574 252 149 110 83
256 579 202 52 29 35
341 870 181 97 80 75
248 589 233 139 105 74
250 584 232 128 99 68
257 574 228 97 70 51
249 582 235 134 102 69
326 669 173 137 2 31
380 888 228 89 73 69
250 589 231 130 101 69
376 754 164 63 49 41
227 784 247 170 118 89
287 783 275 53 46 41
252 589 228 124 96 66
291 594 117 101 34 42
247 584 242 145 107 77
444 711 255 93 82 73
248 584 247 148 108 80
247 589 242 147 109 78
249 578 248 147 107 79
251 579 252 148 108 81
238 705 250 147 101 73
253 579 255 146 107 79
248 654 223 153 106 79
253 584 255 147 109 82
256 584 257 148 108 80
450 583 217 199 12 58
248 586 250 149 109 81
247 594 233 142 107 75
229 744 247 157 107 79
246 599 237 148 109 77
433 581 265 149 101 76
249 593 230 133 102 69
281 644 182 126 24 44
442 809 252 75 64 59
252 594 228 128 99 68
255 594 225 122 94 66
251 609 227 138 103 72
360 694 176 69 36 33
247 594 247 149 110 81
356 749 168 64 49 43
467 927 211 93 82 72
246 599 242 150 111 80
247 599 247 150 110 81
248 594 251 149 110 82
434 628 282 150 103 67
245 604 242 151 112 81
402 625 201 132 32 47
246 604 247 149 108 79
250 594 253 149 110 81
252 594 256 147 108 80
249 599 254 148 108 81
427 610 207 167 30 54
266 534 97 127 16 42
252 599 256 147 107 80
252 629 223 136 101 68
271 534 262 161 111 90
252 634 223 142 104 71
257 634 219 131 100 68
255 634 220 136 103 70
254 639 220 144 109 75
245 614 237 150 108 77
310 836 220 75 58 54
246 619 232 150 108 74
311 954 328 56 52 52
245 624 237 157 113 80
438 872 194 90 76 68
253 610 224 134 100 70
376 633 178 69 35 41
421 604 293 162 118 88
367 668 274 147 12 45
247 614 252 153 111 81
245 619 242 156 113 82
246 619 247 153 109 79
245 624 242 156 111 81
321 534 256 52 22 28
246 624 247 154 109 78
248 619 255 153 110 82
251 614 257 148 107 80
247 629 228 147 108 75
246 639 237 159 111 85
246 629 242 157 112 81
309 833 274 160 122 99
247 629 252 153 109 80
246 634 247 157 110 80
316 694 173 72 31 36
404 679 217 77 25 34
248 639 256 153 111 81
252 649 219 117 85 50
305 554 253 34 26 28
258 590 260 152 109 80
249 654 220 146 101 75
256 654 217 148 103 70
391 644 197 40 33 39
247 664 223 144 101 71
252 669 219 125 88 56
395 764 187 51 44 42
247 644 227 136 101 69
246 644 232 160 114 84
301 709 176 61 35 40
246 654 232 157 107 80
246 654 237 147 97 71
540 483 162 160 25 50
249 642 225 126 95 66
248 646 224 118 90 61
247 644 247 147 101 73
373 886 320 36 34 34
291 966 297 74 69 70
396 864 321 49 43 39
247 649 247 131 90 61
247 654 252 155 110 81
400 534 108 173 12 39
414 627 237 100 32 41
248 644 256 156 112 84
246 659 227 148 103 76
245 664 232 144 101 71
245 669 227 144 99 72
244 669 237 137 96 65
245 659 242 122 87 57
245 659 247 136 98 67
438 703 258 85 60 42
245 664 247 144 101 72
246 679 222 139 99 67
246 684 222 135 98 65
246 689 222 133 98 64
249 678 220 135 99 65
316 529 253 76 22 32
251 684 218 133 98 64
251 689 218 133 99 66
444 542 260 168 13 51
256 684 218 129 94 62
301 714 177 63 34 38
243 694 224 129 97 60
248 694 219 134 100 65
242 699 223 125 94 59
241 704 222 124 94 60
245 699 221 129 97 61
246 754 265 158 118 87
346 516 45 157 18 42
246 704 219 128 96 60
411 619 202 116 35 48
296 570 96 212 14 45
244 703 220 127 96 60
509 517 192 184 22 58
346 648 274 118 21 42
251 694 218 133 99 64
256 704 218 130 94 65
239 694 232 139 99 67
240 689 237 139 98 67
239 698 231 139 100 68
238 704 228 131 97 65
239 703 226 129 97 63
238 696 234 143 102 71
371 744 166 70 53 42
306 853 307 97 80 61
240 689 242 138 96 67
262 614 218 95 57 50
377 678 180 63 39 36
239 694 242 140 98 68
420 710 198 71 47 42
238 704 247 143 99 69
241 699 252 148 103 75
240 704 252 149 102 75
243 679 228 141 99 70
244 672 239 133 94 62
243 684 227 142 100 70
398 890 287 68 58 54
364 563 283 51 28 33
242 689 227 139 100 67
241 684 237 138 97 66
243 680 246 143 99 71
244 673 242 134 95 62
244 674 247 149 103 73
360 522 54 71 30 33
300 903 247 131 88 76
244 678 248 148 102 75
269 599 130 77 37 41
245 674 252 163 114 85
331 669 278 136 22 47
245 679 252 155 106 81
263 519 153 132 12 37
331 699 173 47 36 39
248 679 255 157 108 82
241 689 247 142 99 71
242 689 251 146 102 75
245 684 253 151 105 78
432 516 135 199 13 43
247 684 256 152 105 79
488 520 228 180 10 56
247 689 256 151 106 79
241 694 227 134 98 65
242 694 252 147 103 75
246 694 256 151 106 79
471 543 159 211 19 52
246 699 257 151 106 79
281 929 272 71 64 62
356 531 60 106 32 41
237 719 222 133 98 66
448 744 257 87 62 45
236 724 222 134 98 65
236 729 222 134 98 66
241 724 219 133 98 65
239 724 220 132 97 63
296 818 271 79 53 48
233 734 224 137 100 68
238 730 219 135 99 66
431 729 188 85 64 48
228 739 234 145 102 73
241 734 218 135 100 65
429 695 229 73 57 46
243 709 219 129 97 62
242 715 219 132 100 64
451 585 202 208 17 56
246 719 218 131 97 63
256 709 219 129 93 63
246 724 218 132 98 65
330 799 196 65 52 48
246 729 218 134 98 66
241 739 217 136 101 66
256 724 218 124 88 62
236 709 232 141 101 69
278 594 249 124 82 69
453 913 168 108 93 79
261 609 217 98 48 45
237 709 227 136 100 68
239 707 225 130 97 66
238 710 224 131 97 65
397 751 181 54 44 40
236 709 237 143 101 70
286 894 326 164 125 105
236 714 227 140 102 70
386 784 293 64 56 52
234 714 237 140 100 67
233 720 237 139 98 66
347 519 267 129 11 41
352 850 170 98 79 69
238 709 251 148 102 73
239 709 253 149 104 76
236 714 247 141 96 67
311 580 106 166 14 45
366 815 163 111 86 63
364 932 330 51 45 42
336 694 291 36 29 31
234 718 242 136 95 64
238 822 239 207 141 110
237 714 252 149 103 74
239 713 254 150 104 76
297 919 232 67 63 65
361 535 66 151 19 42
241 714 256 151 104 77
239 718 254 151 104 78
231 729 232 141 101 70
447 754 232 75 59 51
407 589 277 115 79 70
232 724 237 139 98 67
386 824 282 47 39 35
375 552 93 147 28 48
230 729 237 140 100 69
231 734 227 141 102 73
230 734 232 143 103 71
487 540 207 133 31 47
229 734 237 144 103 71
233 730 224 139 101 69
231 729 242 143 99 70
232 729 247 148 102 74
539 483 147 66 35 40
233 721 245 140 97 68
233 724 247 145 99 71
391 834 277 40 33 31
233 729 250 152 104 76
341 534 61 56 35 40
241 724 257 154 106 80
274 738 190 83 30 37
447 869 212 85 67 52
235 734 254 154 105 79
232 744 223 141 101 72
351 944 327 51 47 46
232 739 223 138 100 70
376 580 121 106 32 43
235 739 221 134 98 65
321 734 283 59 49 44
237 739 218 135 100 65
238 794 270 163 121 91
237 744 218 138 102 67
241 744 217 139 103 68
276 584 112 147 14 39
236 749 219 144 104 70
243 729 260 158 109 82
524 502 172 137 31 48
241 749 217 142 105 70
232 764 222 164 112 82
236 754 218 147 105 72
258 604 219 100 56 49
371 778 169 79 58 45
366 744 301 75 46 49
234 754 220 147 104 73
236 759 218 151 108 74
307 909 212 87 78 76
241 759 216 145 104 70
277 574 108 151 4 38
234 769 220 163 111 80
241 769 216 153 107 72
246 739 217 135 100 68
256 744 217 99 66 46
256 749 216 94 66 42
255 753 216 91 65 40
257 754 212 121 92 60
251 759 216 114 83 54
435 834 262 91 71 56
250 768 215 94 67 38
255 764 211 127 97 63
370 819 182 81 68 60
254 769 211 131 97 62
230 744 227 148 103 76
228 739 237 148 103 74
371 785 289 74 62 57
228 736 238 145 102 72
406 514 107 105 31 41
228 749 228 157 109 80
364 532 64 215 18 49
227 749 237 158 109 80
229 738 243 152 105 75
228 744 242 158 107 77
302 895 242 112 80 59
228 749 247 159 109 81
234 738 254 154 107 80
234 742 254 155 110 82
236 749 257 151 106 78
387 899 252 64 55 51
267 549 102 63 32 37
229 754 226 158 109 81
229 759 226 166 113 85
227 754 237 161 111 83
228 769 229 175 119 88
376 564 296 167 16 52
228 754 250 159 109 82
442 524 272 139 77 67
232 754 256 151 107 78
228 759 251 160 112 82
229 759 253 157 112 81
355 834 281 139 112 90
371 799 287 71 59 55
229 763 253 157 111 81
231 764 257 153 110 79
412 865 312 77 62 53
228 766 255 157 110 80
