ply
format ascii 1.0
comment Created by Open3D
element vertex 2186
property double x
property double y
property double z
property uchar red
property uchar green
property uchar blue
end_header
308 858 220 145 108 80
363 684 278 141 9 43
368 683 274 137 9 42
368 688 279 143 13 44
456 836 246 93 77 74
354 693 282 150 15 47
313 863 218 152 112 84
358 690 282 124 12 44
358 703 285 144 20 48
362 690 282 139 16 45
365 691 281 145 13 43
368 693 280 111 18 38
367 694 282 136 18 43
373 813 232 157 121 96
363 703 285 69 29 35
368 698 283 103 25 40
368 703 283 77 29 37
373 678 269 120 6 35
374 676 266 101 1 29
377 679 268 116 10 38
382 678 265 86 22 32
378 682 270 100 14 34
383 682 269 94 35 37
355 793 131 68 56 45
370 686 276 141 12 43
374 687 275 54 24 29
318 793 149 80 62 52
434 823 198 82 65 56
378 684 272 70 22 31
382 685 272 108 40 40
373 693 279 62 26 32
410 870 208 66 58 57
375 691 276 32 28 26
373 698 280 93 26 38
374 703 281 105 31 45
378 693 275 46 28 29
453 863 239 78 59 53
383 693 274 111 34 43
378 698 278 70 28 34
382 703 277 36 29 32
328 708 264 68 31 39
468 814 272 67 54 43
327 709 260 63 28 34
363 838 113 95 81 71
326 705 266 35 27 29
330 712 263 117 32 49
329 707 268 67 32 36
332 714 265 118 32 47
308 778 224 73 59 53
331 710 266 84 36 44
331 719 260 178 27 63
333 718 264 118 26 45
333 728 259 164 23 57
334 723 264 152 22 54
335 732 258 79 44 47
336 714 271 136 35 55
338 708 275 35 29 34
340 706 277 26 27 29
343 708 278 97 26 43
342 714 276 132 33 55
344 713 277 55 25 34
356 901 163 103 99 101
339 717 273 51 27 32
343 718 274 172 25 59
348 708 280 183 20 60
348 713 279 159 22 55
345 716 277 113 13 36
348 717 277 172 18 57
338 728 264 146 23 53
343 724 270 120 25 49
408 713 280 196 139 112
388 809 235 60 47 43
344 727 268 135 26 53
426 773 171 57 46 38
336 735 256 76 60 54
346 725 271 202 22 65
348 728 269 199 20 64
470 824 258 92 73 61
346 730 266 200 21 66
349 732 267 193 19 63
352 729 270 193 18 61
353 733 269 144 25 53
352 723 275 194 18 62
352 848 146 65 57 56
351 720 276 201 19 66
344 741 257 82 65 58
345 736 262 75 61 55
349 738 263 85 59 56
415 823 182 80 61 56
350 741 262 83 64 59
349 747 257 81 65 58
353 748 259 79 64 58
356 811 116 84 67 55
358 708 284 159 20 53
308 843 264 155 87 98
358 713 283 173 20 56
357 719 281 186 18 60
363 708 285 39 29 31
363 713 284 47 28 32
463 823 245 91 71 58
368 713 283 56 33 36
277 773 216 140 100 70
363 718 283 76 26 38
354 722 278 191 18 61
358 728 278 190 18 61
358 733 274 155 20 54
360 732 277 191 18 62
363 721 282 70 27 36
363 728 280 157 19 52
368 733 278 81 30 38
372 708 282 64 33 37
372 718 282 47 31 33
374 718 281 50 29 33
311 945 248 78 70 70
378 713 280 132 22 47
383 708 278 54 26 33
383 713 278 161 21 52
371 721 282 42 32 33
378 723 279 153 25 52
378 728 278 86 30 40
410 884 233 65 57 56
383 723 278 172 17 54
383 728 277 127 28 48
320 898 180 57 53 54
378 733 277 56 28 32
384 734 276 127 29 47
355 741 267 76 60 55
323 834 267 159 127 101
357 739 270 46 39 41
358 742 268 77 62 57
357 744 265 81 63 59
354 752 257 78 62 57
358 753 259 77 61 56
368 744 270 81 66 62
361 745 266 79 63 58
363 738 274 179 23 61
364 741 273 67 41 44
368 736 277 70 22 31
339 786 232 180 131 110
368 742 273 60 50 48
363 758 258 72 60 56
367 755 261 73 61 57
364 761 257 69 59 56
368 762 257 68 58 56
299 868 230 167 122 98
372 750 266 80 66 59
451 836 236 61 53 52
377 745 271 77 63 57
378 753 265 76 63 57
317 836 232 112 89 65
378 751 267 75 62 57
328 778 139 64 51 44
383 748 269 71 59 54
373 738 275 88 31 40
373 742 273 78 56 54
313 773 144 75 58 51
378 743 273 75 57 54
383 743 273 70 57 53
373 759 260 78 63 58
370 756 262 75 62 58
373 763 258 75 62 57
378 758 263 79 65 59
383 758 264 66 55 51
378 763 259 79 66 60
384 762 262 66 56 52
405 523 264 128 17 43
405 528 264 145 15 43
403 523 269 152 15 45
403 528 269 133 16 42
404 518 284 127 22 43
405 517 289 162 17 46
403 528 274 98 23 36
405 528 278 70 28 34
406 519 290 158 16 50
406 523 289 155 14 46
406 524 281 49 24 30
342 863 198 75 61 54
405 533 259 148 13 42
405 533 264 143 16 42
257 814 200 200 142 117
405 537 259 146 12 42
406 539 259 147 13 41
405 538 264 147 17 42
328 936 292 78 72 71
405 532 278 49 27 31
406 533 280 123 21 40
407 533 284 161 19 50
338 954 228 94 90 93
406 532 289 78 23 33
404 538 274 35 29 32
377 852 170 62 56 59
392 841 221 33 31 30
405 543 274 65 28 33
405 544 279 133 25 47
404 538 289 54 28 33
420 880 254 77 64 55
406 541 282 178 17 56
390 518 311 121 33 44
288 823 199 182 135 110
390 523 310 111 57 49
390 527 311 130 90 66
394 524 306 106 13 38
396 532 302 40 29 31
399 539 296 124 16 43
394 543 299 71 42 37
325 821 202 179 135 111
396 705 276 164 107 90
395 544 296 70 29 36
397 538 298 134 20 49
392 533 309 132 93 68
391 533 312 154 108 77
390 538 315 158 114 80
389 538 319 157 109 78
390 543 315 156 111 79
393 543 309 151 110 75
406 514 295 128 10 42
405 516 292 155 16 50
407 518 294 144 12 43
406 518 299 170 15 53
378 898 189 71 63 63
405 519 300 181 13 59
406 516 302 178 17 51
406 523 294 165 14 49
405 528 295 181 13 57
406 527 293 174 15 55
402 522 303 179 9 56
404 523 299 182 9 58
402 528 299 180 11 57
403 533 294 153 19 52
405 534 290 49 24 31
402 538 294 77 26 38
401 542 292 40 28 29
395 558 289 60 43 39
398 553 288 86 26 39
400 569 265 165 15 50
399 573 269 161 14 49
398 563 279 70 25 36
397 568 278 95 19 37
395 560 286 40 30 29
395 568 280 75 26 35
396 561 282 36 27 31
400 559 281 44 30 31
395 572 283 88 70 49
367 833 113 94 77 68
396 569 286 106 84 59
406 548 264 42 31 34
324 879 189 42 40 42
407 553 259 141 16 42
406 548 267 46 24 32
366 921 196 77 70 71
405 548 269 122 22 44
405 553 269 131 23 46
324 878 159 73 66 63
406 552 267 77 28 36
407 558 259 138 20 46
431 852 238 39 29 28
403 558 269 81 28 36
405 548 274 117 18 40
434 848 254 36 33 32
399 548 290 115 24 44
403 558 274 67 23 33
404 563 264 94 25 38
353 900 164 81 76 76
406 562 262 107 28 47
408 845 182 57 50 48
401 567 269 140 14 43
401 573 262 170 14 55
404 573 259 154 15 48
401 567 274 116 20 40
400 545 291 61 25 30
369 882 265 49 38 32
395 552 298 123 91 62
395 553 304 148 109 73
395 556 292 93 69 52
397 558 294 111 84 58
396 554 303 146 109 72
392 548 314 157 113 80
389 548 320 164 114 83
393 553 314 160 115 82
391 553 317 163 114 84
408 628 289 119 89 52
388 558 319 177 120 94
298 933 279 52 47 48
395 557 306 151 109 77
395 558 309 157 112 79
396 563 290 110 87 62
399 568 294 131 100 65
398 568 304 152 109 73
400 572 294 137 104 67
331 822 220 162 119 95
393 563 314 164 117 83
356 845 96 120 88 55
449 798 204 60 49 45
393 568 313 167 116 82
388 573 315 184 126 96
396 560 307 154 110 77
304 848 259 153 127 120
397 573 309 155 107 76
401 574 290 131 102 66
401 574 298 147 108 73
291 874 242 187 134 115
385 523 325 158 103 74
386 528 323 157 107 76
387 533 324 158 109 77
387 538 324 162 111 82
385 539 326 169 115 89
408 804 250 61 44 39
404 598 299 150 107 71
461 811 260 51 43 35
387 543 323 165 114 85
412 643 264 125 96 62
386 552 322 177 120 96
397 583 264 155 12 46
395 593 259 113 23 42
394 593 264 87 29 38
396 591 258 170 17 53
394 593 269 69 39 32
396 594 271 93 66 44
289 868 249 183 131 115
395 591 272 89 64 36
399 587 278 109 83 55
394 598 268 67 51 34
397 599 270 96 74 48
394 603 259 114 26 43
418 878 239 77 62 58
392 608 259 62 30 33
398 603 269 96 75 51
397 609 265 93 73 50
399 607 268 99 78 54
400 576 287 131 103 68
403 583 289 135 102 66
402 589 280 121 94 62
401 594 276 111 88 59
401 598 275 112 88 60
404 598 279 128 99 63
363 843 245 132 103 78
405 598 284 133 101 63
405 597 289 143 105 69
406 599 289 142 104 67
406 600 285 136 102 64
404 608 273 117 92 62
405 602 278 128 99 63
406 604 280 136 104 65
405 606 277 127 99 65
292 908 239 105 89 78
406 608 289 144 102 65
388 583 313 190 133 104
392 578 313 174 119 88
394 583 311 172 118 87
397 578 308 157 110 79
400 583 305 154 109 76
400 588 306 160 113 82
397 593 308 171 118 87
388 598 309 192 136 108
428 873 273 70 55 42
393 598 309 184 126 97
388 603 308 191 136 109
389 607 307 189 136 106
393 603 308 185 127 98
399 603 305 173 119 89
398 608 305 174 119 88
396 607 307 179 122 93
401 578 299 146 107 72
358 812 120 91 71 55
400 576 301 147 105 72
401 579 302 146 107 68
403 583 299 144 104 70
453 848 220 98 80 75
403 588 299 142 103 66
402 593 304 157 111 79
405 598 294 142 102 65
408 628 274 149 102 70
402 608 303 166 115 85
406 608 297 153 107 74
393 613 259 71 48 37
398 613 263 96 77 54
400 617 262 100 81 59
373 937 214 84 76 76
399 623 258 92 75 55
385 636 287 189 139 119
388 638 289 185 140 119
406 615 271 115 91 61
299 863 277 187 139 121
401 620 261 90 74 55
402 623 260 83 67 49
405 617 268 109 87 63
407 623 269 133 103 69
405 612 272 115 91 62
407 613 279 146 109 72
403 728 275 186 132 109
407 618 274 141 105 72
407 618 279 151 106 75
407 623 284 148 102 69
403 628 259 92 73 52
315 904 190 55 50 52
405 626 262 104 84 60
408 628 269 143 104 70
409 638 264 120 94 63
393 833 221 33 28 28
410 637 269 129 95 62
411 639 269 131 95 62
407 628 279 154 104 75
408 633 279 132 94 62
464 783 252 52 42 32
409 633 284 111 83 49
394 799 167 68 55 54
410 637 274 133 94 62
411 640 274 128 92 61
410 636 284 114 88 54
428 788 273 186 134 107
410 638 290 161 114 81
411 638 288 149 107 71
389 622 302 192 139 112
386 629 295 193 141 117
394 627 302 202 144 117
361 956 231 81 77 80
390 631 297 194 141 118
386 634 290 191 139 119
391 634 296 193 140 119
391 640 291 184 145 122
390 637 293 189 143 122
451 799 208 70 53 46
393 638 294 194 144 122
398 629 301 201 140 114
398 637 297 208 148 120
406 613 298 150 106 72
402 623 302 175 120 92
404 623 300 164 115 84
406 623 298 153 108 73
408 633 294 167 117 88
402 626 302 185 127 99
403 633 299 192 129 104
406 632 297 179 125 100
403 639 296 200 137 110
405 635 296 187 128 101
387 643 284 187 136 117
385 646 282 192 138 119
328 863 287 178 130 111
389 643 288 181 140 118
387 653 280 186 133 114
386 650 281 189 134 116
392 653 285 185 138 115
394 653 288 189 139 116
385 673 269 123 75 68
385 658 277 179 127 109
385 663 277 172 123 105
387 663 280 176 129 108
392 658 285 184 136 112
385 668 274 150 98 86
385 667 277 160 110 95
385 673 273 145 95 84
388 673 279 162 114 97
390 668 282 177 130 108
390 671 282 176 126 106
395 657 287 187 136 112
321 846 222 103 77 53
398 658 289 191 138 112
424 667 259 115 90 60
383 874 263 28 27 28
398 663 288 187 134 108
398 673 286 183 132 106
404 642 257 94 77 57
408 643 259 104 83 58
412 644 261 117 91 60
413 648 260 110 86 58
415 647 264 122 93 60
413 643 269 131 97 61
414 652 258 105 83 58
412 643 274 126 92 58
412 643 279 117 87 51
411 643 288 166 115 83
413 648 284 158 108 76
477 773 256 61 51 41
415 653 279 144 100 67
408 663 287 182 123 93
407 668 287 181 123 95
407 672 287 182 125 96
415 657 280 154 105 72
413 658 284 169 114 85
411 657 287 177 119 92
413 673 284 174 116 84
394 642 293 193 142 121
403 643 294 202 140 113
408 648 290 186 125 98
403 650 291 198 136 110
403 658 289 192 133 106
386 675 271 138 88 78
386 678 270 127 74 66
408 818 229 39 32 30
391 674 281 172 124 105
391 678 281 169 124 103
338 823 154 46 42 45
389 688 277 148 102 85
393 688 280 165 117 97
395 686 282 176 128 105
398 683 284 182 131 106
398 688 283 180 131 106
388 693 275 116 61 56
390 692 277 147 99 85
393 693 278 162 114 95
388 698 274 95 46 45
392 698 276 144 96 82
397 693 281 177 127 104
394 698 277 162 114 95
395 702 277 160 109 92
403 674 286 187 131 104
403 678 286 189 133 104
421 856 269 35 32 32
403 683 285 190 135 107
403 688 284 190 136 108
413 678 284 175 117 87
413 683 284 179 120 90
408 693 283 191 133 105
401 700 281 186 133 107
404 702 282 191 136 110
408 698 282 193 136 109
357 817 138 67 55 48
408 702 282 193 137 110
408 704 281 194 138 111
409 888 280 58 48 40
413 698 282 185 125 96
416 654 260 110 86 56
416 650 264 123 93 58
417 653 269 127 94 57
416 655 277 140 98 63
420 661 258 105 84 60
422 663 259 110 87 59
421 660 264 120 91 57
422 663 264 123 93 58
419 658 269 129 95 58
424 668 264 128 96 59
426 670 256 112 89 61
426 670 259 118 92 60
448 869 239 90 70 60
427 673 259 120 93 59
418 658 274 136 97 62
417 862 253 32 32 32
416 658 279 148 102 70
419 663 274 141 99 64
416 660 282 160 109 78
416 663 282 162 109 80
419 668 279 156 106 75
361 810 122 84 70 59
422 668 274 146 100 67
423 673 274 148 103 69
421 669 277 152 103 70
340 793 131 71 55 46
318 848 270 151 130 121
419 673 280 161 108 76
416 668 282 165 110 77
318 800 152 80 62 52
428 678 264 134 97 61
288 783 217 52 42 39
426 674 268 139 99 62
430 682 265 135 97 62
431 684 263 134 97 61
429 683 269 144 101 66
431 689 268 144 99 67
419 678 280 163 110 78
422 678 278 157 107 74
416 678 282 169 112 81
422 683 278 161 108 77
423 688 278 166 110 79
417 683 282 172 113 85
419 683 281 167 111 81
419 688 281 171 112 83
427 683 273 152 105 72
427 688 274 156 106 74
430 692 271 152 103 73
423 693 279 169 111 81
417 693 282 177 117 88
423 698 279 171 113 82
423 703 278 172 113 83
388 898 199 70 63 63
388 878 289 37 34 35
418 698 281 177 117 88
428 693 274 159 105 76
429 698 275 163 108 79
429 703 275 166 109 80
431 699 272 159 105 74
434 693 264 142 99 66
439 698 259 135 98 61
413 763 275 186 139 109
440 703 259 141 99 65
437 703 264 149 102 70
436 704 268 155 106 73
440 701 256 130 94 60
388 708 275 133 38 49
385 708 276 70 29 37
393 708 275 148 77 69
388 718 275 156 20 49
386 718 277 162 16 51
396 709 276 165 106 89
397 713 276 171 111 93
386 728 277 118 20 43
393 728 273 107 28 40
388 733 275 92 32 41
387 846 226 30 28 28
392 733 273 83 27 36
400 732 272 159 103 87
403 713 279 190 136 109
408 708 281 195 139 112
454 838 244 96 81 77
403 718 278 191 137 109
408 723 278 194 138 110
408 728 277 195 140 110
413 723 279 192 138 109
413 728 278 192 137 108
393 743 270 50 42 40
333 839 189 151 102 78
388 753 268 71 58 52
393 748 269 48 42 40
398 743 269 104 70 56
398 748 269 109 76 59
398 753 268 98 70 54
388 738 274 69 39 40
387 742 273 72 59 53
386 755 266 69 58 53
389 756 267 72 60 53
325 888 160 84 74 72
388 768 260 66 54 50
398 758 268 102 74 57
397 764 266 56 45 42
329 853 154 39 34 36
398 768 265 78 62 55
402 753 270 152 109 84
404 738 273 185 134 111
408 738 275 192 140 112
334 773 237 66 54 50
333 923 300 71 66 65
405 748 272 182 131 107
405 752 272 180 130 104
408 753 274 186 135 109
413 738 277 190 138 106
373 810 109 74 60 58
411 739 276 191 139 109
414 748 277 189 138 107
470 830 302 89 76 65
403 758 270 168 124 96
406 760 271 184 136 108
403 768 268 182 138 108
338 922 190 89 82 84
405 756 272 181 133 106
408 763 273 186 138 110
409 768 273 186 140 111
413 768 275 188 140 112
423 713 277 177 116 87
423 718 277 178 119 89
433 713 273 167 111 79
425 714 276 174 113 84
438 802 190 87 67 56
428 718 276 172 114 82
423 733 277 176 122 90
425 722 276 176 118 87
328 908 169 76 67 64
429 728 276 171 116 83
433 723 273 169 113 81
433 728 274 167 113 79
429 733 276 170 117 84
433 733 274 165 112 79
439 708 264 153 105 71
435 713 271 165 110 78
410 824 177 56 49 47
435 716 271 166 110 80
438 718 269 163 110 78
443 713 259 147 102 68
441 710 262 151 104 71
442 713 263 154 106 72
442 718 264 157 107 74
445 716 256 143 100 69
383 824 123 86 71 57
462 851 297 65 53 46
446 719 257 147 103 69
438 723 270 165 112 80
438 728 270 164 111 79
445 726 261 157 106 74
444 728 264 160 110 78
446 728 262 159 109 77
441 723 267 162 112 79
442 728 267 162 111 78
448 733 259 157 111 77
446 733 263 160 111 78
436 723 272 167 112 80
418 748 277 185 135 103
324 801 151 75 58 51
423 748 277 179 128 96
427 738 277 170 119 85
429 738 276 168 116 82
433 738 275 165 113 79
450 811 220 77 60 53
430 742 276 168 118 82
431 749 277 171 120 85
310 845 267 170 162 156
418 758 277 185 137 103
311 891 212 97 77 62
417 764 276 188 140 105
419 763 277 187 138 103
423 763 277 187 137 105
342 950 217 92 89 92
421 765 276 189 139 107
423 768 276 191 140 109
424 767 277 189 139 108
428 763 277 185 133 101
429 764 276 183 130 99
442 738 268 163 111 79
443 743 268 165 112 80
446 836 279 45 39 34
447 753 264 160 108 77
443 753 269 168 115 83
445 748 266 164 113 81
445 752 266 165 112 82
437 738 273 164 112 77
438 753 273 170 117 84
440 756 271 170 117 86
447 758 264 159 107 77
447 763 264 157 105 76
447 768 264 154 103 75
440 764 271 173 117 91
457 783 209 68 53 47
443 768 269 169 115 86
445 763 266 163 110 82
398 883 204 79 67 64
445 768 266 161 109 81
312 918 295 43 42 43
438 768 273 175 120 90
363 954 249 58 54 53
474 718 259 90 74 59
478 718 258 87 70 54
475 723 259 89 72 58
475 726 256 87 69 54
450 748 256 144 97 68
449 753 259 148 99 69
450 753 256 141 94 65
450 763 256 136 90 64
449 768 259 140 92 65
413 818 179 73 58 55
484 711 258 87 66 51
487 714 257 84 66 50
486 714 256 85 67 51
486 719 256 85 66 49
345 895 297 40 36 35
487 723 257 85 66 51
482 759 257 68 52 38
342 772 127 69 54 41
358 903 305 62 57 56
342 778 128 73 56 42
344 783 126 74 57 40
348 773 129 63 50 43
346 774 126 60 45 35
348 783 125 71 54 40
353 783 125 69 53 43
344 787 126 73 55 40
348 788 126 71 54 42
347 793 127 77 59 47
349 792 126 73 57 48
353 793 124 81 62 48
329 877 151 84 71 68
347 798 128 82 62 52
349 798 126 89 67 54
347 803 127 91 70 56
349 803 126 96 73 58
353 803 125 81 64 54
375 790 157 75 62 60
342 825 109 96 74 57
349 832 103 111 86 60
347 828 109 113 88 67
448 858 244 76 60 54
352 828 111 110 85 73
340 823 115 83 68 56
343 828 114 89 70 55
342 827 119 82 65 50
343 833 119 88 71 56
339 828 124 81 67 55
343 824 129 82 68 61
348 824 124 93 73 59
353 823 124 97 79 66
348 828 114 105 83 68
349 828 119 100 79 63
353 828 119 110 90 80
301 912 212 65 61 64
418 778 275 186 139 110
353 832 114 111 88 77
348 833 119 107 84 72
353 829 115 108 87 77
352 832 119 105 85 72
347 827 124 90 72 59
350 825 121 94 76 58
354 824 119 103 84 73
353 828 125 97 81 69
351 834 128 94 78 65
423 847 185 77 63 57
357 780 128 72 58 50
357 780 125 73 58 49
358 783 124 76 61 50
358 783 128 67 56 47
357 788 129 69 55 44
398 908 234 52 47 46
357 798 129 74 59 50
361 785 123 71 61 53
362 787 123 72 61 53
363 792 128 74 61 50
356 804 118 94 77 64
352 892 175 76 69 71
358 809 119 89 71 58
358 809 115 85 68 56
357 803 129 73 59 51
358 809 124 91 73 61
355 811 116 85 69 58
408 777 165 55 46 43
355 811 120 88 70 57
358 813 124 92 73 59
362 809 119 80 65 53
363 811 115 83 68 58
294 933 244 75 70 71
371 906 302 61 55 51
362 812 120 84 66 54
368 812 114 79 65 56
353 891 289 33 31 33
319 820 201 105 74 58
357 823 119 95 77 66
354 818 126 91 72 58
358 818 125 93 74 59
355 825 116 88 67 59
364 819 120 88 74 62
368 818 119 76 66 57
362 821 122 84 69 58
368 819 122 80 68 59
369 822 120 83 70 58
390 920 250 61 55 54
363 829 115 94 76 66
363 829 123 85 69 59
367 829 123 76 62 55
368 832 123 87 73 65
385 885 192 58 53 54
370 810 106 81 63 55
372 813 110 73 62 57
373 816 111 77 64 57
372 818 119 67 58 52
373 817 122 67 58 51
373 828 120 86 69 56
372 828 116 87 69 55
373 828 123 82 69 58
378 818 115 66 57 52
378 823 120 76 63 52
382 823 120 80 67 56
381 819 123 73 61 51
383 828 124 92 75 61
382 831 124 89 73 63
335 848 120 100 85 73
343 847 110 99 78 64
350 833 101 112 86 53
353 839 105 100 75 53
352 838 108 97 78 62
349 838 110 98 77 63
464 783 224 64 49 41
346 848 100 100 81 64
350 843 105 85 69 61
352 843 104 98 76 59
349 849 104 99 82 68
348 848 108 98 79 65
353 843 109 105 91 78
280 776 217 147 111 82
352 846 108 103 86 73
344 838 119 96 78 63
339 838 129 78 67 61
339 833 129 81 69 63
342 838 124 86 72 61
282 825 172 223 149 117
340 838 126 80 67 59
408 783 170 63 52 48
343 843 114 101 82 66
344 843 119 114 95 84
338 843 129 84 73 65
340 843 125 89 76 66
337 848 129 93 79 67
343 848 122 113 97 86
348 838 114 99 77 64
353 839 114 124 104 93
349 839 123 105 85 77
350 838 129 94 81 71
347 848 113 103 85 71
346 842 121 124 110 101
350 843 129 95 81 70
349 848 129 91 78 67
347 852 110 95 76 64
342 852 119 104 82 63
339 853 125 101 84 72
336 853 128 98 83 72
340 856 126 92 76 61
384 771 257 68 57 54
448 793 199 69 53 47
345 852 115 104 82 65
347 854 119 129 113 111
346 851 125 100 84 74
354 848 95 103 80 60
392 779 255 62 50 46
354 853 94 89 70 60
357 849 95 108 82 53
358 853 94 104 84 64
356 835 102 99 79 68
356 836 100 102 80 66
256 778 162 170 114 82
357 836 102 100 80 68
354 847 100 104 81 60
358 849 104 100 82 66
358 845 105 98 81 67
357 844 108 104 84 69
363 838 111 96 80 72
330 831 261 131 106 79
369 843 106 90 81 75
366 836 114 96 80 70
355 853 98 87 68 59
358 854 107 92 76 65
400 880 202 81 68 65
357 858 99 103 87 75
357 862 101 117 98 88
358 863 103 110 96 88
360 862 109 129 113 105
329 858 144 66 57 53
362 850 100 103 81 59
363 852 99 137 125 116
418 854 228 35 31 28
429 853 229 48 40 35
366 853 101 154 146 141
361 861 96 108 107 106
363 861 98 103 100 97
362 863 110 110 91 78
354 898 178 78 70 72
359 859 114 105 87 83
363 864 113 98 79 75
399 903 249 58 53 52
365 859 112 96 80 68
372 838 109 84 69 59
453 843 303 63 54 46
371 840 106 90 80 73
372 842 107 77 66 61
373 842 106 77 66 60
378 836 114 76 60 52
381 832 121 82 66 57
359 869 117 91 77 73
363 868 118 93 78 73
367 872 116 102 80 67
371 877 120 110 89 77
372 878 123 113 91 74
262 773 158 157 108 73
259 778 160 168 113 79
268 773 154 149 105 69
272 773 152 145 103 66
268 778 154 160 110 73
273 783 153 164 112 77
264 793 160 176 120 83
434 843 240 40 36 34
269 788 155 172 118 81
273 793 155 177 125 88
268 798 160 176 119 84
278 773 149 149 105 69
300 899 282 167 131 110
278 778 149 157 109 73
278 783 150 160 110 75
475 780 257 61 51 42
318 803 219 138 102 86
277 784 152 163 112 76
283 773 149 152 106 70
298 883 269 116 89 69
283 778 149 158 109 73
288 783 149 158 109 73
278 793 153 174 121 84
288 788 150 161 111 75
256 769 162 159 109 74
257 783 163 173 116 84
258 788 164 173 115 83
260 788 161 175 118 84
259 792 165 171 114 80
503 827 299 93 77 65
256 790 167 172 114 82
263 798 164 172 116 81
266 799 162 174 118 81
273 803 160 182 125 89
353 918 299 51 46 45
284 802 156 186 127 92
343 818 133 85 65 53
278 808 161 188 129 97
287 805 157 187 128 93
288 813 160 193 134 101
262 803 168 174 117 83
258 803 170 175 118 85
256 805 172 177 121 87
263 808 169 178 121 87
258 813 175 195 134 104
264 813 170 184 125 93
262 814 173 191 131 101
365 847 245 128 100 79
376 898 302 56 49 44
268 803 163 177 120 85
265 806 166 176 120 85
268 808 165 180 122 88
267 809 168 179 122 87
269 802 161 177 121 85
271 805 162 181 123 89
270 812 166 184 124 93
273 813 165 187 127 95
271 815 167 188 128 95
388 788 249 60 50 46
345 961 247 47 45 46
260 816 176 211 146 118
263 818 174 212 146 118
303 908 209 66 61 62
265 817 171 196 133 102
266 820 172 216 148 119
268 823 174 227 153 125
273 822 171 226 154 123
258 818 179 224 157 128
260 821 180 236 163 138
261 819 177 226 158 131
268 826 184 226 147 119
273 826 176 221 143 113
273 827 179 220 141 113
265 826 187 220 146 113
273 828 189 212 146 119
348 779 241 70 61 58
308 868 279 163 122 104
274 806 161 186 128 93
394 918 234 64 58 57
282 815 162 192 132 101
274 816 166 192 131 100
278 826 175 221 144 113
287 825 172 218 146 113
278 829 184 207 136 109
283 829 184 200 133 105
288 829 179 205 137 105
288 829 184 192 130 103
283 829 189 189 134 112
293 773 147 152 105 70
293 778 148 155 107 72
293 783 149 160 112 76
298 772 146 149 105 69
301 773 147 134 97 65
303 778 148 98 76 60
304 776 146 70 58 54
303 783 149 96 75 63
293 788 150 163 114 76
293 793 150 169 116 81
355 890 177 74 69 70
326 876 185 41 38 38
292 795 152 174 119 84
393 843 173 68 59 57
293 798 152 177 122 87
298 793 150 162 114 80
336 819 153 46 42 44
303 788 149 85 67 60
458 793 248 53 44 35
313 783 144 78 62 53
320 772 141 67 53 46
308 773 145 64 54 49
308 778 148 67 56 51
308 783 148 71 58 53
313 778 145 77 60 52
310 783 146 79 62 54
294 933 264 74 71 74
313 786 145 80 62 53
307 800 152 81 64 57
318 786 146 78 61 52
278 783 215 178 130 99
333 813 149 60 49 45
318 789 147 80 62 53
293 803 154 182 124 90
289 807 156 187 129 93
293 807 156 186 129 94
298 810 157 128 95 75
313 801 151 83 64 55
313 803 153 85 65 55
309 810 158 92 70 60
364 797 237 171 122 101
318 809 158 88 67 57
318 812 160 90 69 58
457 827 274 40 33 27
290 821 166 213 145 116
293 821 166 199 139 107
293 824 169 201 139 107
294 816 161 191 134 100
290 826 171 213 143 111
383 864 244 29 27 28
412 789 173 72 58 56
293 826 171 192 133 103
298 819 163 101 76 65
374 939 219 85 77 77
298 824 168 93 68 60
303 822 165 89 68 62
303 824 168 89 69 60
298 828 174 71 53 51
303 828 174 85 66 59
343 842 184 56 44 42
293 830 184 138 92 74
303 830 184 53 48 50
304 831 181 67 57 58
313 811 161 94 71 61
313 814 163 96 72 63
368 888 284 37 35 35
308 822 165 95 71 61
313 822 165 94 69 61
308 826 170 92 69 61
313 829 174 84 65 58
318 818 165 97 73 63
318 822 166 94 71 61
318 827 170 84 65 58
288 808 210 157 124 100
317 830 173 78 61 57
308 831 180 70 59 58
313 832 179 64 57 57
313 831 188 48 35 37
313 830 190 46 33 39
318 833 179 70 64 61
317 830 191 112 85 67
257 773 210 184 138 110
259 773 212 183 138 109
323 953 229 99 95 98
257 778 210 186 138 111
260 778 212 186 139 111
334 925 192 93 85 87
260 782 212 187 140 111
273 783 214 183 136 103
258 793 209 193 146 119
259 798 208 195 146 121
263 788 212 188 142 113
262 793 211 191 144 116
268 799 211 192 143 114
280 773 217 132 100 77
283 773 219 48 41 40
318 948 264 61 56 55
286 770 221 54 43 38
288 773 220 56 46 41
282 779 216 138 108 84
288 778 219 54 44 39
283 788 215 148 112 88
283 798 213 179 137 108
257 803 205 195 145 119
263 807 207 190 140 116
258 812 203 198 144 120
334 863 134 95 79 71
273 813 205 190 140 114
268 803 210 190 142 114
257 819 194 218 157 131
259 821 193 222 159 131
263 818 200 207 148 124
264 821 198 214 153 126
273 822 198 199 145 121
268 816 202 194 141 117
324 868 164 45 42 41
278 811 207 188 142 114
283 812 208 182 135 107
287 815 206 174 132 106
278 803 211 189 144 113
279 801 212 186 143 112
283 804 211 181 140 111
283 802 212 177 137 110
288 804 211 120 98 80
278 819 201 188 139 115
283 823 199 186 136 112
282 820 201 187 141 117
288 818 204 175 133 108
283 825 196 182 129 105
398 851 226 29 27 27
411 817 176 63 52 50
288 827 193 183 134 109
289 772 222 62 53 49
293 778 220 62 53 48
295 776 222 60 53 50
303 773 224 75 62 56
408 853 222 33 30 29
303 783 220 68 57 53
293 798 213 52 42 39
298 793 215 57 48 43
301 897 223 70 64 62
300 792 217 57 50 46
303 788 219 63 55 52
303 793 218 62 53 50
313 783 224 65 53 47
311 788 221 74 60 53
314 788 223 72 58 52
312 793 221 75 62 55
318 793 224 53 42 40
314 797 222 47 41 41
318 799 221 103 75 63
307 774 226 74 60 53
314 777 227 61 51 46
319 782 228 65 53 47
293 815 206 61 50 46
298 815 206 53 44 40
293 808 210 44 38 38
298 803 211 56 45 39
303 803 214 62 51 47
301 805 211 61 50 46
304 807 212 65 52 48
293 818 204 65 51 49
326 893 157 99 89 86
290 821 202 173 133 109
293 825 196 126 93 80
298 823 199 50 41 40
454 778 203 62 49 43
303 823 199 58 45 42
298 821 202 48 41 40
304 816 207 63 53 51
307 804 215 67 55 51
308 808 214 65 54 51
306 810 211 66 53 49
309 811 212 63 53 51
314 806 217 52 35 37
308 823 199 56 43 41
308 821 202 59 46 47
312 821 202 55 47 47
313 825 196 45 34 38
318 816 208 99 69 57
318 828 194 139 103 80
313 831 243 118 95 74
309 830 246 139 110 87
309 829 249 142 111 88
313 830 245 118 95 74
309 829 254 147 115 93
313 827 254 114 93 72
318 832 239 108 84 65
318 828 249 107 85 64
318 827 254 110 89 68
319 893 189 51 46 46
318 848 224 109 80 53
308 853 224 132 102 75
313 852 223 123 94 67
313 854 220 131 98 71
308 863 220 154 113 83
317 851 222 115 85 58
318 863 215 141 107 82
315 860 216 145 110 81
317 857 217 134 100 73
304 843 239 154 119 91
304 843 244 166 129 101
450 846 225 82 69 60
295 860 236 139 107 81
294 859 239 127 99 75
293 863 239 149 113 89
304 849 230 140 111 83
303 853 229 141 110 82
304 854 226 140 106 80
299 853 239 141 109 82
301 851 233 147 116 86
301 851 239 148 115 86
298 857 249 113 91 68
301 863 227 162 122 95
296 863 233 158 119 93
290 864 244 164 118 97
291 862 244 149 112 89
290 864 249 165 119 100
299 854 243 123 94 71
302 852 245 126 84 74
300 855 251 122 98 80
300 855 254 134 100 84
445 794 255 129 83 61
298 858 254 135 106 84
297 862 255 117 86 68
309 834 240 132 106 83
313 833 239 114 92 73
312 837 233 111 86 62
311 836 237 117 94 71
309 844 230 123 98 72
313 843 229 108 82 54
312 846 227 110 85 56
307 843 234 139 111 84
383 898 194 69 62 62
306 841 237 151 118 88
306 846 232 142 114 87
320 835 231 108 88 66
314 835 235 111 87 65
318 834 234 111 87 67
304 843 254 142 59 74
304 848 254 147 100 103
338 778 238 50 43 43
304 893 220 80 69 66
386 916 274 58 51 51
315 879 209 143 110 86
320 875 206 96 71 50
318 878 204 137 103 77
308 868 220 157 116 84
303 873 224 157 116 90
308 873 220 153 114 82
306 873 222 153 114 85
313 868 218 154 116 86
312 873 218 151 115 84
308 878 220 139 105 77
310 895 206 86 68 54
309 894 210 85 69 57
319 888 194 79 61 54
314 883 209 155 115 89
314 894 199 140 99 77
315 895 196 130 95 77
316 892 198 143 99 79
469 798 239 63 49 43
315 890 206 101 73 60
312 883 214 129 102 78
311 888 213 117 93 72
309 888 215 100 81 64
308 883 219 125 96 72
305 884 221 132 99 76
310 884 216 113 88 65
308 893 214 80 67 59
306 892 218 84 71 66
312 837 265 122 68 63
305 895 216 69 61 60
292 868 238 177 129 107
294 868 235 168 125 100
295 878 235 174 125 103
346 845 188 56 44 40
301 873 227 164 120 96
296 873 233 170 121 99
299 878 230 168 123 99
358 838 245 129 103 74
301 878 227 162 119 95
297 878 233 172 124 102
289 868 244 185 132 115
290 865 241 168 122 99
290 868 241 182 131 111
335 852 201 134 99 78
290 873 244 189 136 118
290 873 249 190 137 122
291 867 256 172 126 110
290 876 245 184 131 113
291 878 244 180 131 111
290 876 248 184 131 115
291 878 249 164 118 101
291 874 255 177 125 109
295 883 236 171 125 104
293 883 239 167 124 102
295 888 236 160 122 99
293 893 239 167 131 106
299 888 229 163 122 99
301 888 227 156 116 93
299 893 229 143 113 90
290 885 246 128 105 86
423 833 219 33 30 27
289 888 249 136 115 96
289 888 254 134 114 97
356 811 231 155 119 95
290 885 254 99 85 77
354 930 291 63 58 56
289 893 244 165 132 110
288 893 249 148 122 107
423 869 279 57 46 43
288 893 254 138 118 107
328 773 137 64 50 43
320 778 141 70 55 47
431 848 190 88 71 64
323 782 141 68 54 47
333 773 135 74 55 43
330 772 136 68 51 43
359 892 183 74 67 69
334 777 136 69 52 42
332 779 138 65 50 43
333 783 139 62 49 43
326 785 142 68 55 46
329 792 145 67 54 47
335 793 141 57 47 43
433 820 220 52 46 43
335 798 141 57 46 44
322 789 147 76 59 50
323 793 148 75 58 49
325 791 146 72 56 49
334 888 290 139 109 86
321 800 152 76 59 51
330 797 146 70 56 50
339 773 130 69 55 41
337 773 133 73 56 43
340 778 130 71 54 43
337 778 134 73 57 45
473 803 244 63 49 41
351 771 131 58 44 40
353 773 133 64 50 44
338 788 134 75 62 52
456 815 230 73 60 56
336 788 138 62 49 42
336 793 138 59 48 44
339 798 134 77 63 56
340 796 131 72 55 45
368 809 145 54 46 47
343 798 130 83 62 48
336 798 138 63 53 47
335 841 190 140 97 74
335 813 140 70 60 55
327 804 152 75 58 50
327 808 153 74 58 50
321 810 157 85 66 55
329 812 154 69 55 49
331 800 147 67 53 48
329 808 150 65 52 46
330 811 151 62 49 46
335 818 144 60 53 51
335 823 145 56 50 49
335 828 144 54 48 46
335 829 140 67 61 58
335 833 140 60 54 53
335 833 144 52 47 45
335 816 150 54 46 45
329 817 160 75 58 52
332 819 158 62 50 47
335 833 149 49 43 42
339 803 134 79 62 54
344 803 130 84 64 53
341 803 132 83 63 50
360 872 266 125 95 71
336 803 139 74 62 57
336 805 142 65 54 50
342 813 133 84 66 53
353 808 139 63 53 48
337 818 138 68 57 51
337 823 139 67 58 53
336 828 139 69 62 59
348 823 133 93 76 65
442 793 185 70 54 46
352 822 134 85 71 60
348 828 134 94 77 64
351 826 136 78 66 59
351 832 136 83 70 63
351 832 139 79 65 55
353 828 143 66 56 48
336 819 145 57 50 49
324 878 184 45 43 43
336 823 149 45 42 43
338 824 159 47 43 44
342 825 158 42 41 42
340 834 158 40 35 36
342 833 159 38 33 34
323 818 165 92 69 59
324 823 166 86 64 56
327 818 163 83 62 55
323 832 174 96 77 69
332 824 163 54 46 44
332 830 167 104 75 60
339 832 165 55 50 50
338 833 169 60 53 51
342 833 164 42 38 40
354 782 130 62 49 40
354 783 134 64 54 48
357 778 135 66 53 47
355 784 138 57 45 41
357 783 139 64 52 47
362 773 134 72 57 44
364 773 138 57 47 45
363 778 139 62 52 48
427 873 244 93 75 68
363 783 143 64 51 48
367 778 144 55 46 47
368 783 149 55 46 46
355 788 131 63 52 42
353 793 134 70 62 56
354 789 143 58 50 48
353 793 139 54 46 45
356 786 140 66 50 45
355 796 131 65 52 45
353 798 134 70 60 53
356 800 132 71 57 49
353 798 139 55 46 44
365 789 147 63 51 48
368 788 150 59 49 49
367 793 150 58 48 47
366 796 151 57 46 47
368 798 154 57 50 50
398 793 254 47 39 37
370 775 147 48 44 44
418 812 244 84 59 46
369 778 148 51 45 44
374 784 152 57 47 46
378 775 152 58 47 46
378 778 152 63 52 49
479 825 277 99 79 63
378 783 153 68 55 55
378 787 155 71 57 56
378 789 158 74 60 58
383 789 157 66 52 52
383 798 159 73 59 56
378 792 162 74 61 59
357 804 133 68 54 46
354 803 143 58 52 52
355 806 136 60 48 39
358 803 143 59 52 53
359 805 141 63 55 52
360 814 133 86 71 58
358 813 139 66 54 50
358 813 142 64 55 50
361 813 138 67 56 51
481 815 268 71 52 36
363 813 143 61 53 51
365 801 152 58 51 53
353 818 139 65 54 48
353 823 139 73 60 50
354 823 143 61 51 45
345 841 266 132 103 74
358 823 144 63 51 49
358 828 145 61 54 53
362 823 145 54 44 45
364 824 148 52 47 48
368 822 150 49 45 47
362 833 146 65 62 62
369 824 152 54 50 52
345 884 167 73 64 63
368 828 152 56 53 55
372 803 156 68 59 61
372 810 150 58 50 49
375 811 152 70 57 61
378 807 157 63 54 54
383 803 160 74 59 58
377 814 150 54 49 49
378 813 154 60 52 52
372 818 146 61 54 51
464 840 269 80 65 56
373 819 148 51 46 48
373 823 153 52 49 51
370 833 152 55 50 52
458 823 234 76 62 56
378 823 154 51 48 50
378 828 155 52 50 52
376 831 156 51 47 49
378 833 158 48 45 48
381 828 156 62 58 59
383 833 158 56 51 51
323 798 222 162 120 99
323 773 233 62 51 46
328 773 235 63 52 48
322 778 231 62 51 46
324 778 232 62 52 47
328 778 233 58 49 47
332 774 236 64 53 48
333 783 233 97 73 62
335 776 237 64 52 48
320 787 227 46 39 40
323 946 215 85 82 84
327 790 226 124 90 74
366 825 237 147 116 89
330 791 227 170 125 106
335 786 232 160 117 99
332 794 226 181 132 108
333 798 224 184 131 109
337 779 236 45 40 41
343 784 235 174 127 108
333 848 199 146 104 81
344 782 237 151 113 96
353 783 240 177 131 111
348 773 243 68 56 53
351 770 246 72 57 52
353 773 245 67 55 52
353 778 243 51 45 45
352 780 241 106 91 80
343 789 231 184 132 110
338 798 225 184 130 109
347 790 231 183 130 111
348 793 230 181 128 108
352 789 235 178 127 108
353 793 233 178 126 106
348 798 228 177 127 108
353 798 230 177 129 108
323 803 220 181 130 108
323 807 218 187 133 113
328 804 220 186 132 110
328 808 218 185 131 110
338 934 294 79 72 70
327 810 216 182 129 109
327 813 214 179 130 108
458 788 249 51 38 31
333 813 220 173 124 100
327 818 209 178 129 107
326 824 201 182 130 107
328 823 209 175 127 104
322 829 195 175 124 97
325 831 197 179 126 97
327 828 200 176 124 99
327 833 199 177 124 96
328 828 204 170 121 98
328 833 204 170 123 96
332 818 220 167 121 97
334 818 223 161 120 95
334 823 224 139 104 82
329 828 219 155 113 90
331 828 221 144 106 85
328 833 219 139 102 81
329 833 224 93 72 53
338 803 224 182 130 108
338 808 223 178 131 107
338 813 223 167 125 101
354 847 260 131 100 74
338 818 225 152 115 92
323 832 239 95 72 53
335 825 228 105 81 60
328 832 234 80 60 42
332 831 234 76 60 41
329 830 240 83 65 43
323 830 244 95 73 51
322 831 242 94 72 52
323 828 254 106 83 60
394 913 249 64 59 57
350 834 139 83 68 59
328 829 254 107 80 59
333 830 244 88 68 45
335 831 249 101 76 52
343 808 225 168 128 105
342 813 225 159 121 98
346 808 226 165 126 104
353 803 230 173 129 106
354 814 232 152 119 94
339 819 227 135 101 78
336 822 226 131 98 76
342 821 231 114 88 65
338 829 239 87 70 50
341 826 236 96 77 56
345 820 232 124 96 71
348 819 233 136 106 81
348 824 238 125 100 76
348 828 240 122 98 74
353 828 240 128 102 74
338 831 249 105 81 56
343 832 245 115 92 66
338 832 254 106 80 55
348 833 244 121 97 70
353 833 243 123 98 72
354 772 247 68 57 54
360 776 247 63 53 52
363 773 249 66 56 53
367 770 251 67 58 55
363 778 247 63 53 52
362 779 246 54 46 46
368 778 248 65 56 53
358 788 239 180 129 109
363 798 235 172 125 103
320 888 292 103 89 81
367 794 240 171 127 105
471 798 241 61 46 40
360 786 242 176 127 106
366 790 241 171 128 105
369 792 242 157 118 97
370 771 252 65 55 54
373 772 252 69 58 55
372 774 251 65 56 53
383 798 243 49 42 39
378 773 254 76 63 58
378 778 250 69 58 55
378 783 248 64 53 51
383 780 251 71 58 55
372 785 246 51 46 44
379 786 247 62 52 49
378 789 246 58 49 47
383 788 248 65 54 49
382 789 246 64 54 49
378 798 243 70 54 49
356 808 231 161 124 98
358 813 233 157 123 95
363 808 233 164 124 97
368 803 235 169 127 102
428 799 265 139 91 67
363 813 233 159 123 94
368 813 233 160 124 96
296 906 227 57 55 57
362 824 237 152 119 89
368 818 234 155 122 93
363 833 240 138 109 82
358 832 241 130 104 76
296 928 280 49 47 47
374 801 238 141 98 77
377 804 235 124 90 72
378 808 233 146 112 88
383 808 234 103 79 64
381 805 236 100 70 57
384 806 237 66 46 40
382 810 231 136 109 88
376 812 232 157 121 96
374 818 231 146 113 92
375 822 231 144 112 90
373 823 233 144 114 89
373 833 235 135 107 84
326 888 158 92 80 78
382 823 228 140 107 85
417 883 274 79 62 51
372 848 239 98 80 63
379 833 230 119 93 73
382 828 228 125 96 75
376 828 232 141 111 87
393 807 167 67 56 56
334 838 144 49 43 42
335 844 136 69 59 54
365 898 187 64 59 61
335 849 135 84 72 63
335 838 148 45 39 39
335 833 152 48 42 43
331 848 149 43 39 39
335 853 130 98 82 71
334 853 134 93 78 66
332 853 139 77 65 57
335 861 131 93 76 64
331 858 139 89 74 63
332 863 138 95 79 72
330 863 140 96 82 73
329 853 159 34 30 31
441 847 211 101 85 79
326 863 148 64 57 53
325 860 159 37 33 34
310 946 242 65 61 60
325 863 154 50 46 45
330 849 150 44 40 40
329 853 149 47 43 43
327 916 181 78 72 72
331 851 154 35 32 35
332 851 160 33 28 28
304 898 214 65 59 59
337 838 134 74 65 59
336 838 137 68 60 56
336 847 133 85 73 66
336 841 137 69 60 57
350 834 142 79 64 58
350 838 139 86 72 63
351 836 141 75 62 57
349 843 134 89 75 66
349 843 143 75 63 53
349 848 144 71 61 53
407 784 173 70 57 54
336 838 150 43 38 38
402 783 165 64 53 51
338 838 154 40 35 35
337 847 160 30 26 28
337 861 131 92 75 65
343 862 134 85 72 66
395 875 297 40 37 36
348 853 134 80 69 60
349 853 139 76 63 54
347 857 135 81 70 62
348 858 139 80 69 63
346 861 139 87 76 69
333 952 224 83 81 84
344 863 144 81 69 63
346 861 144 79 67 60
345 864 148 76 64 59
352 862 155 66 58 57
334 836 176 93 68 57
323 834 179 156 116 92
325 836 184 172 118 91
326 835 190 181 126 95
325 836 187 178 124 94
328 837 189 174 118 89
332 835 177 121 80 61
323 928 297 72 68 69
333 837 179 108 72 60
333 838 184 129 86 68
328 858 164 31 28 29
378 893 299 48 43 41
449 838 234 66 55 55
327 862 165 32 29 29
330 855 162 31 29 29
333 854 163 31 27 29
335 855 169 31 27 29
332 858 169 32 28 29
330 860 168 33 29 29
333 858 173 33 29 30
433 870 249 83 68 59
333 862 174 34 31 31
334 864 178 36 33 33
342 838 164 36 30 33
338 835 173 73 61 55
340 844 163 29 27 28
339 848 164 29 26 28
342 843 165 30 27 29
341 846 166 30 28 29
341 847 170 30 28 29
344 844 169 29 28 28
343 848 174 31 27 29
338 838 179 75 58 53
339 841 185 86 63 52
343 842 180 51 44 42
340 841 181 53 48 47
445 800 251 101 67 49
336 840 187 125 88 68
343 844 188 84 61 51
344 848 189 76 58 51
348 843 179 46 41 41
348 849 179 35 31 33
351 844 182 41 39 41
402 903 288 66 58 54
346 847 187 50 41 41
383 933 229 70 63 62
341 852 176 33 27 31
337 858 174 36 31 32
336 861 175 35 31 31
458 818 234 80 66 57
344 850 178 32 29 30
343 853 184 39 34 34
340 854 179 30 29 30
340 855 182 35 34 34
339 858 179 33 31 32
337 863 179 38 35 34
463 829 298 92 77 65
338 863 184 33 32 32
344 858 188 36 31 34
345 850 184 42 39 39
346 855 190 49 45 44
346 861 191 34 29 35
333 866 140 81 66 62
330 866 141 89 75 68
329 868 144 90 76 70
333 868 144 75 64 60
327 869 148 91 77 70
325 868 150 84 73 66
325 872 155 79 69 63
326 874 153 88 76 71
324 873 159 64 58 55
328 882 155 89 76 74
325 883 160 79 71 68
328 893 155 93 80 79
448 812 225 78 58 53
332 882 155 82 69 67
332 888 156 79 67 65
334 884 158 79 69 68
331 893 156 82 70 69
339 865 138 84 72 67
338 866 140 81 69 64
343 867 145 83 71 67
343 872 154 75 65 63
337 877 155 78 67 64
343 874 158 71 64 64
346 867 150 77 66 61
350 865 157 69 60 59
353 863 159 68 62 62
338 883 159 71 62 60
323 873 164 55 50 49
326 866 169 37 33 33
397 907 259 65 58 58
327 867 175 32 30 31
453 808 230 79 62 58
323 878 174 50 46 45
325 870 177 36 32 31
325 875 182 41 37 37
327 877 189 41 38 40
331 866 176 33 31 32
329 874 189 41 38 39
318 928 295 64 59 58
324 883 164 64 58 57
323 883 169 57 52 52
324 888 164 73 66 63
323 888 169 59 54 52
323 883 174 54 50 49
322 888 174 55 51 51
323 893 169 72 66 63
422 787 171 58 45 39
323 883 179 51 47 47
447 862 225 92 71 60
323 883 184 53 49 49
321 887 188 49 46 47
453 793 248 49 36 30
320 895 180 52 49 50
351 872 161 74 68 69
336 866 184 35 33 33
308 940 280 73 68 66
338 867 190 34 31 32
336 887 161 76 68 66
343 883 164 71 62 61
403 903 264 73 64 64
346 882 166 67 61 60
348 888 170 71 64 63
359 839 147 59 53 51
355 844 147 55 48 48
358 843 148 55 50 52
349 847 270 138 108 78
358 848 149 55 50 53
450 772 188 65 51 44
427 851 274 37 34 31
420 855 275 34 32 33
361 836 146 64 57 54
368 838 150 53 49 51
363 848 150 57 54 57
368 843 150 54 50 53
366 846 151 57 53 56
368 848 154 57 52 55
358 853 150 57 52 55
357 862 160 65 60 61
363 852 154 60 56 59
368 853 159 60 56 58
363 858 159 61 58 60
370 836 152 53 47 50
372 838 154 53 49 51
374 838 158 50 46 48
373 847 155 56 52 52
377 843 160 57 52 53
376 846 160 60 55 55
372 852 161 62 57 57
359 864 162 65 61 63
369 859 163 65 59 59
368 863 164 65 60 59
378 848 164 58 53 54
383 843 164 61 55 55
383 848 169 63 57 57
370 855 162 63 58 57
374 853 164 59 54 54
394 889 295 55 48 44
375 854 168 57 53 57
398 865 248 30 29 29
372 862 166 62 57 58
456 787 211 69 56 50
375 858 167 57 52 54
379 849 169 61 55 56
379 854 173 59 54 56
383 850 172 64 58 58
457 818 254 48 41 35
377 858 169 56 51 54
377 862 170 55 50 52
378 863 174 57 52 53
382 856 176 67 62 62
354 868 162 69 64 63
356 866 161 70 67 69
358 873 165 67 62 62
358 878 168 67 61 61
363 868 165 65 60 61
362 872 166 65 61 62
368 868 168 70 63 63
364 874 168 68 62 62
365 870 167 66 61 62
367 872 170 72 66 67
364 879 172 70 64 64
464 779 252 58 47 37
366 876 171 74 69 68
368 878 174 72 66 66
354 884 172 67 62 62
358 881 171 69 63 61
361 881 171 64 59 59
360 885 177 72 66 66
363 888 180 68 63 64
368 890 182 61 55 56
370 865 167 63 58 59
373 869 174 62 57 58
370 870 172 66 60 60
375 865 172 57 52 52
377 867 175 57 52 54
373 873 179 59 55 57
371 877 176 65 60 61
451 868 244 93 74 60
370 880 177 63 58 59
375 875 182 59 55 57
378 868 179 60 55 56
377 872 181 60 57 61
379 873 182 64 59 61
383 868 183 62 56 56
353 939 208 90 85 87
360 925 296 72 63 61
383 873 184 62 56 58
373 883 180 65 60 61
373 888 180 63 59 61
374 884 182 65 59 62
370 892 181 62 56 56
373 893 184 62 56 56
384 883 189 57 51 54
381 886 186 61 56 56
383 888 189 59 54 55
378 893 188 69 61 60
379 889 187 64 57 57
329 843 204 166 120 92
327 843 209 152 111 86
329 848 205 154 111 86
332 840 194 169 117 88
329 838 199 179 127 96
328 838 209 164 121 95
331 840 197 176 123 93
333 843 194 151 103 78
332 843 199 164 115 89
330 842 200 174 122 95
335 846 195 133 92 71
331 844 202 167 119 91
327 838 214 147 108 84
324 839 225 92 72 52
326 837 223 87 70 51
326 843 214 134 101 76
325 845 216 119 91 67
325 848 214 121 92 67
324 843 219 95 73 53
320 848 221 108 81 56
326 842 217 116 90 68
325 840 220 90 72 52
329 858 209 147 110 86
428 818 224 35 31 29
333 858 205 130 100 79
328 863 209 140 109 85
324 853 214 117 87 64
325 850 211 142 107 80
326 854 212 141 106 80
323 858 214 121 91 69
323 863 214 120 92 71
326 862 212 138 105 80
338 853 199 116 86 70
343 952 219 90 86 89
343 853 194 98 75 61
341 854 197 108 82 68
339 858 200 106 83 67
356 956 225 91 85 88
338 863 200 87 72 62
336 862 202 101 81 66
346 858 193 54 42 40
344 864 194 38 32 35
324 835 230 97 79 61
322 837 228 102 81 61
343 834 249 109 84 59
343 834 254 107 81 56
348 837 249 118 90 64
353 839 249 123 96 68
345 836 250 112 85 59
324 878 194 56 49 49
328 873 199 67 58 54
332 872 194 43 40 41
331 871 198 57 52 51
330 865 206 127 102 79
330 870 201 82 71 63
508 824 296 85 85 85
334 865 201 93 78 66
326 866 212 130 103 78
325 869 210 129 103 81
321 886 192 49 43 44
338 867 198 63 55 54
383 843 224 36 31 28
368 838 240 134 105 83
438 798 184 72 54 46
354 841 250 127 98 70
429 828 193 67 55 50
354 842 254 123 93 68
356 844 253 128 96 70
359 847 250 131 100 75
363 848 248 130 102 78
367 843 243 129 103 80
367 848 243 119 96 75
360 853 254 125 93 73
363 853 250 121 96 75
369 853 244 101 83 66
433 778 275 179 125 94
366 850 247 122 97 76
362 858 254 111 86 67
368 858 249 87 73 60
371 834 237 136 108 86
344 863 280 149 114 91
372 838 238 130 103 82
374 843 235 110 86 69
374 848 235 82 66 52
379 838 230 87 68 55
384 833 225 71 54 42
382 838 228 74 58 46
384 838 225 48 38 32
423 843 222 31 28 28
381 842 227 56 45 35
380 844 226 43 36 30
380 848 226 34 30 27
377 843 233 91 72 57
375 856 236 44 37 33
379 853 230 35 31 28
384 849 228 31 29 28
447 847 216 91 75 72
383 853 230 31 29 28
377 853 233 45 38 32
378 857 235 35 31 29
378 859 238 34 30 29
370 857 245 80 67 55
374 862 244 43 38 35
423 855 227 39 34 30
375 861 241 38 34 31
370 862 250 66 57 49
383 862 241 29 27 27
373 866 254 49 43 39
378 865 248 35 32 32
378 866 250 37 34 32
383 866 250 29 27 28
383 868 254 28 27 27
319 907 174 93 85 81
317 903 184 59 55 56
317 898 189 53 47 48
319 908 179 85 77 74
319 913 180 89 80 77
313 918 189 91 80 76
318 918 184 83 74 72
318 920 187 88 79 78
318 922 189 82 74 73
303 913 204 66 62 64
302 903 214 63 59 61
298 903 224 59 55 57
296 908 223 59 56 57
463 818 274 62 52 42
296 913 223 57 54 56
302 918 204 72 67 69
301 917 207 72 68 70
300 920 206 77 71 73
305 923 200 80 73 72
301 924 208 79 73 74
304 927 205 81 76 76
294 923 224 64 61 63
300 914 210 63 59 62
296 918 219 62 59 60
297 923 214 77 73 74
296 923 218 71 67 69
296 928 218 86 82 83
313 898 199 138 98 75
309 903 200 86 68 59
307 897 209 74 63 56
307 903 204 76 63 58
306 901 207 65 58 56
311 896 203 104 81 64
313 903 194 55 48 51
311 907 193 59 57 58
310 909 195 66 61 61
359 899 183 70 65 66
309 913 194 67 60 62
315 899 195 72 56 53
316 897 193 62 52 51
396 871 191 69 60 61
305 900 210 63 58 58
308 918 194 79 71 69
308 927 199 83 76 77
313 923 193 84 76 76
313 926 196 81 74 74
305 926 201 85 77 76
308 929 203 83 76 76
318 926 196 75 69 69
318 928 199 78 72 71
295 905 230 63 59 59
295 909 225 57 54 55
294 913 229 57 54 55
293 913 234 62 58 58
290 903 244 164 128 104
290 913 254 136 106 92
292 918 234 57 54 55
290 918 246 75 68 66
290 918 249 90 77 73
290 918 254 99 84 78
290 921 245 64 60 61
291 924 249 79 74 72
292 928 244 71 68 69
291 924 254 91 82 79
293 928 254 85 78 77
300 931 215 81 76 77
304 932 209 81 77 78
309 931 206 80 74 74
313 930 203 76 70 70
313 868 280 168 126 109
318 933 204 79 73 74
308 934 214 76 70 72
311 935 212 76 71 73
309 936 215 74 70 72
313 938 214 76 72 74
308 938 219 76 72 74
308 939 223 78 75 77
312 940 218 77 73 74
314 942 219 79 75 77
308 943 225 81 78 82
314 936 211 77 72 74
478 773 244 90 69 51
315 941 216 74 70 72
317 939 213 75 71 72
314 947 225 87 83 86
320 946 216 88 85 87
317 949 223 89 86 89
294 933 239 73 68 69
296 934 228 84 79 81
298 938 229 87 83 84
299 942 234 89 85 88
299 942 239 77 73 75
303 944 239 69 65 66
295 937 243 79 75 76
296 930 250 81 74 71
328 937 289 60 55 53
296 930 252 90 83 82
298 938 244 69 65 65
300 937 249 83 77 76
302 940 245 64 60 60
303 939 249 84 77 75
302 939 253 89 85 87
308 944 244 68 64 63
307 944 253 78 73 74
310 946 226 87 84 87
305 946 234 87 82 83
308 948 234 85 81 83
306 945 240 61 56 55
313 950 234 81 78 79
316 950 228 95 91 94
319 951 225 96 93 97
431 856 206 84 67 62
314 951 233 86 82 84
318 949 239 71 66 66
311 945 245 81 76 75
313 948 254 67 62 63
316 950 254 61 57 57
343 935 202 85 79 82
319 952 254 67 62 62
328 896 156 87 75 74
358 883 275 86 67 55
