ply
format ascii 1.0
comment Created by Open3D
element vertex 2228
property double x
property double y
property double z
property uchar red
property uchar green
property uchar blue
end_header
301 385 191 99 83 66
236 458 259 154 11 48
326 38 223 121 26 46
305 166 284 129 44 55
332 675 124 70 52 40
239 457 263 158 10 48
241 458 264 161 10 49
240 460 261 158 11 49
340 691 276 137 12 41
297 805 157 152 109 82
373 468 348 73 23 36
243 463 264 162 10 50
361 618 186 75 34 32
219 552 185 87 22 35
243 458 269 159 11 51
304 104 202 111 89 67
247 463 269 168 8 51
263 513 139 135 0 36
243 453 274 51 27 32
415 856 206 74 60 56
443 853 244 69 53 54
367 423 299 139 13 45
244 452 278 43 28 31
245 454 280 55 28 33
345 688 121 72 50 38
340 750 246 79 62 57
372 423 329 77 16 29
245 450 285 92 17 31
394 592 277 97 75 49
245 449 289 156 9 49
267 498 264 160 11 50
244 456 273 122 23 43
263 233 204 108 90 71
297 668 163 73 33 35
248 462 274 170 6 51
259 509 146 38 33 35
302 693 255 163 19 54
378 428 254 125 1 38
249 461 277 172 3 50
304 845 263 113 37 54
251 463 279 173 2 53
354 711 282 187 18 60
250 459 284 172 4 53
415 537 234 170 14 46
271 203 204 108 91 72
283 18 209 125 83 74
242 468 259 157 12 48
247 468 264 136 14 46
357 953 244 66 63 65
246 473 260 126 19 43
245 470 261 161 12 50
271 83 289 96 35 40
247 478 259 87 27 37
234 688 200 151 103 72
441 743 180 52 43 40
250 470 266 24 27 30
377 658 183 55 43 42
302 188 175 131 102 66
266 238 194 110 91 70
253 472 269 39 27 30
393 904 254 63 57 56
256 474 270 67 29 34
380 567 191 45 35 40
256 479 265 119 23 43
328 829 224 84 67 48
259 527 132 146 15 44
407 488 238 140 10 44
257 478 269 108 26 41
296 389 304 109 89 66
294 56 273 119 63 36
299 354 229 116 90 67
253 468 274 78 19 35
256 469 279 156 6 50
252 608 230 77 23 34
357 932 205 83 76 79
257 473 274 117 19 43
322 48 169 98 73 55
254 466 282 176 3 54
266 293 324 134 95 67
335 480 326 160 10 50
257 468 284 173 6 54
263 340 196 97 84 71
248 452 304 54 24 32
250 455 294 174 6 51
358 421 296 59 18 26
250 455 299 109 14 37
328 592 287 189 16 60
324 403 114 40 30 38
262 348 259 107 79 60
304 430 102 161 0 35
286 11 229 130 68 61
250 455 304 36 26 32
256 464 294 164 18 55
317 518 304 148 24 53
440 821 211 81 70 63
254 462 299 33 26 30
256 463 304 33 27 33
441 848 220 97 75 62
248 452 309 49 26 32
400 514 304 150 6 44
250 454 309 92 25 40
302 163 178 118 96 71
277 163 284 97 79 59
246 603 189 116 19 41
327 68 215 113 32 47
302 198 175 134 103 67
298 320 212 100 84 67
250 450 320 73 27 33
251 454 314 119 25 45
322 488 323 93 19 35
255 454 320 34 29 31
289 173 306 128 98 69
284 180 217 104 84 62
283 58 308 130 16 49
346 469 156 50 33 38
253 458 309 144 25 51
322 14 209 107 48 50
257 463 309 57 28 34
353 834 124 95 77 66
334 956 235 55 51 51
382 381 174 86 48 45
202 563 248 176 122 101
253 457 314 42 24 31
275 218 322 125 98 67
388 823 225 89 66 51
256 459 315 35 26 31
258 463 314 81 30 39
271 53 278 121 44 41
267 453 97 72 34 39
248 482 257 57 28 33
249 486 257 32 27 28
286 583 270 161 14 50
252 488 258 48 26 30
275 653 230 145 16 48
327 398 154 74 36 29
282 820 196 179 126 102
292 93 268 96 34 25
287 133 307 97 70 52
312 483 324 106 21 40
292 918 224 66 63 65
257 483 264 96 27 40
338 105 185 121 84 63
255 485 261 80 25 30
277 253 309 128 96 63
255 495 256 64 24 34
254 451 323 38 30 34
255 450 326 67 31 35
387 859 253 29 27 29
198 517 209 175 1 46
342 782 233 183 131 111
302 14 190 111 73 49
226 563 204 149 5 42
297 73 307 116 32 48
297 18 189 127 35 30
442 733 270 163 111 79
378 839 163 56 51 52
297 23 189 124 24 30
367 813 120 71 59 52
302 23 185 123 29 30
282 13 229 139 89 77
307 920 198 85 77 76
300 23 187 123 23 32
405 547 206 149 16 44
274 173 286 100 83 65
300 28 187 92 62 44
303 28 185 103 45 36
344 43 160 90 41 35
291 548 276 113 16 41
300 33 187 106 87 68
302 33 184 107 56 46
302 38 184 132 36 43
307 18 188 112 95 78
379 651 187 40 38 41
362 668 139 68 42 38
307 23 184 102 59 41
312 18 190 109 93 77
391 463 367 112 56 56
317 14 199 101 80 67
312 24 185 113 97 79
423 388 199 94 16 35
368 479 167 140 0 31
415 533 219 174 16 46
305 32 182 132 31 35
307 33 180 94 36 31
312 28 183 111 92 70
311 30 181 102 65 40
452 700 238 75 53 44
292 88 268 95 32 27
413 804 177 70 55 50
382 493 174 69 30 37
312 33 180 85 53 38
421 428 204 85 23 35
317 23 189 109 93 76
414 758 277 187 138 108
300 55 285 117 67 54
360 487 370 105 69 62
359 945 261 52 48 46
312 58 174 131 51 53
382 443 264 74 18 31
272 228 229 109 88 63
317 28 185 113 96 79
316 25 186 113 96 78
313 102 273 96 82 67
328 543 148 77 29 36
411 413 167 154 12 37
314 162 211 114 91 65
298 38 189 139 28 45
308 78 208 104 35 43
317 768 143 70 55 48
303 43 184 121 54 51
298 602 272 63 30 35
303 48 184 130 62 60
290 45 308 92 47 44
360 534 330 187 135 114
299 43 190 126 32 42
222 588 210 111 82 52
301 43 188 125 79 64
399 493 275 81 20 31
302 48 189 132 66 65
201 568 223 154 111 79
312 48 174 124 33 35
414 539 224 173 16 46
267 368 289 86 75 65
317 43 174 87 53 38
316 48 172 114 30 25
415 522 206 97 24 38
322 183 189 130 102 69
273 372 320 107 86 63
318 49 171 113 36 30
304 35 181 125 25 28
312 38 178 104 35 31
317 73 289 129 108 84
312 394 154 79 35 41
282 251 181 109 85 55
267 748 215 141 92 75
307 43 179 106 46 40
304 278 214 114 89 61
304 43 181 124 33 36
304 46 181 133 28 38
317 37 177 106 90 73
215 563 217 107 31 32
466 695 252 83 67 51
337 928 294 80 75 74
274 263 308 128 95 63
194 544 226 134 97 72
291 918 264 70 61 58
310 148 177 121 97 69
314 54 171 125 31 38
317 493 320 33 27 28
362 428 167 62 32 31
317 58 169 122 31 36
389 791 247 57 48 43
335 593 171 37 37 41
335 513 149 73 27 36
319 62 166 131 72 61
279 53 307 112 70 58
267 693 229 77 31 36
365 872 175 70 65 65
346 479 330 62 23 31
314 58 171 138 27 42
273 378 260 82 61 42
314 168 177 136 103 65
308 53 179 127 43 46
305 50 182 147 17 43
267 429 343 142 105 86
304 52 185 146 16 45
319 183 210 124 99 72
310 54 177 128 77 63
305 54 188 146 102 84
341 68 194 109 30 41
259 602 237 69 18 30
243 768 184 173 119 90
310 58 178 126 74 65
297 538 278 41 27 30
289 144 196 109 91 72
263 248 194 112 92 69
311 63 179 134 41 50
258 518 129 115 19 42
272 398 99 112 75 61
309 61 181 138 12 43
326 833 214 141 104 80
304 465 112 53 24 33
308 63 184 113 21 36
306 58 189 124 91 75
358 949 255 57 54 53
352 398 249 66 25 26
306 634 266 90 31 39
288 15 204 107 57 50
288 14 209 118 69 67
267 303 195 102 84 63
260 266 236 102 83 62
362 893 303 54 50 50
267 38 294 130 71 56
284 15 215 130 81 82
319 157 206 116 92 65
424 479 193 166 16 41
260 248 225 113 92 69
287 13 214 129 83 81
283 14 219 147 104 104
287 12 219 137 91 87
333 457 379 84 24 28
261 391 168 96 82 68
399 491 269 102 26 40
282 223 179 124 97 64
283 23 209 142 35 54
243 748 174 162 110 79
286 18 204 108 53 44
278 128 276 99 32 28
422 703 280 174 115 85
288 18 200 111 47 39
464 845 276 92 76 59
282 436 349 68 44 35
284 20 206 123 26 42
288 23 200 128 21 39
267 193 288 97 82 66
282 457 101 108 30 41
288 28 204 147 65 68
343 688 129 64 52 40
344 494 330 53 22 27
285 25 208 155 14 48
393 712 153 51 42 38
283 23 214 132 27 48
258 587 248 179 15 55
285 385 266 67 54 40
281 18 219 129 74 75
283 23 219 128 49 52
319 203 211 128 103 75
344 487 349 138 11 44
284 22 224 126 95 68
302 10 209 102 64 54
267 337 198 96 84 71
277 298 250 116 84 59
272 448 96 91 33 39
380 468 171 128 7 27
318 114 206 124 96 71
357 653 174 62 39 38
349 792 138 79 69 65
286 24 224 137 101 78
329 569 162 64 34 40
285 25 220 128 43 50
288 10 229 130 59 57
364 390 239 87 41 32
283 13 234 126 50 54
284 13 239 134 33 53
439 685 206 88 72 58
347 19 156 85 49 35
285 11 234 130 45 53
409 554 246 166 12 48
309 36 227 113 51 51
288 10 234 132 41 54
267 369 187 91 81 71
309 255 203 126 98 68
285 13 240 132 36 52
444 853 239 80 65 62
342 783 130 77 56 42
327 83 159 138 20 39
276 556 136 125 25 41
288 10 239 135 36 55
286 13 244 131 32 51
344 43 162 87 48 39
288 10 243 131 35 54
287 23 229 134 94 73
292 72 272 78 48 32
288 703 160 111 18 27
284 17 233 151 101 86
287 17 239 155 95 92
288 22 233 140 102 74
340 56 157 70 46 35
258 633 199 103 14 32
299 879 277 152 121 99
288 17 244 144 80 68
292 14 199 105 52 43
293 14 195 105 52 43
314 130 176 120 98 72
297 11 199 104 60 49
402 898 284 70 62 57
286 193 184 112 93 72
245 600 188 57 35 38
296 11 204 103 57 48
461 811 271 64 52 41
303 10 200 101 73 59
302 489 321 78 33 40
315 87 297 115 15 44
298 124 203 107 87 67
283 718 160 56 34 37
298 10 204 102 60 50
280 324 252 107 80 55
302 10 204 101 68 57
337 698 139 65 47 35
436 747 176 54 44 43
416 528 219 161 16 44
262 413 342 137 101 72
324 148 200 121 97 70
300 11 202 102 64 52
295 11 213 116 65 62
322 778 229 63 51 46
367 380 179 126 29 37
291 11 218 131 82 77
404 869 203 74 62 60
393 898 219 71 63 63
301 53 204 123 35 47
292 10 219 128 75 70
279 395 115 92 76 61
307 798 152 81 64 56
289 10 221 133 82 75
340 437 315 62 52 43
269 230 292 95 74 48
292 10 224 129 66 64
270 697 236 98 27 41
330 701 142 76 42 35
297 9 224 122 53 56
292 23 194 121 29 38
349 836 131 98 88 80
262 453 330 98 26 42
345 472 371 44 20 28
406 628 279 146 98 68
295 23 192 121 28 33
320 901 296 44 39 36
294 32 195 131 97 78
352 426 310 51 16 24
279 157 281 90 69 45
292 33 204 120 76 63
289 31 208 158 16 53
392 382 209 75 37 25
295 440 349 72 50 35
290 30 210 135 43 52
293 32 214 112 67 56
294 31 218 150 24 56
466 758 235 75 56 47
297 448 369 81 30 29
322 423 109 142 0 35
395 644 215 118 20 37
314 238 204 130 100 69
387 398 239 103 15 39
297 33 219 142 28 55
195 533 253 144 101 86
252 803 179 192 133 102
263 787 160 174 119 83
427 408 165 88 23 34
281 64 300 128 16 51
298 32 223 118 67 60
265 658 192 52 42 42
198 533 250 120 87 74
312 14 194 100 84 69
312 12 199 99 82 68
355 754 126 73 58 46
334 106 161 140 21 35
356 460 382 74 25 27
466 752 256 65 51 39
306 10 201 99 78 64
315 193 181 133 103 66
384 433 246 117 5 34
391 558 304 136 102 66
309 11 202 99 80 66
259 244 210 111 91 69
311 10 209 104 67 59
368 402 270 90 15 31
319 155 177 135 104 66
426 669 174 64 48 37
307 453 344 136 20 49
315 15 196 98 83 69
313 11 209 104 65 58
317 13 204 103 71 62
307 10 219 107 51 50
362 873 269 93 76 59
312 9 224 107 47 49
277 218 228 109 87 64
314 11 213 108 51 51
443 763 270 170 116 86
316 10 219 109 41 47
460 806 266 51 40 31
332 857 140 92 77 70
400 498 264 62 29 34
316 10 224 108 44 48
318 11 219 108 37 45
337 693 275 137 12 42
318 11 224 108 41 46
337 399 254 68 37 34
292 268 189 106 82 55
317 18 194 103 89 75
356 73 174 127 14 47
318 16 198 102 84 71
315 686 261 35 28 31
319 21 192 107 92 76
297 83 270 87 29 28
257 723 170 111 87 58
465 840 286 113 99 89
297 9 229 122 41 51
292 9 234 131 37 53
312 523 294 80 29 38
292 9 239 130 36 53
402 688 286 192 138 111
266 248 295 97 76 51
297 8 234 121 37 49
393 483 384 172 120 105
357 698 286 150 16 48
372 474 393 52 27 30
331 508 139 123 7 34
302 9 239 103 39 42
348 867 118 92 77 64
292 10 244 121 36 49
292 253 184 111 85 55
290 11 246 120 35 49
293 10 247 112 37 44
399 512 299 156 11 49
297 13 249 99 52 41
352 654 171 85 36 31
386 762 150 59 48 45
301 10 243 99 38 39
264 487 268 147 13 47
328 73 156 142 21 37
311 903 189 61 57 59
303 11 245 96 38 37
304 64 191 105 30 33
302 13 248 99 47 41
189 516 251 31 22 24
385 876 296 48 42 39
297 23 239 154 113 89
412 658 244 72 57 50
232 628 235 179 126 103
289 26 227 132 104 83
260 474 280 169 12 54
421 695 176 72 53 46
290 25 230 141 104 80
296 25 235 121 87 69
387 788 160 75 60 57
293 368 239 112 88 66
304 210 177 134 103 64
302 29 229 131 85 73
341 470 340 87 18 36
425 388 193 123 16 38
441 728 179 58 48 41
300 30 226 130 92 74
282 108 304 105 19 38
302 27 234 151 33 58
301 161 292 102 39 43
306 30 230 140 27 53
303 26 237 153 27 58
297 21 244 166 119 110
361 488 374 147 100 90
291 193 178 123 99 70
272 198 214 107 89 71
272 258 188 111 87 58
297 18 249 157 120 109
327 633 167 102 23 26
437 778 274 175 122 93
296 21 247 215 167 184
289 386 272 70 55 42
291 68 306 122 20 48
302 17 248 136 101 83
302 20 246 139 97 80
366 730 142 63 49 43
302 22 244 161 114 93
395 489 315 131 10 37
333 108 189 131 95 70
445 705 196 79 62 50
307 9 229 98 48 46
374 431 276 86 25 36
267 353 190 93 83 73
307 9 234 96 43 43
347 563 173 93 27 37
302 98 269 77 38 22
266 439 344 175 20 58
307 10 238 95 40 40
452 803 229 75 58 53
362 934 208 79 73 74
303 283 209 106 84 59
292 208 176 127 98 64
444 790 197 85 66 58
311 10 234 94 47 44
308 11 240 93 40 39
388 458 354 75 20 28
352 497 334 116 22 38
313 11 235 94 47 44
292 759 225 71 58 54
312 12 239 92 43 41
227 628 204 145 105 67
314 11 231 100 49 48
317 11 229 105 47 49
352 430 317 50 17 23
227 603 238 168 119 96
272 628 175 96 25 38
306 208 222 120 95 67
273 78 279 106 51 48
406 729 160 54 43 41
334 461 342 182 6 53
317 12 234 97 47 47
297 893 229 97 81 69
316 14 238 99 40 47
331 102 203 135 90 79
324 892 161 97 87 85
307 13 244 94 38 38
287 262 186 108 83 55
322 823 249 103 80 59
413 673 286 172 114 84
305 14 247 100 45 42
311 14 243 89 40 37
312 23 239 125 37 54
292 243 232 119 94 65
177 534 249 207 141 118
307 33 228 133 37 56
182 528 259 201 146 125
269 317 256 107 74 56
315 69 286 121 96 72
312 33 229 125 89 76
394 598 311 175 120 89
407 828 220 29 27 26
273 472 323 53 28 33
307 28 234 141 26 55
307 26 237 148 22 56
312 153 176 125 99 66
312 28 234 126 81 70
316 18 238 109 74 64
344 675 142 69 54 46
264 497 262 140 15 45
316 22 237 114 64 60
324 436 152 78 26 33
318 18 236 98 44 44
330 522 141 104 21 37
333 688 120 68 52 39
307 57 294 106 45 48
428 707 183 62 50 41
319 30 231 126 21 49
314 31 232 120 84 74
206 533 204 72 28 36
438 834 279 39 36 33
307 18 245 118 83 69
335 778 137 71 54 44
311 18 243 108 33 45
331 421 296 77 67 57
263 238 199 105 87 68
468 788 249 73 55 43
294 36 196 121 65 54
319 179 182 139 106 69
468 749 233 87 65 53
294 36 199 133 20 39
413 758 163 60 47 42
305 58 192 102 45 41
371 412 305 150 15 48
296 39 199 144 14 47
294 36 204 124 41 49
331 524 305 83 31 42
296 39 204 139 19 46
372 413 313 98 7 33
296 38 209 140 17 48
360 790 236 175 124 104
330 506 136 141 0 39
317 128 175 123 99 72
352 858 159 65 60 61
298 43 194 141 25 49
298 43 204 135 96 75
442 828 254 57 49 42
299 43 209 125 40 50
339 466 343 163 11 52
462 698 239 96 76 55
277 98 300 98 68 53
465 782 236 63 50 42
300 45 201 139 112 86
367 888 185 62 57 58
295 35 210 134 25 43
357 938 274 58 53 51
299 120 202 108 88 68
298 38 214 131 21 47
278 248 314 129 98 65
302 38 219 125 18 45
299 41 212 123 15 38
311 112 297 125 12 46
356 493 364 124 85 76
323 173 194 130 101 69
304 42 218 122 89 73
302 53 209 122 33 49
297 393 269 60 49 38
302 58 199 96 65 50
202 518 219 65 28 35
402 598 294 142 104 65
316 104 275 102 88 74
242 678 225 182 134 112
393 864 289 36 33 33
302 389 174 96 80 64
303 63 194 128 27 45
272 273 244 106 84 59
270 108 282 97 28 37
307 803 155 88 67 58
387 683 149 61 45 39
302 63 199 113 49 46
304 58 208 120 89 68
303 53 213 122 12 44
282 163 282 93 74 51
332 847 279 125 98 70
305 40 221 114 22 40
306 43 220 124 93 75
287 593 156 167 2 35
347 437 324 50 31 30
263 521 121 61 34 38
308 42 223 117 72 64
406 673 204 76 29 30
307 48 219 121 91 73
291 373 190 100 87 73
319 188 211 127 102 75
235 545 172 156 0 39
327 403 269 71 47 41
309 46 222 120 89 71
312 43 225 106 45 49
377 864 264 32 28 28
338 481 327 141 16 46
312 48 223 104 67 57
307 392 159 83 51 48
409 544 213 174 17 44
272 428 340 140 104 84
305 64 206 117 95 74
305 49 216 118 91 71
402 393 163 158 9 28
310 49 221 116 89 73
358 508 163 71 33 39
311 53 220 108 43 50
313 53 223 111 23 42
305 59 210 115 90 72
392 398 164 91 30 34
268 380 185 94 81 68
304 56 212 104 32 38
201 533 223 63 33 34
336 397 164 121 15 20
307 58 214 109 24 42
297 873 264 125 93 82
310 60 216 120 10 41
369 666 266 134 14 46
329 118 195 126 98 70
234 643 201 161 112 79
263 253 195 113 92 68
317 53 223 114 34 48
240 729 200 179 119 94
196 542 227 125 91 63
307 448 349 80 37 37
317 58 220 126 90 76
312 38 227 118 32 49
289 149 203 106 88 70
279 234 302 124 94 62
343 78 189 119 46 56
311 438 322 115 89 65
311 39 226 121 13 48
372 848 164 59 55 56
282 413 333 122 95 65
314 41 227 116 12 38
225 578 212 48 36 34
391 563 294 104 82 58
392 407 166 148 4 40
305 55 307 106 56 53
377 443 334 54 27 26
317 41 227 110 20 38
402 423 170 146 7 33
269 209 217 109 90 71
317 43 226 108 45 47
317 48 224 109 35 45
323 868 287 149 109 91
317 73 169 103 34 37
367 713 134 61 47 38
315 68 173 135 19 44
256 788 168 171 114 80
184 543 239 179 121 96
314 73 175 97 45 35
282 793 155 181 124 88
401 654 234 56 30 32
319 75 166 74 54 42
252 743 164 131 97 61
317 78 169 115 31 37
398 898 249 56 51 50
387 413 240 50 25 27
172 519 228 226 155 140
382 878 189 57 52 53
319 78 166 114 37 41
412 433 234 105 14 37
313 78 174 108 35 36
282 68 300 102 40 43
347 818 139 82 66 55
380 506 355 184 121 95
387 603 219 96 29 39
312 68 179 115 92 71
328 138 189 124 98 68
310 67 182 116 88 68
268 546 131 141 24 43
307 469 330 165 12 52
277 129 307 96 36 39
418 381 209 114 8 34
162 523 239 214 142 122
197 553 225 150 108 78
285 549 271 174 17 54
347 428 159 67 36 37
316 673 260 114 31 48
305 68 189 110 52 47
305 73 188 138 30 50
258 358 329 107 85 58
352 937 278 57 51 48
231 539 249 40 27 31
304 72 190 115 56 53
413 738 163 66 50 43
394 820 118 92 74 63
309 75 181 90 74 58
374 452 313 42 30 30
358 828 129 113 93 80
311 78 179 102 56 43
229 671 206 159 106 74
308 78 184 101 50 43
312 83 174 107 43 39
325 157 185 137 105 70
282 78 299 95 47 45
312 88 174 123 40 43
312 93 174 121 93 67
289 286 241 117 92 61
314 83 171 99 62 46
394 601 272 91 71 44
420 513 224 164 16 45
318 92 170 137 49 52
272 768 152 146 103 66
428 828 198 84 67 58
317 94 172 108 76 59
383 841 230 37 31 28
324 16 212 106 33 44
310 83 178 114 30 38
262 740 161 117 90 59
294 724 151 73 30 34
308 83 184 110 45 43
397 703 280 180 125 104
309 88 180 118 38 43
348 716 277 202 18 64
291 333 244 120 91 68
332 98 255 77 69 60
310 88 177 115 32 40
251 619 198 43 36 37
356 488 359 89 66 63
306 83 189 107 38 43
306 88 189 91 65 48
411 847 190 68 57 52
327 508 134 148 6 36
304 93 191 117 33 43
396 903 239 58 52 50
383 463 173 128 6 27
408 534 203 149 19 44
306 59 285 114 76 63
394 692 282 173 124 102
334 669 272 66 27 33
341 714 275 156 25 55
304 108 189 107 90 72
336 48 204 107 26 38
306 687 256 37 26 29
376 438 335 91 9 28
303 113 189 106 89 73
292 203 225 115 91 63
265 519 140 111 10 39
304 118 185 106 89 71
382 873 289 37 34 35
302 133 209 108 85 60
299 124 191 104 88 71
389 566 286 47 26 37
390 757 150 62 50 47
298 128 190 103 87 71
263 233 223 112 92 69
317 98 173 121 39 39
317 103 173 134 52 53
317 107 176 128 93 64
332 853 174 34 30 30
304 98 190 113 68 59
266 478 294 177 11 55
471 728 204 69 52 42
375 841 160 58 54 54
316 208 184 132 102 67
305 103 188 113 93 71
337 748 245 78 62 55
411 778 270 184 137 112
287 363 189 95 83 71
306 113 184 110 91 71
312 108 178 129 102 70
268 212 326 122 98 69
392 856 246 29 27 29
312 113 179 129 103 72
309 113 181 123 99 72
400 728 139 70 55 46
435 846 258 68 59 51
266 494 265 126 15 43
305 112 187 109 91 73
354 547 307 140 12 41
314 106 176 129 98 65
317 113 177 126 99 67
291 343 243 122 94 71
318 119 176 116 92 64
422 673 174 62 46 38
315 202 181 129 100 67
368 430 337 95 8 30
272 493 111 113 20 40
306 118 183 112 93 72
397 858 189 72 61 61
347 944 270 88 85 86
297 188 221 112 88 60
390 607 230 62 30 35
382 638 194 76 31 28
317 713 149 105 26 30
312 118 178 125 99 70
304 114 186 106 89 70
266 489 270 162 11 51
275 134 306 95 77 56
305 123 182 117 96 72
267 183 319 108 89 68
422 458 209 141 13 43
308 123 180 124 100 72
307 618 270 140 34 54
305 262 195 131 99 70
343 839 120 100 79 63
317 168 210 116 93 66
431 389 179 151 14 44
430 705 186 65 51 35
293 668 165 75 33 36
259 736 217 179 124 102
419 801 257 109 75 56
307 128 180 121 98 73
312 123 178 124 99 72
377 427 330 55 22 37
246 558 254 55 29 34
312 128 178 120 98 74
316 118 177 124 98 69
297 373 194 102 88 73
270 118 282 101 23 34
255 594 236 38 25 30
307 653 258 159 29 58
320 104 280 114 97 80
319 114 176 119 93 64
327 638 270 37 29 32
383 803 162 73 58 57
347 490 321 117 3 41
348 477 378 75 29 35
316 123 177 118 95 69
270 212 198 103 87 70
337 784 230 179 129 108
344 850 111 95 69 42
317 218 209 130 103 71
395 499 306 122 8 28
304 68 194 104 62 50
265 143 299 111 92 73
380 470 298 141 10 42
393 453 240 139 10 42
304 72 194 83 58 44
337 456 374 73 27 27
305 68 205 112 26 42
307 68 209 110 27 43
353 757 252 76 62 55
304 72 202 123 14 42
412 483 234 127 12 41
308 73 208 110 81 64
380 393 242 40 25 29
305 74 199 131 14 45
311 697 152 94 27 33
301 333 214 112 91 68
354 396 241 83 35 26
306 78 194 126 24 45
264 607 243 38 28 32
289 898 245 161 127 102
305 78 199 100 49 45
315 73 285 123 101 77
309 66 212 106 20 39
310 69 211 117 88 72
287 63 269 111 22 29
340 688 276 138 11 42
406 623 279 149 101 70
415 527 210 172 16 45
377 723 139 62 49 45
417 693 283 177 117 88
312 78 210 102 80 61
412 473 182 157 14 37
317 68 215 115 21 43
400 877 205 75 61 59
309 118 296 131 26 51
278 41 294 133 42 39
431 838 204 74 60 57
316 65 216 115 30 42
299 119 301 120 94 74
307 118 297 117 55 58
309 396 131 65 29 32
319 66 217 111 85 68
314 78 212 101 80 61
399 701 282 186 133 109
305 88 194 104 35 39
305 88 199 94 53 44
308 83 208 103 19 39
390 699 135 60 50 43
374 514 177 121 20 34
307 863 279 164 122 104
378 800 162 60 49 50
304 93 194 116 31 43
292 390 164 93 78 63
304 93 198 108 38 44
290 857 244 158 115 94
284 179 311 120 94 64
306 58 308 101 39 44
308 208 221 119 94 65
372 453 167 78 36 33
305 93 201 103 52 47
458 678 199 77 60 40
306 93 204 107 67 56
278 247 181 111 88 58
309 92 207 101 59 52
403 778 169 69 57 53
298 192 221 115 90 61
326 852 165 33 29 30
311 83 210 107 28 43
369 603 192 37 34 40
312 88 210 112 9 40
272 42 289 154 44 38
302 803 155 66 55 53
314 83 212 109 16 39
376 493 384 132 77 74
292 378 191 99 85 71
292 88 304 114 71 65
317 83 212 112 25 43
293 492 318 40 28 31
317 89 211 110 32 41
420 398 213 96 23 37
176 525 232 222 152 131
317 93 210 109 36 48
259 466 312 86 23 35
293 133 199 106 88 69
306 622 167 131 3 30
461 773 224 64 49 40
207 523 240 81 8 27
270 286 318 127 93 61
303 103 199 107 89 70
276 252 306 126 95 61
332 104 199 137 97 80
303 108 194 106 89 72
302 108 199 109 90 71
303 113 203 110 88 66
299 118 199 106 87 69
300 117 193 105 89 72
302 118 204 106 86 63
313 233 214 135 103 75
292 499 309 72 30 36
312 448 354 57 34 31
278 417 336 126 97 67
277 153 310 113 93 71
298 123 194 107 90 72
337 738 253 79 62 56
287 438 344 80 56 40
297 123 199 107 89 70
303 124 207 106 84 60
236 708 199 167 113 85
306 741 242 68 55 52
292 548 140 55 36 40
399 491 250 37 30 28
300 127 206 104 83 61
302 128 208 107 84 59
332 837 271 143 115 85
304 98 194 108 79 62
412 384 174 88 19 30
377 674 132 80 58 43
267 375 281 91 76 64
352 633 178 74 35 30
309 98 207 105 84 61
342 568 173 99 24 34
292 713 154 86 27 33
312 103 208 110 86 62
268 48 284 137 51 50
305 113 206 107 85 62
308 108 207 110 86 63
471 757 240 98 73 57
293 53 311 98 72 60
308 113 207 109 85 62
342 623 175 87 28 28
397 423 237 72 21 31
327 48 220 114 72 64
319 110 206 125 99 72
347 853 114 106 87 74
332 853 204 123 95 75
314 229 193 136 103 72
312 452 372 83 24 31
312 113 208 115 88 64
327 489 321 139 11 47
305 117 206 106 84 60
282 248 181 112 87 57
282 193 189 111 93 74
336 823 138 75 63 57
257 638 223 140 98 87
304 120 207 104 82 58
307 123 208 108 84 59
277 583 149 180 6 38
316 123 207 120 91 67
247 613 199 71 32 38
267 821 184 227 150 122
193 551 252 180 127 105
405 634 261 92 75 56
318 123 206 122 95 70
312 118 208 114 88 63
348 24 158 85 48 34
348 29 160 85 47 31
350 27 160 85 47 32
357 518 163 86 33 38
321 24 190 108 91 74
197 558 250 182 127 106
324 168 199 124 99 71
327 898 164 77 67 64
285 722 157 44 37 38
322 28 189 110 93 75
315 217 185 141 107 71
338 462 354 175 0 53
207 538 219 51 32 34
327 78 213 118 33 48
227 618 238 174 124 99
332 653 268 183 20 60
322 33 184 114 96 78
212 543 245 138 13 44
273 395 124 90 73 59
324 32 187 111 93 74
347 13 160 84 63 61
312 623 271 99 31 43
347 10 162 84 63 62
302 193 221 116 91 62
350 13 163 84 63 62
348 17 162 84 60 54
456 717 202 101 79 59
415 536 221 175 16 49
261 287 305 102 74 45
398 523 304 181 7 58
321 203 194 132 103 71
410 516 196 53 28 32
381 932 234 59 52 50
349 23 163 85 47 32
447 718 195 61 48 40
350 29 163 84 47 31
331 62 157 108 37 26
304 840 235 144 112 83
437 763 275 177 121 91
368 861 256 57 49 42
337 63 154 97 42 25
347 38 159 90 40 30
362 444 344 52 11 23
344 38 160 89 41 31
369 769 152 50 44 45
367 458 164 58 36 37
274 114 302 93 48 39
312 98 299 117 24 45
391 513 318 92 15 36
347 49 156 111 33 26
407 413 235 47 27 29
351 43 160 101 30 31
334 457 347 159 4 46
337 53 160 110 95 82
302 353 214 97 80 63
343 54 156 76 39 22
339 59 156 85 41 27
373 514 344 184 120 93
379 823 157 60 56 57
396 528 304 183 11 58
342 58 155 83 40 22
387 513 320 158 16 53
312 118 263 82 33 24
396 898 224 66 58 56
287 392 139 86 65 55
272 283 248 107 84 58
326 93 163 134 27 40
274 73 292 100 9 35
347 53 156 100 31 21
352 53 159 105 33 34
351 58 156 97 32 24
316 418 309 116 93 68
321 39 176 120 102 85
399 860 286 37 35 34
322 43 174 119 102 84
396 790 251 56 46 41
327 44 174 122 104 86
326 45 171 123 105 87
414 647 269 123 93 58
327 48 169 124 106 87
332 49 169 123 106 87
305 67 307 107 30 46
310 940 266 59 54 54
310 252 200 128 98 69
347 443 339 59 37 33
331 45 176 122 105 89
332 47 174 121 104 87
277 233 319 127 100 70
324 36 183 118 101 83
418 694 176 71 53 44
409 879 238 73 63 61
322 452 359 68 30 36
319 213 204 129 102 70
337 508 154 107 14 33
382 666 169 98 43 34
447 777 199 54 45 41
352 943 269 78 76 78
326 39 180 120 103 85
308 530 137 171 4 34
224 566 189 53 33 36
327 38 184 119 103 87
326 35 185 117 100 83
399 549 285 85 21 34
397 389 165 143 14 27
328 42 178 121 104 86
391 708 130 75 59 49
329 36 187 121 105 87
302 396 93 120 52 46
239 723 204 178 119 94
331 38 189 104 92 79
331 39 185 117 101 85
352 406 266 67 14 26
329 41 182 119 99 80
333 42 184 114 98 83
337 48 179 111 95 79
290 163 188 112 93 72
236 548 172 143 6 36
273 58 275 131 29 41
335 45 181 113 98 82
392 403 165 75 29 35
335 63 208 104 20 36
336 44 185 108 94 79
352 503 325 114 14 39
422 728 279 178 123 91
338 47 184 106 92 77
334 41 189 101 90 78
310 68 281 108 91 75
336 44 189 95 83 70
287 113 304 106 69 56
297 391 134 74 37 40
387 473 174 99 17 28
321 52 168 78 44 34
364 385 212 55 36 37
314 106 272 93 76 58
323 54 165 80 39 27
327 53 164 102 81 62
287 395 109 88 74 61
291 134 272 101 28 37
421 453 209 105 15 35
322 58 164 111 39 31
262 357 299 84 74 63
324 60 161 116 43 30
254 578 166 123 24 40
316 193 213 125 100 73
327 57 162 95 42 25
457 723 199 96 74 53
380 726 141 72 56 49
333 54 161 124 109 93
337 51 164 118 101 85
257 813 194 215 153 127
350 38 162 90 43 31
381 833 116 86 72 65
383 463 285 130 10 39
390 598 264 78 27 37
319 426 311 110 88 63
347 43 163 88 42 33
274 63 276 119 65 53
302 328 229 116 87 64
282 378 189 97 83 69
350 43 162 98 28 32
270 485 280 177 6 50
351 48 163 98 18 33
298 158 181 112 94 75
331 459 340 179 7 56
338 51 169 115 98 81
342 52 169 104 87 71
342 52 174 102 85 69
461 730 211 76 59 46
468 703 244 87 68 48
291 364 191 94 83 71
287 763 149 145 102 66
348 50 167 79 61 48
337 418 158 69 33 36
342 52 179 100 85 69
341 49 184 104 89 73
397 488 279 129 6 38
357 400 252 66 20 25
392 628 304 203 145 119
310 461 111 50 35 33
224 600 206 123 92 58
404 430 172 148 10 35
344 58 190 89 29 35
265 147 299 110 92 72
374 671 266 98 4 24
267 367 186 91 80 70
352 661 129 89 56 38
346 54 184 95 79 59
378 505 376 208 133 119
345 54 188 85 42 32
349 57 180 81 56 43
462 768 224 71 54 45
350 60 182 98 34 39
348 63 185 97 48 45
263 583 257 148 16 48
303 446 359 133 30 46
311 59 299 107 37 47
354 706 132 81 60 49
353 63 179 104 33 39
407 648 254 89 73 58
351 63 183 109 35 43
345 58 188 87 27 34
352 573 298 103 22 41
334 408 157 111 13 28
346 63 188 103 61 54
354 57 164 96 25 34
242 628 230 171 121 100
289 333 246 118 89 65
362 412 279 70 9 24
355 60 164 95 27 38
355 60 169 92 32 34
296 713 152 119 17 27
355 60 161 93 27 36
366 577 181 42 37 42
356 63 169 96 33 37
355 60 172 87 34 30
402 840 227 31 29 28
354 61 175 82 26 25
313 451 354 35 26 30
315 64 294 115 83 65
222 638 209 163 110 76
332 502 317 57 26 30
265 239 332 124 98 68
208 528 214 60 27 34
321 15 204 105 63 57
328 463 148 101 12 30
325 15 214 105 29 44
303 363 209 79 68 58
325 15 219 110 28 45
285 380 308 108 88 64
325 15 224 108 31 44
278 673 175 44 36 38
334 498 144 118 0 32
234 581 188 93 28 40
321 19 195 107 91 76
392 734 142 80 62 51
322 23 194 112 97 81
324 22 198 103 87 72
291 403 323 120 95 66
324 16 208 106 47 48
325 20 201 97 75 60
327 23 204 89 44 35
317 468 330 159 11 51
416 533 229 175 17 48
323 27 193 115 100 85
325 25 196 107 93 79
347 389 219 79 50 37
280 223 313 129 100 68
327 28 194 107 92 75
258 283 340 128 98 63
342 483 325 58 21 30
328 28 199 92 65 48
344 468 368 44 24 30
283 393 325 118 94 66
337 395 243 79 38 34
313 941 268 68 62 60
312 783 148 79 62 53
329 28 209 81 39 39
329 31 202 76 22 24
330 33 199 75 29 30
331 33 209 54 35 30
366 890 302 48 45 45
330 402 172 108 23 22
276 218 188 112 93 74
315 640 266 102 36 45
277 384 259 69 54 39
327 18 214 109 25 46
327 18 219 101 33 43
375 634 270 126 66 62
327 18 224 115 26 45
326 33 223 120 31 50
329 32 216 106 24 35
379 471 301 138 11 43
457 703 200 73 55 43
283 41 304 108 43 48
322 13 229 110 39 47
325 14 227 106 39 46
325 23 227 109 23 40
312 583 285 114 25 44
405 526 196 42 30 30
321 23 233 120 27 47
324 29 226 100 31 40
279 705 247 153 15 46
291 293 242 115 91 62
320 27 232 110 29 43
371 748 145 52 44 42
332 38 194 84 51 41
332 38 199 77 26 31
334 41 199 88 32 35
336 44 199 82 48 44
335 44 204 109 30 42
333 43 209 98 65 57
452 859 294 66 56 48
385 501 327 61 31 33
335 48 207 100 37 40
327 43 220 109 74 63
382 593 314 192 137 110
373 458 167 45 35 39
261 513 135 140 3 41
468 818 280 95 74 58
428 850 296 65 57 53
325 42 222 116 78 64
260 394 342 125 96 61
332 43 214 109 52 53
330 48 218 113 35 44
292 498 120 172 2 36
336 53 204 104 29 38
337 58 204 110 25 40
286 658 240 172 11 54
335 58 207 102 51 48
391 668 286 180 131 109
323 54 221 113 64 57
400 817 112 103 84 66
286 384 269 71 57 43
208 533 245 71 12 29
294 138 271 93 33 37
327 53 219 111 26 43
417 449 177 81 28 32
322 58 219 125 94 75
334 53 210 108 58 57
325 166 195 127 101 72
166 520 232 214 142 119
399 393 236 52 25 28
408 648 290 178 120 93
330 52 217 120 16 43
475 739 247 83 64 48
331 58 214 108 52 52
260 173 304 108 89 70
332 63 214 111 23 43
329 56 216 113 10 42
398 653 214 106 26 36
422 743 279 180 130 98
348 586 292 93 35 47
345 107 174 126 20 45
330 59 217 109 3 36
271 633 178 65 29 35
322 937 279 57 53 53
273 177 316 113 92 69
355 631 272 184 17 59
338 48 194 83 37 35
338 48 199 80 27 33
342 58 194 101 33 38
287 259 237 117 92 63
339 63 200 110 51 54
338 63 204 106 32 42
373 418 319 106 12 36
282 493 304 176 15 56
321 37 227 110 34 41
472 708 224 134 96 58
297 98 269 82 35 30
407 388 169 203 15 9
283 533 273 62 25 31
270 222 226 107 87 66
324 68 160 128 37 39
377 928 219 86 77 75
307 137 261 105 12 33
324 73 160 130 39 45
348 543 302 140 9 44
403 453 177 58 30 33
326 73 158 138 26 42
303 146 266 104 16 32
328 69 156 136 29 36
436 685 224 77 47 42
324 78 160 105 52 43
259 356 311 95 77 55
258 383 341 130 100 65
285 380 275 92 74 58
328 77 156 144 16 39
332 418 294 77 66 57
267 128 284 94 35 34
402 793 173 72 57 54
286 418 91 152 3 29
329 81 156 142 12 39
337 83 154 151 15 40
262 533 129 182 10 44
334 86 156 147 11 39
338 945 217 90 86 90
260 374 337 120 94 64
322 869 204 87 72 59
329 80 211 107 27 37
336 89 157 146 15 40
400 573 219 107 24 40
337 93 158 145 19 40
347 835 125 114 89 78
476 782 259 79 62 49
338 69 151 129 32 33
197 518 244 38 26 26
272 395 129 92 76 63
446 823 229 75 63 57
342 68 151 118 33 28
312 148 210 116 89 64
340 66 152 100 37 22
422 838 224 36 32 29
342 75 152 141 17 37
354 890 302 43 40 39
342 78 152 145 17 38
305 207 176 134 102 63
346 69 151 116 29 26
337 683 150 60 47 39
257 813 184 230 158 128
348 67 152 115 39 35
335 681 152 54 45 42
293 138 194 109 91 74
367 777 247 56 48 47
348 74 152 130 21 33
437 788 184 72 56 48
301 338 214 108 88 66
352 78 154 121 31 38
290 187 295 127 98 68
339 91 156 141 13 35
384 702 131 70 53 42
346 91 156 149 26 46
268 273 330 132 99 69
322 112 274 96 80 62
307 542 141 169 2 34
347 93 159 131 45 50
349 90 157 156 21 50
336 73 208 113 21 41
350 92 160 144 23 47
322 68 164 122 52 51
464 763 229 73 56 49
352 508 160 123 21 34
322 73 164 121 48 50
249 729 171 122 93 59
371 399 294 101 20 35
320 72 167 120 46 48
284 194 186 112 94 74
312 394 114 65 37 39
321 78 164 97 48 43
386 454 339 121 12 36
324 82 161 132 25 41
307 83 303 119 25 46
259 360 291 86 73 61
325 85 162 131 43 43
328 92 161 134 23 37
364 433 329 73 18 28
344 68 190 118 38 50
395 475 257 35 29 20
264 170 312 105 87 69
343 73 189 115 69 65
351 68 183 111 27 42
392 753 154 61 50 44
342 794 226 182 128 108
324 433 152 54 31 27
351 73 183 116 24 44
475 741 236 86 63 50
298 150 212 108 86 61
348 68 185 105 55 52
251 553 162 156 0 39
397 381 194 89 25 27
220 558 242 150 13 47
345 68 188 113 59 59
347 73 184 103 45 49
332 548 295 135 19 46
282 503 279 178 9 54
389 718 135 71 54 45
310 233 185 143 107 72
264 297 196 99 81 62
459 718 211 76 58 43
261 192 321 106 88 69
286 779 216 46 39 38
347 78 183 102 55 54
317 392 174 101 65 52
279 364 255 122 89 72
353 73 179 128 24 50
349 78 181 108 22 40
350 76 182 113 22 45
278 476 322 185 19 60
298 143 185 114 93 71
470 728 200 76 57 47
395 483 284 129 4 40
410 553 244 165 11 46
352 83 174 134 4 48
350 88 174 132 9 47
352 88 164 139 15 46
343 93 184 114 40 47
323 878 159 84 75 72
307 793 151 76 61 55
313 503 128 164 1 35
360 592 181 98 31 44
277 83 298 105 78 60
372 828 235 136 108 85
389 806 167 60 51 48
342 93 189 116 57 54
287 273 189 104 82 55
270 790 211 194 146 116
348 84 180 116 26 44
350 86 177 135 10 49
277 384 175 95 80 65
344 93 181 112 44 47
330 109 262 108 55 51
320 419 127 56 32 30
407 823 221 27 25 24
337 98 160 144 17 38
220 630 236 181 131 107
346 97 160 106 88 79
327 98 164 121 39 44
402 388 169 197 14 8
315 395 152 83 34 42
468 715 215 138 96 55
325 103 167 138 33 47
322 98 170 119 52 43
393 560 286 55 29 29
320 97 172 107 49 40
381 428 249 131 4 39
322 103 170 142 30 44
273 488 284 180 7 55
315 64 297 109 49 48
387 383 224 51 34 30
321 105 173 132 80 64
327 108 169 133 80 62
328 107 165 142 30 44
329 96 161 144 28 44
260 281 301 98 73 44
332 98 160 143 20 39
407 393 234 44 30 29
374 670 131 90 64 42
361 849 253 120 93 73
330 99 162 141 19 38
333 103 161 140 17 37
438 768 173 66 52 46
327 877 290 138 114 91
330 110 168 132 86 63
333 111 165 143 82 69
337 107 161 138 23 36
337 110 162 148 28 46
337 111 169 133 90 71
329 112 170 128 90 61
335 112 178 131 98 73
334 114 179 132 100 72
375 906 201 63 57 58
322 400 263 73 56 47
333 113 184 129 97 69
262 728 167 110 87 60
322 687 152 76 37 35
202 543 225 92 64 47
267 414 82 127 10 35
335 111 182 132 97 73
332 113 189 124 94 66
287 408 89 61 35 39
334 109 185 134 95 72
284 153 276 98 29 33
341 73 194 116 28 45
412 748 158 63 49 45
322 118 175 115 91 63
317 829 179 73 65 62
402 478 239 97 11 33
322 128 175 129 100 66
333 114 173 147 107 76
368 924 280 61 57 57
223 563 189 162 13 47
273 494 112 161 8 37
331 118 174 151 111 77
336 112 174 130 90 71
317 449 369 74 27 31
284 585 152 174 2 38
330 122 175 151 106 75
397 498 314 123 13 41
331 118 189 121 94 66
376 448 324 75 25 30
411 882 249 73 62 57
340 442 308 62 53 43
329 129 177 148 105 72
433 683 234 98 28 38
386 438 244 132 7 39
330 128 179 148 109 76
393 889 209 78 68 67
422 678 199 74 45 43
262 583 163 101 22 39
314 937 216 74 69 71
330 123 189 124 97 67
330 127 188 123 96 65
329 124 191 124 99 71
344 104 162 136 126 119
302 123 299 103 60 52
327 863 179 36 33 33
343 109 163 127 97 91
301 195 222 116 91 62
393 598 254 169 18 51
322 410 283 80 67 55
277 293 194 98 80 58
341 111 165 162 95 99
262 233 332 123 98 68
341 111 169 138 57 60
390 482 333 145 13 48
301 83 271 62 44 28
312 238 214 136 104 75
376 800 236 139 102 81
352 458 159 43 39 45
282 123 275 100 75 59
270 88 289 100 17 37
302 718 150 118 17 29
370 454 166 43 31 40
344 110 169 146 27 51
338 110 175 118 81 66
322 454 344 72 24 34
348 98 164 130 47 55
348 722 273 200 19 64
348 848 144 71 56 49
348 98 169 132 15 47
347 103 169 133 21 47
403 428 236 128 14 44
346 103 174 125 15 46
277 446 96 122 36 48
369 646 182 45 39 39
382 499 384 206 140 126
255 570 256 57 28 30
331 733 134 58 45 37
345 107 165 116 50 48
311 423 101 160 0 34
284 470 107 173 0 32
344 98 181 104 68 55
422 806 248 99 68 52
360 865 106 156 117 72
345 103 179 114 32 45
274 690 237 100 26 46
354 66 157 106 50 45
321 773 231 62 51 46
288 118 271 101 50 41
355 73 156 112 38 39
267 493 110 126 16 36
284 313 197 83 72 61
356 73 159 120 21 37
399 651 234 62 27 31
277 284 192 105 81 55
355 77 156 106 21 31
349 859 157 60 52 52
330 460 151 94 14 34
252 753 209 187 137 110
302 402 254 66 55 45
266 589 162 109 25 36
288 594 157 140 14 36
355 78 159 132 21 42
354 79 158 130 30 43
338 476 332 164 14 53
358 68 169 122 32 46
357 73 164 131 21 44
354 79 170 132 6 47
410 851 191 66 56 55
372 403 299 119 17 37
353 78 174 130 11 48
355 81 161 143 16 40
354 83 164 140 16 49
412 418 169 145 11 37
335 77 208 113 29 40
335 478 151 86 18 33
393 483 177 68 29 32
322 73 215 122 15 43
207 593 240 181 128 104
267 268 303 112 84 54
322 78 214 116 32 46
331 68 213 117 96 76
412 418 233 114 17 39
331 73 212 117 97 78
336 68 208 110 32 43
352 673 145 74 53 46
332 83 209 117 20 42
336 83 204 118 29 45
308 402 269 81 68 55
334 84 206 109 39 47
405 534 258 148 13 42
334 88 206 110 87 68
208 533 190 41 35 39
399 513 289 95 24 39
269 98 289 116 95 73
273 57 299 132 28 51
334 93 206 118 96 73
299 592 277 44 30 32
289 893 245 165 128 104
322 88 211 116 90 66
455 767 205 58 46 39
328 84 211 113 76 60
325 118 287 116 31 46
326 82 212 122 92 72
347 433 319 49 31 29
327 88 210 112 48 48
308 913 189 89 79 74
422 869 254 83 66 59
327 93 210 119 20 44
302 518 130 55 30 38
266 173 293 99 83 65
244 645 196 116 87 55
339 68 200 117 99 83
339 73 200 115 94 78
259 264 233 108 86 61
340 68 198 106 88 73
321 950 249 69 63 63
385 470 383 89 71 54
337 73 204 121 99 82
339 83 200 119 30 48
258 288 340 130 98 65
341 83 194 114 46 49
292 123 269 100 41 41
313 442 321 107 85 62
266 138 299 110 91 72
334 954 231 90 84 87
401 533 289 167 19 53
340 83 197 123 17 41
435 757 277 179 124 91
298 782 218 59 51 47
397 383 174 98 33 26
347 396 244 70 34 29
338 93 199 113 23 40
340 93 194 120 78 66
295 167 182 114 94 73
263 258 233 108 87 63
340 93 197 110 62 54
336 90 254 77 67 56
242 658 227 179 133 110
335 92 253 77 68 58
292 390 154 85 67 57
282 153 309 120 96 71
325 101 207 132 96 79
304 278 219 116 92 63
413 681 222 97 43 39
327 103 204 136 99 80
322 113 204 128 98 74
326 108 203 135 101 79
328 108 200 131 100 77
325 112 202 130 100 78
398 588 239 70 30 36
283 446 347 180 18 56
336 102 198 128 58 61
282 390 156 94 79 64
400 428 237 60 21 27
329 100 206 132 88 80
331 97 208 118 18 42
388 638 204 41 33 35
465 710 221 164 113 64
332 108 194 129 93 70
331 107 198 134 100 77
370 401 286 37 32 26
334 105 195 137 95 73
364 433 314 102 25 38
335 106 192 131 92 70
412 398 162 156 11 32
329 105 201 136 101 79
303 278 224 122 96 68
396 598 308 167 117 86
416 380 209 111 13 33
266 423 342 149 111 90
322 118 203 126 98 73
412 783 269 178 132 109
262 283 199 112 88 62
326 123 198 126 99 72
328 128 194 125 99 72
356 682 126 76 53 40
439 819 247 43 37 31
323 128 200 123 97 69
406 764 271 183 138 108
445 719 263 156 107 73
329 114 196 128 97 70
366 698 139 62 43 39
330 122 192 123 98 71
339 100 196 112 34 42
340 98 194 115 75 59
342 583 173 83 33 37
384 671 140 59 45 30
340 102 193 115 15 40
292 49 289 125 42 35
294 931 234 83 78 81
399 508 280 155 19 50
292 734 246 144 21 50
449 774 192 68 53 46
421 408 204 131 16 41
331 102 256 88 61 51
288 168 190 113 93 72
369 445 352 77 0 20
284 183 190 110 91 72
455 782 211 64 51 47
288 183 184 110 92 73
384 866 266 31 29 28
181 522 262 194 141 122
286 183 188 111 92 73
285 187 187 111 93 75
362 737 273 99 42 51
296 138 189 106 89 71
324 168 189 138 107 72
293 143 190 108 90 73
384 712 125 73 54 41
398 667 174 77 54 37
296 143 188 110 91 72
300 131 187 109 91 72
272 193 321 118 95 69
347 463 158 42 38 41
303 143 180 119 98 75
397 738 149 58 47 40
367 768 149 50 43 42
293 148 189 109 91 72
372 633 268 82 26 35
295 147 187 112 93 72
265 127 294 98 38 41
297 148 184 115 94 71
296 153 184 115 94 72
440 694 208 88 73 64
318 883 292 124 107 98
317 390 179 94 72 56
346 636 272 154 19 50
321 178 184 139 106 71
381 443 274 33 27 31
325 871 189 41 39 40
213 569 216 116 74 49
264 400 96 116 76 63
359 764 137 66 53 45
296 158 183 112 93 73
271 198 209 107 89 71
380 876 186 56 51 51
342 517 312 57 25 32
346 529 305 142 12 46
347 893 180 75 69 70
289 159 191 108 90 72
262 233 219 112 92 70
315 446 326 97 78 58
293 158 185 113 94 72
299 149 181 117 96 73
300 146 182 117 96 72
373 442 329 35 29 28
317 138 175 127 100 67
320 164 207 118 95 69
387 448 174 131 3 29
365 518 170 70 28 31
307 133 179 120 97 73
304 133 181 118 96 71
347 478 156 78 22 33
307 143 178 119 98 74
200 520 198 40 33 39
311 138 177 122 98 71
272 403 84 139 63 51
310 143 177 121 98 71
313 133 176 123 99 71
409 722 168 77 56 53
345 474 335 132 24 50
305 158 177 118 96 70
385 896 201 67 60 60
312 158 176 127 99 65
252 670 191 109 82 51
318 159 177 134 102 64
298 174 176 124 99 69
290 168 188 113 94 73
296 172 178 120 97 70
333 573 168 92 29 35
321 408 104 138 1 35
297 168 180 118 96 71
302 168 178 123 97 67
293 387 284 84 69 53
422 805 250 104 72 54
304 170 176 126 100 67
292 128 304 94 53 43
387 553 194 47 36 40
297 188 175 126 100 68
297 193 175 130 102 68
277 358 258 120 88 71
311 213 180 134 103 65
298 178 176 125 99 68
444 748 182 49 41 38
317 843 269 156 128 120
297 183 176 125 99 67
222 603 240 172 122 97
302 178 175 128 100 67
283 183 218 105 85 64
302 183 175 130 101 67
302 805 157 68 56 54
364 802 154 63 53 53
401 443 237 131 7 40
291 178 183 111 93 73
385 658 281 180 131 110
292 183 179 116 95 71
295 178 177 121 98 71
396 478 350 83 46 37
381 506 369 199 132 108
437 843 214 95 75 66
320 110 275 98 86 73
382 642 193 65 32 30
426 385 184 139 13 41
295 182 177 121 97 69
289 189 181 115 94 72
306 253 189 129 99 70
373 563 183 55 32 38
288 193 180 116 95 71
425 463 199 149 13 43
444 809 208 68 55 50
294 189 176 124 99 68
412 803 249 83 61 48
312 388 189 91 76 61
322 612 277 180 23 57
308 168 176 129 100 66
307 173 175 131 101 65
308 163 176 125 99 67
317 168 178 136 104 65
314 173 177 136 102 62
385 619 306 192 138 112
328 467 333 164 8 49
307 188 176 134 102 64
367 523 343 188 122 97
402 468 179 154 10 34
311 228 184 143 107 70
337 683 115 87 54 41
306 193 176 134 103 65
256 717 172 111 87 57
309 193 177 135 103 67
337 523 309 124 25 46
444 830 258 46 39 35
319 150 274 140 20 52
461 678 204 71 55 43
394 774 157 75 57 51
312 193 179 134 102 65
394 478 347 68 28 30
317 178 180 139 105 67
316 183 180 138 105 67
318 183 183 135 104 67
342 724 126 86 65 54
315 188 181 134 103 67
318 188 183 130 101 67
288 153 194 109 92 74
286 153 199 107 90 72
287 158 194 110 92 74
284 159 200 109 91 73
288 154 208 105 87 67
285 208 307 128 98 68
287 268 239 117 92 64
277 108 275 104 58 42
467 718 250 84 65 48
279 174 204 109 92 75
278 486 313 141 25 47
321 193 208 128 103 75
342 385 184 124 53 33
282 168 199 112 95 78
302 123 263 95 38 32
337 387 199 80 60 44
286 163 194 111 92 73
284 168 195 112 95 76
261 508 134 137 7 42
382 438 173 98 20 32
336 838 133 77 67 62
284 164 196 112 94 77
291 138 199 106 88 70
283 163 204 108 91 73
253 578 249 180 19 56
314 417 311 120 96 69
340 399 161 117 18 23
284 164 208 106 89 71
323 138 200 121 96 69
454 795 222 82 62 55
285 161 206 106 88 70
425 473 199 150 11 43
322 133 289 137 17 53
281 173 199 113 96 78
367 623 189 42 36 38
281 396 104 99 77 60
280 172 204 110 93 76
281 173 209 108 90 72
332 853 285 156 119 95
492 870 268 89 70 59
285 167 211 104 86 66
408 638 263 109 87 61
287 168 214 104 84 62
373 746 267 80 66 59
283 173 213 104 86 66
292 158 213 106 84 60
384 628 203 91 25 30
357 405 263 67 12 26
279 184 196 111 92 72
276 183 209 106 89 72
278 193 194 108 90 70
275 188 203 109 91 72
274 189 208 107 90 72
275 187 210 107 90 72
258 496 111 172 6 36
275 192 202 108 91 72
323 547 292 42 28 31
282 118 274 115 93 72
365 389 167 57 39 37
304 521 287 177 24 62
284 80 302 101 14 37
273 193 209 107 89 71
275 436 91 102 32 43
282 183 194 111 92 72
363 732 277 184 20 61
285 177 192 112 92 72
293 338 240 122 93 70
442 723 184 53 44 39
280 192 192 108 90 70
302 228 178 138 103 66
256 544 157 114 14 35
393 473 349 68 27 25
278 183 213 107 89 70
319 411 285 88 74 60
307 528 135 164 7 38
287 188 221 108 86 62
274 194 213 107 89 71
278 189 217 104 86 68
288 480 112 153 32 54
287 54 270 148 22 20
278 193 218 105 86 66
366 687 141 72 43 35
297 378 193 100 86 72
337 438 155 49 36 39
262 208 288 96 80 63
370 874 111 127 98 67
285 177 216 105 85 62
287 178 218 107 85 61
287 183 220 107 86 62
294 134 195 107 90 72
312 698 259 101 27 44
344 473 361 94 35 46
282 483 319 88 29 40
338 425 307 66 55 45
294 130 198 105 87 69
418 796 262 134 93 72
397 443 174 140 5 30
267 323 196 91 78 65
291 143 194 109 92 74
289 144 199 106 89 70
339 798 136 77 59 50
419 428 214 117 16 39
293 757 146 141 100 64
295 136 192 105 88 71
295 137 206 105 85 65
345 505 321 78 23 35
293 144 207 103 84 63
290 148 193 109 91 73
403 498 244 124 13 40
272 729 170 91 70 48
374 818 152 54 51 53
290 152 192 108 91 73
388 688 139 53 44 37
323 443 144 91 10 34
289 145 202 106 88 70
219 608 206 137 101 63
202 518 240 44 23 26
290 147 205 105 87 68
391 493 359 176 117 96
292 153 210 103 83 62
293 155 212 105 83 59
297 158 214 109 87 61
252 713 175 117 90 58
312 668 159 49 36 38
302 148 211 109 86 61
302 153 212 110 87 62
302 158 213 111 88 62
316 133 207 120 93 67
318 133 205 119 95 69
312 488 323 45 27 31
316 143 208 119 94 67
268 278 329 135 100 72
431 837 251 38 36 36
282 128 274 103 34 29
318 138 205 117 93 67
283 88 302 101 13 37
381 669 155 71 47 39
457 669 207 68 54 41
417 385 169 87 31 29
254 798 202 189 136 108
318 142 205 116 92 66
283 502 284 182 9 56
347 793 228 179 127 108
307 133 210 114 88 62
430 815 234 51 46 43
392 839 173 70 61 59
288 357 250 122 94 75
312 133 209 120 91 66
307 143 211 115 89 63
312 143 209 117 90 65
465 715 201 98 73 49
316 153 208 115 91 64
307 148 211 114 88 63
312 153 210 116 90 64
289 52 312 104 24 41
273 663 224 33 26 28
327 925 296 83 76 74
294 880 268 79 59 45
269 313 256 110 75 56
368 812 148 54 50 50
307 158 213 113 89 62
391 593 264 57 26 33
310 154 212 117 91 62
313 158 211 115 91 64
311 158 212 116 91 63
289 160 212 103 84 62
292 163 214 106 84 60
293 903 229 58 54 56
346 477 354 36 27 32
226 573 208 140 6 39
260 663 222 166 113 100
342 938 210 92 88 92
323 178 199 128 102 73
297 163 215 109 87 61
287 113 271 98 73 56
290 171 216 106 85 61
354 779 142 76 57 48
302 473 113 167 3 33
264 759 156 134 99 62
399 417 236 39 25 24
297 169 217 110 87 62
283 203 293 109 82 52
320 208 194 131 102 70
262 753 158 128 96 60
297 173 218 110 86 61
302 163 214 112 88 61
374 421 261 132 9 37
428 698 189 60 47 41
300 170 217 113 89 62
303 172 216 113 89 62
222 634 236 183 133 109
300 451 106 101 49 56
312 628 270 71 31 37
292 178 219 109 86 61
394 647 208 96 28 32
292 188 221 111 88 62
292 190 222 112 89 63
297 194 222 115 91 62
327 951 234 90 85 87
268 367 319 105 85 61
312 163 213 114 90 62
337 444 339 65 51 42
383 403 240 116 16 39
312 168 213 114 90 62
379 864 182 66 60 61
327 443 119 112 9 34
382 676 152 58 45 38
307 173 216 114 90 62
278 252 236 114 91 65
287 403 88 94 32 37
312 173 214 116 91 64
306 174 217 115 90 62
315 173 212 117 92 65
318 173 210 120 95 68
293 447 367 89 20 36
314 202 216 124 99 71
312 178 215 116 92 63
376 434 279 59 30 30
307 178 217 115 91 62
240 539 167 162 5 40
256 613 178 64 30 34
307 183 218 115 91 63
309 177 216 115 91 63
337 423 304 70 59 49
409 380 205 107 15 30
421 686 209 60 39 34
312 413 99 158 0 35
309 85 301 121 23 48
