ply
format ascii 1.0
comment Created by Open3D
element vertex 2228
property double x
property double y
property double z
property uchar red
property uchar green
property uchar blue
end_header
329 770 304 92 71 60
266 922 225 68 62 62
254 35 293 107 90 75
289 94 299 109 32 44
332 124 242 96 78 58
224 430 222 122 12 33
348 274 292 102 85 67
367 514 113 161 3 40
406 673 215 168 112 86
255 42 315 121 24 44
304 944 235 80 76 79
271 739 225 65 31 34
305 497 149 133 0 29
229 75 268 110 35 34
316 345 244 125 96 73
319 259 232 133 105 73
273 189 302 123 97 70
391 455 200 40 26 33
265 842 278 78 62 57
393 608 201 109 86 58
202 499 212 106 28 40
232 82 277 88 71 52
416 812 202 163 112 81
283 49 307 114 38 47
253 34 297 103 85 71
253 33 302 105 80 68
297 837 287 45 33 33
320 84 222 101 41 42
406 828 163 105 76 59
254 464 316 55 26 31
250 36 298 106 89 74
231 509 299 112 28 43
236 493 304 76 21 31
416 793 211 163 117 84
329 134 232 108 86 62
395 427 250 73 51 40
368 404 211 105 91 78
233 479 197 111 15 25
316 64 237 105 20 33
198 464 189 132 2 31
206 477 224 43 29 27
386 430 182 67 18 25
333 644 189 102 29 37
252 44 291 101 87 74
250 446 194 91 37 21
355 298 285 100 82 63
313 504 322 105 17 37
327 204 216 117 94 68
247 764 272 63 42 43
313 639 312 134 35 48
392 464 207 32 26 27
250 40 294 100 85 70
423 429 182 70 31 33
394 569 242 162 118 87
410 500 160 184 16 43
306 382 226 112 92 70
250 48 310 58 35 29
247 39 307 105 54 52
319 299 251 121 96 72
313 244 270 101 77 47
246 493 314 67 22 26
399 814 102 89 66 53
255 77 305 115 54 46
240 495 310 41 30 31
274 534 330 63 26 32
243 88 260 112 32 27
398 504 147 162 16 42
388 439 263 141 21 49
246 54 302 105 34 42
328 274 271 91 74 55
249 35 307 106 72 61
352 114 222 112 91 68
240 112 285 143 12 51
327 80 254 95 20 36
407 518 168 184 17 47
395 531 160 51 26 29
347 64 251 127 29 51
300 287 307 147 102 81
360 223 210 117 94 67
262 709 339 150 106 84
254 39 315 122 23 46
338 218 254 95 77 56
338 568 159 175 2 38
341 380 199 98 86 73
214 464 212 81 19 30
381 557 260 174 120 93
296 620 340 157 115 85
348 764 162 52 44 40
265 77 270 111 31 28
377 428 183 73 36 35
245 60 293 109 94 78
358 614 177 119 28 40
446 780 102 75 62 49
343 15 243 103 87 72
249 44 311 111 27 44
392 650 224 108 55 45
385 575 176 178 19 48
258 49 283 83 57 44
284 379 287 108 87 64
343 408 186 102 86 71
238 84 292 102 27 39
354 784 273 84 62 53
338 639 189 91 30 38
390 571 180 136 16 47
350 67 217 113 20 42
323 789 183 77 61 51
402 599 232 162 116 81
253 49 311 87 59 54
278 904 328 101 89 82
282 837 321 171 113 86
327 537 149 107 20 26
274 724 223 145 0 37
333 159 243 91 75 58
248 54 292 105 89 74
359 339 216 98 86 73
376 473 267 105 61 58
322 358 210 94 83 73
374 319 312 132 96 68
342 79 189 145 22 38
362 519 291 175 117 94
246 54 297 113 97 80
365 635 274 45 28 31
246 58 292 108 93 79
245 59 297 105 80 63
316 46 259 99 81 61
325 107 220 128 73 64
244 64 292 109 94 79
398 554 217 86 29 40
296 382 246 75 64 53
260 607 204 207 26 66
246 62 290 107 92 77
346 614 290 101 29 40
226 428 233 125 4 38
320 219 237 122 97 70
304 853 229 116 86 67
308 744 323 159 17 51
329 149 218 119 94 64
274 624 311 114 53 54
310 479 144 113 28 37
254 719 272 115 22 41
244 64 297 100 54 48
424 755 143 84 65 45
348 64 247 113 52 55
244 88 295 116 85 75
215 445 211 67 30 29
369 329 292 102 81 56
374 394 221 115 97 79
198 439 188 121 31 34
230 94 264 121 21 36
219 476 241 43 26 30
355 352 210 95 84 74
430 431 220 73 17 23
273 579 178 116 20 40
245 56 300 98 41 35
352 69 237 103 57 51
328 630 185 53 35 37
273 115 304 112 47 51
248 113 264 140 13 35
382 427 289 105 16 33
396 431 243 50 25 29
277 398 297 110 89 65
283 9 302 67 58 58
364 383 216 108 94 79
238 99 292 124 24 46
338 704 182 110 18 26
357 219 208 121 96 67
399 742 162 50 42 35
334 439 117 105 29 39
245 59 300 105 21 38
221 535 231 172 0 45
331 902 174 95 82 72
211 464 198 136 0 30
343 54 202 110 85 54
366 482 264 63 20 37
249 749 272 146 8 44
360 375 269 135 88 69
246 484 190 39 38 40
260 568 179 161 14 45
337 443 76 105 63 53
336 240 294 104 86 66
288 164 277 118 92 60
358 264 211 110 87 59
233 424 232 99 18 32
255 539 320 171 15 53
380 447 192 56 27 27
367 442 289 43 21 24
281 518 160 116 21 37
415 525 197 142 32 51
229 84 277 93 43 37
259 764 247 122 28 46
253 414 252 62 50 44
331 691 315 84 18 32
356 410 194 103 89 74
373 430 103 122 53 49
279 434 320 100 21 36
398 699 175 100 81 60
249 94 260 131 16 26
323 714 324 125 25 46
436 473 202 101 38 45
403 890 301 83 63 64
292 499 155 131 5 30
220 507 275 158 4 47
360 219 210 117 95 69
390 440 230 113 12 36
245 64 300 111 26 43
244 69 287 105 92 79
302 754 319 103 18 32
222 499 201 99 15 26
194 489 202 90 33 41
319 479 138 83 33 38
301 709 195 126 13 37
338 454 316 46 26 28
265 817 340 184 129 104
209 494 246 87 19 37
343 559 152 97 17 36
311 845 220 121 87 69
224 449 236 139 0 42
308 594 172 44 36 40
343 804 153 55 47 45
223 434 232 129 0 38
247 64 303 90 40 43
289 204 274 127 99 64
221 538 214 140 0 43
245 92 260 131 19 25
247 809 297 180 126 96
343 239 205 120 92 57
412 529 207 89 24 39
224 499 198 111 14 28
373 794 256 72 55 47
318 779 187 71 57 50
239 579 232 197 5 52
213 469 207 117 3 28
338 399 191 100 86 72
218 444 222 89 18 34
298 254 277 112 87 59
283 434 162 68 39 36
314 44 257 104 81 61
350 385 319 154 108 86
384 459 258 55 23 27
236 472 294 78 21 28
359 294 268 109 80 54
250 50 289 95 81 67
261 428 314 106 23 39
427 750 137 91 71 51
230 85 281 98 48 39
333 784 172 58 49 45
258 135 277 141 89 68
248 469 312 134 3 40
345 84 249 123 101 78
323 29 237 68 42 30
353 469 303 101 19 36
252 955 281 73 69 72
252 75 304 119 78 71
438 439 225 132 14 42
249 54 307 112 27 42
328 425 142 161 49 44
249 59 306 116 24 43
392 669 213 69 37 32
365 753 149 69 53 44
342 484 126 113 23 38
191 481 200 86 26 38
248 504 317 53 28 32
339 548 278 42 29 30
425 495 186 51 29 33
294 799 218 84 66 57
216 453 203 127 10 33
333 404 187 99 85 70
239 445 257 115 2 32
291 32 311 147 25 57
324 884 298 135 107 80
295 881 198 45 42 45
358 329 216 97 84 71
193 454 201 113 5 35
319 239 232 127 101 70
190 449 197 122 4 38
260 617 224 125 16 34
268 99 271 110 56 41
250 104 295 122 27 47
381 588 178 89 28 39
251 50 309 66 37 31
338 595 165 73 25 35
369 515 115 167 1 35
304 914 192 85 75 72
237 438 217 61 38 34
260 643 281 182 3 53
386 558 255 175 120 95
214 498 206 56 35 40
252 54 309 97 38 42
303 558 159 62 34 39
282 600 185 184 6 45
258 880 322 128 101 78
263 104 304 110 21 40
243 424 222 75 35 36
323 499 320 148 24 51
235 112 268 155 9 53
397 534 231 175 15 55
254 54 311 106 70 62
317 224 274 109 87 61
278 888 242 92 68 45
338 425 132 166 44 42
245 69 300 123 24 47
262 709 311 122 91 66
374 419 207 107 92 76
322 904 310 120 94 73
248 494 187 67 36 38
191 449 199 124 8 39
252 59 308 125 31 49
253 414 247 53 40 35
278 549 166 130 13 36
402 554 202 45 29 33
323 229 277 95 79 62
316 917 194 78 70 68
321 713 185 123 15 29
328 44 266 125 95 70
386 833 132 113 83 61
412 828 212 184 129 103
268 554 173 83 31 38
237 504 190 84 25 35
258 524 323 56 25 32
313 724 188 132 10 34
328 294 221 106 85 61
230 99 264 124 28 41
255 434 310 129 0 38
234 449 247 121 2 36
311 180 297 107 89 68
386 686 242 134 11 42
350 104 216 126 39 47
293 249 318 130 101 75
253 64 307 117 35 48
323 15 243 104 74 57
278 539 330 52 28 31
369 289 242 123 95 62
338 234 258 99 80 58
342 739 312 43 26 32
261 654 257 173 0 50
250 63 305 98 41 45
317 354 247 119 94 71
328 109 237 112 86 62
385 457 199 46 26 28
222 439 212 83 27 35
330 93 194 150 18 45
318 942 229 85 78 79
352 20 247 105 54 49
383 859 177 91 74 68
288 415 207 96 82 68
374 589 166 180 19 44
248 89 297 115 53 58
229 76 270 104 40 37
416 457 224 37 20 26
375 857 149 90 73 65
190 444 193 59 31 36
321 334 262 79 59 40
277 18 324 66 53 43
251 464 185 77 35 38
375 334 302 136 94 70
228 79 267 119 26 35
333 425 117 126 45 39
406 733 151 65 54 45
362 189 247 121 98 73
266 606 200 86 22 34
375 493 276 79 45 34
376 494 277 123 88 68
362 868 178 81 66 60
238 424 247 121 8 39
276 402 250 85 73 63
247 99 294 110 72 65
274 399 292 110 88 64
278 49 278 114 34 32
216 459 212 70 32 33
323 409 328 140 106 74
281 780 225 82 64 57
228 79 272 97 36 36
267 961 314 63 58 56
225 476 252 70 20 29
324 401 189 98 85 73
318 960 307 70 60 57
384 689 257 65 24 32
228 444 225 65 28 35
363 729 283 95 23 40
345 499 118 116 8 32
341 167 249 92 74 55
316 49 258 92 45 40
312 601 175 147 21 45
375 324 309 143 99 76
212 469 202 127 1 29
307 794 311 61 49 45
330 553 293 82 21 32
361 195 250 121 98 72
343 124 212 118 94 65
354 124 227 118 96 73
376 324 307 139 96 73
232 75 268 104 47 35
232 474 287 77 26 33
320 339 255 124 93 72
358 590 161 195 12 41
292 484 156 136 3 31
278 604 188 185 7 44
267 649 333 131 98 71
191 476 195 145 5 34
393 674 213 80 51 42
383 426 118 159 38 34
232 76 270 100 51 40
412 829 207 187 131 104
387 424 232 102 82 60
309 304 287 112 85 61
229 569 211 72 27 34
247 418 252 63 27 31
267 22 317 95 73 53
324 779 303 91 70 60
410 740 180 135 96 65
272 18 317 54 50 48
361 427 305 64 25 32
390 890 303 77 62 54
353 244 258 107 84 55
298 394 316 122 97 71
233 79 272 91 66 49
251 824 292 189 135 105
342 944 248 79 70 71
329 854 158 71 62 60
285 391 264 86 75 63
270 963 253 84 81 83
245 445 199 94 29 22
225 480 271 82 17 33
361 420 297 75 32 32
229 569 267 65 30 36
366 420 285 37 26 28
394 444 242 133 7 41
314 936 334 52 46 43
218 479 212 89 15 26
326 912 196 76 70 68
281 209 280 132 102 67
310 27 265 108 47 40
279 164 306 118 95 70
403 435 162 71 24 31
211 509 248 114 17 38
238 80 267 90 64 46
345 683 299 121 20 43
334 134 213 126 97 63
288 464 331 87 27 37
363 234 253 124 99 70
265 684 239 110 25 41
238 79 272 92 71 54
221 487 205 77 27 25
300 192 275 118 92 58
349 74 242 122 29 47
348 39 227 93 68 46
393 796 127 68 49 43
310 686 194 61 33 30
269 134 301 124 100 74
343 220 255 99 79 57
248 123 268 117 73 71
253 415 257 74 54 47
348 425 137 121 73 59
240 76 282 99 88 75
209 519 210 156 11 48
275 439 169 42 39 41
372 436 99 160 5 20
237 79 287 101 87 72
382 419 217 89 74 60
343 149 248 97 78 58
368 859 177 83 68 61
324 20 239 96 81 65
263 119 301 125 36 51
285 674 214 66 33 36
401 711 244 82 30 36
286 129 279 125 93 58
199 499 197 115 29 44
326 579 322 171 118 93
344 104 201 138 31 44
268 39 319 126 79 70
241 427 220 80 32 27
318 454 138 78 35 38
330 112 203 161 26 51
240 75 287 104 92 78
381 508 124 154 9 34
233 84 263 109 33 25
303 399 212 105 90 77
414 455 221 44 23 26
394 831 156 110 78 59
233 89 261 112 28 28
228 84 267 126 14 39
355 445 297 125 5 40
221 504 200 101 15 27
286 804 340 175 127 95
328 714 182 110 19 31
253 454 313 137 6 42
253 954 267 80 74 75
317 763 315 88 70 60
193 438 197 115 12 38
298 374 262 80 68 56
278 79 272 115 66 50
433 425 182 74 32 38
361 299 219 95 80 64
227 84 272 108 22 37
385 446 110 132 12 36
276 837 325 189 127 102
304 173 309 111 91 69
286 219 314 119 96 70
228 89 267 123 15 38
426 762 118 93 75 60
284 40 309 133 26 53
344 569 283 59 28 32
255 915 253 52 50 52
319 244 232 128 102 72
265 426 194 77 36 24
250 928 311 178 135 115
278 10 307 59 59 61
434 454 172 137 21 45
354 308 319 127 91 62
227 89 272 112 20 39
260 837 302 186 124 94
356 131 240 115 93 67
323 854 167 65 58 58
233 81 264 100 37 27
343 615 176 122 22 43
278 114 270 112 43 35
329 54 193 109 33 22
213 489 212 89 20 27
211 472 198 124 1 30
351 58 245 107 85 68
323 864 292 145 114 87
345 114 215 105 81 54
240 455 287 55 24 30
230 84 264 119 22 39
230 89 264 119 21 31
253 79 267 95 43 26
233 94 261 122 26 35
268 599 192 181 10 46
303 977 267 67 62 63
370 459 100 125 19 34
358 354 318 148 103 77
199 493 193 108 28 38
295 859 239 132 97 72
227 94 272 119 26 43
246 417 242 55 30 30
248 569 311 160 12 50
366 585 260 130 8 40
288 504 156 134 4 30
246 488 190 45 33 40
237 454 262 110 6 34
325 484 134 63 34 37
247 444 287 109 6 32
329 234 282 101 82 62
250 818 321 191 131 105
242 442 206 95 36 19
251 779 334 167 116 88
252 68 276 111 96 80
406 823 220 154 111 88
238 84 263 92 45 17
316 55 236 104 28 35
238 88 260 103 31 25
306 176 310 109 89 67
235 94 259 124 29 35
378 514 257 57 31 29
398 779 232 128 94 72
329 219 302 108 89 69
239 454 277 110 10 32
296 623 340 156 114 83
194 489 207 56 33 36
193 469 203 54 27 29
291 84 295 110 89 65
338 24 233 100 87 71
239 90 259 113 34 27
369 334 292 107 85 59
384 499 126 156 8 37
312 794 196 83 65 57
313 39 242 98 28 33
207 504 217 159 14 49
333 544 151 116 17 39
352 119 242 117 95 70
380 474 115 71 26 32
336 482 315 34 26 30
260 837 297 152 101 78
290 228 274 130 101 66
238 94 258 128 24 29
343 179 251 97 79 59
382 421 176 77 45 42
235 445 213 48 36 34
293 964 247 87 84 87
252 489 318 69 30 34
252 85 264 117 21 25
378 509 122 151 6 37
226 504 288 107 25 39
293 384 252 70 60 50
234 81 277 90 72 54
348 29 262 126 70 66
263 59 278 63 43 33
371 654 260 71 25 36
256 631 283 136 17 44
232 84 282 102 73 57
273 714 344 160 112 87
241 463 298 60 29 33
293 224 271 130 100 64
338 954 257 71 65 70
205 444 190 157 6 33
388 429 222 81 67 52
368 847 148 122 97 81
416 700 189 148 106 73
292 74 287 105 76 57
229 89 282 103 25 39
331 793 170 55 48 46
307 794 201 82 64 57
208 437 197 107 18 33
343 929 307 58 51 49
378 743 163 69 61 53
363 599 167 89 32 42
302 654 201 41 33 41
358 474 88 61 35 35
351 75 232 106 89 72
344 474 112 153 10 41
231 88 284 101 22 39
313 644 312 136 31 47
234 424 242 125 4 40
324 439 133 82 33 39
339 184 251 91 74 55
328 109 217 131 88 69
262 754 242 110 28 43
343 474 117 110 21 39
347 274 316 116 92 65
323 600 170 87 36 42
329 820 273 142 93 78
287 234 314 127 99 72
270 967 274 84 78 79
380 670 213 36 29 28
200 485 230 41 27 28
232 89 287 104 29 40
393 840 266 76 63 53
263 649 247 164 12 49
358 541 269 146 86 69
210 460 195 136 4 31
331 119 217 118 92 62
315 644 309 135 25 45
322 249 242 128 99 74
318 484 322 68 28 35
245 759 317 163 116 87
398 848 217 85 64 53
252 429 282 45 30 32
254 579 317 107 18 38
303 769 318 117 89 66
347 480 91 178 3 43
363 369 287 122 87 63
351 33 256 128 41 52
241 115 283 145 15 51
268 949 327 53 50 50
228 94 277 110 25 42
333 649 190 111 17 29
274 194 302 127 99 72
320 214 232 122 97 69
367 494 103 129 9 38
267 913 231 58 55 57
278 189 306 118 95 70
368 850 140 115 94 82
230 91 285 103 29 39
229 94 282 109 24 40
352 89 242 110 86 66
361 474 301 158 116 112
200 493 222 98 25 41
308 935 225 90 85 88
217 478 215 85 18 25
297 134 292 109 88 63
230 94 285 114 25 43
274 9 294 76 69 66
289 545 330 95 22 37
358 439 82 111 71 58
278 964 247 84 81 84
380 664 198 77 62 50
341 69 189 121 30 28
267 739 232 89 29 40
321 417 175 99 84 67
311 364 227 112 91 69
291 23 320 128 90 68
243 524 312 149 7 45
232 94 287 120 25 46
341 902 309 38 36 36
379 464 111 159 0 37
234 81 282 100 86 70
300 541 318 42 23 26
303 249 273 112 87 58
243 74 297 110 27 45
445 450 217 144 23 50
372 354 242 113 92 67
256 894 312 161 115 100
222 478 248 40 29 30
256 815 334 180 125 98
344 769 287 88 67 58
239 79 292 95 34 37
333 699 317 89 19 35
256 479 180 69 34 39
372 494 108 158 0 39
287 79 278 106 83 57
400 597 215 122 98 72
235 81 286 102 87 68
221 550 247 87 28 37
298 615 186 97 26 38
349 49 217 94 72 50
326 244 215 130 101 66
333 144 242 93 76 58
223 464 217 67 30 28
219 524 222 168 1 48
241 601 256 191 0 51
322 204 297 106 88 68
328 649 303 148 9 46
194 440 200 115 11 36
394 484 222 40 24 22
359 179 217 116 96 73
330 961 256 81 76 78
226 448 225 76 26 36
194 464 189 139 3 28
234 474 292 54 28 31
217 444 202 113 22 34
323 589 307 53 36 35
402 604 212 122 98 70
334 103 250 105 84 62
289 724 338 174 118 92
303 169 308 109 90 68
248 744 327 162 114 88
221 509 277 146 5 42
243 80 268 86 58 38
353 324 322 135 101 67
217 498 206 81 26 32
263 34 320 120 35 49
411 740 147 68 55 44
365 224 217 115 93 70
406 457 208 41 25 25
240 429 250 47 23 31
338 174 210 128 99 62
298 364 277 94 80 65
369 588 259 79 13 28
353 209 207 122 97 66
402 624 198 110 90 67
245 779 322 183 126 97
347 904 227 84 73 71
307 474 146 44 35 39
353 883 303 36 33 33
224 475 247 63 26 32
214 469 227 49 27 30
248 74 272 119 103 87
248 79 267 92 54 35
415 511 175 191 13 54
381 807 132 60 49 48
267 744 232 117 28 45
244 75 273 118 102 86
327 372 200 98 86 73
252 719 322 153 112 83
253 73 271 86 59 42
412 432 152 104 24 36
249 76 269 102 77 60
352 638 189 96 29 34
431 815 84 98 84 70
246 437 205 94 37 27
283 109 271 119 34 31
381 520 258 130 107 84
338 94 193 147 45 52
323 833 278 145 110 82
246 77 270 106 90 70
281 776 225 81 62 56
336 555 285 45 28 31
320 219 227 124 98 68
440 461 212 87 28 36
224 554 267 144 14 45
297 438 329 110 18 39
362 189 222 120 98 74
235 440 218 61 35 34
327 348 210 96 85 75
279 784 228 81 64 54
387 559 232 66 45 34
335 107 250 103 82 59
370 239 237 119 95 67
445 784 98 79 65 49
254 114 296 133 23 50
321 917 209 76 70 68
366 214 227 113 93 71
265 460 174 103 23 27
245 455 194 88 29 29
374 899 313 78 64 56
245 775 273 63 51 48
323 739 182 126 16 33
253 75 269 84 42 28
217 454 227 126 3 40
358 433 97 95 79 63
252 428 207 84 41 22
248 69 277 119 104 89
285 238 283 137 101 68
380 639 198 109 77 59
245 71 278 111 97 83
194 459 189 150 0 34
262 684 282 94 27 41
338 694 184 48 37 37
222 449 233 141 0 43
298 784 322 150 109 73
418 793 122 65 50 37
255 416 267 73 36 36
297 403 226 90 76 62
229 445 223 68 25 39
247 769 267 64 54 50
406 812 139 85 66 52
385 422 258 59 48 37
233 423 237 112 9 35
278 104 272 115 54 42
357 424 177 103 87 72
314 599 333 164 116 88
341 418 320 160 118 91
225 470 209 81 23 24
258 809 337 181 129 101
222 454 233 135 1 40
384 674 187 100 81 61
374 458 277 83 17 33
244 69 282 98 87 76
348 374 322 151 107 79
323 84 247 83 55 45
283 114 303 121 97 72
220 504 275 145 5 41
246 67 281 105 93 81
268 654 237 166 10 45
397 499 142 149 19 44
245 499 315 105 24 38
245 66 284 99 87 76
253 574 313 109 22 42
374 770 129 60 48 41
368 424 162 99 84 70
243 74 277 108 93 76
348 19 242 109 87 71
369 474 102 147 0 35
262 739 242 95 33 44
239 459 198 87 29 34
261 719 245 157 15 45
363 219 251 123 98 71
208 444 191 160 4 36
207 464 208 58 27 31
362 174 242 118 95 69
332 899 172 92 80 71
338 69 258 112 28 46
241 77 276 99 82 66
436 467 189 38 30 34
382 871 224 66 57 55
317 64 232 108 32 40
298 859 316 159 123 90
404 455 201 41 26 27
358 629 186 98 33 38
240 76 278 99 84 68
246 72 275 126 109 94
237 574 232 185 7 50
278 840 317 161 101 76
333 424 142 139 57 49
242 74 282 98 87 75
357 189 251 116 94 70
293 960 323 74 67 65
242 443 258 113 4 32
348 383 201 100 87 75
262 819 251 83 64 55
298 13 302 130 78 71
282 534 160 80 27 38
298 634 197 84 33 42
328 179 217 125 98 65
330 794 173 53 47 44
307 412 197 96 83 69
242 73 287 104 91 79
342 904 213 76 66 65
368 229 227 117 95 70
270 654 295 154 10 48
338 422 152 99 83 66
249 65 279 116 101 86
312 184 292 101 84 66
393 539 162 152 18 40
292 139 283 115 90 60
221 544 267 171 3 47
243 439 207 88 37 20
281 618 334 144 109 84
370 726 154 66 47 45
255 724 262 148 4 43
242 85 263 94 37 22
292 883 227 48 46 48
375 514 279 176 124 100
430 481 219 101 21 39
276 42 315 141 26 57
318 425 147 149 30 31
280 676 219 79 31 35
230 474 281 59 28 32
290 622 194 39 31 34
234 108 264 139 16 49
393 425 257 59 48 37
336 245 315 117 95 70
252 494 319 50 28 31
256 635 262 186 0 50
339 47 210 121 98 71
268 854 297 161 121 97
273 794 344 186 136 108
249 71 274 119 104 90
368 854 142 122 94 77
370 260 236 122 95 63
357 394 203 103 90 76
324 904 191 92 83 80
253 70 273 89 69 52
245 762 281 144 104 74
243 444 202 100 27 20
285 486 159 136 6 35
367 504 108 167 0 36
323 44 265 108 79 61
248 84 263 110 36 23
378 519 272 176 123 100
317 205 283 102 84 66
253 84 301 126 32 52
311 644 316 117 48 48
300 148 297 111 89 65
241 433 215 80 35 28
392 459 197 39 25 30
275 519 164 139 4 32
328 611 175 113 33 46
325 340 214 95 83 72
248 89 261 124 23 23
385 490 125 105 20 36
217 449 202 128 9 32
448 424 217 113 32 47
308 489 147 102 21 34
290 109 299 111 90 66
250 578 310 167 14 52
389 851 170 101 79 70
326 569 325 174 128 104
340 247 307 112 91 68
243 83 266 92 42 18
365 812 269 58 44 30
370 351 302 153 99 79
281 903 207 62 57 57
221 438 228 125 0 37
322 194 232 122 99 73
275 15 313 43 39 37
336 87 189 147 29 45
203 449 201 64 22 29
303 834 287 58 44 37
204 444 199 98 13 33
247 83 265 95 48 17
276 22 286 132 46 32
265 622 223 71 32 40
336 291 215 104 84 61
400 816 130 53 36 28
236 576 201 129 38 53
376 873 231 57 49 48
249 434 277 38 32 33
348 379 203 101 87 73
210 449 205 84 19 32
368 309 292 90 76 61
380 571 160 185 20 41
255 127 290 138 19 53
246 427 215 82 33 19
360 909 306 80 68 67
265 864 302 129 54 70
356 762 146 59 48 42
290 64 299 114 55 52
249 899 292 101 82 73
245 123 277 153 13 52
293 11 321 105 46 50
358 914 307 80 67 64
352 34 252 123 58 59
318 514 143 161 2 34
411 790 136 70 56 44
348 704 302 136 16 44
253 89 262 127 24 27
288 12 324 80 55 46
350 109 244 118 95 69
363 374 292 132 92 68
270 510 169 133 5 30
368 479 291 138 94 83
304 904 323 154 110 88
272 644 298 129 14 45
318 74 227 115 44 49
343 929 312 73 62 59
250 81 264 98 41 22
348 596 165 177 7 36
375 329 302 135 93 69
288 399 312 113 91 68
249 744 332 162 113 90
274 199 292 139 102 71
364 684 278 48 26 30
364 199 227 114 94 72
366 756 132 78 59 46
278 139 277 121 93 59
253 83 266 114 31 26
250 769 263 71 59 54
386 499 236 101 27 40
350 766 148 56 48 41
353 419 182 102 87 72
190 464 200 94 24 38
304 637 194 35 35 40
337 454 97 88 34 41
295 794 328 165 126 93
235 444 246 127 0 37
190 480 205 123 24 45
253 94 260 136 21 34
233 434 221 76 31 32
333 24 233 124 68 49
353 174 250 109 88 63
293 401 229 80 67 55
240 75 291 101 70 55
314 475 329 148 22 50
230 103 277 142 6 50
345 274 286 92 77 61
251 927 255 53 52 53
278 194 307 120 97 71
293 779 332 165 122 89
235 534 305 155 1 46
265 50 279 91 35 26
358 199 252 117 95 70
393 759 247 83 57 55
323 589 166 47 36 39
208 444 202 89 14 30
407 746 156 56 44 33
217 509 262 144 2 40
405 752 170 95 72 52
285 249 302 141 101 73
335 124 245 94 75 54
246 799 312 179 125 94
266 955 250 74 71 73
197 478 212 73 27 31
265 940 325 79 61 55
346 943 257 75 69 69
258 629 292 38 31 33
235 85 290 101 29 40
348 379 321 152 109 82
246 438 267 44 32 32
410 530 181 184 17 49
395 427 246 68 54 42
343 930 317 73 60 54
243 119 282 143 16 53
383 857 174 92 74 67
326 94 206 124 16 40
343 249 206 117 89 56
217 449 222 65 27 34
316 354 244 119 94 70
319 879 307 140 108 81
293 644 340 160 112 82
333 44 193 120 36 23
423 784 112 80 72 66
234 89 291 113 29 44
219 494 267 119 3 34
438 820 245 97 81 66
313 559 326 139 112 88
406 678 215 164 111 81
288 416 202 96 83 70
372 588 163 187 18 42
315 339 232 122 96 70
263 119 268 125 29 36
333 294 216 110 90 68
213 449 197 138 6 32
304 389 217 105 86 67
237 434 247 125 4 40
238 89 293 106 43 47
319 74 222 116 43 49
313 15 257 110 41 43
271 918 220 68 61 61
234 94 290 123 30 48
238 94 292 111 35 46
278 13 297 86 76 70
273 969 277 74 70 71
397 739 237 182 16 54
330 195 214 116 94 68
302 595 175 49 35 41
325 208 302 107 89 68
294 774 208 79 62 55
235 454 257 111 3 33
373 774 130 62 51 42
406 609 225 153 110 76
323 421 158 101 79 61
273 899 323 122 87 79
340 62 190 89 43 23
341 108 199 132 34 31
415 426 128 153 24 36
357 224 255 114 91 65
448 794 91 88 73 57
257 634 282 116 23 45
382 427 116 151 40 36
217 440 202 86 34 42
356 149 223 113 93 70
222 469 216 74 21 29
243 69 292 103 82 66
231 463 252 34 30 32
358 229 207 118 93 62
436 473 212 92 26 36
243 69 297 108 22 40
224 444 236 139 0 42
442 788 102 84 69 54
255 111 265 135 6 32
362 564 261 134 9 42
328 599 168 79 30 36
241 73 293 102 53 49
397 784 231 154 109 81
398 644 227 156 101 74
245 504 315 59 24 31
333 34 226 114 84 62
191 455 190 140 2 33
395 437 169 58 26 26
303 229 270 126 95 60
363 835 136 78 59 48
359 564 263 141 8 43
237 459 200 80 28 32
298 415 197 96 82 67
231 105 278 145 7 50
241 77 294 100 42 46
408 494 234 152 19 49
321 329 254 130 97 78
228 474 202 85 24 26
299 694 199 104 27 36
227 449 238 137 0 41
425 500 197 142 20 44
252 934 247 75 69 70
293 929 328 79 62 53
243 79 297 86 39 37
220 439 222 120 2 37
265 720 234 159 8 44
209 509 217 147 17 47
331 552 325 179 129 109
373 374 252 132 98 68
231 560 195 124 26 41
301 815 215 87 68 59
328 15 242 104 78 59
259 78 305 134 16 48
338 279 212 111 87 59
314 853 294 128 104 79
245 72 300 124 12 40
324 184 222 123 97 67
293 418 192 94 80 66
276 82 305 116 27 46
243 434 212 77 41 23
360 430 292 57 26 30
437 469 207 120 31 46
207 504 237 149 14 45
294 129 287 108 85 57
308 844 287 116 90 67
317 408 191 96 84 72
279 449 163 64 37 39
368 464 97 112 17 34
408 449 127 138 16 37
323 494 320 116 25 42
253 89 299 120 26 46
353 209 255 108 87 64
358 424 307 112 22 40
248 554 182 62 35 40
213 469 216 60 27 27
278 8 312 59 58 60
358 394 292 124 86 64
326 184 220 123 97 66
364 429 190 94 77 66
356 384 277 108 66 53
415 750 204 166 111 79
349 40 252 117 45 52
214 464 207 116 3 30
439 444 187 149 18 44
315 207 280 103 85 66
389 459 212 45 25 26
385 476 249 183 23 59
248 74 301 117 32 49
283 139 306 114 94 73
331 111 244 99 79 58
224 429 232 127 2 37
263 669 277 92 24 39
242 489 190 47 36 38
323 304 257 121 90 71
246 79 299 129 24 49
302 870 320 159 124 90
283 669 217 102 24 38
325 804 177 52 47 45
376 374 232 112 91 68
344 38 225 118 101 84
359 890 217 69 58 56
229 489 287 66 27 34
248 79 301 120 36 50
352 276 265 102 80 53
228 564 242 73 32 38
269 749 228 47 34 38
423 479 162 170 20 47
297 13 321 134 35 54
326 448 335 98 34 44
250 68 305 102 49 47
340 740 314 68 23 32
371 350 242 113 91 66
323 354 211 96 85 74
348 871 295 42 37 34
260 118 300 118 83 66
269 659 237 165 8 46
189 474 202 78 28 35
403 474 137 120 25 40
249 794 327 171 118 90
252 424 272 55 29 32
298 843 283 78 57 42
320 205 229 124 100 73
380 490 120 89 28 34
315 57 242 103 89 71
353 364 206 93 83 73
253 960 297 87 81 80
283 579 176 177 1 40
355 683 288 73 26 33
283 604 332 144 112 90
366 459 94 57 38 38
389 811 161 66 50 43
242 90 294 113 86 73
292 28 316 123 90 66
343 259 297 109 90 69
253 69 306 130 25 50
284 214 278 129 100 65
251 71 304 135 33 57
227 554 282 75 31 38
398 834 257 154 140 141
261 573 324 51 27 27
289 75 298 112 32 43
368 565 146 145 27 43
254 73 305 117 32 49
237 474 297 50 28 33
318 404 328 134 105 76
225 465 213 73 23 25
395 782 140 52 29 21
338 436 93 105 65 53
357 179 213 116 94 71
353 354 321 145 103 74
249 609 242 196 2 52
288 584 176 177 2 40
403 431 137 143 27 32
245 592 207 192 3 51
288 599 182 80 30 40
236 100 289 134 16 50
424 427 137 89 35 34
348 818 142 58 50 49
293 389 237 72 62 50
334 774 298 91 68 58
348 858 153 116 92 80
366 209 246 125 100 72
298 954 326 78 73 73
333 234 292 104 85 66
291 571 170 181 3 42
368 840 145 118 87 65
274 424 177 59 38 40
373 434 101 146 34 34
196 477 209 81 25 30
247 85 299 126 23 48
345 487 113 124 9 26
283 679 217 70 32 35
343 294 322 129 99 67
246 759 282 145 104 74
363 533 123 197 11 39
321 76 205 130 8 41
437 444 177 167 16 48
240 81 295 80 45 34
379 559 151 67 27 35
228 441 225 63 32 30
373 844 272 53 43 35
218 474 216 80 20 25
307 367 260 81 69 55
391 528 148 99 25 38
240 84 295 114 31 45
243 84 296 121 28 48
247 539 314 167 10 51
322 864 167 74 65 64
338 714 180 85 28 33
239 421 247 107 20 42
352 99 218 106 51 46
355 132 230 117 97 75
312 369 242 96 79 61
276 620 312 100 65 58
279 400 247 79 66 56
249 564 183 85 29 38
254 469 183 48 36 40
344 64 253 112 69 55
398 721 155 79 64 50
258 64 276 85 39 26
249 83 300 134 19 48
338 33 226 114 95 72
399 806 108 89 70 53
300 786 204 85 67 59
319 54 222 85 37 33
245 94 295 122 29 50
321 957 310 67 61 57
321 200 302 108 89 69
248 94 296 117 22 45
323 428 337 63 46 38
301 399 221 97 82 66
343 853 149 87 67 58
323 229 242 119 94 67
399 549 218 32 28 31
367 374 218 101 86 72
220 527 224 163 5 47
399 775 142 71 51 33
231 454 244 64 20 28
235 435 219 75 38 28
252 86 299 124 28 47
324 49 218 102 84 66
390 468 218 63 26 31
412 759 156 82 63 47
338 28 231 104 89 72
323 89 247 82 40 38
299 24 297 137 56 58
353 179 211 123 99 70
236 111 278 149 10 52
266 534 170 151 0 33
366 863 182 82 66 60
363 429 107 95 75 61
239 440 212 56 33 32
273 124 272 118 70 48
319 799 188 83 65 54
320 45 228 73 42 30
404 770 132 76 59 47
234 469 287 85 26 35
387 828 128 106 76 51
255 87 300 116 91 74
320 259 240 132 101 75
417 794 192 168 118 85
307 169 302 109 88 66
220 436 218 126 0 41
314 369 320 128 99 72
253 94 298 105 24 38
338 13 247 102 84 68
364 384 263 138 95 74
244 421 228 79 29 33
273 108 304 107 73 57
254 573 184 55 34 39
251 615 293 118 35 48
393 494 132 143 19 39
213 439 197 109 24 36
355 673 284 139 10 43
348 714 181 93 24 28
278 421 187 70 48 44
313 269 324 130 101 69
429 879 292 105 89 77
350 36 254 129 13 43
292 623 339 155 115 87
255 103 300 99 48 43
255 94 300 102 17 35
371 639 198 99 11 25
300 677 314 50 24 30
348 484 316 116 71 66
315 58 247 99 40 38
328 963 287 69 63 60
409 789 181 149 103 72
409 779 138 69 57 50
407 534 217 173 19 56
233 99 261 130 23 39
212 479 207 103 7 28
300 21 308 177 135 137
302 932 334 42 40 40
269 634 228 45 36 39
224 439 236 137 0 40
350 52 216 80 48 23
347 269 297 108 90 70
368 417 272 54 40 27
328 912 192 83 77 76
278 19 287 116 60 39
361 383 301 147 101 78
233 104 263 129 30 45
282 179 309 117 94 70
190 472 194 99 33 51
361 169 232 117 96 73
283 494 161 129 9 30
217 444 217 93 10 34
276 466 165 123 26 35
251 524 319 150 19 50
254 494 183 43 36 39
254 724 267 146 4 43
293 629 197 51 34 39
342 64 256 120 99 77
343 14 247 104 84 70
319 49 227 86 35 29
242 449 272 104 9 31
303 389 318 126 99 72
297 904 188 79 67 65
343 209 207 119 95 66
387 544 152 36 33 36
276 454 165 111 20 35
278 44 312 124 41 51
233 109 267 146 12 51
229 99 267 129 27 44
418 794 117 72 55 42
298 729 198 90 27 40
342 55 198 94 58 19
228 99 272 132 23 47
337 958 262 83 78 82
358 649 277 71 28 38
303 674 313 68 29 33
313 544 152 98 32 40
334 304 214 104 86 67
328 45 218 115 95 71
315 53 251 111 19 36
387 431 162 65 28 28
384 444 282 134 18 43
345 514 118 47 35 37
384 579 177 119 29 43
320 62 255 96 76 53
402 463 208 42 23 26
202 472 209 58 26 30
309 384 212 100 84 68
220 486 261 112 2 33
360 293 296 98 83 66
421 778 128 67 57 51
372 849 252 65 51 52
409 670 214 179 123 96
315 293 274 95 71 41
413 804 132 87 65 52
230 103 268 138 13 45
263 128 269 134 15 33
363 644 272 102 29 42
363 239 212 111 90 65
231 105 266 135 26 49
230 104 272 143 4 49
330 815 278 154 106 88
329 16 239 108 78 58
356 200 209 126 100 68
319 884 168 116 93 74
245 435 208 85 38 25
355 821 280 51 40 29
259 628 296 35 30 34
255 99 300 112 24 41
290 816 334 179 132 107
282 784 226 83 64 57
280 229 302 135 101 71
220 436 221 122 1 34
236 566 220 114 26 44
233 529 191 90 29 35
337 913 318 39 36 36
233 109 272 150 3 51
218 454 212 54 32 33
338 244 207 128 96 57
259 608 208 102 25 42
338 19 237 100 86 72
384 784 248 79 63 53
194 480 212 80 26 35
354 419 187 102 88 74
240 509 310 47 28 31
359 403 201 102 89 77
243 113 263 143 9 37
270 664 295 140 12 44
401 542 174 177 22 49
320 259 224 137 106 71
223 554 212 103 20 39
358 234 256 117 93 66
227 474 257 110 7 33
253 449 191 89 36 20
389 479 242 162 17 49
293 839 292 51 40 38
419 440 131 172 19 41
235 98 259 133 12 35
210 484 205 95 15 27
249 449 193 90 36 19
232 559 292 71 29 36
339 22 235 103 88 71
336 347 210 94 83 73
273 109 271 116 71 51
338 144 246 92 74 54
367 868 193 80 63 57
327 829 162 59 52 50
363 426 142 110 81 64
361 494 306 146 105 84
268 894 323 175 127 112
214 440 206 110 16 39
342 519 312 169 121 100
238 99 259 139 11 35
313 414 329 135 103 77
278 421 177 56 37 36
359 759 137 75 58 47
231 467 267 111 5 31
447 870 268 100 85 72
258 834 317 199 131 104
361 239 255 122 97 69
310 822 209 88 69 60
276 433 170 44 41 41
239 103 259 138 9 33
358 149 227 113 93 71
291 119 300 111 90 65
383 444 107 99 29 36
371 577 154 189 14 58
224 469 212 80 19 26
278 424 319 141 9 45
225 476 256 95 15 32
319 74 247 104 74 60
315 324 237 129 101 75
308 579 166 162 6 39
288 29 283 126 40 35
236 100 260 137 6 34
237 105 261 138 10 39
214 480 246 36 29 28
255 784 254 75 62 58
236 111 265 152 6 52
329 99 198 144 19 46
326 656 305 130 14 39
333 214 208 124 97 63
336 449 98 77 26 36
343 854 288 41 36 33
218 519 267 39 29 31
348 59 202 100 50 29
317 427 141 127 28 34
362 179 232 117 97 75
206 457 204 38 29 27
342 104 199 140 27 39
256 794 339 173 122 96
261 682 265 147 13 46
364 194 232 115 94 72
225 490 199 62 38 35
308 304 307 141 99 79
326 579 317 165 111 87
228 99 277 130 26 51
345 563 279 31 28 30
380 490 249 42 25 29
314 319 282 98 78 55
285 972 258 82 78 80
230 496 295 30 29 31
362 204 250 125 101 75
229 99 282 127 20 48
198 494 212 107 31 43
325 306 268 85 67 44
241 569 303 157 8 48
260 499 325 152 17 49
343 58 197 95 46 24
206 505 213 158 12 48
323 414 177 98 84 68
361 334 219 100 86 71
310 32 254 105 89 73
332 329 215 94 82 70
324 598 169 111 29 43
230 97 285 124 18 47
382 409 237 131 101 69
353 69 207 127 35 48
214 519 257 60 29 33
386 732 140 93 73 53
348 174 209 122 97 66
308 539 151 43 36 40
233 99 287 131 18 49
332 431 332 84 61 43
312 429 338 87 27 38
396 633 230 161 106 79
224 440 221 106 20 38
288 669 341 159 113 83
340 248 301 109 90 69
343 949 267 60 53 50
273 859 272 106 82 54
248 464 188 83 32 37
231 100 284 134 14 50
345 904 222 87 74 73
268 149 278 132 97 60
214 469 212 90 18 29
357 394 307 153 107 84
275 421 187 71 47 42
263 654 322 159 119 91
372 416 268 64 50 36
361 320 219 98 84 69
295 99 287 101 54 44
282 921 210 79 70 69
224 494 199 63 34 35
255 814 263 76 63 58
233 104 282 142 12 51
438 444 182 158 19 47
303 239 271 124 95 61
373 483 255 154 17 46
253 414 242 53 37 33
406 679 179 123 93 62
191 459 191 146 0 30
201 477 219 37 31 30
270 148 300 119 97 75
281 474 329 145 18 48
252 724 277 138 5 43
319 79 227 115 26 38
256 723 315 130 99 70
233 109 277 149 7 50
377 509 246 166 16 52
223 479 252 48 26 29
253 104 298 110 40 48
328 764 178 88 30 36
234 103 286 140 15 51
315 324 278 101 81 59
245 446 277 102 13 28
317 349 222 107 88 69
313 699 320 118 23 43
356 204 209 125 99 67
331 236 284 104 85 65
192 484 207 100 30 42
221 438 208 86 30 38
291 918 330 161 124 100
239 578 198 142 26 47
221 483 258 108 9 34
310 865 188 55 50 53
237 104 288 138 13 50
426 437 134 72 26 24
350 288 285 94 78 62
234 108 281 146 10 52
220 445 230 137 0 40
363 584 158 201 15 45
192 484 202 119 30 45
298 968 302 66 61 59
321 294 230 109 89 67
243 454 196 74 32 31
216 453 223 93 15 33
236 106 284 141 10 50
324 809 177 51 46 45
328 599 302 84 24 38
404 759 162 57 44 36
401 482 229 48 25 28
315 306 246 125 100 75
395 476 125 99 39 50
324 825 278 147 100 78
237 594 267 165 7 48
239 109 286 138 12 49
235 112 272 153 6 50
238 114 267 159 12 56
357 264 260 112 84 53
389 499 131 128 14 36
198 440 200 108 7 33
268 159 297 125 99 73
253 754 302 124 89 63
215 459 226 105 16 36
393 454 237 129 11 41
318 249 323 126 100 70
239 112 264 149 12 43
284 729 213 127 14 40
237 115 272 154 8 52
374 459 287 97 24 38
211 444 194 144 12 37
392 430 290 125 23 44
240 117 276 144 10 48
315 49 234 114 33 43
333 415 172 99 84 67
338 329 213 89 79 69
319 254 270 98 76 48
329 24 233 108 78 62
240 117 268 166 20 60
288 10 297 98 72 69
263 89 268 126 46 42
338 624 182 93 34 38
392 564 177 58 30 34
239 430 218 90 33 29
358 512 109 92 19 37
329 908 304 77 55 44
373 849 277 52 42 34
298 908 192 84 73 70
382 463 114 165 1 38
290 248 283 127 97 63
298 239 272 128 98 63
239 118 272 155 10 51
293 174 313 117 95 72
403 449 192 51 23 27
325 108 212 127 25 44
300 167 285 109 90 69
258 874 277 136 109 82
336 552 312 171 114 91
235 112 276 150 7 52
293 413 211 93 80 68
238 114 277 147 9 51
328 109 222 122 86 64
317 59 252 98 52 47
225 480 204 97 17 25
239 113 282 145 11 51
368 563 144 102 26 39
364 794 263 65 50 44
319 739 184 113 21 33
278 34 321 135 31 53
326 337 215 94 83 71
322 53 216 78 52 37
250 450 310 131 0 38
240 456 290 105 19 38
373 584 162 186 18 41
360 280 215 104 82 57
279 169 306 119 95 70
246 804 287 169 119 86
322 844 171 59 53 53
258 719 252 87 31 41
224 444 226 92 18 33
243 99 258 142 17 38
365 302 314 117 91 61
358 394 297 137 94 70
369 259 222 118 93 64
228 429 237 130 1 38
268 564 328 86 21 33
243 104 259 141 12 37
306 165 297 108 88 67
399 749 232 107 25 44
272 764 227 90 31 41
248 99 258 139 14 35
253 129 287 134 19 49
223 449 222 72 30 34
414 514 222 127 22 46
286 245 286 134 100 67
313 899 316 147 111 89
215 454 201 138 1 32
355 422 176 103 88 71
370 254 242 126 99 67
222 484 262 115 3 34
392 853 186 95 73 62
416 487 159 184 16 47
333 559 317 172 116 94
255 132 285 143 27 61
286 892 219 37 35 39
313 449 141 56 35 37
291 44 297 120 25 46
378 439 293 79 27 33
384 774 253 81 63 57
247 104 259 140 5 36
363 554 138 74 34 39
210 479 202 112 4 27
253 104 262 140 7 37
344 74 190 138 28 37
308 424 147 134 16 29
383 554 152 72 28 36
324 869 293 145 114 87
254 415 262 55 42 37
323 339 321 133 102 75
296 100 288 105 27 36
348 194 253 103 83 60
293 429 326 92 22 36
242 106 260 141 18 38
333 44 197 116 42 25
319 329 252 134 99 79
206 467 209 48 26 30
364 329 286 98 79 57
318 309 317 136 98 79
252 914 313 168 132 111
420 756 124 105 79 55
389 590 244 173 119 94
243 109 261 143 6 38
234 564 222 163 10 48
348 24 237 104 85 67
243 514 313 137 16 44
300 278 316 146 104 82
348 349 322 141 105 72
237 449 257 114 0 34
369 509 288 174 120 100
248 109 262 139 7 35
301 280 285 121 88 62
249 104 260 140 5 35
253 99 261 140 12 35
392 699 232 113 15 39
308 174 292 101 84 65
253 109 264 140 8 35
253 959 302 69 63 62
351 40 229 82 47 24
255 117 295 113 62 58
381 840 129 122 95 69
326 313 220 97 81 65
387 449 222 107 18 35
354 909 257 64 57 54
242 110 288 132 18 48
384 596 244 160 98 77
237 499 307 54 28 31
302 669 327 151 105 80
442 454 202 161 21 47
243 114 287 133 21 49
306 528 325 65 26 31
331 209 249 97 81 64
338 289 266 99 82 66
212 499 203 54 34 36
366 210 229 113 93 71
266 149 293 124 100 73
259 699 257 57 34 36
243 115 265 152 18 43
207 473 217 67 26 30
327 94 202 131 13 42
333 229 307 109 90 69
230 564 282 49 30 34
272 624 212 186 16 53
338 84 255 113 19 42
362 489 306 152 102 88
328 279 218 133 101 70
224 484 203 80 30 26
243 119 267 144 27 50
338 612 174 134 36 48
376 812 260 49 39 32
294 134 287 106 85 59
381 694 197 75 58 45
315 31 244 52 41 31
341 275 320 122 96 66
351 64 240 98 25 35
393 824 112 105 84 70
242 120 272 160 16 54
406 528 174 186 17 44
190 459 200 56 23 30
338 299 213 97 82 67
291 514 155 130 13 32
293 880 232 45 43 44
278 54 308 120 52 55
248 115 265 141 12 34
269 953 325 51 48 47
198 449 200 108 6 34
279 853 268 133 85 72
393 549 167 112 22 36
191 448 190 101 17 37
268 48 315 126 26 48
248 119 266 134 30 43
306 499 150 131 1 27
323 659 192 126 9 30
330 40 194 120 33 23
283 479 331 141 16 44
329 129 227 114 91 65
268 834 257 87 67 59
397 559 182 183 20 50
286 139 279 117 91 58
323 814 177 53 48 45
245 122 269 85 83 70
243 534 312 160 7 49
432 437 224 107 2 29
423 781 121 76 60 48
198 454 202 102 11 33
389 444 227 113 15 38
402 479 228 46 21 25
423 469 230 35 28 28
346 571 155 192 8 49
322 49 264 94 33 39
402 809 226 149 110 83
245 440 266 76 28 35
277 38 316 122 65 61
415 495 229 173 16 53
247 417 237 58 32 29
235 520 189 59 29 30
283 44 308 121 28 47
253 418 227 72 46 44
331 448 330 97 22 36
358 189 212 118 95 70
299 369 311 120 94 68
313 844 286 123 96 71
326 211 302 108 89 68
289 555 322 148 15 47
244 123 272 153 24 56
397 827 154 108 79 62
247 125 271 120 56 63
236 432 220 90 40 26
224 434 236 134 0 40
391 469 232 105 15 34
338 39 263 122 18 45
342 949 257 71 65 68
245 464 306 128 6 38
347 924 292 59 51 49
337 265 210 122 93 60
263 819 338 188 132 109
401 732 247 51 32 36
411 729 178 123 90 61
338 234 207 126 96 58
363 604 171 73 34 38
330 548 288 37 27 31
304 449 336 83 19 31
328 729 323 185 15 60
386 685 232 131 14 42
252 113 264 140 14 39
342 474 122 68 30 36
195 471 205 62 23 27
406 542 184 193 13 54
338 324 213 88 76 65
368 534 276 181 121 96
326 209 215 121 96 66
253 114 265 136 12 35
310 299 283 104 79 53
238 464 197 78 31 32
425 465 151 69 29 36
348 159 249 102 83 62
253 119 266 137 13 34
355 128 231 115 95 74
348 704 182 39 36 39
199 465 190 133 3 29
284 389 302 114 91 65
323 224 217 125 98 65
253 124 267 142 18 38
397 834 127 99 81 68
388 439 292 179 18 56
203 459 191 132 0 29
219 444 207 67 37 37
285 52 280 114 74 43
286 877 324 126 100 76
360 254 210 112 89 61
367 244 217 119 95 67
338 749 312 174 22 57
335 254 319 119 95 67
249 129 272 115 62 65
338 220 255 94 76 55
278 969 292 75 70 70
292 89 296 105 84 62
249 434 272 68 31 36
350 80 201 147 28 50
238 574 297 160 6 48
310 423 144 134 13 30
223 549 237 178 1 47
372 893 283 79 65 60
308 209 273 121 92 56
215 464 226 43 26 29
291 813 335 176 131 103
436 458 183 175 18 50
323 794 298 79 59 51
324 844 167 62 56 57
393 764 242 84 68 60
331 440 125 78 35 32
395 753 223 108 20 40
393 729 168 82 68 54
345 55 254 113 83 64
343 294 272 88 75 61
214 519 242 60 32 37
388 423 257 60 49 37
277 815 240 86 67 58
353 194 209 124 97 64
369 409 210 105 91 77
308 852 294 109 90 68
254 129 269 133 24 41
438 426 192 93 32 38
252 130 270 110 80 70
242 120 277 146 12 49
292 829 231 81 64 58
343 749 175 64 35 36
273 19 322 61 49 41
328 388 196 96 84 72
371 455 274 67 17 35
245 118 286 136 18 49
247 119 287 131 21 48
310 551 320 83 37 37
345 21 279 118 35 47
194 440 189 99 32 34
409 806 132 78 56 47
273 99 304 106 26 42
249 99 295 109 63 59
241 530 185 55 33 34
319 935 333 55 48 45
216 493 210 84 21 30
408 829 253 177 164 168
208 439 192 132 18 31
248 129 277 150 15 50
320 89 232 97 32 37
305 790 314 30 26 32
262 664 267 168 0 48
245 122 280 145 14 53
277 620 201 185 10 47
326 962 295 74 66 63
325 107 209 133 25 47
375 427 147 95 68 56
334 30 228 120 77 54
197 468 204 59 25 29
312 24 250 110 20 32
233 454 207 74 33 27
348 104 246 121 98 73
249 574 188 142 16 42
384 629 198 116 85 59
246 121 284 142 18 54
389 433 172 60 24 25
284 563 169 178 4 42
211 447 194 147 2 33
247 124 282 140 14 50
253 729 287 93 19 39
353 867 173 85 70 61
318 14 272 123 62 55
260 647 276 151 6 37
204 460 205 56 25 28
328 254 273 92 76 59
408 764 177 137 96 68
249 128 281 140 13 49
338 79 255 105 49 47
353 565 146 141 25 44
200 476 215 53 28 27
310 29 253 103 75 59
382 809 126 51 46 45
321 683 190 108 26 35
259 754 247 100 29 41
315 456 139 80 41 40
335 444 112 105 27 42
252 125 288 105 29 42
258 425 202 83 33 24
406 468 138 132 31 47
267 439 182 106 18 31
255 455 315 124 18 41
257 709 332 155 112 85
306 190 279 113 92 66
368 724 281 100 27 42
250 127 285 131 12 43
265 149 291 125 100 73
208 439 201 103 9 33
416 699 202 158 108 76
307 610 180 61 34 37
390 569 249 176 125 100
405 520 166 183 16 46
208 449 203 58 24 29
408 639 222 159 112 80
255 421 296 36 34 35
406 818 116 90 65 47
235 98 290 127 24 48
298 584 332 137 109 83
353 426 128 118 73 58
221 447 214 61 34 40
370 254 232 118 93 63
330 199 246 96 80 62
333 189 247 92 76 57
314 19 248 121 31 39
390 840 155 108 79 66
369 249 222 121 97 68
368 559 141 59 33 37
239 103 291 133 23 50
374 429 285 67 15 23
243 99 293 108 46 51
333 479 131 105 24 37
352 54 227 120 64 56
252 464 314 99 24 39
338 139 211 127 97 61
347 279 287 95 79 63
375 667 254 149 17 48
208 459 193 136 4 34
350 104 243 120 97 72
417 806 97 102 80 59
326 421 126 169 28 37
190 449 192 128 8 37
284 469 330 118 19 41
290 840 302 40 33 34
247 104 293 124 33 51
244 109 291 125 22 44
244 484 311 121 13 39
253 119 292 114 56 55
265 654 286 144 11 48
248 109 292 111 59 56
228 434 221 91 25 32
334 949 297 57 50 47
287 64 301 112 25 42
354 369 205 94 83 74
231 479 288 55 28 32
356 904 277 61 55 54
252 99 298 114 39 50
426 493 187 48 33 34
321 80 243 100 21 35
361 161 240 116 93 68
244 784 282 173 123 91
287 33 317 147 28 57
261 654 272 175 0 51
250 108 295 106 61 53
255 726 258 152 8 44
393 794 136 66 51 42
336 264 279 92 74 55
329 109 202 146 20 45
381 443 279 137 15 43
352 526 289 153 97 88
291 510 155 136 9 30
316 59 232 94 31 36
353 204 208 122 97 65
408 464 222 32 24 25
253 109 297 118 62 60
308 509 148 135 9 33
283 54 278 126 34 33
248 529 316 152 12 48
251 110 294 121 85 74
328 634 186 71 35 39
190 455 200 110 7 37
290 908 329 147 119 95
190 482 205 148 18 48
308 269 323 131 100 71
368 578 154 194 15 43
386 700 266 126 6 40
276 499 165 97 24 33
348 437 309 84 22 30
353 329 213 92 81 71
283 19 325 109 57 53
333 363 324 134 104 70
287 154 278 117 92 60
352 169 250 110 89 66
353 164 249 113 91 67
333 18 285 144 101 88
297 279 292 132 93 68
295 764 204 146 1 38
247 114 289 91 45 46
412 654 212 143 103 66
211 473 202 121 0 28
191 444 191 78 33 35
318 244 270 98 76 50
365 875 196 84 71 66
277 412 221 93 80 68
323 104 222 121 40 46
255 506 179 113 22 35
346 486 110 129 11 32
236 539 190 140 4 32
249 118 290 134 21 49
317 254 269 97 75 48
251 121 289 93 39 38
348 244 206 113 88 59
343 419 317 162 117 93
308 654 322 140 89 67
254 124 291 110 60 55
350 920 245 77 68 68
421 494 173 184 15 52
355 377 272 125 76 62
353 858 153 195 176 163
217 454 207 97 19 29
205 489 240 42 29 30
345 484 112 126 7 35
388 464 252 69 29 34
296 250 319 131 102 74
301 878 191 49 46 51
265 127 300 126 98 73
388 434 108 160 7 35
392 579 197 80 32 40
333 418 167 99 84 69
392 660 218 86 48 39
363 756 140 70 55 46
192 479 207 108 21 37
333 569 297 103 21 39
317 553 324 136 109 86
347 459 311 45 27 30
253 133 272 119 99 92
194 489 197 88 32 39
315 868 308 137 110 80
420 431 182 70 31 31
334 594 297 162 13 50
233 509 302 78 28 36
426 427 179 78 34 38
358 739 286 78 46 46
255 132 269 128 13 27
318 29 243 65 44 35
250 889 283 166 121 99
293 564 321 132 21 45
303 344 297 111 89 64
260 514 325 81 27 35
393 724 139 91 68 46
333 149 213 127 98 62
262 33 286 116 87 60
414 664 202 134 97 61
250 132 274 107 57 41
320 421 159 106 76 58
295 380 253 72 61 51
194 484 212 56 31 35
262 605 201 141 29 46
414 786 107 97 81 65
301 378 314 122 97 71
343 18 241 105 91 76
283 624 201 148 17 45
257 514 324 141 17 46
329 139 222 117 94 67
264 34 284 105 44 28
316 334 230 120 96 69
250 132 277 142 17 46
293 422 172 97 63 47
253 134 277 144 45 60
342 784 157 67 55 49
353 784 141 77 60 51
323 769 308 90 71 62
252 130 283 140 15 51
258 479 321 136 15 43
388 430 108 156 20 31
247 799 317 178 123 93
408 814 93 85 66 47
280 429 164 60 40 40
212 449 207 99 12 33
333 289 216 115 91 65
376 489 282 155 112 92
289 847 292 47 39 34
269 539 168 157 0 37
198 479 217 56 28 31
331 229 210 127 98 61
343 24 277 137 33 56
280 659 219 145 11 43
255 705 322 151 113 82
253 133 281 139 21 52
332 199 248 94 78 60
319 49 262 86 20 29
330 536 150 132 10 38
193 439 192 101 26 36
371 877 223 71 58 55
233 430 223 100 17 26
328 114 227 110 86 58
307 299 287 115 86 61
343 734 312 170 11 56
218 474 237 44 28 30
388 719 147 95 74 55
190 441 193 79 31 36
293 584 174 155 10 40
373 434 187 71 43 39
382 469 256 92 26 39
314 49 252 115 62 53
359 149 232 117 96 73
310 826 294 56 44 42
202 484 232 57 28 31
278 679 341 151 107 79
326 105 237 117 85 63
338 429 322 145 105 83
210 446 205 104 11 32
337 117 209 139 95 59
235 446 209 50 37 27
394 489 131 140 14 39
306 180 283 104 87 68
278 20 325 85 41 39
190 444 197 63 23 32
396 472 209 35 26 26
358 889 311 50 44 40
191 444 199 113 9 35
243 529 183 71 30 35
253 484 318 46 27 30
293 424 156 119 19 32
344 31 264 144 26 55
233 584 272 139 20 45
338 499 132 166 0 37
193 449 189 92 27 36
255 706 326 153 112 82
255 740 309 117 91 61
327 220 287 105 86 66
190 464 193 75 26 36
380 658 194 106 81 67
243 479 192 49 38 39
238 579 217 86 24 37
250 952 268 79 74 75
305 410 203 98 85 72
386 443 217 102 17 33
398 734 232 174 13 52
195 492 199 111 33 35
332 240 282 100 82 62
250 602 217 74 27 41
221 492 269 123 5 36
348 861 161 129 101 77
263 114 267 115 33 34
318 509 321 144 22 48
278 114 304 115 75 62
320 98 223 90 69 50
193 454 189 150 4 35
259 474 178 54 39 41
334 654 299 150 3 47
293 159 281 113 92 68
218 499 203 91 19 27
240 553 305 166 5 50
295 390 234 69 59 50
381 680 203 87 74 75
415 426 136 110 27 33
303 879 187 53 50 52
190 454 192 133 2 36
388 789 242 78 61 54
218 449 207 75 29 32
333 129 242 96 78 58
390 811 114 63 54 47
203 444 189 145 9 33
192 464 191 130 7 32
283 968 297 75 71 71
370 501 110 161 0 35
338 284 213 107 86 60
335 485 314 44 26 28
198 444 188 79 26 35
320 915 201 83 76 75
321 206 310 112 93 72
307 399 207 99 86 73
348 460 80 50 39 40
219 444 227 125 2 39
282 6 302 69 63 63
293 972 291 67 61 59
