ply
format ascii 1.0
comment Created by Open3D
element vertex 2219
property double x
property double y
property double z
property uchar red
property uchar green
property uchar blue
end_header
297 198 198 119 97 74
299 494 138 117 4 37
301 198 192 123 99 70
328 413 184 99 84 67
299 203 194 122 99 72
298 208 194 122 98 69
383 833 206 52 50 52
301 203 192 124 99 68
360 213 246 122 98 69
382 43 274 102 26 38
301 208 192 124 97 66
393 944 340 67 60 57
290 198 214 111 91 70
413 858 293 34 30 29
291 197 212 111 92 70
383 594 168 122 23 41
398 862 231 75 60 54
514 498 229 165 16 49
437 528 309 127 80 65
338 898 335 160 114 93
291 197 220 109 90 68
307 488 158 74 20 28
328 363 264 69 54 38
356 238 264 105 84 61
311 330 272 120 84 61
330 301 251 76 65 55
448 574 204 94 23 39
322 148 217 85 68 50
312 478 157 33 27 30
306 861 326 130 99 77
290 204 224 109 90 70
291 202 225 110 91 71
337 734 306 87 39 45
304 966 279 86 82 83
282 383 270 135 101 76
393 443 99 95 77 58
339 670 297 40 25 29
336 218 223 92 75 56
288 208 219 111 91 69
257 463 204 80 34 39
275 628 215 79 41 39
436 915 268 78 63 56
268 468 265 133 90 75
507 498 244 142 24 47
395 212 276 117 93 65
357 484 102 100 26 40
289 208 224 109 90 69
291 213 203 114 93 70
302 638 270 154 8 48
393 552 125 213 22 52
381 941 271 75 67 67
293 218 199 118 96 70
293 223 199 120 97 70
292 618 259 108 22 40
422 683 224 83 51 41
295 223 196 124 97 66
333 223 229 89 73 56
327 547 281 127 5 39
385 737 161 88 60 42
328 402 193 98 84 69
289 218 204 112 91 69
333 638 290 113 29 45
453 426 224 63 52 47
328 13 299 146 39 64
313 573 279 131 7 40
291 217 202 114 93 71
296 212 197 120 98 72
388 468 324 114 9 36
391 138 263 113 91 65
453 503 294 147 7 46
298 393 198 91 80 70
363 430 124 87 70 53
298 218 194 124 98 66
293 213 234 108 89 70
427 862 275 78 66 61
352 398 295 135 99 74
301 218 192 127 99 65
388 457 64 94 62 48
301 223 192 127 98 64
332 353 268 76 60 44
426 723 221 55 42 37
253 693 219 128 96 58
373 228 288 126 101 74
468 426 234 63 36 36
363 118 273 116 93 67
276 612 252 138 99 83
295 194 227 108 90 71
318 248 195 132 95 59
290 209 228 111 91 70
413 508 330 102 68 58
397 819 306 56 43 41
380 301 242 96 82 68
377 23 274 96 31 38
302 677 276 122 5 38
299 199 233 106 88 69
300 195 232 106 88 69
297 913 254 168 114 86
400 784 209 64 52 49
321 20 284 163 121 96
308 419 179 92 80 69
356 433 301 112 23 42
303 198 234 105 86 64
294 383 201 98 84 69
298 203 234 107 88 67
297 208 235 107 87 67
423 579 189 105 23 41
302 202 236 108 88 65
390 338 242 90 79 69
362 616 176 57 29 37
304 204 237 108 87 65
262 443 264 56 26 30
332 323 229 75 64 53
301 206 236 109 89 66
254 782 211 171 116 81
349 388 293 139 100 79
289 213 229 110 91 70
313 473 137 72 22 32
368 743 179 63 48 37
291 211 231 111 92 72
445 494 309 181 121 105
290 214 232 110 90 70
445 755 260 64 49 42
342 378 242 79 66 55
484 456 147 131 71 45
428 937 309 96 82 76
292 217 235 108 90 71
373 588 308 186 9 58
274 433 180 137 3 33
245 658 244 138 100 67
296 211 236 107 88 68
513 447 194 78 32 35
302 493 132 84 26 37
318 388 200 93 83 73
413 868 303 47 41 38
303 213 240 110 88 65
297 222 241 107 88 67
384 463 318 56 24 29
325 15 276 133 83 71
367 268 243 90 74 55
488 533 174 211 20 56
303 217 241 110 88 64
418 608 324 169 123 94
411 778 216 52 45 42
303 220 242 110 88 63
240 817 249 213 148 118
308 202 236 107 86 61
319 197 231 89 73 55
411 432 352 58 26 28
308 204 237 107 86 62
483 528 264 114 27 44
388 829 290 56 47 44
296 542 156 60 24 28
308 208 238 108 87 62
396 203 245 105 88 71
319 323 218 82 72 61
311 205 237 104 83 58
513 508 169 101 37 47
380 525 312 63 19 30
400 244 247 106 86 63
377 315 236 91 80 70
269 378 258 129 98 72
316 194 232 95 76 56
378 138 276 114 91 64
363 653 293 60 23 30
241 717 246 152 104 76
318 198 232 93 75 56
361 874 297 140 108 88
378 328 289 141 105 73
428 420 249 72 62 55
378 303 239 93 80 68
322 463 119 54 33 35
462 914 260 94 80 73
314 207 236 102 81 58
304 552 141 162 1 33
341 443 275 102 22 39
373 188 240 113 88 56
277 763 276 58 48 43
318 203 234 94 76 56
486 516 130 218 23 55
318 208 235 95 77 57
337 348 239 133 100 89
427 546 135 227 14 54
436 552 298 110 41 48
398 817 308 125 93 77
350 278 269 101 80 56
313 213 238 106 85 61
350 514 294 117 10 33
318 218 238 98 80 59
391 111 248 122 81 62
307 220 242 113 90 65
334 32 278 133 23 52
334 24 261 102 23 36
363 228 244 105 84 58
396 374 236 94 83 70
325 374 261 69 54 36
308 223 242 112 89 64
406 410 221 98 83 67
258 543 238 99 46 42
310 221 241 110 88 62
401 86 226 141 20 42
292 228 198 124 99 70
303 378 275 148 103 84
502 425 250 73 18 31
323 547 140 168 2 35
303 698 194 106 22 37
295 228 196 127 99 67
250 664 230 139 98 69
500 426 256 98 19 36
401 93 239 134 19 49
295 232 196 129 100 66
377 83 272 105 44 48
374 431 133 90 74 58
348 932 346 39 36 36
363 478 304 111 13 39
293 238 198 129 100 65
378 258 289 132 100 63
359 128 259 119 91 66
295 238 196 129 100 64
445 594 239 199 13 56
290 893 285 165 122 97
281 427 277 163 15 53
312 259 252 112 89 62
290 238 201 126 100 69
298 228 194 128 99 65
440 454 291 158 16 51
295 247 196 135 102 64
437 679 274 65 44 38
402 817 221 61 52 50
446 723 299 149 102 69
436 679 279 89 68 47
293 248 199 133 101 63
291 672 265 55 27 32
363 953 259 76 68 70
292 443 172 59 35 34
408 698 175 81 62 47
445 773 310 170 115 82
418 878 269 76 66 63
290 252 201 133 101 62
373 883 224 58 53 54
330 143 211 85 70 54
334 972 265 80 75 78
291 254 202 135 101 64
507 429 253 127 21 42
298 243 194 135 102 63
393 513 85 175 8 38
403 758 314 137 97 73
367 33 288 126 54 60
392 430 151 91 75 58
341 835 297 163 130 101
298 428 270 153 16 47
298 248 194 137 101 64
303 243 192 135 100 62
376 882 225 53 49 50
348 777 201 64 49 43
303 248 193 137 100 63
298 253 195 137 100 63
367 868 209 64 59 63
280 268 234 119 94 65
388 893 307 39 36 36
403 88 239 136 14 50
303 253 194 138 100 63
308 244 192 134 98 61
352 971 303 73 67 66
486 858 287 58 47 39
279 313 254 126 95 63
308 248 193 136 96 61
458 910 299 60 52 45
422 863 269 67 57 54
400 233 276 120 94 64
367 15 288 100 50 47
285 880 308 128 102 78
279 358 220 114 92 68
360 569 302 92 15 31
432 817 313 191 125 101
259 443 209 114 13 35
373 598 303 194 8 61
433 453 114 100 68 44
313 243 192 132 96 59
441 811 256 75 59 55
308 253 195 137 97 62
284 884 313 144 111 90
395 158 265 115 92 67
268 793 273 176 136 103
303 483 160 86 26 28
313 253 195 134 94 60
315 255 197 133 94 61
318 252 196 131 94 61
473 422 264 66 33 31
269 393 259 135 101 75
345 294 274 97 77 54
446 715 248 66 35 38
319 254 197 130 93 59
286 918 288 146 115 91
413 420 199 96 81 64
338 378 213 83 72 62
294 229 242 109 90 68
375 31 257 104 89 75
293 233 243 110 90 68
303 228 244 112 90 65
282 378 270 136 101 77
383 38 269 96 24 37
373 213 286 126 101 74
303 233 246 111 89 63
343 488 279 141 3 43
294 538 164 56 29 34
357 378 228 87 73 60
298 238 247 112 90 66
300 534 262 74 28 38
433 432 179 98 83 65
253 708 216 128 97 60
503 504 129 115 32 46
300 235 247 111 89 64
410 383 264 113 90 64
293 248 248 110 88 64
294 539 152 101 10 36
422 440 145 94 78 60
400 452 347 70 26 34
407 243 264 120 94 63
499 426 243 69 26 34
289 253 247 111 89 64
298 538 260 49 29 31
398 83 224 141 27 44
290 250 247 110 88 64
406 238 264 119 94 63
423 442 139 95 78 61
358 188 269 113 90 64
346 636 181 43 41 42
360 448 85 89 31 36
315 247 246 112 89 62
298 243 249 113 91 66
358 88 274 110 40 47
363 248 288 124 98 70
328 399 259 56 43 32
298 248 250 114 92 66
395 153 254 113 91 67
303 243 249 115 92 65
436 680 284 93 68 48
297 252 251 115 93 67
260 556 229 96 20 31
322 472 149 42 26 29
405 238 254 113 90 63
353 918 229 71 64 65
304 252 251 117 93 66
263 523 271 158 112 89
408 478 343 83 22 34
333 718 187 130 10 34
263 793 211 173 117 84
293 821 216 92 72 64
346 856 202 63 54 54
302 254 252 117 93 67
308 233 245 113 90 64
530 453 230 144 17 46
313 233 243 109 88 63
253 618 225 141 105 68
305 236 246 112 90 64
353 458 94 139 9 34
468 924 274 94 72 57
388 497 323 45 23 28
424 916 287 57 53 52
391 133 249 112 90 65
401 55 231 89 34 33
368 188 283 119 96 73
260 493 195 160 4 41
383 803 306 67 57 52
309 237 246 115 92 66
323 153 218 84 68 51
313 238 245 112 90 65
388 303 285 134 100 67
313 463 265 120 20 43
383 178 280 119 96 70
420 875 296 40 35 31
382 374 297 126 97 64
371 142 247 120 90 54
318 228 240 98 79 58
472 806 286 89 68 55
319 232 241 98 80 59
317 234 242 103 83 60
397 553 318 153 14 50
467 708 273 94 71 50
283 748 199 119 50 46
348 30 290 141 37 59
377 832 175 109 79 53
313 243 246 112 90 64
473 503 94 147 28 49
352 347 236 82 67 53
303 348 277 143 100 77
420 609 212 107 37 47
313 248 247 114 90 64
417 679 242 94 25 35
290 493 166 69 36 39
438 932 304 84 72 67
355 235 254 93 75 55
307 255 252 115 91 65
356 243 279 120 96 71
372 868 170 94 75 66
320 873 256 104 78 57
248 793 268 169 128 99
313 253 249 113 89 63
335 158 210 88 74 59
329 278 229 74 62 50
284 908 299 153 122 97
401 423 356 96 32 42
378 918 325 36 34 35
335 176 216 91 76 61
318 323 263 90 68 47
265 398 253 132 100 71
318 243 244 105 84 60
408 536 110 228 16 52
401 189 263 118 94 66
470 529 280 101 28 42
263 403 239 117 93 66
259 575 217 77 42 36
318 248 245 106 85 61
288 468 168 48 36 38
308 968 294 75 70 72
363 128 273 118 95 69
442 571 190 88 37 43
483 548 214 179 24 56
297 908 330 159 122 101
522 445 206 79 34 32
309 421 177 74 66 60
332 208 228 86 72 57
318 253 245 103 82 59
486 769 288 89 70 52
457 738 278 58 44 32
285 349 216 122 96 66
324 133 181 129 102 69
408 457 79 97 79 58
337 173 204 103 84 63
401 97 235 130 40 53
338 708 309 86 29 39
363 561 126 137 27 44
323 143 183 129 100 66
387 631 201 79 38 42
392 405 211 92 78 63
325 136 181 129 101 67
428 913 319 40 37 37
400 103 239 132 33 49
285 700 287 126 9 35
327 136 181 130 100 65
317 288 210 104 80 54
387 68 223 133 14 29
468 449 154 99 53 43
452 435 185 93 78 63
351 961 256 80 75 78
328 143 182 131 99 62
332 132 181 134 102 66
335 129 182 139 100 64
333 138 183 133 99 61
237 798 259 172 124 94
276 368 222 115 93 68
360 228 246 118 93 65
333 143 183 135 102 65
378 689 308 123 4 38
302 964 299 75 70 70
323 148 183 127 99 64
326 593 162 153 16 40
323 153 183 128 99 64
277 811 272 54 46 44
389 323 285 134 103 72
328 153 183 131 100 64
293 278 263 101 84 66
347 378 220 74 63 51
333 153 185 131 101 64
364 247 245 98 78 54
388 203 280 121 96 67
355 258 274 114 91 65
309 966 269 82 79 82
418 423 194 98 82 65
335 150 187 125 98 64
334 557 146 172 2 39
270 523 266 141 88 78
253 788 270 170 131 100
352 60 276 107 78 58
338 138 189 119 93 62
362 962 309 66 57 55
354 553 125 90 21 36
483 768 294 89 68 51
337 143 189 120 95 64
313 568 149 64 33 37
336 147 186 127 97 64
261 468 267 89 38 40
498 518 154 104 37 43
235 780 252 165 115 85
341 595 152 189 9 41
337 148 189 121 95 64
365 367 231 87 74 60
337 153 189 120 94 62
342 38 280 129 19 48
287 749 286 75 60 57
336 158 190 120 93 62
328 163 184 131 99 61
484 513 270 169 9 52
352 378 243 86 69 54
350 887 321 146 111 83
323 173 184 130 99 60
393 111 235 139 56 61
399 402 223 95 81 67
328 173 185 131 99 60
338 503 123 172 3 37
387 925 337 40 37 36
337 348 234 135 104 93
259 528 229 78 28 36
318 468 158 52 29 30
330 173 187 131 100 62
343 945 242 92 84 86
410 451 98 94 75 51
333 173 189 126 98 64
394 387 290 127 99 67
297 903 330 173 125 109
323 432 129 84 32 34
285 393 272 136 102 79
323 178 185 131 99 60
308 453 164 44 35 28
328 178 185 132 100 61
280 289 253 119 91 60
404 388 238 93 82 70
316 911 341 141 122 104
428 543 328 174 120 94
408 433 154 92 76 59
327 182 186 132 100 60
507 488 253 89 28 37
380 205 236 99 82 65
235 801 240 178 123 92
423 462 84 96 72 47
325 188 187 130 99 60
328 188 188 128 98 62
355 510 298 49 24 29
343 25 261 91 64 51
456 755 289 138 98 67
448 464 99 110 51 39
325 193 187 129 98 60
286 614 251 117 42 53
369 570 137 153 36 55
308 463 127 142 0 32
396 445 96 94 77 58
328 193 189 126 97 62
446 482 318 187 128 107
368 399 209 91 79 66
322 232 191 128 97 59
406 743 205 69 54 49
323 21 288 160 114 100
332 183 190 124 97 63
477 480 80 121 21 28
332 188 191 125 96 62
381 34 264 92 77 59
358 803 299 187 142 118
348 403 214 82 70 59
331 193 191 124 97 64
307 918 238 62 57 58
336 163 191 121 95 64
373 448 310 101 18 37
290 523 141 90 27 40
408 468 59 100 83 65
375 353 239 89 78 67
427 597 210 121 31 45
407 485 62 182 9 40
334 183 193 116 92 63
332 133 208 88 71 54
337 338 259 80 64 49
356 971 275 82 77 81
332 138 208 87 71 55
409 833 234 60 48 45
323 445 130 83 27 36
278 658 218 87 61 49
367 483 306 133 8 44
340 31 282 125 93 74
414 478 339 77 35 37
299 942 250 76 69 69
328 418 179 95 80 65
505 489 97 196 19 47
384 686 301 109 2 30
327 133 213 85 68 49
245 673 248 171 119 91
328 138 213 85 69 51
402 278 259 111 86 56
433 931 323 75 59 50
486 498 272 173 13 54
277 728 280 29 28 31
333 148 209 85 71 57
266 388 254 129 98 70
367 962 274 86 80 83
313 589 162 77 32 38
324 147 216 83 67 49
345 72 260 125 16 40
374 839 180 121 90 67
363 425 156 86 71 56
328 153 215 83 69 53
316 292 211 96 76 53
361 513 112 59 32 37
405 240 257 118 93 64
325 151 216 83 68 51
347 963 342 73 66 63
454 451 138 112 50 41
323 158 219 84 68 51
326 154 217 83 68 52
390 780 181 100 73 44
327 158 218 83 68 53
440 595 222 185 17 49
329 158 215 83 69 55
332 153 212 84 71 56
332 158 213 85 71 57
424 619 264 137 24 48
259 523 233 71 26 33
303 468 129 148 0 32
328 16 297 183 128 133
292 548 159 101 8 33
324 18 274 127 90 74
283 628 246 57 25 30
337 133 199 97 78 57
512 470 130 134 83 52
336 132 202 93 75 56
403 803 318 171 129 105
303 563 142 169 4 37
390 113 254 106 76 54
367 867 204 64 58 61
247 553 244 141 107 77
337 138 199 98 78 57
338 143 194 108 86 61
300 874 276 132 103 73
239 748 220 150 105 75
412 398 240 107 90 71
338 143 199 98 79 58
413 398 249 100 82 63
337 143 203 93 75 55
295 502 161 115 10 34
291 402 202 97 82 65
251 773 212 168 114 80
431 611 249 64 23 27
339 847 301 140 110 82
338 148 194 110 88 64
338 148 199 100 81 59
431 611 246 65 26 31
423 422 204 97 81 64
408 424 184 97 81 65
459 513 289 146 6 46
411 535 321 69 31 32
291 473 167 84 31 34
348 383 229 85 71 58
413 568 159 156 24 49
349 25 261 90 59 48
331 274 238 73 61 48
336 150 207 87 72 56
318 433 170 57 43 35
337 158 194 114 91 63
316 945 242 82 74 74
433 822 294 107 64 49
457 460 115 124 25 30
488 871 272 65 52 44
337 158 199 106 85 63
407 663 234 104 20 34
338 158 204 96 78 58
314 530 132 63 36 30
250 638 226 136 101 67
284 263 210 134 102 68
297 616 176 160 20 49
276 478 177 43 36 38
381 815 301 69 58 53
403 462 342 96 19 34
343 783 298 61 50 47
415 878 263 82 67 64
337 158 208 91 74 56
406 73 230 115 29 37
353 431 102 101 42 32
335 174 192 119 94 65
270 567 196 99 21 40
241 742 251 155 108 80
368 873 178 96 79 68
341 398 274 114 78 62
407 868 240 68 56 56
323 163 220 82 68 52
273 463 264 135 67 67
375 814 196 56 49 47
320 166 221 85 70 54
328 168 219 82 68 53
443 488 319 183 127 102
333 378 268 81 61 44
327 173 222 84 69 53
385 233 286 126 99 68
445 930 313 82 68 59
339 323 284 127 88 66
447 822 290 85 72 61
344 596 151 199 11 41
430 580 197 215 19 56
330 162 216 83 69 55
373 428 309 71 25 32
334 168 215 88 73 59
331 168 217 85 70 56
352 478 103 82 30 37
335 173 216 90 75 60
334 193 193 117 93 64
322 388 262 77 56 37
285 338 272 139 97 75
328 178 223 83 69 53
368 409 194 93 79 65
291 568 152 90 24 32
330 177 221 84 70 55
280 389 211 99 85 70
303 448 166 41 33 29
427 813 235 83 63 57
384 890 307 39 36 35
328 188 225 84 70 55
315 480 144 61 15 30
363 583 309 162 16 51
458 459 119 124 24 29
373 203 240 106 85 60
332 188 222 86 72 57
338 414 180 95 80 64
293 429 176 58 38 35
391 946 334 68 61 59
349 78 268 107 73 58
334 188 220 90 75 60
245 773 216 171 114 83
362 143 254 112 88 61
278 398 268 131 98 76
438 508 303 51 31 31
335 192 221 90 75 61
417 581 185 215 18 54
372 857 280 37 29 28
339 328 284 128 85 66
376 180 241 115 89 57
348 614 296 161 32 57
337 163 204 97 79 59
288 593 260 133 18 45
364 198 245 119 94 65
288 630 187 53 34 38
337 163 209 91 74 56
400 420 349 49 31 30
423 803 229 62 49 46
473 921 294 92 77 63
353 427 139 83 62 47
288 733 293 170 18 55
337 168 204 100 82 62
337 168 209 93 75 56
336 173 194 118 94 65
309 513 262 69 26 34
337 173 209 97 79 59
401 97 239 135 24 49
262 433 204 132 8 37
336 710 306 36 21 29
443 483 324 182 125 103
288 837 249 57 48 49
462 926 271 98 76 56
359 383 235 88 74 60
428 728 318 170 113 82
336 173 214 91 75 57
395 163 249 108 88 65
336 178 195 115 91 64
337 178 199 109 88 64
403 243 274 125 97 64
408 494 68 197 11 41
336 183 195 111 89 64
321 661 286 123 8 36
337 178 204 103 84 64
426 633 286 123 91 61
282 303 223 127 98 65
336 188 196 110 89 64
348 758 195 97 33 37
373 488 89 175 9 43
328 979 289 54 51 50
414 448 324 76 25 33
336 193 196 110 88 64
301 532 261 44 24 26
337 208 219 92 75 57
338 188 204 100 83 64
338 188 209 99 82 63
326 252 201 118 89 57
443 453 314 130 100 75
338 193 209 98 81 63
459 910 296 63 54 48
370 861 176 107 80 60
366 278 242 89 75 59
313 438 169 46 35 31
337 178 214 91 75 58
278 478 265 137 23 44
323 178 225 85 70 54
372 493 93 129 21 42
388 607 297 61 27 32
418 753 321 170 125 90
408 383 269 119 94 64
337 183 214 93 76 57
388 419 184 93 79 64
385 789 176 97 74 50
478 463 124 102 53 43
336 180 217 90 74 57
338 188 214 94 77 58
363 183 278 117 96 72
350 877 316 142 109 82
498 509 134 219 20 58
314 277 256 111 87 60
338 193 214 94 77 58
349 323 245 123 95 79
337 188 218 92 77 60
503 478 259 110 27 43
322 184 227 85 69 53
373 920 333 31 30 31
393 104 232 140 25 38
329 463 110 70 33 38
323 188 228 84 69 53
265 393 249 126 98 67
303 303 211 128 95 64
307 432 172 50 37 30
279 628 199 79 30 39
393 83 223 152 17 41
323 193 229 84 69 53
325 186 226 84 69 53
289 533 148 87 19 33
362 138 254 113 89 61
389 338 285 136 105 73
462 450 146 101 54 42
395 429 322 129 5 39
347 873 319 145 112 82
378 947 319 58 52 50
464 456 133 115 38 33
368 594 306 192 4 61
451 536 292 175 2 55
313 483 144 52 25 33
373 738 320 54 30 34
329 193 225 83 69 54
293 318 214 119 93 63
373 903 313 114 79 67
334 333 239 73 60 45
422 612 219 121 35 48
363 133 254 113 87 59
401 193 264 118 94 66
368 878 293 50 41 37
365 133 251 118 91 60
379 436 104 95 78 60
421 704 215 59 39 38
265 533 194 148 16 42
332 808 286 173 118 99
429 441 148 95 79 61
298 404 191 95 84 72
441 572 282 181 20 63
397 907 274 68 60 59
365 139 251 119 94 66
303 472 137 50 19 26
402 828 224 59 50 50
293 468 266 66 29 34
283 698 284 58 23 32
368 138 248 123 96 64
272 669 252 131 99 79
283 368 214 110 90 68
444 489 315 180 126 105
491 512 262 176 14 53
365 143 251 118 94 66
362 148 253 111 88 61
360 153 256 111 89 63
488 426 242 65 33 31
294 703 200 122 16 34
328 12 284 133 68 64
286 653 207 149 4 36
458 473 84 115 33 33
365 148 251 117 93 67
283 898 309 186 130 115
393 223 280 118 93 64
364 158 250 116 92 64
368 153 248 118 91 59
394 407 213 95 80 64
367 158 248 117 91 59
324 22 274 133 34 53
341 54 271 124 11 44
389 68 221 134 16 34
403 398 229 95 82 69
370 130 246 122 92 56
345 370 236 91 74 61
373 248 289 131 102 70
400 342 259 112 90 66
370 133 246 122 93 57
383 203 283 122 96 68
408 543 318 61 33 32
276 318 234 133 102 70
423 423 199 98 82 65
373 143 245 120 90 54
435 558 304 152 106 78
522 926 322 91 74 57
383 133 243 121 90 54
404 68 249 119 35 48
256 435 217 157 1 43
303 306 211 128 96 64
323 213 235 88 72 55
378 138 243 120 90 56
378 143 243 120 91 56
388 133 245 119 91 58
298 380 201 104 87 68
468 478 282 127 13 41
378 432 129 90 75 58
446 572 278 183 17 55
381 508 92 66 36 39
383 138 243 123 93 57
378 488 84 179 10 43
258 648 259 181 131 107
481 440 272 46 28 29
511 512 204 187 16 53
383 143 243 122 93 56
468 552 179 81 27 37
331 247 215 97 78 56
373 223 287 126 101 73
370 153 246 117 88 51
328 938 345 44 41 43
342 946 347 58 52 49
416 473 339 54 32 32
256 457 213 40 31 33
309 828 268 179 134 112
392 153 245 112 89 61
395 450 332 97 16 34
378 148 243 120 91 54
288 938 269 61 58 59
346 453 97 142 4 34
387 53 268 99 48 49
483 503 99 102 30 40
378 153 243 121 92 55
501 478 262 110 26 42
426 587 201 120 26 45
318 313 218 79 69 59
398 468 340 116 26 44
271 588 257 146 100 80
386 94 232 141 15 38
302 398 272 139 99 78
368 668 294 146 12 45
383 148 242 122 93 56
275 628 251 142 96 82
308 258 253 113 90 63
368 432 114 95 70 54
383 153 242 122 94 57
503 430 231 68 35 36
406 76 242 130 16 49
378 158 242 121 91 54
247 638 234 162 112 82
367 163 247 116 91 59
373 878 294 40 36 35
310 678 191 77 29 35
359 848 295 149 117 90
363 168 249 111 88 60
317 412 187 99 84 69
498 912 308 91 69 51
364 163 250 113 89 61
253 758 212 146 105 71
378 313 289 136 102 68
361 168 252 108 85 59
298 723 295 179 11 56
448 931 320 79 66 53
263 414 209 108 39 36
441 705 302 145 99 64
337 797 206 71 56 47
327 24 284 133 53 61
376 29 260 107 93 80
413 693 317 171 124 96
363 173 249 111 88 61
500 441 202 58 37 36
359 178 254 110 88 63
429 758 228 70 52 43
401 198 255 114 92 67
411 420 196 97 81 64
384 436 118 94 78 59
356 228 264 109 87 64
354 798 190 49 41 38
360 183 250 111 87 61
359 183 254 111 89 64
330 233 198 116 91 60
359 193 250 117 93 66
375 865 222 66 59 60
369 163 246 116 88 53
358 193 254 111 89 64
393 408 209 96 80 63
344 63 269 125 90 73
394 233 281 122 96 64
368 862 184 104 84 74
362 178 248 113 89 61
505 476 112 97 67 50
362 183 248 118 93 63
318 463 134 89 19 30
458 925 294 65 51 46
333 433 165 50 39 34
364 178 246 116 92 62
396 49 226 111 37 29
333 497 121 163 5 38
368 178 244 115 89 55
416 415 226 103 87 70
365 183 246 117 93 63
423 562 159 126 20 44
368 183 244 116 90 57
360 178 251 109 86 62
280 273 225 123 95 63
243 693 239 143 100 68
362 193 247 124 99 69
367 187 243 116 90 59
338 378 234 79 67 56
387 74 222 149 15 38
359 955 336 61 56 54
279 338 264 125 93 63
367 194 243 116 91 62
418 543 124 198 12 43
428 432 174 97 81 64
477 541 170 218 21 58
247 703 223 127 93 63
502 502 120 187 22 55
373 168 244 117 88 50
446 586 216 202 18 52
328 258 234 83 67 51
373 88 274 100 45 46
400 794 217 58 50 51
378 163 243 120 91 54
341 378 252 100 74 66
378 168 242 119 91 54
455 503 290 147 3 44
429 672 278 74 53 40
393 568 314 92 25 41
383 163 242 120 93 58
404 213 264 119 94 65
378 188 240 110 88 61
383 193 239 105 87 67
373 178 242 115 88 54
372 182 242 115 88 54
532 469 149 200 41 42
373 183 241 114 89 56
402 388 234 92 80 69
369 188 241 115 89 56
492 450 170 103 35 35
370 184 241 114 88 55
419 662 317 178 126 98
388 432 139 91 75 58
328 208 189 125 96 62
360 173 273 120 97 72
280 688 215 64 29 32
378 178 242 116 90 58
398 248 244 105 85 63
463 910 308 45 40 38
272 568 193 48 29 34
502 508 244 125 18 44
433 783 323 174 120 90
373 518 309 53 25 29
378 181 242 115 90 60
383 178 242 114 90 61
406 68 230 97 37 35
412 703 160 90 68 45
384 180 241 113 90 62
353 614 168 114 35 46
383 181 242 114 90 61
390 625 291 152 16 49
404 223 254 114 91 65
334 333 244 73 58 42
258 567 218 122 20 39
431 658 294 139 97 66
322 198 186 128 98 61
263 748 264 126 82 64
453 758 228 106 72 48
369 205 241 109 86 59
389 348 238 94 83 73
324 198 187 127 97 60
396 98 252 103 63 53
334 420 176 95 80 64
298 793 280 69 57 51
328 198 189 125 96 61
293 333 213 115 92 65
319 279 208 119 89 59
411 536 111 233 18 54
285 333 272 136 97 74
322 202 186 128 98 62
323 208 187 127 97 60
281 262 235 120 95 66
360 591 307 184 15 58
328 203 189 124 95 61
408 528 324 77 22 31
318 523 130 91 26 35
356 108 266 122 98 73
510 462 251 155 16 48
454 903 254 97 78 69
331 198 191 122 95 61
328 663 188 144 0 34
401 64 225 89 44 29
323 218 189 127 97 60
323 223 190 127 96 58
422 479 56 122 42 41
326 223 191 127 96 58
333 198 194 117 92 63
286 411 197 103 89 75
435 476 67 111 50 45
296 888 277 150 114 84
384 799 174 94 70 47
333 203 194 117 92 63
330 208 192 122 95 62
360 133 268 119 94 67
333 208 194 119 94 64
453 547 154 121 33 45
298 498 263 161 18 52
368 293 238 90 78 67
392 514 87 171 14 39
274 811 272 168 133 108
428 798 324 178 126 95
318 443 264 128 12 40
335 200 197 111 88 61
348 415 221 80 68 55
335 203 197 112 89 62
415 681 246 61 0 35
269 383 259 129 98 72
335 208 198 113 90 64
305 485 137 68 20 25
357 883 303 145 113 87
333 198 224 88 74 59
300 473 134 136 4 37
465 725 271 83 64 47
330 214 192 125 97 64
333 748 298 71 59 52
329 219 192 124 96 62
332 218 194 119 93 64
368 24 260 105 90 75
363 408 194 92 79 65
334 792 292 188 138 118
433 618 309 159 107 73
331 223 195 118 92 62
334 218 199 111 88 62
342 858 209 46 42 43
362 893 220 63 58 60
412 398 264 116 93 65
295 863 313 165 126 103
307 493 154 89 15 34
333 223 199 112 89 62
359 894 218 67 62 64
416 683 249 51 34 33
359 263 246 108 87 62
386 40 262 88 64 35
388 399 215 89 77 64
335 218 203 105 84 60
504 505 133 172 34 62
383 826 292 53 45 43
459 560 183 98 37 41
334 223 204 107 85 61
334 328 239 75 60 44
395 499 332 77 24 34
378 402 209 96 81 67
374 563 318 152 16 47
368 896 312 126 90 72
335 223 224 91 74 55
469 728 264 73 53 43
448 763 229 103 71 47
336 197 196 111 89 63
363 618 295 124 30 47
361 110 271 118 95 70
239 798 230 179 121 90
343 884 189 97 79 70
272 363 259 129 100 70
357 233 249 107 85 61
441 792 235 70 55 49
240 774 257 156 114 82
336 203 199 109 88 62
358 558 298 96 15 34
294 533 159 69 27 32
335 655 187 162 4 39
336 208 200 109 88 63
337 203 204 105 85 63
288 443 173 97 28 30
338 718 308 84 27 37
334 228 209 103 83 60
422 536 116 53 33 38
338 203 209 102 83 62
278 388 268 135 101 76
438 682 249 73 56 42
337 208 209 101 82 61
357 443 88 50 38 40
336 203 223 92 77 61
336 212 200 108 87 63
368 230 242 96 77 54
337 213 209 103 83 61
336 218 209 102 83 61
308 458 267 63 27 33
362 430 114 90 64 46
403 473 339 59 20 28
411 658 249 72 30 35
440 713 238 79 56 39
353 53 279 120 28 48
386 364 292 126 99 67
378 447 74 87 71 52
344 768 302 73 60 54
390 105 261 100 66 51
336 222 209 101 82 60
363 873 194 78 66 59
339 428 273 131 4 39
350 71 272 124 99 77
378 728 178 59 46 39
448 474 75 106 53 43
443 932 319 70 59 50
400 493 337 123 20 41
364 634 188 93 36 45
337 213 219 94 76 56
336 218 214 99 80 59
402 940 313 72 66 68
433 446 134 97 74 56
336 223 214 99 80 59
402 348 264 114 91 65
336 223 219 95 77 56
337 783 296 52 43 43
406 888 302 44 41 39
323 198 230 84 69 53
494 510 128 224 22 60
349 368 245 89 71 58
397 273 278 132 99 68
328 198 228 84 69 54
321 200 232 87 71 54
248 553 259 158 114 89
323 432 135 87 32 34
262 539 234 104 9 33
358 963 264 79 74 76
487 463 273 40 27 30
325 202 231 83 68 52
463 513 285 143 6 43
434 579 198 199 23 54
448 824 293 81 69 60
301 881 331 125 97 73
328 203 229 83 69 54
427 506 76 72 37 44
323 208 234 86 71 54
331 204 227 85 71 56
353 428 114 91 58 39
327 213 233 84 69 54
373 763 311 74 62 57
518 493 129 172 24 52
403 429 164 92 77 61
322 223 238 88 72 54
358 93 273 109 46 51
328 223 234 83 69 52
385 672 291 52 24 29
261 548 219 160 5 44
268 833 249 204 142 115
370 58 276 104 52 46
330 213 231 84 70 54
413 703 164 81 63 46
383 243 239 95 80 64
330 222 231 87 72 55
365 163 277 116 94 70
450 738 294 149 104 72
392 49 249 111 98 85
310 489 151 74 12 27
335 218 226 91 75 58
464 569 219 79 26 37
416 847 250 71 55 48
379 497 90 156 13 45
271 737 271 141 12 43
325 230 192 128 97 59
437 724 231 62 49 41
393 478 64 70 36 41
358 73 275 114 43 50
342 354 225 88 70 53
388 153 243 122 94 59
320 235 192 125 92 53
407 694 165 88 63 48
381 946 304 82 74 72
398 459 64 99 82 65
327 238 195 123 94 58
392 143 249 111 90 66
439 488 325 175 122 96
363 18 294 89 53 47
333 228 204 108 85 59
461 496 76 225 14 43
303 473 129 143 1 35
333 233 209 103 82 59
289 378 205 102 86 68
289 373 206 111 91 69
340 382 278 130 87 69
331 236 201 112 89 61
258 423 209 115 28 42
331 238 204 107 85 60
284 483 171 98 28 34
284 358 215 118 95 68
298 478 266 66 28 34
335 225 214 100 81 60
379 803 179 98 78 60
403 419 309 72 56 47
295 863 309 171 132 106
458 910 309 42 37 34
302 845 238 113 93 81
334 233 214 99 80 58
405 575 158 198 19 51
460 715 256 107 78 54
253 662 257 175 131 105
378 33 259 106 92 79
337 867 219 40 35 38
335 225 220 95 76 55
313 273 203 133 94 63
363 233 284 123 99 74
378 793 306 69 60 56
331 353 257 70 56 41
343 488 114 53 34 37
488 509 119 225 22 55
335 228 219 96 77 56
533 468 154 195 40 43
335 228 224 92 73 53
302 718 192 94 27 37
398 577 155 197 27 55
383 381 227 96 83 71
393 94 228 148 20 40
334 233 219 96 77 56
448 516 100 58 36 43
383 436 114 95 78 59
296 518 162 80 27 36
333 238 214 99 79 56
402 455 76 97 79 58
324 371 207 93 82 71
381 481 320 112 9 40
455 790 276 72 57 46
382 708 317 88 29 39
333 238 219 95 76 55
391 658 211 86 28 35
322 248 196 129 93 58
394 323 248 94 79 64
368 17 269 105 82 71
325 244 197 125 93 56
276 328 234 130 102 70
409 658 244 82 27 35
378 383 224 95 82 68
342 863 224 39 35 39
328 243 199 118 91 59
327 248 200 117 90 57
353 683 192 122 10 29
368 433 99 93 73 56
356 381 228 89 74 58
328 248 204 108 85 57
331 241 205 105 84 59
444 798 304 156 103 73
394 383 290 127 99 67
284 328 220 122 96 65
287 298 270 109 86 62
447 465 95 108 54 41
391 344 241 93 82 72
330 244 209 102 81 57
299 513 154 49 29 33
291 794 276 56 47 42
283 793 274 62 52 46
329 253 214 98 78 56
318 318 218 81 70 60
425 845 267 78 64 58
470 487 281 139 3 42
413 853 289 38 34 32
331 243 214 99 79 57
293 323 214 118 93 63
418 443 343 130 12 41
331 247 219 93 76 56
344 543 135 152 10 37
332 243 219 93 76 56
332 243 224 92 74 54
357 378 238 85 71 57
408 373 264 113 91 65
329 253 219 92 74 54
293 588 153 94 28 37
328 253 224 89 72 53
459 441 173 82 63 53
481 440 191 56 32 39
393 243 243 101 83 64
398 823 220 59 51 51
402 363 244 94 82 69
323 233 239 84 69 52
383 903 249 77 67 65
448 478 314 143 103 79
328 228 234 83 68 53
357 887 185 104 88 81
363 39 286 136 16 51
326 230 237 80 66 51
329 233 235 83 69 53
333 233 229 91 73 53
360 796 302 40 37 41
302 553 142 157 1 34
331 228 232 87 72 55
239 723 244 153 103 75
334 408 267 114 13 38
331 233 232 88 72 54
451 576 268 42 36 36
352 494 112 88 30 39
331 238 232 88 72 55
465 565 207 29 29 42
320 236 241 96 78 58
497 523 234 177 18 51
321 240 242 95 77 57
343 19 301 133 92 83
373 420 174 90 76 62
324 243 240 82 67 51
368 688 198 89 23 31
338 903 335 150 110 87
327 248 238 81 68 55
277 393 214 101 86 70
453 919 324 39 36 35
287 373 208 107 89 69
356 814 192 55 47 44
329 249 229 89 72 52
389 133 264 112 89 63
313 422 178 90 79 68
386 591 166 195 13 45
327 253 229 89 72 54
324 248 240 81 66 51
432 663 294 141 99 66
358 508 114 87 27 38
406 236 256 116 93 65
381 811 201 52 49 52
327 253 239 81 68 56
447 552 287 162 24 57
333 781 201 79 61 54
342 781 201 70 53 47
294 269 257 105 86 65
421 617 273 95 29 40
328 253 234 85 69 52
460 749 249 63 48 36
378 58 273 122 41 54
410 718 198 51 43 38
415 431 168 93 78 63
381 56 272 124 8 42
362 300 236 87 76 64
467 738 268 67 49 42
312 343 273 127 87 68
332 243 229 89 72 53
432 663 304 141 95 63
331 242 232 89 73 56
332 458 144 29 26 30
329 248 234 86 71 55
325 252 241 78 65 51
393 188 244 109 89 67
448 463 285 125 6 38
333 508 125 163 1 35
359 198 249 123 98 69
352 632 181 51 38 41
356 363 237 83 70 56
256 508 214 161 11 46
357 198 254 111 89 64
343 971 309 73 69 69
394 668 213 89 25 30
373 318 234 88 77 67
458 433 279 86 13 30
327 268 219 89 72 52
359 203 249 121 97 69
276 628 213 88 28 39
364 878 184 93 81 72
444 498 305 143 46 54
368 14 279 104 64 58
396 198 246 105 88 70
359 208 249 118 94 67
357 208 254 104 84 62
403 692 165 93 65 48
368 198 243 114 89 59
363 783 304 64 57 55
253 648 259 184 130 105
397 53 225 108 40 31
361 203 247 126 100 70
364 203 245 116 92 64
330 887 201 90 77 71
361 208 247 123 99 70
351 543 128 159 10 41
369 208 241 107 84 58
387 684 298 101 10 31
400 213 248 106 88 68
376 826 192 69 51 47
370 196 241 113 89 59
446 793 294 149 98 70
358 213 254 101 82 59
271 438 182 148 2 37
310 848 264 177 127 99
365 160 277 113 91 66
358 218 249 109 87 63
270 602 215 93 29 38
360 219 246 121 97 69
358 223 249 108 86 61
368 592 159 206 12 47
303 388 199 94 82 70
383 223 238 95 81 65
447 531 121 88 40 39
357 218 254 98 79 57
366 213 242 106 84 57
351 282 275 107 84 60
373 253 289 133 104 69
398 253 244 104 84 62
369 213 240 102 81 56
363 218 244 110 87 61
288 418 278 156 16 50
390 885 307 41 38 37
393 248 242 102 84 63
363 223 243 106 85 60
328 14 279 133 79 68
384 599 173 202 17 47
402 709 174 77 59 45
356 236 255 94 76 55
283 417 184 136 41 32
365 220 241 102 81 55
406 81 235 143 31 57
298 473 265 92 28 38
365 222 241 102 81 57
391 148 267 115 91 64
260 533 224 165 5 46
290 617 257 73 29 36
373 198 240 109 87 60
453 758 264 68 53 44
298 948 329 54 44 43
378 203 238 103 84 64
282 663 214 53 33 35
323 488 119 90 30 36
383 203 238 100 84 67
371 202 242 109 86 58
370 219 287 123 99 71
293 718 198 59 32 35
449 468 294 123 55 53
388 872 295 35 32 31
378 213 237 97 81 64
453 753 229 99 68 44
267 528 268 158 108 92
455 767 268 68 51 45
436 506 322 182 127 98
383 213 237 97 82 66
393 884 307 42 38 37
507 511 159 97 34 42
378 218 237 95 80 63
359 439 85 102 34 33
297 304 212 134 99 67
392 153 268 114 91 65
378 223 237 95 80 63
273 678 220 101 67 49
410 387 265 115 91 62
357 544 296 67 29 35
399 202 270 118 94 66
315 643 282 75 22 34
383 218 237 96 81 66
356 228 254 96 77 56
282 328 269 127 93 67
373 323 233 86 76 66
396 399 292 117 93 65
405 228 254 114 91 64
339 398 269 84 60 47
356 233 254 95 76 56
355 239 251 92 74 55
365 228 241 99 79 55
379 798 180 86 68 57
368 233 241 95 77 55
391 394 221 91 78 66
368 233 242 95 76 54
363 238 244 102 81 56
418 678 224 92 59 40
475 524 276 178 14 55
367 238 242 94 76 54
353 303 244 83 70 57
358 243 248 119 94 66
308 967 319 63 59 59
296 935 252 74 68 69
355 243 251 101 80 57
269 393 229 112 91 67
332 400 196 98 83 69
357 971 284 77 70 70
333 903 212 84 73 73
363 908 319 65 53 45
534 453 224 166 13 53
383 78 268 100 67 54
488 503 104 225 23 55
355 248 250 123 97 66
362 883 189 91 77 68
348 73 269 115 80 65
507 906 270 90 76 67
368 298 238 90 79 68
333 613 293 60 30 34
354 248 254 91 74 55
358 248 249 131 102 69
358 353 295 136 101 70
355 253 250 132 105 73
353 253 254 90 73 54
361 782 187 67 53 46
363 243 244 102 81 56
308 456 137 54 18 32
419 623 278 70 42 39
319 473 119 67 31 36
265 415 199 72 35 37
431 455 106 97 71 46
291 279 207 144 103 71
366 890 312 148 115 92
362 248 248 106 84 57
367 248 243 95 76 54
401 92 230 135 37 51
324 396 198 95 84 74
351 474 291 147 0 43
266 510 187 150 4 33
298 964 304 68 63 63
343 608 298 67 33 38
364 254 245 97 77 53
302 260 197 141 99 65
260 554 230 94 16 32
392 443 324 89 19 35
434 608 314 167 115 82
368 253 243 95 76 55
399 348 249 95 82 68
373 233 239 95 78 59
298 403 274 114 66 55
293 358 276 140 99 80
373 238 238 95 79 60
278 328 254 120 94 62
378 123 273 115 92 66
468 549 174 102 30 42
375 240 236 95 79 62
356 26 297 133 29 50
388 123 244 122 91 56
381 128 272 113 91 66
383 228 238 94 80 64
493 483 269 87 31 39
378 238 237 94 79 62
424 431 296 108 86 61
375 242 236 94 78 62
437 693 304 151 103 69
463 922 265 92 73 62
266 443 192 137 21 42
373 248 240 94 78 59
364 358 231 83 72 62
308 849 323 135 112 91
378 828 175 121 93 69
377 241 236 94 78 62
378 248 239 94 79 63
385 462 61 94 36 43
346 74 265 119 24 42
280 318 225 131 101 68
408 573 309 85 57 51
383 248 239 94 79 64
388 473 64 102 28 38
332 33 269 126 24 43
378 253 240 92 78 62
311 838 274 169 127 103
260 533 205 50 32 34
338 333 279 114 75 56
369 247 241 94 76 56
371 250 242 95 77 57
402 648 304 164 119 101
313 966 329 69 65 64
372 253 242 94 77 58
380 434 312 31 28 29
328 979 284 66 61 59
379 28 269 92 65 49
374 253 241 93 77 59
284 313 220 125 98 65
413 723 210 61 42 41
390 32 225 93 51 53
353 19 265 100 71 53
388 63 224 94 30 24
348 779 202 62 47 42
494 920 289 99 79 64
351 484 107 84 32 41
393 63 222 105 36 24
331 569 152 113 24 34
284 378 210 102 86 70
353 68 275 116 38 51
246 663 251 173 120 97
393 38 229 95 39 39
473 789 283 93 69 53
390 39 229 95 44 42
390 43 229 99 50 44
453 553 164 86 33 39
393 48 226 118 26 25
396 158 259 112 90 65
323 11 294 134 37 53
260 473 199 77 34 36
393 43 232 89 61 49
388 50 234 109 93 81
434 568 290 69 30 36
394 40 226 101 32 35
380 940 268 77 69 70
396 35 228 94 35 37
322 633 286 120 29 46
396 43 229 98 24 34
338 966 256 91 87 90
359 163 259 111 89 64
398 48 229 98 27 32
326 266 209 103 80 54
372 19 269 105 74 65
358 33 289 131 36 55
403 908 299 49 44 42
235 773 230 164 112 80
396 45 232 81 36 17
295 380 201 106 88 68
418 562 154 59 33 37
318 567 150 79 29 36
397 49 233 88 48 38
433 493 330 172 122 92
402 253 249 105 84 59
388 47 249 114 100 85
346 323 247 124 94 74
355 506 116 148 7 40
402 413 288 106 85 62
410 391 252 110 89 66
370 486 91 185 11 45
451 827 297 70 58 50
319 298 218 75 64 54
358 14 294 98 41 46
261 528 235 109 13 36
443 834 294 72 58 48
387 45 250 113 98 82
308 798 283 82 61 53
434 426 286 100 27 33
333 908 339 148 119 92
393 53 225 111 23 23
256 503 209 157 7 42
295 941 327 188 139 118
267 378 244 118 93 64
306 482 136 83 18 32
386 51 232 114 98 84
416 404 247 94 79 64
402 703 174 74 59 50
236 808 249 193 137 109
386 57 227 84 46 25
393 833 289 53 45 42
394 51 239 110 95 81
393 808 205 57 50 51
393 729 182 58 45 42
399 52 234 86 40 35
369 138 277 116 93 68
349 945 346 63 59 59
392 50 244 119 106 95
392 49 254 93 77 54
398 54 244 135 123 115
416 556 141 203 11 51
417 420 273 107 87 66
394 203 243 105 89 72
397 54 249 101 85 75
282 338 270 137 98 72
383 455 66 70 56 46
362 718 321 165 16 52
400 56 244 115 99 95
398 58 254 99 30 37
403 747 189 57 46 46
446 801 250 82 66 57
428 498 69 172 18 42
394 93 255 118 44 52
348 967 314 65 59 57
325 554 283 127 5 38
348 633 180 68 32 40
401 55 234 84 31 32
398 426 169 92 77 61
347 413 289 143 9 44
478 455 144 111 68 49
314 613 282 70 30 37
373 907 315 77 56 48
300 476 133 136 3 41
408 848 234 65 54 51
358 958 329 63 57 55
402 58 229 84 36 29
403 63 229 83 37 31
319 478 119 72 34 35
303 458 163 53 36 28
402 58 234 83 34 31
306 923 237 72 65 66
295 918 256 105 79 67
478 452 154 117 58 46
288 288 214 144 104 74
402 58 239 80 32 33
405 62 239 93 35 37
400 56 240 99 91 88
402 58 244 75 31 31
262 423 204 95 31 39
404 426 173 93 78 63
403 63 249 108 36 40
401 60 252 107 33 45
401 63 252 112 29 41
393 68 221 118 26 29
354 353 240 83 69 56
304 568 272 120 19 44
357 891 191 93 81 77
339 453 273 134 7 40
393 73 221 140 17 33
373 788 181 60 47 42
388 78 223 150 15 40
393 78 222 143 19 38
264 398 239 119 95 67
396 69 221 119 35 30
398 253 279 123 94 63
468 427 229 61 39 37
426 556 151 216 18 53
407 738 204 73 58 50
344 388 213 79 69 58
294 679 273 123 9 37
508 434 224 60 33 40
404 466 57 84 69 60
373 243 289 128 101 71
382 458 315 57 27 31
399 73 222 132 31 35
268 458 266 153 111 106
338 393 204 90 78 66
453 465 100 116 39 35
368 298 292 139 100 67
398 93 228 145 33 49
297 305 277 119 89 64
394 76 221 137 15 32
398 78 222 137 30 40
423 623 323 177 123 92
331 304 231 79 68 58
515 471 132 138 82 50
449 446 148 103 64 49
276 402 212 93 81 70
388 83 224 152 16 42
402 68 225 91 48 26
262 588 262 164 115 89
314 857 255 180 122 89
400 343 254 106 87 67
341 453 276 137 6 41
403 73 225 113 36 35
402 78 225 125 41 47
392 308 245 97 82 66
398 68 255 110 43 49
383 38 259 100 88 75
498 528 199 81 33 38
338 553 293 163 12 50
344 348 234 114 84 67
398 73 254 99 46 48
334 558 292 160 10 49
397 228 278 120 95 65
244 714 253 154 105 79
411 706 161 89 65 44
395 73 256 109 64 62
407 437 352 105 28 43
391 144 246 112 89 62
294 918 259 68 58 55
395 78 256 114 50 53
363 618 178 93 36 43
398 78 254 107 48 51
485 871 272 61 49 38
260 418 205 66 35 36
330 21 293 147 107 81
448 452 129 111 53 42
273 528 263 102 45 46
421 622 268 177 16 53
386 85 227 151 19 43
373 133 276 116 93 67
387 88 228 148 16 42
323 468 264 114 15 39
393 88 225 152 17 40
355 263 279 120 94 67
371 15 283 103 55 51
388 93 229 146 16 39
324 268 209 107 83 54
323 583 159 123 23 40
413 498 334 86 56 48
398 88 225 149 27 47
388 415 194 95 80 65
337 388 205 89 77 64
323 18 294 173 125 117
365 431 118 89 70 52
363 37 287 126 20 45
338 963 329 83 77 76
385 163 276 118 94 68
302 803 281 53 42 41
395 84 255 108 59 55
422 703 219 56 41 38
395 88 255 115 54 57
517 458 243 165 11 52
389 98 265 111 53 52
368 436 89 90 71 54
313 758 193 103 24 37
398 83 253 107 36 45
399 88 250 110 40 49
438 451 124 104 62 43
493 428 234 69 39 36
343 53 274 121 63 59
397 88 253 110 56 57
523 442 214 77 33 34
372 493 314 43 29 31
399 93 250 122 25 47
399 625 207 59 35 38
340 52 260 114 18 40
293 603 164 170 18 47
404 68 228 90 42 31
353 672 300 39 30 32
405 73 227 115 33 39
346 64 271 123 15 44
343 28 260 87 72 54
287 743 197 74 37 41
258 698 217 129 97 61
468 798 291 93 70 55
364 528 109 95 29 38
407 68 234 106 37 39
407 68 239 112 40 47
298 274 202 145 101 68
407 73 239 125 25 49
378 363 295 125 98 64
356 233 264 106 85 62
428 915 264 72 61 57
405 79 239 134 26 52
358 420 171 84 70 56
406 65 243 107 43 45
430 598 292 142 94 71
338 893 204 81 70 67
263 438 254 59 25 30
408 427 174 94 79 64
383 943 294 79 71 71
406 68 244 118 38 48
461 541 151 222 22 56
405 66 246 115 40 47
406 73 244 125 29 49
391 169 272 116 92 64
371 20 265 106 86 74
478 494 84 145 31 48
406 69 247 120 33 51
406 455 81 96 78 57
315 266 251 109 87 61
406 72 247 126 33 52
387 333 240 89 79 69
402 68 253 118 29 46
450 808 286 85 63 54
490 472 271 91 28 36
373 108 273 119 95 69
402 73 253 124 26 49
367 779 306 69 59 56
343 433 104 126 22 29
404 73 249 129 31 52
440 600 239 141 20 47
388 933 343 43 38 34
405 78 244 131 20 52
500 500 113 223 23 59
318 512 126 99 19 34
377 543 319 79 21 36
371 15 280 103 57 53
403 78 249 129 13 47
315 348 271 126 86 67
236 751 232 160 108 78
356 238 269 110 88 64
456 792 264 83 65 58
247 718 218 130 96 63
343 927 340 40 37 38
402 82 226 125 27 41
403 88 234 145 22 51
238 768 254 154 112 79
245 653 249 157 112 82
405 80 232 139 25 48
357 888 205 75 66 66
328 263 219 91 73 52
382 581 156 173 20 50
402 93 234 132 30 48
402 88 244 132 13 50
331 298 244 83 69 53
401 93 244 130 18 49
401 93 248 129 22 49
347 798 208 59 50 49
389 98 231 144 16 37
310 550 272 133 9 39
321 303 221 76 67 58
313 463 161 47 35 27
393 98 230 147 24 42
368 488 94 179 9 43
393 102 231 146 28 43
340 871 326 149 115 83
387 99 232 140 16 37
282 263 214 131 101 67
418 910 300 59 53 49
266 538 193 104 23 39
342 308 264 84 66 46
308 394 196 96 84 72
418 613 324 171 123 96
439 447 314 87 71 54
368 123 275 117 94 69
348 833 204 54 45 43
379 113 271 117 93 64
390 584 306 105 23 38
399 283 274 133 97 67
388 108 234 146 21 38
385 111 236 152 30 41
401 348 254 108 89 67
369 483 90 176 8 42
311 567 276 114 9 37
393 108 234 125 54 54
411 388 264 114 90 63
378 378 228 95 83 71
397 98 230 120 66 59
296 912 258 112 84 66
297 853 314 170 129 107
363 373 234 89 76 63
451 801 265 88 66 60
396 102 231 132 43 33
389 600 301 53 26 31
396 111 236 124 112 100
366 601 166 138 25 44
423 588 199 52 32 38
344 443 100 122 18 29
368 68 275 114 75 66
393 111 243 121 79 64
250 723 257 157 109 81
438 557 159 136 24 45
389 113 244 123 83 60
388 158 242 121 94 61
353 428 119 102 55 38
393 107 254 106 70 57
239 723 229 137 97 65
339 430 110 136 15 26
480 495 87 57 41 35
248 603 259 153 109 83
317 370 206 91 81 71
404 565 300 68 49 48
370 34 286 124 102 83
269 678 256 134 102 80
390 110 250 121 83 63
295 588 267 147 13 44
349 57 277 116 17 41
308 278 203 133 94 64
346 813 209 55 50 50
394 98 255 109 73 61
250 759 262 158 117 88
298 803 279 67 56 50
283 632 190 62 36 40
352 83 271 107 54 50
338 703 187 95 27 35
446 719 298 146 101 67
394 103 255 115 37 48
347 68 270 118 33 48
475 540 266 160 27 56
334 815 217 71 54 49
392 328 283 135 102 73
399 103 249 122 18 46
397 288 249 107 87 64
318 403 194 95 84 72
369 448 75 152 17 35
399 108 244 126 28 47
339 863 230 48 44 47
397 107 249 125 33 49
339 863 214 43 39 39
343 583 144 90 24 36
397 111 243 135 46 58
368 518 104 57 33 36
396 106 252 116 33 44
493 473 109 94 59 44
500 515 240 190 15 54
299 933 245 76 68 68
343 553 139 41 32 38
388 113 239 137 83 65
388 118 244 125 88 59
423 419 239 96 82 72
496 497 262 151 20 53
353 433 94 99 33 31
390 118 254 102 79 51
388 128 244 121 92 57
393 713 180 70 58 49
390 127 254 111 88 62
348 353 239 104 79 66
519 916 314 98 78 58
463 935 324 84 65 50
400 99 239 133 26 50
325 885 234 38 36 38
358 703 192 116 16 26
423 493 333 163 116 89
353 17 269 103 81 65
340 388 277 129 86 68
390 132 248 113 90 62
477 755 292 92 71 51
319 518 267 59 25 32
388 138 244 118 92 58
264 408 254 129 100 74
263 443 254 64 23 31
391 138 246 112 89 62
392 138 249 111 90 66
393 143 254 112 91 67
447 572 195 114 36 47
459 728 258 110 77 55
373 554 123 202 12 40
392 158 245 112 89 62
393 148 249 110 89 65
424 809 232 67 54 51
394 148 254 113 92 67
398 917 326 42 39 38
380 487 80 178 9 43
304 542 136 60 29 34
451 746 238 79 48 41
396 155 256 112 90 65
368 518 310 45 27 31
388 173 243 117 93 63
531 486 184 103 35 42
395 168 248 108 88 65
280 596 166 89 23 34
237 783 229 169 114 83
395 162 252 110 89 66
283 778 200 159 111 75
396 164 251 109 89 67
437 432 287 59 22 25
295 623 262 63 21 33
373 293 238 90 79 68
412 419 277 121 96 69
338 543 139 172 2 35
343 16 272 115 61 53
398 173 254 114 93 68
268 413 209 110 71 59
388 193 240 105 88 69
478 422 259 69 30 31
413 733 318 177 128 99
393 183 244 110 90 67
390 188 242 109 89 67
278 439 270 121 23 43
353 638 184 89 35 42
388 945 341 65 59 56
391 193 241 107 89 70
283 803 273 57 48 42
485 466 122 94 61 48
295 301 211 133 99 68
393 193 243 107 89 69
287 498 168 83 28 35
286 267 251 109 87 64
364 483 95 175 8 39
323 452 162 49 33 29
395 182 247 106 87 67
338 497 120 169 5 42
397 178 249 108 88 67
432 648 309 149 103 69
396 193 246 104 87 68
355 381 228 89 74 58
364 448 307 66 35 39
339 16 272 124 54 54
398 193 249 106 88 68
408 913 289 61 53 51
318 961 255 87 81 83
284 378 272 140 103 79
273 688 258 75 37 32
373 909 318 49 39 37
400 188 254 112 91 66
333 318 239 78 64 49
345 299 265 83 66 47
320 15 281 146 99 82
245 663 244 152 107 78
263 478 269 87 54 45
400 193 253 111 90 67
382 518 310 86 24 37
368 103 273 125 101 73
392 203 241 105 89 72
367 15 274 104 74 65
360 194 277 119 96 72
258 763 266 159 119 90
236 758 240 160 112 80
398 198 249 105 88 69
393 213 240 104 88 70
308 483 266 62 29 35
378 173 281 119 95 68
355 263 282 122 94 67
276 713 280 151 13 47
395 212 242 105 89 71
400 308 264 125 95 65
333 648 184 162 10 39
269 653 250 148 105 87
388 218 238 98 82 66
511 511 212 179 16 51
388 223 238 98 82 66
287 303 218 127 97 65
334 444 161 51 29 28
393 223 240 102 85 66
404 589 184 201 14 49
427 437 342 159 14 49
392 383 292 126 99 66
398 213 244 105 88 70
358 563 299 91 16 34
338 773 197 81 60 53
436 507 310 137 98 79
264 428 199 151 6 43
408 458 343 75 15 28
403 441 352 35 27 29
404 715 155 87 65 48
396 223 241 105 87 68
458 503 84 161 18 44
398 938 340 50 44 41
398 223 244 105 87 68
441 685 244 62 46 40
465 704 272 98 74 51
410 391 244 99 83 66
383 168 278 119 95 67
401 193 256 115 92 65
276 498 177 143 2 34
253 528 243 122 83 62
323 493 264 50 23 28
394 308 280 131 99 69
400 201 252 109 90 67
403 208 254 114 92 67
272 628 218 79 53 44
402 213 250 109 89 66
403 213 254 115 92 67
349 563 135 117 26 41
400 216 247 105 87 68
267 388 234 116 93 67
402 223 249 107 88 66
372 784 306 69 59 57
277 338 259 119 92 61
361 905 317 100 77 63
269 383 230 115 92 67
465 735 271 75 57 45
296 900 331 191 141 125
388 233 239 97 82 65
345 393 287 141 100 80
393 228 240 101 84 66
383 363 293 126 99 65
392 238 241 98 82 65
395 230 242 102 86 68
341 470 107 178 10 43
413 563 149 109 31 45
395 233 242 102 85 67
318 812 282 190 139 117
326 453 135 89 27 36
367 621 181 149 36 45
396 226 241 103 86 68
398 228 243 103 86 68
287 318 217 124 97 65
319 13 298 128 36 49
394 238 242 101 84 65
418 429 174 96 80 64
388 248 239 98 82 64
406 757 316 166 122 95
328 303 229 82 72 61
390 244 242 98 82 64
297 950 263 80 74 75
350 275 256 82 69 54
323 723 188 74 34 39
348 13 299 115 54 63
288 363 209 118 95 68
349 579 297 123 12 39
392 253 241 101 84 64
313 493 264 39 25 29
408 919 327 45 41 40
401 233 246 103 84 64
253 822 263 210 150 124
407 398 235 97 83 69
296 510 162 112 11 36
403 233 249 105 85 63
401 238 246 103 85 63
287 881 310 117 91 68
263 488 274 148 106 86
434 575 188 129 29 48
406 233 256 115 92 64
401 242 246 105 86 63
494 426 242 69 30 35
400 246 247 106 86 63
331 363 257 65 52 38
405 248 254 113 89 61
503 917 303 81 65 53
