ply
format ascii 1.0
comment Created by Open3D
element vertex 2195
property double x
property double y
property double z
property uchar red
property uchar green
property uchar blue
end_header
410 758 260 104 74 54
417 473 340 48 28 31
417 922 334 83 73 66
387 483 335 55 25 30
227 708 239 97 64 54
387 488 335 120 23 45
387 493 333 55 26 31
225 883 287 153 116 87
397 493 333 131 25 46
247 638 244 134 3 33
391 484 336 79 26 37
327 608 336 147 22 51
392 498 333 96 27 39
392 503 333 75 23 32
236 825 266 68 55 52
392 508 334 111 18 38
397 503 333 101 22 39
397 508 335 100 19 37
402 488 335 58 28 34
407 488 334 79 33 40
225 580 232 36 27 28
402 493 333 125 22 47
362 908 344 49 43 39
391 850 266 101 78 82
412 488 334 74 28 36
412 493 334 85 23 35
417 493 333 117 22 43
402 482 338 34 30 33
297 578 320 74 20 30
402 484 336 35 31 32
416 481 337 66 29 36
261 789 203 61 49 43
402 503 334 77 25 34
407 498 334 67 30 35
230 723 316 171 13 55
407 503 335 101 23 38
405 511 321 147 13 41
226 682 196 140 94 59
413 503 324 110 24 40
412 503 333 81 27 36
216 563 295 155 20 52
417 498 329 80 30 37
192 638 213 169 122 103
411 508 324 105 19 38
402 527 297 55 22 30
410 512 325 143 20 40
322 902 265 77 66 65
410 512 329 176 19 53
292 725 196 56 41 36
410 507 333 70 31 32
284 901 336 47 41 36
433 453 324 151 15 43
352 788 226 61 49 44
432 458 324 157 16 43
431 463 325 139 20 41
414 769 267 108 77 57
432 463 329 156 21 49
369 868 367 61 51 48
418 450 337 97 5 28
422 453 340 130 10 40
262 691 229 65 34 46
432 913 244 96 78 61
422 463 340 52 30 32
445 910 230 100 81 72
427 453 340 154 16 48
427 458 340 102 22 40
431 457 338 167 13 54
429 464 335 83 31 37
261 774 190 93 70 50
272 823 294 169 130 105
430 462 337 117 20 40
423 478 323 58 30 35
210 534 259 154 0 43
417 768 269 114 83 65
428 468 323 86 31 40
306 931 364 55 50 48
215 646 221 124 92 76
427 473 324 75 31 39
326 696 209 63 43 35
358 848 248 83 65 59
430 467 325 106 32 42
405 682 272 96 74 48
426 473 334 82 27 37
279 872 325 85 70 54
425 477 325 58 35 36
425 477 329 42 31 32
422 473 338 69 25 34
421 477 337 162 27 57
434 455 327 168 18 48
277 763 199 59 48 44
434 459 329 178 15 51
435 456 329 182 15 54
435 456 334 183 11 57
419 488 322 65 27 34
212 663 189 167 112 78
421 488 324 49 31 34
268 904 215 90 77 76
422 483 334 53 30 34
381 538 320 105 10 36
427 641 314 112 92 70
102 557 175 216 141 120
421 487 333 119 33 47
296 902 370 36 34 35
418 493 323 131 22 43
418 493 329 97 27 40
419 490 331 76 22 36
242 698 229 75 57 50
441 628 374 142 111 89
418 480 336 115 26 46
64 528 174 184 127 113
72 518 174 101 90 79
402 758 303 179 122 94
71 527 167 107 86 62
67 523 174 100 84 68
68 524 170 95 82 70
72 523 169 100 83 64
240 887 277 135 109 83
98 553 197 138 110 100
70 522 172 95 83 70
73 519 170 101 88 74
76 516 173 121 107 95
78 515 175 123 107 96
282 975 309 77 75 77
399 564 272 98 29 41
73 529 166 120 91 63
77 526 167 127 93 66
374 620 295 48 24 27
77 528 166 129 92 66
202 683 219 148 108 82
67 519 179 113 89 73
258 746 322 37 30 34
67 518 184 139 93 81
71 517 179 107 91 80
72 519 185 144 90 84
69 515 185 133 98 84
72 514 188 141 101 84
356 601 337 153 22 51
65 521 178 108 85 63
408 659 284 109 83 60
67 523 183 149 95 90
337 553 184 91 35 42
371 608 314 140 18 46
133 552 189 97 85 73
65 529 180 181 124 118
227 568 224 84 33 41
67 528 182 165 125 114
211 563 254 118 10 37
219 943 333 58 45 44
177 618 183 147 103 66
133 578 202 157 117 101
73 515 180 113 91 77
82 543 164 141 100 76
77 513 179 115 94 78
77 517 183 120 88 74
370 690 292 44 21 28
76 514 187 136 90 82
393 538 223 109 22 37
297 623 224 117 22 39
352 863 359 46 39 37
75 516 187 131 90 74
345 674 317 139 10 43
78 523 180 114 76 68
225 653 191 140 94 62
490 610 467 158 115 98
67 533 169 183 121 108
73 537 166 176 118 102
292 874 194 93 72 61
183 642 204 184 129 104
312 623 224 85 28 39
402 533 295 52 24 30
77 538 165 155 108 85
75 540 167 194 129 117
78 542 166 169 113 94
102 538 164 162 108 87
73 542 174 170 105 98
70 535 180 162 99 95
72 538 179 143 84 81
341 803 226 65 53 51
178 637 194 202 136 106
247 653 245 131 11 37
76 535 187 147 103 91
444 674 304 172 117 85
385 880 282 49 42 37
76 543 184 166 110 99
365 621 312 158 8 50
76 538 186 155 108 95
78 543 188 162 117 103
478 618 449 113 86 68
82 518 170 118 100 80
84 515 171 113 95 77
87 514 170 114 94 73
87 518 169 127 99 69
292 623 335 161 29 57
367 653 284 97 25 37
82 529 166 138 101 73
247 558 200 99 24 38
87 523 175 117 87 75
393 699 270 94 67 42
430 701 292 178 118 86
87 528 176 99 72 56
89 525 166 128 104 78
92 524 166 133 102 73
349 865 359 47 41 38
92 528 165 121 94 66
342 579 203 191 9 44
242 678 209 86 65 47
221 523 294 101 24 37
96 525 166 127 100 71
97 528 165 124 98 71
92 523 173 120 83 75
86 516 178 117 74 69
80 528 177 115 76 68
257 973 289 82 77 77
290 908 235 80 73 73
83 528 176 105 71 62
395 542 229 178 17 48
312 884 308 35 34 36
82 533 165 139 99 74
92 543 163 181 117 92
95 539 161 137 99 66
291 775 188 71 55 47
97 538 162 132 96 67
245 610 232 47 33 35
328 910 364 58 50 47
93 541 161 169 110 83
80 535 183 107 67 56
87 533 178 95 65 51
87 540 188 92 68 52
404 764 301 178 121 92
87 542 190 95 74 54
97 530 177 128 91 81
92 539 184 77 60 43
96 540 187 77 63 47
324 880 368 43 36 33
79 546 166 186 126 110
79 551 174 177 112 101
354 881 262 69 56 53
79 551 179 162 107 92
356 643 250 122 32 45
79 551 182 145 89 77
82 548 165 183 117 104
81 550 168 204 135 125
82 552 169 221 146 134
87 548 164 183 115 96
84 551 166 219 138 126
87 551 166 226 147 132
232 747 198 139 96 66
392 758 306 178 126 97
87 553 169 235 152 139
214 562 241 54 24 29
86 555 173 229 151 135
442 927 339 95 83 76
200 632 216 141 107 90
223 738 299 174 10 54
444 893 185 86 72 61
88 556 175 229 156 136
91 551 166 217 140 123
352 868 350 47 40 36
97 547 165 206 136 109
94 550 167 201 122 104
97 552 169 212 137 115
367 728 309 149 11 45
92 555 172 232 150 131
315 542 335 136 14 42
224 951 342 50 47 48
98 555 172 217 140 122
277 904 358 39 37 39
415 723 249 66 51 38
82 553 184 166 109 95
267 932 373 65 58 57
81 549 190 165 114 104
327 898 309 37 35 35
83 552 189 184 128 118
200 718 219 166 111 79
210 788 266 169 129 102
188 648 189 198 131 102
87 553 189 195 138 125
86 554 184 185 126 108
357 885 309 53 45 41
88 557 184 198 135 115
174 631 190 204 136 108
242 846 312 97 79 61
193 657 194 210 139 106
92 559 179 227 153 132
237 768 204 135 89 55
234 831 252 61 47 45
97 560 179 229 150 130
89 556 188 202 140 124
234 860 291 110 87 59
373 840 290 81 45 37
354 654 253 110 16 37
92 557 189 201 141 125
317 853 285 43 34 29
96 559 189 205 144 127
262 878 264 107 84 63
95 560 184 215 145 123
99 515 168 132 101 81
102 517 169 130 96 80
322 658 235 91 28 31
102 520 172 119 87 76
102 523 166 134 101 77
102 528 165 108 87 65
100 526 167 110 89 66
297 703 194 76 56 44
177 593 208 105 84 65
376 563 324 95 29 41
98 520 172 118 86 74
102 523 174 111 81 68
102 527 176 122 86 75
282 631 332 148 36 54
105 520 166 141 103 80
227 678 195 143 96 61
106 524 166 138 102 77
444 943 317 95 87 82
107 528 165 117 90 65
442 661 348 205 134 109
456 825 386 79 61 45
227 802 278 58 49 47
110 525 166 129 100 79
110 528 166 117 91 61
317 888 374 47 40 35
248 687 209 78 52 43
340 714 342 78 38 43
107 523 174 108 83 68
105 526 176 120 87 77
113 527 174 99 84 68
103 544 167 175 113 90
107 533 165 139 99 75
262 978 294 61 57 57
110 532 166 155 108 80
112 533 168 177 119 104
314 525 157 105 25 37
108 539 168 172 112 96
112 538 170 173 115 97
421 783 270 117 85 65
111 542 171 164 110 87
102 533 179 117 89 75
102 536 181 110 87 70
102 542 189 86 72 57
107 532 180 116 89 73
111 537 186 117 91 73
115 533 171 153 108 88
372 833 299 139 100 82
115 529 174 102 86 71
225 605 247 81 30 36
404 722 307 171 122 96
117 538 174 162 115 94
238 748 313 87 34 43
232 588 229 134 9 38
384 714 284 68 49 31
278 965 331 72 71 73
117 543 175 171 120 99
116 530 179 99 84 68
117 533 184 92 79 67
117 537 189 98 83 69
373 834 258 91 67 57
120 535 179 107 91 75
120 535 176 122 97 73
218 645 222 112 80 66
120 538 176 138 102 78
121 538 179 126 99 77
397 912 289 82 67 59
122 538 184 108 88 71
345 896 270 59 51 49
120 541 176 159 110 89
255 833 275 173 126 98
124 542 183 120 95 73
122 539 189 91 76 62
229 777 292 78 66 61
439 641 319 105 90 74
362 822 236 75 58 50
209 528 259 150 0 41
429 703 294 180 118 89
124 541 189 98 81 65
282 652 232 121 8 29
125 544 185 111 90 71
100 546 166 194 128 103
107 553 174 192 125 102
352 643 310 159 8 50
108 549 172 172 115 91
112 548 174 166 113 88
112 552 175 176 117 91
376 863 270 67 58 54
107 558 178 213 140 117
108 555 177 198 128 104
277 793 305 52 44 44
177 618 210 163 123 104
102 564 189 218 151 128
507 962 284 104 86 68
105 565 189 222 151 128
116 548 176 158 109 84
245 685 206 85 61 45
324 885 388 64 51 40
384 540 212 147 28 47
122 548 180 159 116 90
121 553 181 156 110 83
124 548 182 138 107 81
127 553 183 117 94 68
129 547 189 94 80 66
269 629 327 118 18 38
287 873 194 104 82 65
229 653 270 54 34 35
127 558 182 136 99 66
117 562 181 179 118 92
117 568 183 183 120 92
297 793 312 57 49 47
118 572 185 192 125 100
396 578 284 96 29 43
117 573 189 208 135 113
243 717 191 81 57 44
313 798 218 65 54 51
122 563 182 147 101 71
200 748 235 161 115 83
314 890 350 38 36 36
127 563 182 149 101 72
83 544 192 127 97 80
87 544 192 112 89 69
234 966 311 63 58 59
92 545 192 108 89 71
211 553 264 147 0 42
92 548 194 129 103 88
97 545 192 100 83 66
97 548 195 117 95 78
407 848 374 57 48 41
242 723 194 84 56 41
117 542 195 112 91 72
237 748 199 131 85 61
375 729 254 73 50 45
121 540 192 92 78 63
357 893 389 86 73 64
122 543 194 95 78 61
257 955 262 93 85 88
352 623 233 158 26 48
126 544 194 89 73 56
102 545 192 96 80 64
444 898 190 100 84 69
452 641 398 198 135 113
382 778 308 169 124 92
102 553 197 132 106 93
111 546 196 111 89 69
107 558 200 150 119 106
320 531 323 138 9 43
327 673 327 154 13 49
106 565 194 213 152 131
108 567 194 211 147 126
109 566 198 195 142 125
111 564 201 172 132 117
118 545 197 119 94 77
121 545 197 110 88 69
194 783 229 168 118 83
232 738 200 126 85 57
122 548 198 122 93 77
127 553 199 109 90 72
446 653 314 124 97 64
240 686 311 40 30 36
338 839 239 58 50 50
127 558 200 114 94 77
113 562 202 163 125 111
307 752 332 79 57 54
117 563 202 154 117 101
252 773 303 75 62 56
117 569 200 168 127 109
114 571 197 193 138 120
117 574 194 208 144 121
122 562 201 127 101 85
122 564 202 135 105 90
242 873 279 125 96 66
417 848 374 64 52 44
122 568 202 156 119 102
127 564 202 129 104 87
127 568 202 136 106 89
122 574 200 173 127 110
123 572 202 167 124 108
370 703 294 126 15 41
127 573 202 158 118 102
306 908 381 62 53 46
119 576 190 209 138 116
128 582 185 189 126 100
466 628 394 190 136 108
123 577 198 185 132 112
127 578 199 174 126 106
324 919 283 67 62 63
125 580 194 204 141 117
132 558 183 128 99 69
136 558 185 112 90 68
136 554 189 96 84 74
244 687 220 76 53 44
141 559 190 96 84 72
360 906 348 49 44 40
132 564 181 156 108 78
137 568 181 150 104 74
462 637 424 194 137 110
137 568 182 149 104 73
420 648 325 131 95 80
342 902 379 64 57 54
140 570 181 146 101 71
142 573 182 141 101 68
379 820 252 71 55 47
169 621 186 189 126 96
152 569 189 99 84 68
396 856 372 56 48 43
147 573 184 132 99 64
365 710 256 59 35 34
151 574 186 119 94 64
314 929 278 81 71 68
155 570 190 94 82 70
255 840 270 180 129 99
277 623 333 82 29 39
161 575 191 94 81 68
131 549 193 91 78 66
133 552 194 88 76 64
131 554 198 94 78 62
234 742 202 124 82 56
337 533 345 117 27 45
132 558 199 105 86 68
243 607 230 138 7 38
137 558 198 95 80 64
172 598 188 122 93 58
318 802 222 68 57 53
141 559 194 93 82 72
239 677 220 71 56 41
132 563 201 112 92 73
352 678 248 109 16 30
132 568 202 124 99 81
137 563 200 108 89 71
303 843 296 108 89 70
278 863 319 104 84 63
137 566 201 113 92 72
137 568 202 117 95 76
142 563 199 99 82 65
413 672 308 150 106 88
142 569 202 116 95 75
232 673 259 54 29 34
147 568 200 101 83 64
252 689 204 75 53 43
212 628 189 107 84 57
146 570 202 112 91 72
344 750 331 42 28 26
337 678 238 44 36 39
398 865 386 75 61 48
153 572 201 97 79 61
220 926 287 55 51 52
157 573 199 86 71 55
353 738 330 167 17 54
161 574 194 92 79 67
442 657 354 201 134 110
137 578 183 140 98 65
278 930 371 59 53 53
134 586 186 193 131 104
142 578 183 139 99 66
142 588 185 165 111 81
143 592 186 186 122 97
141 594 189 209 138 114
147 583 183 138 100 64
219 745 253 123 89 61
427 913 244 96 78 60
152 578 185 126 96 62
442 943 314 92 83 77
147 593 185 171 113 83
158 578 187 109 88 65
200 630 216 136 104 87
359 756 221 66 51 44
347 548 344 39 29 32
497 843 369 128 107 91
157 588 184 131 97 62
148 597 186 192 125 97
148 602 190 214 140 113
235 784 291 74 61 56
158 597 187 151 102 67
157 603 186 175 115 83
155 605 187 184 123 93
153 606 190 204 134 106
339 870 374 48 41 37
159 612 190 204 137 108
162 593 188 134 98 62
177 588 190 99 82 63
177 593 190 104 84 61
167 608 183 154 107 71
306 897 334 33 33 34
162 603 186 160 107 73
378 853 269 80 65 60
162 608 185 172 113 80
172 600 186 126 95 58
357 832 298 127 93 76
175 600 186 121 92 60
293 707 200 61 38 33
172 603 183 132 98 59
217 553 294 86 27 37
177 603 185 125 95 58
219 952 290 70 65 64
182 598 190 107 85 59
178 601 187 119 92 61
296 708 199 65 44 36
182 602 188 115 90 59
187 603 189 110 86 58
359 850 252 80 64 57
327 776 322 75 63 57
188 607 188 114 88 58
349 661 311 102 28 38
190 600 191 104 83 56
192 608 189 111 86 56
252 723 331 192 7 62
160 610 187 185 120 91
374 869 277 67 56 50
168 618 185 183 123 91
168 622 189 203 135 107
262 537 305 96 2 30
172 623 185 183 123 91
171 624 188 198 131 103
202 753 244 155 114 83
173 628 189 200 134 106
287 584 202 196 8 41
175 630 188 195 131 103
177 633 189 198 132 103
182 613 182 129 97 59
182 618 183 135 98 61
187 613 183 124 95 60
193 612 187 114 89 57
192 618 183 124 93 57
182 633 185 177 119 86
356 557 196 163 12 39
179 636 190 200 133 103
182 638 189 195 130 100
183 637 186 187 125 93
336 891 323 37 35 35
188 624 181 134 98 60
262 593 315 73 31 36
190 624 181 132 98 59
186 640 187 188 126 95
132 583 199 178 125 106
131 579 201 166 122 105
134 581 202 164 121 104
136 584 201 168 122 103
252 965 334 70 65 64
312 818 304 159 118 97
404 794 296 180 123 94
132 587 194 209 141 116
218 518 288 52 28 32
133 587 198 189 129 109
366 892 314 61 54 48
137 588 199 180 124 104
142 578 204 137 106 88
336 826 230 56 49 48
138 591 198 190 129 108
142 588 203 163 119 100
265 841 300 100 82 63
143 592 202 168 121 101
141 594 194 206 137 115
212 648 185 139 96 59
230 550 212 136 38 56
283 519 318 56 26 32
144 596 197 196 131 111
152 578 204 121 95 77
250 564 202 122 24 38
152 583 205 137 107 90
152 588 206 145 111 93
152 593 205 152 114 96
234 635 297 155 2 49
157 587 206 135 106 88
145 595 200 178 123 104
148 597 202 172 123 102
152 598 204 167 121 101
150 600 201 179 123 102
151 604 194 206 137 109
282 808 201 91 67 49
152 603 199 186 128 105
156 598 206 158 116 98
153 607 194 206 137 108
397 883 379 104 89 79
157 603 204 170 122 102
309 900 382 57 47 41
155 605 201 178 121 98
158 607 203 178 125 103
236 643 299 147 10 47
156 610 194 206 137 110
257 856 331 139 113 86
450 643 335 133 104 70
162 578 203 91 73 55
355 861 251 69 54 52
167 583 204 92 74 56
162 587 206 123 98 79
167 589 207 119 93 77
172 583 194 94 80 66
170 580 198 93 79 67
175 585 199 89 76 64
163 603 207 154 116 97
162 608 205 170 123 102
227 814 223 187 126 99
441 673 294 162 113 82
164 607 207 162 120 101
172 598 210 130 103 85
382 598 254 134 21 45
177 598 209 118 94 75
172 603 210 140 110 91
177 607 211 142 111 92
279 865 234 45 39 44
182 589 199 91 77 64
237 888 344 180 131 116
181 589 194 93 79 65
178 591 206 90 72 53
183 592 205 80 64 46
322 684 230 59 34 44
181 594 207 92 73 54
187 594 195 94 79 62
242 578 309 103 21 38
266 588 316 47 30 31
374 523 300 62 23 32
332 523 345 95 27 38
190 595 196 92 77 61
276 530 162 168 8 40
192 597 199 91 76 60
182 598 209 105 83 64
441 627 369 130 103 82
187 598 208 90 71 51
325 866 241 71 62 63
190 595 202 90 75 60
191 600 208 81 63 45
432 904 233 98 80 71
164 616 202 178 124 101
182 603 209 119 94 76
377 808 239 53 43 40
182 607 211 129 101 83
385 792 241 78 56 46
192 603 209 89 69 50
160 614 194 203 137 109
161 614 199 188 130 106
165 610 206 164 120 100
222 573 293 79 25 36
163 618 194 201 137 109
278 919 232 94 82 80
163 617 198 191 133 108
266 608 316 84 16 34
165 620 194 201 137 110
167 623 194 201 136 109
276 976 312 52 48 47
172 613 210 160 120 100
304 692 199 69 48 37
362 703 309 146 5 45
172 618 208 169 124 103
170 619 206 174 124 102
171 623 205 176 125 101
248 721 191 80 51 38
257 743 323 35 29 32
177 623 209 170 125 104
251 727 197 79 46 37
169 626 198 195 135 108
227 533 303 78 30 37
303 895 350 36 34 34
174 632 194 202 137 109
302 703 193 63 47 34
174 632 198 194 134 108
177 628 208 170 124 101
175 629 205 176 126 102
252 568 203 129 17 39
176 634 199 192 135 108
322 743 340 198 11 64
177 633 204 180 127 103
247 913 254 60 48 47
182 609 212 136 105 88
182 613 213 145 112 95
324 699 212 55 42 36
178 616 212 156 121 101
182 618 213 155 119 101
183 623 212 163 123 104
206 658 215 161 119 96
260 907 228 85 76 74
187 613 214 133 103 86
192 610 212 112 87 70
192 613 214 119 93 76
282 878 324 68 57 46
192 623 216 144 110 93
180 640 194 202 136 106
180 635 206 177 126 102
477 614 419 128 106 83
397 893 284 60 48 40
181 638 204 182 128 102
228 563 220 91 28 37
282 622 226 68 28 36
373 578 319 63 28 34
185 630 211 165 125 104
186 633 211 167 124 102
267 750 321 75 56 52
492 948 284 99 82 68
187 638 210 172 124 101
190 639 211 172 123 103
363 747 228 50 41 40
189 636 212 169 122 101
212 688 197 163 106 71
278 524 309 40 27 29
267 663 325 159 17 51
243 518 190 115 23 36
238 673 204 109 80 51
247 518 188 141 8 32
212 643 220 129 98 80
247 523 188 140 7 32
256 523 183 121 16 33
268 582 205 190 7 42
346 713 338 109 16 38
256 528 182 81 29 33
249 524 186 144 5 35
367 538 193 69 33 39
244 532 191 149 5 34
282 953 264 90 84 86
248 542 191 139 22 43
253 538 185 128 13 33
256 538 183 142 7 34
209 526 268 153 0 43
251 538 188 81 22 35
254 542 186 33 32 38
256 548 188 78 23 37
394 549 249 92 38 45
258 552 190 172 4 41
224 518 210 62 35 37
221 518 214 53 35 38
219 518 216 62 37 42
216 518 224 50 29 35
224 522 211 61 35 39
359 728 325 59 26 35
342 528 343 71 28 35
222 523 214 52 32 37
223 533 214 156 9 39
219 543 225 74 22 34
220 538 222 151 5 38
211 518 234 145 7 38
215 528 228 144 12 41
373 613 249 75 29 41
210 523 238 141 2 39
261 912 355 38 35 35
248 602 225 164 1 40
220 718 289 111 17 40
210 528 239 143 3 39
366 833 244 77 58 52
209 523 244 50 29 33
209 528 241 142 4 40
208 523 254 145 0 40
216 533 229 72 24 34
214 532 231 38 28 36
213 533 234 108 26 42
215 535 232 39 29 32
214 542 236 108 33 44
212 543 239 74 28 35
307 595 207 97 25 34
378 593 289 116 18 42
210 530 242 145 3 35
210 533 244 61 26 36
369 673 284 32 30 32
209 532 249 62 25 33
287 564 183 125 34 46
209 533 254 149 3 42
210 534 255 155 0 45
210 543 249 146 1 40
209 536 252 155 1 48
223 548 219 126 11 37
222 553 224 56 34 37
223 558 224 45 35 38
216 548 234 73 30 37
214 546 236 97 19 35
256 683 233 49 35 44
347 758 328 142 31 51
202 612 193 101 79 52
215 553 238 81 33 40
214 553 240 82 31 38
219 551 226 123 42 55
219 557 231 36 36 38
239 710 327 42 26 30
221 558 229 41 35 38
218 558 234 43 33 36
212 548 244 114 15 38
252 734 190 81 49 40
316 733 193 72 54 44
370 527 191 66 26 31
211 553 249 71 20 34
211 553 254 143 5 43
224 562 225 42 35 40
256 719 191 70 53 42
252 853 330 148 119 89
216 563 239 64 30 35
220 560 232 40 35 39
367 538 340 80 24 36
367 926 324 58 51 48
233 858 328 121 57 60
220 563 233 47 31 34
219 572 236 62 29 31
212 568 249 127 11 40
221 573 234 41 29 34
302 685 225 85 27 39
220 575 237 99 26 38
215 574 247 144 4 40
228 518 206 67 36 37
302 898 246 56 50 51
231 523 203 72 26 31
357 783 317 76 60 54
272 954 345 70 63 60
232 528 203 148 9 37
229 528 206 126 16 37
322 838 290 109 85 70
235 701 244 102 15 37
287 738 202 66 50 44
238 518 195 50 35 38
227 723 309 168 11 53
233 523 200 126 19 36
202 633 184 129 95 56
224 528 211 77 35 42
232 533 204 152 4 34
252 758 203 59 48 45
232 538 204 127 17 36
230 539 207 120 14 31
287 828 299 153 118 95
239 532 196 146 3 35
238 543 200 135 16 37
446 644 324 115 92 67
234 536 201 146 12 34
352 873 390 61 49 40
343 831 297 50 42 39
225 534 212 157 9 39
228 543 210 162 11 41
390 562 249 181 17 51
226 543 213 160 10 39
241 523 193 33 32 38
241 528 193 127 13 36
307 575 192 173 9 42
245 534 192 156 6 33
274 842 231 76 59 50
240 569 212 134 26 42
276 850 242 72 57 51
353 865 388 55 43 34
242 538 194 153 5 37
241 907 351 134 114 98
483 609 465 124 95 75
240 540 197 140 11 39
287 698 214 66 31 39
403 722 240 106 80 56
241 543 198 155 3 36
322 542 170 93 37 43
297 927 369 69 64 64
237 548 204 105 27 41
235 550 207 98 28 32
238 553 205 162 10 42
347 738 334 63 28 34
362 896 294 54 46 40
229 547 211 158 12 42
231 554 213 77 31 35
225 549 217 158 11 39
226 563 223 41 32 35
264 561 191 138 37 52
232 568 219 78 30 38
233 573 220 69 30 37
384 593 254 177 16 48
230 570 222 49 35 37
253 708 205 71 44 38
238 562 210 75 30 37
236 564 213 89 27 36
203 812 253 183 132 106
237 568 214 111 23 38
422 788 284 80 59 44
239 566 211 127 38 52
238 573 215 86 31 38
485 641 452 197 129 110
243 552 200 53 35 37
232 753 195 145 99 68
245 549 197 83 22 33
282 932 368 81 74 72
209 748 206 147 100 65
262 694 209 69 40 37
437 908 239 103 83 69
247 553 198 52 32 37
248 552 196 105 13 32
381 899 329 63 54 51
387 818 259 93 65 54
418 654 280 101 77 45
437 908 234 106 85 67
240 550 202 36 34 36
241 554 203 80 24 36
242 558 204 102 25 40
240 560 207 119 32 47
313 943 330 57 51 50
257 558 195 170 1 37
246 569 207 131 25 43
390 764 231 74 55 43
330 792 216 79 63 57
247 573 209 89 25 37
253 567 201 95 17 35
249 572 206 154 12 40
224 693 269 98 32 42
252 573 205 162 8 40
447 647 379 191 130 108
342 911 342 41 37 34
255 570 202 176 5 43
342 844 284 36 31 30
257 573 203 178 6 39
244 572 211 119 26 42
225 569 227 70 19 32
196 609 190 107 83 55
399 530 336 167 22 52
227 628 289 104 22 42
342 623 229 68 35 37
196 615 186 115 89 56
197 618 185 118 90 56
251 689 208 73 50 42
201 614 190 105 82 55
205 615 191 101 79 51
202 618 188 111 86 55
422 648 289 113 92 69
201 624 186 120 90 55
412 718 259 86 63 47
245 654 247 142 4 42
287 783 193 67 55 47
203 622 187 116 89 56
373 598 233 130 22 40
202 628 184 125 93 56
384 589 252 174 16 45
207 633 185 127 94 55
194 793 243 170 124 93
202 638 184 136 98 58
207 638 185 131 95 56
357 906 317 60 54 49
212 633 188 118 90 56
211 635 186 125 93 54
212 638 186 128 93 56
215 639 186 130 94 58
322 538 344 107 18 38
196 600 203 88 73 57
195 600 196 97 78 58
266 618 316 37 28 28
370 693 274 50 35 38
197 603 194 99 79 55
198 607 192 103 80 54
197 602 204 86 71 54
238 689 239 62 23 30
264 518 171 73 30 35
368 623 249 85 33 41
336 581 201 193 9 42
201 608 195 98 77 53
292 833 199 76 60 50
382 901 314 60 52 46
206 609 199 91 72 53
375 579 292 44 30 33
302 773 204 58 47 45
203 607 204 88 70 51
203 713 234 153 110 85
316 538 334 127 13 40
218 578 239 137 11 40
244 679 246 57 30 39
327 844 285 73 57 48
220 579 237 126 13 41
199 708 223 163 113 84
364 722 227 60 38 40
221 583 238 140 9 38
232 949 269 73 67 68
223 593 240 51 30 34
212 578 254 150 4 45
317 823 225 55 48 49
214 583 250 44 27 31
215 589 253 39 30 34
219 586 241 148 8 38
218 588 244 85 23 36
219 592 246 43 30 33
282 577 196 156 25 50
292 823 299 164 124 100
220 589 242 113 23 38
339 830 237 68 59 58
220 595 247 72 18 32
442 838 381 96 75 53
223 598 244 61 32 38
220 600 253 53 31 34
224 602 245 57 31 36
223 608 254 67 29 37
205 610 196 97 75 53
379 570 333 88 25 33
346 694 234 47 37 37
207 613 194 99 77 52
208 612 199 93 73 53
387 902 309 62 52 46
208 617 192 100 78 52
343 678 320 138 6 42
268 773 198 69 54 50
347 898 355 44 37 36
197 618 215 119 93 75
198 768 244 153 116 83
246 950 262 79 73 75
197 623 216 129 99 82
327 723 345 181 7 59
377 853 278 62 53 47
363 879 374 62 52 47
200 610 212 91 67 51
330 675 327 148 9 46
202 614 213 95 70 53
206 615 212 85 59 40
202 623 216 117 89 72
207 618 213 90 64 47
207 623 215 103 75 59
197 633 216 151 115 97
197 638 215 162 121 101
202 628 217 127 97 79
207 633 218 124 94 76
202 638 217 149 114 95
277 937 239 107 100 101
200 639 216 156 118 98
222 768 203 168 114 80
210 615 196 96 76 53
211 618 194 98 77 53
215 620 196 97 77 56
216 623 194 96 77 55
213 617 204 89 67 51
216 619 204 88 68 51
209 616 211 82 60 37
214 621 210 85 65 43
430 847 379 77 62 50
217 628 194 97 78 56
219 632 192 98 78 56
221 629 199 91 73 53
374 870 403 88 70 54
221 628 209 86 63 45
224 631 209 85 62 45
212 627 216 99 70 54
357 538 342 58 27 31
212 629 217 106 78 62
302 868 190 105 89 82
217 818 229 204 133 107
387 568 244 180 16 49
212 633 218 110 82 66
312 602 211 79 36 43
212 568 279 52 30 33
212 638 219 118 89 72
322 603 338 96 26 41
217 638 218 108 78 62
218 632 216 94 65 50
282 923 378 63 56 52
224 612 255 97 28 41
232 578 224 37 32 37
406 518 274 100 28 39
239 576 216 89 16 27
239 586 221 117 26 45
209 518 264 92 18 35
243 582 216 58 30 33
246 579 213 163 13 41
247 583 214 134 16 38
240 579 217 73 27 31
212 738 247 139 105 79
241 589 222 157 5 38
272 634 232 81 25 33
246 589 218 44 32 37
252 583 212 180 7 41
297 623 335 101 26 40
367 773 230 82 63 54
222 728 249 82 53 47
257 583 210 185 6 40
257 588 214 183 5 41
252 593 218 152 8 37
377 778 309 153 115 83
245 595 222 161 0 38
285 526 317 137 12 42
247 598 223 163 1 39
252 598 219 169 2 37
327 732 199 51 42 40
485 614 477 153 103 90
256 594 217 177 3 37
292 743 204 77 57 49
252 603 224 168 0 40
228 583 230 139 9 38
229 577 226 33 30 39
230 580 227 34 32 28
200 763 218 145 102 65
230 584 227 70 22 33
412 778 264 83 61 47
226 584 232 132 14 41
317 618 335 61 32 36
228 587 231 152 2 39
233 593 230 151 1 38
225 590 237 105 22 35
225 594 238 122 15 36
231 594 233 121 8 34
232 598 234 78 19 34
310 561 331 138 10 45
234 597 231 148 2 35
280 616 324 67 25 34
200 738 234 160 112 83
234 606 236 77 15 25
238 608 235 95 21 36
236 609 238 107 23 35
226 603 243 87 28 38
228 608 244 100 29 41
406 667 277 103 75 50
382 863 390 70 56 44
228 677 231 73 56 43
244 601 226 163 0 39
213 806 221 173 114 82
284 796 307 92 79 72
246 604 227 163 1 40
241 609 233 87 24 37
457 638 414 196 134 111
226 634 199 86 69 48
226 634 209 85 62 45
232 954 279 67 62 64
230 640 199 89 67 45
490 622 440 176 123 101
230 639 209 84 55 39
227 638 214 83 56 40
203 817 244 204 140 110
200 668 204 168 119 94
230 640 213 82 50 40
226 639 218 91 63 46
237 613 239 80 29 36
369 687 289 47 29 31
258 696 210 63 44 37
366 891 358 53 45 40
238 611 236 51 28 33
230 615 247 41 24 30
225 610 252 113 32 44
436 763 284 103 77 56
233 617 245 47 27 35
327 868 244 63 56 58
227 618 254 51 30 36
229 617 250 100 37 46
225 780 207 172 114 81
277 528 159 171 8 42
381 563 330 69 27 33
422 658 275 122 92 57
229 622 255 35 31 35
226 960 304 71 66 65
238 623 245 36 29 36
236 624 248 76 24 36
237 628 249 98 17 37
239 627 246 136 16 40
234 627 251 137 8 42
235 630 252 55 21 30
368 893 299 59 51 44
272 613 224 39 35 39
236 633 253 51 27 34
312 703 190 61 43 36
237 638 254 129 9 39
248 612 231 58 28 34
290 966 280 91 86 87
242 618 238 82 25 38
247 618 234 149 9 40
245 620 237 151 4 40
247 623 238 111 10 34
248 622 236 152 1 37
372 633 274 52 33 36
252 613 229 151 12 41
290 697 208 71 34 33
257 648 239 117 12 28
409 668 303 140 96 84
257 614 228 170 0 39
257 618 230 164 1 40
201 673 209 154 113 87
251 619 233 157 1 38
228 943 348 51 49 50
256 620 232 158 0 40
250 625 237 147 2 37
205 743 212 151 102 70
252 633 239 133 3 33
285 942 352 67 61 59
255 630 237 145 0 33
327 773 323 75 62 56
258 632 236 139 3 34
348 801 312 55 48 44
257 638 238 117 8 31
240 630 247 55 15 29
222 558 300 167 16 54
244 626 241 123 11 38
325 736 191 82 62 52
297 619 222 112 20 42
245 629 242 149 0 36
302 519 148 182 11 42
247 633 243 133 8 37
245 639 247 134 3 38
240 640 252 132 6 37
192 649 187 198 132 101
192 653 189 205 137 106
182 643 199 195 136 108
366 718 304 142 8 44
188 642 208 175 125 102
330 709 220 65 41 35
186 644 205 180 126 102
188 648 204 181 127 102
219 744 260 123 96 66
328 549 177 96 35 42
192 648 208 175 124 101
189 652 194 206 137 106
189 651 202 185 132 104
190 650 205 176 126 101
426 793 282 81 62 48
197 643 184 150 105 69
197 648 185 169 116 81
196 650 187 193 131 98
202 643 184 140 100 60
352 841 288 38 30 30
207 648 184 141 100 60
202 652 186 170 116 81
194 779 238 163 118 86
415 748 293 177 116 89
202 655 187 185 125 92
194 656 190 206 137 107
253 716 192 70 50 44
307 876 301 33 31 33
197 658 190 203 135 104
207 658 187 174 117 84
352 864 354 46 40 36
208 667 191 186 121 90
212 643 185 134 94 58
436 673 284 155 109 77
215 647 186 139 95 58
217 648 188 142 96 60
263 736 192 63 47 37
213 654 187 143 98 63
244 653 308 139 7 42
222 648 190 142 96 63
379 569 222 134 23 47
217 658 189 140 96 60
217 667 191 161 106 74
226 648 191 141 98 65
241 857 331 146 118 93
225 657 191 138 93 60
195 655 206 168 119 96
202 648 215 174 127 106
204 647 217 163 120 102
412 748 259 105 75 54
314 928 351 52 45 40
207 643 219 146 113 94
327 883 249 63 55 56
203 653 213 176 127 105
201 654 211 175 124 103
205 654 215 167 121 100
198 662 194 203 135 102
238 683 308 60 28 33
342 568 195 191 9 42
199 663 204 168 121 97
216 893 299 179 128 106
199 661 207 153 111 88
199 666 202 178 122 94
203 668 194 187 124 92
200 665 197 194 132 101
453 829 393 95 76 58
200 668 199 183 127 96
372 788 231 73 57 51
204 672 196 178 115 84
388 809 253 80 58 49
206 669 192 185 119 88
207 673 194 180 116 83
416 772 280 87 64 49
233 858 294 121 99 76
201 668 209 150 112 87
207 668 219 148 111 88
204 670 217 147 110 85
332 851 281 29 26 26
375 592 231 175 20 45
212 648 220 139 106 89
320 626 226 85 49 51
378 563 328 85 26 36
217 643 220 114 83 68
214 649 222 133 101 83
257 768 308 74 61 56
222 643 220 103 71 58
385 742 301 134 96 77
222 648 223 106 73 61
297 818 199 86 67 55
212 670 192 175 114 82
297 813 303 174 129 108
217 673 193 165 107 73
423 714 300 184 123 96
199 758 239 154 114 81
338 914 293 58 52 53
222 673 194 150 99 64
216 663 225 124 93 76
209 669 222 146 112 88
378 753 228 60 49 42
362 843 289 61 42 36
208 673 223 145 110 86
293 877 310 61 53 47
342 723 221 55 38 35
215 672 226 126 93 77
218 660 227 114 83 68
454 900 156 89 79 71
219 663 228 112 82 68
203 678 200 169 111 80
315 916 366 60 53 48
205 679 197 173 112 79
459 644 379 190 127 100
201 678 204 166 112 84
201 678 209 156 111 84
374 810 237 63 50 43
204 682 201 169 112 80
347 597 337 166 14 52
206 683 198 172 112 78
352 603 336 169 19 56
207 688 199 166 107 75
262 736 327 198 12 64
200 683 209 161 111 82
204 686 201 166 109 78
202 678 214 148 109 82
204 680 222 146 109 84
341 752 332 49 30 33
204 683 223 147 110 85
201 688 219 150 108 81
201 693 209 167 110 80
246 678 244 71 28 37
205 690 202 164 107 77
208 693 200 162 106 73
206 698 203 161 105 71
208 697 201 161 106 71
253 663 241 67 27 35
344 692 234 46 35 35
486 638 454 194 130 112
199 693 215 160 111 82
232 963 324 63 57 56
287 580 198 194 8 42
199 703 215 167 111 82
291 942 348 53 48 45
199 699 222 159 111 84
200 693 219 155 110 82
200 696 219 157 110 83
281 826 296 154 120 97
387 588 259 172 16 46
200 703 225 159 112 86
209 682 196 176 112 80
212 686 196 165 106 72
222 678 195 148 98 63
217 693 197 149 99 64
212 698 199 158 103 68
352 907 314 55 50 47
221 692 196 142 94 61
222 698 198 136 93 59
235 649 214 83 55 42
222 703 198 132 90 57
388 703 279 92 67 47
334 644 237 86 28 37
205 687 226 144 110 85
207 693 230 140 105 83
202 698 229 151 111 86
202 703 229 154 111 86
209 679 227 140 106 85
210 676 226 139 104 84
337 883 394 74 59 47
217 683 231 117 86 71
217 688 233 115 84 69
218 684 232 113 83 68
341 689 234 46 34 35
213 713 201 146 97 61
229 663 279 92 26 39
222 683 233 104 77 63
217 698 235 115 85 69
380 584 287 53 24 31
217 702 236 115 85 68
222 738 200 138 96 63
222 693 234 108 78 66
255 845 259 196 140 106
396 872 379 85 68 59
219 700 237 112 82 67
332 844 285 31 28 29
222 697 235 111 80 67
446 634 339 110 93 76
222 699 237 109 77 64
354 688 247 79 28 35
222 703 238 110 77 64
228 642 192 119 90 57
342 898 394 70 59 49
233 703 238 62 42 40
228 648 192 140 98 66
233 643 209 85 52 40
228 653 192 143 98 66
358 718 324 134 20 46
234 653 197 127 89 63
229 641 216 82 52 38
224 646 221 101 67 54
214 884 314 163 119 101
229 651 221 105 79 63
233 653 219 93 62 50
230 654 222 108 80 65
445 672 304 166 115 81
234 652 211 84 55 41
234 652 214 84 56 42
227 663 194 140 94 62
231 658 195 133 92 61
273 586 206 193 7 43
232 663 198 131 91 58
492 843 374 132 109 90
314 543 329 58 26 33
227 668 194 143 96 62
229 665 197 138 92 61
232 668 198 133 91 58
379 609 259 84 34 41
238 663 209 88 66 44
236 668 200 122 85 55
265 891 227 57 52 53
233 673 198 133 90 58
238 668 204 107 78 51
231 658 223 99 73 58
239 672 216 75 58 42
277 558 310 100 13 35
233 668 224 77 57 43
268 607 221 181 3 40
234 666 221 79 57 43
308 928 268 68 61 63
244 622 307 133 13 42
317 583 344 176 14 56
233 672 225 71 55 41
236 673 223 71 55 40
241 892 273 100 81 63
240 673 209 85 66 45
379 559 217 127 32 50
240 670 210 82 63 44
238 648 254 134 4 41
408 773 263 125 90 62
386 822 260 66 49 43
226 664 227 86 63 50
232 643 264 120 21 41
230 669 227 75 57 43
237 673 254 43 31 33
257 643 239 124 6 31
257 653 238 88 22 28
247 643 245 129 5 33
302 601 211 175 17 47
383 518 318 47 23 33
262 578 312 48 30 32
332 923 294 58 52 53
497 952 270 103 88 76
245 643 247 125 10 32
242 643 249 126 8 35
240 653 252 126 3 37
251 648 242 120 11 29
253 648 241 117 18 30
253 658 240 116 21 35
252 668 239 55 29 35
320 946 322 63 55 51
256 668 237 49 30 34
242 663 249 92 28 40
371 891 296 62 54 48
247 658 244 123 8 31
240 658 252 132 18 43
240 663 252 84 25 37
244 668 246 96 30 34
367 658 279 82 28 35
246 673 244 90 26 35
240 672 252 52 30 36
367 904 299 55 48 44
231 677 196 138 95 59
337 873 384 63 50 41
292 693 204 73 39 40
227 688 198 134 91 58
441 643 374 178 126 107
230 681 196 138 94 59
232 688 199 124 86 53
232 923 348 164 125 108
281 618 335 93 25 39
236 678 200 121 85 52
239 678 203 111 80 49
237 683 200 117 82 49
239 683 202 113 81 49
238 683 225 65 51 40
227 693 198 130 89 55
308 904 254 66 61 61
227 698 198 124 86 53
232 698 198 115 79 49
232 703 196 103 70 44
313 853 289 63 52 40
237 693 200 112 80 48
244 682 208 86 61 46
246 684 209 81 56 45
406 728 249 105 78 54
242 678 214 79 60 45
240 675 217 74 58 42
277 693 329 42 27 29
241 679 218 74 56 42
244 682 214 82 58 45
350 815 306 33 30 35
246 684 214 82 55 44
248 688 214 79 51 43
242 683 219 75 54 42
194 788 243 168 123 92
240 680 222 69 54 40
242 703 204 93 67 45
307 668 231 56 36 33
244 701 207 83 56 40
318 533 324 118 15 40
247 697 205 72 42 40
375 608 299 119 14 38
246 703 209 74 44 37
336 872 374 46 39 36
253 853 284 106 84 62
316 703 191 63 47 39
245 704 206 75 50 42
252 693 199 76 52 43
249 692 201 78 51 40
255 690 201 69 52 45
335 792 221 61 51 47
255 690 203 71 50 44
381 925 303 75 63 58
237 548 307 174 21 57
252 698 204 73 45 40
278 760 316 72 59 54
251 703 209 73 41 39
254 702 201 71 46 38
313 553 339 50 27 32
257 703 199 62 47 38
247 693 219 76 50 42
442 848 385 86 69 55
317 837 292 119 94 77
247 694 224 81 46 40
257 694 214 68 45 44
257 690 220 67 45 44
226 794 280 45 35 39
214 748 278 157 127 97
251 697 218 77 46 39
226 678 232 86 64 52
227 683 233 82 61 50
257 769 195 73 58 51
235 679 227 63 50 37
234 688 231 60 50 41
289 604 338 40 28 30
287 818 203 87 64 50
237 688 229 64 51 42
232 683 254 67 30 38
232 688 254 91 25 39
233 678 254 39 31 33
347 888 258 70 60 58
236 677 252 53 32 33
347 864 374 47 40 35
233 688 249 118 22 45
235 686 247 51 29 29
238 684 246 36 28 33
227 693 234 91 65 54
422 728 279 149 99 69
227 699 237 93 64 54
227 703 238 92 62 52
357 548 343 40 29 32
237 698 234 68 52 45
277 978 294 57 54 56
237 702 234 66 51 46
235 703 237 66 50 46
229 699 255 84 23 36
231 698 254 106 15 38
232 703 249 122 15 42
235 693 243 130 14 44
416 738 259 98 71 51
457 617 394 124 108 93
234 689 246 118 17 41
234 699 245 103 17 40
247 688 229 90 33 34
241 687 239 60 21 33
244 685 235 84 24 35
247 683 239 54 32 41
251 682 238 86 29 37
231 538 306 62 24 31
302 583 324 67 24 33
253 684 235 75 35 40
267 613 224 59 29 35
254 680 236 73 30 34
242 678 248 61 31 39
245 674 247 101 31 40
240 681 247 42 30 32
402 864 269 84 70 70
240 686 243 59 21 38
268 909 358 40 38 39
295 788 201 69 58 53
248 678 241 71 29 35
362 863 289 40 36 35
246 692 228 84 44 42
282 858 229 44 40 41
241 693 234 78 38 40
242 702 229 71 56 48
374 875 388 76 63 54
240 698 232 75 54 48
249 690 226 89 40 35
251 715 191 71 47 45
383 553 328 61 26 32
248 734 190 72 52 42
257 721 191 70 51 41
228 750 191 135 92 62
477 618 469 121 84 71
228 752 190 134 91 61
232 753 189 135 91 58
364 898 321 65 59 53
236 754 188 136 91 58
307 818 214 50 47 50
252 738 190 72 52 43
257 738 190 71 53 43
452 618 409 125 104 84
257 742 191 73 53 42
207 708 204 156 102 68
204 706 206 161 105 73
205 709 207 159 104 71
208 713 205 152 100 65
208 718 205 152 100 65
199 707 216 168 112 83
199 708 219 165 112 83
279 774 196 85 63 46
372 883 281 67 52 44
292 903 369 36 34 35
200 708 214 168 111 79
404 759 247 68 51 45
407 693 305 153 109 87
200 713 219 165 111 80
201 718 214 166 108 76
206 723 208 156 101 70
256 582 311 32 28 28
208 722 205 152 99 67
427 913 254 97 79 63
200 723 219 164 110 77
201 728 219 163 109 75
204 732 211 156 103 72
367 558 204 53 33 37
201 733 219 159 106 74
211 718 203 149 99 64
305 866 191 102 90 87
222 713 198 129 89 56
362 824 237 69 54 48
212 728 203 150 100 66
217 723 201 144 97 64
212 733 203 147 98 64
209 733 206 148 98 66
364 708 305 144 7 44
328 684 219 69 47 43
292 863 190 104 82 66
222 723 200 138 94 63
222 728 200 139 96 64
222 733 200 138 96 63
200 713 229 160 111 85
207 708 235 141 105 83
205 713 236 147 108 84
289 662 231 119 14 27
207 718 238 143 105 81
204 720 237 152 110 86
199 726 225 161 110 79
204 723 238 153 110 84
348 869 249 61 52 51
201 728 234 160 112 85
405 915 320 112 95 87
203 728 238 155 110 84
206 728 240 148 109 82
315 538 329 40 28 33
210 706 236 127 96 75
377 803 310 169 127 100
214 543 279 145 11 44
213 705 237 118 90 69
322 762 205 73 56 49
287 928 239 88 80 81
222 713 240 110 77 63
217 717 241 116 85 66
221 716 241 111 79 64
304 879 233 70 64 65
407 798 259 63 49 40
211 722 241 130 97 76
212 723 242 126 94 73
209 725 242 137 102 80
212 728 244 130 98 75
217 728 245 119 88 66
214 735 247 133 101 74
217 733 247 124 91 67
224 724 248 82 46 45
233 633 294 142 11 46
352 786 317 56 48 46
221 727 246 112 77 61
203 738 214 156 105 71
248 716 217 75 28 34
205 740 212 152 102 70
200 738 224 158 109 75
357 753 221 64 48 42
259 524 306 143 16 47
203 748 214 146 100 67
462 852 370 103 78 58
203 753 214 143 99 64
322 563 184 96 31 39
207 748 209 146 100 66
205 748 212 145 99 66
207 753 209 146 100 65
205 753 212 143 99 63
200 753 222 145 102 65
199 753 225 148 106 68
218 743 288 122 11 41
199 758 221 145 102 65
198 768 220 149 105 68
268 672 232 52 31 38
207 763 209 151 104 67
205 763 212 145 100 64
205 769 212 152 104 66
200 768 217 146 102 65
212 748 204 149 101 66
307 713 340 107 28 46
216 748 202 151 102 66
218 748 201 150 102 66
218 743 201 146 100 64
342 917 296 60 54 55
222 753 200 150 103 70
212 758 205 157 107 72
213 763 205 160 108 72
210 764 207 156 105 70
217 768 205 166 113 79
237 802 216 174 115 84
369 514 187 142 0 33
303 578 339 113 4 34
221 755 202 157 107 74
222 763 202 163 111 77
359 717 321 148 17 47
199 749 225 150 107 71
199 748 229 155 111 78
287 938 249 84 77 77
386 884 352 60 53 48
198 753 229 155 114 77
199 745 232 159 112 80
447 657 354 203 132 106
200 743 229 158 111 79
201 743 239 158 112 83
290 911 376 43 38 37
200 753 239 159 117 85
433 754 283 87 67 51
203 743 243 151 109 80
202 748 244 153 111 82
205 748 246 149 109 80
199 754 238 158 115 83
370 856 266 69 55 47
247 722 194 82 51 38
361 532 185 56 31 36
272 728 330 199 10 64
275 663 326 74 30 40
321 917 352 49 44 42
197 763 234 151 112 77
198 763 239 151 114 80
196 768 234 153 112 78
199 760 242 153 114 82
392 893 275 67 54 46
199 765 247 148 114 82
212 753 251 140 106 77
199 769 248 148 117 85
232 533 305 74 25 33
201 758 244 152 113 82
201 763 249 146 113 81
200 767 250 147 115 84
322 745 197 76 58 49
202 768 254 145 114 83
212 748 250 143 107 79
215 751 251 138 103 74
380 616 271 175 19 40
216 752 254 112 85 56
223 738 254 121 87 62
374 891 332 80 68 60
220 741 251 127 92 64
237 761 201 134 91 62
221 743 254 121 88 61
236 893 278 128 101 72
437 848 385 83 67 53
228 713 196 107 75 49
229 704 196 108 74 46
318 893 388 70 57 46
232 718 195 95 66 46
237 713 195 81 60 41
238 712 198 84 61 41
237 718 193 81 58 41
377 773 228 74 57 48
227 728 199 130 89 60
296 610 217 97 33 42
232 728 199 118 77 53
237 723 194 80 55 38
270 809 217 50 41 40
304 691 202 69 45 40
241 709 201 84 60 42
243 707 203 86 63 44
247 708 209 73 43 36
247 713 209 83 32 35
228 752 194 136 94 64
247 714 199 86 47 45
251 715 204 73 41 36
257 714 200 63 39 40
253 717 205 71 40 36
255 717 209 67 36 37
215 593 259 107 26 42
428 638 344 141 107 88
248 714 214 80 18 33
266 564 192 101 24 35
250 704 212 73 39 40
250 715 217 64 26 36
250 716 217 67 30 35
247 731 197 81 51 37
297 578 194 195 11 44
252 723 194 75 46 38
439 651 362 190 130 110
250 725 197 82 46 36
304 704 190 64 47 34
257 723 193 74 50 42
282 648 328 135 24 49
252 732 193 89 44 39
258 732 193 77 47 40
232 708 239 75 40 39
235 708 238 70 39 42
231 708 249 125 6 40
227 708 254 123 14 41
229 709 251 118 9 41
384 719 292 70 38 26
229 713 250 93 20 37
228 714 242 85 45 43
391 558 244 62 29 37
228 718 249 93 19 37
312 593 205 192 13 45
498 950 280 99 82 66
447 927 338 96 84 77
226 718 254 137 7 43
225 721 245 87 54 48
227 743 199 136 94 64
277 653 327 164 20 53
253 826 277 173 126 104
232 743 200 131 91 62
227 748 194 139 97 66
226 748 197 138 95 63
282 649 232 118 9 28
231 749 195 143 98 69
237 737 200 112 72 51
317 949 319 65 56 51
234 740 202 121 80 56
237 753 198 133 90 65
232 758 198 144 99 68
416 738 299 183 121 94
224 761 201 158 110 75
397 848 393 70 57 45
226 764 202 160 109 76
227 768 203 163 110 76
375 627 284 141 20 43
232 763 201 148 99 67
282 573 193 94 33 41
242 849 304 101 80 56
233 764 202 147 98 65
322 787 317 69 57 52
242 738 199 88 57 43
245 740 197 78 51 42
240 739 202 101 66 46
241 744 202 110 67 48
253 742 194 78 49 41
342 598 214 60 35 40
251 740 197 76 52 42
322 798 218 68 55 52
287 557 311 57 22 30
252 743 198 82 39 35
256 744 194 77 48 40
383 738 298 99 66 50
250 744 206 84 28 33
250 744 207 82 28 33
253 747 200 80 37 37
381 598 249 179 16 46
250 746 207 77 33 35
241 758 201 124 83 58
247 763 200 81 59 41
277 763 316 72 60 54
247 768 199 81 60 43
240 761 201 127 85 57
257 758 200 59 48 44
439 668 288 144 104 71
252 765 196 70 55 47
256 769 306 73 61 56
252 768 195 65 51 44
255 765 196 66 53 49
210 524 259 149 0 40
349 925 319 65 59 55
209 528 264 153 0 43
479 631 472 171 122 108
209 523 269 150 1 42
210 528 269 157 0 46
231 543 306 147 21 48
210 525 270 152 1 42
290 880 317 62 55 49
214 518 282 151 10 45
210 523 274 151 3 43
267 769 310 70 59 54
212 523 279 114 15 40
285 612 324 88 14 31
211 528 274 147 7 45
248 896 267 86 61 33
331 907 279 65 59 60
214 522 282 115 20 38
216 598 264 122 17 42
377 618 289 69 29 35
216 523 284 46 27 30
215 524 281 28 28 31
379 619 285 79 23 35
219 523 288 58 29 34
215 599 280 130 18 45
210 529 266 157 0 46
341 865 292 40 37 37
210 533 269 156 0 44
294 595 335 97 2 33
211 538 264 153 0 43
312 713 342 157 19 52
213 533 279 152 8 46
212 538 274 157 2 45
213 538 279 155 7 46
220 518 291 48 27 30
303 943 269 79 71 71
221 518 294 53 28 33
362 713 314 151 13 45
223 523 299 99 25 39
339 885 253 76 62 60
362 906 300 57 49 43
220 533 290 69 25 33
219 539 292 80 29 36
220 536 291 35 31 31
299 580 322 38 28 30
221 538 294 44 27 29
310 818 216 52 48 50
265 541 311 77 22 33
469 636 458 150 108 93
223 538 299 62 31 33
222 543 299 59 28 33
211 553 259 135 0 37
212 548 269 155 0 45
397 878 280 59 50 43
310 861 216 54 49 50
212 553 269 149 1 42
211 558 259 134 0 38
346 542 181 179 7 38
211 558 264 148 1 42
214 548 279 141 7 42
356 733 328 141 20 49
213 553 274 149 1 42
214 553 287 119 14 40
410 842 271 55 46 40
213 558 274 156 1 45
332 793 315 69 57 53
214 558 284 77 20 33
341 699 223 65 43 35
211 568 259 157 0 46
211 573 259 166 0 47
213 563 274 116 15 41
212 568 289 44 29 32
211 573 274 80 27 34
210 572 278 53 27 31
416 707 307 167 115 86
209 573 284 131 13 44
215 557 290 123 21 44
372 763 226 62 50 42
214 560 292 74 21 30
218 548 294 89 23 37
220 547 296 77 25 34
223 553 302 169 16 54
218 558 298 104 24 41
215 955 319 67 63 64
214 563 293 112 25 42
214 567 292 51 29 32
217 568 294 58 28 33
225 518 301 50 29 32
393 788 306 171 124 93
227 518 304 48 26 29
225 523 301 95 24 38
227 528 303 101 25 39
224 870 307 149 108 93
231 519 306 93 24 40
232 523 306 102 27 42
370 683 284 69 31 36
232 528 305 85 27 38
237 518 306 52 28 31
412 783 284 117 82 62
239 515 306 72 21 24
368 563 208 122 28 44
237 528 305 87 25 36
242 518 305 35 28 30
242 523 305 42 27 28
241 527 306 51 25 29
248 524 307 44 27 28
316 936 343 64 57 55
247 528 308 59 28 30
251 517 306 55 23 27
253 519 307 47 27 29
351 622 231 146 24 45
258 514 307 34 27 28
252 523 308 51 26 29
373 848 263 64 49 45
256 527 307 68 23 30
242 533 309 79 25 34
247 533 309 56 28 32
242 538 309 81 28 38
242 543 309 45 30 32
265 886 236 43 41 42
246 543 308 46 27 29
247 966 275 81 78 79
253 534 306 56 27 30
323 869 243 68 59 59
258 528 306 109 17 38
402 873 279 58 49 43
257 533 305 72 19 29
249 540 306 45 24 24
249 543 306 51 25 27
357 553 342 102 22 41
256 542 306 87 4 28
227 548 304 163 17 53
227 553 303 175 15 55
232 553 304 164 16 50
292 518 145 193 16 44
352 861 286 41 37 34
232 548 305 180 15 57
234 546 307 189 18 59
269 940 361 70 65 63
235 549 306 177 17 56
220 741 262 128 100 69
236 553 306 162 17 52
314 853 217 53 49 52
238 553 307 158 18 50
236 558 306 156 16 50
292 873 309 63 55 48
227 563 299 121 17 41
228 568 303 141 19 47
215 785 212 166 110 75
225 573 296 36 26 30
226 573 299 66 24 31
228 573 304 122 27 46
231 568 305 132 8 39
362 523 339 41 29 30
233 569 307 109 2 31
271 878 229 44 40 42
232 573 308 68 18 31
472 641 439 193 134 116
319 930 287 81 72 71
236 563 306 132 7 40
238 563 308 108 1 31
237 568 309 105 1 31
239 574 312 135 14 41
247 548 307 65 20 28
342 874 297 45 42 43
317 658 328 92 24 38
454 653 339 172 117 86
248 559 312 109 2 31
251 546 306 90 10 29
252 548 308 98 3 30
358 683 253 108 18 30
422 918 339 87 76 67
251 552 310 103 0 31
254 545 307 95 4 31
258 544 308 100 2 31
257 553 314 131 11 41
361 719 225 63 40 42
252 558 313 128 10 40
221 928 340 174 129 111
452 651 372 201 133 109
242 563 310 105 0 31
245 562 311 106 0 30
223 713 299 104 15 38
242 583 307 69 29 34
302 758 204 57 45 43
243 568 312 128 11 40
247 563 313 125 13 39
244 564 312 110 3 30
247 568 313 91 23 35
243 574 311 117 22 43
247 573 310 47 27 29
242 573 312 148 18 49
246 571 312 75 25 34
257 563 310 148 14 45
254 565 311 155 16 49
472 638 454 164 110 101
257 568 309 132 14 42
409 753 254 77 57 47
343 723 341 75 31 38
251 566 312 118 18 41
252 573 308 51 26 30
212 578 259 157 1 45
212 583 259 121 12 37
211 578 269 114 10 34
238 831 258 72 58 55
382 873 384 68 56 49
409 891 354 91 74 58
211 583 269 173 2 51
264 721 198 62 42 37
213 588 259 83 31 41
230 676 291 51 32 35
214 593 269 139 10 43
209 578 276 55 27 33
382 528 204 94 29 37
382 853 269 83 69 65
210 580 277 36 30 31
317 575 192 131 21 40
429 681 317 176 118 92
210 583 279 129 14 44
209 578 283 169 6 53
210 579 285 171 6 52
212 583 284 85 22 37
217 583 288 89 23 36
212 588 274 159 0 44
213 593 279 138 12 44
216 585 286 64 27 35
217 588 285 35 28 30
214 592 282 43 28 32
316 881 306 34 32 34
217 593 284 39 27 30
219 586 287 54 22 29
221 583 290 70 28 35
374 548 303 31 28 32
222 588 289 100 23 38
220 593 286 59 28 33
221 593 289 95 25 39
215 595 267 155 12 48
215 598 269 154 1 43
224 631 276 165 0 42
214 597 270 151 1 41
219 601 256 40 32 37
218 603 264 142 14 45
302 922 373 74 71 72
220 604 258 71 28 34
221 608 259 99 26 41
218 608 269 141 3 39
