ply
format ascii 1.0
comment Created by Open3D
element vertex 2232
property double x
property double y
property double z
property uchar red
property uchar green
property uchar blue
end_header
284 585 325 160 114 83
282 590 326 162 115 86
368 735 278 189 10 60
285 590 325 163 114 87
278 595 328 157 116 84
278 600 328 160 118 86
324 882 296 38 35 34
278 605 329 164 119 87
317 959 268 66 61 61
282 595 327 163 116 87
282 600 327 164 116 86
389 796 138 96 73 58
287 600 322 168 120 92
285 600 325 167 122 94
341 904 273 66 59 60
284 605 324 167 119 93
322 860 148 112 88 77
287 605 322 166 118 90
337 905 233 62 54 52
257 610 324 154 117 91
259 610 326 155 117 91
256 615 325 155 116 89
263 615 328 157 116 89
256 619 325 159 120 92
258 620 327 158 117 90
350 782 139 49 43 42
256 624 325 162 121 93
263 620 329 155 114 86
273 615 329 162 116 87
268 625 329 161 118 87
263 630 329 158 117 88
346 873 295 38 35 34
258 640 328 157 114 89
263 635 329 160 117 88
263 640 329 162 115 88
268 630 329 163 117 86
268 635 329 165 119 86
268 640 329 164 116 86
340 896 231 69 62 62
273 635 328 167 117 85
329 640 285 115 26 43
273 640 328 165 115 84
309 875 144 116 94 80
368 770 123 60 51 44
278 610 328 164 117 87
273 885 322 168 126 99
278 625 328 164 115 83
383 770 103 100 73 57
282 610 326 166 117 88
284 610 324 167 119 92
284 615 324 166 117 89
358 885 233 72 63 63
284 620 324 162 114 85
281 846 231 150 107 83
281 625 326 162 113 83
284 625 323 161 113 83
411 775 217 143 100 67
286 624 321 162 112 84
278 635 327 161 113 79
282 640 323 166 116 90
291 973 250 91 86 87
288 875 228 53 49 49
323 515 269 85 44 41
323 520 268 105 62 58
325 516 271 130 84 75
326 513 270 81 43 32
328 518 271 148 101 93
328 525 267 130 84 73
328 527 265 92 49 44
333 519 272 118 71 63
333 525 268 142 96 80
330 513 277 88 50 43
333 515 278 128 80 70
331 512 280 116 69 63
357 601 272 69 26 31
322 531 266 42 28 29
328 530 265 83 39 39
325 534 265 39 30 30
293 885 309 157 123 96
328 535 263 52 25 29
326 537 266 41 29 26
325 544 270 130 22 47
333 531 264 153 105 88
333 528 266 154 106 87
407 830 227 131 92 74
332 541 262 75 20 31
305 901 192 77 70 70
334 540 259 60 26 31
330 543 265 138 16 44
338 521 273 155 102 88
338 525 269 150 100 84
293 705 318 72 27 35
338 523 271 156 104 87
343 524 272 168 110 91
348 526 269 164 104 83
353 524 271 173 114 90
343 516 279 176 118 95
343 519 277 171 111 92
342 514 282 180 120 98
348 515 279 176 117 94
348 519 277 175 118 94
346 513 281 175 115 92
350 512 280 182 119 100
338 533 261 157 100 85
343 531 263 171 112 93
343 533 261 168 108 92
338 528 266 159 106 88
343 528 266 168 110 90
337 540 257 43 26 28
348 533 261 158 102 82
312 847 281 158 126 100
283 855 303 131 105 76
353 536 258 133 77 62
326 546 271 127 15 41
334 549 264 139 11 42
329 549 269 141 14 43
321 546 276 40 29 30
324 550 274 78 24 35
323 555 278 48 27 31
327 560 277 34 28 31
320 554 280 50 29 30
322 560 282 98 23 37
328 565 279 52 28 32
323 565 283 72 25 33
320 568 285 77 27 36
323 570 284 39 28 29
273 965 303 64 59 58
322 575 286 42 26 28
324 575 285 31 28 30
329 569 280 103 19 38
333 570 278 110 19 39
335 569 275 52 21 28
330 573 280 145 15 45
278 660 308 62 49 44
336 546 261 139 12 42
325 936 289 58 51 48
339 549 259 138 11 42
333 880 188 75 67 67
337 550 262 139 12 42
342 546 256 135 11 41
344 555 259 140 10 42
342 556 261 140 11 42
343 560 263 140 9 42
337 556 267 139 10 42
329 835 259 67 55 44
346 556 257 142 11 43
345 559 260 141 9 43
336 562 271 138 11 41
283 959 235 96 92 97
342 566 267 140 6 43
338 570 273 135 12 42
308 925 326 43 39 38
344 570 268 141 3 44
341 571 271 141 8 43
342 575 272 146 5 45
349 565 258 141 7 43
346 562 261 140 8 43
347 566 262 142 5 43
348 570 263 143 1 43
350 569 260 141 3 42
349 575 263 141 1 44
293 810 292 65 52 45
345 568 265 141 2 43
346 571 266 143 0 43
312 913 314 41 38 38
346 576 267 145 0 44
337 575 276 146 12 44
419 815 214 95 70 53
324 877 182 77 70 70
358 520 272 177 118 95
363 515 272 176 122 96
362 519 271 175 121 96
363 520 269 178 123 97
360 867 222 66 58 58
368 515 268 182 131 107
272 680 322 172 117 91
367 520 267 173 124 98
363 525 267 182 122 95
368 525 264 179 125 100
359 516 274 180 122 98
299 770 305 78 63 55
357 514 276 186 126 103
358 535 263 152 93 71
358 529 267 173 116 88
358 540 259 138 83 66
359 539 261 148 90 71
368 535 262 168 115 88
363 531 265 181 122 94
362 541 260 151 93 73
368 540 261 174 121 92
368 545 260 171 116 89
375 515 258 155 128 104
375 520 259 172 138 112
339 866 145 80 72 69
370 517 265 186 136 113
278 880 233 68 61 57
372 525 262 181 133 109
376 521 257 162 132 106
377 525 257 157 127 99
372 535 261 164 117 90
371 538 261 164 116 89
373 540 260 161 110 83
373 545 260 173 118 94
381 536 256 146 116 83
382 545 257 188 134 111
311 839 178 47 45 45
363 550 258 157 101 80
368 550 258 170 116 90
356 572 256 80 19 29
373 555 257 177 121 93
378 550 258 185 129 103
381 554 256 182 128 100
322 580 287 101 17 38
328 580 283 151 14 50
328 585 283 162 11 52
328 590 283 138 15 45
333 580 279 157 7 49
331 577 281 152 12 47
331 585 281 163 10 52
331 590 281 120 32 49
322 600 287 102 20 39
328 595 283 79 25 37
328 600 282 65 23 33
322 605 287 43 26 30
324 605 285 103 25 40
333 595 279 79 25 37
330 600 280 83 24 37
330 605 280 58 22 32
342 580 272 152 1 47
349 580 264 137 3 42
347 580 267 145 1 44
345 580 270 149 0 46
347 585 267 138 4 43
348 590 268 131 9 41
353 589 265 90 11 28
353 591 266 73 15 27
339 580 275 154 4 47
337 580 276 156 5 50
339 585 275 161 4 50
406 815 175 118 83 63
337 585 276 162 7 51
339 590 275 158 8 50
342 595 272 139 10 45
344 595 270 134 11 43
342 600 271 122 16 42
348 599 270 64 19 26
353 595 268 54 22 26
352 598 270 54 25 30
278 864 310 155 125 93
339 595 274 147 12 47
339 600 274 113 16 38
338 605 274 39 26 28
336 606 276 29 27 27
353 605 274 54 30 33
279 876 235 84 71 58
322 610 286 111 28 42
321 615 286 74 26 35
328 610 282 116 23 41
328 615 282 73 22 32
324 619 285 50 28 29
323 625 289 70 23 30
328 620 283 47 26 28
328 622 286 59 22 29
343 860 285 57 45 36
319 801 279 173 120 99
358 685 273 104 20 37
333 610 278 42 25 27
330 615 280 98 21 36
333 620 283 54 26 28
288 855 298 122 99 74
333 625 286 60 29 33
328 635 287 90 27 40
323 640 288 98 23 40
328 630 288 90 27 38
334 630 284 42 28 31
338 614 279 39 26 27
343 608 275 30 26 25
343 610 277 34 26 26
338 616 281 41 24 25
338 620 283 64 26 31
338 625 284 62 28 32
343 620 282 96 30 42
342 625 282 101 28 42
348 610 277 40 29 30
352 615 276 35 30 31
346 616 281 89 34 42
294 972 252 78 74 76
347 650 272 103 23 40
351 619 276 32 30 32
284 770 310 47 40 40
350 622 275 47 27 29
350 626 275 84 25 36
345 622 280 99 31 45
357 834 161 82 64 54
344 626 279 160 32 58
348 635 273 68 29 35
346 869 189 81 68 64
353 635 268 60 31 35
351 634 271 47 27 33
353 640 267 44 29 32
341 628 281 117 35 51
340 632 280 44 26 29
308 920 213 73 66 67
339 635 279 77 29 37
338 640 279 74 29 36
369 831 155 89 69 59
336 638 281 140 22 49
345 636 275 102 33 43
320 628 290 42 25 27
323 635 289 128 22 46
320 640 290 123 17 43
355 579 260 104 9 34
358 580 258 126 10 40
356 582 261 84 16 26
357 585 262 122 9 38
358 590 263 147 12 47
360 590 259 168 6 52
361 758 271 86 65 58
357 592 266 105 19 40
317 845 153 86 71 65
318 815 183 49 45 46
293 755 313 78 63 57
361 586 256 168 8 53
358 595 268 77 26 36
347 790 267 77 60 53
360 600 263 146 20 49
361 600 258 161 14 50
283 974 273 60 58 59
360 601 260 156 20 54
360 605 259 112 20 42
356 610 272 94 39 48
356 614 271 49 28 32
263 883 242 110 88 66
359 625 263 143 22 48
343 856 167 78 67 63
355 620 270 101 24 42
354 625 269 137 27 50
357 620 268 143 22 49
360 610 258 106 19 39
361 608 256 157 18 53
361 620 257 95 28 41
356 629 266 106 29 44
355 637 265 55 33 34
355 641 265 42 29 31
360 630 260 71 25 35
362 635 257 62 28 33
336 934 258 59 53 50
288 645 303 133 19 44
288 650 302 126 15 39
329 856 282 41 35 31
284 645 308 94 47 44
284 645 318 168 113 87
280 656 308 69 49 45
280 656 313 141 95 72
282 650 318 168 115 86
288 660 303 41 23 28
288 665 304 33 28 30
279 660 304 66 28 32
288 860 303 135 108 77
278 660 313 134 91 70
278 665 304 66 28 33
347 863 175 79 68 63
278 660 318 166 115 88
276 665 318 159 113 87
274 670 308 82 60 47
275 670 313 114 79 60
276 668 314 138 98 75
333 655 283 76 24 36
283 670 305 51 27 29
275 674 310 86 66 49
275 675 313 107 77 57
280 673 305 36 33 30
276 685 312 67 50 41
403 805 173 120 84 62
275 685 314 102 72 54
383 740 263 133 29 51
283 680 308 39 27 29
288 680 309 42 30 30
283 685 309 87 26 36
288 686 311 74 28 35
386 858 260 100 72 70
277 690 312 77 42 39
279 689 310 97 30 37
278 695 312 68 38 36
275 690 314 98 66 51
427 791 208 100 74 51
274 690 318 145 97 73
303 695 314 80 29 36
275 695 314 100 66 52
400 774 162 69 52 42
274 695 318 146 97 72
275 705 315 98 62 49
274 705 318 147 94 72
271 910 321 161 127 100
278 705 313 84 32 38
283 695 312 74 23 33
288 690 312 56 27 34
288 695 314 85 26 39
320 730 310 179 7 58
283 705 314 148 18 47
286 703 315 153 17 46
386 715 262 68 27 35
292 645 301 137 10 42
293 650 301 131 11 42
298 649 300 135 7 43
297 651 301 132 9 42
298 655 301 85 18 35
378 825 158 87 67 58
300 653 300 133 13 43
382 803 140 95 67 52
303 655 300 135 9 42
293 660 303 34 28 29
298 660 302 33 27 30
298 665 303 72 27 36
303 660 301 113 16 39
304 659 300 147 15 46
303 665 302 141 15 46
303 670 304 120 17 41
293 672 306 36 29 28
298 672 306 37 28 30
313 645 294 152 4 47
308 645 297 149 2 47
308 655 298 148 4 47
263 875 252 103 85 66
308 660 299 149 6 46
308 896 183 77 71 70
306 662 301 147 13 48
309 665 299 147 6 45
307 666 301 145 11 45
313 660 297 152 3 47
311 672 301 142 9 45
318 660 294 141 12 45
388 790 133 85 62 46
316 662 296 154 7 50
317 665 296 155 5 49
319 669 295 151 6 48
317 670 297 147 7 46
293 675 307 40 29 29
293 680 309 36 29 30
293 684 310 38 28 31
298 675 307 74 28 35
298 680 309 74 26 34
304 674 305 57 24 31
379 780 244 47 39 40
298 684 310 45 26 29
298 686 311 40 30 32
303 685 309 92 15 32
294 697 316 81 24 32
298 690 313 56 30 33
303 700 317 36 29 32
312 675 302 140 10 45
313 680 303 137 8 43
315 678 300 140 9 45
318 680 299 135 12 43
307 681 306 133 12 42
312 686 306 133 5 41
352 675 272 72 22 33
305 688 310 95 12 35
313 690 308 131 5 42
314 695 309 129 7 40
309 699 315 114 14 38
314 705 314 133 6 43
319 694 305 135 9 41
317 695 307 132 6 42
300 767 305 81 66 58
318 700 308 132 5 41
263 820 319 184 133 106
263 645 328 165 115 89
258 650 328 172 121 96
258 655 327 157 109 85
352 842 172 78 63 59
263 650 328 173 122 98
403 824 183 115 82 66
263 655 328 159 111 84
302 968 249 88 83 85
273 645 328 162 115 82
268 650 328 166 116 87
295 866 203 45 43 45
273 650 327 164 117 84
263 665 328 163 117 88
272 660 327 172 119 89
268 660 328 162 115 85
271 664 326 176 119 93
268 670 327 173 119 92
270 670 325 176 119 94
273 670 323 177 121 95
276 650 326 167 118 88
281 650 321 175 124 97
274 660 324 177 124 96
276 664 322 177 126 96
275 667 320 173 123 92
320 951 246 83 76 77
258 680 329 161 115 87
263 685 328 170 115 89
268 675 327 175 119 91
354 892 288 97 80 74
267 680 327 176 119 91
270 675 325 175 120 93
283 911 183 107 98 98
269 680 325 175 120 93
266 685 326 173 117 88
269 685 324 174 121 93
258 695 330 164 114 83
263 700 327 170 115 86
256 701 331 166 115 85
268 695 324 172 118 91
266 695 326 173 118 90
266 700 326 173 119 90
340 906 258 63 56 55
268 705 324 172 118 91
272 700 321 164 109 84
275 708 315 91 55 43
274 710 318 147 92 72
278 710 314 101 38 41
368 896 293 91 75 79
276 711 316 115 65 53
278 720 317 130 48 50
285 707 316 156 17 50
281 714 315 149 28 46
283 715 316 159 20 51
283 720 317 158 27 52
288 715 318 172 13 54
288 720 318 181 12 57
278 730 318 138 47 51
283 735 317 164 24 55
288 735 317 178 17 57
270 736 320 177 121 96
269 740 320 177 120 97
273 740 317 139 79 67
333 865 173 75 65 64
269 750 319 174 118 92
271 750 316 170 111 88
269 755 319 171 116 88
368 894 289 110 91 100
271 755 316 167 110 85
269 760 319 168 116 85
271 760 316 164 111 85
269 765 318 166 118 86
271 765 316 163 114 84
343 871 293 41 36 34
278 739 316 139 42 51
277 847 293 91 75 59
278 742 315 137 39 50
278 963 306 60 55 54
293 810 208 85 66 57
281 745 315 161 20 51
288 740 317 170 18 56
288 745 316 162 18 55
368 830 272 54 42 34
278 755 312 101 43 42
278 760 312 104 77 58
408 810 224 85 63 50
323 875 178 71 62 62
274 760 314 141 94 69
283 755 314 88 45 48
288 760 312 75 60 54
366 794 251 79 61 56
285 767 310 60 49 46
288 765 310 74 59 51
293 710 319 142 20 47
293 720 319 179 12 57
293 735 318 72 24 36
298 730 319 66 25 35
298 735 318 83 26 38
303 730 319 150 21 53
303 735 318 103 29 43
313 710 317 144 9 46
313 715 317 154 9 48
308 720 320 138 16 48
313 720 317 165 8 53
269 837 288 45 36 35
368 825 253 39 34 29
319 710 309 142 0 44
313 955 288 65 59 58
337 848 280 41 35 31
320 719 310 163 0 52
326 776 176 70 57 50
315 715 315 153 3 49
315 720 315 167 2 53
303 725 320 185 13 60
308 730 318 151 15 49
312 730 317 176 12 56
312 734 316 176 14 56
384 822 162 88 68 57
318 725 313 177 2 56
315 725 315 176 5 57
319 735 309 77 22 39
314 731 315 175 14 55
314 735 314 145 17 49
293 745 316 70 30 37
293 750 315 59 29 35
298 740 317 120 28 47
263 790 223 80 62 53
298 744 316 66 30 35
303 740 317 53 26 31
304 879 149 113 91 76
303 743 316 45 28 31
298 750 314 128 33 49
326 903 210 70 63 64
303 746 315 61 32 36
293 759 311 86 69 60
268 930 322 50 42 41
271 710 321 168 112 88
303 756 309 89 73 65
303 760 307 88 71 62
267 971 263 77 72 72
301 764 306 86 69 60
304 761 305 91 73 62
320 751 299 96 73 63
318 750 303 94 74 65
309 741 315 182 15 58
313 745 312 178 16 56
318 745 308 96 30 42
316 743 311 153 25 56
323 680 297 68 23 33
315 746 310 173 20 59
338 884 304 37 35 34
317 750 307 89 62 58
308 760 304 93 73 63
310 766 300 92 70 59
319 755 299 95 72 62
316 754 302 95 73 63
318 760 298 92 71 60
316 758 301 92 71 62
353 835 277 59 45 32
290 827 280 83 58 46
317 764 297 90 69 59
307 753 311 79 61 57
308 755 308 91 73 64
307 759 306 94 72 64
263 710 328 171 116 87
313 834 275 159 123 97
257 710 331 168 115 85
270 892 229 69 60 54
263 715 328 171 115 86
263 720 327 172 116 87
259 715 330 169 114 83
268 715 324 176 120 94
266 715 326 173 120 91
258 870 310 142 127 123
268 720 324 177 120 94
337 794 272 114 89 77
271 715 321 174 115 91
263 725 327 174 117 88
264 735 325 176 119 90
282 880 316 163 126 99
258 735 329 173 116 87
268 725 323 179 121 95
294 869 304 143 115 86
370 857 196 92 71 61
268 730 323 179 121 95
264 730 325 177 120 90
280 919 177 83 73 67
268 735 322 178 122 94
270 732 320 177 120 95
258 740 328 173 116 86
262 740 326 174 117 87
261 745 326 173 118 88
258 750 328 169 118 85
266 745 322 177 122 96
313 925 218 78 69 70
266 750 321 174 120 95
258 760 328 169 120 87
263 755 324 169 119 88
261 755 326 169 118 87
349 776 159 48 44 43
264 765 324 165 119 86
266 760 321 168 118 87
266 765 322 167 118 87
297 720 320 178 14 56
303 715 321 130 16 44
300 723 321 184 13 58
305 722 320 175 20 62
323 645 288 152 18 49
328 695 299 75 23 36
326 645 286 86 21 34
323 650 289 102 19 39
327 655 287 46 26 31
333 650 282 79 26 35
330 654 285 56 28 32
330 660 285 158 17 49
333 660 283 154 17 50
328 665 288 141 7 44
333 665 284 137 11 42
398 770 88 102 81 65
332 670 287 143 7 45
347 645 272 45 27 31
347 655 272 95 22 38
350 655 269 79 24 37
338 645 278 75 26 36
341 645 276 40 27 29
344 650 274 67 24 34
342 655 277 45 26 32
353 665 268 153 16 49
338 660 279 80 24 38
342 660 277 150 24 53
337 666 281 134 13 41
343 670 278 125 14 40
338 670 282 115 13 38
345 660 275 115 21 43
345 668 275 122 19 44
321 651 291 142 20 52
321 656 291 53 28 33
279 800 215 80 63 54
322 660 291 116 17 40
324 660 290 120 18 42
325 665 290 145 8 45
333 675 288 144 12 46
335 674 285 144 13 45
334 680 289 91 20 35
344 675 279 127 19 43
338 675 284 87 19 35
336 676 286 145 16 45
337 680 287 89 18 34
339 679 285 103 21 39
342 686 286 51 24 28
323 881 187 81 76 78
345 678 280 81 25 38
350 678 275 32 28 30
410 783 173 91 66 52
351 681 276 61 22 28
349 684 279 51 29 31
353 685 278 54 28 31
343 690 288 57 26 32
346 691 286 71 27 33
354 689 279 37 28 29
348 700 289 38 28 30
352 700 287 41 30 32
323 675 294 122 12 40
368 854 188 92 73 64
321 676 296 86 13 34
329 684 294 39 28 30
323 685 299 130 14 41
321 687 301 139 9 45
332 681 291 39 27 30
323 695 303 140 14 45
328 690 298 119 18 40
332 925 278 46 40 38
326 696 301 143 22 50
344 790 133 65 54 51
323 700 304 131 12 40
333 690 294 46 26 29
333 700 297 118 21 43
321 701 306 135 9 42
336 686 291 78 21 34
339 689 290 97 21 36
341 692 291 27 28 29
312 914 209 74 65 65
278 911 184 94 84 84
342 696 292 45 28 31
344 694 289 53 28 31
338 700 294 101 24 41
339 705 295 107 20 40
343 700 292 75 29 37
336 697 296 24 26 33
336 700 296 100 19 35
378 850 178 84 68 62
336 705 296 43 24 30
345 698 290 80 30 40
331 730 296 158 14 52
346 702 291 32 30 31
361 828 258 39 33 29
346 704 291 32 28 29
348 705 289 33 29 30
312 949 234 82 76 77
353 705 287 43 30 32
359 646 259 41 29 33
355 645 265 33 29 32
355 655 264 89 19 35
359 650 259 83 27 36
362 645 257 71 31 36
361 650 256 101 34 44
359 660 259 48 26 29
357 660 263 129 18 42
355 659 265 127 22 47
359 670 263 146 14 45
257 790 227 77 60 51
360 665 260 132 15 43
362 665 258 145 17 45
361 671 261 143 14 45
355 678 270 36 26 33
357 675 267 53 25 33
358 680 269 41 27 31
378 772 106 110 82 59
364 674 259 136 10 41
368 680 258 131 9 42
362 681 267 33 30 31
366 681 262 126 13 40
368 685 263 90 19 32
363 685 268 66 26 32
388 845 218 105 75 65
366 686 266 60 28 31
359 689 275 41 25 29
358 690 277 36 27 30
335 917 293 62 54 52
357 696 281 62 25 31
360 698 280 95 16 31
364 694 274 95 18 35
364 791 255 72 56 51
361 692 276 52 26 24
362 696 277 92 17 33
363 700 279 121 12 38
367 701 277 127 8 38
362 701 281 104 19 39
372 685 258 118 9 37
372 690 263 108 14 36
308 934 220 85 77 79
374 694 264 120 4 38
356 855 184 71 61 56
371 692 266 55 27 30
370 694 270 88 16 33
372 700 272 127 2 39
378 695 258 126 9 40
377 696 263 120 0 36
381 697 256 128 10 42
384 705 258 110 17 39
321 790 181 74 60 51
383 705 263 77 20 33
287 880 218 48 46 51
376 697 266 124 1 40
263 815 322 180 131 103
377 700 267 128 5 40
381 706 267 134 11 41
372 706 276 137 9 42
347 874 199 85 71 67
353 710 287 52 31 36
343 720 289 122 24 45
366 793 125 89 66 52
348 720 286 82 28 38
353 720 285 88 24 36
348 725 286 87 25 38
350 721 285 139 22 45
327 715 302 156 4 49
329 715 299 166 9 54
333 715 297 170 16 55
332 720 297 159 13 50
322 710 307 143 2 45
325 715 305 151 1 46
325 720 305 161 0 51
328 735 298 57 27 35
334 725 294 118 18 43
333 730 293 162 19 54
333 735 293 84 29 40
331 734 296 51 23 28
323 725 308 174 2 56
320 725 310 175 1 55
268 935 218 89 81 83
339 710 294 83 20 36
338 715 293 109 21 42
342 715 291 108 24 41
341 718 291 33 24 28
336 713 296 171 23 61
345 707 290 36 30 31
345 710 290 48 29 31
337 725 291 62 24 33
340 721 290 51 24 32
336 730 291 160 22 55
338 735 289 87 34 42
336 734 291 104 30 45
410 807 176 120 85 63
334 750 284 89 69 59
263 940 323 54 52 53
326 764 287 91 69 59
329 765 284 90 69 60
330 761 284 91 69 61
331 758 286 90 69 60
338 740 288 78 60 53
343 740 287 73 57 50
373 740 274 184 11 59
338 746 284 85 66 57
341 743 286 83 65 56
344 742 285 74 58 52
348 740 286 77 46 45
354 832 276 51 38 26
349 742 285 68 52 48
351 739 286 132 32 51
348 751 280 81 63 55
353 750 279 83 66 57
284 915 315 130 102 78
364 771 128 53 45 42
352 748 281 82 65 56
339 755 280 81 62 53
370 867 247 63 56 56
343 755 279 81 63 53
358 889 253 73 64 63
343 760 278 83 64 53
343 752 280 80 62 53
343 765 277 84 64 54
348 755 278 83 64 54
348 760 277 84 65 54
353 755 277 83 65 56
352 760 276 83 65 56
317 860 282 133 105 87
347 764 276 83 64 54
324 740 303 57 27 33
393 840 263 63 50 37
327 744 297 91 73 63
324 750 294 94 71 61
367 883 273 97 75 66
327 750 292 93 71 60
326 953 262 65 61 60
321 748 301 96 75 65
330 741 295 73 59 55
330 737 295 31 28 33
358 859 279 47 38 33
334 741 289 82 63 54
321 740 307 46 28 31
326 759 292 92 69 60
321 755 296 93 71 61
321 758 296 92 71 59
292 806 206 85 66 56
325 762 290 91 70 62
354 715 285 59 28 33
363 710 282 67 23 35
354 735 285 172 17 55
358 735 284 109 22 43
363 725 283 54 29 33
369 730 279 188 13 59
363 730 282 60 26 34
362 735 282 64 24 34
366 729 281 171 23 62
364 736 280 178 18 61
280 777 310 157 118 88
381 712 271 144 8 43
384 715 268 148 15 47
384 720 268 146 16 48
382 720 272 169 8 53
373 720 278 80 22 37
318 825 158 58 52 51
376 712 276 148 12 48
376 715 276 157 12 49
371 858 218 75 59 53
379 720 274 171 9 54
276 818 306 173 130 103
376 720 276 173 13 54
381 730 271 182 9 58
348 798 129 84 63 50
378 730 273 185 6 59
297 890 306 145 111 86
382 735 268 145 16 49
380 735 270 185 8 59
370 721 280 107 30 44
370 725 280 182 18 60
374 736 275 188 5 60
376 725 276 183 11 58
358 740 282 174 19 57
327 949 268 50 43 42
360 741 280 183 16 59
358 750 277 83 66 59
354 747 280 81 65 59
369 741 275 185 14 59
366 744 276 166 24 59
361 738 281 108 8 35
368 750 273 62 51 49
360 761 270 86 66 57
359 765 269 85 65 57
357 764 272 85 67 58
318 826 271 161 121 97
364 756 270 89 69 59
367 753 271 89 70 63
368 756 269 92 72 65
364 766 265 91 70 61
369 761 264 94 73 66
301 958 306 69 60 58
354 760 275 84 66 57
358 755 274 85 66 58
372 749 272 80 29 41
373 745 273 111 19 43
383 740 258 99 28 43
348 859 169 81 67 62
381 745 263 81 31 40
334 882 301 38 36 34
377 745 271 186 14 58
382 740 267 158 15 51
381 744 266 104 17 40
380 750 263 75 25 35
377 750 268 172 21 57
373 760 262 94 75 66
374 757 264 90 73 66
370 767 260 93 75 63
379 755 258 91 47 51
307 964 283 61 55 53
378 755 263 67 46 48
370 822 151 85 66 55
386 707 257 135 17 44
386 710 258 113 22 40
386 711 261 69 27 38
387 715 258 94 27 41
379 877 276 98 79 67
385 714 264 108 23 42
385 718 265 82 7 31
386 725 263 37 30 34
386 724 266 47 29 32
385 727 265 37 29 30
395 777 152 65 50 41
385 732 260 52 34 34
353 785 123 67 54 48
405 832 206 98 74 64
348 790 128 80 62 54
350 790 125 84 63 52
353 790 123 87 64 51
350 794 125 88 66 54
385 846 203 99 74 67
353 794 124 87 65 52
363 775 108 90 69 57
360 775 113 74 60 50
365 772 113 62 50 42
368 770 109 88 69 55
368 775 108 92 69 56
365 772 109 89 69 55
363 781 113 81 62 52
368 781 113 97 73 57
357 780 118 70 56 48
355 782 120 70 57 51
355 784 120 70 56 50
360 777 123 46 42 39
362 774 118 52 44 39
362 774 123 52 45 42
368 769 128 55 46 41
365 772 123 58 49 43
363 783 115 86 65 57
358 791 122 87 66 54
363 794 124 99 73 58
363 796 127 95 69 56
368 795 128 92 68 53
420 783 193 116 82 56
373 775 109 101 75 59
373 780 113 106 78 62
374 777 111 113 82 64
378 769 104 109 82 59
380 768 100 106 81 56
378 774 109 116 86 65
384 771 107 90 68 51
382 773 109 89 68 55
371 768 118 57 46 38
372 783 115 100 75 61
373 785 118 102 74 58
378 780 118 90 66 51
382 779 119 89 67 54
378 785 123 90 67 51
380 782 121 93 69 55
271 910 191 91 82 79
383 781 122 95 70 55
265 841 288 48 43 41
370 787 121 90 65 52
373 790 128 85 61 49
376 788 125 85 62 48
377 788 129 82 60 49
359 776 264 89 67 59
260 832 305 167 114 90
275 802 310 170 124 92
313 875 142 98 79 65
325 872 125 90 79 69
324 871 128 91 79 70
328 869 127 91 79 68
327 872 125 91 79 69
322 878 128 95 79 65
293 770 194 101 42 47
333 869 128 90 78 67
331 873 125 92 80 69
297 771 192 83 51 49
299 770 190 97 36 40
303 770 188 111 38 45
299 775 194 81 62 54
302 776 192 79 61 51
299 785 194 83 64 55
298 790 193 83 64 54
303 786 189 81 62 53
300 786 190 81 63 54
300 788 190 81 63 54
313 770 182 119 28 40
307 776 187 77 59 51
303 780 193 81 62 53
314 780 184 71 56 48
312 785 187 76 60 52
318 770 179 123 25 39
318 775 179 71 56 50
304 790 185 78 62 52
309 790 189 80 63 52
388 795 240 60 43 32
308 795 192 85 66 54
310 793 190 83 65 53
313 795 188 84 65 54
311 796 191 85 66 55
308 800 193 86 66 56
295 866 193 42 40 41
318 790 183 79 63 53
316 790 186 81 63 54
318 795 183 77 61 53
316 795 186 83 64 54
320 830 154 62 55 55
289 827 284 49 39 36
318 815 173 49 45 45
320 805 179 54 48 46
318 815 178 50 46 47
315 810 188 73 59 53
313 810 192 81 64 55
315 814 190 69 57 52
316 811 186 62 53 50
317 820 168 48 44 44
358 885 238 73 63 62
314 825 173 51 47 46
316 823 173 47 43 44
312 830 184 48 44 44
317 820 178 49 46 46
317 820 183 49 46 47
316 823 178 46 43 42
315 821 189 55 50 49
314 820 193 68 58 53
314 825 188 50 46 47
314 825 193 56 50 48
316 823 186 52 48 48
264 775 219 80 63 54
261 772 221 79 61 52
265 769 215 78 60 52
268 770 213 79 60 53
275 932 326 40 38 40
315 802 280 172 118 100
273 769 209 82 59 51
273 780 214 81 63 52
266 782 221 81 63 53
363 856 191 78 63 57
266 785 221 81 63 53
273 785 217 82 63 53
375 877 272 90 72 63
267 790 221 81 63 54
269 789 220 81 62 53
273 790 218 81 63 54
263 795 224 81 63 53
273 795 218 80 63 53
270 798 220 84 66 55
378 820 154 92 70 57
278 771 207 84 60 52
284 769 200 119 40 52
283 770 203 88 58 52
283 775 204 82 64 54
279 775 209 80 62 52
283 930 327 45 43 43
281 772 206 82 63 54
281 776 207 81 63 53
284 778 205 84 65 54
283 780 208 83 65 53
286 781 206 82 65 54
275 784 215 82 64 54
280 778 210 82 63 54
282 785 211 80 64 53
283 790 209 82 64 54
293 820 289 55 46 44
288 790 203 83 65 55
286 790 207 83 64 55
287 795 208 82 64 55
279 795 214 80 63 53
277 800 217 80 63 53
281 790 211 82 64 54
283 796 212 81 63 54
257 775 226 72 58 51
257 780 226 74 59 51
259 780 225 75 60 51
259 785 225 77 61 51
256 800 231 83 63 54
261 796 226 82 64 53
264 800 225 82 63 54
268 805 224 83 64 55
271 801 221 83 65 55
280 804 215 80 63 54
278 805 217 80 63 54
278 810 219 83 64 56
277 816 222 86 66 56
283 805 214 82 63 54
285 809 215 84 65 56
288 810 213 85 66 57
283 810 217 84 65 56
286 816 216 85 66 57
278 820 223 85 65 57
279 825 224 84 65 56
273 955 232 96 92 96
283 820 219 86 66 57
281 821 221 86 66 57
283 825 222 85 66 57
288 825 218 87 67 58
286 826 221 86 66 58
288 830 219 79 62 56
257 806 231 84 64 54
402 815 232 70 55 46
259 804 230 84 64 54
263 805 227 84 65 56
264 814 230 85 65 55
258 816 236 87 66 56
267 810 227 85 66 56
268 815 228 85 66 57
270 814 225 86 67 57
271 816 226 86 67 57
258 820 237 87 66 56
258 825 239 86 65 56
402 777 154 74 58 48
264 820 234 88 67 57
259 830 240 86 66 56
283 916 197 89 81 81
263 830 238 83 64 57
266 817 232 87 67 57
267 820 232 87 67 58
273 820 227 85 65 56
270 824 230 85 64 57
316 778 291 87 66 55
271 826 231 85 65 58
298 875 163 100 83 71
272 830 231 75 58 55
257 830 242 87 65 57
392 809 182 112 81 67
276 822 226 85 65 57
274 830 229 71 56 54
279 830 225 76 59 55
291 771 196 84 58 53
289 775 200 82 63 55
293 775 197 83 63 54
293 780 199 83 65 54
293 785 199 83 65 54
291 785 201 81 64 53
298 780 197 84 65 54
294 799 200 82 64 54
289 795 204 83 65 55
291 792 201 83 65 55
291 796 202 84 66 56
359 824 249 37 33 29
290 799 205 81 63 53
298 800 198 83 64 56
298 780 302 76 61 54
303 795 194 83 64 54
305 799 195 86 66 55
291 802 206 83 64 54
303 805 198 88 68 58
296 802 201 83 64 55
267 851 253 186 124 97
304 810 199 88 68 58
298 810 204 86 67 57
297 815 207 86 67 57
299 814 205 87 67 57
303 815 202 87 67 57
292 815 212 85 66 57
294 815 209 86 66 57
298 820 208 86 67 58
304 820 204 82 64 56
302 821 207 83 65 56
258 820 322 191 135 107
303 830 209 69 57 52
293 820 213 86 66 58
292 826 216 86 67 59
298 830 213 71 58 53
309 804 194 87 68 57
310 810 195 87 67 58
310 814 195 83 64 55
264 832 304 161 113 87
400 819 234 87 67 53
305 813 200 87 67 58
307 820 202 77 62 54
308 830 203 68 57 53
305 828 205 71 57 54
311 829 201 68 57 53
287 880 178 80 72 70
343 800 133 90 67 55
284 880 183 61 57 58
286 879 182 59 55 56
283 880 188 49 47 49
283 880 193 39 37 39
278 885 193 47 45 46
279 895 183 94 84 84
275 896 189 81 75 74
274 895 193 59 55 56
277 890 193 53 50 51
276 895 188 86 79 78
281 889 182 94 82 80
280 896 180 92 80 79
333 894 203 76 67 66
288 890 177 88 75 72
270 877 245 114 94 72
315 840 159 61 54 54
317 835 158 61 55 55
316 845 156 77 64 57
312 855 153 95 80 76
300 867 168 59 54 54
310 856 155 88 77 72
309 855 158 76 67 61
406 823 183 117 84 68
309 885 179 87 78 74
308 860 158 83 72 67
310 859 155 91 76 72
312 860 153 99 82 75
297 846 221 124 90 71
311 864 152 125 108 98
309 866 154 119 103 97
314 855 150 95 75 67
319 851 150 90 72 62
313 865 144 120 93 80
313 865 148 134 112 97
318 860 147 114 90 75
302 864 173 51 47 49
303 855 188 46 44 45
298 865 183 51 48 50
303 860 178 56 52 55
302 859 183 50 47 50
381 853 211 109 93 94
305 856 179 53 49 51
297 923 325 39 37 38
372 840 271 59 48 38
302 863 178 54 50 53
299 866 178 51 47 50
299 861 193 46 44 45
324 936 293 57 50 46
301 858 188 46 44 46
301 858 193 47 46 46
311 835 173 50 47 48
310 834 175 52 49 48
311 845 168 52 48 48
311 844 172 48 45 45
310 842 175 46 43 45
314 835 163 55 51 51
313 840 163 56 51 50
313 845 163 57 51 50
315 942 300 48 44 43
310 835 178 52 48 48
310 835 183 52 48 47
311 837 178 49 46 46
311 839 182 49 47 48
312 835 193 54 50 50
310 841 178 46 44 44
310 845 178 47 45 46
309 845 183 46 44 45
309 845 188 45 43 44
310 845 193 43 41 42
310 852 164 57 50 47
309 855 168 52 48 47
310 852 168 52 48 47
308 855 173 51 48 49
310 850 173 51 47 48
305 862 163 64 57 53
304 865 163 67 58 55
306 864 161 74 64 60
308 850 178 50 47 48
307 850 183 46 44 46
307 854 178 52 49 50
305 852 184 46 45 47
307 850 193 40 38 41
306 853 189 44 42 44
306 853 191 42 41 43
304 870 158 103 88 76
299 880 158 113 100 95
303 875 153 134 114 107
304 871 154 124 105 95
301 873 157 106 87 75
300 877 155 115 98 89
302 882 156 119 103 97
303 885 158 98 82 77
300 884 160 107 96 92
310 866 142 111 88 78
310 869 140 108 84 71
374 775 253 92 74 66
313 870 143 108 86 74
310 874 140 95 82 73
313 879 139 98 79 64
313 880 143 109 87 70
314 867 134 94 79 68
313 867 138 101 79 67
317 865 139 104 84 69
314 879 132 94 78 64
318 876 133 94 79 67
316 872 140 94 79 67
318 880 142 99 79 67
390 772 80 112 81 58
305 867 160 88 76 68
306 868 157 101 85 73
305 872 144 160 136 132
306 873 151 149 131 131
312 841 207 48 45 48
313 875 149 150 135 128
312 878 149 133 115 102
315 872 151 109 92 81
320 865 153 126 111 107
314 876 152 116 99 94
315 877 158 101 88 80
318 875 158 95 83 76
310 882 156 109 91 81
317 882 147 93 78 69
320 883 144 100 79 70
319 883 147 97 83 76
319 890 159 95 88 87
293 970 248 88 84 86
294 872 173 55 52 53
292 875 173 66 59 59
292 880 172 94 79 75
299 871 164 86 73 64
300 867 174 49 45 47
310 847 196 39 38 39
297 869 173 52 49 51
398 830 243 79 58 46
296 874 167 85 72 64
308 887 186 86 82 84
297 880 163 102 90 84
296 880 166 93 81 76
293 870 183 48 46 48
275 892 194 53 50 50
292 870 188 46 45 46
292 870 193 41 39 40
295 867 184 48 46 47
295 866 188 45 43 44
291 874 178 52 50 52
378 885 283 118 103 103
398 770 83 105 80 61
291 873 183 50 49 51
296 868 182 49 46 49
298 885 168 93 81 76
300 889 168 82 68 60
299 889 173 87 73 67
303 890 173 78 68 64
292 887 176 85 71 67
293 895 182 81 72 71
288 890 313 160 120 96
294 892 181 76 67 67
297 892 181 77 71 69
319 871 172 83 71 69
368 860 278 45 40 36
313 880 163 100 89 84
316 873 167 88 76 69
314 876 173 81 70 70
333 920 283 60 53 52
372 851 169 83 68 63
313 880 182 78 72 74
317 878 180 69 60 63
320 877 181 74 64 67
308 886 163 95 80 75
311 883 160 100 88 83
309 887 167 87 75 70
312 889 167 85 74 72
318 887 161 93 87 86
316 888 162 95 88 87
310 882 180 84 74 71
343 911 298 68 57 54
312 884 177 90 82 79
262 775 327 166 121 89
310 882 182 83 77 78
313 885 185 83 77 78
335 782 275 83 62 54
308 890 178 92 84 81
305 889 184 82 76 74
308 889 183 87 81 79
308 894 180 84 78 76
312 890 183 87 81 82
305 890 186 84 78 79
315 887 186 84 78 77
316 884 185 82 75 74
319 882 186 79 71 72
314 891 187 75 68 68
313 895 193 67 61 60
318 890 188 77 70 69
319 891 192 72 66 65
283 835 224 90 74 67
284 839 225 150 110 86
269 835 234 76 64 60
268 840 238 167 114 89
272 835 232 114 88 76
273 840 234 168 116 92
258 835 243 68 55 54
256 836 246 69 54 53
258 840 248 108 85 74
320 812 168 51 47 46
261 836 241 45 38 45
263 840 243 164 117 91
261 842 246 185 128 100
260 844 249 193 137 108
264 849 253 193 131 103
269 849 244 179 123 95
302 919 209 82 75 76
268 850 248 186 126 98
270 854 249 181 123 93
271 852 246 178 119 92
271 856 251 140 92 66
268 860 253 110 81 52
263 866 254 107 85 59
271 859 251 113 79 53
272 865 247 115 90 63
279 840 229 166 117 92
277 841 231 167 117 92
280 844 230 158 111 87
274 844 235 167 116 90
280 834 225 38 38 47
281 836 226 164 122 97
283 845 228 146 104 81
286 845 226 138 100 77
274 849 239 166 114 87
279 860 238 133 100 70
278 865 238 133 102 73
284 850 229 138 99 75
283 855 233 133 97 73
288 855 229 126 91 69
286 860 231 120 91 67
289 865 229 90 71 56
283 865 234 116 91 65
281 864 236 120 94 67
275 860 244 144 104 74
274 865 244 119 90 63
276 860 242 138 101 72
299 796 295 81 64 53
272 894 213 43 42 45
337 899 219 84 73 71
287 879 198 36 34 36
288 879 223 46 44 47
276 889 198 46 44 45
274 891 203 45 44 45
274 891 208 39 38 41
280 882 194 40 38 39
361 793 256 78 62 55
280 882 196 36 35 36
284 881 203 36 35 37
282 884 203 35 34 36
279 886 224 51 49 51
276 893 214 41 39 44
274 891 218 44 42 45
274 891 223 49 47 48
278 890 218 46 44 47
280 887 211 38 37 40
285 882 213 45 43 46
282 884 222 53 51 53
285 882 218 52 50 53
286 886 218 50 49 52
283 889 218 48 46 49
282 888 221 53 50 54
333 920 293 57 49 47
259 866 255 113 92 67
258 870 254 119 95 69
263 870 253 106 87 66
259 881 248 102 86 69
267 879 247 96 78 60
272 875 243 100 82 63
266 875 251 89 74 58
263 887 235 117 86 56
263 885 238 121 93 65
259 896 233 129 94 78
262 894 232 141 96 76
258 895 238 91 67 55
273 880 238 79 69 60
269 886 234 84 70 56
268 894 228 71 57 48
267 893 232 83 60 45
257 890 243 129 98 75
340 891 213 83 71 70
256 890 247 113 94 73
256 894 242 112 90 69
256 893 246 110 92 72
274 875 239 90 76 63
274 881 234 76 67 59
277 875 237 91 74 57
283 870 233 106 84 63
282 770 311 63 52 45
289 870 229 64 56 50
283 880 228 49 48 50
286 874 231 64 56 50
283 875 233 80 68 57
276 884 231 66 60 58
278 885 228 56 53 53
281 883 226 47 47 49
293 835 218 54 48 49
291 841 221 134 101 76
293 845 222 130 96 75
313 900 303 120 84 71
294 844 220 128 96 73
299 839 215 68 58 52
376 788 246 67 55 48
304 834 209 65 55 52
303 840 214 81 66 59
298 844 219 125 91 72
342 779 167 52 47 45
297 864 198 45 44 45
304 855 198 39 37 40
299 861 203 41 40 43
293 850 224 126 94 72
304 852 214 55 49 49
298 850 222 113 82 64
300 855 218 53 47 48
298 855 223 77 59 52
301 850 221 91 65 54
301 853 218 56 49 48
301 853 221 62 48 42
299 860 213 49 46 48
298 865 213 46 44 47
300 857 210 48 46 48
297 860 223 58 51 49
378 775 248 81 64 56
296 864 218 53 49 52
312 835 198 53 49 49
342 899 238 59 53 52
311 837 203 51 46 47
364 800 250 73 57 50
313 840 203 53 49 50
396 798 155 73 53 42
306 837 211 48 43 45
307 841 212 62 54 51
271 819 312 181 132 106
308 845 214 83 63 52
312 845 212 58 49 48
308 850 198 39 37 40
311 848 199 35 31 36
309 851 203 37 35 38
308 852 208 43 40 43
306 849 216 59 48 46
294 854 225 118 87 68
293 860 227 91 70 58
295 860 225 69 56 51
295 866 198 43 41 42
293 870 198 41 38 41
295 867 206 48 47 48
294 870 208 46 44 47
291 873 195 39 37 39
335 926 265 43 38 35
291 874 199 44 42 45
290 876 197 41 39 41
292 874 203 40 38 43
269 832 299 90 65 55
289 876 208 41 40 44
289 877 203 39 38 41
362 862 281 42 36 34
295 866 218 53 49 52
294 870 218 46 44 48
291 874 213 46 45 48
289 876 218 45 43 47
292 874 218 41 40 44
292 875 223 44 41 45
296 868 209 46 45 46
318 896 198 74 66 65
292 870 227 52 49 50
327 935 238 76 68 68
291 874 226 47 46 49
346 833 254 36 30 26
334 801 144 55 47 48
333 800 148 51 46 45
332 800 153 44 41 40
393 769 98 86 65 51
335 797 154 45 41 41
332 799 158 48 43 43
348 785 133 52 46 45
353 780 133 49 43 40
352 780 138 49 43 41
341 784 158 54 47 46
344 781 158 56 48 47
352 774 157 45 42 41
344 786 148 50 44 43
386 814 155 82 63 53
348 780 153 54 46 45
346 783 151 54 47 46
351 778 147 53 46 44
350 777 153 53 47 45
347 779 158 57 49 47
344 787 138 48 44 44
340 792 139 62 54 50
339 791 143 48 44 44
343 795 133 78 61 53
403 835 233 107 77 62
340 795 139 59 49 47
338 795 143 56 49 47
345 787 134 52 47 46
342 789 148 45 42 41
340 786 158 52 46 46
338 790 158 51 46 46
337 795 148 48 44 44
336 798 146 54 47 46
328 770 175 87 34 39
325 772 175 117 51 57
333 775 174 59 49 45
352 805 257 49 41 39
335 872 187 71 61 61
334 786 169 50 45 45
323 775 177 73 56 48
323 780 178 73 58 50
320 784 180 76 61 51
327 795 173 50 45 47
329 796 168 50 46 46
325 797 175 51 46 45
325 800 174 51 46 47
333 790 168 50 45 45
331 789 172 49 44 44
341 864 132 89 76 65
330 792 170 49 45 45
329 791 174 49 45 45
333 795 163 54 48 48
329 801 158 50 46 45
331 798 161 51 46 44
327 790 177 56 49 47
321 795 181 68 56 50
322 800 178 54 48 47
327 794 177 54 47 48
338 775 172 54 44 43
344 771 169 52 43 41
341 773 171 51 42 41
340 776 170 50 46 45
339 785 163 53 47 46
343 780 163 53 48 47
341 783 162 53 47 47
336 779 171 53 47 44
289 927 212 90 84 85
349 771 164 44 41 41
352 769 162 45 40 41
353 770 158 46 42 41
270 790 320 166 126 96
337 790 162 54 49 48
336 793 161 54 47 47
332 805 143 63 54 53
335 802 140 63 53 46
334 815 135 85 66 53
333 810 138 87 70 61
331 809 141 66 54 51
330 812 139 85 71 63
332 815 137 88 70 58
328 805 153 50 45 45
325 807 155 55 50 50
324 815 148 65 56 53
326 813 147 66 58 57
325 812 150 59 52 51
323 810 158 55 50 48
340 842 162 84 70 65
321 815 158 59 52 49
328 825 143 81 64 54
333 827 141 91 70 55
329 830 144 91 70 58
324 820 148 61 52 50
324 825 148 63 53 51
325 820 145 65 54 52
323 830 148 68 55 51
338 815 133 75 57 46
343 810 129 82 62 49
343 814 130 82 64 53
348 805 132 79 61 51
353 801 131 83 63 52
346 810 130 85 65 53
349 810 132 88 66 54
263 950 319 76 70 70
353 810 133 91 69 54
354 814 135 100 78 59
353 825 148 104 79 61
339 818 135 76 60 49
342 818 134 84 68 54
343 819 138 97 74 57
343 824 141 103 76 57
338 830 142 111 85 63
345 817 136 103 82 65
348 821 141 103 77 58
353 820 138 105 83 63
354 822 142 103 80 62
347 826 138 117 94 78
347 829 143 95 78 65
345 832 148 95 76 64
349 827 147 102 79 63
348 831 158 78 61 51
324 806 163 51 47 45
322 810 163 56 50 48
322 809 168 52 48 46
321 814 162 56 51 48
320 812 165 50 45 44
322 809 173 51 47 46
322 805 177 52 47 48
358 770 143 53 46 43
358 774 138 51 44 42
356 774 142 53 45 43
356 778 131 53 45 41
360 772 135 52 44 40
361 770 137 53 45 40
354 771 153 49 45 43
355 772 150 50 45 42
357 769 153 56 52 51
356 773 147 53 47 43
373 795 132 90 65 51
375 792 131 81 56 44
385 785 133 77 60 52
383 790 132 86 64 51
292 895 311 148 112 89
378 794 134 86 65 51
376 798 135 89 64 52
379 796 136 91 66 51
378 800 137 91 65 47
358 802 131 82 61 50
358 810 133 93 72 54
358 815 138 97 72 52
360 803 130 97 73 56
364 806 132 102 76 55
365 802 131 110 81 59
351 849 165 78 63 58
367 804 134 98 73 55
366 808 135 101 76 52
363 810 138 102 75 52
363 815 143 88 63 50
367 809 138 103 75 53
368 810 142 88 64 50
365 812 142 92 66 53
353 819 135 112 89 67
357 819 143 95 70 53
359 829 148 93 72 61
359 829 153 82 65 56
358 831 158 83 65 55
363 820 148 84 63 52
363 830 154 86 69 62
370 806 141 103 75 56
372 806 141 95 68 52
374 809 140 97 71 55
379 806 142 95 68 53
373 815 148 88 66 56
384 806 148 92 67 53
379 811 148 95 70 57
377 813 149 91 67 55
378 815 152 91 67 54
381 808 145 100 76 61
383 810 152 80 60 48
371 819 149 83 63 55
373 825 153 97 77 66
374 827 145 91 72 61
374 828 145 92 73 61
353 830 268 37 32 29
374 827 159 93 74 65
379 822 157 91 69 59
383 820 158 87 66 54
377 829 157 79 65 58
377 830 164 84 67 60
378 831 168 84 68 60
384 826 168 85 67 58
381 828 165 84 68 59
328 860 283 41 35 32
334 831 254 62 48 36
348 815 255 116 90 74
350 812 255 57 40 37
353 815 253 42 36 35
329 886 301 39 35 34
328 835 147 95 73 60
344 821 255 135 97 79
343 825 254 81 57 46
348 825 252 70 51 43
353 825 252 32 28 28
348 830 253 38 32 28
358 800 254 64 51 46
384 780 238 150 105 76
321 768 291 89 68 59
375 771 254 93 75 67
373 780 253 90 72 64
370 781 255 90 72 65
375 781 250 84 67 58
380 775 245 59 49 44
382 770 243 48 42 42
380 770 245 67 53 47
381 768 246 72 55 48
377 769 252 92 74 66
377 780 247 77 61 53
382 780 242 79 61 52
381 785 241 118 90 68
373 790 247 74 57 50
370 787 250 83 67 58
329 925 294 54 47 44
307 968 258 89 85 89
369 790 249 79 62 54
372 795 246 72 57 47
371 799 246 70 54 45
324 896 306 39 36 36
406 809 226 81 60 48
381 790 241 135 98 71
378 800 242 64 51 43
383 797 241 82 59 42
355 802 255 57 45 42
357 810 252 60 48 42
359 810 250 65 52 45
356 814 251 59 48 42
368 810 244 63 48 41
366 808 246 65 50 42
368 815 244 50 40 34
363 825 249 47 37 31
363 827 253 41 33 29
374 816 246 56 43 32
378 805 244 54 44 37
383 805 244 65 49 37
378 810 245 63 49 40
340 906 273 68 61 60
377 813 245 65 50 38
412 795 173 105 74 57
383 810 245 67 51 41
384 814 245 61 47 38
373 820 248 47 38 29
371 823 250 41 35 30
373 823 253 43 36 30
383 819 249 49 40 33
378 820 249 46 37 31
383 821 253 50 40 33
381 823 254 53 43 35
321 839 151 79 61 55
323 840 149 91 69 58
320 845 150 89 71 62
328 845 149 106 83 72
330 833 145 96 76 62
333 839 149 116 89 68
330 846 153 113 92 76
324 865 143 113 89 79
325 862 139 104 81 71
325 865 139 104 81 72
327 861 143 99 80 71
321 852 145 92 71 58
324 855 153 177 164 158
327 854 159 120 100 87
321 860 153 138 126 121
326 856 144 99 74 65
321 865 159 109 91 79
333 849 160 116 88 70
342 834 143 109 85 65
337 837 146 126 97 72
343 835 153 92 74 62
346 833 151 96 78 64
345 832 158 87 69 53
353 840 158 84 68 59
348 840 158 90 73 63
348 846 157 86 72 65
351 798 261 63 51 45
348 844 155 91 77 71
342 862 133 91 76 63
344 862 143 80 68 63
343 864 144 84 74 67
347 861 144 83 71 65
346 863 143 84 73 67
303 918 315 33 32 33
339 850 159 97 74 63
342 851 155 88 69 61
343 850 157 88 70 63
343 865 148 78 67 60
340 862 150 79 60 53
340 862 151 84 66 61
342 865 152 80 68 61
347 849 159 82 67 62
346 862 147 81 67 61
346 863 147 83 68 62
329 855 161 115 89 69
328 860 162 105 82 67
407 770 188 136 100 68
333 851 161 101 76 65
333 860 163 94 77 66
332 863 164 90 74 65
332 863 168 82 70 66
335 861 167 81 70 66
343 840 168 81 66 60
344 837 166 79 63 60
342 843 163 88 71 64
340 843 162 85 70 65
346 833 160 67 53 45
348 835 163 74 60 55
398 815 172 117 82 63
347 839 163 84 68 60
346 837 167 83 68 63
353 900 313 72 59 51
348 840 168 79 64 59
369 847 172 80 63 57
353 835 162 78 62 54
351 838 161 84 66 57
344 842 171 75 61 57
259 897 229 141 99 70
376 853 184 87 70 61
351 842 170 77 63 60
270 936 326 54 52 54
273 845 298 103 84 65
352 845 173 76 60 53
338 855 163 90 73 64
336 858 165 91 75 68
340 857 166 82 69 65
348 850 163 82 67 62
347 854 165 85 71 65
422 786 188 123 89 64
348 856 167 84 70 64
304 801 290 65 52 48
386 775 236 153 107 76
353 850 167 77 63 58
350 852 166 80 66 60
348 861 173 79 67 62
351 858 170 81 67 61
348 864 178 78 66 60
353 860 178 78 65 59
350 862 176 82 69 62
328 867 129 90 79 68
321 876 133 93 79 66
321 869 159 101 86 78
335 865 158 83 72 65
314 801 284 169 121 101
321 883 139 90 73 64
321 883 142 95 76 64
336 868 129 90 78 67
341 865 130 89 76 65
338 869 148 77 66 60
339 869 153 77 64 57
338 866 158 80 69 64
339 870 158 78 70 66
341 867 157 79 68 64
341 869 158 78 69 66
323 780 283 88 66 57
339 874 158 76 66 61
322 869 168 89 73 66
389 806 164 98 72 56
325 867 168 87 70 65
323 870 173 79 68 68
390 805 158 84 62 51
325 867 171 80 67 66
329 866 172 79 68 66
327 869 174 76 67 66
272 905 193 90 82 81
331 868 175 77 68 67
325 872 176 71 61 60
328 875 183 77 70 69
328 881 185 76 68 68
334 867 176 76 66 64
333 872 182 75 67 66
330 872 182 76 68 67
334 875 188 75 66 66
329 877 186 74 67 67
323 890 161 90 87 87
323 885 188 77 72 72
328 885 186 73 67 67
324 890 189 75 69 70
327 888 185 76 70 71
328 890 188 77 71 70
328 891 193 78 71 72
331 885 188 75 66 65
357 869 213 70 60 59
334 881 192 77 68 67
276 938 220 93 87 90
331 888 190 77 71 70
388 842 266 63 50 39
341 869 161 76 69 67
339 872 173 80 71 70
340 867 181 72 64 63
338 870 183 73 64 62
343 865 178 71 63 62
338 871 188 71 62 60
343 870 188 77 66 63
340 873 176 82 73 72
336 878 190 81 71 67
346 868 185 79 67 63
350 867 192 81 67 61
358 835 153 112 91 81
358 840 153 96 76 64
359 837 150 117 104 96
355 837 160 85 68 57
357 841 157 87 70 61
359 843 158 86 70 62
363 834 152 92 75 67
363 840 153 83 67 59
368 835 153 83 67 59
368 840 158 82 68 61
362 843 155 83 67 59
351 911 313 74 61 56
270 897 213 49 46 48
363 844 158 80 67 60
364 854 159 80 65 56
366 855 155 82 63 56
367 852 159 83 69 62
372 834 154 88 71 61
372 835 158 83 68 60
370 837 157 87 73 64
358 845 163 83 70 64
363 846 162 82 70 65
304 967 278 63 58 57
367 844 164 80 67 61
368 845 168 80 65 59
358 850 168 75 62 57
313 910 208 77 69 67
354 855 173 73 61 56
363 850 164 76 63 60
368 850 168 81 65 60
368 854 163 87 69 61
368 854 168 79 63 57
343 836 245 51 42 36
368 853 173 77 62 56
354 855 178 71 60 56
355 856 182 72 62 58
355 860 182 74 62 58
357 864 189 74 62 57
358 865 193 76 63 58
362 852 183 64 52 46
361 852 191 70 60 54
361 858 190 69 56 53
360 861 191 71 60 55
374 835 163 81 67 60
371 838 160 85 72 64
374 840 167 86 70 63
373 844 169 84 69 61
378 835 168 89 71 63
379 840 173 89 73 65
382 835 174 89 71 63
288 900 183 87 77 76
376 843 170 87 70 62
384 835 178 88 69 61
383 840 183 89 70 63
381 844 178 88 71 65
380 846 182 86 69 61
259 963 244 89 84 86
385 841 187 91 73 65
401 804 165 90 66 53
372 853 169 78 62 58
369 849 173 79 64 57
370 852 180 84 67 61
373 852 178 85 68 60
373 854 188 90 73 65
379 850 183 87 71 64
379 852 188 90 72 65
379 852 192 94 74 66
381 848 185 89 71 66
382 849 188 93 76 69
383 850 193 95 76 69
343 835 248 48 40 35
323 896 198 77 70 70
327 893 194 77 70 70
329 892 197 76 69 68
374 849 270 56 46 40
333 893 199 77 68 67
328 896 203 72 67 68
340 879 196 87 76 74
349 871 198 83 69 64
353 867 197 83 68 62
353 868 199 82 68 63
350 872 203 83 68 64
349 875 208 85 71 67
344 880 203 86 73 71
346 878 203 87 73 69
345 881 207 82 69 67
354 870 208 77 64 60
351 874 209 85 71 69
352 880 214 73 62 61
338 885 194 82 71 69
341 882 195 86 74 72
342 884 195 86 73 70
337 889 195 82 72 71
343 890 198 88 75 73
338 894 203 82 71 68
340 892 201 86 74 70
342 893 203 85 71 69
347 889 199 90 77 75
345 887 212 84 73 72
337 895 213 86 74 72
343 890 218 78 67 66
346 883 210 82 70 69
352 884 214 67 56 57
347 888 219 67 57 58
348 889 223 63 55 54
342 893 228 65 58 58
340 896 228 62 54 54
344 892 228 66 58 59
343 895 233 64 57 56
344 892 232 67 59 58
348 890 228 61 53 53
348 890 233 62 55 55
352 888 228 60 52 53
352 888 233 59 51 52
344 896 238 62 55 54
347 894 238 59 52 51
353 889 238 61 53 53
347 894 243 56 48 47
353 890 243 64 55 55
353 891 248 66 56 55
350 892 246 62 53 54
351 893 250 66 57 56
304 961 242 87 82 84
354 891 253 68 58 57
351 893 253 63 54 54
361 863 194 77 63 59
381 848 270 70 57 48
365 862 203 84 66 60
368 860 208 85 69 62
365 862 213 84 67 61
368 860 213 84 69 62
318 935 303 48 42 40
363 864 218 71 60 58
383 846 213 131 102 100
419 795 219 88 64 48
311 963 250 83 77 79
383 846 218 92 65 62
373 857 197 88 70 63
389 809 167 96 71 59
372 858 208 80 64 58
375 857 208 83 65 59
384 850 198 87 70 63
382 853 198 90 72 66
378 856 203 86 69 63
384 850 203 84 64 61
382 850 208 102 84 81
382 853 203 86 68 63
375 852 224 77 61 61
372 858 213 77 61 55
375 857 213 86 68 61
371 858 223 77 64 61
378 855 213 88 69 64
380 851 214 88 72 68
381 850 213 105 87 83
378 850 223 79 62 60
377 854 218 81 65 60
376 853 222 79 62 59
367 864 228 77 67 67
369 861 228 79 67 66
384 847 238 73 60 54
374 852 228 84 70 74
373 855 228 72 58 59
371 855 237 57 48 50
370 855 239 57 47 50
373 851 238 58 48 50
371 859 228 76 64 63
368 865 233 74 64 64
371 860 238 63 55 57
369 865 238 71 62 62
378 850 228 76 63 63
378 850 233 67 55 55
382 848 233 69 56 52
378 849 238 64 53 52
382 848 238 69 57 53
370 856 242 58 49 50
373 852 242 61 52 50
374 856 246 75 64 60
373 860 248 72 61 57
370 865 243 68 60 60
371 865 248 64 55 57
378 855 247 80 67 60
383 849 243 78 64 59
384 851 247 90 72 65
380 852 246 70 57 49
383 855 253 94 73 65
378 861 252 91 72 62
381 859 254 99 79 68
358 866 203 75 62 59
358 866 208 67 57 55
356 868 203 78 65 62
394 822 176 113 76 59
357 869 218 68 58 57
359 870 223 67 58 56
356 875 220 67 57 57
358 880 223 67 60 61
261 913 211 69 62 64
357 884 223 78 69 70
360 880 228 70 60 60
365 866 227 68 59 59
