ply
format ascii 1.0
comment Created by Open3D
element vertex 2221
property double x
property double y
property double z
property uchar red
property uchar green
property uchar blue
end_header
331 407 284 54 41 34
313 939 259 62 58 57
386 400 286 147 14 50
364 423 183 59 35 38
399 388 192 78 29 29
362 424 181 42 40 41
369 418 184 64 33 30
363 428 181 46 39 40
286 874 259 134 114 96
264 348 272 106 73 55
341 867 129 78 68 61
365 427 182 59 39 34
300 382 289 90 76 61
364 433 180 45 38 38
369 433 181 55 38 39
352 434 171 56 39 37
355 438 173 52 39 38
358 438 175 44 38 41
353 443 170 65 39 36
356 443 172 48 41 41
402 734 160 57 44 42
354 448 170 43 40 42
338 666 157 79 46 41
359 443 175 46 39 37
359 448 173 48 40 40
363 445 176 51 36 31
364 438 178 44 38 40
361 441 177 46 37 35
369 443 178 69 33 34
414 433 264 148 12 47
346 889 160 76 67 65
369 448 176 51 37 36
374 418 184 66 34 32
344 653 274 164 10 52
405 403 276 49 26 29
374 428 182 62 35 34
204 538 223 58 27 29
374 430 181 98 26 32
322 663 271 66 29 36
344 918 200 92 86 88
350 482 359 71 16 30
374 433 181 96 23 28
423 433 214 68 30 36
270 336 266 117 85 66
379 664 125 86 58 43
384 423 184 49 36 36
472 715 231 98 74 51
259 308 269 106 69 54
379 418 185 70 32 31
433 388 214 97 20 35
381 431 182 104 20 36
374 443 178 61 36 35
374 447 177 44 36 37
358 654 175 82 39 31
379 438 180 54 35 35
378 760 261 74 61 56
383 434 181 109 25 24
346 821 246 125 99 72
309 738 146 60 48 43
379 443 179 60 39 38
363 608 190 81 32 34
396 443 276 77 17 30
264 523 263 133 10 42
357 864 272 131 100 74
384 443 180 79 32 39
384 448 179 74 26 35
324 385 237 63 48 36
324 386 240 63 46 33
414 493 229 139 16 41
324 388 249 61 45 34
329 388 249 66 42 31
459 728 200 89 66 52
334 387 244 69 40 29
195 522 246 46 23 26
334 388 249 69 39 29
194 523 247 48 26 28
325 894 168 84 75 71
416 667 285 147 103 67
226 667 214 199 136 112
329 391 256 75 36 33
334 390 253 74 35 31
339 386 244 70 39 30
340 385 242 70 39 30
282 540 276 169 11 52
301 835 235 141 111 83
299 843 229 141 109 82
343 386 245 72 37 30
350 385 248 76 31 28
259 738 215 182 127 105
348 386 250 75 31 29
369 388 193 102 24 25
304 608 275 78 28 36
327 450 367 74 31 23
370 392 192 102 25 26
374 388 193 61 34 32
423 433 239 137 13 36
375 396 192 48 39 41
379 393 192 44 40 39
384 391 192 45 40 39
264 268 340 127 99 66
355 385 254 73 28 26
353 386 255 70 31 27
264 418 345 144 106 86
416 855 213 80 63 57
322 452 131 44 37 37
322 453 134 52 34 37
258 458 289 68 26 36
258 338 319 97 77 53
428 828 250 64 56 51
321 452 132 42 36 37
297 409 327 123 97 68
325 453 144 102 15 32
322 458 131 55 36 37
323 458 134 61 33 34
242 753 195 176 123 94
360 788 158 64 55 56
322 463 131 68 33 36
324 458 139 88 23 34
449 673 224 62 50 37
326 462 143 100 20 32
327 463 145 100 18 33
325 453 154 73 22 31
328 453 159 113 6 32
344 438 349 54 20 24
325 458 154 52 26 33
328 458 159 112 6 31
311 609 172 137 0 32
214 523 249 62 23 33
328 463 154 102 14 29
408 668 219 109 32 41
327 460 156 107 13 32
283 374 323 114 90 61
249 788 179 182 125 92
322 466 131 105 35 38
463 753 239 83 62 52
422 679 194 63 38 34
323 473 135 107 25 37
327 470 141 44 31 32
327 473 141 60 34 36
327 473 144 57 31 32
382 834 123 88 76 68
324 478 139 143 13 39
327 476 141 74 29 38
299 393 319 119 95 68
326 479 142 140 12 39
381 855 187 66 60 61
375 473 339 153 2 48
329 468 154 106 10 32
329 478 154 109 7 32
354 403 324 69 16 23
334 418 294 72 61 51
190 521 227 97 41 41
474 733 234 75 57 43
329 478 159 96 13 33
330 453 164 113 13 27
331 453 167 104 17 27
319 494 321 122 17 43
334 453 168 91 19 29
323 487 353 46 17 22
331 463 167 92 17 23
381 732 146 56 43 38
331 496 393 174 118 104
149 514 244 224 151 129
331 468 164 120 7 32
379 528 319 176 13 56
330 478 164 81 27 33
341 453 166 67 27 33
384 698 285 119 51 51
344 458 166 105 18 31
339 463 169 122 8 28
345 462 166 130 3 30
349 389 259 65 29 28
379 513 183 135 11 34
464 733 270 117 84 61
346 451 167 43 37 42
347 454 166 41 37 44
350 458 167 42 39 42
306 386 259 64 53 45
344 473 167 75 26 34
358 763 150 70 56 54
339 468 169 65 30 33
314 478 328 139 12 45
346 466 166 124 13 30
302 645 261 105 16 39
367 475 382 162 127 107
349 468 166 80 25 32
329 827 271 150 121 90
349 470 167 89 22 33
349 473 167 71 30 36
414 768 173 54 44 43
349 478 167 106 19 31
384 713 135 82 62 53
410 844 269 35 32 31
321 485 142 166 1 34
330 768 131 83 65 49
323 487 145 145 0 33
334 594 291 165 13 52
328 483 149 127 1 34
327 487 150 133 0 34
244 643 195 123 91 59
328 488 154 126 0 32
322 494 146 144 5 30
327 493 151 128 2 31
328 493 154 119 4 29
328 483 154 120 2 31
330 493 159 110 6 30
345 442 349 98 12 35
325 498 148 133 7 35
394 809 179 69 59 61
323 502 146 96 27 35
327 498 150 106 17 34
274 543 269 148 10 44
413 508 239 137 19 40
325 503 147 63 28 37
345 395 268 64 19 25
196 567 242 179 123 102
324 508 148 131 18 38
321 900 302 48 45 45
324 513 149 114 21 36
332 503 160 77 30 38
428 862 292 73 64 59
330 508 159 81 29 38
330 483 164 92 19 32
358 391 310 63 18 23
331 488 164 109 8 30
329 613 175 73 30 29
334 483 169 67 26 33
334 488 169 118 11 28
332 478 348 80 20 33
432 387 224 87 25 36
332 493 164 108 11 28
395 633 224 116 20 38
334 493 169 112 13 29
332 495 161 105 15 32
359 618 185 69 34 34
333 498 164 115 13 32
334 503 164 99 22 35
247 738 167 141 100 66
473 737 224 76 57 47
347 401 285 63 19 27
336 503 168 106 16 32
331 509 162 77 25 36
427 690 282 155 105 73
332 506 161 93 16 38
411 524 244 179 15 47
332 513 165 91 31 39
384 778 163 70 56 54
377 392 297 131 23 49
332 760 131 78 62 47
339 483 170 65 30 34
238 733 189 174 119 90
339 488 171 112 13 30
344 483 168 57 33 37
344 488 169 80 28 35
339 493 172 84 19 33
284 563 145 76 33 40
344 493 170 89 25 31
268 718 225 159 23 52
349 483 167 45 34 39
349 488 168 52 34 37
350 840 157 54 48 48
340 498 172 132 4 28
337 503 170 130 7 29
382 598 215 47 36 36
339 503 173 109 13 31
392 786 171 71 55 54
345 503 170 86 30 38
245 718 175 123 93 59
428 408 219 87 24 36
337 508 171 126 25 35
337 513 171 56 33 38
473 708 254 78 61 44
341 906 186 87 80 81
343 508 172 52 31 35
359 478 354 58 31 36
426 404 192 43 38 37
349 498 168 88 30 35
289 798 160 186 127 91
368 454 324 123 14 41
349 503 169 65 34 37
368 877 186 66 63 66
335 688 132 70 46 40
321 457 379 103 12 36
320 668 268 71 27 34
356 832 251 134 105 75
349 908 300 52 48 46
345 508 170 84 30 37
349 508 169 81 30 36
284 815 178 207 136 104
346 513 171 83 31 35
428 782 277 192 131 103
349 513 170 62 31 36
354 458 168 49 37 40
359 463 170 126 10 29
369 453 174 68 34 33
364 458 172 111 18 32
363 463 171 127 6 29
369 458 173 115 17 32
415 812 233 28 24 24
369 463 173 124 6 28
352 467 166 130 9 28
319 438 339 61 49 39
354 468 167 134 8 29
302 841 271 129 94 78
359 473 168 138 3 31
386 885 207 72 64 65
398 724 281 189 136 113
354 478 167 133 10 31
359 478 168 135 4 30
428 408 214 98 23 35
364 468 170 133 2 30
351 731 272 78 60 55
337 838 194 82 63 54
366 468 172 133 3 31
256 260 292 82 65 44
369 468 173 132 1 28
367 470 171 137 0 30
339 516 374 197 137 115
322 440 352 60 45 32
367 473 171 142 1 34
269 283 258 109 83 56
462 684 216 88 70 49
367 477 171 143 2 32
369 478 172 143 1 31
274 378 334 120 94 64
374 453 175 63 32 33
423 375 258 83 25 34
424 698 189 58 44 37
374 458 175 124 8 28
374 463 175 130 5 28
384 453 179 126 11 31
378 458 176 131 5 26
334 499 389 155 100 91
378 463 176 136 3 31
380 463 177 135 6 30
299 918 214 79 73 75
374 478 175 145 1 31
318 505 316 65 27 35
334 793 133 102 77 60
377 468 176 137 4 32
288 528 135 70 30 37
377 473 176 137 3 30
425 672 259 96 79 60
369 698 149 64 44 38
380 468 177 131 6 28
282 509 276 32 27 28
273 789 162 181 124 88
384 468 178 128 9 27
205 588 210 147 108 71
384 473 178 140 7 31
384 478 179 126 11 33
460 753 219 70 55 45
354 483 167 75 26 34
359 488 169 90 23 31
359 493 170 96 28 34
254 763 209 184 137 110
279 763 153 150 105 68
471 830 289 104 91 80
412 498 224 126 26 41
299 538 145 85 28 39
364 483 171 139 6 34
366 483 172 142 2 32
249 598 235 121 21 43
293 878 234 151 117 92
369 488 174 145 4 34
362 493 171 92 17 31
349 676 151 64 43 43
365 493 173 110 19 32
290 922 254 82 78 79
369 493 175 142 8 35
354 498 168 116 24 36
354 503 169 55 36 39
359 503 170 65 35 37
425 760 172 62 50 43
354 513 170 46 37 38
358 513 171 65 34 36
408 858 204 77 62 57
274 418 342 136 99 76
364 498 173 71 33 37
361 504 172 83 35 33
364 503 173 108 27 36
361 508 172 112 28 37
364 508 174 113 27 37
364 513 174 111 25 38
263 439 336 77 24 38
393 376 250 52 21 26
367 513 176 85 28 34
376 484 177 148 2 32
374 493 178 131 8 31
379 483 178 143 7 33
328 493 379 74 53 49
379 488 179 149 6 31
384 488 180 123 15 36
385 493 183 152 9 34
314 819 189 57 40 41
371 498 177 64 33 41
370 508 178 102 27 38
374 508 180 77 29 34
371 589 197 110 24 41
374 513 180 125 14 35
394 379 283 110 17 30
329 932 279 72 68 67
380 503 182 144 13 34
339 408 274 56 29 29
381 498 182 145 8 35
384 498 183 150 9 36
384 503 184 149 10 36
408 838 195 75 61 55
378 508 181 73 32 38
249 548 169 158 1 39
322 547 160 158 2 36
406 460 192 165 16 45
216 647 219 202 143 117
380 508 183 92 21 34
377 512 181 72 16 27
337 499 325 78 25 34
383 513 185 124 13 33
396 579 259 147 19 46
420 380 191 148 12 13
424 378 190 155 17 19
432 393 199 53 32 34
210 628 228 184 131 106
229 658 203 119 87 50
429 378 190 152 18 29
432 382 191 118 13 31
388 376 197 118 25 20
331 875 157 84 69 65
389 379 195 53 38 40
399 374 199 142 11 13
420 698 286 172 112 81
394 372 204 115 34 27
399 373 204 111 30 19
380 870 272 30 28 28
399 373 209 104 29 21
343 543 339 196 138 115
419 861 259 66 52 50
392 376 197 143 0 17
399 378 195 124 16 20
389 374 224 88 28 27
394 374 224 93 22 24
409 374 199 137 11 16
329 883 293 141 111 88
329 413 299 75 66 57
404 373 204 111 26 17
409 373 209 111 18 24
373 749 266 81 66 59
404 378 195 135 15 20
356 405 332 72 29 23
393 548 209 75 33 38
404 376 197 169 8 11
261 356 336 115 91 62
409 383 193 129 14 22
430 763 178 69 55 50
411 375 196 152 8 10
353 408 319 65 17 25
414 378 194 146 13 13
299 438 344 87 64 46
415 376 197 146 15 17
404 783 269 171 129 105
404 373 214 109 19 25
344 709 131 64 46 38
409 373 214 116 17 26
206 532 195 41 32 38
398 528 289 119 26 43
404 373 224 107 16 27
409 373 219 116 15 28
409 678 293 174 116 85
266 546 145 40 31 37
409 373 224 113 12 30
414 373 214 118 15 27
344 949 239 61 57 57
414 373 224 118 10 33
394 375 239 67 33 25
399 374 239 72 31 23
389 376 244 57 21 26
389 376 249 53 19 26
394 375 244 59 28 26
269 413 343 144 106 78
258 278 300 81 62 37
394 375 249 54 24 25
352 511 369 183 119 100
380 462 306 122 6 38
367 482 378 183 131 118
399 374 244 67 32 25
399 375 249 59 29 25
395 375 253 50 20 26
356 390 299 65 12 24
205 533 199 59 33 38
404 373 229 99 14 26
304 548 286 87 17 34
268 272 306 104 75 48
409 373 229 106 9 29
409 373 234 97 10 26
239 738 184 169 114 86
358 518 171 120 22 35
319 873 179 54 50 49
414 373 229 113 7 32
414 373 239 95 13 26
407 475 267 99 34 37
414 373 244 82 23 23
414 373 254 70 33 24
419 372 209 117 15 28
424 373 204 131 17 30
419 378 194 151 11 12
373 433 303 37 26 26
274 588 268 88 22 39
441 728 276 165 113 80
424 377 194 163 15 13
425 375 196 163 16 15
428 375 196 170 18 18
201 527 199 85 34 43
334 436 334 48 30 28
429 376 194 183 17 20
379 662 169 94 48 39
431 376 197 178 18 22
259 303 334 143 97 74
419 372 214 124 14 34
311 565 292 147 13 45
424 372 214 130 13 38
324 743 140 59 47 41
424 372 219 128 10 38
429 372 219 136 12 42
429 372 224 138 12 42
332 480 336 72 24 31
432 375 200 160 17 38
383 688 140 59 48 40
433 374 204 160 15 45
374 523 184 148 6 33
377 917 220 85 76 74
328 719 260 78 48 48
434 378 199 160 18 43
408 433 267 155 13 48
435 378 204 160 16 47
338 926 288 75 70 69
434 374 214 153 14 43
435 378 214 120 18 39
344 893 304 59 55 55
434 383 214 100 20 37
387 588 309 144 105 68
325 483 394 144 11 44
435 378 219 126 17 39
314 684 135 73 46 35
399 478 189 92 26 36
434 378 224 104 20 36
433 383 224 92 26 35
424 372 229 128 11 40
419 372 239 99 11 28
267 399 342 129 98 66
429 372 229 141 14 46
268 373 337 121 95 63
429 373 234 138 13 44
431 384 239 154 15 45
424 373 249 96 20 30
419 373 254 78 30 25
424 374 254 90 20 34
464 738 254 84 62 48
431 376 246 154 14 44
431 377 250 144 14 43
443 827 254 91 69 56
350 833 139 92 78 67
431 383 249 141 13 41
334 915 197 94 87 90
308 558 155 160 0 34
283 503 279 166 5 50
433 374 229 148 13 46
329 508 316 70 26 35
356 446 345 35 30 27
434 378 229 116 19 39
370 563 188 100 19 36
433 383 229 79 28 33
282 658 177 55 35 37
429 403 219 110 20 39
329 752 242 73 59 54
433 378 234 138 17 42
432 378 244 146 13 44
388 907 279 69 59 53
432 381 244 154 13 45
432 381 248 145 13 44
389 393 191 79 33 33
394 398 191 115 13 26
389 408 188 109 17 27
333 577 297 156 13 49
380 913 254 61 55 53
209 578 210 126 95 62
389 413 187 109 19 22
387 415 186 107 22 22
313 658 266 124 20 44
460 758 234 70 54 47
399 403 189 111 15 24
399 408 188 114 16 25
396 510 197 43 33 36
399 413 187 117 13 25
401 390 191 95 20 26
274 303 258 109 77 56
405 389 191 108 16 24
404 393 191 109 20 23
331 885 168 76 68 65
371 456 311 86 9 32
409 398 189 114 20 24
355 858 269 138 104 78
285 903 249 90 77 71
414 393 189 119 16 25
414 398 188 118 16 25
405 409 186 114 12 23
234 573 184 112 21 40
433 388 219 94 26 37
409 408 187 119 12 30
264 468 299 135 22 47
285 658 243 177 9 56
407 409 186 115 15 28
403 413 187 119 10 25
414 403 187 111 21 27
414 413 188 139 11 32
389 423 185 92 23 25
389 428 184 112 16 26
394 419 186 113 13 25
394 416 187 116 14 26
229 523 254 77 21 33
399 417 187 120 12 26
399 423 185 121 9 27
386 441 182 114 11 33
408 538 259 168 9 48
310 564 157 160 0 35
259 273 343 125 96 61
297 866 276 167 131 111
293 848 269 137 104 84
412 502 230 89 22 38
399 438 183 123 7 24
281 678 176 87 24 32
394 443 182 124 7 24
275 723 239 74 29 40
398 444 181 128 5 26
398 448 181 131 6 30
369 418 304 87 15 34
332 704 276 126 28 50
400 448 182 139 8 30
309 449 349 133 22 47
325 859 193 41 38 39
403 417 187 122 9 26
405 419 186 125 13 26
277 713 172 53 33 33
404 423 185 127 9 30
408 418 186 131 10 31
315 478 374 97 19 36
410 422 187 133 14 30
408 408 273 117 18 41
278 493 284 181 4 55
378 470 318 143 6 46
404 428 184 125 13 27
309 563 290 152 12 48
409 428 185 74 22 34
342 749 250 77 62 57
318 455 346 155 5 49
412 683 292 173 114 84
411 429 187 83 30 43
410 433 188 124 20 38
414 433 190 69 32 39
309 773 150 67 55 51
404 438 184 141 11 33
404 443 184 120 16 36
412 693 185 68 46 41
404 448 185 122 12 32
410 438 188 67 28 37
400 554 275 152 13 49
409 443 189 41 32 38
406 448 187 123 22 40
409 448 189 126 17 35
419 388 189 127 12 25
359 498 349 130 46 52
419 393 189 124 18 27
424 388 188 131 13 27
364 453 344 120 14 38
310 393 299 93 78 62
329 473 354 46 24 31
419 398 189 121 15 31
219 568 239 141 33 52
429 388 190 135 15 30
358 513 337 111 79 64
428 393 190 109 23 31
419 403 188 76 30 33
327 477 396 118 3 38
299 433 334 104 81 60
419 413 189 138 13 35
394 388 193 55 37 35
398 391 192 101 29 36
415 438 193 63 36 35
336 848 189 38 35 35
413 448 195 162 16 38
247 778 200 187 135 106
430 398 194 91 26 39
293 924 249 79 74 73
431 399 204 63 31 36
431 389 225 101 28 40
319 399 294 75 65 54
351 457 370 67 13 28
431 395 211 68 25 24
431 395 214 67 26 35
314 883 194 58 49 48
417 797 185 83 64 56
430 398 224 147 17 41
425 413 194 124 14 34
425 408 193 93 29 37
293 552 146 129 25 43
384 648 298 191 138 115
430 403 199 87 30 39
429 408 199 97 23 39
430 403 204 52 31 34
429 408 204 80 29 36
259 373 343 130 99 67
428 408 209 134 20 44
427 413 209 61 32 34
339 484 407 57 37 33
287 500 290 85 26 40
429 403 214 104 25 42
449 699 249 76 52 43
427 408 224 100 27 41
428 403 224 119 17 38
379 853 254 32 30 30
427 413 214 70 31 32
411 678 218 69 32 31
261 288 341 136 99 68
436 743 281 171 118 84
426 415 215 48 31 32
427 412 219 51 32 31
425 803 198 70 53 47
426 413 224 87 24 35
326 485 351 48 30 22
433 388 199 44 33 35
389 383 289 144 15 46
264 283 309 105 74 48
433 388 204 75 30 36
432 393 204 82 27 35
432 397 204 101 19 41
394 708 160 55 39 38
432 397 208 97 24 30
432 392 214 85 28 37
431 388 229 94 24 37
430 393 229 93 25 37
430 393 234 93 24 36
267 693 236 112 21 41
429 393 239 80 28 37
429 398 234 114 19 40
245 563 175 156 2 35
430 388 244 99 19 35
429 388 249 125 19 42
429 393 244 85 25 37
367 844 248 111 89 72
429 393 249 102 19 35
427 398 254 89 18 35
284 805 167 198 137 105
427 407 234 38 32 33
462 697 218 66 51 38
426 408 239 102 26 39
156 516 252 204 144 126
369 588 194 65 33 36
261 486 267 39 26 31
426 410 230 73 29 28
412 488 214 100 27 38
374 864 267 50 40 36
390 563 284 166 12 54
359 863 269 122 93 69
427 403 244 78 27 36
427 403 249 60 30 34
295 381 269 60 50 41
426 405 246 52 26 33
426 408 249 65 28 32
384 863 264 30 28 28
425 413 244 85 22 32
424 418 194 132 15 37
272 383 337 123 95 63
387 556 292 31 28 27
420 428 193 36 35 38
319 452 354 113 19 43
419 433 194 102 27 40
423 427 195 45 32 32
432 836 240 93 81 79
259 393 344 138 102 70
426 419 198 45 32 31
427 417 199 63 30 35
388 660 176 90 57 45
427 416 209 55 35 37
434 868 270 89 76 66
424 428 204 110 25 39
424 428 209 49 32 34
424 433 204 88 32 39
260 483 267 112 15 41
389 638 204 67 33 31
423 428 224 97 23 37
422 433 219 127 20 42
422 433 224 100 22 38
364 728 143 55 44 40
426 418 214 71 29 35
427 416 212 45 33 35
425 423 214 76 27 35
425 418 224 87 23 35
418 438 195 95 23 35
421 434 197 82 29 38
416 448 198 166 16 41
370 380 293 60 21 28
421 440 202 129 30 49
422 441 204 50 31 27
421 448 209 142 16 41
294 488 319 52 30 35
422 438 214 81 22 32
351 824 125 134 104 78
387 892 287 56 49 46
429 798 198 82 62 52
422 438 219 92 28 38
279 598 268 58 27 34
422 438 224 44 30 32
422 443 214 50 32 35
422 910 82 85 85 85
233 673 198 132 94 60
421 449 214 63 23 32
421 458 237 75 20 29
422 447 214 90 36 41
410 656 258 90 76 61
422 443 219 61 27 33
422 443 224 50 31 33
422 446 218 133 18 39
421 445 220 122 12 40
270 737 162 100 79 53
279 463 329 85 25 37
421 445 224 101 13 36
386 408 286 153 2 47
420 448 224 158 13 44
423 428 229 69 28 33
423 433 234 140 17 42
425 418 229 78 28 35
425 418 239 132 17 38
424 423 239 158 15 45
371 462 324 147 6 46
397 576 246 63 27 29
425 418 244 151 14 43
387 845 242 29 27 26
425 418 249 134 15 39
424 423 244 138 14 35
319 748 143 78 59 45
425 423 249 92 16 34
425 418 254 135 11 40
359 843 125 94 76 63
308 892 198 56 50 49
262 344 303 83 69 54
425 423 254 87 19 33
424 743 174 78 56 49
311 545 152 161 2 36
425 428 249 97 18 32
396 508 295 108 17 40
426 428 254 49 25 30
398 794 250 52 42 39
422 438 229 94 23 37
421 444 229 98 15 34
354 653 273 152 13 47
421 448 229 159 14 45
393 628 308 179 123 96
421 443 233 155 13 42
421 449 233 149 13 40
434 823 234 78 62 54
425 443 244 126 11 38
305 922 215 72 67 69
389 708 283 139 71 64
279 815 189 194 134 110
410 388 275 130 12 42
415 687 219 55 36 32
425 448 249 120 19 38
415 656 264 100 82 63
389 453 181 124 8 26
258 344 295 85 73 62
389 458 180 129 7 28
466 739 241 80 58 47
394 453 181 128 6 27
394 458 181 133 8 30
394 463 181 129 12 32
396 458 182 139 8 27
399 463 184 148 10 31
389 468 180 72 27 34
389 473 180 87 26 35
389 478 180 92 21 33
396 468 182 108 18 36
392 473 181 41 38 39
394 473 183 48 33 37
339 441 346 48 38 30
400 473 188 110 15 37
331 492 366 93 83 79
394 478 184 68 30 34
382 480 317 35 22 27
397 477 186 81 23 29
356 871 140 89 77 67
280 363 314 104 85 62
403 453 185 152 11 33
408 453 190 163 16 41
283 470 326 169 11 54
402 458 186 149 11 34
405 458 189 160 15 39
407 456 191 165 16 37
401 465 187 153 12 39
389 488 183 45 31 36
324 813 204 177 126 103
310 693 149 96 35 33
396 484 187 96 27 34
260 463 284 40 26 32
246 567 176 154 3 36
395 488 188 39 33 38
322 522 151 94 25 36
392 493 186 123 15 39
352 946 231 88 82 84
397 492 191 118 27 41
389 503 188 154 11 37
294 638 173 126 10 28
386 509 187 141 15 35
387 506 186 151 11 36
389 508 189 135 14 35
184 523 225 122 74 49
385 513 187 54 29 32
389 513 190 61 33 38
394 498 190 145 11 34
393 503 190 154 12 38
465 713 272 92 70 50
267 430 351 179 14 57
397 496 191 40 23 27
409 458 194 160 15 37
375 648 188 50 41 41
406 464 193 131 11 35
397 743 276 145 103 79
324 936 216 85 81 83
348 433 338 80 16 33
320 486 368 51 28 29
392 460 287 132 6 41
240 743 184 170 115 88
410 453 193 161 14 39
348 848 124 107 89 79
285 693 252 150 14 47
415 453 199 165 16 40
411 458 197 163 16 39
412 462 200 159 15 42
384 842 114 81 77 74
413 463 204 147 14 39
309 493 320 37 27 30
415 463 209 163 14 42
397 454 277 123 16 39
369 488 344 181 14 58
331 843 145 62 54 53
289 442 348 137 25 49
408 468 199 132 16 38
404 473 194 79 24 34
373 418 299 118 7 37
408 674 198 71 39 34
406 474 198 109 23 33
265 294 324 128 85 61
407 477 200 107 27 43
290 388 325 118 94 65
410 473 204 54 33 36
305 584 162 157 1 34
280 362 289 84 68 54
414 468 209 163 16 43
413 473 209 122 18 39
412 478 210 141 19 43
340 829 140 80 65 55
416 468 214 165 15 41
415 473 214 168 16 44
265 617 181 69 35 40
414 478 214 153 16 41
353 734 269 82 65 59
416 473 219 167 15 41
399 493 193 57 31 36
396 882 276 56 48 42
423 473 249 53 31 31
351 857 121 98 82 73
294 668 168 68 34 36
396 499 192 152 15 34
349 868 279 137 101 80
291 627 262 68 22 30
395 503 193 119 17 35
400 503 198 71 32 37
397 507 196 68 32 37
399 508 199 44 34 39
306 402 316 115 92 67
401 484 192 57 37 39
405 483 199 41 35 36
405 488 199 37 35 38
314 768 229 63 52 47
286 912 259 68 61 60
374 899 204 71 64 65
407 482 201 63 36 35
408 483 204 85 30 36
406 488 202 35 34 39
402 492 196 45 36 38
379 884 99 103 84 66
404 493 199 42 36 39
407 492 205 39 32 38
408 493 209 89 33 39
473 698 264 92 73 53
410 483 209 75 28 34
256 456 284 171 4 52
410 493 214 63 30 37
411 494 218 34 33 39
407 639 274 118 92 60
389 804 235 117 93 77
412 493 219 60 29 38
413 493 224 72 24 35
403 498 199 57 35 39
402 502 200 95 26 35
349 413 319 60 15 24
405 498 204 79 30 39
401 509 203 50 34 36
402 507 205 65 36 38
324 418 314 69 60 50
402 511 206 50 33 29
353 575 300 77 29 32
404 513 214 97 31 43
406 510 217 81 26 39
392 546 206 39 35 40
223 515 252 115 8 35
410 498 219 43 32 34
206 598 211 148 107 72
411 499 223 48 28 34
409 503 219 102 34 41
239 553 178 81 25 35
339 397 265 64 25 27
412 496 221 76 29 30
409 508 224 59 30 35
261 284 341 134 97 67
408 513 224 159 18 47
416 484 228 149 14 42
284 594 163 76 32 34
385 448 290 103 14 33
354 633 178 56 36 34
415 488 229 164 15 41
411 504 228 32 32 37
354 869 144 84 74 66
413 498 229 159 17 42
350 767 247 54 47 47
299 598 167 152 0 32
369 873 268 73 53 42
412 501 226 48 27 28
414 498 234 166 14 44
416 499 238 154 13 41
415 503 239 161 16 43
411 513 234 162 14 46
312 673 261 87 27 37
412 513 239 76 24 36
278 573 270 154 11 47
355 404 328 80 22 28
415 508 244 82 28 34
414 513 244 41 32 37
239 618 228 160 117 97
249 713 173 123 93 57
416 455 202 166 17 40
362 669 132 80 59 47
463 714 205 82 61 46
417 457 205 166 16 41
329 703 128 66 52 42
344 809 238 128 101 76
418 457 209 166 14 43
416 460 209 163 14 42
333 693 281 69 24 35
420 453 214 130 12 40
440 793 209 65 53 50
418 458 219 163 13 45
418 463 224 163 13 42
345 476 401 69 38 26
298 499 309 125 30 49
302 500 311 83 31 38
416 469 218 165 14 42
439 753 278 173 118 89
417 468 219 165 14 44
295 922 283 60 55 54
417 468 224 159 13 42
424 708 284 171 113 81
324 833 273 147 116 92
411 383 276 148 16 48
416 475 223 163 14 43
420 453 234 151 13 39
399 848 254 33 30 30
423 453 239 110 17 37
421 454 237 133 13 40
419 458 229 154 12 41
419 463 229 158 13 41
420 463 234 142 12 36
269 805 201 191 139 115
424 458 254 46 26 31
332 510 338 140 28 48
422 422 262 116 23 34
423 463 254 64 24 32
324 929 284 57 52 51
424 458 249 44 32 33
384 659 184 69 44 42
326 503 359 122 91 78
424 463 249 51 30 31
449 808 244 86 66 55
419 468 234 155 14 38
447 807 240 84 66 55
418 473 234 70 25 37
421 468 237 141 16 40
422 468 240 101 21 36
234 693 214 185 126 102
421 473 238 78 26 36
422 473 240 100 31 43
422 418 262 150 13 47
417 476 226 164 15 45
372 921 216 82 74 73
416 479 227 162 14 43
299 814 173 70 56 54
439 733 189 52 45 43
418 478 234 72 26 35
263 284 262 110 83 58
423 468 254 70 26 33
421 478 256 144 14 46
416 494 237 164 14 42
309 828 234 115 92 68
422 482 249 125 19 44
421 483 254 163 12 50
354 839 158 50 46 49
420 488 254 163 10 49
418 498 244 82 22 34
418 498 249 49 30 33
417 501 241 109 20 45
375 413 295 143 7 41
174 523 230 190 130 107
417 503 249 72 31 37
417 506 250 57 24 37
415 513 254 125 23 43
259 274 257 103 83 61
358 418 318 151 11 47
259 278 259 105 84 61
237 648 197 135 97 64
319 673 134 73 49 38
263 275 257 106 85 61
259 281 261 106 84 58
235 573 199 55 30 34
259 284 263 108 84 60
269 288 260 111 81 57
406 665 181 84 59 44
368 433 308 68 24 34
272 288 257 111 82 56
214 518 185 59 33 36
260 258 293 83 65 44
408 784 270 176 130 107
363 932 264 65 61 62
263 257 295 86 67 44
351 430 357 94 17 31
278 449 336 138 15 46
475 703 254 73 56 41
259 268 295 81 64 42
264 373 270 66 50 37
269 793 165 179 121 86
429 833 284 75 63 52
258 272 296 78 62 43
259 273 299 82 63 39
325 767 141 68 60 55
262 266 296 83 65 43
262 268 299 87 67 42
240 723 179 141 99 68
329 843 205 125 96 75
266 264 302 97 73 44
270 258 303 103 78 48
256 275 297 76 60 40
357 447 368 102 6 30
404 388 280 71 20 32
413 658 284 139 99 63
258 282 301 79 61 37
259 283 304 88 65 39
265 284 312 113 79 51
409 843 254 34 31 30
319 922 294 67 61 60
271 279 313 120 85 59
277 262 311 124 92 61
280 258 314 125 93 61
280 258 319 129 94 63
279 263 319 128 94 62
272 272 311 121 86 59
339 653 273 157 12 50
276 269 313 123 91 61
319 602 282 131 28 49
292 500 300 115 40 53
277 268 315 124 91 60
277 268 319 127 93 63
276 273 319 127 93 64
339 598 288 89 20 34
277 271 318 126 92 64
272 277 314 124 89 60
258 294 267 101 76 53
339 693 133 68 43 38
258 298 267 101 74 51
264 298 264 111 81 57
261 301 266 111 80 57
301 853 226 157 117 89
267 293 262 110 80 56
293 677 250 113 1 32
270 303 260 111 78 56
393 623 308 165 116 86
259 313 269 104 70 52
259 318 269 100 71 51
254 713 220 162 109 90
359 603 188 97 28 36
268 308 263 110 77 56
268 313 263 104 76 51
270 308 260 109 77 54
348 398 279 64 17 26
320 451 364 120 14 41
270 313 260 106 78 54
265 313 265 106 75 53
269 318 264 105 78 52
399 413 275 163 5 51
456 718 268 87 68 51
273 293 257 108 80 54
277 295 257 108 82 55
277 298 257 108 81 56
274 308 258 108 77 55
274 313 258 106 79 54
330 490 360 107 19 42
386 603 316 165 115 84
277 311 257 109 78 57
328 683 275 75 23 33
276 314 256 110 81 56
258 291 306 87 64 40
263 292 314 108 75 49
469 733 214 80 64 51
265 293 319 115 78 53
321 475 366 26 30 32
259 298 314 98 68 44
388 583 279 108 21 41
259 303 319 103 69 45
261 299 318 104 71 44
263 297 320 113 77 51
266 658 195 64 32 34
266 289 317 119 81 57
258 307 320 100 69 44
359 643 272 134 14 44
270 268 335 133 100 70
283 729 245 141 21 50
271 270 331 137 101 72
457 766 225 68 53 44
271 273 331 139 102 74
346 623 182 79 30 31
258 258 342 125 97 64
304 443 374 91 27 34
259 263 342 124 96 63
288 369 289 80 67 53
338 843 198 96 74 60
264 258 340 122 95 63
261 261 341 123 95 61
281 361 299 89 74 57
364 473 358 81 25 37
348 858 127 103 82 71
264 263 340 125 97 64
189 543 248 176 123 102
384 663 293 182 131 108
327 471 390 113 16 36
262 265 342 123 95 61
383 852 186 71 63 65
314 449 364 90 22 40
267 273 338 134 101 68
359 688 139 62 42 36
271 279 330 141 101 75
303 699 256 164 11 52
344 473 394 83 63 52
269 283 329 141 99 74
364 458 354 147 7 48
389 873 203 70 61 60
268 288 329 140 97 73
266 280 336 141 100 79
267 288 333 142 101 75
159 519 239 226 149 128
259 278 343 127 96 63
265 278 339 133 99 69
414 698 289 178 118 88
364 893 300 50 44 40
262 278 342 129 98 64
379 568 314 144 106 72
264 283 339 135 99 70
262 282 342 131 97 66
386 636 202 70 32 30
263 288 338 137 98 72
275 263 329 132 99 68
325 828 214 142 105 79
344 503 404 175 114 107
388 623 259 48 30 32
277 258 328 131 99 69
316 655 267 119 12 36
274 268 329 135 100 71
275 273 324 133 98 68
229 528 256 73 24 33
273 273 328 138 101 72
371 919 270 53 48 45
277 268 323 131 96 67
272 267 333 133 100 70
304 598 169 151 0 33
272 278 328 138 101 73
263 298 324 123 82 56
263 298 329 136 93 66
368 388 308 99 20 35
424 753 286 188 136 106
260 303 329 130 87 59
262 301 328 131 87 61
263 297 334 145 101 76
364 468 364 93 21 38
261 300 330 138 94 68
267 291 328 139 95 72
359 443 324 34 26 27
260 293 340 141 100 74
390 598 239 84 32 39
324 404 294 76 66 57
256 295 341 139 97 70
259 298 339 148 104 79
322 624 171 98 22 29
369 823 159 57 52 54
260 342 309 89 72 54
315 921 206 76 70 70
262 296 337 147 105 79
402 498 278 89 29 38
258 307 329 123 79 57
256 310 324 106 71 45
256 310 329 119 79 55
380 533 315 159 19 54
404 703 173 62 47 41
256 305 336 145 99 74
259 323 269 98 70 49
259 328 270 99 70 50
264 323 267 105 76 54
263 328 267 107 76 55
191 561 242 180 125 104
268 683 234 59 29 34
269 377 270 60 49 36
392 634 215 93 27 36
260 333 270 102 72 52
266 323 266 108 79 57
265 328 266 111 79 58
269 333 266 115 83 62
258 333 272 99 70 50
349 432 354 106 6 31
306 391 306 109 88 65
260 343 271 102 72 53
473 752 249 92 67 52
354 858 135 92 81 73
264 338 270 110 78 59
259 353 271 86 63 45
326 479 356 34 25 26
424 802 254 81 54 39
265 353 271 101 71 53
418 865 291 68 59 54
339 658 274 90 16 34
270 348 270 116 84 65
269 353 269 115 83 65
297 865 276 171 132 114
264 343 272 107 74 56
259 348 272 99 71 53
389 588 304 137 101 64
334 522 354 194 132 110
378 403 293 141 10 45
403 810 231 31 27 27
425 378 259 78 25 33
264 353 272 98 68 51
326 833 211 142 104 78
267 344 272 114 79 64
389 604 279 96 76 52
273 328 263 115 85 60
392 469 293 124 8 37
278 328 258 117 88 64
274 333 264 117 87 64
279 333 259 119 90 68
399 838 189 59 52 53
323 518 151 77 33 39
277 333 262 118 88 66
373 423 298 84 18 31
275 343 264 120 90 69
275 338 265 118 88 66
278 338 263 119 89 68
279 343 259 121 92 72
273 339 267 118 87 66
272 343 268 120 87 68
354 683 289 103 15 37
383 654 190 47 42 47
275 348 265 121 91 73
414 733 175 69 51 47
276 344 261 122 92 73
339 474 399 73 20 26
433 743 283 173 118 86
375 858 183 61 57 59
277 349 262 123 94 76
307 887 203 108 85 64
277 353 262 124 96 78
282 340 257 121 93 71
282 342 257 120 92 72
368 443 309 92 17 31
282 348 257 121 92 75
258 339 299 82 72 61
293 533 140 56 32 35
310 937 249 74 69 71
260 342 299 82 72 62
385 554 295 46 27 31
447 753 195 54 44 40
262 378 342 126 96 63
260 342 304 83 69 55
273 354 294 92 78 64
239 632 197 107 81 51
404 428 269 156 10 49
263 344 299 82 71 61
259 347 293 88 75 63
335 853 140 102 84 74
219 603 204 134 100 63
258 350 291 89 74 62
259 352 289 90 74 61
395 768 268 48 41 41
264 348 294 91 77 65
364 488 369 157 115 93
264 353 289 97 80 65
265 347 299 83 72 61
271 351 304 89 73 56
344 668 155 70 48 42
258 339 309 89 72 53
262 344 310 92 75 55
300 933 229 90 86 89
256 336 319 94 74 50
330 517 359 207 145 125
263 344 314 96 77 56
265 348 319 99 79 57
379 748 151 54 44 42
254 798 199 196 138 112
324 633 274 35 28 31
270 351 309 97 79 60
273 353 304 90 74 57
261 576 166 108 20 34
259 358 271 74 58 43
299 468 330 160 5 49
264 358 271 73 54 36
266 476 277 173 0 49
265 593 170 71 30 36
447 796 230 70 53 45
264 368 271 64 50 37
353 916 293 68 61 57
269 358 269 101 75 57
289 708 159 50 37 39
269 363 271 64 50 34
343 423 319 57 25 28
264 357 272 71 52 35
321 864 187 46 44 44
264 355 286 96 77 63
390 643 203 75 34 32
350 859 138 95 84 76
479 893 279 91 76 63
259 368 279 79 59 46
259 364 281 80 62 49
344 728 138 56 43 36
350 518 349 167 111 82
269 358 283 89 71 56
259 373 270 85 61 48
259 378 270 92 64 51
374 868 269 82 62 52
378 493 333 160 7 50
439 878 283 68 57 50
269 373 270 60 48 35
381 746 272 73 59 54
259 374 276 85 60 48
269 373 275 62 49 37
270 370 276 64 51 38
250 702 222 170 119 99
412 522 263 163 31 57
296 381 310 112 90 66
276 360 261 122 93 77
469 693 273 97 79 62
276 362 261 116 90 74
360 848 256 130 101 79
280 367 260 102 82 64
279 368 264 91 73 57
272 360 268 109 82 63
374 598 320 194 137 110
273 363 269 85 66 48
473 703 259 88 67 48
274 368 270 61 49 35
279 369 269 69 56 42
358 403 328 109 18 35
281 354 256 115 89 72
282 358 257 117 92 73
289 623 174 131 9 33
250 675 186 111 86 54
282 363 257 109 86 68
272 355 286 102 80 64
273 355 289 110 88 69
228 664 220 192 138 113
277 360 285 76 61 46
344 916 297 60 54 54
368 868 149 88 81 78
274 363 280 70 56 42
400 647 254 44 30 33
274 367 277 65 52 39
280 367 278 61 49 37
276 361 282 70 55 40
457 705 231 118 92 64
406 662 239 100 23 38
281 366 282 63 51 39
385 513 319 173 1 56
321 493 350 69 26 36
282 365 285 64 52 39
304 468 330 160 5 49
379 788 164 60 50 49
284 368 284 63 51 38
263 473 274 94 20 39
406 493 271 61 25 29
282 365 289 75 62 49
366 738 147 55 45 42
284 367 289 76 63 50
274 373 269 60 48 36
361 638 182 45 37 38
284 373 259 81 67 53
281 371 264 81 65 50
284 373 269 63 51 38
259 378 343 127 97 64
287 375 271 60 49 37
286 376 268 62 51 38
354 803 149 60 51 51
279 369 276 60 49 37
224 558 238 116 5 34
279 373 274 60 48 37
273 376 272 59 48 37
284 372 274 60 48 36
289 903 224 57 54 56
342 897 175 81 72 72
288 374 274 58 48 37
314 594 168 148 2 34
189 558 243 181 126 105
219 514 252 121 5 34
287 370 285 59 47 34
290 373 284 60 49 36
275 356 294 95 80 64
354 844 163 53 48 53
370 851 250 57 47 40
339 422 284 71 61 51
278 359 294 93 77 60
348 729 270 82 61 56
275 357 299 85 70 55
278 360 299 86 72 56
278 360 304 94 78 60
281 362 294 92 75 55
431 702 226 74 31 35
326 776 141 59 53 50
289 492 309 116 30 47
280 362 304 97 79 60
466 745 224 79 60 47
330 833 169 32 28 28
283 364 299 93 77 59
354 661 158 81 40 33
285 366 299 94 77 60
341 424 313 65 43 37
395 688 164 59 42 39
288 369 299 97 79 60
285 366 304 101 82 61
358 795 100 92 79 69
287 369 304 102 83 61
372 630 291 190 133 115
273 354 309 96 79 60
298 769 221 63 55 52
369 643 185 45 39 43
421 693 286 168 110 79
275 358 309 99 80 60
277 360 318 105 86 65
333 440 352 50 10 25
282 365 309 103 84 62
278 738 158 110 86 56
284 368 314 109 88 64
288 369 294 89 74 58
290 602 272 58 23 31
325 849 178 34 30 31
274 618 249 98 21 38
287 370 308 106 86 63
354 802 108 91 78 66
289 373 309 108 88 65
286 372 315 111 89 63
289 378 319 115 91 63
353 442 360 82 14 25
293 380 264 63 53 44
299 382 259 66 56 47
299 382 264 62 53 44
264 643 199 44 37 39
290 372 289 82 69 56
285 903 259 112 93 83
369 603 318 191 137 111
293 445 346 128 22 47
372 775 251 59 50 48
292 375 285 81 68 56
257 589 245 176 12 54
296 381 279 67 57 47
309 477 327 102 19 37
294 378 284 83 70 56
268 473 304 154 25 54
295 377 289 87 74 59
337 525 329 133 40 53
374 838 169 59 55 57
299 383 274 58 49 39
339 708 133 58 42 40
387 680 156 56 47 42
299 382 279 70 60 49
297 380 284 86 72 58
303 384 284 84 72 60
291 371 294 90 75 58
457 756 262 71 54 42
293 373 299 98 80 62
293 374 304 102 84 63
296 376 299 98 81 61
426 403 260 59 28 32
352 835 262 133 101 75
155 516 235 214 141 121
298 378 294 96 79 61
300 382 294 97 80 62
275 608 258 89 26 39
357 871 154 94 86 80
313 600 281 39 27 31
303 384 289 89 75 61
303 384 294 95 79 63
411 777 277 184 137 112
298 378 299 100 82 62
278 713 169 48 37 37
298 379 304 105 85 64
422 826 246 35 32 31
300 382 304 107 86 64
302 385 298 100 82 62
292 375 307 106 86 64
331 818 154 53 47 47
294 378 309 109 89 66
290 382 320 117 92 63
328 478 354 38 25 29
293 379 313 112 90 66
293 384 318 116 92 64
416 681 227 102 38 39
364 783 244 172 125 104
299 383 309 111 90 65
260 342 324 97 76 52
258 343 333 111 88 59
264 348 324 99 79 56
331 853 145 96 80 69
262 349 328 105 84 58
261 347 330 107 85 60
329 553 170 134 9 34
277 667 231 60 26 33
329 452 369 83 29 31
262 350 332 112 89 62
249 618 202 58 40 32
285 903 264 142 113 97
263 353 333 113 89 61
264 358 334 115 91 62
409 738 285 190 139 111
268 354 328 109 86 61
271 357 325 108 86 60
277 687 246 105 11 37
266 356 331 112 89 61
267 359 332 115 91 63
353 484 360 66 14 30
265 363 336 117 92 62
259 503 262 151 9 46
271 366 331 117 92 64
259 358 339 118 94 65
257 360 342 123 97 65
260 367 341 128 99 65
302 805 206 61 51 48
457 778 244 61 48 41
397 613 292 152 106 76
271 377 336 121 95 63
397 886 250 65 57 59
261 372 341 130 100 69
264 373 340 125 97 65
262 374 342 129 98 67
384 703 284 148 43 52
259 383 344 129 100 65
457 798 241 71 56 47
354 878 180 69 64 65
264 378 340 125 96 62
307 534 291 87 29 39
301 786 217 62 52 47
265 383 341 123 95 60
448 728 264 137 97 67
269 378 338 123 95 63
277 364 323 108 86 60
194 568 240 183 125 104
394 583 239 83 29 37
276 366 326 112 89 63
274 368 329 115 91 64
281 372 325 114 90 62
244 668 190 119 88 52
276 372 331 117 92 62
351 436 330 63 25 28
279 378 330 118 93 62
330 536 302 162 6 51
277 379 332 119 94 63
336 471 385 46 24 19
328 493 389 140 91 81
167 520 232 207 139 118
280 383 331 119 94 64
281 376 326 116 92 63
286 376 321 114 90 62
289 383 324 117 93 64
284 383 328 118 93 64
345 542 343 196 136 115
359 384 259 71 25 25
364 383 264 65 19 25
370 380 269 71 26 25
367 381 274 64 26 25
364 383 284 61 17 26
368 381 284 60 24 26
269 438 339 174 13 55
370 380 259 76 18 28
379 698 129 74 56 45
349 938 269 79 78 80
384 377 259 54 19 24
193 564 241 181 125 105
322 461 376 124 6 40
370 380 279 63 29 25
398 671 297 191 134 107
335 768 133 81 62 44
374 379 279 66 32 24
384 378 279 80 27 26
353 578 309 176 123 106
384 379 284 85 30 26
403 548 274 153 16 47
396 672 179 82 43 35
384 379 289 83 30 30
361 385 289 64 13 25
282 499 281 176 5 54
368 381 295 58 19 27
375 928 234 72 64 65
369 382 299 56 16 24
379 380 294 55 32 30
382 380 292 54 38 32
379 383 298 76 25 33
424 837 255 62 56 50
334 408 279 52 28 28
303 385 268 60 51 43
366 485 351 125 35 57
284 463 330 131 16 44
302 385 275 59 50 41
303 385 279 75 65 55
305 387 279 76 66 57
309 386 259 64 53 45
308 385 264 61 51 44
309 388 269 60 51 44
314 389 269 65 52 43
366 536 326 137 99 72
317 390 267 65 48 38
319 392 269 70 43 39
373 443 303 99 23 39
309 389 274 65 53 44
212 624 231 178 126 100
309 389 284 81 71 60
306 387 289 86 74 62
308 389 289 84 73 61
314 390 274 69 56 46
317 390 275 74 58 44
317 390 277 70 61 45
270 698 244 100 25 41
319 393 279 73 49 42
315 391 280 76 68 58
268 739 161 106 83 56
312 390 283 81 70 60
334 512 379 185 131 110
320 838 220 101 77 55
314 393 289 75 62 51
302 385 303 107 87 64
340 768 138 68 54 44
377 675 151 59 43 33
341 414 289 65 42 38
295 387 319 118 94 66
303 388 309 111 90 67
294 493 314 52 27 32
299 388 314 116 93 67
296 386 316 115 92 66
300 392 315 117 94 68
303 394 313 116 94 68
304 403 319 117 94 68
306 387 294 93 78 62
307 389 294 92 78 62
310 392 294 86 74 61
308 390 299 98 81 63
308 393 304 102 84 64
277 540 271 156 10 47
347 762 141 58 46 39
310 397 304 98 81 62
314 398 299 83 72 60
318 400 298 77 70 61
348 432 350 98 10 26
307 394 308 109 89 66
306 396 311 112 91 68
312 400 307 94 78 62
369 853 127 86 71 60
320 401 295 78 69 59
204 573 241 175 124 100
315 402 304 82 71 60
406 804 180 62 53 49
289 763 220 55 46 41
319 403 299 78 69 59
203 523 193 54 36 39
318 404 304 78 67 57
309 408 319 106 86 65
349 693 134 74 56 45
315 406 311 81 69 57
317 405 308 77 67 56
388 902 254 64 58 56
320 407 305 76 67 57
312 404 312 96 80 64
321 412 310 75 65 56
242 564 241 170 14 52
312 410 317 90 76 61
315 411 316 81 69 56
299 773 152 159 110 74
387 901 226 78 69 68
317 410 313 78 67 54
394 603 289 127 100 67
320 853 174 41 37 36
309 437 335 70 58 44
264 393 342 128 98 65
435 838 254 81 65 61
259 398 344 141 105 72
327 400 278 57 22 21
266 388 341 123 95 62
259 403 344 144 106 77
259 413 343 153 111 89
270 402 341 129 98 66
380 668 134 56 47 38
319 668 161 67 41 42
271 408 341 134 101 68
279 388 333 123 96 63
276 392 336 122 95 63
244 608 204 52 37 36
279 393 334 122 95 63
279 398 335 121 94 62
288 388 327 118 93 63
281 387 331 121 95 63
289 393 328 121 95 64
334 673 278 66 28 33
284 398 333 122 95 62
333 838 144 67 58 54
327 848 153 58 54 54
289 398 329 122 95 64
274 393 338 121 94 62
239 538 175 160 4 37
381 472 315 125 18 43
274 398 338 121 94 62
281 402 336 120 94 62
399 763 273 182 136 106
284 403 334 121 95 63
379 622 313 201 143 117
284 408 335 123 95 63
339 778 139 77 63 55
289 408 333 124 96 66
289 413 334 125 96 67
229 603 204 120 88 57
274 408 341 132 100 67
281 406 336 123 95 62
282 409 337 125 95 62
354 523 171 74 30 35
284 413 338 128 97 65
259 418 344 142 98 82
390 618 224 96 26 36
259 423 349 150 43 55
383 454 298 67 21 31
256 424 347 161 27 53
344 516 369 196 133 109
326 407 295 78 69 62
265 432 344 169 16 54
268 420 347 115 76 59
271 421 346 118 78 61
323 470 336 167 4 50
266 432 348 187 17 59
269 433 349 186 15 58
459 683 214 73 58 45
314 450 354 85 24 38
293 435 359 90 30 35
259 438 334 34 29 32
257 445 326 150 26 56
374 503 338 49 28 29
259 443 330 75 21 35
329 941 224 81 79 81
260 442 332 38 24 32
264 443 334 148 14 49
310 467 332 161 4 49
394 838 235 30 28 27
269 444 335 173 9 53
265 446 332 172 8 52
269 448 333 173 7 52
263 434 340 104 22 40
336 747 247 78 61 56
261 436 337 33 29 35
267 435 341 169 12 53
454 793 264 76 57 46
276 418 341 137 99 75
279 418 340 132 98 72
232 565 200 78 24 38
278 423 343 116 82 62
381 487 320 150 7 45
273 424 349 95 62 48
337 436 322 60 45 36
344 672 126 78 54 40
268 469 314 105 29 41
374 393 299 127 17 42
280 428 344 103 68 52
307 715 152 117 12 27
280 432 350 108 46 46
286 418 336 126 95 68
349 693 289 168 14 54
285 428 339 119 86 64
414 864 264 68 58 53
281 426 341 117 83 61
286 426 336 123 92 69
289 428 336 122 91 67
397 789 256 52 43 39
285 431 345 103 65 51
214 533 240 122 7 37
282 430 347 89 53 44
273 440 341 177 11 53
481 704 244 94 72 51
279 442 344 107 27 42
289 433 349 83 45 34
288 440 350 132 25 48
284 448 339 95 27 39
282 445 341 108 26 44
290 446 343 120 27 47
285 441 347 120 30 48
279 493 289 180 5 55
269 424 354 120 57 49
374 743 153 62 50 46
269 428 354 154 26 50
270 432 353 180 14 55
274 427 354 108 55 49
322 573 296 162 13 50
274 429 358 127 42 47
276 431 358 158 20 51
279 429 354 96 51 44
279 430 359 105 52 47
245 523 165 157 2 37
280 436 352 170 20 55
354 793 235 167 126 102
289 434 354 86 44 39
289 438 354 100 26 41
291 392 326 120 94 65
292 385 322 118 93 64
294 393 324 120 95 66
414 478 260 143 8 44
296 392 321 119 95 66
295 398 325 121 95 65
298 398 323 121 96 68
351 848 271 146 112 87
290 407 331 123 97 67
336 873 169 68 63 62
294 413 330 124 97 68
297 405 327 123 98 69
300 408 325 121 96 68
378 852 179 58 53 55
302 404 322 120 96 69
298 413 328 121 95 67
330 674 147 73 60 53
373 548 186 141 8 39
301 413 326 119 94 67
312 415 322 84 70 55
301 417 326 116 92 65
300 427 331 108 86 60
329 887 295 75 59 49
242 574 236 35 24 26
367 568 186 42 36 41
298 429 332 110 86 62
392 610 276 80 63 41
304 429 332 95 76 55
292 435 344 102 71 49
294 438 350 74 31 29
319 454 349 136 14 47
324 478 394 117 2 35
446 810 242 88 67 55
254 583 244 134 20 47
294 447 344 118 23 43
300 435 338 97 75 53
298 436 336 102 78 59
302 435 337 94 74 54
304 438 344 82 63 48
299 439 348 70 42 30
284 792 212 173 137 109
304 439 349 72 48 37
299 449 344 156 17 53
299 447 348 129 23 46
304 447 348 135 18 49
306 421 326 97 78 58
409 403 273 74 22 32
469 736 262 92 80 70
309 424 327 84 69 53
394 638 259 48 34 32
305 432 331 85 69 53
309 432 331 75 62 49
307 430 332 84 67 49
294 579 157 167 1 34
314 423 326 72 58 45
314 424 327 71 59 46
319 423 324 69 56 47
348 484 407 148 115 93
318 423 327 68 56 45
364 423 309 126 13 41
389 659 184 72 50 44
328 857 195 37 35 36
317 428 323 65 55 44
388 608 313 157 110 77
320 424 320 66 57 47
297 576 156 168 0 38
319 433 324 62 53 42
309 434 332 73 60 47
345 794 147 74 59 55
305 436 335 80 64 46
319 438 334 62 52 41
309 438 339 73 59 44
384 603 269 145 16 47
344 655 161 89 54 42
309 439 344 75 57 42
309 439 349 68 46 34
314 439 339 65 54 41
314 439 344 69 54 40
300 660 166 65 35 37
319 439 344 63 47 37
471 714 254 79 60 42
314 440 349 67 47 35
435 844 268 80 66 62
319 440 349 66 49 37
293 438 355 83 23 35
325 839 278 113 88 65
299 698 256 162 10 50
429 848 269 76 63 62
294 438 359 106 29 42
294 437 364 96 28 40
295 437 369 102 31 40
298 523 285 116 19 40
299 439 355 70 27 30
296 441 356 48 25 29
296 441 358 53 31 27
316 675 134 75 49 41
304 443 364 117 28 47
296 438 372 94 14 33
299 439 373 101 25 34
305 444 378 95 17 32
309 448 354 75 26 35
305 446 358 45 25 30
307 440 368 85 31 24
419 748 172 76 57 52
309 447 364 75 27 37
309 443 369 81 29 33
310 447 369 64 24 29
347 870 282 132 96 74
364 863 267 133 103 81
315 441 355 68 36 27
367 614 305 191 135 112
319 440 352 65 47 36
319 441 354 66 41 28
422 457 257 93 14 32
319 443 359 69 38 31
258 458 299 125 27 45
214 523 185 72 34 38
318 445 364 73 36 31
317 445 368 81 34 32
310 447 374 110 19 39
306 446 379 89 24 33
310 448 383 94 28 35
316 778 227 58 48 45
314 448 369 81 26 34
312 445 373 89 27 29
313 448 378 120 15 41
257 459 280 171 4 52
251 777 171 173 114 82
258 458 284 134 13 46
342 419 280 65 53 44
259 473 269 82 25 36
256 476 267 108 29 44
362 460 362 108 12 31
259 478 268 133 12 44
262 475 271 136 12 45
261 472 273 45 26 29
339 817 245 107 86 63
435 808 219 73 58 53
263 469 279 108 16 41
262 470 276 30 28 31
344 734 260 82 65 59
428 703 194 75 58 47
265 478 273 170 3 51
268 478 279 174 0 53
267 474 289 176 3 54
396 811 178 70 61 61
377 483 334 156 3 50
269 478 284 176 3 53
257 455 298 49 33 32
381 578 285 127 8 39
261 462 294 74 29 36
250 719 171 120 91 57
258 458 304 75 26 36
262 464 304 109 28 43
369 563 329 164 114 81
257 454 315 116 31 48
329 441 351 61 42 32
263 464 309 116 24 42
260 457 318 104 28 42
263 459 319 57 29 34
262 460 315 51 28 33
261 461 312 87 34 39
264 463 314 65 31 36
262 464 294 88 24 35
265 468 304 100 28 41
267 470 304 64 22 31
267 474 294 173 11 54
202 608 224 181 126 100
315 692 132 74 56 45
384 823 229 82 61 47
271 477 304 171 18 56
270 473 309 74 28 37
270 472 313 61 27 33
273 474 314 86 26 37
391 493 305 57 25 30
348 758 250 75 60 55
364 934 259 60 57 58
272 475 310 118 28 47
274 478 309 121 16 45
277 480 310 186 7 56
278 474 320 51 30 32
314 813 199 57 38 40
276 476 317 141 47 68
344 921 292 68 60 56
259 488 265 129 15 43
314 583 288 130 22 47
382 669 291 177 129 107
264 483 269 156 7 48
264 488 268 142 7 45
264 493 266 152 6 45
324 703 264 83 24 36
394 608 299 148 104 70
349 733 140 70 54 41
267 485 271 166 4 49
266 492 267 155 5 46
261 622 190 163 2 41
388 418 283 148 8 46
365 418 309 65 20 30
271 487 273 173 3 53
271 481 289 178 3 51
264 503 265 149 7 45
369 659 134 76 54 40
384 847 244 30 28 28
457 773 239 65 51 42
264 498 265 151 7 46
258 508 261 150 10 45
260 508 262 148 9 44
260 513 262 149 9 46
329 493 323 45 28 28
409 659 255 66 51 45
264 508 264 148 8 45
264 513 264 147 9 45
384 703 149 54 45 39
268 508 266 149 7 45
268 513 266 149 8 44
270 508 268 151 7 45
257 580 250 175 13 55
273 489 275 173 1 51
272 485 280 175 2 53
281 514 277 31 26 30
275 488 289 180 4 54
387 585 308 143 106 70
329 439 349 65 35 31
278 494 279 177 3 54
291 922 249 77 72 71
277 495 276 165 1 49
382 883 196 57 53 55
276 491 287 181 5 54
462 710 210 78 57 47
348 843 144 76 60 50
329 463 389 100 10 34
349 538 345 187 128 103
364 504 341 64 25 31
273 498 270 149 4 45
306 921 211 73 68 70
273 503 270 148 5 44
331 517 325 121 15 51
379 708 144 65 50 41
275 498 273 148 3 43
278 498 275 157 2 47
279 508 275 73 18 33
281 503 277 157 3 47
283 499 284 167 11 53
285 502 283 153 14 51
288 504 285 69 27 37
214 643 219 197 141 113
264 608 178 61 36 40
290 502 289 100 26 42
284 508 278 99 16 38
288 508 280 143 15 48
328 687 144 69 46 35
392 700 286 185 127 107
418 904 83 111 89 65
287 505 281 170 16 55
276 487 294 171 8 53
389 658 189 66 44 46
275 482 303 183 6 56
277 485 300 177 10 55
339 492 408 134 65 67
278 489 294 159 12 52
280 487 304 120 19 45
281 491 298 77 16 33
323 423 318 67 57 47
285 492 304 54 28 31
288 494 304 104 24 41
319 718 139 61 42 36
249 528 253 55 25 30
421 697 179 66 51 42
279 483 309 184 7 56
281 482 313 181 7 57
347 799 134 75 62 53
271 622 243 53 28 33
440 688 234 76 31 31
281 486 307 185 13 58
387 584 304 134 99 62
283 484 315 106 21 43
428 828 219 67 57 55
285 482 318 99 19 38
289 483 319 77 30 40
224 538 183 106 29 42
286 491 307 75 35 40
288 490 310 53 28 31
269 703 239 155 21 53
289 498 299 119 21 44
292 505 290 140 25 51
394 443 279 100 18 35
293 509 285 82 30 39
275 704 176 87 26 28
344 663 279 116 13 38
294 508 289 98 29 41
