ply
format ascii 1.0
comment Created by Open3D
element vertex 2221
property double x
property double y
property double z
property uchar red
property uchar green
property uchar blue
end_header
273 648 318 176 117 96
346 255 290 109 87 62
233 547 403 212 139 119
494 795 304 93 73 57
355 520 175 127 2 31
345 245 270 110 87 62
251 85 210 144 4 47
331 410 285 94 61 50
382 368 302 128 100 66
334 21 296 132 92 71
320 365 309 129 88 69
264 170 271 114 94 74
418 494 398 179 122 103
250 85 215 136 3 46
388 165 278 117 94 67
363 120 277 107 86 65
438 625 315 142 103 70
278 534 176 103 23 35
355 90 255 115 61 50
251 465 226 86 31 35
360 825 240 61 52 51
398 221 278 121 97 68
249 85 220 126 16 44
335 560 184 109 22 35
254 480 390 105 13 36
317 12 295 137 65 64
300 575 340 140 20 49
278 642 249 86 22 36
363 135 258 116 91 62
408 465 334 155 11 50
256 49 259 120 80 72
370 691 338 138 11 42
377 25 281 92 27 36
315 480 176 98 22 31
248 508 420 161 16 49
258 505 204 138 9 36
252 430 279 102 20 35
293 478 363 114 10 34
245 510 350 81 25 38
382 260 297 124 96 60
285 110 230 135 81 67
250 85 225 112 55 56
391 170 276 117 94 67
344 24 258 112 22 27
239 500 385 37 29 33
263 155 267 112 93 73
268 617 282 85 39 40
251 90 215 137 4 46
267 64 263 92 64 47
366 490 369 141 8 46
254 540 290 64 29 34
371 130 251 125 97 63
480 886 334 94 75 63
413 569 222 165 20 41
365 175 289 110 90 69
329 330 275 64 54 46
243 500 320 77 30 36
258 592 233 179 1 44
426 480 280 139 17 44
309 255 260 110 86 58
253 91 209 143 4 46
430 800 241 61 51 49
263 551 198 171 8 42
303 888 335 133 92 76
268 240 292 114 93 70
326 13 303 163 27 64
320 390 305 129 88 74
385 180 251 134 103 64
245 460 255 69 32 33
333 404 265 76 60 47
460 710 265 72 55 42
340 555 321 93 17 35
242 504 371 81 24 32
247 450 265 65 30 34
381 34 265 92 70 49
385 390 240 97 84 72
365 495 365 39 26 29
254 95 210 137 5 43
385 175 251 133 103 64
374 480 390 130 7 42
333 408 251 80 64 49
252 94 216 138 13 46
246 725 295 166 111 86
250 420 245 115 17 38
251 90 220 127 18 44
340 830 254 77 61 55
241 495 245 59 29 31
354 370 312 134 99 73
280 250 245 143 103 67
390 145 270 115 92 65
261 79 254 123 19 47
479 875 345 73 57 49
315 920 285 64 60 62
352 192 273 107 86 64
308 949 346 50 43 43
421 541 302 170 18 53
275 465 151 100 27 36
251 90 225 122 34 49
243 503 448 172 15 53
265 622 297 65 47 29
352 45 252 93 73 57
252 85 238 102 37 45
305 299 322 111 89 65
411 920 366 53 46 42
251 486 380 54 25 28
252 95 220 121 31 46
256 450 300 109 18 38
468 781 261 70 54 48
424 540 230 63 30 36
399 108 248 113 34 43
343 437 392 86 32 34
294 684 311 39 27 30
310 430 375 118 17 40
419 455 300 99 22 35
378 197 293 120 96 68
252 95 225 104 62 56
250 70 230 104 76 63
359 12 289 88 38 42
252 542 366 101 69 53
270 140 229 145 107 68
350 11 285 98 52 52
254 505 400 152 5 50
277 390 313 135 100 77
425 480 220 57 32 35
345 35 256 127 28 32
350 65 275 111 17 41
260 405 285 122 97 68
385 515 400 196 137 121
382 188 287 120 95 68
252 70 234 106 63 58
280 750 314 119 55 50
267 260 293 120 94 68
470 895 360 81 66 55
245 490 340 115 18 39
276 315 270 135 100 75
275 431 335 61 48 34
253 71 236 110 28 41
253 480 218 65 33 32
252 68 238 121 11 45
254 70 240 114 32 45
337 297 267 88 75 61
250 75 230 113 28 44
381 150 281 117 94 68
242 485 245 132 8 38
274 52 227 120 104 87
370 710 343 46 30 33
385 560 316 136 8 44
252 495 216 55 34 35
263 550 195 172 9 45
262 420 211 49 40 41
417 841 253 53 48 49
252 94 235 126 19 44
257 450 305 104 22 39
438 806 247 55 44 43
273 439 154 135 3 32
242 486 237 137 9 37
351 70 274 102 67 54
407 650 304 65 48 44
270 265 255 148 101 69
243 479 261 137 4 36
251 80 230 105 62 57
455 875 350 42 37 35
400 850 233 97 78 65
360 75 250 132 103 78
248 550 379 157 104 80
430 475 393 167 123 104
340 927 258 91 80 79
353 267 258 119 93 63
467 775 310 153 101 70
420 825 189 121 91 61
427 670 328 165 120 95
310 485 176 68 35 37
476 844 307 77 66 57
313 905 298 150 111 88
317 388 248 91 78 64
267 82 198 144 9 31
276 241 298 113 92 70
227 529 391 158 105 90
244 505 315 59 28 34
283 530 388 105 19 41
271 15 294 99 33 39
333 295 290 81 68 54
380 265 254 140 106 67
271 345 300 129 99 70
407 496 417 169 117 97
248 547 337 48 21 34
252 75 234 112 22 36
306 880 306 159 120 93
339 390 250 75 63 53
247 715 281 147 103 71
285 413 205 101 87 74
254 450 229 134 4 36
345 926 258 82 74 74
348 228 272 112 90 64
248 434 245 124 15 39
402 500 360 100 18 38
404 498 359 166 16 53
315 650 224 98 24 37
384 135 247 130 99 61
392 443 382 57 42 27
320 635 318 118 20 44
258 115 240 126 97 71
252 80 235 98 53 50
340 10 295 128 38 55
277 120 229 134 101 69
445 786 189 102 84 67
350 20 302 109 29 44
343 56 265 134 78 66
418 491 305 74 21 36
310 310 325 119 92 64
355 355 312 133 98 67
314 822 248 87 67 59
382 479 410 115 37 50
253 75 236 110 20 38
390 472 418 94 73 61
345 12 265 124 60 51
253 592 265 181 1 50
401 935 290 71 61 61
354 796 233 63 52 47
362 104 251 139 71 62
252 585 245 175 0 47
267 396 251 107 89 70
273 339 273 101 83 63
407 693 327 38 30 29
242 495 270 144 0 38
305 520 174 119 12 33
424 465 220 125 16 33
305 295 319 105 86 66
255 75 240 102 34 41
416 455 208 126 20 36
375 485 385 116 10 39
329 22 291 135 91 70
393 392 242 98 86 75
253 505 213 54 29 29
245 660 305 131 95 62
245 540 235 164 1 42
433 686 237 73 55 39
253 458 228 125 7 31
253 79 236 90 48 43
310 430 365 103 22 39
265 375 270 124 99 70
390 115 250 126 93 64
346 50 278 122 95 73
350 964 350 72 67 65
256 411 260 97 51 46
410 840 295 38 33 33
400 705 205 70 53 43
375 140 250 128 101 69
244 540 240 166 0 43
297 185 249 115 92 66
254 80 240 103 27 39
410 839 225 105 81 66
283 418 193 97 84 71
253 413 256 110 32 42
256 70 245 115 71 63
287 759 318 69 54 49
389 485 181 99 23 29
404 945 305 53 48 48
353 200 285 105 85 62
251 481 425 121 7 38
248 538 329 38 31 28
425 795 208 91 70 56
299 190 250 115 93 68
245 520 365 41 26 28
283 315 312 121 94 64
256 445 300 111 16 38
248 483 295 144 2 41
474 875 353 72 60 50
226 508 458 190 18 64
434 615 340 163 114 82
252 472 222 77 33 36
257 70 249 106 28 43
302 25 275 139 29 52
274 95 262 107 35 43
385 425 319 59 36 32
272 78 263 123 13 44
410 400 280 102 37 37
409 722 203 86 65 52
260 45 265 124 37 52
410 470 395 76 44 33
256 412 240 97 45 41
292 185 243 125 100 70
260 420 305 86 39 37
261 490 200 81 22 32
251 85 230 119 26 45
264 13 264 82 51 46
249 510 430 46 22 32
254 550 290 92 24 37
370 545 325 146 7 47
253 480 395 86 21 33
346 60 274 120 44 55
277 53 228 93 73 41
268 556 184 123 19 37
280 90 215 140 29 50
363 120 258 120 91 60
251 85 235 115 22 41
305 375 244 93 82 71
278 150 232 137 105 67
254 474 415 111 2 37
345 512 342 121 12 41
422 796 227 61 50 50
235 505 440 56 28 25
339 561 330 90 15 33
314 524 338 66 21 29
240 510 260 147 3 42
318 952 293 73 69 69
293 171 260 105 84 61
344 919 252 89 76 74
274 705 269 71 51 43
372 681 221 51 40 40
254 85 241 105 25 39
269 271 258 149 102 72
401 395 260 77 67 57
252 95 230 119 36 46
276 432 156 91 34 41
375 125 250 126 98 65
266 18 253 97 84 71
262 465 350 44 28 33
265 30 244 108 92 75
230 525 386 137 98 76
338 290 268 83 72 60
371 864 327 137 109 83
251 90 235 95 59 50
247 446 260 90 28 35
419 645 325 161 113 97
272 437 162 134 0 38
252 90 239 96 37 41
361 612 213 68 33 35
294 70 250 109 64 54
270 830 300 214 150 123
253 95 240 111 50 52
263 124 233 123 97 66
305 458 368 90 16 34
459 902 353 81 61 45
253 90 241 104 24 41
293 65 242 110 27 37
288 602 208 65 29 34
245 529 370 86 29 39
242 495 370 120 25 44
422 842 258 52 49 50
383 36 270 93 21 34
385 95 235 134 14 33
364 610 323 166 21 55
290 480 180 60 29 33
270 455 165 125 7 36
249 435 265 95 26 36
246 510 325 154 6 46
416 920 360 68 59 53
258 81 198 129 27 37
300 280 311 100 81 61
255 95 245 103 34 41
387 150 277 118 94 66
260 90 200 151 18 48
446 845 280 57 48 49
374 411 216 91 80 68
394 930 276 60 53 54
249 435 260 59 31 33
264 455 380 110 19 33
300 591 193 194 9 42
272 479 157 125 29 45
248 489 405 103 6 28
249 505 220 93 27 39
265 410 240 101 88 75
390 620 226 92 31 40
253 807 278 190 130 101
404 760 211 77 58 54
248 474 228 37 35 38
472 794 302 60 47 37
468 772 308 152 100 70
410 610 344 186 130 109
250 805 285 184 127 98
224 510 450 143 15 46
360 310 255 98 84 71
255 100 210 141 9 45
479 758 288 86 73 65
375 525 340 135 11 46
340 380 260 80 69 58
315 550 178 100 25 36
417 505 208 144 11 38
407 886 330 29 28 29
290 210 240 133 103 67
317 18 287 180 128 117
320 421 186 88 75 63
438 878 342 37 35 36
254 100 215 134 18 45
417 488 340 40 30 26
254 414 265 92 41 40
315 430 380 127 14 43
252 477 415 91 4 32
391 389 244 98 85 73
445 853 185 113 98 86
243 475 260 120 5 36
256 105 211 140 8 45
385 320 290 133 100 71
320 419 188 91 78 63
413 499 408 171 114 95
282 28 248 81 38 32
329 380 280 96 67 62
330 855 350 168 136 108
243 480 239 132 2 36
254 415 270 105 37 41
348 437 409 80 23 25
260 750 309 179 129 102
288 135 250 107 85 59
362 494 183 74 34 46
480 715 275 90 69 46
360 449 390 58 30 24
255 105 215 132 14 43
460 835 280 70 56 52
345 519 338 101 16 37
275 80 263 104 46 43
390 725 345 193 13 61
325 375 256 65 57 50
375 420 314 56 47 38
445 745 325 168 120 86
253 100 220 130 22 45
375 300 301 131 97 65
246 775 285 173 118 89
246 490 310 137 10 40
451 785 256 76 55 51
282 392 237 94 83 71
375 620 220 56 35 40
246 660 300 132 95 63
275 54 225 119 101 84
300 839 280 69 58 58
415 480 300 130 14 42
380 155 248 131 101 64
327 435 177 128 4 36
390 850 232 83 65 55
252 98 222 115 25 39
267 614 236 114 28 40
345 736 332 64 54 50
253 100 225 132 21 47
256 185 250 125 99 68
305 431 340 85 43 38
486 825 309 93 82 72
254 105 220 128 21 46
298 17 262 117 50 45
271 819 267 192 131 100
251 506 425 92 12 36
290 577 337 81 26 34
256 110 225 130 26 44
272 351 303 126 98 67
405 420 214 121 17 32
241 531 426 164 77 84
241 495 255 64 28 34
275 175 279 110 90 70
248 690 305 176 119 94
253 97 230 141 10 43
237 506 431 53 33 27
280 275 254 129 94 62
256 476 365 122 7 39
230 539 424 139 81 81
295 409 210 101 87 73
296 655 304 136 9 41
254 100 240 108 86 65
485 770 289 77 61 47
360 44 249 78 40 34
396 449 386 120 13 38
351 865 260 50 45 45
424 425 225 49 36 39
423 591 317 97 76 52
254 105 235 122 36 48
255 109 230 135 25 48
251 425 235 67 28 34
325 575 190 109 34 42
388 113 242 140 88 69
320 540 177 151 4 34
437 855 275 64 53 52
260 155 260 115 93 70
323 442 382 89 12 27
448 677 292 96 78 58
398 230 266 128 100 64
261 820 276 199 135 106
241 505 375 88 26 39
284 534 384 184 17 58
436 705 245 76 57 51
236 502 441 58 23 25
307 290 263 116 89 59
266 400 250 100 85 69
245 495 415 71 18 29
385 500 177 132 3 28
290 460 155 85 30 38
270 210 240 133 101 63
320 750 228 107 28 40
294 577 188 157 0 30
256 109 235 131 45 54
245 480 230 84 25 35
321 848 280 194 132 102
352 84 257 121 36 34
299 408 208 101 87 73
323 430 183 88 32 34
307 248 282 111 86 56
383 290 293 132 100 68
381 510 390 140 98 91
385 111 239 146 51 52
255 105 245 117 32 46
465 810 270 78 62 56
331 29 266 138 59 53
428 415 250 105 20 36
375 372 243 97 85 74
323 297 285 85 72 59
408 630 321 164 113 99
355 650 322 85 24 37
249 455 235 127 3 34
252 461 227 115 15 33
290 660 299 70 18 31
286 604 211 194 14 51
381 52 237 125 107 91
300 370 320 140 100 76
256 100 249 107 17 37
384 41 255 111 95 78
385 910 258 71 61 60
244 465 260 83 25 34
256 210 255 127 100 69
460 700 300 128 94 57
280 180 281 111 91 70
319 380 308 132 91 76
325 815 314 168 126 103
274 71 201 125 32 33
261 50 204 122 34 25
250 480 355 46 30 32
305 525 174 146 0 33
400 435 315 54 25 30
268 57 207 103 30 16
246 495 225 42 36 40
254 470 315 61 30 33
244 485 230 83 27 34
359 440 175 126 2 32
258 409 260 97 73 57
349 443 382 60 36 27
280 240 299 114 93 71
260 50 230 106 76 60
283 700 254 123 13 36
379 45 278 114 89 73
380 425 335 62 32 31
430 710 327 179 126 97
338 567 188 117 24 32
255 20 265 95 58 53
285 10 295 111 37 43
335 785 321 70 59 55
259 160 245 121 98 72
250 480 410 60 27 32
320 430 395 150 12 48
248 565 255 166 0 45
325 432 355 68 38 31
256 20 260 98 45 45
345 24 299 122 59 57
415 515 330 73 29 38
328 400 250 72 58 46
260 14 265 88 47 43
320 365 256 79 69 59
330 430 330 65 46 34
256 21 256 98 58 50
419 605 265 90 23 39
251 481 365 87 19 32
281 730 250 124 11 36
253 25 260 112 22 41
241 495 240 53 32 33
360 320 253 96 83 70
259 195 270 116 94 69
276 485 371 122 9 39
370 70 239 130 30 41
418 490 400 182 128 110
355 350 250 88 77 67
260 115 250 118 97 74
417 403 229 80 41 42
430 505 255 69 30 37
310 436 381 73 19 32
379 435 195 58 37 35
418 580 289 167 16 52
287 125 250 108 85 59
290 420 320 124 92 76
254 25 265 104 30 41
315 815 312 63 56 53
275 145 230 138 104 67
355 820 314 170 130 105
405 60 235 84 35 33
379 40 279 107 54 53
397 435 330 53 26 30
360 85 250 128 23 36
252 533 294 120 30 40
246 720 290 153 103 75
408 514 390 190 126 102
411 540 315 152 19 50
256 20 270 99 32 41
356 484 368 151 9 47
260 780 310 171 126 98
364 420 205 75 49 43
295 50 250 114 39 37
256 25 270 112 18 40
440 695 255 64 49 41
394 485 191 52 35 33
315 655 225 159 3 38
290 95 235 115 28 39
365 80 277 104 76 58
335 696 333 126 16 42
318 281 285 111 91 69
253 30 260 104 27 41
247 513 310 168 0 49
426 545 260 71 33 39
375 415 215 87 69 55
280 51 230 90 42 26
362 738 338 72 59 54
253 504 430 173 14 54
481 870 340 93 76 65
338 440 163 47 38 33
248 444 239 126 1 34
402 837 297 126 91 71
276 310 305 128 99 72
399 460 390 90 17 30
440 640 330 174 119 91
331 416 195 89 66 52
320 450 375 128 8 39
253 440 291 116 13 37
375 933 267 81 73 75
429 829 257 68 57 56
365 739 338 73 60 54
374 568 192 185 9 41
355 396 235 94 81 68
367 483 378 158 0 46
254 30 265 107 44 46
352 465 164 64 37 37
283 140 237 120 95 67
319 350 261 76 67 58
254 35 260 104 44 47
255 544 350 160 14 50
408 929 330 62 54 51
345 30 256 111 35 35
375 705 344 69 25 36
345 530 331 58 23 32
285 525 365 114 3 32
322 390 302 127 85 70
249 489 390 118 11 35
226 510 404 141 101 92
340 698 223 123 10 29
325 11 300 154 35 62
418 492 325 133 13 42
452 734 259 58 47 40
402 659 307 100 19 34
255 35 265 116 70 63
427 583 334 134 104 68
249 530 335 85 15 32
395 818 313 104 78 65
365 235 248 133 103 66
411 930 305 77 68 67
395 88 227 152 16 43
235 501 445 64 23 26
524 840 340 106 88 72
398 230 279 121 95 62
339 365 307 131 91 73
240 500 435 75 24 29
480 865 320 99 77 61
318 415 303 92 65 51
357 734 338 70 57 52
254 40 260 115 40 49
440 700 250 74 50 43
256 40 264 115 52 56
396 190 270 122 97 68
423 500 330 171 10 53
363 450 182 124 7 26
261 115 235 126 90 66
290 160 255 106 85 63
406 752 208 63 52 45
248 483 355 80 29 37
253 424 276 108 20 37
393 160 270 116 93 67
255 45 260 120 29 47
379 80 235 135 19 40
385 195 250 126 99 66
460 887 343 88 63 54
390 570 310 79 20 33
291 19 253 119 38 29
385 960 290 80 72 73
258 418 223 68 36 47
274 635 250 57 31 37
311 860 315 152 117 89
254 479 360 109 20 39
295 430 380 73 24 31
262 84 253 120 18 42
261 70 255 100 42 45
422 590 255 105 32 44
245 455 255 59 30 31
265 426 320 73 46 35
230 547 416 201 138 128
357 443 417 86 10 37
421 789 323 96 75 62
408 604 308 96 64 57
310 417 192 98 83 69
381 120 247 128 97 60
329 850 295 183 129 102
288 453 147 135 23 34
305 935 300 56 53 54
255 225 260 128 100 67
406 474 365 36 26 31
400 525 385 187 124 98
265 90 200 150 16 44
412 559 330 71 30 35
365 270 304 127 96 62
271 515 166 143 8 36
333 933 367 40 37 39
283 690 254 93 28 40
256 230 260 130 100 68
420 635 291 81 58 41
302 224 282 110 87 59
246 509 315 82 22 34
276 634 241 179 17 51
405 863 307 35 32 31
349 451 396 33 25 27
253 420 275 103 21 36
407 464 203 41 36 38
256 230 265 123 96 67
335 570 335 198 10 62
256 465 320 84 28 36
329 375 265 57 51 48
403 88 248 128 15 46
256 235 260 133 101 68
286 90 261 106 33 42
381 285 259 143 107 73
362 156 283 105 86 66
380 260 299 124 94 59
416 799 211 80 63 54
243 505 234 59 33 35
240 510 250 62 30 34
280 37 277 133 24 54
482 780 292 81 60 50
362 750 217 60 46 42
388 216 288 112 89 63
256 235 265 127 98 67
293 274 252 116 88 61
246 506 441 160 15 49
286 600 325 44 25 30
378 758 208 78 60 52
358 199 292 107 88 68
365 325 306 130 95 62
262 269 288 128 97 71
287 292 313 113 89 61
280 475 153 105 26 37
274 255 248 145 102 68
320 495 350 52 25 28
250 450 235 135 1 36
255 476 355 81 25 33
325 340 309 117 77 58
259 510 200 137 4 35
250 465 290 122 9 38
488 740 289 81 63 44
454 685 300 123 94 59
376 576 312 126 8 39
254 414 239 105 27 37
247 486 330 59 31 33
271 395 309 134 101 76
351 495 170 44 39 42
404 690 221 82 54 42
295 401 221 102 88 74
264 760 312 179 131 104
395 535 180 80 29 38
252 450 231 134 3 34
262 396 290 127 100 70
396 445 360 107 15 40
309 870 310 153 119 90
253 413 245 119 28 38
431 455 245 143 15 41
419 495 395 166 114 95
385 710 346 179 13 56
388 367 252 102 87 73
340 685 329 88 25 37
273 495 373 144 10 44
315 605 204 130 16 38
287 125 245 115 91 63
252 416 240 116 17 37
286 580 336 170 16 54
266 625 260 105 29 41
263 115 230 135 97 74
290 605 210 184 12 49
251 565 370 163 112 87
267 149 232 136 102 61
263 443 337 77 25 36
249 515 325 178 0 50
375 95 277 107 37 46
251 415 250 101 27 37
406 615 330 178 124 108
432 729 233 51 40 40
325 431 375 116 21 39
397 895 263 56 49 51
251 416 255 114 20 39
370 490 181 72 35 37
370 90 278 109 25 42
248 685 305 179 121 96
246 770 285 173 119 90
413 468 318 170 15 52
305 544 364 149 26 55
304 385 243 98 86 75
246 460 275 84 23 33
277 351 262 106 89 71
427 508 276 70 29 33
310 396 235 99 85 71
255 411 250 105 46 45
354 80 254 141 18 43
289 105 235 129 40 47
384 423 335 64 32 30
382 502 392 109 65 62
289 700 316 120 15 41
254 515 399 67 20 30
302 26 270 135 26 48
310 836 264 93 71 63
320 515 341 83 20 35
353 510 172 61 29 29
475 909 360 94 78 63
350 640 223 120 21 38
365 200 296 118 97 75
390 120 255 114 90 61
279 61 216 97 53 33
240 530 380 151 108 87
376 924 261 80 73 74
248 445 270 68 30 34
256 417 226 63 36 38
248 490 223 49 39 41
280 280 256 126 92 61
289 484 363 126 11 42
325 770 229 77 60 53
385 520 177 53 36 37
259 185 265 116 94 69
263 385 275 128 100 70
334 414 195 89 68 55
380 755 214 79 59 49
354 66 277 111 20 44
330 450 379 78 17 31
360 619 217 109 33 43
253 419 230 48 37 38
280 29 289 133 73 68
251 560 370 159 107 83
435 640 334 191 127 101
261 105 253 111 75 62
272 510 372 108 18 38
390 575 200 187 16 45
285 145 265 109 86 59
374 786 218 56 47 41
256 416 230 75 36 36
350 435 370 53 41 28
450 690 260 114 83 58
354 470 170 60 35 37
345 505 165 118 13 31
242 500 289 150 3 43
515 744 312 100 83 68
400 845 231 104 82 66
335 715 334 162 17 53
317 385 248 90 77 64
290 630 226 181 8 43
417 794 210 86 72 66
252 421 231 43 34 37
340 520 170 76 30 33
390 375 250 99 86 72
382 214 292 119 95 68
252 425 231 62 30 33
410 475 201 53 34 35
252 420 235 59 31 34
272 260 298 119 94 68
283 187 283 111 91 70
391 135 260 117 93 66
261 94 202 159 15 52
246 491 385 96 23 34
495 774 297 98 75 57
330 335 308 103 67 52
385 920 375 42 37 36
250 425 240 89 24 34
250 440 275 82 28 34
253 418 234 50 36 35
418 416 217 53 41 40
266 435 205 73 36 38
253 430 229 136 11 37
350 26 258 91 44 33
257 191 263 118 96 71
249 440 265 59 34 35
367 211 247 128 100 67
391 645 311 121 12 38
350 659 322 143 15 46
251 490 220 41 38 40
300 225 250 129 100 66
471 770 295 93 64 45
351 215 260 121 96 67
248 484 330 45 30 32
310 600 329 148 25 53
262 431 324 95 19 35
271 560 181 145 18 39
361 165 257 115 91 61
422 498 296 166 18 48
404 765 211 75 56 52
254 420 285 108 19 39
319 445 183 91 23 32
375 230 247 133 102 65
335 421 298 76 54 43
293 216 288 110 88 64
243 470 255 77 27 33
338 294 302 102 80 58
251 430 235 123 13 36
424 873 322 31 29 30
246 470 235 103 15 33
252 584 363 183 126 105
268 419 203 96 56 50
460 914 363 91 79 68
249 425 245 75 26 34
252 676 287 143 102 69
475 800 270 78 61 53
382 83 232 146 8 42
312 715 227 55 33 38
250 420 250 83 26 36
263 394 290 127 100 70
408 888 337 34 31 31
262 27 247 109 94 80
375 300 257 110 90 68
441 635 325 140 103 65
281 110 262 112 89 65
265 701 318 174 124 99
246 490 226 46 38 38
250 420 255 80 25 33
268 606 301 49 30 34
397 463 371 106 0 27
246 455 260 96 24 35
335 895 365 189 139 117
373 713 214 63 50 43
269 37 237 113 96 76
397 484 423 163 103 95
249 425 250 90 26 36
335 825 250 86 67 59
355 100 265 122 85 67
340 345 310 133 90 72
468 752 257 78 58 49
245 510 340 109 18 41
295 810 249 78 62 59
243 470 250 95 22 36
246 765 290 173 121 91
249 425 255 84 29 34
249 435 255 48 33 33
320 620 321 131 30 49
335 510 173 104 15 33
242 480 250 129 4 38
228 514 415 132 96 83
274 125 226 142 105 70
344 447 396 40 24 29
242 500 285 60 25 31
249 430 250 95 24 36
256 440 225 141 4 37
329 879 356 124 101 78
243 501 304 142 10 48
427 465 234 138 13 38
304 265 256 120 93 63
367 878 332 138 107 75
242 496 275 140 1 38
244 490 355 73 27 33
413 451 313 41 27 29
375 395 234 95 83 70
252 435 232 138 6 35
411 826 199 98 77 58
288 155 264 104 82 57
336 840 314 154 115 94
385 550 186 173 11 37
250 440 235 133 1 36
332 408 254 79 63 48
318 282 281 108 89 69
394 260 270 135 99 64
344 852 269 138 89 70
404 691 329 81 21 34
362 176 288 107 88 68
385 113 242 138 88 66
252 472 318 76 24 32
260 150 240 125 100 71
424 475 215 129 18 32
274 220 292 112 92 72
372 83 242 138 22 37
390 650 314 120 13 40
359 165 260 114 91 64
367 26 292 112 36 46
244 525 424 99 5 34
342 370 308 131 92 74
216 535 420 154 108 94
317 912 286 71 64 64
340 681 328 71 26 31
248 440 239 127 4 33
268 596 313 45 26 29
248 499 443 152 17 48
411 645 315 149 101 90
252 440 232 136 1 38
268 57 211 98 55 17
370 100 246 117 50 37
408 602 347 186 130 109
256 445 225 136 4 34
313 297 318 111 88 63
445 820 260 67 56 54
375 30 260 111 95 79
364 880 340 136 100 75
410 596 351 189 133 109
245 510 330 133 19 44
295 265 305 117 94 68
423 440 217 130 16 31
254 445 229 131 2 33
460 705 286 55 38 33
283 155 236 124 98 67
270 121 223 158 116 80
459 800 319 171 117 92
350 397 235 94 81 68
252 445 232 130 2 32
301 350 254 90 79 69
244 494 400 108 9 32
292 76 256 112 17 38
251 505 420 155 13 48
253 553 293 127 28 45
247 745 271 152 107 79
395 465 199 54 37 34
257 172 246 123 99 73
250 445 235 129 2 34
246 450 260 72 29 33
235 548 414 203 141 131
398 412 318 65 48 33
380 35 260 112 97 83
390 770 211 81 61 49
247 436 242 124 11 36
297 24 258 120 38 32
370 379 238 95 83 72
246 545 255 172 0 47
385 210 249 127 100 67
295 340 256 90 79 67
282 680 256 82 25 33
264 55 201 127 26 17
400 790 221 83 60 51
305 350 254 89 78 68
329 380 290 114 71 61
262 190 242 132 101 63
246 455 270 50 29 33
252 426 278 111 20 30
360 50 282 114 17 42
347 227 261 120 95 65
300 400 316 139 101 82
385 60 230 87 33 25
470 780 300 89 62 47
295 391 235 102 88 75
340 416 175 92 63 54
285 240 243 138 104 66
375 900 247 70 62 61
355 705 336 35 28 30
420 440 214 113 23 31
245 490 345 150 5 45
254 800 306 178 128 98
488 878 333 91 70 59
337 455 166 109 18 30
310 431 335 83 45 38
435 684 265 77 58 44
243 500 315 56 31 35
300 325 259 88 76 63
265 819 308 198 141 116
247 436 245 130 11 39
453 888 331 79 62 54
345 465 160 113 21 32
298 920 325 187 148 127
385 56 231 100 80 56
365 40 250 76 33 25
275 429 330 64 50 35
460 904 355 85 66 51
278 234 297 111 91 70
272 340 299 132 101 72
439 795 246 57 47 45
274 315 274 133 98 74
450 765 327 170 123 88
272 335 299 134 103 75
255 415 280 98 45 42
474 730 270 90 69 50
395 60 224 113 32 22
242 529 255 130 5 40
402 698 337 58 20 26
415 580 359 183 124 94
258 633 293 96 76 53
329 375 300 123 81 70
261 104 207 118 68 52
264 485 190 133 0 36
404 420 305 109 13 38
399 920 280 62 55 57
247 440 242 127 6 35
315 440 184 48 39 40
248 470 229 41 34 36
320 12 291 146 73 73
408 66 240 105 43 43
420 865 264 55 49 50
398 65 258 115 86 72
300 20 295 170 116 102
404 875 238 72 62 58
347 226 265 115 92 65
247 440 245 131 10 38
247 445 250 106 17 34
249 455 285 85 26 35
288 110 250 116 86 61
365 521 341 115 17 41
242 504 290 138 12 45
244 545 330 74 31 37
300 398 223 102 88 74
246 455 240 127 2 31
259 95 251 105 87 68
244 470 270 90 22 36
375 290 257 128 100 69
279 750 249 115 81 55
246 500 225 53 32 35
393 32 229 91 31 32
291 604 206 180 17 50
293 255 247 138 105 69
247 441 250 108 18 34
485 864 335 88 68 58
380 480 180 112 15 25
513 836 331 99 86 75
325 945 366 51 48 48
277 75 203 138 30 45
280 55 270 116 56 52
328 333 281 66 55 46
247 445 245 131 4 37
429 455 240 139 10 36
262 515 186 143 6 38
263 500 189 135 1 37
314 291 310 104 83 58
272 436 186 74 24 33
247 445 255 74 27 30
401 470 418 132 96 82
372 108 247 143 100 71
431 790 239 65 52 49
417 556 224 163 20 41
282 406 227 102 88 74
244 505 330 87 23 33
269 455 190 125 3 33
283 398 234 96 84 72
289 555 183 39 35 39
469 775 266 67 52 45
412 669 259 43 40 41
294 35 251 111 30 24
248 435 250 102 22 34
459 908 363 82 69 59
357 170 261 114 92 66
256 190 250 129 102 70
347 448 414 90 5 26
268 295 290 135 100 75
380 454 401 48 25 25
427 882 285 60 51 55
226 502 451 70 19 24
248 439 251 90 24 32
389 504 379 86 16 32
447 854 182 119 101 86
248 444 256 60 31 33
350 24 299 137 19 52
275 44 234 103 86 67
443 667 292 97 81 63
354 255 301 115 91 66
389 47 250 110 97 83
411 495 411 173 119 98
477 885 347 85 68 54
310 300 265 104 84 62
481 725 293 79 64 49
416 415 286 47 27 31
254 672 317 185 134 110
360 11 275 99 80 70
386 170 281 118 94 67
254 460 225 119 16 34
375 295 301 130 98 65
256 460 220 84 25 34
423 514 217 52 33 34
226 506 458 152 13 49
294 190 245 122 98 71
310 431 314 75 55 42
370 470 415 153 15 47
345 939 267 84 77 79
265 580 310 85 17 39
370 350 247 96 84 73
329 900 280 136 90 75
258 112 240 128 95 73
389 205 284 115 92 65
254 510 210 74 24 34
390 445 385 52 35 26
269 32 242 107 94 80
245 460 260 88 23 33
385 240 251 135 103 64
278 130 232 129 101 67
266 230 289 116 95 73
256 215 255 128 100 68
320 570 186 73 34 36
422 906 310 64 57 59
390 406 230 94 81 69
370 25 290 101 32 41
295 445 373 55 22 27
354 39 253 120 14 34
380 270 254 140 105 68
405 75 250 127 19 49
335 358 263 68 59 51
263 399 259 116 94 70
256 465 220 39 34 36
420 780 325 91 70 60
290 275 309 112 90 65
432 455 255 143 12 41
241 490 260 121 11 39
303 216 274 112 89 63
375 75 275 116 21 43
241 520 240 75 25 35
350 250 259 123 95 60
253 465 224 60 30 32
270 54 220 118 96 73
244 500 295 155 0 44
246 535 270 140 15 46
383 115 273 117 93 67
268 350 280 125 99 69
340 345 261 77 68 59
489 800 295 83 67 56
435 685 245 70 49 38
254 470 220 54 33 36
285 437 364 78 40 37
288 110 254 109 84 59
320 685 224 84 28 34
244 640 325 169 120 95
365 21 261 110 95 81
247 535 377 159 109 89
271 49 228 119 101 82
376 427 344 58 35 29
302 251 253 129 100 66
422 439 281 86 24 36
345 624 217 171 9 42
262 264 261 150 104 74
350 577 188 190 10 49
313 267 279 108 86 59
253 690 312 176 123 98
350 948 272 90 82 84
496 767 302 77 59 46
378 228 247 134 103 65
468 760 300 142 95 64
266 595 221 162 8 45
256 470 216 76 32 33
295 591 194 203 11 44
291 60 239 115 36 40
388 657 318 139 8 42
351 80 260 127 33 42
255 435 295 89 21 34
255 480 215 89 32 36
386 250 254 138 103 64
330 645 222 98 22 34
253 465 305 60 30 34
285 75 264 111 73 59
482 862 328 88 67 57
252 475 221 86 33 35
310 611 209 211 12 47
254 546 346 175 9 53
310 788 318 66 57 55
350 675 225 73 32 34
285 175 276 106 86 64
415 679 250 79 55 39
370 750 211 63 49 45
249 480 224 60 35 35
340 785 234 84 65 56
402 86 228 146 15 47
227 507 404 138 105 87
315 401 220 97 83 68
393 230 257 129 100 64
251 440 285 89 22 34
348 433 313 66 50 37
360 461 391 78 18 34
264 100 256 107 32 44
269 175 276 113 94 75
445 760 241 74 56 47
428 485 226 43 33 35
253 535 295 72 29 36
345 665 224 113 23 33
282 105 224 99 55 37
405 430 214 58 37 33
275 411 220 100 87 74
270 34 279 112 68 60
269 625 250 48 35 37
409 828 303 52 44 42
410 850 240 62 53 53
241 520 265 118 13 37
415 765 225 58 46 45
254 475 219 87 31 37
420 595 275 157 13 44
400 585 308 88 20 36
248 495 223 42 36 39
492 834 316 90 82 75
305 365 319 137 97 71
226 535 400 153 100 80
309 865 335 155 59 83
272 651 317 177 119 99
276 412 216 99 86 73
249 580 275 131 16 43
256 475 215 96 26 36
464 879 325 62 49 45
348 870 279 119 90 69
405 610 310 94 55 50
282 623 227 63 34 41
252 472 315 80 29 33
385 360 250 100 87 74
243 522 423 132 5 35
243 495 234 74 35 38
474 815 303 73 60 49
369 735 210 54 43 39
410 430 214 77 36 36
459 710 310 155 104 71
284 180 236 137 107 69
247 450 240 131 3 35
293 84 245 127 13 41
445 886 315 74 59 56
261 500 386 139 7 42
407 658 258 60 29 28
369 65 239 110 63 50
447 669 317 152 104 73
340 26 295 136 72 68
316 350 259 81 71 62
316 285 274 91 74 56
247 456 237 125 5 32
265 190 240 136 103 64
261 235 251 137 101 66
375 775 329 73 62 56
460 708 286 52 38 31
298 182 251 114 92 67
427 501 229 47 32 34
425 824 305 43 38 38
349 688 332 105 30 41
333 435 168 103 25 35
285 495 170 66 34 38
247 510 222 40 35 40
313 874 326 97 71 67
433 848 246 62 56 56
391 450 204 53 37 31
373 436 187 49 37 40
355 315 310 129 90 62
373 457 412 72 22 29
247 460 236 122 7 30
361 125 275 106 84 61
365 195 294 115 94 72
246 465 235 112 12 33
265 375 285 129 101 70
340 434 365 51 38 29
370 75 276 114 24 45
315 570 339 197 8 63
245 465 240 125 3 33
360 330 252 92 80 69
387 454 194 55 33 29
257 21 274 87 49 40
323 297 282 85 74 62
413 622 337 184 130 108
241 521 375 50 27 34
352 75 256 122 87 66
251 455 231 128 3 35
368 452 411 72 26 21
248 705 300 167 114 86
270 455 160 127 3 34
407 64 240 97 39 39
256 450 225 135 5 36
390 115 255 109 85 58
353 460 165 87 31 37
275 820 309 197 142 115
249 491 444 152 17 53
447 761 243 72 55 47
253 454 228 130 4 35
365 480 380 152 3 48
395 915 371 46 40 35
287 175 238 132 104 70
335 351 264 69 61 53
249 470 290 139 1 40
389 655 237 79 31 30
242 481 263 142 0 40
242 496 280 108 9 34
259 680 278 125 92 55
335 575 191 161 6 36
316 407 196 95 81 67
250 430 265 81 24 32
393 268 275 136 96 63
250 460 290 90 18 34
260 114 211 133 41 46
385 750 335 79 64 59
391 150 255 122 96 65
406 625 245 134 25 43
248 450 238 132 2 34
257 800 308 179 130 101
397 53 251 75 57 42
223 541 414 172 118 102
411 892 355 33 32 33
254 525 210 149 9 38
370 520 178 148 2 33
358 374 243 94 83 72
402 430 310 117 21 41
372 96 277 110 69 57
281 70 210 118 35 35
481 821 290 80 64 54
255 680 315 177 124 100
387 535 371 149 99 88
258 175 260 115 93 70
250 425 260 87 26 33
335 315 271 68 58 49
297 681 313 33 27 29
249 465 230 71 31 34
291 407 216 103 88 73
280 175 279 110 90 68
403 505 192 122 13 34
372 418 195 63 35 39
218 535 418 146 107 89
305 430 186 45 40 44
248 460 234 117 12 32
276 685 312 159 114 93
389 220 252 129 100 64
479 803 267 79 62 53
259 155 250 118 96 72
405 400 275 85 51 41
257 471 395 68 29 28
400 565 200 58 29 36
410 485 200 131 13 37
301 940 335 181 133 112
252 430 275 112 17 36
248 464 233 87 24 32
332 438 393 76 17 25
246 450 255 78 28 34
275 145 270 111 91 69
379 36 257 118 102 87
335 690 331 40 29 32
245 460 245 120 13 34
260 16 260 90 57 51
284 581 189 49 35 36
271 305 276 137 99 76
244 465 245 108 17 33
300 930 315 171 134 112
265 115 210 154 109 100
346 38 283 126 12 48
426 465 230 135 14 37
333 396 285 111 71 62
256 746 262 129 98 62
476 760 270 81 62 49
257 73 249 100 62 55
277 341 267 112 92 69
415 670 265 50 39 40
341 50 274 114 40 48
408 866 257 62 57 59
275 59 215 108 86 60
398 934 281 81 73 73
250 470 295 98 18 35
315 420 306 89 66 51
430 886 355 39 36 36
427 495 224 48 32 32
245 460 250 86 24 34
355 977 299 57 54 56
393 75 263 110 44 49
465 825 306 58 47 40
266 264 257 149 103 70
244 465 250 54 31 34
400 595 220 111 33 45
385 90 235 142 12 40
288 330 317 128 96 70
395 934 350 54 47 47
390 615 224 116 25 41
380 390 235 94 83 71
245 510 355 60 27 32
461 871 309 103 78 63
259 96 203 151 16 46
292 81 251 120 10 43
268 454 195 127 0 33
387 70 267 92 71 56
246 455 265 71 26 32
418 492 322 144 8 44
240 548 414 192 137 124
455 820 265 69 55 50
237 534 382 204 142 127
248 450 280 82 25 34
275 15 255 90 77 65
345 775 231 79 61 53
370 671 328 36 29 32
244 465 255 71 27 32
380 300 260 116 94 67
260 589 289 71 26 35
263 460 209 138 5 36
247 466 232 47 31 30
355 45 249 100 41 34
517 832 336 94 77 66
256 470 330 42 31 33
397 436 340 138 11 43
247 470 231 35 33 37
360 80 250 113 72 51
244 470 240 128 3 35
280 450 375 87 16 32
326 628 217 48 36 33
332 18 298 146 102 90
391 130 255 122 97 68
299 220 246 131 102 68
384 461 186 97 28 27
320 960 350 68 62 60
422 460 214 112 20 33
470 765 265 75 60 51
288 42 242 98 26 17
264 575 215 38 35 38
243 480 235 131 6 34
299 24 290 164 110 94
437 847 308 37 32 30
271 421 196 98 47 35
243 470 245 122 5 35
398 397 288 102 80 61
243 474 244 129 2 34
445 846 314 40 36 35
360 621 218 97 34 43
242 476 246 131 3 37
271 176 278 111 92 73
285 419 190 97 83 69
352 255 257 125 97 63
276 116 225 137 97 69
375 885 334 129 106 85
312 517 342 26 27 24
242 475 250 104 15 34
374 21 270 98 62 56
247 514 340 173 1 51
243 473 248 132 10 31
356 105 265 120 92 66
430 485 270 153 15 46
282 685 256 43 34 38
242 472 251 109 20 37
412 502 406 190 127 107
384 330 265 117 94 70
350 431 315 66 50 37
242 475 255 88 26 36
435 856 265 59 51 49
439 650 329 179 120 91
244 465 265 105 21 36
390 936 355 53 47 44
345 450 158 127 10 29
250 575 270 47 31 34
455 784 249 75 57 53
270 561 381 159 91 87
297 198 272 107 85 59
428 488 389 195 136 123
290 834 271 145 103 90
375 451 399 51 28 25
445 851 319 38 34 32
276 70 204 120 36 29
273 435 184 92 24 34
268 52 267 113 78 64
314 405 309 123 87 71
360 660 323 139 13 43
249 485 224 61 36 36
290 725 240 111 19 33
397 214 268 124 99 69
305 500 351 129 8 41
352 53 252 133 35 39
392 947 337 57 51 50
469 755 295 126 88 58
270 120 261 109 91 72
269 475 380 151 13 47
253 483 394 104 21 29
414 471 397 92 65 46
397 499 188 96 20 28
265 160 269 111 92 73
356 400 313 123 90 73
393 933 368 65 59 57
272 514 372 70 15 30
251 485 220 51 37 37
270 410 309 133 100 75
398 387 254 91 76 64
303 275 257 118 91 61
312 270 268 99 79 57
364 906 353 85 66 55
365 215 298 119 96 72
313 350 257 83 73 64
244 495 300 145 1 42
279 84 206 144 15 46
395 899 355 33 30 32
360 973 333 66 58 56
329 440 175 129 4 30
380 780 327 71 60 54
253 484 218 69 35 37
470 855 300 77 62 56
256 490 211 79 29 36
244 500 340 45 32 33
258 459 218 67 26 30
263 463 385 77 19 32
419 780 232 56 47 44
350 12 299 105 41 49
348 874 260 45 41 42
450 695 320 162 108 76
246 511 420 153 17 50
498 809 311 90 79 70
426 795 196 103 79 61
315 325 321 130 88 68
256 495 210 72 30 35
391 250 259 138 102 65
261 575 325 138 4 41
252 784 267 180 120 92
256 470 405 100 6 32
254 495 214 78 30 35
250 495 220 41 37 39
375 974 305 78 69 72
293 70 241 112 23 40
250 790 275 177 119 89
370 790 221 54 45 39
408 66 236 103 40 41
241 490 250 74 32 37
386 290 290 136 100 70
386 665 234 74 32 30
292 179 243 121 97 70
408 575 324 94 51 45
347 251 294 111 89 64
250 485 375 61 26 31
243 485 235 127 7 37
345 45 256 124 29 36
349 61 276 117 9 40
290 780 318 96 77 64
340 617 213 139 26 46
252 490 217 44 35 34
245 515 375 53 24 28
290 25 290 128 87 67
258 48 233 103 70 59
383 330 293 138 104 75
360 140 265 113 90 64
248 500 223 40 34 40
295 200 245 125 99 68
247 774 298 170 118 90
246 480 280 114 8 33
244 655 310 142 102 69
348 415 307 102 73 58
440 817 312 142 94 69
287 111 239 132 96 72
284 170 274 107 87 64
300 885 330 135 97 79
385 675 225 68 49 43
289 155 245 114 92 67
404 60 245 87 39 34
281 169 276 110 90 68
253 526 319 168 0 47
270 325 290 132 101 72
247 446 264 90 30 37
255 481 434 147 17 50
247 506 222 61 26 37
407 75 230 122 27 40
366 464 394 146 8 47
287 784 242 162 112 78
248 483 290 138 0 40
422 633 338 188 131 108
357 457 178 68 37 39
246 510 225 64 34 38
315 275 280 114 92 68
421 500 335 172 16 56
339 275 275 92 77 60
340 610 324 97 24 40
352 372 247 90 79 69
355 275 305 118 92 67
253 525 213 141 7 35
247 460 279 90 24 36
287 116 244 119 92 64
275 115 263 112 91 69
280 395 315 137 101 79
481 812 278 82 63 53
290 837 285 160 112 92
260 412 235 97 79 67
455 760 324 165 116 81
255 500 210 79 25 34
352 196 261 123 98 70
263 445 340 48 28 31
288 36 247 87 50 33
300 839 285 55 48 48
468 764 261 86 68 57
285 40 275 129 18 49
370 125 280 113 91 68
385 220 290 116 92 65
330 25 265 148 40 50
315 431 355 100 31 39
252 500 216 104 28 39
241 485 250 86 19 34
323 847 273 191 129 98
390 505 176 131 3 29
275 370 310 130 100 72
243 499 430 79 23 31
253 490 438 161 16 54
356 413 208 93 76 64
253 459 296 114 17 39
427 495 276 126 18 43
266 605 295 98 27 40
294 510 178 43 33 36
325 400 299 106 71 58
416 832 297 46 38 35
300 360 251 91 81 70
255 505 210 52 30 35
361 220 250 127 98 63
379 909 256 66 59 60
280 107 263 114 91 66
395 826 306 150 119 98
286 471 153 89 30 41
375 360 244 96 84 73
262 615 265 179 2 50
295 15 260 113 52 43
260 710 315 177 123 100
395 475 195 52 36 33
515 845 335 105 85 69
251 575 240 163 2 43
397 205 270 123 97 67
374 76 239 139 81 76
374 220 298 121 97 68
402 468 384 67 20 29
405 755 210 69 56 52
249 500 220 41 34 36
312 265 269 107 85 59
446 781 327 179 132 99
288 109 236 139 94 76
282 82 218 100 70 50
251 510 215 107 24 40
322 442 182 117 5 24
365 120 256 125 95 62
445 750 325 169 121 87
340 15 260 141 33 34
230 510 456 178 17 59
310 570 184 142 14 40
253 510 213 100 25 32
275 161 233 138 105 67
336 34 279 123 23 47
276 350 309 124 96 68
358 95 253 123 67 55
262 274 284 134 99 73
262 457 409 135 12 43
253 434 286 89 21 33
332 306 277 69 60 50
355 395 240 95 82 69
306 691 328 127 8 39
269 27 247 107 94 80
413 635 285 61 29 34
265 26 246 111 95 76
359 456 405 59 20 27
396 100 256 114 54 54
354 455 165 104 27 34
365 46 247 85 38 27
253 548 299 35 29 33
327 548 336 34 25 30
397 200 270 122 97 67
390 95 232 142 11 37
247 485 226 74 34 35
249 484 365 61 24 30
247 447 269 45 32 32
290 155 250 108 88 66
316 943 281 74 68 68
226 506 446 84 31 28
335 335 309 119 80 63
392 266 286 132 98 66
285 210 239 134 103 66
389 955 290 74 67 68
360 945 271 88 81 83
463 701 271 71 56 42
360 630 321 46 30 32
248 474 286 140 0 38
317 953 358 55 52 53
334 400 245 80 64 49
288 145 246 113 91 65
276 799 252 169 114 80
244 490 230 58 32 36
474 868 326 89 69 56
380 185 249 131 101 65
234 529 435 108 35 50
263 166 238 128 99 63
270 116 215 160 76 70
244 495 230 54 32 35
270 36 276 115 47 51
362 20 297 101 31 40
439 640 305 132 98 66
245 510 300 108 13 40
329 372 270 73 68 65
225 505 450 111 25 35
405 465 202 60 38 37
359 170 259 115 91 64
253 469 310 52 28 33
413 503 403 198 127 112
413 680 237 89 62 42
400 85 226 148 28 47
243 490 234 119 20 40
251 740 266 130 97 64
340 29 285 131 95 75
464 738 274 100 75 66
388 361 288 133 103 70
469 858 331 47 38 34
494 716 290 89 71 55
242 490 236 116 16 34
235 509 394 53 39 28
275 795 251 169 114 80
360 45 283 118 88 68
290 100 235 121 36 43
287 296 313 118 91 64
242 490 240 103 19 35
287 115 255 110 83 57
400 440 210 52 38 37
242 495 236 62 33 35
435 826 300 63 44 35
335 841 259 167 122 98
262 666 317 168 120 98
295 20 300 149 99 85
350 570 320 126 9 40
289 598 323 139 18 50
283 522 364 128 8 31
386 225 291 116 92 64
241 485 255 93 21 34
260 610 255 168 8 49
345 841 259 129 91 74
261 21 251 102 85 70
295 836 290 46 38 39
373 64 278 99 43 43
255 810 275 193 131 102
287 130 245 115 91 63
241 490 255 72 27 33
385 290 265 134 102 70
404 470 360 46 26 30
360 135 275 105 84 59
290 375 244 95 84 73
331 28 279 139 17 51
370 530 335 144 10 47
387 43 260 87 66 41
241 495 250 101 25 36
425 630 294 91 69 45
403 619 236 132 28 48
243 505 230 85 31 36
295 381 242 95 84 72
306 235 280 111 87 59
360 120 260 122 93 63
242 500 236 46 34 34
247 537 332 32 30 31
350 370 253 87 77 66
242 500 240 43 34 36
263 144 262 109 90 70
256 525 205 137 9 38
391 460 200 57 35 33
376 838 237 60 53 52
419 590 285 168 17 51
350 399 245 91 78 65
345 412 200 92 74 62
242 505 236 63 35 37
243 493 279 139 0 37
378 22 276 102 18 43
253 590 250 162 6 46
280 795 316 183 142 109
385 51 236 126 109 92
270 315 295 133 100 75
395 436 370 55 34 27
470 790 255 80 62 52
316 676 323 140 10 43
336 493 353 37 27 22
391 688 337 127 7 40
388 125 247 137 99 66
267 437 386 55 42 30
327 403 238 73 59 46
340 35 259 129 53 50
380 475 405 137 12 45
334 400 240 76 62 49
242 505 240 55 33 34
300 910 315 149 122 100
370 425 205 68 43 38
236 506 420 107 86 65
327 314 290 78 63 49
244 510 230 67 32 36
241 510 240 61 32 37
230 505 405 112 89 71
340 798 237 82 64 56
242 510 235 89 28 36
244 645 315 145 106 71
396 230 260 130 100 64
356 380 313 136 99 70
349 225 280 112 90 66
242 511 232 59 28 31
267 100 258 107 32 44
375 120 279 114 93 69
365 225 300 119 97 72
377 494 379 132 20 48
261 34 274 120 83 70
345 396 230 91 78 65
390 235 254 129 99 62
418 851 244 56 51 54
255 500 400 158 3 52
303 524 348 141 5 42
242 500 245 76 26 34
391 407 226 93 80 67
282 115 234 128 94 63
367 220 247 130 101 67
266 52 222 113 81 59
373 17 276 98 53 51
294 587 332 154 14 49
372 254 302 125 96 61
248 470 285 127 7 38
245 735 285 158 107 79
485 851 335 79 68 58
420 490 290 127 8 35
385 185 285 119 96 70
253 455 296 114 14 38
247 450 270 37 30 33
385 340 265 116 95 70
477 730 275 107 83 61
385 655 234 79 29 30
382 34 270 87 24 30
246 665 315 191 133 108
405 775 326 76 62 56
420 520 320 172 15 54
241 500 250 118 18 37
256 220 255 130 101 66
241 500 255 41 32 33
270 235 244 138 102 63
347 881 251 51 46 47
290 270 251 121 91 61
258 444 302 108 21 39
449 790 249 75 58 52
314 355 255 84 74 65
244 500 345 53 29 33
315 360 314 130 90 70
240 505 250 72 31 33
286 599 206 61 31 36
424 859 219 82 70 64
390 125 255 121 96 67
414 600 236 79 38 44
287 138 252 106 85 62
295 730 330 69 25 36
290 465 160 73 33 32
274 550 176 170 1 36
375 245 249 134 103 66
340 666 323 153 11 47
351 226 257 123 96 64
348 447 409 102 18 39
241 510 245 50 32 34
254 465 310 88 27 37
274 578 363 145 68 65
251 416 260 112 24 40
330 690 224 53 33 38
262 162 268 115 95 73
312 363 253 87 76 65
290 10 290 120 42 51
310 461 367 62 19 30
426 460 285 63 26 33
315 555 179 96 29 37
261 795 261 177 119 86
249 480 305 119 17 39
251 535 371 67 41 37
404 470 350 150 7 48
410 856 303 37 34 33
416 575 230 157 18 41
246 491 405 98 4 27
415 835 296 35 30 29
254 413 260 101 40 43
257 80 244 91 57 49
259 465 215 82 26 33
420 585 354 171 116 87
410 501 345 166 15 53
441 771 244 76 56 50
356 195 289 108 89 67
340 432 355 54 40 30
416 906 294 67 57 56
360 660 226 93 28 33
280 105 220 99 59 43
368 695 224 93 31 33
281 645 246 137 21 46
248 484 325 82 29 36
388 949 281 79 70 70
290 815 311 183 138 109
256 412 265 92 59 48
379 428 328 54 36 32
258 180 260 117 95 70
399 889 262 56 48 52
415 800 319 60 51 47
254 415 275 104 37 40
355 525 335 59 22 29
256 415 285 93 54 45
247 617 317 132 101 64
330 350 262 65 57 52
262 390 275 129 101 71
365 410 214 92 80 68
435 685 260 64 48 41
243 500 310 98 27 39
250 485 420 123 9 40
263 112 228 142 100 76
291 505 357 141 0 45
250 420 260 115 17 36
410 425 215 92 28 35
409 508 404 193 128 108
345 385 255 92 77 61
365 50 245 109 27 27
296 822 307 72 57 54
332 440 171 126 12 31
261 440 330 74 25 34
280 455 147 77 35 37
250 425 265 116 17 36
262 96 253 100 81 61
290 80 259 107 19 41
375 815 315 176 132 109
252 420 270 105 19 35
240 505 265 144 1 38
417 575 315 123 28 45
428 524 237 30 32 38
399 105 236 110 89 77
424 440 280 81 24 33
354 190 280 104 83 60
261 170 241 125 98 66
297 13 278 138 80 88
345 785 235 80 61 53
249 480 315 61 26 32
288 622 223 37 31 35
252 417 269 118 20 38
411 425 290 51 27 30
244 520 420 74 17 31
402 732 337 49 33 35
380 340 255 103 89 74
350 939 267 84 77 79
253 418 272 118 12 35
455 885 330 68 54 47
281 626 311 69 43 41
242 480 260 135 1 36
463 705 266 72 57 43
284 70 220 83 48 34
250 430 260 60 29 34
290 565 185 159 0 34
337 286 294 73 59 44
406 496 360 170 18 51
296 250 248 137 105 69
391 150 270 114 92 66
300 520 175 129 11 32
251 430 270 103 21 36
254 420 280 104 21 38
387 369 249 97 85 73
493 858 332 91 77 65
296 245 297 110 88 63
252 425 275 109 20 37
272 569 190 127 25 42
330 360 260 66 58 52
315 751 332 74 58 55
254 425 280 106 20 36
398 452 349 129 8 40
308 408 203 98 85 71
245 495 395 114 14 38
262 435 212 61 34 36
248 483 360 44 29 30
303 248 252 129 100 65
275 405 235 100 87 73
420 415 280 100 22 37
273 730 263 90 49 42
393 215 257 122 96 65
253 430 281 91 20 32
361 845 246 54 47 47
269 465 390 163 3 51
253 430 285 93 24 36
259 29 249 99 85 71
274 114 215 146 31 47
359 850 250 56 47 47
375 265 252 139 106 67
274 740 259 52 37 35
257 190 260 119 96 71
426 560 275 113 22 40
262 135 258 111 92 72
393 260 285 129 94 65
385 430 210 51 36 35
350 530 331 50 25 30
405 670 250 98 35 30
248 440 260 54 32 32
387 242 253 133 102 63
226 511 441 67 30 25
311 890 301 159 118 92
274 565 375 74 35 41
358 266 253 133 103 69
250 435 270 98 23 35
275 140 229 139 104 66
445 730 324 173 118 86
247 491 395 116 12 38
273 245 297 116 94 70
245 490 305 136 7 41
259 135 250 117 96 72
400 786 219 82 61 52
318 513 343 134 14 52
363 450 392 56 32 24
296 13 275 139 85 90
246 526 356 66 12 28
331 860 290 176 122 92
347 65 260 130 27 43
249 440 270 71 29 34
263 463 355 57 22 27
256 595 326 108 84 55
402 585 332 151 98 89
325 499 348 92 15 33
389 390 300 123 97 65
428 480 230 58 31 36
365 404 220 93 81 69
361 120 274 106 85 63
271 380 255 107 89 68
302 314 263 98 80 61
354 75 254 141 31 47
450 886 359 43 38 36
248 444 260 71 29 30
430 824 204 100 83 72
357 427 173 132 6 34
246 490 315 107 17 37
248 480 290 140 0 41
416 410 286 92 22 35
248 445 265 64 29 32
251 435 275 86 25 33
390 820 311 154 116 97
385 545 325 150 7 47
237 502 401 82 35 32
423 476 212 124 21 38
355 12 294 92 38 42
238 503 417 75 34 24
251 435 280 82 25 33
478 715 272 93 66 46
322 478 178 127 2 27
339 370 307 129 90 73
252 436 285 92 23 33
382 854 317 150 119 93
254 425 290 90 24 34
400 450 340 79 23 32
347 64 257 134 14 44
285 35 245 78 39 30
249 445 275 81 27 36
332 453 378 97 2 31
300 495 175 47 36 38
286 165 240 125 99 69
300 510 175 80 29 33
291 175 270 105 84 59
270 45 230 120 101 80
366 431 315 60 45 35
305 832 263 95 73 65
250 445 285 56 28 32
255 420 290 112 17 38
290 611 214 198 11 46
488 765 286 79 59 44
441 695 327 174 115 86
385 625 226 86 34 41
245 510 335 166 5 50
353 185 270 108 87 64
297 42 259 128 28 47
256 420 295 100 22 35
347 240 257 119 93 62
254 430 290 97 22 35
283 67 216 118 49 40
301 696 329 51 24 29
272 437 169 128 0 35
393 155 265 115 93 66
317 337 317 122 82 68
378 325 298 135 103 72
255 430 295 74 26 32
258 200 270 116 93 69
405 570 330 114 66 59
253 435 290 103 18 35
284 710 315 115 16 38
295 554 354 175 14 56
334 425 165 66 43 38
267 490 166 78 31 36
384 330 290 135 102 72
398 386 265 109 89 67
230 505 445 74 28 24
286 150 240 117 94 68
396 80 260 108 35 45
270 750 260 97 71 46
293 39 273 117 63 59
266 205 241 134 102 62
425 495 280 109 19 38
321 575 189 72 35 37
389 645 314 134 10 42
252 440 289 112 18 37
291 345 319 132 97 72
265 460 200 131 2 35
280 275 305 119 94 68
385 215 249 129 101 65
355 305 255 95 82 70
271 775 252 131 94 59
254 440 295 127 9 39
254 675 285 133 95 64
438 638 333 183 125 99
363 12 280 96 63 57
355 265 304 117 92 64
420 615 346 191 135 109
340 434 405 90 32 34
252 445 289 83 24 32
294 23 298 185 128 137
272 427 187 100 34 37
254 470 320 41 30 32
435 884 296 64 54 53
261 525 190 123 19 37
368 73 278 117 24 45
259 150 250 116 95 71
385 835 234 60 50 49
398 691 187 82 61 44
385 105 271 120 95 68
482 862 320 96 73 61
253 445 292 91 17 31
336 412 194 88 68 56
466 720 295 120 86 57
272 265 298 121 94 67
390 65 224 100 39 21
390 510 175 133 8 31
253 465 301 63 32 38
377 290 258 131 102 71
261 590 225 152 12 41
259 150 255 113 92 70
424 695 327 165 117 95
254 445 295 122 10 38
241 510 280 50 30 31
300 15 295 116 37 46
246 460 265 117 17 39
404 75 226 119 37 41
385 140 248 131 100 62
249 680 290 150 106 73
253 797 273 180 119 89
314 925 285 62 59 61
295 255 249 137 104 68
470 840 309 74 62 52
246 460 270 93 19 34
276 350 265 107 89 69
418 758 227 58 47 44
413 740 211 55 45 40
245 465 270 121 14 37
414 873 316 32 30 30
257 804 308 181 131 103
463 750 313 157 108 72
380 75 274 108 53 51
248 448 271 37 30 31
285 450 373 38 26 25
367 468 393 154 10 46
475 789 275 65 51 46
265 165 271 111 92 73
241 495 265 143 0 37
247 451 274 31 29 35
377 369 307 126 99 66
281 325 266 115 91 64
382 35 276 98 31 35
416 460 310 112 24 43
358 913 252 82 73 70
357 245 252 132 102 67
331 567 337 194 5 62
271 460 155 143 6 40
244 494 405 100 4 32
401 439 315 58 29 29
292 75 239 119 91 70
247 455 275 41 29 32
248 709 283 148 103 73
275 835 290 207 137 111
