ply
format ascii 1.0
comment Created by Open3D
element vertex 2220
property double x
property double y
property double z
property uchar red
property uchar green
property uchar blue
end_header
305 47 209 51 35 18
281 109 223 110 41 48
281 384 313 141 105 81
451 812 268 78 60 52
436 872 288 69 59 58
339 904 251 57 53 54
450 693 316 130 97 61
376 594 198 167 7 40
358 69 277 112 36 48
308 49 211 72 34 27
421 796 240 64 49 49
287 407 316 111 79 64
247 724 266 145 100 70
310 48 215 85 35 31
245 571 313 137 103 70
311 41 223 82 37 30
284 222 228 145 107 70
311 44 222 70 40 28
400 95 253 115 23 44
289 94 235 99 54 45
357 739 205 69 52 41
270 244 247 136 104 69
278 109 211 116 45 47
358 398 321 65 45 35
312 49 221 92 30 33
348 388 241 85 72 59
306 50 207 64 39 22
389 699 187 78 54 39
309 268 297 109 87 63
470 786 285 79 61 51
338 11 266 128 51 38
411 795 328 38 35 38
268 779 242 159 110 74
384 754 215 53 46 44
305 52 204 65 40 20
350 434 149 144 4 32
271 209 251 114 92 67
281 250 239 142 101 68
363 224 301 118 96 72
307 65 191 121 109 98
304 924 345 186 142 123
282 89 222 118 16 42
245 528 311 173 4 49
307 509 161 60 27 35
310 59 205 75 45 28
301 23 259 133 95 75
507 812 299 87 75 68
397 189 276 118 95 68
311 60 207 78 36 33
420 410 314 75 16 35
303 224 230 142 106 68
348 691 201 94 50 45
310 62 204 85 32 29
315 90 180 130 13 39
311 55 212 78 44 37
326 21 288 143 101 82
282 584 200 42 30 36
312 54 221 89 71 57
342 293 307 104 81 57
345 900 237 77 70 71
301 252 238 117 89 58
262 599 325 168 114 90
312 64 216 89 34 36
271 229 266 115 93 68
332 521 164 150 2 32
313 64 221 96 53 45
246 530 312 165 8 52
390 885 254 58 54 59
341 523 168 164 1 33
408 884 331 35 32 33
293 39 246 129 31 52
293 33 250 124 59 58
308 489 151 72 33 37
344 54 275 119 28 46
383 244 252 131 101 63
286 417 206 67 25 27
307 169 246 104 85 66
293 44 245 129 17 49
406 441 222 41 38 37
388 454 201 98 24 30
411 923 314 62 55 53
294 48 244 118 64 57
304 35 247 115 79 67
367 119 255 128 95 62
429 469 286 114 15 37
305 934 345 183 137 117
386 806 216 47 40 42
397 786 189 72 58 47
334 315 272 65 53 41
348 859 346 136 108 77
383 413 230 94 81 69
303 39 246 116 56 59
275 245 284 115 93 69
293 369 320 144 104 82
436 538 269 139 39 56
298 37 249 126 48 59
298 44 246 127 25 51
369 439 356 123 9 39
413 764 334 132 98 71
348 699 332 49 31 34
293 54 243 124 96 73
358 444 311 73 17 32
393 65 223 101 36 22
295 52 244 128 99 76
293 59 242 117 91 71
283 244 236 142 102 66
398 589 307 40 30 32
388 54 231 106 84 67
339 569 180 67 34 37
378 24 276 93 29 37
328 784 226 80 63 54
293 64 241 112 35 45
363 653 318 156 14 49
298 54 244 112 67 55
276 308 303 129 98 70
387 883 236 63 54 56
282 253 293 113 93 70
303 54 242 111 35 48
362 179 259 117 91 60
398 194 271 121 97 68
289 69 181 116 100 84
298 379 319 150 108 84
385 184 288 120 97 72
298 59 243 116 38 49
246 719 271 146 101 70
403 604 308 135 17 47
300 58 244 123 25 49
368 414 230 95 81 66
279 89 206 108 42 44
308 34 226 84 28 32
368 559 179 69 34 39
435 536 239 35 32 35
378 719 196 70 53 44
245 529 307 170 4 49
373 504 171 77 30 35
391 129 256 123 98 68
418 529 191 38 34 36
288 244 292 112 92 70
311 40 226 94 27 33
358 409 335 88 19 32
303 469 131 102 24 37
309 39 231 103 80 63
387 359 300 130 102 69
307 34 236 101 75 58
311 49 230 100 29 40
293 416 166 100 67 57
379 299 303 130 98 65
308 39 236 102 51 44
416 483 368 136 98 82
458 824 281 87 67 54
345 697 203 72 43 33
307 39 241 113 56 56
280 203 228 132 102 66
310 42 228 93 46 26
282 659 251 49 32 33
310 44 231 102 37 40
311 45 229 99 26 31
353 289 310 122 96 69
343 904 361 159 116 93
373 44 247 108 93 75
282 79 226 113 53 56
310 49 232 102 36 46
273 329 286 130 100 69
352 843 243 75 58 53
315 443 162 141 0 32
376 250 304 126 99 64
287 99 231 101 68 54
307 44 241 108 15 42
256 437 366 67 18 27
252 549 310 105 10 35
358 744 201 70 53 42
255 562 279 177 0 52
303 99 173 151 15 48
327 877 353 90 45 46
244 534 327 127 93 70
378 909 351 42 37 35
313 189 236 113 92 67
272 384 261 119 96 70
307 49 240 109 60 55
308 214 271 109 88 63
395 209 259 120 96 68
290 107 183 148 9 51
321 334 315 123 86 63
363 42 284 140 112 88
373 690 340 131 5 41
278 94 206 114 31 42
309 44 236 112 20 41
413 578 334 104 79 53
403 539 352 104 69 48
283 419 197 113 14 36
272 234 241 133 101 66
309 49 236 107 62 56
292 412 215 103 86 71
306 38 244 122 18 48
385 54 273 112 46 52
445 524 317 171 13 54
280 99 220 102 82 63
368 84 245 111 44 37
368 859 326 141 112 84
459 718 303 76 49 37
305 44 243 113 14 42
339 39 261 138 17 44
303 669 226 137 7 34
319 11 291 135 55 58
423 670 343 177 121 93
334 528 313 65 22 28
408 629 241 94 31 42
311 54 230 98 39 41
418 402 251 71 43 37
394 849 216 54 47 48
427 584 241 147 20 44
270 507 183 127 18 44
348 654 215 123 8 30
311 59 230 111 17 42
308 59 236 111 24 43
349 440 149 135 10 31
282 69 190 91 48 40
358 379 315 135 98 73
287 279 307 111 90 67
286 68 184 114 98 81
359 114 271 120 96 70
286 78 179 104 34 36
286 529 166 58 31 34
261 438 234 37 34 38
288 79 176 97 38 30
440 500 333 171 15 56
283 74 186 106 37 34
378 179 251 131 101 64
399 839 201 120 93 70
387 89 235 142 6 37
357 917 243 89 79 78
424 579 302 96 28 41
273 294 291 122 96 68
275 174 241 114 93 70
308 799 233 86 67 59
281 74 190 115 29 38
285 68 234 119 95 71
382 389 314 128 99 65
323 848 326 98 78 55
349 469 160 154 0 35
340 494 159 89 23 34
280 74 192 116 31 40
456 735 265 43 34 34
316 433 159 141 0 34
372 25 262 109 95 80
407 924 321 64 56 53
283 79 186 115 45 43
282 79 191 112 76 61
313 254 246 127 97 66
255 774 294 167 123 93
313 540 174 156 0 36
355 48 248 144 22 42
407 400 281 79 56 46
415 574 358 160 112 82
283 464 146 45 29 31
288 239 290 112 92 71
368 14 286 90 58 52
284 84 181 131 32 44
396 248 263 134 100 63
443 739 337 166 115 80
399 52 237 80 52 40
431 484 223 80 33 32
368 724 342 191 17 61
284 89 181 141 15 44
357 69 249 126 67 57
334 23 295 133 94 73
308 840 276 53 43 48
285 81 178 118 35 47
410 497 332 75 25 36
275 175 232 118 95 70
298 108 177 150 5 41
433 699 341 174 114 86
283 89 186 129 28 45
343 931 254 89 80 80
313 114 201 92 60 39
344 264 286 102 80 56
434 464 315 62 27 28
282 89 191 122 58 58
256 448 306 130 16 43
268 254 261 126 99 68
366 571 184 112 33 40
285 94 182 146 7 46
291 510 345 107 5 32
352 425 148 97 34 46
288 94 176 152 5 45
308 234 235 140 106 69
286 95 180 148 3 47
392 49 231 101 84 83
284 99 186 135 13 44
387 659 228 101 21 30
283 99 191 133 34 48
274 283 262 142 99 72
257 544 251 123 21 45
286 101 184 144 1 46
287 104 186 144 18 48
306 127 230 112 88 63
363 45 283 133 107 84
301 474 329 141 3 44
413 589 329 105 77 50
329 494 158 102 18 35
322 539 329 170 13 54
358 689 191 83 50 40
288 109 186 141 16 42
375 417 191 101 28 30
287 109 191 134 19 42
293 74 175 91 53 29
358 369 315 134 100 74
305 65 238 122 87 71
283 189 222 136 104 67
372 441 359 111 5 33
353 559 311 74 13 28
292 78 174 89 40 22
333 19 297 142 99 79
295 75 173 93 35 19
434 798 233 74 57 51
420 478 209 49 34 37
392 364 251 102 88 73
383 164 250 132 101 63
300 66 173 136 21 14
380 123 278 113 90 65
388 144 251 130 100 62
298 74 172 105 32 23
426 444 296 68 29 33
293 99 176 157 2 46
383 794 211 51 45 45
303 724 327 174 17 55
242 644 301 160 115 84
303 79 169 119 21 21
242 564 321 146 108 77
358 429 150 61 37 42
358 424 316 57 25 30
395 269 276 131 94 61
420 788 233 64 48 48
291 68 179 119 102 85
437 439 241 80 28 35
361 879 345 148 114 89
435 658 327 137 98 62
289 65 182 115 99 81
323 416 171 104 76 62
379 143 283 114 92 66
286 146 214 127 101 71
378 655 319 141 6 43
295 66 177 118 100 82
398 804 225 53 50 52
371 420 345 110 16 33
289 84 173 122 34 33
280 136 223 114 94 71
289 529 156 61 35 36
359 403 229 96 81 66
289 499 337 67 15 27
261 606 276 85 60 42
290 92 173 150 11 45
338 729 327 65 45 42
298 124 240 109 85 60
251 626 318 182 129 105
285 563 188 47 33 32
399 453 360 95 71 58
297 83 169 122 33 39
298 84 168 125 30 37
388 478 384 172 125 103
308 402 224 105 90 74
298 88 168 132 28 40
383 119 248 129 93 59
358 754 330 74 61 54
283 539 181 157 2 38
298 90 169 138 12 38
284 139 240 107 90 72
338 400 313 115 7 36
361 75 249 130 97 71
243 644 296 140 101 65
345 689 192 85 53 45
345 407 219 80 66 52
356 705 200 73 55 45
271 373 269 125 99 70
372 632 218 63 35 39
323 408 201 102 87 71
303 81 168 118 25 23
399 379 286 130 102 70
387 139 276 116 92 65
272 429 225 71 24 30
271 239 271 116 94 69
350 912 358 144 111 87
303 84 168 124 28 32
311 113 220 125 81 69
233 524 371 206 146 128
352 84 266 121 87 70
288 159 252 106 87 67
424 599 331 135 103 70
293 256 239 122 90 57
303 88 168 130 25 36
380 447 331 136 3 40
338 559 322 165 16 53
284 464 151 39 29 31
303 90 169 130 26 34
391 359 294 134 103 71
306 217 228 139 103 69
397 649 309 33 25 24
343 24 257 116 23 29
249 575 308 117 92 62
353 449 155 163 2 35
316 429 319 111 11 35
405 573 303 69 26 33
383 519 307 161 14 50
284 230 284 109 90 71
303 94 170 138 26 45
401 108 246 126 26 46
352 89 266 116 93 70
387 59 270 112 20 40
307 69 172 118 29 26
378 54 236 102 84 67
382 785 195 76 58 45
308 79 171 111 26 27
341 898 256 50 46 47
286 464 156 35 29 34
345 385 309 119 83 68
257 559 236 41 30 34
372 687 338 129 6 40
349 39 253 130 17 29
310 78 174 89 26 33
418 419 321 64 18 25
381 947 273 72 64 64
314 270 255 110 86 59
306 135 213 117 91 59
353 824 316 156 125 100
312 79 176 93 37 33
379 469 380 144 104 87
317 84 191 108 28 38
338 899 266 60 52 50
327 854 296 181 131 104
428 694 342 179 120 91
402 549 369 170 118 88
347 484 161 149 0 35
379 479 314 58 28 34
398 418 317 62 52 41
313 74 186 84 39 29
275 165 237 114 93 70
343 324 266 74 64 54
385 39 271 94 24 38
345 736 219 79 26 29
311 80 173 100 33 34
406 431 228 41 36 35
400 230 276 122 95 62
363 509 171 80 26 33
308 69 181 115 93 79
391 486 349 114 59 59
305 484 141 105 25 38
311 113 187 124 7 38
428 774 230 66 51 45
305 67 184 141 124 113
351 69 255 129 96 77
306 66 187 138 123 110
385 844 308 151 115 90
294 115 239 106 86 63
308 69 186 123 110 99
291 120 189 140 11 38
328 539 170 56 28 31
258 519 291 105 11 36
314 79 181 89 38 31
415 482 204 65 35 33
315 78 191 95 29 39
278 384 251 110 91 70
378 84 276 97 44 46
316 80 186 102 29 31
337 20 298 144 104 83
316 80 191 100 25 45
431 741 238 57 48 42
393 524 183 115 17 34
307 84 235 112 19 40
305 84 169 124 26 33
406 61 241 89 32 35
279 154 226 119 96 69
305 448 150 98 4 25
398 433 225 45 35 33
308 89 170 131 21 36
313 84 176 120 25 39
351 386 254 85 73 60
264 440 227 63 35 34
311 89 173 129 17 34
306 511 329 111 0 35
404 659 331 160 113 96
313 89 176 130 18 39
308 94 171 134 20 39
348 414 166 81 51 42
430 485 348 56 29 29
382 876 314 61 47 41
437 424 246 76 33 37
390 559 352 144 91 79
316 14 286 156 100 86
315 84 179 119 30 41
257 819 271 219 150 121
417 479 207 52 36 36
313 109 206 105 76 55
379 108 243 137 28 41
297 510 335 125 0 38
498 804 307 93 84 77
273 469 172 148 0 36
256 438 244 80 31 32
316 88 182 125 24 40
432 424 271 143 5 43
293 413 191 94 49 41
317 84 186 109 22 39
413 849 305 37 34 32
284 164 217 130 102 69
285 99 229 96 58 46
378 64 232 130 16 29
393 569 346 145 93 81
397 199 262 122 97 67
317 89 191 117 26 40
403 434 226 54 37 33
473 709 291 87 75 64
314 94 186 127 11 41
282 739 307 153 13 48
285 444 149 143 0 43
455 811 274 83 66 55
316 92 191 118 16 36
415 474 369 95 66 52
368 424 156 67 37 45
258 704 300 175 122 99
298 99 173 153 6 41
288 259 240 136 96 65
298 104 175 155 6 44
303 101 174 157 8 49
246 769 281 168 117 87
260 534 206 156 6 41
305 134 210 119 91 60
378 609 311 86 17 32
417 708 233 52 43 38
289 98 177 155 4 44
398 815 317 58 48 45
292 105 180 149 1 45
379 464 181 56 30 33
298 94 238 109 21 42
437 459 270 132 13 43
325 432 148 102 19 28
294 113 183 148 5 45
379 83 237 131 17 36
299 385 238 97 86 75
292 114 185 143 6 40
369 74 242 128 39 46
341 617 203 159 29 59
319 504 318 65 17 26
331 922 254 71 62 63
358 11 271 101 86 74
379 514 366 163 111 95
288 114 191 132 32 50
303 405 330 130 15 43
333 449 311 69 20 30
288 299 262 120 87 60
343 34 282 123 21 46
408 844 301 39 34 32
312 79 205 95 30 37
286 125 209 134 100 70
293 119 186 142 5 42
276 382 254 109 90 68
352 884 355 162 124 100
313 69 211 80 48 39
289 119 191 135 15 40
388 139 250 130 99 62
458 779 326 171 114 84
281 149 220 124 100 72
286 247 293 112 92 70
355 734 207 61 45 39
373 415 201 83 43 36
283 374 251 105 88 71
431 424 339 70 28 34
290 118 188 141 1 42
373 494 310 84 30 40
416 402 261 71 51 41
272 619 310 165 118 102
293 125 191 148 25 48
401 390 290 115 92 67
288 464 125 108 29 41
362 214 255 120 93 60
338 809 237 75 58 51
299 118 183 144 27 41
360 146 279 110 88 64
316 206 259 99 82 64
279 639 256 131 6 36
303 74 237 116 71 62
298 124 186 143 33 44
293 589 191 45 33 36
318 620 204 182 9 43
272 234 271 117 94 71
378 89 242 93 52 38
333 564 320 184 15 58
279 94 216 108 25 39
298 127 188 162 56 72
276 800 244 176 121 86
282 699 251 48 34 36
298 127 191 147 65 64
445 474 325 127 8 36
320 234 250 118 92 60
368 624 212 85 32 40
304 120 184 115 95 83
347 509 167 156 5 36
258 569 251 56 28 35
308 104 176 147 8 43
248 714 266 141 100 68
333 420 147 141 19 19
264 530 347 105 18 36
259 514 206 84 31 38
312 99 181 129 9 38
311 102 178 135 1 41
384 795 201 76 63 53
310 105 180 133 12 42
380 51 238 122 104 87
361 84 249 126 29 38
387 154 280 116 93 66
312 104 186 126 12 40
285 524 161 82 28 38
390 558 364 180 123 102
309 109 181 137 18 42
288 394 316 139 101 81
333 804 312 185 136 114
445 514 321 154 16 49
311 107 183 130 8 30
323 404 316 122 9 38
348 474 161 144 4 36
274 827 262 226 154 126
311 109 186 124 12 36
362 79 249 120 77 60
279 179 255 111 94 76
387 829 216 57 51 48
312 109 191 113 15 35
278 464 169 147 0 32
313 99 186 127 10 37
275 646 298 174 120 104
283 414 181 84 32 35
350 44 253 105 79 63
279 219 232 137 106 69
338 904 363 163 124 103
366 427 153 148 36 50
384 284 298 126 96 64
314 99 191 125 13 37
377 324 304 136 101 71
304 112 178 99 100 88
429 489 291 162 17 47
422 584 337 139 107 72
287 611 293 136 40 59
409 649 256 50 31 35
309 114 185 135 11 43
439 479 236 50 34 35
311 118 192 122 20 41
302 572 173 125 18 35
265 399 281 126 99 69
258 529 211 146 4 36
304 126 192 151 73 67
448 876 344 66 56 53
278 69 196 106 33 37
248 539 296 60 30 34
403 421 319 54 43 32
419 535 313 33 27 30
297 253 238 117 88 55
255 729 294 170 117 91
260 416 289 41 25 32
287 648 281 37 24 25
277 69 201 119 47 50
358 304 312 134 93 65
279 74 196 128 22 42
419 819 161 116 92 82
278 79 206 118 66 60
312 292 258 85 69 51
280 66 193 109 53 33
281 80 195 113 87 71
311 252 243 127 97 65
363 874 336 135 101 76
437 504 231 44 33 35
275 67 214 117 66 53
363 54 245 93 42 35
276 66 217 127 69 63
392 284 286 135 95 65
323 402 231 101 87 72
266 474 179 99 25 38
277 74 211 132 13 45
337 26 292 129 56 58
418 889 352 51 46 42
334 776 224 78 59 53
354 199 281 103 83 62
299 208 273 109 89 66
278 74 216 124 21 44
280 74 221 117 21 43
388 875 196 106 83 67
270 593 281 80 23 41
281 568 319 121 21 45
352 401 228 91 77 61
262 794 250 171 115 82
328 409 315 112 2 34
412 459 366 117 80 70
355 190 262 119 95 68
281 76 223 112 46 45
406 73 249 128 30 50
312 74 201 84 44 40
404 891 349 34 32 32
281 79 222 112 88 71
328 579 182 169 12 42
378 779 195 77 61 51
279 89 201 102 32 41
375 37 254 115 100 86
368 144 285 113 91 68
393 264 266 136 99 66
363 415 211 89 71 57
392 843 300 123 88 67
286 80 233 113 24 44
326 351 309 132 88 68
280 84 198 123 19 42
318 579 314 176 11 55
284 194 222 139 105 65
323 634 212 163 0 37
368 189 252 124 97 63
472 784 296 65 51 41
351 713 333 74 21 33
432 464 312 55 32 32
281 89 195 107 57 54
323 13 301 157 30 63
358 414 186 93 41 37
303 429 327 32 27 28
313 353 254 88 78 67
280 89 198 95 51 47
393 624 225 110 25 39
388 439 336 68 34 29
281 94 195 124 33 42
306 407 329 104 16 33
347 735 328 70 57 51
266 443 224 38 35 35
340 37 279 126 8 46
283 174 221 129 102 69
301 601 194 202 13 47
405 919 290 73 62 61
279 84 211 107 87 67
441 456 323 49 31 29
282 109 201 122 74 61
418 817 319 55 38 37
327 854 306 99 72 52
299 265 244 110 83 54
343 10 271 118 71 55
328 572 178 101 24 40
396 189 262 125 98 65
270 366 294 128 100 69
284 649 286 92 58 53
280 84 219 115 31 43
310 866 308 136 107 78
293 104 237 104 81 61
352 957 360 80 74 73
378 444 336 130 5 39
393 774 218 53 47 48
258 754 295 173 127 99
277 164 231 119 95 69
278 94 211 105 37 42
311 99 226 87 64 47
276 443 206 91 13 33
456 803 325 187 124 98
398 359 276 122 96 67
373 940 363 57 51 50
315 198 240 110 89 67
279 544 192 69 32 38
281 584 315 90 14 34
282 84 222 107 68 58
438 499 246 156 16 45
338 599 192 100 24 39
373 249 304 127 99 65
280 94 220 109 22 41
315 79 196 77 44 37
291 546 164 185 14 46
263 589 292 64 42 30
357 719 210 61 45 39
282 94 222 106 16 37
281 230 234 140 102 64
343 464 155 154 0 35
364 417 170 95 37 37
381 31 267 94 73 49
413 459 216 44 39 38
323 684 216 53 35 38
274 219 237 129 100 67
280 68 225 105 32 39
280 67 229 109 92 75
281 564 195 42 33 37
275 194 256 115 94 72
383 114 246 129 88 60
287 69 237 112 85 66
281 333 269 99 82 63
301 146 244 106 84 60
348 464 308 68 23 32
279 449 347 146 13 47
318 411 192 102 86 71
280 73 224 123 16 41
271 470 174 145 0 33
276 374 308 136 103 76
284 79 231 111 28 43
401 928 287 73 62 60
247 789 281 180 125 95
308 594 186 165 13 41
285 74 234 116 93 71
253 619 321 182 130 107
283 599 206 127 16 40
288 79 235 105 36 44
414 401 276 97 49 44
283 84 226 112 47 52
308 899 352 193 143 126
400 615 322 131 83 72
343 484 157 150 8 35
284 84 230 117 15 42
366 489 169 50 37 35
352 79 272 108 61 55
284 89 226 108 31 43
331 26 283 138 37 50
286 84 233 114 18 42
399 74 257 111 77 68
265 558 208 128 16 45
388 804 322 50 44 43
385 122 273 113 91 66
286 90 228 103 80 60
279 99 201 94 51 44
353 254 301 112 90 65
402 786 328 71 58 55
338 424 146 83 30 42
428 826 308 40 30 27
404 384 266 113 93 70
278 99 206 116 29 41
328 404 216 100 86 72
278 104 206 122 55 55
253 554 276 139 4 39
323 966 333 59 55 54
298 139 206 152 107 75
326 469 314 101 6 32
387 829 206 59 49 43
279 109 206 122 92 69
318 816 239 86 67 59
282 99 196 117 58 57
281 100 199 87 49 44
285 498 143 44 26 36
417 821 175 105 88 75
282 104 196 120 38 46
328 10 286 134 54 61
274 544 332 81 24 36
288 119 236 110 91 72
269 429 172 63 37 37
281 105 200 139 21 45
371 16 273 97 67 59
308 344 324 149 99 76
384 945 346 61 55 55
284 109 196 141 41 52
284 384 315 143 107 83
447 758 252 65 51 43
279 99 216 100 70 54
388 119 247 138 96 66
430 642 331 135 95 62
389 468 194 40 38 38
383 779 191 84 65 48
277 104 211 112 33 43
278 104 216 106 65 55
401 224 273 120 94 63
279 109 221 111 29 43
294 345 258 95 82 68
322 274 276 99 81 62
268 824 291 212 150 123
430 565 245 152 10 44
297 155 250 106 85 61
368 400 233 91 79 67
305 135 216 114 89 59
282 99 222 95 56 49
286 114 195 101 65 46
275 171 233 117 94 69
384 209 249 130 102 67
455 734 270 54 44 40
276 169 231 120 96 70
430 484 305 104 11 33
407 459 361 104 68 63
285 114 198 101 59 42
285 658 288 52 38 36
401 99 250 122 13 44
348 799 315 192 141 122
283 414 186 78 26 32
283 114 201 115 38 44
389 119 266 113 90 65
419 630 353 182 123 96
306 230 279 110 88 64
279 624 231 48 36 38
413 559 343 112 87 60
395 52 241 98 84 74
288 563 320 108 26 41
394 408 235 92 80 68
287 119 196 140 24 46
328 564 175 125 25 38
453 774 335 177 120 91
313 179 241 99 81 61
408 415 311 54 33 29
281 115 205 134 23 44
405 68 229 87 42 25
394 740 215 59 45 43
272 423 230 77 30 28
426 414 313 65 25 30
411 634 294 87 17 36
395 52 256 87 31 34
403 904 361 54 48 44
283 118 206 129 67 60
383 39 256 115 100 84
422 483 354 43 29 29
371 845 231 57 51 51
318 209 256 100 82 63
357 904 354 137 100 78
317 454 161 140 0 34
295 382 319 147 106 84
257 514 211 85 25 37
287 120 201 132 78 63
290 452 118 80 30 40
373 184 251 128 99 65
345 53 258 140 7 43
428 464 291 75 23 33
319 842 280 181 128 98
287 120 205 133 90 69
404 74 251 125 22 49
389 204 254 124 99 70
339 549 322 42 27 30
284 434 156 75 24 36
279 114 216 123 72 61
282 120 211 133 99 75
380 460 375 133 90 75
308 724 328 180 16 59
298 125 196 147 99 77
377 864 320 147 114 93
273 831 281 216 148 123
273 554 198 117 23 38
363 970 331 77 73 73
280 117 216 129 103 75
418 629 354 185 126 98
338 379 246 76 60 45
338 364 306 130 86 72
254 609 266 91 78 69
281 119 216 128 103 76
378 459 371 117 37 46
401 56 245 66 38 33
323 410 196 102 86 71
407 64 241 101 41 41
288 414 191 90 33 31
387 45 251 111 95 79
281 114 222 118 95 71
281 119 221 119 97 73
397 174 266 121 97 69
368 254 305 128 100 67
281 124 216 127 102 75
297 439 330 45 23 28
338 744 324 63 54 49
407 557 193 113 33 39
358 413 201 91 61 50
338 709 215 87 28 34
293 569 176 55 34 37
388 795 196 79 69 60
284 128 212 130 102 69
393 924 364 58 53 52
443 479 336 174 6 56
357 709 338 108 23 40
363 374 245 95 83 72
287 129 210 131 101 67
321 966 324 64 58 56
284 99 226 97 30 37
298 260 300 115 93 70
368 104 247 138 34 41
305 136 221 108 86 60
388 219 291 115 91 64
283 104 226 107 19 40
350 219 272 104 84 61
459 730 274 66 52 43
307 459 146 80 26 35
286 104 232 103 38 45
358 19 300 102 49 48
312 179 236 106 85 62
398 834 201 92 77 62
321 358 253 84 73 62
371 161 254 123 94 56
256 479 364 71 19 30
468 892 352 95 87 81
348 945 265 91 84 86
401 100 238 116 60 49
289 104 235 103 55 51
412 499 326 72 23 32
305 509 151 144 3 35
426 408 279 110 23 41
282 109 226 105 62 54
259 504 372 63 24 31
423 744 337 183 134 106
283 114 226 114 95 74
308 299 261 80 65 49
264 599 241 168 8 43
283 124 231 109 91 72
388 349 256 103 89 76
248 794 271 177 121 91
327 519 314 47 24 27
314 69 221 98 50 47
284 129 236 107 89 69
290 554 172 179 8 46
358 109 266 128 97 71
434 463 343 116 3 35
386 145 279 117 94 68
322 254 271 109 88 64
313 114 206 97 46 39
278 234 236 139 102 67
421 529 197 39 33 37
273 204 236 125 99 69
285 120 234 110 92 73
300 434 149 47 37 34
276 590 209 173 10 42
388 879 241 63 56 59
311 296 319 110 86 59
293 109 237 108 88 68
357 11 281 94 67 61
368 224 250 127 99 64
393 219 256 126 99 66
351 745 328 73 60 54
373 99 278 116 93 67
285 124 235 108 90 71
306 169 222 125 97 65
341 443 148 60 40 47
399 609 351 181 129 106
436 414 265 131 6 39
312 104 221 98 43 39
283 604 210 107 27 41
311 69 201 76 32 31
415 821 239 53 45 49
310 80 208 100 15 36
420 419 291 74 24 32
378 79 276 112 15 41
256 501 281 168 0 45
343 884 271 55 50 49
314 79 201 76 55 40
473 724 296 79 68 58
423 429 286 132 2 40
310 80 210 98 36 38
314 74 216 94 38 42
429 490 347 46 29 29
313 79 216 101 83 66
308 559 322 184 15 57
368 614 207 180 16 46
396 179 262 125 98 65
278 714 303 116 43 43
314 74 221 91 24 32
304 401 320 85 50 42
339 540 169 111 18 33
446 488 327 173 13 54
313 79 221 96 41 45
311 924 285 60 57 59
391 870 214 79 67 60
355 386 242 89 77 66
385 532 374 178 126 105
386 380 309 121 95 64
310 82 208 100 11 38
265 455 217 81 24 30
248 684 286 162 111 84
282 434 161 120 12 36
312 84 206 97 34 43
310 121 201 125 69 58
363 913 361 35 33 34
338 11 296 135 34 61
248 549 350 189 131 111
316 81 196 87 40 35
387 234 252 131 101 65
396 869 186 111 87 68
316 89 196 104 37 41
275 313 278 118 92 64
482 754 278 74 53 37
316 88 200 101 54 55
263 804 256 174 117 84
314 89 206 93 52 41
273 349 296 129 100 68
390 674 224 61 43 40
328 24 286 132 69 64
311 101 229 87 48 37
312 94 221 100 31 39
266 473 193 39 25 28
313 832 289 54 36 34
313 84 216 110 88 69
398 439 338 71 30 29
392 953 296 69 63 65
402 664 326 138 91 79
293 69 240 120 16 42
294 588 187 113 24 38
290 72 239 116 33 48
345 580 189 177 7 36
276 222 273 112 92 71
292 75 238 103 38 45
327 859 296 160 116 89
293 79 237 109 82 63
249 605 292 119 91 59
428 564 236 160 16 43
355 92 274 108 3 37
323 679 216 57 35 38
312 220 270 111 89 65
321 894 290 122 97 72
366 304 309 133 94 62
404 89 236 137 22 47
293 409 331 100 41 40
314 99 201 90 57 47
350 692 204 101 42 40
298 74 240 119 24 46
290 377 319 142 102 81
403 389 281 115 92 66
333 939 365 43 40 41
274 434 168 55 37 38
277 269 250 151 103 72
358 254 257 113 89 60
392 879 191 103 85 74
384 51 238 125 107 90
262 458 371 94 21 38
298 78 239 109 49 51
333 416 166 94 77 64
279 239 237 141 103 66
391 364 295 131 101 69
377 810 318 191 141 116
273 264 251 150 104 74
301 74 239 116 58 54
430 444 314 46 31 34
393 839 301 133 96 74
379 254 303 126 98 62
383 864 210 125 98 75
303 79 237 115 23 44
448 844 285 99 78 65
299 225 229 143 105 70
331 350 282 98 81 78
381 451 339 38 24 27
289 89 234 104 18 39
356 861 335 129 101 71
325 458 153 141 0 30
429 673 295 77 61 49
345 12 298 120 45 59
293 94 237 109 20 40
319 675 314 114 19 41
298 84 238 108 83 61
303 84 238 109 24 39
426 553 222 164 18 46
386 445 203 51 36 36
368 49 282 124 23 48
303 89 237 110 37 49
363 33 254 63 35 26
435 494 224 43 33 34
423 401 252 72 36 33
306 159 222 119 94 65
312 69 231 101 22 34
330 353 265 77 74 73
275 165 240 112 92 70
309 474 161 44 35 33
312 74 230 108 32 43
377 854 215 61 53 52
420 493 204 111 14 29
393 844 221 47 42 46
311 77 229 108 85 66
436 420 334 86 27 36
388 164 252 132 101 63
416 917 342 71 62 60
358 678 327 36 29 30
308 449 156 111 9 28
318 570 318 200 4 63
310 75 233 110 16 39
422 724 232 61 48 43
334 548 168 159 16 44
308 74 235 108 43 45
352 11 290 97 47 49
406 480 197 48 33 35
284 359 257 102 88 73
368 314 308 133 98 65
338 739 325 62 53 49
386 351 253 105 91 77
418 474 357 64 29 34
314 69 226 98 51 48
441 867 338 39 35 33
310 84 228 104 55 50
264 635 273 108 79 47
398 209 281 120 95 66
373 674 330 69 26 33
288 413 342 140 24 47
462 872 317 89 71 58
452 855 291 92 72 61
338 719 326 143 20 49
312 89 226 109 18 36
358 416 167 80 45 41
344 520 170 159 2 34
309 89 231 104 46 46
339 294 276 77 66 55
361 520 174 63 33 34
412 694 338 158 113 92
288 209 225 144 106 66
284 289 310 110 87 61
310 89 228 108 18 40
242 514 380 164 116 102
252 601 267 94 82 72
309 94 231 94 48 42
385 462 332 43 21 30
389 72 223 142 10 35
282 168 252 106 89 72
306 94 234 110 86 63
374 919 250 82 72 70
289 123 201 140 96 73
306 483 143 86 26 38
422 600 327 124 96 65
331 334 308 106 77 66
379 448 325 101 15 37
293 125 201 150 102 77
430 464 229 112 23 29
291 126 204 136 97 69
290 578 188 87 31 40
245 575 312 139 105 71
499 798 278 105 89 74
434 889 331 81 65 58
315 224 239 129 100 67
328 899 362 188 135 121
400 644 321 135 91 80
314 365 248 92 80 69
245 735 270 157 107 78
410 709 224 66 49 41
292 129 205 136 102 67
388 779 217 47 44 46
298 126 193 134 88 74
355 265 258 103 82 57
370 437 320 88 17 33
349 12 264 113 79 59
298 129 201 160 113 81
392 334 286 128 100 68
244 619 316 177 126 100
331 324 308 89 65 52
247 679 286 166 113 85
304 126 200 137 93 71
302 128 202 148 106 77
383 559 190 155 10 36
306 444 157 115 8 28
314 99 196 109 29 46
397 229 261 128 99 64
368 429 331 91 18 35
319 559 178 153 6 38
313 104 196 93 48 39
284 298 263 125 89 64
340 27 294 153 39 63
333 499 313 35 24 25
314 104 201 93 35 37
313 109 201 102 54 45
262 547 349 177 57 73
312 99 221 92 56 42
312 109 211 100 70 51
248 532 364 210 151 135
288 205 224 143 106 67
283 214 276 108 90 72
418 508 320 71 19 30
280 438 163 132 1 34
400 681 218 71 53 43
280 175 254 110 92 75
383 474 351 111 65 58
279 564 197 43 32 37
314 393 313 117 80 65
275 588 208 169 10 43
356 387 239 95 81 67
307 123 206 113 83 55
256 454 286 63 31 35
350 229 271 107 85 61
304 129 206 124 92 61
387 709 344 36 30 30
382 159 285 117 93 67
306 127 208 115 88 56
309 120 206 112 79 55
266 610 274 80 42 35
343 355 251 78 69 60
311 113 216 119 57 55
380 488 379 165 123 101
310 116 213 126 86 66
377 494 176 45 37 36
313 319 262 84 72 61
252 571 263 45 26 36
320 229 250 115 91 61
272 590 215 39 32 36
308 124 216 113 86 57
306 129 216 110 86 59
438 469 261 115 18 38
289 109 235 111 92 71
258 602 289 105 81 52
274 369 306 133 102 73
286 457 153 150 7 42
376 75 235 143 25 43
371 24 289 96 40 39
393 553 369 185 127 105
298 104 238 109 79 61
271 453 209 64 28 26
359 89 252 122 74 57
424 509 320 59 24 28
413 594 301 152 12 47
303 99 237 108 48 49
358 394 232 95 81 67
348 960 280 92 88 91
429 654 342 172 117 89
430 449 314 34 31 32
303 109 236 110 82 61
337 928 363 92 68 59
400 219 271 122 97 67
292 114 238 106 87 66
265 582 223 172 11 47
318 254 281 113 90 63
348 764 324 72 60 53
298 384 240 97 86 75
346 288 308 105 84 61
376 416 206 78 41 32
378 84 241 133 33 41
280 416 194 73 22 34
262 499 196 79 26 35
283 484 341 67 23 29
293 119 239 106 86 64
289 125 239 107 88 68
285 313 268 123 94 67
346 35 283 126 11 43
388 879 236 61 53 56
398 674 231 58 38 38
283 559 191 87 30 38
298 379 241 98 86 74
421 504 202 115 6 28
298 114 238 109 85 61
398 239 286 127 99 65
470 867 339 108 87 70
306 99 234 98 61 47
273 279 291 122 95 66
273 408 240 95 61 47
333 579 181 164 11 40
348 865 350 145 115 83
374 139 252 128 99 64
388 489 352 127 79 73
303 114 236 107 82 60
334 304 286 71 59 46
430 639 331 142 97 65
418 410 237 81 35 35
300 119 238 107 82 58
415 836 249 52 45 48
293 454 119 69 37 38
307 260 294 110 88 63
411 426 233 85 39 39
383 409 231 97 83 69
396 804 223 51 48 51
284 474 161 133 3 39
300 122 238 109 82 59
296 226 284 110 90 68
298 129 241 107 84 59
307 348 324 151 101 78
461 694 278 70 55 44
253 605 271 90 77 66
339 407 206 96 82 67
363 70 278 120 14 44
395 230 259 127 99 64
394 154 261 120 96 68
256 434 268 38 29 33
363 514 172 65 30 34
328 779 317 66 57 52
301 129 239 105 82 57
325 16 268 125 64 53
340 26 258 122 53 38
288 379 247 101 86 71
248 749 256 155 107 77
452 814 271 87 66 55
304 129 236 108 85 60
348 789 320 194 143 122
348 923 247 87 78 78
310 98 228 89 35 34
434 855 325 34 31 29
289 472 128 133 30 44
368 704 344 130 20 46
398 49 231 90 29 33
317 12 291 136 69 63
314 914 355 93 79 71
373 89 278 105 23 39
389 468 383 133 104 76
293 404 231 100 86 73
306 104 234 106 20 42
410 503 185 119 11 27
321 939 358 132 95 86
308 109 231 110 68 58
400 488 321 54 21 29
308 179 226 126 98 65
256 414 254 78 33 36
302 444 136 106 8 33
307 124 226 111 86 60
293 144 208 139 103 64
402 94 246 129 21 49
391 144 253 125 98 66
305 129 231 112 87 61
405 628 350 185 132 107
419 544 195 86 31 39
310 230 234 137 104 69
242 564 336 174 122 100
305 126 233 111 88 63
249 679 296 184 127 101
454 714 321 153 105 71
356 100 266 127 95 73
362 942 263 93 86 85
378 389 237 96 83 69
402 69 255 110 27 41
339 290 300 87 69 47
435 429 268 139 6 41
397 703 196 63 51 42
284 444 141 132 0 38
343 34 257 127 49 44
348 34 255 111 35 32
308 789 230 83 65 56
353 34 255 91 50 37
283 439 136 131 0 38
382 468 383 143 104 86
271 255 250 146 105 72
353 36 253 114 26 29
378 653 318 125 8 40
388 504 185 104 13 24
347 49 255 138 15 39
353 49 250 131 26 37
387 369 305 125 98 66
432 429 237 43 38 40
354 875 236 53 50 51
397 704 206 61 49 41
350 53 253 133 40 43
363 933 370 58 53 52
353 54 251 132 47 49
308 494 325 142 4 43
423 589 336 141 107 72
318 414 181 103 82 66
418 714 236 61 37 37
384 47 244 127 108 90
465 748 274 69 55 41
348 59 256 120 31 43
348 364 311 136 96 76
327 919 260 66 61 62
336 294 296 75 60 44
377 119 279 114 92 68
373 244 251 129 101 66
356 59 249 140 13 36
289 514 147 175 10 44
353 644 215 113 19 34
353 59 252 123 53 48
348 64 256 129 19 43
351 229 286 108 87 63
353 29 256 68 45 36
394 859 207 98 74 69
433 574 271 133 10 37
306 435 158 94 23 33
367 33 289 134 21 53
357 33 254 76 37 25
315 229 240 130 99 67
343 960 357 71 65 63
430 512 291 59 29 36
358 49 247 131 20 31
333 738 218 87 33 38
356 184 281 103 83 61
291 140 209 134 104 68
388 817 314 138 109 89
460 728 313 149 104 71
264 504 186 88 26 38
358 45 248 96 32 27
376 528 178 115 6 26
273 774 240 132 96 59
413 619 241 120 29 45
322 259 261 99 79 56
358 43 249 86 32 28
368 44 247 78 39 25
395 94 258 125 89 76
363 43 249 59 35 28
285 306 319 117 92 63
277 159 236 113 93 70
373 879 211 87 69 62
424 503 336 117 20 41
403 838 299 62 48 41
398 564 196 155 17 42
358 54 247 109 38 36
383 383 239 100 86 71
244 519 321 127 23 47
275 636 268 92 30 32
358 59 247 127 24 35
386 962 301 72 68 70
359 64 247 130 44 45
355 98 266 126 84 68
396 831 199 97 83 71
283 415 171 104 49 42
395 52 246 94 81 69
314 209 262 105 85 64
356 64 249 126 19 29
428 484 296 112 19 39
387 544 361 152 98 83
403 459 376 123 93 72
300 934 326 181 139 118
369 55 242 92 35 27
352 40 283 102 49 44
293 559 323 38 28 31
373 416 227 89 77 64
364 229 252 125 97 63
338 39 276 117 14 41
282 629 285 56 36 35
323 375 247 91 79 66
367 53 244 105 31 26
382 59 274 118 11 41
280 623 228 49 35 43
381 74 274 101 77 58
261 494 209 78 27 37
290 502 338 126 7 38
440 444 251 66 30 34
382 34 266 90 54 37
363 589 315 90 15 32
362 59 245 119 40 37
373 79 241 126 43 46
343 269 286 96 76 53
295 485 333 144 7 46
252 582 334 182 127 104
362 64 245 130 44 48
396 585 358 178 125 103
368 59 241 124 23 30
323 639 213 154 2 35
307 702 323 143 4 44
343 479 308 33 26 27
426 449 301 43 28 32
393 859 211 99 74 65
351 694 333 40 29 32
365 64 243 138 14 34
353 11 281 96 66 61
246 719 276 154 103 75
368 64 240 126 35 40
398 459 206 66 32 29
265 404 291 133 103 73
303 369 247 100 88 75
372 35 253 114 98 81
293 225 284 110 91 70
283 324 316 130 98 70
373 39 251 116 99 82
276 379 308 137 104 78
418 564 307 71 23 32
422 554 310 94 29 41
374 42 249 116 99 83
284 434 126 123 12 39
383 339 256 105 90 74
402 469 201 54 33 33
378 34 257 116 101 85
378 40 252 120 103 87
382 41 252 121 103 86
318 534 332 76 21 35
413 404 246 78 46 46
372 419 341 102 12 32
245 750 275 168 114 86
388 465 317 70 21 33
412 469 366 82 50 46
449 713 265 77 52 39
378 49 241 119 102 84
398 895 351 37 34 34
378 45 246 119 102 85
353 214 286 106 86 64
383 45 246 126 108 90
378 42 249 120 103 86
272 349 286 131 101 70
383 43 250 123 105 87
382 75 229 145 6 39
348 10 281 104 66 62
373 54 240 68 39 28
349 555 179 70 32 36
371 69 239 118 44 43
338 10 291 129 37 60
377 505 308 60 21 32
288 279 250 126 91 61
358 79 276 104 62 54
450 692 302 80 42 36
424 424 310 75 22 30
300 892 349 177 130 111
338 654 313 127 15 43
375 55 238 75 35 32
305 449 141 89 19 30
370 61 238 128 19 34
293 245 294 112 91 68
370 63 238 133 36 38
373 64 236 130 43 41
438 469 256 155 15 42
423 408 240 62 41 38
440 738 244 71 55 44
332 389 242 87 74 60
401 104 241 123 33 44
377 52 239 111 96 79
408 430 335 45 27 25
383 54 235 122 104 87
253 608 324 181 130 106
383 64 230 116 24 26
348 44 280 127 99 76
256 489 219 117 17 33
378 559 187 102 22 38
380 61 233 105 28 24
372 445 346 109 12 37
282 188 262 107 90 73
413 774 234 61 50 46
370 51 243 86 39 31
353 11 271 104 86 72
357 845 324 154 121 93
409 421 320 51 30 26
351 65 254 127 42 39
332 30 276 141 63 70
393 872 313 37 34 33
349 69 257 129 90 72
337 13 304 153 36 67
288 394 241 98 85 71
354 69 252 130 33 43
292 434 335 61 22 30
375 833 212 60 50 48
402 624 304 142 16 49
343 539 310 42 24 26
315 272 293 111 88 61
357 104 266 125 95 71
378 444 191 111 9 33
352 74 256 124 69 61
356 770 215 60 48 43
312 294 316 109 85 58
279 583 202 115 19 38
264 464 181 42 31 35
399 224 266 126 99 65
373 64 277 107 70 61
393 479 336 78 21 36
281 494 166 134 4 37
349 889 236 67 61 61
423 609 351 161 112 80
323 754 322 73 61 56
439 439 251 64 31 35
315 876 349 160 103 105
353 79 256 135 18 45
419 450 340 91 7 29
333 966 337 71 67 66
370 971 317 66 63 64
298 349 255 94 82 70
476 727 292 86 69 54
471 727 302 61 50 38
418 624 286 165 21 55
437 469 232 111 15 28
481 705 287 98 75 52
355 79 253 146 15 46
358 714 201 65 49 40
320 474 163 103 25 35
277 433 215 45 33 30
338 734 325 61 50 46
387 618 218 62 35 40
363 69 246 131 69 64
410 483 199 46 37 35
361 213 298 114 93 71
328 581 313 178 16 55
365 68 243 143 19 42
349 509 169 133 5 30
308 159 231 101 82 61
392 144 256 122 98 68
330 367 259 87 82 78
368 69 241 135 26 40
366 70 244 143 11 46
375 442 328 140 3 44
373 494 171 53 37 38
281 162 248 108 91 73
274 599 217 117 24 41
306 896 353 200 147 130
344 626 209 46 37 42
366 74 244 138 16 40
382 54 275 115 11 39
281 534 185 155 2 36
418 829 251 56 48 50
363 524 306 36 27 27
338 324 311 127 86 69
457 719 276 75 60 47
420 590 230 52 28 33
399 457 210 48 33 36
333 334 309 112 74 59
364 79 247 131 23 33
392 701 182 91 63 41
329 323 269 68 60 52
393 94 231 140 11 35
478 759 290 74 58 43
368 79 244 139 15 38
273 619 275 47 34 31
346 254 281 103 82 58
412 805 232 72 58 57
376 416 201 79 39 32
424 609 256 107 36 46
368 24 260 110 95 80
417 824 175 123 97 79
355 84 253 138 12 46
260 563 227 167 6 41
354 84 256 128 18 42
379 610 209 50 38 40
354 89 257 123 29 45
285 729 310 168 14 52
333 413 181 90 73 59
382 450 197 110 3 28
390 187 283 116 93 66
356 86 254 121 33 43
425 429 310 116 10 32
273 399 305 138 103 80
276 578 324 166 18 53
386 248 253 133 101 64
323 384 242 98 85 71
356 89 254 107 73 52
357 94 254 119 89 68
390 529 358 121 70 61
293 494 137 114 27 40
346 338 269 80 70 61
403 826 308 46 38 37
363 329 255 95 81 68
363 84 247 135 18 36
260 553 222 168 8 44
383 234 251 131 101 65
390 168 278 116 92 65
253 709 261 129 97 63
368 89 245 132 21 34
378 418 211 71 38 34
406 471 203 39 34 34
364 94 248 120 49 43
348 274 301 107 85 61
428 454 281 116 16 39
355 412 206 87 71 56
368 94 246 125 71 56
358 24 257 99 47 26
287 153 248 104 87 69
345 387 259 79 67 54
463 819 286 92 73 57
389 129 271 118 94 66
363 349 313 128 98 63
421 618 257 66 35 41
362 94 250 131 24 34
373 634 315 74 28 35
348 754 220 74 40 40
269 229 251 118 95 69
256 444 311 135 7 39
293 824 295 48 39 40
427 689 244 69 50 38
371 66 239 108 89 70
313 954 351 51 48 49
373 69 236 118 47 44
302 939 336 191 139 118
332 309 291 71 57 42
372 75 240 138 75 72
436 504 274 68 29 34
443 854 332 39 34 31
378 69 231 141 15 36
378 24 271 85 44 37
405 734 221 70 54 48
383 69 227 137 15 30
381 470 369 74 22 32
381 67 229 135 19 32
384 65 228 117 27 24
293 133 243 105 85 63
468 885 344 88 76 66
353 794 318 195 142 120
378 74 231 144 12 39
255 529 222 133 13 39
303 384 318 147 104 81
428 429 339 119 17 42
398 904 361 53 47 43
313 684 220 45 34 38
383 74 227 144 7 39
301 924 310 158 125 100
393 479 189 89 23 26
399 778 178 90 78 67
383 79 230 146 5 40
297 240 290 108 88 66
329 27 276 148 68 72
289 644 232 166 9 46
372 578 187 173 7 40
439 708 259 73 51 40
425 575 302 56 28 34
378 79 236 131 38 48
377 79 240 115 61 50
282 744 240 95 73 54
370 78 243 125 25 35
357 104 261 132 96 74
312 799 308 67 57 52
439 439 246 56 31 34
383 84 236 140 8 36
433 403 251 85 32 33
382 89 240 117 42 39
262 499 191 51 31 34
384 89 237 140 11 38
381 93 239 113 21 27
277 299 302 124 94 67
378 419 321 97 70 51
378 94 241 135 25 34
256 578 334 180 124 102
370 82 243 143 19 41
276 352 269 111 90 66
322 259 271 107 86 63
354 369 252 83 73 62
372 85 244 94 65 45
250 704 267 142 101 69
369 829 221 70 60 55
372 88 244 105 44 35
294 508 337 123 2 35
358 930 255 92 83 82
373 89 243 117 37 37
301 160 249 104 84 61
333 407 207 100 85 70
374 92 243 143 21 32
402 89 246 129 17 48
398 544 307 69 24 35
281 646 260 97 26 36
383 385 238 99 84 70
248 789 266 178 120 90
376 95 245 118 67 49
250 541 288 30 33 35
425 826 308 36 32 30
317 939 271 79 71 70
364 234 252 126 98 64
357 99 256 133 23 42
261 418 292 30 27 33
415 663 265 46 35 32
302 287 253 94 74 51
363 774 201 72 54 41
378 218 248 131 101 65
359 99 252 132 24 40
303 394 316 129 93 74
303 604 196 206 13 49
308 369 319 146 99 77
360 102 253 135 45 45
368 629 315 52 30 32
359 103 256 143 91 77
225 513 353 162 109 86
284 238 233 146 105 68
298 234 286 109 89 67
271 219 256 113 91 66
279 249 290 113 92 70
392 189 257 128 99 63
333 659 313 146 6 45
362 99 250 137 16 38
363 104 251 140 64 59
361 173 288 109 89 69
398 809 225 50 47 49
447 734 335 167 112 79
363 109 256 139 101 75
366 406 325 72 42 35
310 962 339 60 56 55
309 319 327 134 90 71
282 459 141 47 27 33
368 109 251 139 95 70
395 452 214 45 35 38
337 454 309 109 5 34
396 737 213 65 51 44
365 107 252 139 94 72
364 114 257 131 96 68
333 469 153 149 0 32
362 169 288 110 90 70
269 239 261 118 94 68
336 397 235 88 74 59
420 429 339 130 14 44
369 114 252 135 96 67
389 619 220 50 36 39
310 184 230 122 96 64
378 49 277 121 19 44
372 854 221 59 51 52
378 418 201 79 32 28
367 114 255 135 97 68
371 164 254 123 94 56
277 489 345 72 21 31
323 864 297 114 81 51
375 22 283 102 22 37
419 679 256 52 34 33
379 98 242 113 63 45
378 414 320 108 81 58
445 539 301 101 27 40
328 16 298 161 86 102
388 594 308 128 7 40
382 100 240 115 54 42
436 464 233 85 25 31
283 832 266 225 153 122
400 730 214 66 51 43
373 549 181 66 33 37
379 119 278 116 94 70
399 890 336 32 30 30
438 499 261 88 28 37
478 744 276 87 70 53
382 104 240 121 26 30
472 759 294 67 55 44
337 473 153 137 3 33
373 99 246 104 53 34
294 276 309 97 80 62
339 373 250 69 57 47
432 534 286 122 18 38
277 634 251 147 10 39
418 649 347 195 138 113
373 104 245 139 20 38
350 330 258 83 72 61
398 489 341 111 14 38
370 107 248 145 96 75
366 183 254 123 96 61
312 381 238 105 91 75
369 718 344 194 16 63
282 218 278 108 91 73
373 108 247 145 89 69
333 419 312 85 15 31
392 696 188 89 62 45
373 110 250 132 91 64
378 834 206 84 69 58
379 104 243 129 29 36
378 109 246 145 86 69
362 194 255 124 97 63
323 11 301 156 30 63
388 454 375 116 93 71
457 704 296 71 45 39
383 109 241 141 40 48
378 211 248 130 102 66
432 684 242 69 50 38
277 759 241 128 96 61
381 111 245 147 101 76
310 474 323 120 4 36
282 407 234 100 86 72
377 111 249 127 87 62
407 639 246 105 24 39
285 449 146 139 1 39
382 953 340 62 57 56
285 719 242 122 7 34
292 431 123 85 58 41
282 324 270 102 82 58
373 114 251 122 89 56
357 199 291 110 90 70
370 119 253 128 94 59
358 84 276 113 24 42
333 589 187 187 7 40
328 961 289 78 76 79
373 119 252 124 94 59
365 417 216 91 74 59
286 433 151 127 8 35
372 16 281 94 56 51
403 818 315 53 44 41
277 413 230 106 27 30
368 124 255 126 95 61
285 309 320 125 94 67
278 569 200 89 31 37
389 139 271 116 93 65
355 184 271 104 84 62
410 664 339 165 120 98
370 123 253 123 91 57
418 414 296 37 33 36
453 859 336 74 63 54
373 124 252 124 94 60
257 439 241 61 33 34
406 937 302 60 53 49
371 126 254 123 92 60
371 129 254 123 93 60
373 129 252 125 95 62
250 554 312 101 43 37
384 112 242 143 92 71
380 113 248 126 86 58
378 114 250 118 84 51
435 477 273 148 7 38
358 25 297 129 26 50
398 479 326 73 26 34
367 933 258 87 80 81
361 239 254 124 96 63
308 914 350 165 131 111
378 119 250 125 94 60
396 75 259 111 64 60
435 490 343 49 29 31
378 124 250 128 98 63
388 447 351 76 58 45
378 129 250 128 98 64
269 479 352 123 6 37
395 357 265 117 96 72
456 843 290 84 66 56
395 479 333 74 19 31
397 944 291 81 72 71
383 124 248 129 94 57
310 947 288 79 75 76
394 106 253 111 76 61
283 184 222 134 103 65
349 74 266 126 9 44
333 575 179 68 31 37
318 494 171 82 25 35
343 509 309 41 25 28
381 124 249 128 96 61
355 763 212 58 47 42
383 129 248 128 94 56
327 299 286 78 67 58
352 392 234 92 78 64
247 598 300 130 102 68
433 529 291 71 25 31
381 129 249 127 96 61
269 269 266 135 101 70
282 134 216 127 101 71
287 134 210 130 101 68
333 614 200 122 23 41
360 124 271 115 91 66
282 524 181 105 18 39
384 519 362 136 88 77
274 349 301 128 98 68
423 694 342 181 127 98
437 534 261 37 32 36
406 74 228 120 23 35
265 484 183 52 31 34
281 134 221 118 97 73
267 593 290 60 33 29
352 209 266 111 90 65
400 98 253 114 32 46
297 409 335 119 16 40
417 448 338 82 12 26
305 942 339 184 133 111
319 469 162 111 11 32
283 139 216 126 100 69
285 139 213 127 100 69
338 774 224 78 60 51
285 143 213 129 103 75
405 482 194 69 31 32
283 144 216 127 102 74
437 524 256 114 25 43
373 29 287 116 74 65
438 888 341 78 63 57
288 144 211 132 104 71
281 144 220 125 100 71
264 454 181 135 4 38
413 644 347 191 139 115
280 154 222 124 99 70
433 815 246 75 60 54
373 519 306 118 22 44
394 224 288 118 94 67
266 482 204 111 4 35
366 308 309 131 95 64
348 909 235 86 73 71
250 689 294 178 122 97
286 149 214 131 103 70
310 174 230 117 93 65
289 154 213 138 105 68
443 544 305 101 25 40
287 154 214 133 103 68
466 759 299 71 51 39
432 524 291 108 23 36
368 409 230 94 80 66
309 174 246 103 86 68
357 917 363 41 37 36
358 784 221 56 46 41
278 669 261 70 42 38
287 159 215 134 104 69
384 442 338 87 26 34
269 244 261 120 96 68
400 936 328 62 55 54
361 129 277 114 91 66
355 359 314 136 100 72
281 154 220 126 100 71
248 694 276 146 102 70
282 159 220 127 101 72
335 924 247 84 75 73
258 469 366 153 12 49
281 235 234 142 104 67
243 559 341 181 126 104
412 917 337 67 60 62
343 919 361 141 110 88
282 429 201 80 24 36
279 144 236 109 90 71
283 134 236 108 90 71
334 14 262 136 36 32
260 411 275 85 41 36
437 489 340 57 29 31
268 474 196 116 8 38
285 135 239 107 89 71
250 737 289 170 116 90
321 544 174 158 2 35
303 415 176 101 67 57
394 78 223 140 13 34
286 132 238 106 88 69
413 704 337 160 114 93
314 459 160 133 2 31
383 144 281 116 94 68
433 820 316 121 76 57
428 678 251 71 49 40
288 134 241 105 86 67
438 686 282 92 66 45
392 449 207 54 35 37
256 526 219 153 15 48
466 789 277 69 56 49
387 889 326 31 29 28
328 734 218 86 30 37
280 136 230 110 91 72
408 539 352 125 96 67
308 384 237 101 88 76
345 691 201 86 53 47
281 137 232 108 89 69
281 138 237 108 90 72
288 672 288 41 26 27
381 442 180 131 4 35
254 534 287 82 25 25
378 689 340 133 6 41
280 140 235 108 90 71
283 144 241 106 88 71
387 189 253 132 103 65
422 456 371 136 103 86
306 171 249 102 83 63
249 744 256 148 103 74
317 484 169 130 5 34
278 184 256 113 95 76
327 944 363 43 41 42
288 144 245 104 86 67
279 389 247 107 90 71
279 149 226 119 96 71
368 644 219 80 31 37
278 149 236 107 88 69
280 149 240 108 89 71
360 114 262 127 96 68
352 219 281 105 85 61
278 154 231 113 92 70
278 159 226 121 97 69
339 15 258 145 31 27
279 344 267 103 86 68
371 435 354 107 14 34
289 159 213 140 105 68
338 419 151 67 57 48
380 451 370 119 88 69
294 223 283 110 90 69
277 159 231 116 94 70
277 154 236 110 91 70
279 154 241 110 92 73
358 169 276 103 83 61
277 159 241 112 92 71
373 134 252 127 97 62
311 884 299 154 115 86
373 420 166 111 32 36
280 155 244 109 91 73
396 902 263 60 53 55
279 159 246 109 91 72
315 17 291 159 109 94
302 785 308 66 57 53
383 769 206 41 36 40
266 434 175 50 35 38
368 349 250 95 82 70
282 148 242 106 88 70
323 789 227 87 67 57
352 658 318 89 15 35
272 454 170 143 0 36
285 145 244 105 88 70
389 189 254 132 102 64
355 181 269 106 86 65
284 159 250 105 88 70
268 384 296 132 100 72
384 414 317 113 89 65
316 873 348 173 161 157
285 156 249 104 86 69
358 719 201 64 48 39
288 154 250 105 86 66
338 401 227 88 75 60
293 609 206 178 12 46
280 169 223 122 98 71
378 674 330 110 15 37
292 688 307 47 30 32
288 169 216 138 105 66
280 172 223 122 98 72
288 174 217 138 103 65
285 435 152 111 15 36
328 10 276 125 67 55
352 374 313 133 96 75
338 769 321 71 59 53
293 149 210 141 106 69
380 314 303 135 100 70
299 296 259 99 76 51
286 174 219 134 103 66
283 179 221 132 102 66
287 180 219 138 105 64
301 934 311 105 84 74
275 179 246 114 93 72
407 634 242 49 32 38
383 504 185 94 15 24
277 484 175 91 18 34
288 184 219 141 106 64
396 250 289 128 98 67
288 189 220 141 105 65
404 498 321 127 8 41
379 950 275 73 67 68
277 164 226 123 98 69
303 204 225 138 105 67
298 174 217 142 105 67
258 679 266 124 92 56
399 384 250 97 84 71
278 169 226 121 97 70
275 169 241 113 92 70
358 964 281 95 91 94
449 805 255 76 58 51
303 413 191 101 76 63
276 168 242 112 92 71
292 484 335 96 15 35
299 603 197 199 12 48
388 509 184 106 12 27
303 249 291 111 89 66
393 269 291 135 99 68
251 645 280 165 114 84
303 134 206 142 103 71
343 779 225 76 58 50
324 308 274 83 70 56
276 164 241 112 92 71
425 610 261 48 32 36
278 174 226 120 97 71
358 89 276 115 17 42
372 416 186 107 24 32
338 28 286 148 98 81
276 174 230 119 96 69
294 449 332 29 27 30
280 546 328 42 27 29
348 24 257 115 22 30
275 401 243 97 83 68
442 534 297 42 33 34
243 533 361 195 135 115
275 174 236 116 95 71
303 794 306 64 55 52
278 164 246 110 91 72
334 844 316 107 82 62
268 734 301 174 122 98
394 630 229 55 29 35
266 398 265 122 98 71
280 165 249 108 90 73
321 314 309 108 80 53
288 424 341 137 16 44
433 544 236 42 32 36
304 243 287 111 89 65
279 169 250 110 92 74
462 754 316 163 112 78
372 396 233 95 82 69
398 919 276 58 50 52
275 175 245 114 94 72
309 822 299 61 53 53
276 174 247 114 93 71
383 509 361 140 86 78
355 757 329 74 60 54
287 163 253 106 88 69
302 245 290 110 89 65
308 401 324 93 27 36
310 930 283 59 55 57
284 169 255 105 88 70
363 519 171 77 31 33
260 516 363 131 10 43
288 169 257 106 88 68
253 674 300 180 127 103
334 327 269 62 52 44
281 172 253 108 91 74
348 894 236 73 67 69
413 402 271 86 54 46
402 99 246 126 24 47
274 209 236 129 102 69
