ply
format ascii 1.0
comment Created by Open3D
element vertex 2235
property double x
property double y
property double z
property uchar red
property uchar green
property uchar blue
end_header
369 375 226 81 30 45
338 649 133 80 58 45
364 377 236 75 31 43
369 376 236 72 29 45
369 377 241 68 25 42
356 379 244 74 34 34
194 537 221 116 81 56
318 402 131 102 15 31
358 380 247 72 30 32
426 437 255 138 12 34
354 381 251 72 32 32
410 472 211 100 29 39
354 382 256 74 28 31
292 862 271 159 113 98
339 562 326 186 128 108
458 907 268 93 78 63
257 463 273 52 22 30
359 380 251 72 26 31
317 401 123 110 12 26
359 381 256 74 23 29
364 379 251 66 16 31
364 380 256 71 17 28
369 379 256 65 13 29
371 374 224 82 28 46
379 442 310 54 23 30
376 374 229 80 37 45
386 690 294 184 131 110
374 376 236 75 34 45
406 672 298 167 112 78
316 499 377 68 40 32
341 831 88 85 85 85
425 772 185 59 47 43
374 376 241 71 32 43
379 658 182 94 35 32
379 373 226 83 40 44
438 797 216 79 64 56
371 711 149 73 57 50
383 877 206 66 59 60
318 392 136 44 35 37
378 375 232 81 38 44
384 374 231 88 40 41
385 538 307 170 16 55
379 375 236 80 37 43
310 507 145 95 18 36
404 517 286 73 25 34
381 374 234 84 38 42
290 367 311 109 88 64
276 636 245 181 7 57
383 375 237 85 37 41
384 375 241 81 35 38
374 378 256 63 14 30
461 694 282 102 75 56
379 477 331 146 9 47
334 757 140 51 42 38
379 376 246 68 26 35
318 397 136 61 29 33
379 377 251 63 16 31
384 376 251 63 18 29
350 939 267 70 68 69
384 377 256 61 14 29
259 399 82 99 81 61
316 398 125 105 10 34
337 400 283 57 38 36
472 741 270 90 77 66
399 372 211 128 17 18
265 399 78 102 77 54
269 398 81 98 78 56
264 397 86 97 80 61
279 712 252 182 16 58
264 395 96 99 80 61
269 396 86 95 79 60
259 402 76 120 72 53
258 400 80 102 83 62
282 623 258 143 15 49
262 400 79 101 77 57
321 667 274 83 32 42
264 407 76 169 5 37
259 412 77 172 0 35
321 433 331 63 53 43
259 417 79 133 16 36
264 417 79 137 12 37
269 402 75 153 44 42
289 773 218 50 41 37
357 413 183 78 37 35
404 869 245 66 56 54
269 417 80 73 32 35
310 755 234 67 55 50
274 399 78 99 75 51
277 349 310 98 80 61
274 398 81 93 78 58
277 399 78 97 72 45
319 815 255 97 75 50
274 396 86 96 77 59
248 777 202 185 134 105
274 395 91 107 76 57
274 395 95 108 77 58
344 668 157 61 42 39
279 395 91 125 72 57
279 395 94 117 75 57
424 711 186 69 53 47
332 829 195 116 79 62
289 396 86 138 63 51
289 398 81 155 55 49
373 841 178 60 54 57
395 811 180 65 57 58
274 487 281 177 0 54
281 394 93 113 75 56
284 394 96 107 76 57
386 697 159 54 44 40
295 470 329 162 0 50
289 395 89 130 66 52
265 791 168 175 118 83
289 394 91 125 68 52
289 393 96 110 73 55
274 407 77 174 2 39
279 402 77 168 35 45
442 742 279 167 111 81
279 602 171 75 34 39
280 402 79 160 30 44
277 405 78 174 1 42
337 448 350 85 19 34
268 587 170 73 33 39
276 408 79 174 3 33
392 627 236 108 26 40
364 882 191 65 61 63
315 391 297 83 72 61
398 663 201 56 34 32
224 596 204 122 92 60
274 412 80 157 7 34
289 402 81 192 23 46
278 415 83 165 18 40
279 417 86 74 33 38
284 407 82 148 11 37
275 427 360 154 33 52
328 692 282 58 24 33
289 407 85 194 10 41
364 897 300 51 44 40
284 412 86 82 29 38
281 413 84 83 30 36
288 411 87 179 12 44
284 417 90 76 33 41
298 464 333 162 0 50
364 879 281 43 37 34
425 852 226 66 55 53
286 414 89 103 24 37
258 395 100 96 79 60
259 394 102 96 78 59
266 293 331 133 93 66
408 512 226 118 26 42
264 394 98 99 80 60
299 582 162 167 0 35
307 449 357 121 21 45
259 393 111 93 77 59
310 468 385 91 13 33
202 544 243 167 28 58
264 393 106 97 78 60
344 487 176 103 17 31
264 393 111 95 78 61
444 812 271 61 51 43
269 394 101 104 80 61
409 752 289 188 139 110
269 393 106 100 80 61
433 717 187 57 47 41
259 392 121 92 77 61
299 777 220 63 53 49
259 392 116 93 77 60
269 391 121 95 79 62
393 452 294 134 16 45
347 405 323 63 28 27
457 745 264 70 53 40
355 478 362 81 23 35
277 545 138 160 41 64
274 394 101 107 78 60
279 393 101 103 78 59
348 407 336 65 20 26
401 864 220 59 54 50
274 393 106 100 80 62
274 392 111 97 80 62
272 281 321 121 87 58
284 391 111 95 78 61
374 677 131 68 53 42
294 547 285 49 28 31
289 391 111 94 78 60
289 392 101 101 75 55
274 391 121 93 78 61
274 312 260 108 80 56
251 786 204 189 137 109
274 390 126 94 78 61
279 390 126 94 79 61
434 737 285 169 116 82
284 391 116 94 78 61
284 390 121 93 78 62
309 762 231 67 54 49
325 432 151 93 18 32
289 389 126 95 79 62
314 487 141 161 4 40
259 422 81 108 29 39
260 657 200 59 47 40
349 928 282 60 53 50
259 427 82 109 21 39
265 428 85 129 19 41
269 427 86 105 29 42
270 428 89 157 26 44
259 437 87 153 5 38
258 362 273 78 57 42
274 432 346 180 12 56
264 797 171 178 121 87
260 438 89 82 25 33
264 437 90 71 33 37
263 446 93 168 5 39
292 540 283 81 18 28
331 831 198 131 92 70
339 547 347 193 134 110
265 447 95 115 24 38
266 434 89 93 33 41
404 412 297 160 13 52
313 518 361 201 143 127
299 637 265 104 29 43
436 387 236 92 26 36
270 437 95 60 32 37
324 832 211 144 105 80
271 434 94 82 37 34
269 442 96 84 32 42
266 443 94 108 25 41
354 838 161 48 44 46
354 462 351 88 9 29
268 447 97 100 35 36
272 420 83 83 27 36
309 459 399 107 23 39
273 426 88 119 32 45
224 557 191 88 28 40
338 507 396 181 122 104
273 431 92 81 32 36
278 426 92 70 32 40
339 480 361 48 25 33
389 617 276 88 68 47
280 428 95 77 32 40
279 432 97 90 27 38
429 822 256 46 39 35
283 421 92 101 23 34
426 829 254 57 49 41
290 418 95 160 21 42
273 352 271 108 80 64
284 427 97 92 31 40
274 437 97 96 29 38
271 444 99 61 35 38
314 926 291 58 54 52
280 433 99 120 31 43
282 430 98 49 33 34
449 722 265 64 50 35
287 426 98 78 28 31
289 427 101 86 32 41
288 431 102 154 14 41
274 442 100 62 36 38
274 447 102 106 33 41
400 547 281 160 12 49
279 447 105 121 23 40
282 440 103 80 26 31
372 573 320 146 106 72
284 442 105 100 30 40
284 447 107 110 29 40
295 389 113 92 79 64
385 461 307 60 23 27
289 442 107 105 30 40
288 446 108 70 26 32
271 717 174 86 70 50
340 437 351 46 23 28
289 447 110 116 30 41
294 394 91 117 69 53
281 366 328 115 91 64
259 402 345 152 111 84
368 887 197 70 65 67
294 394 88 123 67 51
299 396 86 136 48 42
298 399 83 158 28 39
403 793 183 70 57 54
299 394 88 115 64 47
356 399 330 59 20 21
424 672 271 116 92 64
300 395 89 94 71 57
304 395 89 96 63 33
189 522 246 59 38 37
402 541 279 166 7 50
294 401 82 191 20 48
259 272 344 126 97 61
403 893 79 107 88 71
295 408 90 198 11 47
333 484 378 60 41 44
335 877 166 74 67 66
449 732 202 76 58 47
295 413 94 181 7 44
321 470 356 31 25 30
298 405 88 134 17 36
317 458 352 169 8 52
304 401 87 61 36 37
305 403 90 52 31 43
294 810 200 44 32 35
334 478 400 82 50 38
298 410 93 194 10 35
305 409 94 201 14 44
389 383 311 60 24 27
266 656 219 99 29 40
304 411 96 195 10 41
309 397 91 85 38 39
405 682 298 177 117 87
331 700 284 40 30 32
344 712 285 194 16 63
307 400 88 62 35 42
312 876 205 131 90 78
307 405 93 174 26 49
290 911 212 84 78 79
309 407 96 153 12 41
310 402 95 88 25 37
313 402 97 92 27 33
421 438 210 110 26 35
269 722 170 99 78 53
294 391 101 101 73 54
304 465 398 110 13 35
399 371 221 103 24 21
304 392 101 91 68 56
394 737 281 152 105 84
394 617 286 137 103 72
304 391 106 99 65 55
358 480 355 62 28 30
348 401 311 63 29 30
290 389 117 92 78 62
285 512 129 163 0 38
292 390 114 93 78 62
209 537 196 147 15 45
254 777 170 170 112 79
366 555 316 109 80 57
378 921 246 52 47 44
294 389 126 94 74 59
402 468 289 39 27 29
299 389 113 92 77 64
299 388 121 90 70 56
308 379 261 67 58 50
304 389 116 97 63 52
334 391 272 72 36 34
304 388 126 87 52 45
301 414 99 189 11 44
326 487 155 139 0 32
404 387 306 148 13 47
303 417 102 146 7 38
304 472 330 143 9 45
309 391 106 108 56 53
387 618 218 123 16 34
358 905 299 56 47 41
280 706 254 180 15 58
313 393 101 111 27 34
419 372 241 94 11 27
312 389 108 111 52 48
314 392 111 106 20 36
312 394 98 96 40 38
233 590 209 77 50 36
285 360 301 95 78 60
315 397 111 113 10 29
336 556 309 58 27 33
304 909 195 83 75 74
315 392 116 102 14 33
375 462 317 106 4 33
314 388 121 88 30 36
369 661 131 84 52 38
461 702 275 96 79 65
350 384 265 78 18 30
314 387 126 71 33 37
315 397 116 115 5 33
316 397 121 110 8 32
317 398 122 109 11 32
439 700 228 50 37 32
317 393 126 93 17 33
324 938 271 70 65 64
317 397 127 104 14 30
311 408 110 124 0 32
310 409 100 156 10 42
337 734 138 49 42 38
305 418 104 78 26 35
308 417 106 126 10 35
305 473 385 36 27 27
399 762 281 185 139 110
313 407 101 133 7 37
313 407 106 125 2 33
314 827 231 105 76 49
285 371 261 76 63 50
322 482 351 52 20 30
316 402 121 115 6 29
295 376 317 115 92 64
315 407 121 120 2 32
259 662 220 102 67 59
317 402 126 106 11 31
348 631 279 155 13 49
316 412 124 131 0 32
292 420 98 124 29 34
290 433 104 168 10 40
295 428 104 138 20 40
308 738 243 75 61 55
269 357 335 117 92 62
294 432 105 132 17 39
304 422 104 83 32 39
299 432 106 66 34 39
217 638 209 142 98 62
313 517 356 182 130 114
304 432 107 83 32 37
294 437 107 135 16 38
261 470 274 46 26 27
294 443 109 69 37 39
364 876 125 92 80 75
304 382 306 108 87 65
294 447 110 61 35 40
334 443 370 82 25 33
299 437 108 125 19 40
419 702 181 64 50 41
426 442 255 116 12 35
298 440 108 115 22 42
299 447 111 55 35 40
304 442 111 67 32 38
281 651 244 169 6 53
308 422 106 128 16 33
419 817 201 59 48 45
419 371 231 110 16 29
308 431 108 117 24 36
313 422 112 137 0 34
285 543 139 94 27 33
314 422 116 130 0 31
275 412 343 139 102 76
316 422 125 130 2 34
249 732 167 132 97 61
314 427 121 132 4 33
294 467 330 162 0 49
313 432 116 130 9 37
410 432 287 156 12 49
313 432 121 127 6 35
315 427 126 115 12 32
315 432 125 110 19 31
313 727 145 77 40 34
310 814 264 129 106 84
317 432 128 99 25 37
400 677 181 66 48 39
309 437 111 83 33 36
309 447 116 99 24 37
310 442 116 96 27 38
327 886 162 99 90 86
341 450 348 70 13 28
252 614 232 85 37 44
312 435 113 109 21 43
312 436 116 96 25 34
286 920 261 81 78 80
267 344 329 106 84 58
392 614 283 106 85 61
313 437 121 109 21 36
288 736 154 125 94 57
390 616 280 94 75 51
384 399 198 57 38 34
312 442 121 80 31 37
259 452 94 87 33 37
259 457 97 69 33 35
339 427 173 126 7 27
264 457 97 57 36 38
319 402 311 75 66 57
259 461 98 76 34 37
386 592 277 85 26 36
262 460 98 75 28 28
266 458 99 59 38 36
271 458 104 87 26 40
333 425 313 66 57 47
342 431 351 75 22 30
264 467 102 65 34 38
326 532 338 161 106 93
264 471 103 92 26 35
346 525 343 168 119 87
332 507 167 88 26 36
259 474 104 183 6 33
401 689 175 59 41 36
449 844 290 84 71 63
259 477 105 178 5 35
264 473 104 127 14 39
267 467 103 61 34 37
267 470 103 87 47 48
270 467 105 50 36 39
408 822 193 78 62 56
273 452 103 104 32 40
409 507 281 34 31 33
462 719 197 80 58 48
429 397 206 46 37 36
314 512 151 107 28 40
347 582 306 147 99 85
272 456 103 73 36 42
274 457 105 83 30 39
276 448 104 127 20 45
282 604 268 43 25 30
279 452 106 93 30 39
366 561 327 150 107 75
278 456 108 76 33 39
345 508 343 45 28 30
276 463 109 64 29 32
283 451 108 118 29 33
286 441 379 81 24 31
426 823 221 66 57 56
281 454 109 103 41 50
284 457 112 71 32 39
279 606 173 152 21 43
286 449 109 152 22 40
348 582 301 76 50 44
301 479 382 60 26 30
294 928 266 67 61 60
289 452 111 94 31 38
441 716 273 154 107 76
359 492 175 99 26 35
289 586 162 134 15 38
422 456 237 164 13 42
204 548 218 111 61 44
283 462 113 132 22 40
289 462 115 166 4 35
314 496 319 100 20 39
272 471 108 96 17 33
279 467 112 147 14 39
352 764 253 72 56 53
378 850 248 31 29 28
278 471 113 167 6 38
280 472 115 163 1 38
277 476 113 162 0 43
334 422 172 117 15 28
276 478 114 126 6 35
393 632 306 152 109 76
282 465 113 135 10 36
284 472 117 162 1 35
435 692 261 83 62 43
288 471 118 161 7 38
285 477 119 167 2 36
286 474 119 166 8 37
259 352 274 75 58 43
289 472 119 165 6 36
289 477 121 166 3 35
421 869 236 70 55 45
259 483 109 180 7 37
259 487 111 180 7 34
269 487 111 152 6 32
257 489 114 187 11 38
260 492 113 181 8 37
256 495 118 168 12 47
259 302 270 111 75 58
322 693 278 74 30 34
391 582 231 142 28 48
264 492 112 120 12 36
261 495 113 175 6 33
354 542 180 81 27 35
264 495 113 94 19 36
207 552 218 113 57 41
425 742 185 56 47 44
267 495 113 38 34 42
269 497 115 62 33 37
387 906 237 73 66 65
270 493 114 67 33 40
432 840 255 78 63 62
434 882 281 69 58 54
422 416 203 149 14 39
258 502 121 60 32 39
325 522 337 140 63 69
264 502 117 100 26 36
349 767 250 59 50 49
398 851 197 75 64 62
263 504 119 109 29 39
256 500 123 37 31 36
260 507 122 74 34 38
259 507 126 52 34 35
370 507 180 109 24 38
260 512 126 134 18 41
261 510 123 48 28 43
269 642 191 50 34 36
264 512 122 74 28 36
377 546 193 75 18 32
269 504 119 97 28 42
275 482 114 72 30 37
376 873 281 35 33 33
272 487 113 135 16 37
278 487 117 142 12 37
357 608 301 178 124 105
280 487 120 146 12 37
344 771 245 184 133 115
349 842 271 143 109 82
274 492 116 79 30 35
277 491 118 56 35 35
279 492 120 58 34 37
276 497 119 58 36 39
284 747 227 69 56 51
422 431 208 115 28 38
281 483 119 160 3 38
367 558 320 134 98 66
284 487 122 159 6 38
374 385 312 51 23 19
289 482 122 166 1 35
289 487 125 148 5 37
398 441 294 126 19 46
284 497 125 54 34 38
273 501 118 62 35 33
268 527 268 147 9 45
278 502 122 62 28 34
319 512 155 113 22 38
274 507 120 85 29 35
239 552 246 111 27 43
274 512 122 106 20 37
278 507 122 102 19 35
253 532 257 140 12 45
277 511 123 161 10 43
279 512 125 168 2 33
281 498 124 39 36 37
279 587 162 135 23 42
264 362 280 71 54 39
281 503 124 136 12 36
284 502 126 145 13 37
284 507 127 164 2 36
283 512 128 163 0 36
312 467 375 135 11 44
294 452 112 93 31 39
293 455 113 88 22 33
424 782 191 62 49 44
381 492 333 167 2 54
289 797 162 186 127 89
288 862 261 152 106 91
294 457 114 123 21 38
299 462 117 135 11 39
454 851 287 87 77 69
305 463 120 147 3 37
437 732 193 52 45 44
391 482 189 38 33 35
363 688 145 66 41 37
294 467 118 146 7 35
294 477 122 108 20 38
443 781 212 54 44 42
333 497 166 81 21 31
298 466 118 157 6 38
322 769 128 80 58 46
299 467 119 155 4 37
301 464 119 142 3 30
256 476 269 98 20 40
299 476 123 111 24 38
387 546 300 177 18 57
300 478 124 157 10 39
283 373 330 118 92 62
302 475 123 118 28 38
304 477 126 114 18 36
473 712 236 72 56 43
305 473 125 121 11 34
308 452 117 72 30 39
310 452 121 72 35 39
309 457 121 72 29 36
299 507 135 130 9 36
306 459 119 125 19 40
238 722 181 146 101 70
379 837 232 35 29 27
314 452 126 109 21 35
312 461 128 60 32 34
236 721 196 177 119 93
307 379 276 59 50 42
437 382 241 85 26 33
307 465 123 148 0 34
278 657 237 149 15 49
420 442 211 136 19 43
290 484 124 154 5 33
294 480 123 140 16 42
259 390 136 88 73 60
264 391 131 92 76 61
307 379 281 67 57 47
241 657 193 123 89 55
260 389 142 95 79 64
316 680 133 81 55 46
263 390 140 94 79 64
259 302 311 86 63 38
264 389 141 95 80 64
269 390 131 94 79 62
268 390 135 95 79 63
344 727 142 66 49 38
269 389 141 96 81 65
309 456 346 155 7 47
259 389 146 95 80 64
434 397 241 138 16 41
260 707 224 150 51 56
257 390 144 94 79 63
259 388 151 96 81 65
264 388 151 96 80 64
259 387 161 96 81 66
244 627 225 163 119 102
369 882 195 69 64 67
264 387 156 96 81 65
344 497 366 135 93 74
264 386 161 96 81 65
367 487 178 120 13 34
358 387 193 107 21 22
364 386 301 63 11 27
269 387 151 96 80 65
433 732 285 167 115 82
274 389 136 95 80 63
272 390 134 94 79 62
279 390 130 94 79 62
314 486 360 58 14 25
274 388 141 96 80 64
329 826 181 73 57 51
271 341 268 120 88 68
284 389 131 95 79 61
365 517 179 132 17 34
321 510 399 146 91 84
342 505 367 169 114 90
344 633 179 71 38 30
283 390 129 95 79 61
321 416 140 109 9 34
289 389 131 96 76 60
284 388 141 95 79 62
284 387 151 95 80 64
384 702 156 54 43 39
289 387 151 93 76 62
284 386 156 96 80 65
349 557 180 88 31 37
289 386 156 95 79 64
289 386 161 96 80 65
323 781 128 99 74 52
296 553 149 107 14 31
349 946 231 86 81 82
268 467 306 110 29 46
264 731 164 114 88 57
261 384 168 97 82 67
268 385 165 96 81 65
284 547 141 91 28 37
269 384 167 96 81 66
279 384 168 97 81 66
284 384 171 96 81 66
274 337 266 119 89 69
285 385 169 96 81 66
317 872 186 54 51 52
325 853 191 39 37 38
324 492 381 69 39 37
294 388 131 94 70 56
294 388 136 91 66 54
294 388 141 88 65 55
352 818 116 155 122 92
339 457 174 123 8 30
299 388 136 83 55 48
271 283 321 116 83 56
304 387 131 77 48 44
434 684 236 75 54 49
304 387 136 74 46 45
454 707 236 106 82 59
296 930 265 67 61 61
299 387 141 81 55 49
379 547 307 91 28 39
425 442 226 49 35 36
304 387 141 73 45 45
404 722 171 60 45 42
294 387 146 87 65 56
394 662 186 74 51 40
294 387 151 90 70 59
289 810 200 139 106 87
294 386 161 95 76 62
304 386 156 84 46 46
304 386 161 87 49 46
315 616 279 112 24 43
350 632 278 152 13 47
309 386 141 71 41 43
314 385 141 72 38 39
319 492 351 53 24 26
309 487 136 142 1 32
318 387 141 56 38 39
328 502 157 74 31 34
318 392 141 61 37 36
317 397 131 96 20 31
316 461 350 166 7 50
326 730 255 76 61 56
316 396 132 86 18 32
241 550 254 52 30 34
341 566 321 173 117 101
354 869 131 94 75 67
319 397 141 42 34 37
391 427 303 99 10 28
309 386 146 75 41 43
309 386 151 80 40 42
284 617 177 117 17 36
355 929 277 65 58 56
381 893 287 58 51 47
309 386 156 84 39 40
309 386 161 87 40 40
313 385 152 83 39 38
333 832 196 106 76 61
320 387 151 91 31 38
313 385 156 87 38 38
320 407 141 95 24 29
320 412 136 111 8 32
320 402 146 45 35 37
294 384 172 95 79 64
340 437 174 128 4 28
353 818 152 63 55 55
299 385 170 94 73 60
304 384 171 88 60 51
432 771 284 181 123 96
309 385 166 85 43 40
289 657 251 178 10 56
391 668 180 74 41 33
341 508 376 174 115 90
454 777 251 81 62 52
322 422 141 115 8 32
336 424 315 67 57 47
306 384 168 86 51 45
308 384 168 85 46 41
314 477 330 127 12 43
320 417 136 122 5 32
352 754 258 77 62 57
387 495 188 145 8 36
310 497 401 158 105 99
318 422 131 123 7 32
319 432 131 83 28 35
349 388 276 68 14 26
294 463 332 163 0 51
317 436 128 88 33 41
318 913 144 85 85 85
319 437 131 94 31 38
318 442 131 65 38 39
241 560 244 165 19 53
364 657 276 101 13 34
413 381 209 116 12 24
294 737 151 125 92 54
316 447 129 55 32 36
332 498 414 139 100 88
319 447 131 46 38 41
257 504 131 106 18 41
259 512 131 178 6 43
362 476 354 115 16 33
286 894 238 76 69 65
373 846 125 71 56 50
259 512 136 171 7 43
449 747 267 79 57 42
400 512 211 78 30 39
398 552 281 151 15 46
339 502 351 99 60 51
256 506 138 166 5 42
374 792 167 54 47 48
289 507 130 166 1 35
349 931 212 84 80 83
454 721 224 72 57 44
286 508 129 165 0 34
316 453 130 116 23 42
284 417 340 122 91 67
468 742 263 85 72 63
315 457 131 81 31 39
260 457 286 72 22 36
318 452 132 43 34 39
300 406 328 112 90 66
327 874 294 152 122 97
355 397 185 102 26 23
317 456 133 54 36 39
314 462 131 53 34 37
316 464 134 61 30 28
417 461 274 168 6 54
308 477 131 139 7 37
306 478 130 135 5 35
413 487 226 116 26 41
334 702 285 91 32 45
352 633 178 68 35 36
311 478 134 81 23 29
418 862 222 70 54 45
384 517 191 145 10 38
313 467 132 65 29 35
304 512 296 80 30 38
313 471 133 96 21 40
315 472 135 55 31 33
318 472 137 63 29 36
316 479 139 86 18 28
319 477 141 84 22 37
319 916 144 85 85 85
319 492 322 116 20 42
293 496 128 141 17 39
313 648 268 171 19 55
310 511 305 65 28 33
372 537 188 150 6 35
295 497 130 140 7 36
301 484 129 144 16 44
452 747 208 93 70 55
297 490 128 165 1 35
321 506 406 122 67 65
383 537 197 144 12 37
299 492 130 155 6 34
299 497 131 157 3 37
317 881 176 57 52 51
302 496 133 126 15 43
305 492 135 134 10 37
299 742 236 76 62 57
380 731 147 60 48 41
373 915 285 58 48 44
290 503 129 142 12 36
294 502 131 141 7 36
294 507 132 164 1 35
299 512 291 137 21 49
292 511 133 162 1 34
290 847 276 145 109 88
296 508 134 157 5 39
417 679 192 63 45 37
419 371 216 123 16 21
297 505 133 161 0 38
310 482 135 122 17 37
311 488 139 150 1 34
219 517 177 89 28 37
306 488 134 147 0 36
307 497 138 118 21 40
309 497 141 140 5 35
313 481 137 88 26 36
312 485 138 108 0 22
331 406 288 65 50 41
410 843 266 34 32 32
318 482 142 63 25 33
304 463 399 104 10 39
311 494 144 153 0 38
391 700 174 64 39 42
461 750 253 77 56 47
311 497 144 150 0 34
320 482 145 153 3 38
319 487 146 160 0 36
324 847 161 52 46 46
384 582 216 93 30 40
315 488 144 161 1 36
348 587 183 123 15 33
393 891 81 115 92 68
396 499 199 155 12 42
314 492 146 155 1 35
318 492 148 122 6 32
317 495 148 57 23 26
401 468 194 84 18 33
319 497 150 62 28 36
306 503 139 150 2 35
311 513 149 96 22 35
316 498 149 70 25 23
319 502 151 101 24 37
310 935 270 72 67 66
412 481 217 107 27 39
264 331 272 108 77 57
312 506 148 152 6 36
318 507 152 122 14 36
361 413 328 59 22 27
405 452 195 146 12 32
272 784 213 184 143 112
317 511 153 142 23 40
297 599 278 138 36 50
320 392 151 69 29 37
239 542 256 46 28 30
321 387 155 99 23 32
293 377 320 116 92 64
444 772 206 54 44 42
322 392 153 96 22 35
323 392 156 112 13 30
322 397 151 82 26 30
355 451 174 42 38 41
393 477 311 131 9 41
372 515 334 177 14 55
322 398 148 75 35 34
360 705 138 66 51 45
325 397 161 118 4 31
321 412 141 85 21 32
322 417 141 111 7 31
322 402 148 58 35 35
323 402 151 78 31 34
321 408 150 86 28 30
322 407 151 89 22 33
322 408 148 76 30 33
324 407 161 110 5 32
326 402 161 116 5 31
469 852 283 95 83 73
321 412 146 73 26 35
321 415 144 104 14 37
323 417 146 105 10 29
322 414 148 100 16 34
323 412 156 105 10 30
388 716 138 86 63 47
324 412 161 111 6 32
325 417 156 106 13 28
309 792 157 80 62 52
344 907 302 60 55 54
329 509 412 197 135 127
327 388 163 105 20 32
352 712 142 62 48 41
327 397 163 127 5 29
330 387 170 81 36 37
329 842 206 117 90 71
331 392 169 61 36 32
201 610 224 183 128 102
333 387 172 53 37 37
333 397 172 89 30 36
327 401 163 122 8 31
328 402 166 117 12 32
277 424 357 106 49 44
326 404 164 122 2 36
328 412 166 121 6 28
299 456 391 104 23 36
333 402 172 131 15 30
262 353 339 119 94 65
292 710 159 44 38 40
274 777 215 186 141 108
335 402 175 100 23 29
333 407 172 108 18 32
335 407 174 91 30 32
264 572 265 149 10 45
371 553 189 148 7 35
333 412 172 116 18 35
333 417 172 89 27 33
339 392 177 113 13 25
298 934 236 84 80 82
344 392 180 114 19 24
314 667 267 103 24 40
408 831 197 75 60 54
391 492 317 101 21 39
343 393 178 117 15 26
469 696 256 142 104 64
341 868 131 90 78 70
347 384 183 115 25 22
349 392 182 104 25 23
350 387 185 110 23 25
320 543 164 153 0 36
350 391 184 105 25 22
346 396 179 113 23 28
349 397 180 104 27 25
339 402 176 87 30 34
274 555 143 146 20 39
409 652 286 129 94 58
364 922 211 77 70 70
339 407 175 55 36 40
402 457 193 144 11 31
215 647 216 201 142 115
378 507 183 104 24 37
344 442 174 74 28 31
339 417 174 92 26 32
344 412 175 84 30 31
344 417 175 97 26 30
348 402 178 51 36 34
383 427 310 76 23 30
229 600 204 114 84 54
293 907 286 63 51 47
442 719 201 88 67 56
350 401 179 86 30 28
351 410 179 90 32 28
271 480 284 177 0 55
321 420 139 119 1 33
434 685 241 69 52 47
322 422 138 121 8 30
345 822 116 99 80 67
331 455 360 134 11 38
379 382 306 51 21 22
323 427 141 116 7 33
300 601 279 54 29 32
386 612 311 145 103 66
294 482 322 71 31 38
262 547 263 152 10 47
432 374 208 189 15 13
326 839 169 35 31 33
323 432 141 99 18 32
394 422 301 147 12 44
324 422 146 113 7 33
326 422 161 111 8 30
324 427 146 110 7 31
325 427 151 110 3 32
379 797 170 62 51 49
341 511 347 140 99 73
324 432 146 84 22 34
267 738 218 127 72 59
326 427 156 110 3 32
295 480 324 75 32 39
322 437 137 63 32 34
371 626 194 71 35 33
322 442 137 50 40 39
209 577 238 167 117 94
366 878 107 95 74 53
430 822 231 66 55 51
208 612 210 154 106 71
322 447 137 48 37 41
266 495 269 150 5 43
365 431 184 62 40 38
323 442 141 54 38 37
272 629 243 174 7 54
324 447 141 47 35 36
241 596 203 101 24 37
330 848 195 47 43 43
298 745 143 126 93 58
324 437 146 52 36 38
325 437 151 79 25 32
434 692 266 114 89 59
412 801 188 79 63 56
276 532 274 156 10 49
325 437 156 109 6 32
344 482 356 69 19 32
324 442 146 55 35 38
326 447 151 108 12 33
314 815 251 100 79 57
354 752 261 76 60 55
326 447 155 103 13 31
327 442 162 110 10 29
285 572 279 160 10 49
328 422 166 117 8 31
401 543 230 134 18 45
327 427 163 110 14 25
343 672 132 83 60 45
364 497 342 73 21 32
329 427 166 102 21 29
322 818 197 177 125 97
315 601 284 136 33 52
330 422 170 114 16 31
394 392 201 80 33 32
331 427 169 110 23 29
499 926 256 109 87 68
331 431 169 101 35 35
328 816 236 77 61 42
327 437 162 111 14 32
329 437 166 75 31 33
334 437 171 80 32 36
459 717 226 79 63 49
409 375 266 55 18 26
331 440 169 59 39 39
373 624 318 201 142 117
332 446 168 131 3 25
336 447 174 112 15 29
344 422 174 69 32 35
339 432 173 122 9 28
282 746 154 129 95 56
342 428 173 116 16 34
349 582 297 42 30 34
291 883 233 119 98 76
349 422 176 57 37 36
336 444 174 117 1 28
259 472 271 88 22 37
433 807 216 74 60 55
339 921 294 74 68 65
339 442 174 111 13 32
264 342 331 110 87 59
361 447 323 80 26 36
344 447 174 47 36 38
354 522 333 133 16 43
406 665 224 116 37 44
367 852 121 91 77 67
429 872 266 102 77 73
338 432 351 61 14 25
253 718 218 165 112 92
442 725 193 72 53 46
346 445 173 43 35 40
347 445 173 63 33 38
349 447 174 64 36 38
352 398 182 106 29 22
255 680 184 102 81 56
357 398 188 97 30 22
359 397 191 93 31 23
354 407 181 83 31 28
290 435 365 147 23 52
358 402 187 81 33 28
360 402 190 59 37 30
330 826 176 51 44 42
359 407 186 49 39 38
299 602 172 141 3 34
401 544 278 169 10 48
354 412 181 74 38 35
352 413 178 71 40 33
403 512 291 100 23 40
207 608 209 149 103 68
419 732 292 173 121 88
352 417 178 53 39 42
360 417 185 58 37 36
363 402 192 42 41 39
361 407 189 40 40 44
364 407 191 50 38 39
361 410 189 41 37 44
404 376 271 53 16 28
358 407 336 120 19 41
364 412 191 58 35 36
219 542 237 130 12 40
363 418 187 39 40 40
310 571 294 167 11 54
362 413 188 53 40 41
353 422 178 62 40 36
313 458 347 167 6 50
355 422 179 82 34 34
348 390 282 67 14 27
359 422 182 60 36 35
354 427 177 60 37 36
359 427 181 78 33 33
357 432 178 52 39 39
360 812 169 57 53 57
360 432 180 69 39 36
329 407 296 76 67 58
361 421 184 38 39 43
364 422 186 41 40 43
330 842 151 56 51 51
312 939 242 78 73 73
380 542 195 100 20 35
367 424 188 43 38 41
334 847 286 155 120 95
322 799 218 176 125 104
354 437 176 57 38 38
216 636 208 151 103 65
354 442 175 62 38 40
354 447 175 43 39 42
276 712 173 50 33 33
284 632 180 144 5 34
358 437 177 63 41 37
241 757 186 172 118 89
377 890 208 67 61 62
360 436 179 49 41 39
339 797 231 166 126 103
359 447 177 44 40 42
347 673 137 68 48 39
352 820 116 154 112 76
364 437 181 40 40 42
322 473 356 52 21 28
369 437 185 48 38 38
362 442 178 41 40 42
322 486 148 156 0 39
320 662 274 59 29 35
364 447 179 46 37 41
418 497 246 168 13 44
404 692 185 65 43 37
369 447 180 45 37 40
374 422 191 79 33 29
374 427 190 51 38 36
379 422 192 45 37 38
414 872 217 66 51 41
324 482 346 68 24 33
424 872 288 58 50 42
379 427 190 77 31 33
379 433 188 68 34 31
206 625 218 173 118 87
297 929 254 89 86 88
384 427 191 69 33 33
384 431 189 96 24 26
373 772 162 70 57 56
373 444 183 48 40 32
265 462 306 111 28 43
370 441 184 69 37 39
374 442 184 65 34 33
384 434 188 68 30 27
384 437 188 51 36 37
356 601 320 192 137 113
379 442 185 55 36 35
359 933 221 85 79 79
341 439 343 123 32 51
384 442 187 63 37 36
400 667 201 73 31 35
384 447 186 54 34 38
391 884 220 67 58 58
360 387 195 109 22 22
270 607 255 87 25 39
360 392 195 106 27 20
364 392 197 107 24 22
366 386 199 63 37 28
447 747 269 106 69 44
342 915 198 88 82 83
361 395 194 99 28 17
364 397 195 89 29 22
369 397 196 106 22 22
409 412 295 139 13 47
279 517 278 75 25 32
369 412 193 99 25 26
372 394 198 109 16 24
221 546 207 145 1 39
340 897 176 81 75 75
375 396 199 107 22 22
458 742 246 90 66 53
379 387 202 55 35 35
404 872 295 50 45 42
379 392 200 55 36 37
378 522 187 150 7 35
314 386 291 81 70 59
384 392 201 45 40 40
379 396 199 75 32 33
379 398 198 86 27 29
332 843 204 103 81 66
374 402 196 102 21 23
374 407 196 103 19 23
294 517 135 160 1 37
379 402 197 102 21 24
384 407 196 111 18 23
352 940 223 91 86 87
379 411 194 80 32 24
431 819 264 41 37 36
330 537 171 128 13 37
285 406 338 125 96 66
379 413 193 77 36 29
384 412 195 84 30 26
381 415 194 47 40 30
331 844 148 61 55 52
384 422 193 43 37 39
249 517 257 74 24 37
427 427 246 96 26 38
324 452 141 68 29 35
322 456 138 62 33 41
451 671 220 80 57 42
324 457 141 69 31 37
321 462 139 131 26 43
350 939 220 85 80 81
342 436 345 78 15 34
271 258 304 91 70 44
326 457 150 90 22 35
327 452 156 39 34 36
359 502 176 47 38 40
280 662 240 100 14 37
308 764 228 73 58 51
326 462 146 64 30 31
327 462 151 98 22 34
385 617 316 152 109 75
222 564 214 99 5 30
328 462 156 100 16 35
292 789 159 178 120 85
389 717 285 144 90 78
329 457 161 85 16 30
321 468 139 94 29 36
460 861 277 84 76 70
427 830 228 62 53 52
311 411 323 75 64 53
323 467 141 90 30 35
289 488 311 85 29 40
256 304 309 73 50 34
323 472 142 112 15 37
322 476 143 161 8 39
378 852 187 67 61 62
326 467 146 47 33 38
316 893 161 97 86 82
325 472 146 63 28 35
324 477 146 149 6 38
326 478 150 136 7 34
378 688 288 101 45 46
327 477 152 120 11 33
404 827 235 29 26 25
329 467 161 101 11 33
463 694 280 96 73 51
329 477 156 119 7 33
381 528 318 63 19 31
330 477 161 117 3 30
330 452 166 121 4 32
350 417 346 87 24 37
331 457 166 122 4 31
334 452 171 126 8 30
286 867 251 143 105 90
334 457 171 130 5 33
322 487 350 69 15 32
313 462 386 110 9 36
331 462 166 119 1 30
430 412 216 83 36 39
422 801 198 66 50 45
334 462 171 124 7 32
265 692 236 114 20 41
334 467 171 130 8 33
251 780 173 173 115 82
331 477 166 108 14 35
278 267 326 132 99 69
331 474 169 76 21 35
344 452 174 120 11 31
402 495 203 38 41 39
344 457 175 132 2 29
337 462 173 72 26 28
344 462 175 102 16 30
304 491 320 62 31 36
343 940 269 88 85 86
349 452 174 72 29 39
339 467 175 75 27 33
344 467 176 58 31 35
242 758 197 179 127 99
329 531 355 192 128 103
349 467 175 92 25 33
396 780 269 146 114 92
325 482 151 142 0 31
396 656 205 46 32 36
327 413 310 70 61 53
333 828 180 55 48 47
324 487 151 146 0 34
327 480 153 133 0 34
326 483 154 139 0 36
345 487 391 99 48 48
321 489 149 155 0 34
288 561 148 68 32 38
323 492 152 147 0 33
328 492 157 131 2 30
399 762 170 54 46 44
328 497 157 97 20 34
344 857 161 48 40 43
276 264 309 105 78 51
268 552 150 88 22 38
374 787 166 56 49 50
329 482 161 126 1 33
324 512 156 78 27 36
327 507 157 122 21 42
341 423 355 94 1 29
289 434 371 92 31 36
327 512 158 54 34 36
280 491 291 179 0 54
329 507 161 63 31 38
428 687 280 143 102 68
355 384 270 70 16 27
331 482 166 116 5 28
259 342 274 91 64 47
293 397 330 121 96 67
332 482 168 117 6 34
324 527 161 135 12 38
436 387 221 71 31 35
332 487 167 121 3 27
334 482 171 110 14 34
349 867 177 69 66 68
373 606 324 183 127 98
335 487 170 124 2 27
331 492 165 124 2 34
281 694 254 154 13 49
331 497 164 83 24 36
333 502 166 82 30 38
429 686 261 94 73 52
331 512 165 97 25 37
340 487 175 131 7 30
319 518 376 196 135 114
258 619 232 54 26 30
344 482 175 79 29 32
339 492 175 117 9 30
337 497 173 128 10 31
327 813 170 56 47 44
425 457 251 82 20 35
332 505 334 47 14 34
340 497 175 133 4 28
349 487 175 80 28 35
265 552 265 154 10 47
349 497 175 93 27 35
344 492 176 110 12 30
320 772 235 45 38 38
337 501 173 91 15 28
339 502 176 128 6 31
337 506 173 73 24 29
372 400 324 46 25 21
349 507 176 82 27 34
349 512 175 91 25 32
344 502 177 67 25 34
286 861 259 169 117 103
390 617 241 107 24 40
373 739 278 71 60 55
362 410 329 86 17 32
354 453 173 43 39 41
287 540 138 53 28 39
441 742 195 56 44 37
290 436 361 115 25 44
359 452 175 44 38 41
294 757 151 143 99 64
354 458 174 60 32 36
364 452 177 97 29 36
404 861 216 65 56 54
376 471 332 139 7 42
369 452 179 79 30 33
368 457 178 130 5 29
368 462 178 136 2 32
271 610 254 142 16 46
354 467 175 80 29 33
359 467 176 125 10 31
359 477 176 122 15 32
364 467 177 137 2 29
364 472 177 134 4 33
368 467 178 137 1 30
329 562 305 136 8 43
368 472 178 139 0 34
367 476 178 137 1 33
366 479 179 133 12 29
374 457 180 130 6 31
374 462 180 135 3 31
300 910 198 84 75 74
235 582 206 95 22 35
343 481 371 67 26 30
378 457 183 133 4 28
381 452 184 97 23 34
381 457 184 133 3 26
416 492 273 146 13 44
381 461 184 138 1 31
330 542 305 131 0 38
414 762 290 193 142 112
384 462 185 138 3 33
374 467 180 136 0 28
379 467 182 136 0 31
382 464 183 140 0 31
382 466 183 139 1 32
386 743 154 60 48 42
260 482 269 98 15 37
384 467 185 134 2 30
379 476 183 141 1 31
268 723 168 104 83 57
382 474 183 142 2 35
363 722 148 55 44 41
382 476 183 143 2 34
384 477 185 135 7 30
354 487 175 56 35 38
226 589 233 118 85 75
388 537 305 66 24 34
329 851 205 84 71 60
359 482 176 61 30 36
419 747 292 186 135 101
284 907 266 101 85 76
354 497 175 79 31 38
359 497 176 112 27 34
364 482 177 114 16 32
364 487 177 91 26 33
369 487 180 132 7 32
329 582 176 75 31 36
289 922 256 83 79 81
364 492 177 84 31 37
334 837 146 66 58 55
364 497 177 88 29 38
368 492 178 68 27 33
354 502 175 55 34 38
364 502 177 65 34 37
367 502 178 104 25 32
206 622 216 175 120 89
367 507 178 120 25 38
370 492 179 91 24 33
399 412 197 113 13 24
370 497 179 74 32 39
377 484 183 140 1 31
245 562 177 151 7 34
383 552 201 83 35 42
309 707 257 147 14 49
379 482 184 142 2 32
422 382 204 119 19 26
332 759 243 75 60 56
288 872 241 155 119 95
384 487 185 143 6 32
305 647 264 126 21 47
377 497 183 64 32 38
380 492 184 116 9 29
383 607 216 80 30 36
337 558 331 194 135 115
380 497 184 71 31 37
344 666 146 63 42 40
409 422 196 130 11 30
384 497 186 117 15 34
374 502 182 82 31 38
394 378 281 66 19 24
329 934 278 71 67 66
378 502 183 69 32 37
284 897 271 182 138 117
380 502 184 80 30 34
428 684 242 116 37 44
409 846 261 37 33 32
323 477 336 164 0 49
220 537 183 85 31 36
384 502 187 116 19 37
377 510 183 139 14 46
464 731 265 92 74 61
363 627 286 165 102 92
380 507 185 72 29 34
172 528 235 189 126 101
379 512 186 133 13 36
383 507 187 82 28 36
331 810 143 83 69 59
342 415 333 76 28 33
382 511 188 89 11 31
324 502 415 171 122 108
384 512 190 143 9 35
333 847 197 47 42 43
317 495 385 104 81 70
328 671 159 52 45 42
389 377 206 64 43 40
399 377 206 87 31 28
320 664 145 69 46 39
303 804 208 59 48 46
362 885 109 101 87 76
389 372 211 94 35 37
449 906 271 82 71 61
284 592 165 118 29 40
424 700 229 80 48 36
294 797 212 54 44 39
389 372 221 95 38 37
267 724 223 152 31 51
414 377 206 126 17 22
265 652 220 104 34 45
404 372 211 138 11 15
402 374 208 159 5 12
409 372 211 152 9 13
299 707 257 186 9 59
409 377 209 118 19 23
206 531 192 44 35 39
401 527 287 168 11 50
404 371 221 104 22 19
410 381 209 115 15 23
410 374 208 164 6 12
414 372 211 142 12 14
412 379 209 117 9 26
313 789 155 72 58 49
394 372 226 96 27 27
399 372 226 98 24 23
392 496 314 43 28 28
394 373 236 91 31 31
394 374 241 82 30 31
259 277 297 74 58 37
399 373 241 83 26 28
394 374 246 71 29 28
354 857 172 63 61 64
263 438 333 88 18 37
393 375 247 67 28 28
399 374 246 72 29 27
394 375 251 61 23 25
396 374 249 64 26 25
399 374 251 62 24 24
409 371 231 102 19 27
239 737 181 167 111 83
392 688 168 52 38 38
404 373 241 84 22 27
264 262 296 77 61 41
409 372 241 87 19 27
394 667 303 187 129 101
318 872 176 55 50 50
414 371 226 110 19 26
404 374 256 58 23 23
281 470 324 43 27 34
403 375 257 57 20 24
409 402 200 111 15 23
419 786 281 199 139 112
414 373 251 69 28 27
359 511 339 78 29 36
419 373 206 156 10 12
386 480 323 28 29 30
419 377 204 125 15 23
379 602 211 81 28 33
335 782 140 65 56 50
358 472 361 161 11 51
419 382 205 113 18 25
429 377 205 143 16 23
428 382 203 130 17 24
280 440 344 61 29 34
430 382 204 133 16 30
261 302 331 122 81 56
368 833 135 73 63 60
419 371 211 141 12 16
309 562 292 133 7 42
424 372 211 144 16 14
257 311 335 116 81 56
424 371 216 128 20 21
419 371 221 115 18 24
353 422 335 153 12 50
429 372 216 144 19 24
435 376 210 163 14 31
372 674 151 68 51 41
434 372 216 155 17 32
314 932 216 86 82 86
437 374 216 163 16 42
438 377 211 150 17 44
410 837 205 80 64 57
434 372 221 140 17 33
438 377 221 159 16 48
437 381 211 57 31 31
296 523 139 53 29 31
331 828 157 48 43 42
437 382 216 106 25 38
275 346 301 84 70 55
437 382 221 134 21 43
436 384 221 90 26 36
424 371 226 117 16 30
419 371 236 104 12 29
269 397 343 129 98 65
429 371 226 119 16 33
414 872 241 74 55 54
271 372 338 123 95 62
429 371 231 114 14 34
429 371 241 102 9 31
424 372 251 81 21 26
424 372 256 70 27 25
438 377 226 148 16 44
438 377 231 114 20 36
438 377 236 123 18 40
438 377 241 108 19 36
367 561 188 68 26 34
350 831 82 100 88 77
436 384 226 115 20 41
438 377 246 115 18 39
434 372 251 117 17 35
322 698 272 104 36 45
377 710 289 179 12 55
434 373 256 121 15 37
435 818 235 73 57 52
437 374 251 152 14 39
319 767 235 67 54 49
438 377 251 144 14 44
437 374 254 153 14 40
436 384 251 122 18 38
374 467 326 127 11 43
389 427 192 89 28 31
391 487 318 170 10 53
394 427 193 113 16 25
394 432 191 121 14 27
212 538 239 108 0 30
389 437 189 79 27 30
388 442 188 50 36 39
388 447 188 72 28 36
390 441 189 104 29 33
289 432 356 77 35 33
399 432 192 124 10 25
412 492 226 63 28 36
399 437 192 123 7 26
394 442 191 127 9 28
399 442 192 124 11 25
425 442 241 47 27 30
305 921 212 73 68 69
279 814 186 195 126 101
389 387 202 46 38 40
389 397 199 42 39 41
274 357 331 114 90 62
392 891 85 110 88 66
316 940 264 63 60 62
389 399 198 47 40 40
399 392 201 78 29 29
377 453 309 96 12 34
394 397 200 72 31 31
413 482 221 53 28 33
399 397 200 107 22 22
389 402 197 61 36 35
392 860 198 70 60 59
468 731 241 75 55 41
389 412 196 101 21 24
389 417 194 93 27 23
369 597 326 187 131 102
393 632 272 81 67 52
394 402 198 85 28 32
394 400 199 88 32 32
385 471 317 115 1 34
374 880 104 151 123 90
394 407 198 107 21 21
400 408 199 109 16 27
275 512 275 80 28 37
404 388 203 89 28 30
404 392 202 104 21 26
266 258 299 80 63 42
409 388 203 103 22 20
260 646 204 84 75 74
409 392 202 103 22 23
404 397 201 102 21 23
309 682 156 81 40 41
261 455 314 108 26 43
429 827 276 40 35 32
409 397 201 104 22 23
333 517 316 87 21 37
406 879 212 71 61 55
402 875 256 85 66 59
404 405 199 112 16 24
235 572 201 63 30 35
404 407 198 112 14 24
235 572 196 64 30 34
314 482 406 113 12 39
409 407 198 112 15 23
404 412 198 116 14 27
410 402 297 55 27 29
393 567 280 147 10 47
409 412 198 119 15 28
409 417 197 128 9 27
337 554 338 201 141 118
407 820 233 31 27 26
309 467 381 75 12 30
410 405 199 111 9 24
412 408 198 114 5 25
410 413 199 125 14 27
410 415 199 129 18 22
368 873 124 85 75 69
414 412 199 132 12 30
369 812 240 150 119 93
374 562 301 64 25 32
388 418 193 61 35 27
386 422 194 48 36 39
386 822 174 84 69 66
439 897 265 116 102 93
389 422 194 46 36 39
319 767 137 81 65 53
333 604 288 121 18 44
423 863 240 68 54 51
392 424 193 87 25 33
396 426 194 118 10 25
363 712 142 64 50 43
360 872 273 109 82 65
399 427 195 123 9 24
398 429 193 123 8 21
400 431 194 125 7 31
299 372 271 62 52 43
404 422 195 124 13 26
343 417 336 63 21 27
344 407 311 66 42 38
404 427 195 125 10 28
404 432 195 125 8 27
257 380 272 98 65 52
409 432 196 134 10 29
415 422 199 104 18 32
219 537 237 142 14 46
415 427 200 94 31 43
412 431 198 143 14 38
341 876 153 91 81 79
326 847 208 121 96 76
402 434 193 117 0 25
361 880 121 88 75 71
227 538 243 115 27 45
405 436 194 129 7 29
409 437 196 136 12 36
404 442 193 131 8 27
406 442 194 137 10 34
409 447 197 136 14 35
412 437 198 106 22 35
411 448 199 145 15 40
412 440 198 50 27 26
321 526 304 40 28 32
266 805 173 215 147 117
414 442 201 50 31 34
264 732 217 125 70 59
413 447 201 145 15 37
259 372 345 126 97 64
419 386 204 114 15 23
349 837 146 78 68 59
359 537 326 64 45 37
420 388 203 115 12 24
424 392 202 123 15 27
284 571 153 186 7 41
428 391 203 100 22 27
329 662 156 62 45 40
431 387 204 128 11 31
427 397 203 90 25 30
419 407 201 131 11 30
419 417 201 148 13 35
420 822 210 76 63 59
426 404 204 78 35 40
428 407 206 103 23 39
425 412 205 151 14 31
359 427 327 143 12 46
428 412 207 151 13 37
391 655 199 42 45 48
344 902 304 61 56 56
427 416 208 153 14 39
337 484 404 127 104 81
287 499 288 32 27 30
431 403 210 74 34 35
431 408 216 70 31 37
328 532 335 150 96 83
433 777 280 189 129 104
369 897 297 56 50 47
345 465 367 108 8 34
428 417 211 85 23 33
431 412 221 55 31 33
391 715 159 50 38 36
357 648 177 80 36 33
397 510 203 48 32 32
433 392 207 116 21 37
432 396 208 49 33 34
434 392 211 117 19 38
428 427 221 77 31 39
434 397 216 55 34 35
269 412 345 145 106 84
434 397 221 66 31 37
432 402 211 90 32 41
433 402 221 60 33 35
431 412 226 62 32 34
284 802 166 192 130 97
414 832 252 31 28 27
484 909 267 115 94 74
431 409 231 77 25 38
329 567 175 61 31 36
267 339 315 95 77 56
326 825 198 170 118 88
430 417 226 57 33 36
305 537 290 73 28 36
431 417 231 88 30 40
389 732 148 69 54 47
431 409 236 67 30 31
309 392 311 104 85 65
431 408 251 52 30 31
431 408 256 109 22 38
431 412 246 100 26 39
327 804 153 52 46 43
431 412 256 97 25 38
430 417 251 87 24 33
343 427 360 114 17 39
429 417 256 143 17 44
299 416 332 97 79 58
345 678 289 142 13 45
435 392 231 72 32 33
318 513 307 118 26 46
436 392 226 88 26 35
292 517 283 50 28 31
435 392 236 120 23 42
436 387 241 87 27 36
399 782 181 65 53 50
404 652 266 80 67 54
236 721 200 179 118 94
435 392 241 131 21 42
352 594 306 177 123 106
436 384 236 96 30 34
384 382 306 58 27 25
384 762 160 62 51 47
388 906 276 69 60 55
436 384 241 77 28 32
369 853 117 92 78 69
434 397 226 71 32 37
434 397 231 78 30 37
436 387 246 82 29 35
435 392 246 82 24 32
434 392 251 80 26 36
325 797 141 79 65 55
434 397 246 139 16 43
279 572 275 157 9 48
265 297 321 98 67 42
433 397 256 79 27 34
259 267 344 124 95 61
376 587 205 116 19 33
433 402 226 93 27 42
432 406 226 136 22 47
239 582 201 108 19 36
432 402 236 108 22 39
432 402 241 114 18 38
249 657 192 106 81 49
314 582 292 163 19 55
395 807 180 65 56 57
432 407 236 98 25 39
432 407 241 86 27 36
324 481 407 70 36 32
272 284 259 112 83 56
399 467 192 66 27 35
432 410 238 69 37 33
275 268 310 105 76 50
395 492 195 148 12 38
432 402 256 59 29 35
432 406 251 38 32 32
329 491 381 68 44 46
421 422 204 40 32 32
417 432 202 59 33 37
420 432 205 96 31 39
423 427 207 38 34 38
279 392 337 120 94 62
424 432 211 85 29 36
376 868 275 29 27 26
349 482 356 92 30 42
277 306 259 111 80 60
426 419 209 159 25 48
457 674 228 68 52 41
426 423 210 101 24 34
430 422 221 133 20 41
427 425 213 151 15 37
425 432 216 88 30 38
427 431 221 62 34 37
322 445 339 60 49 39
417 436 203 40 36 38
348 945 255 67 64 65
419 437 206 70 32 35
416 442 204 95 23 37
238 712 185 140 96 66
229 577 237 33 26 28
424 437 216 101 25 36
277 598 268 150 18 51
418 447 211 160 18 42
279 463 327 69 28 36
438 707 276 151 107 73
421 443 215 93 21 30
269 737 162 103 82 55
359 727 285 105 24 41
234 672 195 130 94 59
422 440 213 136 35 58
389 492 321 118 14 40
422 441 217 86 26 36
421 448 220 161 15 43
422 445 218 105 21 29
425 437 221 63 31 35
382 599 288 99 79 54
381 592 215 42 31 37
430 422 231 89 28 37
429 422 241 69 31 36
261 666 200 64 53 41
276 486 290 182 1 55
388 659 186 77 49 44
427 432 226 54 32 34
324 842 166 43 38 37
428 427 226 42 33 35
428 427 231 51 32 33
289 642 178 90 24 31
427 431 241 77 26 32
389 462 188 130 9 30
449 752 206 65 49 41
427 422 256 168 13 47
426 428 252 151 14 42
426 427 255 160 13 44
426 432 251 151 15 45
422 753 172 69 57 50
350 465 363 110 2 34
340 407 296 63 41 37
426 432 255 146 17 46
424 752 176 60 50 47
423 447 226 70 25 33
289 792 213 52 45 43
410 487 216 52 29 35
426 437 226 75 28 33
369 582 196 48 32 38
427 435 231 140 27 44
427 435 235 145 20 45
424 447 241 167 14 47
426 437 246 161 17 48
425 447 246 156 14 42
362 597 193 71 37 38
425 447 251 108 16 37
426 447 255 80 20 33
390 452 189 124 10 27
391 456 189 129 8 28
394 452 190 126 7 27
328 667 135 72 56 47
424 852 261 55 47 49
399 452 192 132 7 30
399 457 191 134 8 29
354 787 157 57 48 48
399 462 191 124 14 32
424 882 266 68 57 52
258 282 301 74 57 36
389 467 187 131 6 30
389 762 272 54 47 46
398 837 193 57 51 53
389 472 186 138 6 32
389 477 187 115 14 33
265 532 136 114 20 40
395 472 190 55 33 36
348 776 152 73 58 55
398 472 192 44 33 38
392 477 188 137 17 38
389 482 187 77 22 34
386 499 189 145 9 30
386 503 189 138 14 39
469 694 281 92 72 52
388 507 192 142 10 37
384 658 176 110 62 44
408 452 197 151 13 37
405 457 195 147 12 35
408 457 197 152 14 36
348 432 336 67 24 31
239 742 181 170 114 86
349 627 280 151 13 47
402 462 193 146 11 32
410 452 200 159 15 39
410 457 201 161 16 41
310 682 269 74 29 36
412 452 202 161 15 38
344 636 279 164 16 53
413 457 206 161 15 39
307 494 318 62 28 28
309 720 254 35 28 31
412 461 207 162 15 41
415 457 211 164 15 42
416 458 215 160 12 45
409 787 276 178 129 106
406 468 199 149 13 36
405 472 200 119 19 36
325 432 322 65 55 44
408 472 206 88 25 34
344 622 282 134 15 43
309 562 160 155 1 35
402 476 198 98 29 34
309 806 167 93 70 60
310 487 405 104 9 34
405 477 201 87 30 38
239 606 229 84 49 46
406 478 205 84 36 41
400 767 280 187 139 111
410 467 206 107 22 36
411 464 209 158 18 32
412 467 212 88 23 34
344 477 395 136 88 79
298 498 307 140 27 51
414 467 216 106 20 37
412 471 213 38 37 38
413 472 216 68 29 35
416 467 221 166 14 45
256 796 204 194 142 117
489 916 271 97 80 65
279 502 277 142 2 42
379 692 141 53 44 35
415 472 221 137 14 38
410 477 211 94 30 39
414 477 221 137 18 41
313 503 391 175 120 108
354 522 177 61 34 36
397 480 193 55 36 30
399 482 196 77 31 36
395 882 271 55 47 41
422 472 248 108 20 36
397 487 305 106 15 36
349 657 165 83 47 33
296 668 168 120 24 33
350 866 278 139 107 82
392 496 193 153 10 40
394 497 196 154 11 38
371 447 313 113 35 50
391 503 194 152 11 39
387 511 193 127 17 34
390 507 195 127 13 35
227 563 191 68 31 34
320 582 295 186 14 59
389 512 196 57 29 32
393 502 196 153 11 36
400 502 205 75 31 38
338 805 133 91 71 54
393 507 197 123 17 35
394 512 201 89 31 37
304 482 386 59 24 30
397 507 203 87 35 39
401 484 199 45 32 22
401 488 200 73 29 38
318 604 283 174 24 56
292 499 297 81 28 36
349 602 185 81 24 32
278 266 312 114 84 55
403 487 202 74 35 37
405 482 206 46 34 38
407 481 208 39 37 36
405 487 206 58 34 37
406 484 209 38 34 40
442 694 228 46 39 31
256 455 279 170 0 51
407 492 213 41 35 39
408 492 216 54 32 35
443 708 208 79 60 43
405 497 211 84 34 41
411 488 220 120 23 40
410 492 221 92 34 38
289 468 328 168 1 52
401 498 204 118 26 44
426 845 220 68 57 57
359 747 267 81 64 59
405 502 216 91 33 38
425 813 210 77 64 57
413 441 284 98 15 36
407 501 218 117 33 44
239 552 177 93 24 35
359 707 293 49 30 33
408 502 221 74 30 36
258 623 227 87 33 41
459 742 261 72 55 43
406 504 219 45 25 30
401 508 210 45 38 38
364 812 242 153 119 92
390 552 211 43 31 34
404 507 216 86 36 40
407 507 222 68 26 32
405 512 221 79 32 38
334 912 196 94 86 88
407 511 223 137 37 54
414 482 226 46 30 33
414 492 231 65 28 38
296 445 378 65 24 24
412 495 228 40 31 39
348 769 248 152 121 105
391 660 183 72 54 40
341 566 330 197 137 114
412 497 231 69 32 37
416 487 236 162 16 41
415 492 236 88 20 37
191 575 223 173 118 89
411 502 230 78 32 38
412 502 232 48 35 35
260 527 264 138 13 45
416 497 240 165 14 42
237 717 186 150 101 71
413 502 236 51 31 37
411 512 236 163 17 45
412 507 236 41 33 35
352 400 326 63 17 23
414 507 241 41 29 35
399 652 301 161 109 77
416 507 251 151 18 42
414 512 251 60 27 35
340 471 377 94 3 33
416 449 209 167 16 40
417 452 212 166 18 45
362 668 134 78 58 43
437 790 208 71 57 55
417 456 217 160 10 43
422 450 223 160 14 37
417 462 221 164 13 44
416 463 220 166 15 43
293 923 282 63 57 55
417 466 223 168 15 42
264 507 267 147 6 44
269 810 177 220 141 112
419 457 226 168 14 45
384 617 271 70 46 36
384 886 83 96 85 74
422 451 226 111 12 34
422 451 231 164 14 47
421 454 231 170 13 40
398 845 252 33 29 29
422 452 236 168 13 44
421 454 234 169 13 44
429 707 286 164 111 77
421 457 236 165 13 42
418 462 226 167 14 45
434 876 262 103 86 69
420 462 236 158 9 45
326 854 201 56 50 48
421 462 241 157 11 42
237 727 186 163 109 81
423 457 246 151 12 43
384 657 181 86 48 34
422 461 242 160 13 42
237 563 238 142 17 49
421 463 244 155 13 35
424 462 251 55 27 33
426 452 256 75 25 32
317 440 349 59 46 37
426 457 256 48 32 35
285 627 260 86 21 36
331 894 179 84 74 72
349 407 341 60 18 25
302 890 204 60 52 51
309 822 267 155 115 95
418 467 231 165 13 43
267 647 194 64 36 35
418 472 231 164 13 45
419 472 241 149 13 39
341 424 342 67 6 25
417 476 232 166 14 44
411 675 240 118 29 37
421 467 245 158 13 40
370 696 137 62 48 42
314 457 376 141 13 45
254 652 222 161 111 100
421 472 245 92 21 35
343 407 306 65 41 37
424 472 251 107 23 37
276 730 239 156 45 69
262 629 227 104 12 33
263 527 136 71 27 36
421 477 245 43 29 34
423 477 251 49 33 34
425 467 256 47 34 33
292 469 328 164 0 49
334 452 356 137 13 43
425 472 256 52 34 32
424 477 256 50 33 35
416 492 239 138 14 41
310 828 232 103 78 50
274 377 337 122 95 63
422 482 248 56 36 31
264 492 268 149 5 45
468 737 266 93 76 64
424 482 256 58 30 34
338 634 278 158 22 54
421 488 250 111 21 41
348 589 293 52 30 30
419 492 246 164 13 40
409 722 174 58 46 38
421 493 256 167 13 46
