ply
format ascii 1.0
comment Created by Open3D
element vertex 2219
property double x
property double y
property double z
property uchar red
property uchar green
property uchar blue
end_header
254 843 274 196 133 103
307 641 327 74 43 46
449 499 297 148 107 91
267 294 278 75 63 52
381 594 276 173 13 55
268 298 274 76 65 54
269 303 279 70 59 47
229 813 304 43 36 36
266 296 281 73 62 52
264 298 289 68 56 42
478 888 253 109 90 75
268 308 269 71 60 49
270 313 279 66 56 45
270 318 274 67 56 45
402 462 271 51 22 25
270 318 284 64 55 46
339 733 325 175 9 57
304 323 269 85 74 63
283 304 271 102 84 67
180 632 250 168 112 76
325 845 227 93 70 59
279 293 289 89 73 57
246 648 322 47 25 30
280 293 285 132 107 84
242 841 312 128 101 74
459 483 279 106 71 58
278 303 284 116 90 72
280 304 279 127 98 81
195 698 287 148 105 78
361 657 257 61 28 35
357 461 302 127 16 44
204 778 310 157 121 91
270 713 231 149 6 39
282 292 282 123 102 81
281 289 285 123 102 81
284 298 279 94 78 61
289 298 278 79 67 54
288 302 277 78 66 54
289 304 276 79 68 56
222 754 242 55 47 47
282 296 282 118 96 80
277 318 268 119 97 79
462 849 328 97 87 79
276 318 270 119 96 79
269 418 306 60 42 27
284 308 270 89 74 59
283 313 269 81 67 51
244 943 354 53 50 51
287 310 271 75 64 53
197 713 291 148 107 79
279 488 316 33 27 27
207 790 311 157 122 95
422 436 295 83 11 32
300 275 327 100 83 65
287 311 271 75 63 52
404 608 235 131 100 63
282 315 266 88 70 51
280 305 274 124 95 80
226 895 326 56 52 52
276 310 277 123 98 81
276 314 279 108 89 75
402 476 286 84 17 28
277 312 279 113 92 79
293 472 316 76 14 28
277 308 283 103 87 78
354 728 324 169 11 56
319 373 327 135 97 70
276 309 285 88 76 67
276 308 289 79 63 46
221 648 259 108 54 49
252 887 274 58 53 52
277 311 282 101 88 81
275 313 289 79 63 46
278 713 227 132 14 37
276 318 279 100 82 67
274 353 269 66 58 50
285 307 274 82 68 53
339 693 229 97 23 27
418 768 204 107 79 55
289 317 273 77 65 54
257 295 292 71 57 42
429 483 269 44 31 34
258 298 293 70 56 39
265 303 290 64 50 33
263 304 292 66 51 33
259 308 295 70 55 38
264 308 293 64 51 34
259 844 269 180 123 95
256 306 296 76 61 42
236 801 246 77 62 58
319 708 222 115 20 32
444 438 324 169 14 55
257 309 297 78 63 45
304 718 222 95 27 33
263 319 297 67 48 29
183 552 236 134 88 67
323 587 336 120 19 40
269 318 294 66 54 42
270 586 216 175 17 48
278 293 294 88 72 55
278 293 299 100 80 59
320 800 388 69 56 45
280 293 304 113 90 66
332 457 343 31 26 30
286 737 226 146 13 41
439 528 274 195 132 104
277 297 293 86 70 53
454 868 209 104 85 67
276 303 294 89 71 52
389 493 284 93 11 31
279 298 304 116 90 67
250 606 236 151 26 41
276 302 302 115 87 66
278 303 304 121 92 69
314 908 294 81 72 72
254 688 333 63 26 33
328 373 260 106 91 75
281 298 309 118 91 65
281 290 307 116 92 65
189 578 235 136 99 72
334 648 238 95 24 29
281 293 308 117 92 65
387 673 226 116 87 55
282 292 310 117 91 64
283 293 314 115 88 61
283 298 319 108 80 54
391 540 314 110 26 45
274 848 263 151 107 87
281 304 313 118 87 62
282 302 315 116 85 59
367 752 297 78 55 52
275 313 294 92 70 53
475 483 279 181 121 106
277 305 294 90 70 52
240 733 328 167 17 53
322 447 337 63 11 26
276 308 294 92 70 52
363 488 279 31 23 24
276 308 299 103 78 58
275 313 299 102 76 59
244 932 373 58 55 56
277 305 301 113 86 66
324 883 269 65 56 55
275 318 294 93 70 53
334 708 331 83 22 37
275 318 299 102 76 58
276 318 302 104 79 60
366 765 186 73 57 49
277 318 304 107 80 60
279 308 309 118 88 65
343 851 246 72 59 54
279 313 309 113 85 62
503 904 259 89 83 77
280 318 319 119 89 63
282 308 319 112 81 56
281 313 319 115 85 59
282 312 320 115 86 59
299 328 269 84 73 62
429 443 328 127 13 38
362 688 289 141 10 44
367 522 230 101 22 33
290 258 270 110 85 56
290 262 271 106 82 58
294 258 268 119 89 60
285 800 306 123 90 71
248 537 354 36 27 28
274 808 305 135 99 79
296 267 271 115 84 55
299 258 265 125 90 57
303 258 263 128 94 59
384 623 258 104 68 54
270 509 322 69 23 33
296 256 266 123 90 60
279 453 310 32 25 26
297 259 267 122 88 57
300 262 266 125 90 58
299 273 270 120 85 55
192 712 286 151 105 76
288 836 359 52 46 42
288 258 284 93 75 54
290 267 275 103 82 60
294 268 274 103 78 53
295 273 274 99 74 50
293 269 278 96 76 55
364 553 334 73 21 32
293 273 278 89 71 52
309 928 354 56 49 45
382 482 266 54 20 26
200 669 282 130 97 74
297 270 272 114 83 54
304 468 354 104 6 35
300 278 270 116 83 54
304 278 268 124 87 56
289 278 276 89 74 59
379 858 324 76 66 62
291 289 276 78 66 52
277 595 222 28 37 37
294 283 275 85 68 49
244 559 350 189 18 61
261 423 310 64 49 30
203 538 214 198 9 51
294 288 276 84 69 53
289 609 227 49 36 39
375 515 293 47 25 26
292 286 277 77 64 50
366 564 247 131 6 31
298 278 272 107 78 52
303 285 272 114 80 52
304 288 273 107 80 52
309 258 259 133 97 62
306 262 261 131 97 60
415 453 304 52 18 29
330 888 329 58 52 50
169 573 239 158 112 80
308 264 262 131 95 59
399 518 329 132 26 50
394 643 259 148 101 80
309 273 264 130 93 61
342 851 364 56 50 47
314 256 256 138 98 66
319 256 256 144 101 69
319 263 260 142 100 68
314 266 261 135 97 64
314 273 264 135 96 65
319 266 261 139 99 67
383 598 264 105 29 44
493 859 328 114 97 82
306 276 266 126 89 58
222 523 331 42 26 27
279 583 334 143 20 48
309 277 266 128 92 61
347 409 294 113 89 61
309 279 267 129 92 62
306 286 271 117 85 54
314 279 267 135 97 65
200 812 280 217 144 115
407 818 348 85 67 50
318 276 266 137 95 64
319 282 270 132 95 63
317 286 271 122 92 59
367 694 273 151 11 45
320 284 272 122 91 61
203 790 257 181 119 88
252 886 279 51 47 47
291 259 303 110 89 67
333 267 270 141 97 66
292 257 305 110 90 68
294 258 309 109 89 68
332 430 357 159 20 54
295 264 313 108 89 68
289 268 309 108 87 64
309 832 310 69 58 49
292 266 311 110 89 68
398 777 189 106 78 61
394 578 259 59 48 41
299 258 313 108 89 69
433 473 269 78 24 35
384 803 363 54 45 39
304 258 315 107 87 67
332 349 280 108 89 69
276 540 354 153 15 51
304 263 319 102 85 66
380 860 334 75 64 56
330 278 304 126 98 64
254 623 329 81 27 35
265 524 354 76 16 28
315 884 380 43 38 36
305 260 317 108 89 68
272 340 260 71 62 53
291 275 317 107 87 65
292 276 320 104 85 63
309 259 317 110 90 67
422 586 267 184 122 99
312 260 317 109 86 59
316 261 316 113 87 56
319 258 314 119 93 61
239 853 309 150 112 82
362 464 289 104 7 32
289 328 333 135 96 76
414 826 352 76 62 49
318 268 318 120 93 61
294 398 319 130 94 78
264 887 260 81 68 65
291 293 276 79 66 54
294 293 275 82 68 53
360 789 183 78 60 48
291 296 276 79 67 55
294 303 275 81 70 59
304 293 273 98 78 53
380 852 309 69 58 55
299 303 273 80 68 56
296 314 271 82 71 59
299 313 271 81 70 59
309 603 224 117 24 39
425 546 282 173 118 97
304 318 270 84 73 61
294 308 274 81 70 58
387 546 327 194 7 62
294 313 272 81 69 58
428 451 327 45 26 30
327 576 331 122 9 34
271 338 289 64 54 46
293 317 272 80 69 58
299 311 272 80 69 58
288 588 332 166 12 52
347 410 275 102 84 64
304 308 272 81 70 58
304 458 359 92 16 32
302 311 272 81 70 58
292 487 358 29 27 30
310 291 271 108 85 58
404 594 240 123 96 64
399 818 354 78 62 49
308 289 272 110 86 57
309 293 272 106 84 58
206 536 206 194 12 49
227 774 242 72 58 52
366 478 266 27 23 24
309 298 273 98 79 59
309 303 273 89 75 59
319 293 274 104 83 59
314 298 273 98 79 58
448 480 305 152 97 90
314 303 273 91 76 59
226 863 342 145 103 87
434 505 265 138 79 52
305 310 271 83 71 59
308 310 271 85 73 60
294 303 338 123 92 68
294 813 238 82 64 57
308 313 271 85 73 61
309 318 270 86 75 64
249 950 344 72 68 68
312 319 271 88 76 65
464 493 269 201 140 121
336 460 330 153 17 55
311 316 272 88 76 64
274 663 332 161 14 51
327 467 343 167 14 52
314 308 273 89 76 62
314 313 273 88 76 64
402 798 233 81 58 46
314 318 273 89 78 66
318 318 275 92 80 68
288 288 324 105 84 60
269 338 299 79 60 46
286 289 323 104 82 58
225 913 364 76 70 68
290 288 329 106 85 62
288 293 330 109 88 63
284 298 324 110 84 58
304 466 316 103 0 29
316 308 326 129 96 65
283 303 324 119 86 61
339 413 313 129 96 67
285 298 329 117 92 64
284 303 329 127 93 68
367 703 299 97 22 39
286 300 332 118 91 63
385 563 284 90 24 37
289 303 335 124 93 69
274 393 289 97 72 61
283 308 324 120 86 62
298 546 196 171 7 39
284 308 329 130 92 71
282 313 324 120 88 63
284 313 329 128 91 69
289 308 335 133 97 76
286 312 332 131 93 73
282 324 261 73 60 46
281 315 322 119 88 62
282 318 325 123 88 66
265 518 373 119 21 40
284 318 329 127 91 70
336 418 316 132 98 73
287 320 331 130 94 73
298 473 383 136 15 45
357 592 318 189 6 60
289 318 334 131 93 73
254 523 193 61 36 39
232 820 258 78 63 56
300 270 322 98 83 67
304 272 325 104 85 66
295 274 323 101 83 65
379 822 349 52 39 29
294 278 324 105 86 66
367 611 256 135 17 30
295 279 328 104 86 68
324 739 326 108 31 44
291 284 327 108 87 65
292 491 326 105 10 35
293 287 331 105 86 64
294 288 333 107 85 62
231 936 336 63 58 59
419 533 259 114 60 43
304 283 330 112 90 65
369 483 259 36 22 23
303 284 332 110 88 64
498 893 236 99 89 79
304 288 333 115 89 62
312 270 322 117 93 66
315 272 321 119 93 62
454 503 269 194 130 107
254 844 362 109 88 70
179 518 234 85 47 46
358 668 250 74 27 31
310 277 326 119 94 65
308 279 327 118 94 66
222 683 295 89 28 38
309 283 329 125 96 64
299 438 384 59 26 30
330 885 272 86 75 71
311 281 326 127 99 65
360 643 279 164 18 52
306 286 331 120 94 65
207 800 262 186 123 91
353 483 297 132 14 41
307 289 332 123 95 66
278 513 349 88 19 34
380 809 214 87 65 55
316 278 321 120 93 60
317 280 322 119 92 56
317 283 322 122 94 58
317 288 322 125 93 61
285 493 323 99 8 32
290 293 333 111 89 65
291 290 332 107 86 62
279 763 319 65 54 47
354 443 314 97 19 35
226 915 311 67 63 62
369 763 294 55 46 45
430 823 320 97 76 51
299 293 336 112 86 62
304 293 335 113 89 61
274 533 193 53 34 38
370 688 229 108 85 62
291 304 337 124 92 70
292 301 336 115 87 64
299 298 337 116 89 65
348 618 309 131 22 48
276 328 269 83 72 62
301 296 336 113 89 64
305 297 336 117 90 63
274 358 279 68 56 48
291 312 337 135 95 77
264 398 306 116 77 60
269 598 334 31 27 30
294 308 338 135 97 76
294 318 337 136 95 76
394 603 264 120 79 65
324 483 319 60 25 30
304 308 337 137 92 71
308 293 333 114 90 61
189 658 253 138 93 60
309 303 334 130 92 67
417 759 199 92 70 54
311 296 331 117 90 57
206 611 284 71 32 38
318 293 323 121 91 57
314 298 329 123 90 60
278 358 309 116 84 65
316 298 326 120 91 58
314 303 329 128 92 63
320 298 320 124 94 60
480 463 279 147 73 68
353 433 304 95 19 35
426 430 317 42 20 37
452 446 294 160 10 50
222 728 247 94 18 28
318 303 324 126 95 61
306 303 336 133 91 67
428 481 297 95 27 38
309 308 334 131 93 67
294 353 264 84 73 61
361 502 281 60 14 23
305 313 336 134 91 68
311 308 331 127 92 64
308 318 333 129 90 65
395 693 259 161 112 83
314 313 328 127 93 62
419 823 334 94 73 54
319 318 324 128 94 64
383 617 238 105 85 62
270 509 370 52 28 32
316 318 326 127 93 62
270 323 259 69 59 50
376 775 155 93 67 38
301 479 328 111 1 35
220 913 354 55 52 52
270 323 264 68 58 48
270 328 259 68 59 50
199 623 237 153 109 75
296 509 348 171 5 55
270 323 269 66 56 46
319 638 233 110 21 34
271 328 269 67 57 48
271 333 264 68 58 48
188 693 280 155 107 79
291 463 387 149 16 45
274 403 289 91 67 55
384 821 236 85 66 59
222 663 264 87 50 44
358 453 304 55 22 27
278 780 311 57 48 42
270 323 279 66 56 47
270 328 284 66 56 48
271 333 274 68 58 49
294 762 317 66 55 50
269 663 240 138 13 37
293 433 310 126 95 78
271 337 263 69 60 51
329 578 334 128 12 39
271 336 269 68 59 50
458 428 289 81 21 30
271 336 279 67 58 49
331 274 273 135 94 65
279 323 260 80 66 55
244 895 401 59 54 54
379 670 262 111 78 61
279 320 261 85 69 57
279 328 259 71 61 51
276 328 261 70 60 52
286 338 267 72 59 46
276 328 264 76 66 58
276 323 269 103 85 71
335 873 324 58 50 46
373 713 269 130 18 43
277 321 267 108 89 74
210 618 264 61 38 37
279 333 260 70 60 52
456 434 294 106 19 37
275 333 269 73 64 56
234 554 203 76 33 39
212 626 241 127 95 64
283 323 264 72 59 45
446 826 337 90 82 76
384 858 324 78 66 59
285 328 263 70 58 44
388 553 251 40 32 37
289 328 269 80 68 56
349 568 224 139 0 36
284 333 264 69 57 45
288 334 266 78 63 50
289 333 269 82 70 57
402 673 244 167 113 83
275 328 279 80 66 54
415 504 265 82 17 27
275 323 289 83 63 48
274 328 289 87 65 51
274 333 284 83 64 51
282 634 237 119 38 51
407 738 186 86 67 55
385 505 293 45 26 30
274 333 289 88 65 52
274 338 264 68 60 52
271 388 259 67 56 46
274 343 264 68 59 52
279 338 260 72 62 52
324 548 202 109 32 41
411 494 325 140 22 50
274 338 269 68 60 52
404 573 268 91 58 47
283 917 285 87 80 80
239 828 259 68 56 56
273 348 260 71 62 53
279 348 258 70 60 51
287 423 306 124 93 76
274 931 300 89 83 84
277 349 263 66 58 50
237 830 267 66 57 56
274 348 269 67 58 51
306 815 381 52 38 34
283 339 261 68 57 46
284 338 264 70 58 46
283 343 260 67 57 47
196 610 237 151 108 76
301 899 268 82 75 75
290 338 268 78 66 54
416 462 322 113 10 38
363 443 259 82 31 34
289 343 265 77 65 53
360 819 281 60 43 36
283 353 259 67 57 48
194 688 285 146 103 77
300 884 253 82 72 69
289 348 265 76 64 53
274 338 274 70 60 52
358 448 304 75 20 30
274 343 274 68 59 51
281 479 375 39 28 31
274 338 289 84 63 51
336 565 327 34 28 28
273 343 284 68 55 47
274 348 274 67 58 50
378 788 283 158 121 95
274 348 279 68 57 49
330 430 345 84 29 33
274 668 238 89 27 33
369 728 189 81 64 50
274 353 274 67 57 49
362 454 277 105 12 31
259 323 299 87 62 43
360 822 354 57 47 41
369 504 269 40 23 23
381 609 246 82 64 45
259 328 299 88 64 44
264 323 297 68 49 31
256 332 301 111 79 59
257 335 302 115 82 61
269 328 299 80 61 47
269 333 299 81 62 47
369 843 338 57 48 42
323 812 388 63 51 42
264 338 300 69 49 32
260 343 301 104 71 55
317 447 348 71 10 25
334 863 254 76 66 64
264 343 300 73 51 34
254 827 250 180 137 117
264 733 229 79 34 38
444 424 289 67 26 26
258 348 302 122 84 64
294 569 207 185 6 41
332 368 317 123 97 64
261 348 301 108 73 57
271 341 290 63 52 45
410 788 224 91 65 53
271 342 295 71 56 46
269 343 298 80 59 45
303 941 339 73 65 64
269 348 299 80 58 42
299 473 359 97 2 32
275 328 299 98 74 56
203 520 193 96 29 41
276 323 303 103 79 57
274 333 294 90 67 53
274 333 299 98 73 56
198 554 238 78 30 37
275 333 304 103 76 57
277 323 305 105 78 58
277 326 305 105 79 58
388 815 287 45 37 30
458 425 274 85 20 18
277 327 310 112 83 61
373 502 269 46 21 26
278 323 314 117 85 62
277 378 259 67 59 51
385 830 275 70 55 54
279 323 319 121 88 66
274 338 294 90 67 53
274 343 299 98 73 57
200 783 255 183 123 89
273 348 294 79 59 48
273 353 299 94 67 55
309 338 264 92 80 68
276 338 308 111 81 62
204 817 294 197 132 105
277 338 310 115 83 66
397 502 319 62 16 27
278 338 314 120 87 68
269 836 350 65 53 43
391 843 312 83 68 57
276 348 307 113 82 64
334 623 235 99 29 39
277 348 309 115 84 65
277 353 309 116 85 64
289 493 359 51 24 29
279 353 314 119 87 67
243 678 320 52 28 32
281 353 318 123 92 70
296 321 337 136 97 74
289 928 319 70 66 64
271 360 257 78 66 54
286 860 236 73 60 58
439 503 303 180 126 108
271 373 259 69 57 46
439 834 329 87 79 72
271 378 263 67 55 44
311 356 257 94 82 70
271 383 259 67 57 47
294 793 230 75 60 53
271 384 264 68 56 44
225 563 342 168 18 54
273 358 259 70 60 49
408 735 194 75 59 45
274 358 264 67 58 49
277 357 262 67 58 50
274 358 269 65 56 48
409 503 304 181 9 57
290 499 339 72 28 35
306 553 326 129 19 44
274 363 259 70 59 49
356 750 196 62 50 43
164 548 256 146 103 81
254 910 278 81 72 69
274 368 264 67 55 45
274 368 269 65 54 44
314 433 374 101 32 39
241 536 326 50 22 29
285 357 258 70 60 49
289 358 259 80 68 56
309 798 304 125 91 73
289 356 262 79 68 56
286 361 257 77 66 53
274 358 274 66 56 48
223 563 340 156 18 50
274 358 284 71 60 54
363 517 220 146 10 36
162 554 249 164 113 88
273 358 288 67 56 51
201 602 289 162 12 51
438 867 288 96 78 62
274 363 274 65 55 46
274 363 279 67 57 48
274 368 274 65 54 44
274 368 279 66 56 48
274 363 284 73 59 53
274 363 289 78 60 53
339 782 204 44 42 43
225 643 279 143 10 43
312 541 196 178 14 42
274 368 289 81 63 57
353 648 294 141 18 46
426 830 331 107 89 70
274 372 261 68 57 46
274 373 264 67 55 44
399 658 255 157 112 86
162 554 244 164 113 85
320 595 222 55 35 36
277 370 262 64 58 53
274 378 265 67 56 46
328 338 279 101 85 69
274 383 264 66 57 48
277 378 263 66 59 52
276 384 259 66 58 51
332 497 307 57 25 30
251 951 339 80 74 74
386 779 182 74 59 49
277 382 263 66 59 51
274 373 274 66 54 43
274 373 289 84 64 57
400 693 239 150 103 71
349 429 308 97 33 34
274 378 274 68 54 43
489 888 244 105 90 75
384 814 349 58 49 45
274 378 279 72 55 46
274 383 279 74 57 47
274 378 289 87 64 56
231 700 256 95 25 34
255 550 356 199 11 64
338 518 210 87 26 38
274 383 289 91 67 57
264 355 302 86 58 41
264 363 303 91 61 46
303 722 332 74 28 36
332 343 294 111 90 67
264 368 303 104 70 53
359 528 222 100 21 34
268 358 302 75 50 34
255 893 259 90 78 76
270 358 301 77 54 39
352 429 289 109 88 67
268 363 302 75 50 33
357 435 275 96 61 50
369 623 274 172 11 55
268 368 302 79 51 34
368 683 239 98 79 58
400 514 294 176 9 56
264 373 304 113 76 58
229 518 190 136 7 30
264 378 305 122 81 62
193 523 315 89 21 37
270 376 301 76 51 33
271 821 318 74 61 47
257 370 307 125 89 62
359 573 239 140 6 34
258 373 307 126 90 63
238 692 320 45 28 31
354 733 224 50 38 39
260 373 306 124 86 62
258 378 308 126 89 65
260 378 306 126 87 64
258 383 308 124 87 65
258 729 341 127 28 49
274 358 299 92 66 54
276 358 304 113 80 63
305 830 359 51 46 43
274 368 294 89 66 57
401 519 304 178 13 54
373 784 183 79 60 47
274 363 299 91 65 52
276 362 303 114 80 63
278 863 259 54 48 50
399 743 229 103 76 53
289 837 374 36 34 33
404 508 329 139 19 47
374 721 217 95 75 55
227 656 282 104 18 37
277 365 300 113 80 64
277 364 305 116 82 64
277 368 301 113 79 64
277 368 304 117 82 65
277 354 306 114 83 65
279 358 314 118 88 68
345 843 369 59 51 48
278 363 309 117 85 65
279 368 309 119 86 67
186 798 289 191 130 104
280 363 314 119 88 68
435 474 294 75 8 26
281 366 317 120 90 70
274 373 298 89 66 54
313 434 321 114 79 63
372 753 289 116 63 60
274 378 299 86 62 51
399 830 345 90 75 61
299 483 374 168 15 53
272 378 302 70 48 33
339 608 324 84 32 40
304 383 326 140 101 77
274 383 299 88 66 55
272 383 302 74 51 38
236 845 342 101 79 57
336 807 191 79 61 54
277 378 300 117 80 66
279 383 304 119 83 66
354 713 228 76 34 31
285 489 365 35 27 27
279 373 309 120 85 67
282 369 316 121 89 70
284 373 319 123 92 74
285 378 318 124 92 74
288 378 320 127 93 76
294 323 269 81 70 58
298 488 344 55 25 33
234 723 324 153 14 48
294 333 269 84 72 59
299 323 268 83 72 61
279 468 311 32 25 27
304 328 268 86 75 63
421 445 318 51 18 27
274 393 294 93 71 61
299 333 269 87 75 64
303 332 268 89 77 66
350 724 326 176 3 57
336 435 346 159 17 51
387 720 200 90 65 45
364 559 337 80 25 34
286 495 361 76 18 37
294 348 331 137 99 79
226 716 312 40 31 29
302 380 326 139 101 78
304 334 266 89 77 65
295 328 272 83 71 60
329 828 294 54 47 40
364 723 214 92 77 62
426 460 320 88 25 35
294 343 264 83 71 58
357 737 218 69 57 53
221 729 303 95 35 42
293 337 267 83 71 59
190 563 294 138 12 47
418 763 199 98 78 61
447 483 301 129 82 67
294 338 266 83 72 61
290 350 267 76 65 54
215 683 248 134 97 68
290 352 267 77 65 54
292 350 267 79 67 55
336 865 262 67 58 59
299 343 263 89 77 64
299 928 370 55 52 53
335 864 259 73 65 64
331 303 299 119 93 63
301 344 261 90 78 65
304 342 262 91 79 67
319 738 219 106 27 33
298 336 267 88 76 64
260 878 259 75 66 63
319 458 334 64 25 31
424 859 294 90 73 60
297 352 262 87 75 64
304 353 258 91 80 68
313 887 270 78 69 68
309 328 268 90 78 66
400 778 199 76 59 51
365 673 274 102 27 41
309 332 267 91 79 68
309 334 266 91 80 68
310 447 317 120 84 68
367 737 205 55 50 46
384 653 226 144 101 69
313 323 271 89 78 67
360 692 304 129 9 40
314 328 270 92 80 68
311 328 331 125 92 63
312 334 266 92 81 70
343 877 284 81 68 63
317 330 271 94 82 71
318 333 270 95 83 71
315 323 272 91 79 68
319 328 274 94 83 71
174 548 259 102 63 49
369 688 264 69 29 30
254 728 340 54 23 32
320 333 273 95 84 72
309 348 260 93 81 70
270 468 311 40 26 29
309 353 258 93 81 70
291 446 376 58 34 33
315 337 267 94 83 71
319 338 269 95 84 73
363 688 284 145 16 46
404 736 199 78 67 56
317 340 266 95 83 72
318 344 266 95 84 73
197 573 305 169 6 51
274 443 309 46 25 26
314 346 262 94 83 71
291 578 331 110 24 43
272 863 273 91 71 61
321 338 273 95 84 74
353 742 318 124 19 43
292 356 262 84 72 60
290 360 256 82 70 57
337 268 289 130 96 65
299 357 258 92 80 67
291 485 381 150 18 43
351 442 321 121 16 39
264 598 334 36 29 32
303 357 257 94 82 69
363 738 189 72 60 52
308 355 256 93 81 69
345 874 299 57 50 48
275 643 332 174 8 56
319 358 259 95 84 73
320 356 262 95 84 73
367 647 245 74 55 40
317 360 256 95 83 72
320 362 257 96 84 73
475 465 270 141 98 74
281 323 324 125 91 67
282 328 326 130 95 72
287 323 331 131 93 73
281 333 323 129 94 71
404 568 268 74 43 35
414 573 250 126 99 67
282 333 325 131 96 74
241 844 310 132 100 74
289 333 333 136 98 77
428 760 190 106 79 54
281 338 322 128 92 72
219 663 274 86 66 61
285 338 328 132 98 76
281 343 322 123 90 71
283 343 324 125 94 73
279 533 349 159 10 51
286 342 327 131 97 77
289 343 329 135 97 78
281 346 322 126 94 73
404 533 250 160 8 35
282 349 321 127 94 72
464 885 266 104 87 72
288 353 326 128 94 75
412 463 299 61 17 28
282 531 350 161 11 52
289 363 325 128 95 76
287 373 321 126 93 75
294 333 334 139 99 78
310 444 360 86 16 31
214 799 311 159 121 96
304 328 335 134 93 68
299 333 334 140 97 76
304 333 334 135 92 69
477 476 275 176 122 107
291 337 332 138 99 79
294 338 333 139 98 79
287 502 335 96 19 34
294 343 332 139 99 80
356 687 242 38 35 36
293 472 368 66 15 27
297 441 372 65 25 25
408 642 257 181 124 93
290 353 328 131 94 77
294 353 330 136 98 79
301 819 385 38 33 32
299 338 333 141 98 77
457 432 299 130 21 45
304 338 333 138 96 71
304 343 333 141 99 74
362 723 317 43 29 31
349 540 296 70 16 26
299 349 331 143 103 79
296 346 332 140 101 78
452 874 277 112 88 69
299 347 332 142 103 79
299 353 331 142 103 79
309 328 333 128 92 65
254 778 315 62 51 45
294 834 344 62 54 47
273 398 284 100 72 59
311 323 331 127 91 64
295 484 355 41 28 33
309 333 333 130 92 67
308 473 344 106 4 34
311 333 331 128 94 65
313 323 328 126 92 64
318 323 324 125 95 62
319 328 324 122 94 60
349 834 336 55 49 47
316 328 326 122 94 60
314 333 329 125 93 64
319 333 324 121 93 61
309 338 332 134 96 69
309 343 332 137 99 70
383 583 278 134 28 49
331 338 304 119 96 69
309 348 331 137 97 72
275 763 232 70 53 47
320 338 325 124 95 63
318 343 327 128 96 66
465 494 289 194 126 111
424 766 186 110 84 61
320 343 325 126 96 64
304 498 354 172 2 55
314 343 330 132 97 68
318 348 328 130 97 68
194 572 247 91 56 41
321 348 326 128 97 66
219 633 259 101 48 45
420 478 309 91 25 38
314 353 330 134 97 70
338 597 226 49 32 39
169 528 255 91 56 43
294 358 329 134 96 78
294 363 328 133 97 78
292 364 326 131 95 78
299 358 330 141 103 78
299 363 330 138 101 78
212 538 326 95 27 37
322 826 352 38 34 35
304 363 330 140 100 76
304 368 329 141 101 76
296 372 327 136 100 81
205 812 275 210 141 111
294 378 324 134 97 80
252 940 317 79 71 69
275 393 259 61 54 48
294 383 323 135 97 80
292 384 321 132 95 79
207 568 321 79 20 34
299 373 328 138 101 80
418 565 252 131 102 68
171 588 241 163 114 84
298 379 326 137 99 80
300 377 327 139 101 81
215 678 248 130 94 64
299 383 325 138 100 80
398 808 249 102 73 59
330 474 320 71 25 32
309 358 330 139 99 73
318 358 328 132 96 69
319 363 328 133 97 70
314 363 329 137 99 71
296 510 331 159 11 50
314 368 328 139 98 70
190 728 250 135 98 66
319 378 327 138 99 71
319 382 327 139 99 71
324 262 261 142 99 68
296 494 370 155 16 50
325 264 262 140 96 67
327 261 261 144 98 67
336 555 307 28 24 28
324 268 264 139 95 66
328 267 265 139 96 65
324 274 268 137 94 65
330 269 268 140 97 66
329 273 269 138 95 65
332 262 266 142 98 66
336 264 273 140 100 68
388 528 235 85 30 39
336 269 278 126 90 60
321 275 267 137 95 66
328 277 271 133 92 62
322 281 271 130 93 63
324 283 274 119 88 59
332 276 276 127 90 63
333 278 279 124 89 61
474 479 292 151 104 89
336 274 284 124 88 59
342 403 308 123 94 63
334 278 284 121 86 58
334 278 289 126 91 62
214 516 186 69 32 38
332 282 281 122 89 63
328 622 323 106 27 43
333 283 289 120 88 58
337 257 270 140 101 68
388 543 299 40 27 33
337 261 271 140 100 68
364 483 279 44 24 24
369 572 251 118 8 31
330 864 370 51 46 42
338 258 274 127 94 61
338 263 279 123 91 59
339 258 284 126 95 62
300 773 225 70 57 52
339 258 289 128 97 64
383 725 176 120 81 50
337 267 279 123 90 58
337 271 287 130 94 64
294 483 380 169 13 53
330 258 305 128 99 63
259 910 278 90 80 77
334 258 299 129 99 64
332 263 302 128 98 65
272 393 302 59 39 29
330 268 304 129 98 63
330 273 304 128 98 64
332 273 302 127 98 64
190 548 303 168 0 51
325 258 310 123 95 61
328 258 308 126 98 62
325 262 310 125 97 62
323 258 312 120 93 59
201 601 292 149 15 53
323 263 313 123 94 58
348 756 218 66 38 35
282 394 306 121 85 69
326 273 311 126 98 65
323 268 313 122 94 61
257 681 331 33 28 31
321 272 316 121 95 62
333 278 299 128 98 67
332 278 302 128 99 66
333 283 294 125 94 62
362 546 231 135 21 42
275 883 234 101 87 80
318 907 299 84 73 72
331 283 304 128 99 64
220 806 256 64 54 54
332 882 323 62 56 54
285 388 314 124 89 73
331 288 304 130 98 66
332 283 299 128 98 64
332 288 299 126 95 63
332 286 302 128 98 64
322 283 317 127 95 63
325 283 315 130 100 66
452 491 291 79 40 31
323 288 318 128 95 65
301 499 360 171 11 53
344 423 309 121 89 66
325 288 315 132 100 67
384 774 169 95 70 54
327 288 312 131 99 67
318 622 231 54 35 39
337 258 293 128 97 64
345 803 291 46 39 37
337 263 293 128 96 65
320 444 344 76 6 28
336 269 290 130 95 65
309 393 325 144 103 78
324 293 278 106 85 63
177 518 279 145 8 42
185 748 289 149 105 73
406 484 319 87 3 24
321 299 277 99 81 62
414 443 279 40 25 23
324 303 280 104 86 66
326 304 282 104 86 67
328 303 284 99 81 62
331 293 289 107 84 59
352 851 325 58 47 41
264 544 360 91 26 39
332 291 291 106 83 57
330 298 289 106 85 60
330 303 289 105 84 61
331 878 344 60 51 47
323 313 280 97 83 67
326 308 283 97 81 65
219 908 354 53 50 50
328 313 285 95 80 64
374 524 304 55 24 28
329 308 289 104 84 63
453 488 269 110 75 50
251 669 246 50 34 36
329 313 289 105 86 64
214 738 250 103 67 46
268 513 369 48 27 29
332 291 294 115 87 58
430 470 306 30 26 25
331 293 304 130 98 67
332 291 297 122 91 60
330 303 294 114 90 62
404 788 239 74 54 42
330 298 304 129 98 67
325 293 314 133 101 68
217 746 306 138 104 74
328 303 309 134 102 71
325 298 314 133 101 70
332 668 317 141 14 46
327 298 312 134 101 71
325 303 314 133 100 70
421 489 295 116 17 42
259 907 397 74 70 70
327 303 312 135 103 72
279 633 237 131 20 40
317 821 367 40 33 31
330 318 299 119 94 63
325 308 314 133 99 70
328 318 309 129 100 68
304 478 344 83 21 32
263 606 332 105 23 39
327 315 312 132 101 69
387 612 237 113 90 65
325 318 314 130 100 67
321 319 321 128 97 64
310 668 326 126 15 42
322 328 276 95 84 72
371 615 276 173 10 56
325 328 279 97 84 71
326 322 282 97 84 71
328 323 284 99 84 68
328 328 284 103 86 68
324 333 275 96 84 73
362 650 277 22 25 33
326 333 278 97 84 72
178 603 239 165 115 83
330 323 289 111 90 66
335 589 222 51 34 37
453 425 294 80 15 27
324 348 269 95 84 74
200 729 297 147 107 78
269 643 331 175 14 55
322 350 266 95 84 74
326 352 268 95 84 73
214 773 245 152 104 73
420 588 248 152 108 72
329 328 309 124 98 68
354 618 244 67 37 40
249 828 314 117 90 67
328 353 270 98 85 72
328 343 275 97 84 71
191 582 237 132 95 71
327 340 276 97 84 71
330 338 284 109 89 67
441 455 310 149 28 53
331 342 284 109 89 67
373 738 284 77 27 36
331 341 288 114 92 68
332 344 284 111 90 67
331 348 278 103 86 68
330 353 274 100 85 70
331 352 277 103 86 68
332 353 279 106 88 68
216 727 252 107 66 47
333 353 284 109 89 68
333 353 289 108 88 67
331 323 299 120 95 65
303 699 337 110 22 40
331 333 294 115 92 66
325 323 314 128 100 67
333 685 322 105 22 38
327 333 313 122 96 67
326 333 315 122 96 66
261 875 265 59 54 54
369 794 193 78 57 46
324 333 319 120 94 63
331 337 294 114 92 67
299 434 379 76 28 33
347 409 284 109 88 64
332 339 294 113 91 67
332 343 304 117 94 68
388 643 226 132 96 64
333 348 294 110 90 66
334 353 294 108 88 66
418 483 314 98 27 39
323 498 313 33 26 26
274 513 378 95 25 39
304 498 344 164 11 54
328 338 314 119 95 67
347 607 318 186 17 60
325 338 319 119 94 64
325 343 320 121 96 65
327 340 317 119 95 66
279 547 196 137 23 44
328 343 318 120 95 65
326 499 311 30 26 26
279 478 313 71 19 30
269 684 337 131 14 41
354 673 299 143 10 45
330 338 309 119 95 68
227 655 301 45 26 32
331 341 306 118 94 68
332 344 308 116 93 67
331 346 311 118 94 68
360 668 253 38 34 39
331 348 315 118 94 66
177 624 252 172 116 85
287 898 289 65 58 54
331 353 315 118 93 63
193 703 286 150 104 76
329 353 319 121 95 64
320 498 315 34 25 27
332 349 313 116 93 66
324 358 264 96 85 74
339 428 314 84 45 37
180 622 246 180 124 92
321 366 257 94 83 71
324 368 259 96 84 72
325 363 263 97 85 74
202 693 247 142 102 68
294 543 195 85 30 41
235 693 255 77 32 36
326 366 262 97 84 71
329 368 264 101 86 71
400 713 254 167 110 80
330 363 268 103 87 71
356 436 280 83 47 38
349 743 319 167 21 55
332 355 276 104 87 68
332 358 275 104 87 68
234 693 314 84 26 37
333 363 274 104 87 67
334 363 279 105 87 67
184 578 234 143 104 75
335 363 284 105 87 67
389 468 264 65 18 26
309 463 349 83 24 36
325 373 258 103 88 72
325 378 257 106 92 79
329 378 259 111 94 77
366 835 317 56 50 47
325 382 257 106 92 78
329 383 259 108 93 77
205 603 304 167 9 49
334 373 269 102 85 67
284 908 392 54 50 50
382 811 221 83 63 53
331 378 263 117 99 80
333 378 265 126 104 81
333 383 264 120 100 80
336 377 274 100 83 66
380 823 354 62 49 39
336 366 287 106 88 69
337 369 285 104 86 67
183 748 259 171 116 87
309 713 222 95 25 31
337 384 270 102 85 67
336 372 282 104 86 66
338 373 289 106 87 67
413 453 289 51 22 28
337 375 281 103 85 66
226 899 320 56 52 52
448 480 307 168 120 113
499 893 239 103 91 79
339 748 318 62 51 47
337 379 274 101 84 66
353 871 304 65 56 53
374 802 368 57 48 40
288 478 316 78 13 30
336 377 278 101 84 65
338 383 274 101 84 67
268 464 312 49 24 27
341 383 289 106 87 67
204 753 305 146 112 81
335 358 299 109 88 65
336 362 294 107 87 65
468 885 276 110 89 65
334 358 309 114 91 64
224 903 384 46 44 45
329 363 319 125 96 65
334 363 314 119 94 65
362 648 274 85 31 41
201 546 226 188 9 55
332 360 317 121 95 64
419 809 339 56 47 39
334 368 314 120 94 64
397 527 328 63 28 30
449 827 334 93 78 64
335 373 314 121 94 64
330 433 340 89 20 31
264 944 370 64 61 61
330 378 320 128 97 65
330 383 320 130 98 67
396 470 272 83 16 27
335 378 314 123 96 65
359 545 322 47 26 28
337 365 290 106 87 67
337 364 299 109 89 66
337 365 303 110 88 63
284 835 398 38 35 34
337 368 304 112 89 63
229 913 379 57 53 53
452 438 309 114 19 41
336 366 306 113 90 63
339 373 299 110 89 64
340 378 294 108 88 66
341 382 299 112 89 64
337 373 308 116 91 63
336 373 310 117 92 62
220 612 255 118 26 39
223 742 242 102 22 30
338 378 309 116 92 63
337 380 312 120 94 64
321 328 321 122 94 61
323 338 323 122 95 63
199 728 247 143 104 72
352 796 292 53 44 41
314 898 283 72 65 64
392 708 226 113 87 58
321 352 326 129 96 67
230 583 333 83 23 35
209 773 311 157 123 92
394 648 229 149 101 70
324 358 324 128 97 68
190 678 254 145 99 67
364 833 333 61 52 48
321 363 326 132 97 68
309 893 269 79 71 70
388 857 329 78 65 57
324 363 324 131 98 68
376 715 204 79 56 38
401 519 319 136 31 50
321 368 326 133 97 69
327 368 322 130 97 66
234 798 245 77 62 56
321 374 326 135 98 69
327 373 322 130 96 67
327 378 322 130 97 66
271 388 264 70 56 42
271 393 259 68 56 44
271 393 264 68 55 42
316 682 326 74 32 36
271 398 259 67 54 41
271 398 264 68 55 41
343 873 274 92 78 72
333 393 318 129 98 69
271 406 259 66 52 40
169 593 259 153 108 82
244 893 294 100 72 58
435 520 291 193 129 107
254 588 223 117 34 45
271 406 262 66 53 39
171 593 262 148 105 79
348 612 313 87 29 38
276 388 259 64 57 50
424 484 295 59 22 29
275 393 264 64 55 47
274 388 269 67 56 46
379 738 272 129 87 65
387 845 306 67 52 46
357 472 297 41 25 27
356 437 272 89 57 43
274 393 269 69 57 46
384 728 175 100 70 42
294 834 398 47 40 35
178 590 237 160 114 79
379 858 339 63 52 45
273 398 259 62 52 44
273 398 269 69 56 44
304 498 349 171 4 54
273 393 274 77 60 48
264 748 329 60 36 39
273 393 279 90 67 54
274 388 284 96 72 60
254 906 397 83 79 79
474 850 347 86 73 66
274 388 289 94 73 63
274 393 284 100 73 60
324 658 320 53 27 33
228 619 253 162 6 39
182 778 279 173 117 87
245 796 241 79 63 56
298 814 237 82 65 58
314 388 326 143 101 75
193 693 285 147 103 77
299 623 334 137 30 52
273 398 274 81 62 49
364 519 288 70 16 27
272 403 259 64 52 41
216 650 247 158 105 81
272 406 259 66 52 40
272 406 262 65 52 39
272 402 274 81 61 48
204 778 249 177 117 86
273 403 279 86 64 52
316 473 355 79 23 33
273 403 284 94 69 56
334 728 221 98 23 30
273 407 285 73 56 47
273 408 289 71 55 46
294 748 323 69 56 50
384 473 264 62 18 25
448 452 284 132 13 42
343 767 213 53 46 46
269 388 304 96 61 47
329 429 354 112 32 43
269 393 304 95 62 47
294 723 223 81 32 34
269 398 305 95 62 48
219 623 314 93 30 41
259 393 309 120 84 64
261 388 306 124 85 65
279 839 364 56 50 44
262 395 307 119 81 62
262 399 307 116 79 61
346 421 306 124 94 66
269 403 305 92 60 45
270 408 305 73 48 33
263 404 308 107 72 55
382 802 372 69 57 49
264 408 308 93 64 45
258 400 312 113 82 60
279 889 253 82 73 72
269 673 333 80 23 35
258 403 312 108 78 56
257 408 313 95 71 49
293 738 222 129 17 37
412 621 262 173 121 94
263 413 307 77 55 36
258 413 313 79 61 40
269 413 305 69 47 31
384 648 225 140 100 70
367 850 342 47 42 39
350 673 305 139 2 44
273 393 299 67 50 41
220 638 294 102 25 42
278 388 299 117 82 67
272 399 302 57 40 32
284 820 308 71 59 47
220 786 246 53 49 50
281 388 308 122 85 69
282 388 310 124 86 70
259 736 337 63 23 31
281 391 307 122 84 68
289 388 319 127 93 77
287 388 316 124 92 74
287 393 315 125 90 74
416 623 249 163 113 79
398 844 314 131 121 119
220 643 254 116 67 55
282 398 306 122 86 69
334 498 305 56 26 30
338 498 303 100 23 39
274 403 294 84 63 52
274 403 299 76 58 49
321 446 322 100 63 50
299 828 394 52 44 37
274 408 299 69 53 44
278 407 301 84 61 47
495 901 256 98 86 74
329 598 224 79 35 41
273 413 303 62 45 34
244 838 334 101 79 68
284 408 304 114 81 66
284 413 305 111 81 65
286 407 307 123 87 73
239 908 294 55 49 50
258 418 314 69 54 35
445 495 274 116 73 55
254 708 343 95 26 40
259 423 314 65 50 32
221 672 276 67 51 43
260 428 314 62 48 31
266 416 306 69 47 29
356 623 248 71 33 37
260 438 319 44 22 24
259 448 319 26 24 24
264 448 313 33 24 24
269 443 310 44 23 24
424 548 280 163 110 90
443 432 327 155 18 52
269 448 310 37 24 25
322 902 357 66 60 57
384 463 259 38 23 24
206 755 307 143 112 81
272 417 290 55 45 36
273 418 294 55 45 37
314 448 379 125 29 48
389 832 335 72 57 45
387 741 200 89 67 53
274 418 299 55 44 33
474 483 274 187 130 116
234 845 339 90 73 53
274 418 303 58 44 32
365 493 269 31 24 23
274 423 299 48 38 28
274 426 301 46 37 29
279 423 306 75 58 43
279 428 305 72 57 43
249 778 234 75 61 54
284 423 306 108 82 65
289 418 309 125 93 77
340 533 213 85 34 39
440 489 285 109 57 37
284 428 305 112 85 67
284 433 304 112 87 69
306 513 321 131 12 39
288 428 305 125 95 77
274 439 307 40 30 27
358 862 289 72 63 61
279 438 305 51 41 33
274 448 309 60 23 29
476 484 284 184 126 110
278 440 307 39 32 26
279 443 308 46 28 26
333 433 323 85 36 35
279 448 309 41 25 27
342 842 297 32 29 29
346 600 325 190 13 59
284 438 305 101 79 63
288 438 306 122 94 76
284 441 306 80 63 47
273 537 363 58 29 32
290 928 324 68 63 62
284 567 205 164 16 44
282 731 337 163 15 55
421 474 314 121 23 43
381 505 287 76 18 29
287 441 306 109 86 69
289 443 309 102 80 63
319 408 324 143 102 78
289 448 310 36 27 27
346 870 278 97 80 74
291 401 317 127 93 78
269 822 309 70 57 42
248 929 303 81 73 71
388 512 304 35 27 29
291 408 313 126 93 77
188 723 254 135 100 67
347 409 279 106 86 65
226 900 388 46 44 45
294 403 318 129 94 78
191 536 231 164 22 45
295 408 318 128 92 77
291 413 312 125 92 77
293 413 315 125 91 77
299 413 319 130 94 78
290 423 308 126 94 78
363 842 264 81 63 57
292 420 311 125 93 78
294 418 314 125 92 77
290 433 307 126 95 78
412 441 271 33 29 22
296 427 312 126 95 78
299 418 318 126 92 75
335 696 227 88 25 28
366 734 199 78 70 63
309 432 384 100 27 40
297 419 316 125 91 75
394 788 269 166 120 89
214 568 229 144 14 40
298 423 315 125 92 76
391 729 266 164 115 85
304 418 320 126 92 74
383 617 256 73 43 31
296 433 312 126 94 77
299 433 314 125 92 76
290 439 307 124 95 77
293 438 310 124 94 77
369 848 304 75 66 64
295 438 312 125 94 77
362 681 252 42 33 37
294 448 311 95 63 53
237 920 297 86 75 72
299 443 313 124 92 74
454 828 329 117 89 57
430 488 264 51 28 28
296 446 312 124 91 74
359 524 222 151 5 32
299 448 313 121 88 71
304 448 314 123 88 71
374 780 177 73 56 47
309 428 320 118 85 69
309 448 316 121 85 69
339 844 314 37 34 33
307 445 316 123 86 72
314 438 320 114 79 62
314 448 318 117 80 64
319 448 320 107 70 57
257 433 323 43 34 28
263 425 321 62 49 33
263 426 320 62 48 32
249 909 278 83 73 70
264 426 322 61 47 29
310 810 392 82 65 49
257 442 322 40 24 26
259 827 250 200 145 124
393 782 190 88 66 54
229 758 320 165 122 97
248 877 389 86 68 58
299 393 323 136 98 80
298 932 368 55 52 54
304 393 325 141 101 79
304 398 324 140 101 80
298 403 321 135 96 80
304 408 322 138 100 81
303 413 321 133 95 78
269 521 191 140 16 38
253 867 398 35 32 32
309 385 326 142 102 75
422 588 251 158 110 78
309 388 326 143 103 77
309 398 324 144 103 79
212 580 242 169 14 40
319 388 325 140 101 72
235 658 313 42 28 30
319 393 325 141 100 73
460 499 279 191 125 106
314 398 325 144 101 77
319 398 325 141 100 75
309 403 324 143 104 80
242 548 356 49 26 30
356 745 203 51 42 37
309 408 324 141 103 82
314 413 324 142 104 85
374 703 264 103 34 38
349 758 309 77 60 54
319 413 324 144 105 83
309 423 321 119 86 69
310 422 322 119 86 68
311 428 322 114 81 66
403 458 270 61 22 26
314 418 323 130 95 77
325 474 334 44 27 30
314 423 322 115 84 66
310 489 349 171 9 55
319 428 323 104 75 55
220 537 196 192 12 47
412 776 210 114 83 65
311 432 322 115 81 64
476 479 274 187 133 116
318 435 321 107 74 57
320 438 322 100 68 51
182 773 289 166 115 84
309 543 324 37 27 27
315 448 349 73 14 28
319 443 349 82 11 29
299 443 369 59 24 28
299 448 369 52 24 31
304 448 364 75 17 30
204 638 271 116 85 69
404 488 309 102 0 29
370 770 165 110 80 53
342 876 299 61 54 50
291 440 378 69 27 31
296 435 379 80 26 33
294 438 379 73 26 32
374 768 169 86 62 46
291 445 382 110 24 41
290 448 383 124 18 39
380 783 280 163 121 93
304 435 375 83 27 33
264 578 335 43 28 32
363 693 294 139 9 44
303 436 373 77 25 31
300 434 383 81 29 36
304 434 379 83 28 34
353 593 324 190 7 60
304 433 384 85 32 38
309 439 365 81 14 27
310 449 355 60 15 30
306 440 366 86 12 27
314 439 360 72 20 26
319 438 354 81 16 30
318 437 358 81 16 27
315 435 365 90 21 31
314 434 369 94 27 35
394 473 274 71 19 29
343 713 226 51 33 30
313 437 364 82 17 28
240 638 323 149 17 48
319 433 369 98 34 38
313 448 353 79 12 31
320 448 364 119 23 44
234 573 219 172 21 49
307 436 372 86 23 33
309 433 379 96 28 38
319 433 384 123 23 42
409 573 250 115 92 65
319 443 374 136 19 47
191 571 237 125 83 63
442 461 299 119 26 44
370 569 324 195 1 62
315 449 374 76 26 35
229 698 259 69 28 32
314 443 384 166 17 54
313 447 383 130 26 48
449 425 294 80 27 27
317 441 383 166 17 53
309 864 395 50 46 45
321 440 380 163 19 51
192 539 234 161 13 41
359 823 209 103 77 59
318 908 304 81 70 67
391 499 293 82 17 28
317 446 378 112 36 50
326 890 278 82 70 69
258 453 319 39 23 24
260 453 315 34 23 22
375 774 160 101 73 45
260 463 315 38 22 23
259 853 399 36 34 35
264 458 313 27 24 23
264 947 367 55 50 50
269 458 310 32 25 25
257 468 317 49 18 24
313 462 320 89 14 30
257 473 317 37 23 24
260 473 315 44 23 25
264 473 314 44 23 27
401 674 237 146 102 70
260 478 315 27 24 25
364 824 364 68 53 44
317 502 317 126 24 52
444 873 279 108 87 70
169 538 256 112 73 57
396 574 264 57 43 42
268 468 312 31 25 26
268 473 312 45 23 26
279 458 310 46 25 27
284 453 310 32 26 26
284 458 310 34 27 27
445 877 283 105 87 73
289 458 311 37 26 27
289 463 311 62 27 31
274 468 310 34 25 27
439 463 264 109 23 40
279 473 312 85 13 30
339 708 225 72 33 35
281 470 312 32 26 27
336 531 301 117 7 35
315 819 371 40 33 29
284 473 313 85 11 30
290 468 312 31 27 28
396 716 232 132 92 62
429 458 319 78 25 35
179 573 263 109 78 57
289 473 314 75 13 30
284 478 314 65 15 29
269 483 314 37 27 28
258 483 317 51 20 24
309 813 230 62 53 50
369 558 337 123 23 44
458 503 284 188 126 100
284 693 228 47 36 38
260 483 316 42 22 25
264 483 315 32 25 27
264 488 316 55 23 29
327 616 327 35 29 31
261 487 316 68 19 27
259 493 318 29 25 27
262 490 317 52 23 28
317 539 317 80 24 34
269 493 316 31 28 27
259 503 319 38 26 27
268 496 316 32 26 27
388 628 261 127 87 71
269 499 317 45 25 28
442 461 258 173 17 51
269 503 319 55 24 29
363 577 329 155 21 53
274 483 313 53 26 30
199 758 248 160 110 78
274 488 315 56 25 29
279 483 314 34 27 27
275 494 317 58 27 32
277 491 316 31 28 29
279 493 319 45 25 27
408 768 189 97 73 59
289 482 320 34 25 27
318 561 206 34 37 44
283 492 320 67 22 29
457 496 260 219 150 132
274 498 319 66 21 30
294 453 311 56 26 30
377 539 242 51 34 36
293 462 311 41 26 27
342 552 216 136 7 39
296 458 312 40 26 27
269 573 336 159 19 52
297 450 311 104 68 55
297 451 311 92 30 34
206 526 196 87 11 39
359 433 264 82 66 54
296 454 312 70 18 31
304 453 314 110 44 47
299 463 314 90 13 32
291 465 312 41 30 33
334 808 293 38 34 35
332 390 261 107 91 74
291 475 317 103 4 31
393 820 331 70 58 50
320 864 380 49 44 43
290 478 318 84 14 29
294 478 320 103 4 32
300 469 317 103 1 31
304 468 319 102 0 31
308 462 316 99 2 29
369 813 374 64 51 42
309 463 317 99 4 32
311 460 317 101 0 30
333 571 331 118 10 37
434 457 318 52 29 29
282 685 337 144 8 44
313 453 316 116 80 66
291 735 331 60 28 36
329 430 358 128 30 46
380 708 267 128 79 62
315 452 317 116 77 63
319 643 233 122 13 29
313 458 316 104 30 39
267 806 307 131 92 75
408 482 309 99 0 30
315 459 318 98 23 38
309 467 319 103 1 32
315 493 320 90 25 37
255 921 291 89 80 79
318 493 318 81 21 34
319 488 319 91 23 37
456 439 264 172 16 49
298 759 222 71 52 49
320 494 316 44 28 30
314 498 319 53 25 30
317 497 317 87 25 35
313 508 317 99 19 37
312 513 317 72 24 33
259 633 244 46 35 38
262 827 308 73 55 38
308 473 339 104 8 34
319 508 313 75 22 35
289 458 384 127 13 39
285 473 375 34 28 27
304 648 232 104 23 36
289 468 374 52 22 25
285 468 379 53 25 31
412 476 318 61 19 26
287 466 377 48 25 25
244 623 248 162 1 38
285 473 383 81 24 34
283 478 373 37 27 28
287 476 372 29 28 25
394 828 264 75 61 58
281 479 379 46 26 32
282 477 380 45 28 30
269 513 323 71 23 32
289 488 323 54 21 30
289 492 325 102 10 32
428 828 343 81 66 54
325 503 310 36 26 26
290 494 329 89 17 32
279 648 331 170 5 54
434 426 274 67 18 27
197 595 295 123 42 56
280 499 323 96 10 33
279 503 324 45 24 28
439 425 269 66 18 25
274 508 323 35 27 28
273 512 325 48 24 29
367 704 303 46 31 33
373 841 319 59 51 49
178 628 270 158 112 87
275 513 329 41 26 30
278 507 325 37 27 28
279 508 329 40 27 29
284 723 338 165 4 55
276 510 327 35 27 30
283 498 325 103 8 33
243 903 289 59 52 52
282 502 326 85 11 32
400 703 254 168 113 82
283 503 329 89 15 32
288 497 329 67 22 31
422 582 268 186 122 98
358 552 230 163 1 36
283 507 334 54 28 31
286 504 344 73 24 32
285 504 349 66 27 30
289 498 349 59 27 34
452 446 282 166 15 49
274 573 209 187 5 40
283 507 339 51 27 30
447 516 283 200 133 106
400 498 328 97 8 32
281 510 343 45 29 32
350 638 299 105 20 39
504 904 255 83 82 81
283 507 349 51 27 32
281 509 349 58 25 33
270 514 364 63 20 29
270 508 374 59 27 31
268 513 374 72 26 34
271 509 377 81 24 33
457 437 274 179 15 54
284 483 369 50 25 26
283 488 368 46 25 30
289 483 364 36 26 27
282 492 367 43 24 29
355 758 199 49 42 38
402 636 231 146 104 68
285 493 364 50 25 29
287 492 362 43 27 30
280 483 374 52 26 30
280 483 379 68 25 31
280 488 370 39 25 28
344 868 319 55 47 43
277 492 373 34 29 30
199 688 287 139 101 76
310 880 263 71 63 64
278 493 380 54 27 30
281 484 382 85 19 29
328 438 339 82 9 30
281 493 382 72 24 34
278 502 368 70 26 35
279 503 364 52 26 28
279 508 359 45 28 34
439 424 259 63 21 24
277 511 358 58 29 33
299 832 354 52 46 42
273 512 363 66 24 30
278 506 363 55 26 31
354 488 295 109 12 37
281 504 360 37 29 27
470 474 265 137 75 51
288 498 354 64 24 31
287 497 358 83 21 35
343 573 220 148 8 37
287 501 352 63 29 29
282 501 363 45 23 29
346 550 302 71 23 30
275 498 374 36 29 32
276 500 371 40 28 30
274 503 379 91 23 36
278 498 381 99 20 37
313 463 343 72 26 37
278 513 378 73 28 34
289 503 374 119 25 44
464 483 289 84 53 37
282 501 382 147 19 51
288 498 378 97 28 40
283 512 373 86 29 38
284 808 239 75 59 53
285 513 370 117 26 44
286 510 371 122 32 45
348 841 236 78 62 55
280 514 375 76 29 36
302 476 326 111 0 33
411 454 278 57 20 25
269 523 374 89 28 40
304 478 339 77 22 31
305 473 349 100 11 32
301 479 350 69 24 34
320 459 324 56 28 29
259 946 325 82 76 78
221 922 339 59 55 54
268 522 354 84 13 30
318 462 329 58 29 32
317 462 333 63 27 31
389 723 214 67 51 35
245 611 241 45 35 36
311 454 350 67 20 30
299 863 398 64 60 60
319 453 339 55 17 28
181 557 237 134 93 70
191 572 247 97 63 49
316 449 346 68 11 24
417 482 319 91 21 39
323 458 353 111 24 39
271 660 332 160 20 53
313 453 349 62 16 28
254 742 333 67 29 35
318 458 339 59 25 29
198 598 235 143 103 76
374 763 174 89 66 49
259 762 322 70 58 53
317 456 342 71 29 32
312 457 348 68 28 32
306 470 322 102 0 29
239 533 193 155 2 34
309 469 324 105 2 33
329 533 203 106 29 41
307 471 324 102 3 32
308 473 334 106 8 35
310 468 344 113 5 40
381 530 318 56 21 29
428 502 279 108 59 40
294 453 374 121 15 43
475 887 246 82 82 82
232 658 310 44 31 33
423 432 284 72 16 28
310 469 339 113 6 37
196 594 273 108 20 38
308 468 348 111 7 37
392 496 291 105 12 34
300 453 365 98 11 39
302 462 358 104 8 36
298 458 369 107 7 37
224 558 339 106 20 39
299 463 364 105 4 34
352 693 236 36 34 39
431 480 264 38 26 34
290 453 379 100 18 39
291 454 376 125 11 47
220 673 254 105 74 55
292 450 377 77 26 33
241 523 326 32 25 26
230 553 344 106 23 39
292 451 377 75 21 36
291 459 376 117 7 36
296 459 371 114 11 38
429 488 289 62 18 26
293 462 373 97 3 31
296 469 365 93 2 32
295 473 364 81 6 30
291 479 366 52 20 28
292 476 367 53 20 25
373 568 319 193 3 61
381 762 276 147 106 77
302 467 357 103 4 33
299 478 354 74 18 31
299 468 384 137 21 47
326 548 311 103 9 33
280 682 336 146 10 46
270 805 306 136 97 79
303 468 379 123 23 44
406 444 263 79 16 27
300 463 385 92 22 37
305 468 374 106 25 42
303 473 374 92 25 37
316 460 361 112 16 36
300 474 380 124 24 45
302 686 227 75 30 32
301 480 371 153 32 56
313 813 298 88 70 56
297 476 382 164 18 55
296 480 380 170 14 52
413 502 294 154 9 50
307 453 358 45 28 28
244 758 324 70 59 53
309 453 354 62 24 31
374 837 269 84 68 63
308 458 353 70 25 33
264 823 304 98 70 51
234 858 349 118 83 74
358 742 313 50 29 33
306 459 356 82 19 34
214 733 250 111 70 51
379 533 239 72 33 38
307 462 352 81 27 37
309 463 369 53 26 31
316 454 365 85 18 32
414 583 270 177 118 96
317 451 367 161 28 57
319 458 359 116 23 42
315 463 360 130 23 45
318 462 358 137 20 46
470 473 279 107 73 59
313 458 369 38 27 30
211 622 284 58 28 32
312 461 367 36 27 27
317 456 362 109 31 49
318 486 323 76 26 34
310 448 385 119 17 42
309 458 374 109 27 43
284 837 400 39 37 36
307 462 373 93 26 39
428 860 298 80 66 61
364 823 369 76 60 49
311 459 370 71 28 38
187 762 296 151 112 79
261 685 236 94 19 28
397 548 277 50 29 32
308 458 379 60 27 34
291 515 361 173 18 53
304 458 384 92 26 38
306 460 380 42 26 28
307 461 378 69 32 37
184 613 270 125 91 68
316 449 370 83 25 35
312 452 378 109 21 38
312 456 372 76 21 27
308 468 368 84 26 37
381 600 262 122 40 51
310 468 364 120 22 42
274 846 406 42 38 37
288 878 402 64 59 57
244 577 342 174 20 57
308 473 364 123 22 44
311 470 361 164 20 55
310 478 360 94 24 38
404 488 324 59 14 28
319 468 354 130 20 45
331 418 321 137 99 77
317 466 357 146 33 57
318 473 353 142 18 47
269 763 320 68 56 50
316 469 356 91 18 35
312 467 362 109 23 40
223 825 284 58 50 54
473 468 279 114 72 57
313 478 358 82 27 38
289 948 354 58 55 55
317 476 352 167 15 52
326 894 305 59 53 53
306 469 370 83 25 34
294 818 240 81 65 56
290 484 322 36 28 28
292 481 321 80 18 30
293 487 326 44 24 29
292 492 330 99 14 33
296 489 333 38 26 30
298 482 325 105 5 30
299 483 329 99 11 34
298 487 334 52 27 31
300 483 334 90 17 34
