ply
format ascii 1.0
comment Created by Open3D
element vertex 2219
property double x
property double y
property double z
property uchar red
property uchar green
property uchar blue
end_header
180 544 239 148 12 44
271 400 240 91 76 58
204 542 354 151 100 82
359 686 288 127 9 41
411 479 265 57 35 31
203 652 331 129 94 71
266 394 254 73 61 51
261 672 326 102 40 49
271 394 254 88 73 56
401 449 264 135 15 34
261 407 233 79 58 48
262 406 236 79 57 47
266 408 229 88 61 51
486 589 299 205 143 125
326 868 399 55 49 46
456 771 287 89 69 50
338 428 269 87 71 53
308 474 318 88 2 28
268 406 231 90 59 44
270 407 228 96 65 46
280 669 327 93 19 36
351 419 243 84 14 29
272 406 230 93 69 46
331 554 325 56 26 32
425 494 270 59 35 33
281 524 354 81 23 35
296 934 374 64 60 60
238 638 322 152 19 48
286 837 351 72 58 46
266 403 239 77 58 42
306 394 343 147 103 81
266 406 234 82 60 44
271 403 238 87 74 55
258 402 242 83 72 62
262 400 241 64 57 51
266 299 329 113 91 68
281 399 239 103 87 69
387 819 249 76 60 53
286 398 239 106 90 73
346 523 212 67 32 31
203 648 330 129 91 72
475 506 321 98 21 29
276 391 255 96 81 64
366 554 313 180 14 57
332 664 300 122 12 39
281 390 255 101 85 68
382 468 257 91 23 26
276 400 240 98 83 65
276 396 246 98 83 66
184 541 223 189 6 45
274 397 247 96 80 63
276 396 249 97 82 66
179 655 319 160 106 80
399 726 178 67 56 44
176 629 314 142 105 74
281 396 245 102 87 71
276 393 253 96 80 63
201 634 301 107 68 50
281 859 270 180 131 105
281 392 253 101 85 69
218 552 206 104 36 49
286 390 255 104 89 73
286 394 249 106 89 72
170 529 284 72 24 37
286 396 244 105 89 73
277 406 226 101 64 34
336 446 351 83 27 30
281 405 229 99 77 47
275 402 237 95 81 60
400 451 292 97 8 32
282 401 236 104 87 67
268 431 192 157 14 34
268 434 192 143 16 39
386 764 234 144 108 77
416 476 333 179 20 57
324 487 362 189 23 65
267 439 192 132 13 32
220 590 233 194 14 51
271 439 194 139 7 31
267 444 192 128 8 30
268 449 192 138 14 35
306 933 373 60 56 56
313 461 366 108 10 34
271 444 194 145 8 33
409 436 261 118 16 33
366 799 260 111 90 71
271 449 194 145 8 32
327 379 304 117 96 72
276 419 193 134 14 38
273 425 192 141 11 36
322 260 293 147 107 72
256 935 356 55 52 53
326 544 333 62 26 33
279 424 196 142 14 33
276 429 195 141 10 33
282 419 198 145 6 35
178 610 315 139 104 71
344 853 226 80 66 61
286 424 200 141 13 33
290 805 228 83 65 58
276 439 196 149 7 33
278 434 197 150 9 35
281 434 199 146 11 32
231 634 319 167 22 55
321 724 205 59 37 38
278 439 197 148 6 31
281 439 198 137 8 31
276 444 196 147 6 35
186 659 300 131 93 61
275 449 196 141 4 33
365 458 362 145 22 49
281 444 198 130 8 29
286 794 224 81 64 56
363 846 342 31 30 32
375 686 227 135 86 66
277 449 197 132 6 30
278 446 197 135 8 28
258 293 263 107 86 64
286 439 200 128 10 30
286 444 200 123 11 27
291 400 209 143 38 12
296 400 205 128 20 22
241 669 245 88 24 30
301 399 209 137 35 14
381 603 310 71 36 41
301 398 214 146 55 31
276 599 329 36 29 30
265 319 314 110 85 61
297 400 218 133 60 35
359 832 206 103 76 59
301 400 219 128 60 35
291 404 203 122 19 26
290 410 201 141 4 34
292 408 202 138 8 31
278 756 326 75 59 49
441 479 304 86 10 29
345 450 251 70 27 30
319 697 322 140 30 54
272 912 275 77 68 65
296 404 204 124 16 23
323 434 217 68 37 39
290 414 201 143 4 30
411 858 384 78 66 56
300 401 206 124 22 24
371 822 275 42 36 34
392 799 219 132 92 72
301 404 206 128 18 26
256 539 193 79 32 39
303 404 207 129 20 28
396 579 264 74 20 33
246 518 335 55 18 24
263 778 231 80 63 56
216 542 201 122 27 45
301 414 204 131 10 30
275 299 354 106 86 65
292 401 213 148 39 16
264 329 334 124 94 70
290 403 215 143 44 19
292 405 219 121 62 29
193 782 323 189 129 102
323 820 281 114 90 74
290 407 219 119 61 28
432 579 269 108 70 49
427 445 273 113 27 36
341 579 217 94 20 34
276 953 344 53 52 54
343 881 273 73 62 57
291 405 224 106 74 42
221 804 274 74 60 56
296 403 224 108 73 40
300 402 225 112 70 38
286 909 399 79 74 74
311 400 214 160 16 22
276 659 326 76 24 36
318 344 308 118 95 70
306 399 219 137 48 28
306 400 224 124 57 29
179 536 233 180 2 49
318 344 340 130 102 68
181 589 348 160 116 90
311 400 219 148 23 21
458 487 295 108 4 33
372 839 279 80 65 67
305 410 206 130 17 30
196 524 344 85 59 42
307 408 207 72 28 35
361 495 340 93 27 39
179 590 346 161 117 91
346 759 194 85 66 44
311 409 209 57 36 39
378 856 330 68 59 59
311 414 208 46 39 43
310 401 210 157 16 23
403 479 321 147 28 50
371 453 314 63 51 37
311 404 210 121 23 31
257 279 259 120 95 67
311 400 224 134 39 22
316 404 214 132 24 28
317 409 213 122 15 31
266 434 334 36 30 26
314 401 219 153 17 20
215 719 274 126 9 38
268 319 349 118 92 65
314 401 224 139 25 19
331 464 223 87 29 32
317 402 224 140 21 18
300 285 357 117 91 66
317 414 212 76 37 39
276 909 269 87 75 74
316 654 219 102 21 28
451 550 264 170 9 43
366 494 339 171 22 57
291 390 255 108 92 75
291 394 249 108 91 73
259 324 264 78 67 57
455 783 249 106 79 61
295 396 245 110 92 72
364 742 187 88 68 47
355 685 293 121 6 37
395 493 332 35 29 30
351 835 283 30 29 28
296 394 249 110 93 74
291 393 253 109 92 75
211 568 220 95 30 40
321 434 328 89 64 48
296 392 253 108 92 75
384 739 228 160 111 80
298 397 247 111 93 74
327 444 320 72 45 34
301 393 254 108 92 75
337 574 213 154 1 37
291 404 229 106 78 47
351 774 274 69 55 48
291 403 234 107 86 59
374 745 243 139 95 69
290 401 236 107 91 70
292 402 237 106 91 68
296 404 234 108 83 52
296 402 238 108 88 62
301 403 229 109 77 44
263 325 315 92 72 52
279 878 274 53 47 48
306 395 255 110 93 75
304 396 251 108 91 74
306 400 250 107 92 72
371 890 384 79 71 68
301 649 318 35 27 31
307 398 253 107 92 74
274 290 312 134 105 83
450 787 296 107 91 77
237 568 211 185 5 41
351 839 306 33 31 29
307 401 227 118 61 30
315 866 368 40 37 36
311 402 230 116 55 26
318 324 319 118 94 65
179 545 305 58 25 33
306 403 234 111 73 41
260 829 319 141 106 82
262 489 192 133 8 27
261 374 269 81 68 54
311 404 239 109 72 41
268 754 226 141 14 39
314 401 228 124 42 20
316 403 229 117 38 21
306 674 214 106 24 31
281 918 388 82 79 80
316 404 234 106 54 28
321 405 234 100 36 24
321 406 239 99 56 31
383 801 178 94 73 62
349 477 357 190 20 64
311 403 249 112 80 52
309 401 251 108 89 64
312 402 252 113 79 53
176 604 339 166 118 95
183 552 241 157 12 45
421 859 384 69 54 46
296 494 319 64 22 30
218 637 280 115 24 42
320 406 249 112 73 49
314 401 256 112 82 54
365 694 269 74 23 37
292 419 202 134 7 29
271 504 364 76 23 32
291 424 201 120 19 32
184 570 264 104 28 40
296 419 203 110 20 30
296 424 202 98 30 36
222 758 256 68 55 52
291 429 201 105 27 35
293 428 202 81 34 37
334 867 231 90 75 67
294 426 201 86 25 29
295 429 201 72 37 37
263 848 289 178 121 89
296 429 202 77 35 37
336 881 411 65 60 59
447 498 322 110 28 46
266 359 334 136 100 79
194 781 308 190 127 101
341 863 410 47 41 38
274 272 319 116 92 66
301 419 204 57 35 36
326 774 199 55 47 45
301 424 204 50 40 41
296 434 202 94 30 37
295 440 201 122 17 29
346 840 179 109 89 76
297 439 202 120 17 31
387 637 232 130 84 68
342 688 305 102 11 35
296 444 201 111 18 27
301 434 203 104 29 36
301 439 202 114 21 26
300 445 201 111 25 30
298 442 202 112 17 27
296 474 198 138 11 32
302 443 202 111 24 27
303 449 202 76 33 39
317 309 339 134 101 68
409 869 355 85 74 66
306 419 205 114 24 35
351 459 323 75 34 29
345 878 283 56 48 46
308 424 207 85 36 41
311 419 208 61 38 38
169 525 279 44 30 34
309 429 206 123 30 40
351 464 239 68 30 34
312 429 207 86 35 38
315 419 210 72 37 38
316 424 210 62 38 38
251 838 279 202 136 106
321 424 214 74 37 38
311 424 332 120 87 70
306 434 205 73 34 35
312 434 207 74 37 37
336 413 249 68 23 26
226 698 315 44 25 26
306 449 203 109 25 37
310 444 205 53 35 40
479 511 304 71 17 26
280 810 238 82 65 59
312 449 208 120 26 38
210 619 319 87 55 48
313 439 207 71 37 41
436 499 328 120 31 46
315 434 210 81 37 38
375 824 274 78 65 58
190 594 284 134 14 43
321 434 215 100 30 38
286 304 369 117 92 66
341 593 315 145 14 44
332 890 263 85 75 75
401 480 323 164 24 55
318 439 213 74 36 40
291 464 319 37 25 26
362 861 323 63 55 56
315 444 210 61 35 36
314 449 211 104 33 41
441 494 316 77 27 34
317 444 213 46 35 39
412 488 320 130 28 43
391 814 234 101 74 61
419 516 241 59 40 41
416 482 327 151 25 50
369 837 263 59 49 51
371 679 226 123 76 63
320 444 215 60 35 40
331 454 334 66 30 32
324 918 300 86 75 73
317 449 213 64 36 37
412 866 386 64 51 43
346 419 244 78 15 29
411 587 285 93 24 36
320 449 216 91 37 42
370 592 248 154 12 48
261 454 190 48 38 40
261 459 190 65 32 40
389 704 214 149 100 67
261 464 189 137 13 33
265 459 191 106 22 35
265 464 191 138 11 32
261 484 190 98 26 39
223 669 299 75 25 33
330 609 303 36 27 30
260 489 191 148 8 32
259 494 191 133 3 29
301 824 232 84 66 60
290 533 347 195 3 61
264 483 191 130 27 43
267 495 191 122 9 26
420 461 298 91 9 30
272 491 191 117 16 28
421 449 269 92 27 34
261 504 190 126 5 28
266 504 190 132 4 29
271 504 188 131 10 29
266 509 189 123 8 30
411 579 258 50 33 34
376 429 249 62 35 39
380 559 234 50 31 35
385 699 200 126 92 61
276 489 190 120 11 26
277 486 191 122 8 26
371 569 228 100 24 35
276 494 189 68 30 33
371 634 194 101 85 68
260 513 349 34 23 26
282 481 191 129 7 28
391 839 343 48 45 44
291 309 304 78 65 52
284 481 191 131 7 28
285 484 191 135 7 30
396 574 304 65 29 34
285 489 191 134 6 31
276 499 188 40 36 40
355 849 249 67 55 51
259 320 302 60 51 41
281 504 188 52 36 37
303 464 202 103 36 43
286 499 190 99 26 32
256 553 342 192 1 60
308 486 340 30 26 24
286 504 189 87 32 35
237 704 241 121 13 36
291 499 191 108 25 33
367 442 366 102 42 48
307 484 324 99 13 37
291 504 190 85 32 36
294 504 191 105 35 40
310 473 359 53 21 28
390 784 159 87 72 63
291 509 190 61 36 38
294 510 191 69 37 42
267 454 192 112 20 33
271 459 194 136 8 30
260 868 375 136 110 86
271 464 194 135 6 31
267 469 192 131 11 35
511 590 289 198 119 116
271 469 193 134 5 30
267 479 192 108 18 33
211 644 314 121 77 67
275 454 196 134 5 30
277 454 197 128 8 28
276 459 195 127 7 28
303 327 302 98 84 69
276 464 195 122 8 27
281 459 196 115 10 26
331 529 205 110 24 37
281 464 195 116 10 26
257 636 326 113 19 40
286 459 196 109 17 27
174 534 249 178 0 47
426 804 274 98 76 65
286 464 195 117 18 29
446 573 269 110 78 36
281 469 194 117 10 27
269 898 277 61 56 57
440 482 281 87 22 29
276 474 194 117 8 25
325 479 216 117 17 28
276 479 193 116 8 26
281 474 193 120 8 27
366 534 213 50 37 41
281 479 192 123 7 28
326 613 324 70 26 37
473 586 306 134 35 51
232 624 250 167 10 45
230 749 248 89 30 35
336 452 337 70 29 31
263 486 192 139 8 37
266 484 192 124 11 28
271 484 193 116 10 26
271 489 193 120 8 28
298 682 326 127 7 43
366 584 229 100 18 29
265 493 192 123 8 27
271 669 225 60 35 38
269 492 192 121 11 27
276 484 192 119 8 27
274 487 192 120 8 28
280 483 192 123 10 28
288 493 192 126 12 28
406 479 321 141 29 48
296 454 199 45 38 42
182 525 346 116 93 68
356 559 314 174 19 55
289 456 196 92 25 31
376 431 257 66 21 24
375 573 307 100 25 37
331 843 294 32 30 28
290 459 196 101 26 32
296 459 198 66 37 39
192 584 259 106 29 42
291 564 333 164 24 55
300 454 201 50 36 41
303 454 202 51 37 42
319 851 212 98 78 68
300 464 200 91 34 40
273 501 367 54 25 27
293 469 197 53 34 40
191 674 299 130 96 61
173 542 284 166 9 50
347 855 348 32 31 32
291 474 195 120 17 34
204 616 284 84 31 39
291 920 385 76 73 74
294 479 196 130 10 29
390 461 317 60 47 24
297 479 197 123 10 28
300 469 200 106 26 36
189 538 342 117 85 56
301 474 200 123 14 28
303 473 202 109 19 28
326 714 207 52 35 37
303 477 202 114 24 32
306 454 204 90 29 38
335 444 313 69 50 35
311 454 209 79 33 37
507 549 299 72 19 27
344 649 282 138 16 46
255 744 232 47 38 40
491 524 304 92 19 29
306 459 205 77 35 41
311 459 209 66 37 39
204 518 367 155 105 86
308 464 207 77 31 36
311 464 209 57 37 38
191 549 333 107 58 42
316 454 213 44 37 41
317 284 339 126 97 63
319 454 216 57 37 39
496 579 270 139 95 66
314 459 211 49 38 39
314 464 211 58 38 40
221 529 195 150 10 37
221 519 192 67 35 38
311 364 284 102 89 75
196 564 357 170 116 93
320 459 216 62 34 37
320 464 215 90 33 34
359 787 157 81 63 52
258 836 310 124 90 71
448 825 366 103 86 71
308 468 207 51 36 39
353 630 244 150 19 47
311 469 208 60 38 40
309 470 206 73 33 37
306 474 204 67 31 34
332 444 315 70 49 34
305 480 201 118 14 26
286 954 349 55 52 52
239 658 252 127 6 37
325 364 324 120 95 67
310 474 206 106 24 32
401 520 321 37 26 30
316 474 209 65 35 38
186 554 309 172 10 53
336 719 311 65 25 32
316 479 208 95 25 34
316 469 210 47 38 40
201 589 249 193 12 51
317 468 212 46 38 40
200 569 354 167 113 89
321 469 214 49 38 40
319 474 211 103 29 36
350 869 254 88 74 70
291 484 194 130 7 30
263 369 274 81 68 57
291 489 193 122 13 28
303 491 322 75 14 33
296 494 194 79 28 33
297 484 197 115 13 26
380 498 332 187 14 58
301 484 199 118 13 27
301 489 198 114 20 27
299 490 196 118 20 26
349 689 198 138 102 75
302 493 197 75 30 33
292 498 192 73 30 32
296 499 193 69 33 36
430 450 271 92 26 36
301 499 195 87 28 33
301 504 194 88 34 35
381 850 314 77 66 65
306 484 200 117 15 26
311 560 330 41 28 31
306 489 200 107 20 28
441 504 325 59 28 33
308 483 202 116 15 25
309 489 201 117 16 25
306 494 198 72 30 33
310 494 201 120 16 28
312 494 202 118 12 26
189 583 317 96 55 43
314 480 206 123 16 29
431 479 334 163 24 55
356 514 333 38 29 31
226 524 193 114 28 40
315 489 205 115 15 26
376 858 320 68 59 57
318 492 207 112 18 24
319 496 206 112 18 26
321 489 210 111 19 25
304 499 196 40 39 41
180 514 228 118 19 36
306 499 198 64 36 38
208 640 320 139 93 77
307 504 197 65 34 37
255 538 352 195 19 62
311 509 198 56 33 36
347 610 285 86 30 42
313 498 202 122 16 30
316 499 204 117 15 25
236 769 249 71 58 51
337 414 304 123 96 65
307 279 350 122 97 66
346 830 179 97 76 63
373 759 254 149 106 77
315 505 201 97 23 27
251 604 225 127 32 46
230 630 321 157 22 52
317 504 202 113 19 27
304 830 318 100 81 59
257 644 235 129 9 35
390 612 218 102 86 68
321 504 204 115 19 26
188 533 210 182 14 47
366 519 329 51 30 33
291 654 220 126 13 30
410 548 250 177 6 42
318 508 202 68 27 30
236 603 332 116 35 48
299 738 207 121 23 34
319 510 201 48 39 38
359 686 254 133 13 40
326 404 219 104 33 28
326 409 218 73 37 35
261 794 323 61 50 42
490 520 309 65 24 23
315 289 344 128 100 66
324 410 216 92 32 38
256 569 338 92 25 38
317 486 366 193 12 60
327 414 218 65 37 39
194 766 297 174 119 86
331 405 224 91 34 30
254 941 338 63 60 61
331 409 220 110 30 32
252 938 334 65 61 62
342 417 244 79 15 30
333 409 222 89 33 38
175 579 334 148 108 79
336 409 224 65 41 38
247 556 341 193 2 62
330 414 220 103 32 33
350 839 307 33 31 30
450 479 283 81 29 34
296 489 315 61 19 30
333 414 222 93 32 38
375 874 408 63 56 52
324 406 229 98 25 28
327 407 229 96 23 29
326 407 226 102 32 31
177 629 334 170 120 94
324 406 238 92 45 27
314 270 342 123 95 61
359 878 359 70 62 63
231 554 205 159 18 42
326 407 239 88 42 30
353 480 351 60 21 29
332 406 228 85 30 31
362 699 234 104 51 53
386 474 257 47 31 32
336 406 228 72 29 31
280 278 345 108 88 68
240 899 329 51 49 50
331 409 239 82 38 34
336 410 233 76 28 31
334 411 239 77 35 33
337 413 239 75 29 32
307 764 306 70 55 46
322 407 249 107 69 48
326 408 244 90 56 41
359 704 302 147 8 47
391 564 250 67 22 31
326 408 254 82 56 42
331 410 244 77 39 33
176 579 329 138 104 74
340 429 294 104 84 62
331 410 249 70 36 30
270 344 350 144 104 84
334 411 244 73 30 30
334 411 249 66 28 27
331 410 254 62 37 30
334 411 255 59 32 29
180 559 289 78 32 39
364 733 288 54 25 28
337 413 254 61 27 26
228 812 271 80 64 60
260 714 227 142 12 37
256 574 208 180 2 38
339 406 226 78 38 29
451 786 253 105 80 65
339 406 228 72 36 29
451 520 274 71 34 32
266 949 339 70 65 65
190 754 298 166 112 83
339 410 226 91 36 27
286 499 370 146 28 52
460 550 311 173 24 57
340 414 226 82 32 36
342 414 228 113 24 35
309 840 329 94 76 58
265 309 334 121 96 70
251 544 196 126 26 41
340 410 232 75 26 31
341 414 239 76 20 29
345 410 230 104 24 35
324 360 324 118 94 67
426 614 254 188 121 98
258 747 337 92 33 39
406 536 311 178 19 57
349 411 231 110 26 31
201 719 337 167 115 89
349 414 231 119 24 29
246 734 330 133 17 44
346 415 239 84 17 31
341 454 378 102 27 43
350 411 233 105 27 30
441 459 278 107 17 35
351 414 234 108 24 30
214 672 306 134 91 78
340 416 249 73 18 28
498 537 298 114 56 56
339 416 254 67 22 27
175 594 339 163 118 93
324 419 216 83 38 38
241 694 239 64 34 38
327 419 218 73 37 38
327 424 218 107 29 39
273 279 310 107 82 57
324 428 216 87 40 45
390 814 229 96 70 59
413 476 277 74 28 27
401 594 314 68 25 33
330 419 220 103 32 38
332 424 223 118 23 34
336 419 224 69 36 40
251 524 354 100 17 36
323 439 217 56 38 37
326 439 220 65 36 39
322 444 218 89 34 40
322 449 218 100 31 37
271 689 223 109 21 32
328 444 222 87 33 40
281 954 349 53 51 53
451 499 315 65 26 29
329 434 221 104 29 37
332 434 223 82 32 35
329 438 221 106 38 43
188 586 316 107 68 50
331 439 223 80 34 38
187 584 274 124 24 44
406 460 314 61 43 29
271 349 349 146 105 85
246 909 309 63 57 57
336 439 225 50 36 40
328 449 222 84 35 39
241 914 319 62 58 58
336 429 225 110 26 37
247 689 235 138 5 36
362 755 179 56 47 42
315 893 254 87 78 77
231 559 208 129 19 39
336 434 225 64 35 40
307 735 315 74 59 50
336 444 225 72 35 38
379 857 327 68 57 55
335 449 226 81 36 37
386 709 204 137 95 64
180 539 309 157 8 48
337 449 249 71 29 27
338 421 227 47 36 39
380 694 195 121 91 57
317 379 340 137 99 74
371 855 353 49 43 41
271 289 314 106 82 60
341 896 383 68 65 69
371 460 322 87 43 35
341 419 228 99 33 38
240 775 247 73 59 52
338 424 227 102 31 41
341 424 229 78 35 38
390 449 348 164 26 56
183 714 305 162 110 84
325 589 317 121 19 44
341 429 229 88 35 39
282 284 312 98 74 59
321 569 320 127 22 46
339 430 226 77 34 34
346 419 230 94 31 33
348 418 232 121 26 32
301 364 353 155 105 84
351 419 233 109 26 33
281 414 329 126 92 76
347 424 232 60 34 38
348 620 232 41 30 35
336 612 323 155 18 52
351 424 234 89 33 38
345 429 231 56 36 40
342 418 249 74 17 27
256 599 220 170 11 42
356 529 328 122 27 47
342 424 255 74 19 29
172 514 303 41 27 33
214 661 322 129 89 72
506 539 309 57 20 26
345 420 249 76 17 27
206 512 186 158 5 37
346 424 249 76 17 26
301 674 320 38 26 28
345 686 302 116 16 41
351 424 244 82 12 30
294 673 217 75 37 40
341 488 223 43 35 35
344 421 252 77 15 28
331 459 380 72 25 34
351 428 245 82 12 29
265 899 289 62 55 55
366 424 244 67 34 38
339 434 226 47 39 40
338 439 227 44 36 39
226 689 264 49 33 36
340 438 226 46 37 42
291 556 336 111 22 41
309 472 362 56 27 31
341 439 229 75 35 41
338 442 227 81 38 43
339 444 226 83 36 37
501 554 314 63 29 34
339 447 226 71 36 39
355 497 342 44 27 32
356 821 263 34 31 30
341 449 229 113 24 35
372 555 311 180 13 57
345 439 231 84 33 39
306 904 254 71 59 54
361 724 188 135 99 64
347 434 232 90 36 41
351 434 234 85 34 38
351 439 235 61 37 39
182 549 353 159 116 94
388 616 232 107 56 53
337 664 295 107 16 38
345 444 231 80 35 40
466 509 290 90 19 28
451 494 288 54 31 34
260 719 227 112 20 38
426 803 314 52 42 32
173 524 241 76 29 38
356 859 414 46 39 34
344 448 231 112 24 34
350 444 235 77 35 41
269 378 273 71 59 46
352 445 237 109 26 38
352 449 238 131 16 36
311 509 353 191 11 60
298 501 361 53 22 26
340 445 249 71 33 28
273 304 354 112 89 62
291 324 368 156 102 83
339 448 246 66 31 32
268 884 291 120 100 82
341 449 249 68 27 27
191 554 329 100 47 37
337 446 253 70 36 29
318 324 324 121 94 62
337 449 253 71 33 28
174 594 329 153 111 81
340 446 254 69 35 28
286 679 330 130 11 40
363 702 296 141 15 47
341 449 254 69 29 27
355 411 239 89 27 34
355 415 235 117 24 30
416 505 326 144 28 54
356 413 239 89 26 33
306 414 336 142 102 84
360 415 240 78 30 36
206 704 339 167 116 87
360 415 243 79 25 33
356 419 235 124 24 34
355 423 236 110 28 36
361 419 239 63 36 37
357 424 237 95 30 37
361 424 239 91 31 41
270 289 334 116 94 70
354 428 236 94 38 43
314 872 376 31 30 32
281 916 277 92 82 81
356 429 237 94 31 38
360 424 236 105 22 34
361 429 239 132 16 34
336 604 299 58 27 33
381 789 254 99 76 57
330 790 202 76 59 50
366 419 239 75 35 41
365 424 240 69 39 42
361 606 313 139 17 45
256 714 229 147 4 38
215 585 233 199 13 51
272 379 338 134 99 80
353 416 242 87 12 29
356 419 243 90 9 31
311 929 373 58 54 53
356 424 245 87 8 31
363 522 217 87 27 27
356 428 249 84 8 27
357 426 248 89 10 29
361 427 251 92 5 32
196 599 269 194 6 52
276 693 341 53 28 32
361 430 254 94 4 33
330 434 318 69 54 38
364 416 240 79 32 40
366 419 244 82 31 39
366 424 249 89 13 29
368 420 248 90 18 36
436 543 308 68 27 35
365 429 241 57 34 39
366 430 253 87 9 31
354 436 236 82 36 46
354 437 236 75 34 41
356 439 238 63 36 40
361 439 241 82 32 39
241 759 332 154 110 80
321 289 319 128 92 62
383 616 223 95 71 55
297 699 211 116 20 33
256 714 337 167 23 54
353 440 237 77 38 41
244 601 227 129 22 42
356 449 240 129 18 35
203 612 275 128 27 45
176 544 259 156 8 45
360 444 241 97 29 38
311 471 381 119 23 43
362 444 242 78 33 38
361 449 243 117 21 35
316 579 320 49 28 31
364 434 241 110 23 38
366 839 264 58 50 50
366 439 243 84 34 40
381 484 249 66 33 30
362 432 256 97 2 35
266 399 324 98 71 57
503 552 274 72 52 49
269 864 287 174 129 96
366 434 255 86 8 30
366 444 244 61 37 39
365 449 245 79 32 38
370 420 245 76 37 43
315 340 305 106 89 71
371 420 248 86 29 41
370 424 245 59 40 41
370 424 248 80 24 33
375 421 245 64 37 40
361 719 299 168 15 54
376 423 246 58 38 40
376 424 248 60 37 39
271 874 384 138 109 85
417 507 258 77 35 28
403 468 267 90 29 28
381 444 254 57 34 38
374 421 252 80 26 32
371 447 342 108 39 45
372 428 249 71 27 35
207 739 284 106 78 49
375 428 246 47 39 42
184 624 346 163 116 91
305 593 322 74 22 32
371 429 253 76 17 28
376 430 254 75 21 28
382 424 254 99 25 38
381 430 254 111 17 34
361 453 321 66 50 36
371 434 245 44 37 40
372 439 248 54 36 38
450 589 260 152 106 73
376 434 249 53 35 39
370 433 256 72 16 25
321 709 207 74 35 39
256 919 379 59 55 55
169 519 254 47 33 35
376 439 250 81 35 40
324 374 299 118 95 71
336 867 359 31 30 34
369 443 246 55 37 38
280 704 217 135 13 38
371 444 248 55 36 37
377 444 252 96 33 38
414 491 331 190 14 61
376 449 253 96 30 36
318 284 336 128 98 63
379 433 251 108 27 35
411 609 253 161 110 100
202 549 339 85 53 42
378 439 252 88 33 37
331 606 312 75 29 43
389 819 229 71 56 50
381 449 255 88 29 37
322 454 218 75 37 39
225 520 192 60 37 38
326 454 220 75 36 39
328 454 222 68 36 39
343 452 254 70 23 26
263 357 282 80 60 51
421 469 275 79 26 28
211 794 343 180 128 102
460 776 265 116 87 64
322 459 217 89 31 39
266 329 294 88 69 55
326 459 220 93 33 37
318 274 336 128 97 63
331 454 224 58 34 38
331 459 224 64 35 37
329 465 221 49 37 39
328 462 222 41 37 42
323 467 217 45 35 39
286 864 379 101 87 75
326 469 218 42 37 41
380 528 322 173 25 57
313 834 215 62 55 55
324 474 216 96 28 36
356 450 318 67 49 37
327 474 218 89 26 37
304 916 277 84 77 76
276 289 311 124 96 75
264 682 331 46 25 27
327 479 218 111 20 27
248 832 271 205 146 117
285 370 351 156 109 93
330 469 221 56 33 35
356 784 269 64 51 44
332 469 223 121 16 33
330 474 221 91 23 32
311 478 378 151 21 50
296 910 390 54 49 49
242 832 294 57 47 47
310 366 281 101 88 75
332 474 223 119 17 31
337 450 228 89 27 36
301 529 194 103 35 42
334 454 226 91 32 39
323 359 314 121 97 70
335 464 226 109 23 32
416 515 321 105 29 44
335 469 225 126 13 32
352 499 223 49 38 37
336 474 225 87 25 30
330 414 323 136 101 76
340 454 230 122 17 32
343 894 339 54 48 49
343 451 232 128 26 36
381 833 309 38 33 29
343 454 232 120 17 31
340 464 230 118 15 29
261 504 328 35 26 26
208 614 325 133 89 74
401 638 233 166 108 83
342 464 233 118 17 31
346 454 234 116 18 33
182 639 339 164 117 88
349 454 236 112 22 35
397 529 222 95 34 40
366 504 333 154 22 51
351 454 238 116 19 32
398 536 232 193 3 41
346 459 235 104 24 32
246 563 205 143 16 41
348 456 237 96 21 33
396 500 244 94 32 23
400 740 159 81 62 48
409 501 256 74 40 35
348 458 237 93 30 30
225 714 328 134 90 71
380 817 205 89 68 61
345 450 254 69 24 26
347 453 251 71 24 30
296 854 368 119 92 72
271 369 339 138 102 82
346 453 253 71 20 27
223 602 241 196 12 51
350 454 251 75 26 31
244 702 237 132 7 34
349 454 252 73 22 29
186 524 346 107 86 63
407 759 184 85 64 48
347 461 246 79 24 25
366 479 244 89 28 28
468 517 287 77 24 24
341 659 226 63 28 32
348 457 252 88 18 29
301 928 378 59 55 54
338 469 227 111 17 29
301 934 373 59 55 55
317 314 334 126 97 66
340 469 230 114 19 29
311 534 198 63 33 37
338 473 227 74 33 34
474 771 273 114 87 62
323 373 298 116 95 71
341 479 228 71 33 30
351 600 308 46 30 36
296 322 302 89 76 62
349 470 236 103 26 26
344 475 231 91 28 26
421 493 332 195 13 62
286 623 329 93 25 39
330 864 340 35 33 34
346 479 230 74 34 28
369 724 256 101 21 39
244 926 355 59 55 56
346 474 233 92 28 28
350 475 235 76 32 26
352 474 238 71 32 28
351 479 234 62 33 31
426 810 328 58 47 37
347 468 248 72 30 28
288 714 341 160 14 52
381 885 379 74 67 65
176 549 279 152 13 45
427 468 299 87 12 26
393 738 195 63 50 38
349 465 248 82 28 32
276 454 325 50 22 27
322 484 213 112 17 26
251 619 329 79 28 38
323 489 212 108 19 25
435 604 245 163 114 81
326 489 214 105 23 25
261 439 337 44 25 28
326 494 213 102 23 23
415 464 337 161 25 53
331 484 220 102 25 24
346 689 209 74 42 39
405 517 322 44 29 32
360 795 153 112 84 64
332 483 222 102 27 25
263 344 319 103 78 58
336 899 389 79 74 73
264 832 340 129 93 91
331 489 218 95 27 25
336 484 223 76 32 27
396 583 306 78 26 34
277 873 281 131 100 78
334 486 221 86 29 26
336 489 220 55 33 32
192 519 199 140 14 41
305 494 329 41 28 28
402 612 217 103 88 71
301 585 207 110 26 38
330 490 216 98 26 27
335 495 216 92 28 27
322 499 208 108 19 23
169 515 248 130 19 42
400 553 251 126 15 36
323 502 207 107 21 22
326 509 205 101 24 28
334 757 297 70 55 46
328 507 207 108 23 25
331 509 208 105 24 26
281 578 206 73 32 36
356 893 398 63 58 56
242 864 334 181 131 109
486 549 270 65 33 31
336 509 210 77 31 33
331 499 213 95 26 26
330 501 211 84 28 26
429 600 266 164 111 99
336 499 214 80 31 26
390 788 154 98 78 64
341 499 215 67 35 32
341 694 218 105 10 26
178 541 346 158 117 91
335 505 211 41 36 38
396 602 313 117 33 48
336 503 212 38 35 39
391 478 324 165 27 56
332 490 356 191 19 61
337 487 222 47 32 31
400 495 255 64 35 30
300 478 363 41 25 23
340 490 220 37 34 38
347 493 223 43 39 39
341 849 209 105 81 64
296 347 287 99 85 70
351 494 225 44 37 38
382 809 199 98 74 63
341 504 214 50 37 38
283 516 356 82 30 40
372 760 160 71 54 44
344 504 216 45 37 39
349 496 221 43 38 38
411 813 319 43 37 32
184 569 322 99 47 40
350 499 221 42 36 37
350 504 220 46 37 38
267 799 240 77 61 55
209 759 272 135 97 73
353 503 222 48 37 38
345 509 216 54 34 38
295 739 328 69 30 34
347 509 217 52 34 36
286 535 192 158 5 38
273 276 327 115 93 69
350 509 220 74 32 36
348 487 227 39 36 39
256 654 234 123 11 31
424 618 234 188 127 97
185 744 324 180 121 96
349 481 231 53 34 26
309 378 347 141 98 76
351 488 228 40 38 39
450 598 264 193 129 102
291 364 275 99 85 69
352 482 232 46 35 35
350 490 226 42 38 39
355 454 240 123 17 32
361 454 244 125 16 33
355 459 241 103 25 32
466 508 327 179 24 58
359 873 341 59 52 53
354 464 241 125 20 34
338 429 304 102 80 56
271 284 329 113 91 68
357 459 243 95 25 32
438 517 262 88 34 27
437 475 282 96 18 29
241 889 354 165 128 105
353 546 321 185 16 60
360 459 245 107 21 34
391 599 304 102 21 39
363 455 247 130 14 34
426 542 246 184 1 44
281 269 339 111 92 73
363 459 247 125 13 35
366 459 249 104 22 33
366 464 250 109 21 30
296 951 355 56 52 51
355 469 241 90 33 32
318 476 376 56 23 24
361 469 245 87 27 30
360 475 241 83 30 25
287 625 325 62 28 32
295 903 402 67 62 62
362 473 243 83 30 26
363 468 247 98 25 31
366 469 249 88 27 27
364 471 246 79 31 26
363 478 242 97 28 25
366 464 325 71 41 30
342 866 390 55 51 50
365 474 245 76 30 29
367 473 248 79 30 30
294 622 327 142 23 46
374 452 251 67 35 41
376 454 253 79 31 35
268 324 352 127 96 70
311 264 343 118 93 63
446 545 254 182 2 42
386 809 209 80 61 54
372 459 252 82 33 35
306 644 219 120 16 28
353 654 199 136 104 74
369 463 251 106 25 32
371 464 253 92 26 32
376 459 254 62 31 34
171 529 264 57 30 34
218 818 299 217 148 113
406 599 313 71 31 36
369 470 251 95 27 26
481 519 322 174 21 56
324 462 382 93 26 33
376 469 254 98 24 26
318 838 296 95 79 64
263 876 382 137 108 85
371 474 249 79 31 29
401 849 339 92 75 67
238 909 354 51 48 49
291 294 364 107 87 65
370 479 246 71 32 32
220 639 279 175 7 50
243 884 363 161 122 100
329 376 318 117 94 68
372 478 248 66 33 31
306 384 346 142 99 76
377 474 253 85 27 28
353 635 254 169 18 51
406 479 329 185 19 60
376 479 249 75 30 30
380 470 256 92 24 25
191 609 308 104 76 53
380 480 250 77 27 31
256 739 336 140 15 44
378 477 252 77 30 29
381 479 253 76 29 28
356 504 225 76 31 30
366 890 374 69 62 60
353 509 222 82 31 32
357 488 232 69 36 31
391 584 245 66 30 34
185 539 219 192 14 51
361 489 234 82 30 29
276 537 347 192 19 66
326 879 234 106 86 75
389 839 404 84 69 57
353 492 227 43 37 39
359 494 231 110 23 24
361 494 233 98 26 25
354 882 351 69 61 60
362 484 238 64 33 29
363 488 237 74 33 28
281 684 335 86 20 35
328 879 239 91 76 70
365 485 240 90 27 28
178 551 341 144 109 82
366 489 239 86 28 26
364 490 236 91 27 24
452 556 277 34 30 34
366 494 235 83 30 25
367 483 243 90 26 26
355 499 225 72 33 35
218 696 291 79 28 37
360 499 230 93 28 25
452 482 295 96 6 32
315 259 338 123 96 65
381 530 321 187 19 60
358 503 227 94 28 24
361 504 228 82 31 27
375 453 358 180 22 57
425 823 324 89 70 60
369 848 402 56 46 36
360 506 226 82 31 25
266 635 326 137 16 44
385 496 241 85 31 28
364 501 231 80 32 25
411 554 259 117 15 34
366 504 230 60 35 33
258 484 326 36 22 23
362 498 232 86 29 24
366 499 234 75 31 27
237 614 240 81 33 40
191 554 359 166 116 95
362 508 227 79 30 28
266 449 333 28 24 25
406 458 304 82 28 30
364 510 226 78 33 35
371 490 240 68 32 28
195 764 335 169 118 89
363 630 209 83 66 46
371 494 239 74 31 27
369 496 236 79 30 28
371 484 244 79 30 28
372 488 242 72 32 30
377 483 247 75 32 30
376 494 242 79 32 28
360 827 190 120 91 68
261 789 239 77 61 55
381 493 243 65 32 32
412 508 253 87 38 31
381 495 241 83 31 31
291 814 304 109 85 62
395 614 240 136 82 77
365 848 409 44 34 29
370 500 235 71 32 28
319 299 324 119 89 57
311 903 254 77 67 62
371 503 233 60 35 32
376 499 239 83 30 26
441 499 328 92 31 42
376 504 234 50 33 34
244 897 318 55 51 52
318 329 324 122 95 63
270 874 288 142 110 82
376 509 230 74 33 35
223 647 286 191 7 57
332 575 316 168 4 52
381 504 234 39 34 38
381 501 236 42 35 35
399 582 250 40 31 33
264 379 320 98 70 56
381 510 231 79 37 35
448 522 268 85 34 26
376 497 242 82 32 22
276 714 345 182 18 59
281 464 321 34 24 26
405 773 174 101 74 61
386 425 251 95 27 34
386 429 251 121 21 35
326 539 203 138 14 37
350 446 313 65 50 35
386 429 253 110 24 35
374 461 322 101 43 39
221 724 333 152 103 76
374 844 398 89 76 63
389 426 251 98 25 35
390 429 250 108 25 35
390 429 255 88 31 38
451 483 299 100 8 34
390 432 249 120 25 30
272 724 221 105 32 40
390 434 255 128 22 38
276 684 335 39 29 32
377 441 273 80 12 31
390 438 255 129 22 35
270 340 293 111 86 69
385 444 256 50 36 39
184 746 307 174 118 93
419 627 230 196 132 104
394 432 255 82 46 50
386 479 255 59 31 31
387 484 253 67 32 31
246 754 238 69 44 44
386 489 250 44 34 34
387 488 252 54 35 31
391 489 254 60 35 32
231 579 334 113 28 43
331 644 225 59 30 33
387 492 248 68 35 34
397 784 199 76 56 48
391 494 249 82 31 29
308 719 206 123 18 30
389 496 246 88 27 28
230 799 263 74 60 55
392 492 252 62 33 29
395 490 255 57 35 32
386 504 235 41 34 38
339 440 307 70 56 40
390 506 236 74 37 29
472 514 286 82 21 27
406 461 317 58 46 34
407 508 243 78 36 31
436 609 249 198 132 107
392 820 286 56 47 39
393 507 237 79 33 24
281 870 382 134 109 86
266 509 330 41 24 26
296 869 378 71 61 52
396 504 240 85 36 25
276 294 310 109 86 62
261 394 323 86 56 43
396 510 235 52 37 37
359 847 329 36 33 33
401 509 239 89 31 28
399 511 236 87 30 39
258 347 262 78 69 61
390 501 241 91 33 25
342 434 264 78 61 44
394 501 241 91 32 17
401 504 244 85 35 32
339 788 192 62 52 50
241 759 243 67 54 50
262 432 334 52 37 28
405 510 240 93 35 26
361 764 174 65 50 44
402 502 248 65 33 31
178 529 230 147 11 43
298 777 211 78 62 54
406 500 254 75 37 30
308 911 386 58 55 54
404 501 251 70 36 33
405 505 245 67 36 27
341 868 379 42 39 38
408 507 247 49 33 35
429 562 271 38 30 34
340 793 188 57 49 47
383 744 161 71 53 44
432 551 301 168 23 54
411 509 249 86 38 30
410 510 245 82 34 26
414 511 246 91 40 20
415 511 250 92 38 24
351 674 199 132 99 71
358 644 190 144 105 76
416 509 254 88 36 28
260 309 274 82 67 51
231 739 249 94 29 39
257 259 259 117 93 66
266 444 334 47 22 25
201 544 339 89 59 47
262 824 319 130 99 78
257 259 264 109 86 58
321 874 228 110 88 75
257 264 264 109 86 58
301 834 239 121 92 78
278 334 362 149 103 86
257 259 269 103 81 56
371 719 235 131 82 65
356 819 179 98 74 60
186 719 329 167 113 88
257 264 269 102 80 56
365 512 332 64 25 31
257 269 264 109 86 59
189 601 351 164 115 90
257 259 274 98 77 52
441 553 302 177 20 56
261 719 339 177 23 58
346 451 340 67 34 28
257 274 264 108 85 59
204 639 334 147 100 82
257 279 269 102 81 57
268 901 276 65 60 61
257 284 259 117 93 68
257 289 259 114 92 68
258 289 264 107 86 63
202 614 284 108 32 45
278 816 321 76 61 47
207 663 330 129 93 68
267 454 331 41 23 25
291 334 365 156 105 83
461 553 309 113 20 42
258 284 269 101 81 57
315 258 286 149 104 69
258 289 269 98 79 58
316 873 394 47 43 41
258 284 274 94 74 52
328 606 309 40 31 35
257 284 279 85 68 47
259 286 273 94 75 53
173 537 297 163 4 50
258 289 279 84 68 49
258 289 284 82 66 49
310 354 290 102 88 75
361 484 345 107 30 44
271 284 319 108 85 60
318 460 355 110 8 36
271 289 319 102 81 58
274 259 304 102 80 56
274 264 304 107 84 60
268 368 337 135 101 81
263 320 322 112 85 64
278 258 296 129 98 73
281 259 295 111 85 60
279 261 297 120 93 70
275 269 304 119 92 69
278 268 301 125 98 75
349 777 182 57 47 44
272 309 310 99 81 59
279 271 302 114 90 69
256 859 304 173 131 101
226 569 338 122 25 46
282 263 296 103 78 54
287 259 291 114 82 50
258 521 333 53 20 26
287 269 295 99 72 45
285 270 297 97 73 47
274 259 309 115 89 62
395 448 261 113 24 35
357 794 155 97 72 56
274 264 309 111 86 60
177 584 344 161 116 91
260 319 279 70 59 47
275 259 319 117 94 69
274 264 314 118 93 66
409 638 228 185 125 99
274 264 319 117 94 68
310 644 312 80 27 37
281 328 298 83 69 55
273 269 309 109 84 58
273 265 313 118 92 66
266 659 326 38 27 29
313 342 302 105 90 74
274 269 319 117 93 67
280 275 302 100 79 59
286 274 299 94 70 45
316 559 329 76 31 39
287 278 300 87 65 42
242 904 319 58 54 55
326 848 299 30 27 27
274 272 312 113 87 61
288 282 301 80 61 41
277 278 305 127 98 75
296 654 218 106 19 32
274 386 336 132 97 80
339 798 183 59 52 47
273 274 314 114 88 62
273 274 319 116 91 64
273 279 314 112 86 60
273 284 311 110 84 62
324 386 286 109 90 70
273 288 311 127 98 78
279 281 307 110 86 65
366 729 284 87 28 38
307 619 315 61 28 34
282 282 306 90 70 50
284 284 309 85 66 47
406 544 307 163 18 52
389 792 175 71 53 48
458 579 267 155 110 78
343 442 289 80 66 50
445 602 268 206 134 109
328 824 276 75 62 50
287 289 305 73 58 39
348 871 253 91 75 72
281 674 328 81 22 35
184 545 228 39 32 38
258 294 259 111 91 69
259 295 264 105 85 63
381 699 195 118 89 57
259 296 261 110 89 67
432 583 281 93 43 44
436 583 259 114 91 62
334 400 301 113 91 68
258 292 269 97 78 58
259 368 261 83 71 58
376 838 334 37 34 34
242 794 250 77 60 54
305 825 308 115 92 68
327 930 319 78 70 70
258 304 257 109 91 71
369 734 254 81 26 37
280 605 217 100 32 40
260 304 259 108 90 70
261 304 264 104 86 66
261 304 269 93 76 58
276 320 305 83 70 56
259 294 273 91 74 55
258 294 275 89 72 54
281 814 238 83 66 60
348 876 314 62 55 55
258 294 279 86 70 52
376 824 269 79 64 58
321 799 288 151 105 85
182 534 313 163 10 50
336 539 330 95 30 41
258 293 284 83 67 50
327 399 274 100 86 71
259 295 289 83 69 54
271 889 394 41 37 37
260 299 274 88 72 53
333 419 316 129 97 70
260 304 274 86 70 52
345 879 269 76 64 61
376 839 299 109 97 99
327 455 334 64 31 31
260 304 279 82 67 49
258 297 282 85 68 50
262 349 319 104 78 59
480 510 323 150 20 50
259 299 284 83 67 49
361 874 354 72 64 66
260 299 289 80 64 47
260 304 284 80 65 47
291 624 324 77 27 36
230 719 249 125 12 41
261 304 289 74 59 42
225 546 202 120 26 42
258 308 257 107 88 70
370 656 186 133 96 61
370 448 367 165 25 58
260 309 259 105 87 68
280 724 217 102 26 37
231 529 193 91 31 38
386 494 332 105 24 41
289 878 253 58 53 55
346 463 325 68 32 28
261 309 269 89 73 56
454 542 251 108 23 38
258 314 257 98 82 67
382 678 221 154 103 78
310 339 300 102 88 75
259 314 256 99 83 67
260 319 259 88 75 61
299 331 296 93 80 66
258 320 257 89 75 62
474 494 284 102 35 41
261 314 264 90 76 60
376 514 228 49 34 37
260 319 264 82 70 57
346 454 324 78 33 30
261 314 269 82 68 53
206 744 284 112 85 53
260 309 279 78 64 48
334 634 292 45 27 32
276 497 321 44 25 27
261 309 289 69 56 42
260 314 274 76 62 48
421 469 335 150 25 48
259 314 279 74 61 46
309 335 301 100 87 73
260 319 274 73 61 48
260 314 284 70 58 46
205 759 279 143 98 67
259 296 292 84 70 55
406 610 220 104 88 72
261 304 294 71 58 45
311 359 349 145 103 79
258 302 296 70 59 46
218 699 331 141 98 73
266 339 344 137 101 78
334 429 313 100 78 56
270 294 319 100 80 58
391 814 239 102 76 64
346 664 284 139 8 43
245 620 238 66 37 41
267 299 319 101 80 57
446 784 249 116 87 63
202 588 245 197 14 51
305 340 296 101 87 74
351 860 413 47 39 36
269 299 317 97 77 55
290 639 322 162 16 51
211 548 205 117 31 44
276 769 323 83 64 53
271 304 313 116 92 68
332 860 224 127 98 75
262 309 294 63 52 40
259 306 297 68 57 47
426 550 259 50 32 36
262 314 294 61 51 40
257 317 301 61 50 36
206 619 334 159 107 88
263 319 319 106 82 58
267 309 315 106 83 59
234 656 316 35 28 29
211 539 200 127 23 40
313 283 346 123 96 64
241 574 213 131 18 40
270 309 313 121 95 69
271 314 310 102 83 64
281 309 369 123 94 70
235 679 316 31 26 26
371 839 404 66 50 37
271 318 308 102 84 65
326 379 299 117 95 71
196 539 325 138 18 46
268 316 311 130 102 76
264 317 319 106 82 58
232 694 249 61 37 43
269 313 312 127 100 73
273 296 311 134 103 81
281 294 309 86 67 46
276 303 311 91 74 53
281 299 308 79 64 46
281 304 308 78 64 48
228 659 269 139 12 45
286 294 308 75 60 43
370 650 221 116 77 65
288 293 306 72 58 41
193 593 269 114 20 43
286 304 306 76 63 49
324 896 248 90 77 68
284 304 307 75 62 48
240 894 354 134 104 88
288 300 306 76 63 48
192 729 333 168 115 90
276 307 312 92 74 53
276 314 308 86 71 55
203 668 336 146 105 76
312 535 341 80 26 37
309 851 352 71 61 50
280 314 308 84 70 55
421 484 278 77 33 26
401 454 265 132 13 31
280 317 307 84 70 54
276 729 219 67 34 36
196 624 303 100 71 48
476 509 285 98 15 29
276 614 220 49 38 42
281 319 305 84 70 55
323 455 350 79 25 36
286 309 305 77 64 51
376 460 335 129 34 48
284 309 307 78 64 50
286 314 305 81 68 54
284 312 307 80 67 53
291 259 289 124 87 55
197 784 334 180 123 94
297 259 286 137 96 62
295 260 287 132 93 60
298 262 286 137 96 63
306 259 285 146 102 68
310 262 286 148 104 68
303 470 378 126 11 39
317 260 288 149 105 71
301 859 239 63 58 58
276 926 288 92 82 79
292 264 290 120 86 53
290 265 292 110 79 49
297 817 306 99 80 59
291 269 293 107 77 46
243 526 342 49 21 27
293 268 291 117 85 52
251 814 319 50 41 36
406 475 331 188 18 61
251 784 243 77 61 54
294 270 292 116 84 53
337 609 295 104 28 44
174 604 329 157 112 84
356 503 338 83 27 37
301 269 289 136 96 64
196 523 195 176 8 43
291 274 295 104 75 47
296 274 293 115 83 53
231 744 329 132 89 65
296 279 295 110 80 51
460 818 366 106 92 80
290 276 297 98 71 45
291 283 300 84 64 41
294 281 297 102 75 47
401 869 394 64 55 50
296 284 298 94 72 46
296 282 296 106 78 50
293 287 301 82 64 43
296 287 300 91 70 46
298 272 291 123 88 58
211 569 335 65 32 36
301 272 291 130 92 62
377 859 410 53 43 39
301 279 295 118 85 56
286 935 374 83 83 87
338 432 301 92 74 53
301 282 296 113 83 54
258 354 313 75 53 37
271 430 327 47 38 29
301 285 298 106 79 51
213 632 298 43 36 42
496 574 313 181 22 59
301 289 300 101 76 50
261 554 198 83 30 40
306 269 289 143 99 68
311 269 290 146 101 69
283 491 372 119 12 37
319 263 291 148 106 73
440 604 250 170 116 87
286 859 268 160 117 95
312 271 292 143 100 68
321 264 294 148 107 73
318 266 292 148 105 72
220 802 342 191 139 114
320 269 295 148 105 72
306 279 295 123 88 59
263 364 323 111 80 63
311 278 296 128 90 62
304 294 357 120 91 59
266 609 222 120 23 39
305 282 296 118 86 57
306 284 298 114 84 55
310 288 300 114 84 57
319 272 296 144 102 70
314 277 296 132 94 64
270 868 381 136 111 87
207 779 343 172 125 96
316 279 299 131 93 65
261 579 210 179 1 40
346 849 324 32 30 30
250 588 332 105 30 44
486 529 283 89 19 29
316 414 334 140 99 81
351 606 313 78 19 43
266 804 243 81 64 57
317 275 297 138 98 67
273 497 321 29 25 26
319 278 301 140 98 68
321 279 304 141 100 69
381 840 396 80 68 58
312 290 303 113 84 58
313 286 302 117 85 59
201 584 244 196 14 52
317 290 308 125 90 63
271 639 326 180 11 57
318 286 307 130 93 64
272 386 265 83 69 54
239 908 328 50 46 48
319 288 310 132 92 67
416 818 289 95 76 65
291 294 305 73 59 43
296 290 302 86 67 43
219 697 288 57 28 29
291 304 304 77 64 51
301 294 303 94 74 50
381 626 206 104 89 74
396 654 204 189 124 96
348 639 269 166 19 53
426 794 259 108 81 64
397 556 306 144 19 46
302 292 301 101 78 51
301 299 303 88 71 52
301 304 303 88 72 54
291 299 305 74 62 48
176 519 309 95 27 39
218 729 264 163 11 46
233 685 251 54 35 37
296 309 304 81 68 53
296 314 304 84 71 57
301 309 304 90 74 55
301 319 304 93 79 64
370 740 243 119 81 59
303 311 307 96 79 59
307 291 302 108 82 54
306 294 304 103 79 55
310 294 305 109 83 57
339 680 221 44 32 37
241 539 195 50 37 40
312 295 308 113 85 59
381 864 354 80 71 70
309 299 306 106 81 57
324 268 300 145 104 73
312 299 309 109 84 59
309 304 306 103 82 60
353 786 166 64 53 47
371 445 284 75 24 29
269 293 323 103 83 61
258 343 306 62 47 31
311 304 309 107 85 62
321 289 314 126 88 61
267 608 221 51 34 39
388 758 146 97 69 50
297 582 206 60 35 36
314 298 311 113 87 62
286 704 343 147 17 47
316 299 314 115 86 61
313 301 312 109 86 61
368 775 261 157 112 86
315 304 315 106 83 59
381 585 289 143 21 43
331 804 280 140 103 85
318 300 318 113 85 58
319 299 320 113 85 55
309 307 306 103 83 60
371 878 408 64 58 56
305 316 306 100 83 64
402 749 148 103 75 53
411 462 319 61 43 29
306 319 305 101 84 66
386 653 222 135 85 67
311 314 309 103 84 65
308 317 307 102 84 65
442 488 327 141 21 48
310 320 306 101 85 67
271 814 309 92 57 47
301 294 359 124 96 64
356 815 173 99 76 64
313 308 312 106 85 63
214 536 336 47 25 25
349 670 283 134 6 42
314 314 310 93 77 60
315 314 314 92 76 59
232 618 327 88 30 41
345 842 189 136 108 83
359 862 397 62 56 52
316 319 314 98 81 63
186 564 249 109 33 43
226 609 328 110 27 42
317 314 319 110 87 61
272 279 324 113 90 65
271 284 324 110 88 63
270 289 324 107 86 62
469 782 261 96 75 60
277 606 326 144 23 48
270 289 329 113 91 67
276 264 324 119 96 72
342 704 204 95 43 33
278 261 327 118 96 73
464 561 301 169 22 53
279 263 330 117 96 73
215 580 228 200 12 50
363 664 186 139 100 65
275 269 324 118 95 69
276 269 329 117 95 71
353 654 254 77 23 35
278 266 332 116 95 73
251 514 189 142 0 30
466 552 264 89 31 42
262 947 339 66 62 64
223 725 256 118 13 33
396 489 332 84 28 39
279 268 335 113 93 71
224 750 337 153 110 77
282 259 333 112 93 73
384 527 322 135 26 45
284 258 335 110 92 73
427 473 310 59 25 25
301 904 264 81 73 71
278 271 337 114 94 73
425 490 319 118 23 41
286 354 280 90 76 61
361 499 338 129 30 50
283 276 347 109 90 72
286 264 340 110 92 74
283 271 342 110 92 74
360 593 288 150 17 47
273 275 324 116 93 68
273 279 329 114 92 69
458 478 276 84 29 33
491 559 316 55 29 34
276 274 334 116 95 72
274 278 330 115 93 70
277 274 338 115 94 73
280 273 340 112 93 73
277 280 343 107 88 67
403 770 163 75 57 48
274 283 340 114 92 69
404 773 190 74 54 45
421 468 322 82 38 32
387 480 336 65 23 31
300 709 333 152 1 49
276 284 344 111 90 67
389 866 392 65 54 48
291 838 359 108 86 63
272 289 339 119 96 71
275 289 344 117 94 69
294 478 374 70 23 31
278 285 348 113 92 69
256 644 324 154 22 51
316 894 230 117 94 80
279 282 346 109 88 66
280 284 349 111 91 70
276 534 349 113 21 42
277 289 349 118 95 70
285 273 345 108 90 72
285 278 350 108 90 72
183 564 294 75 28 37
316 399 338 138 97 73
282 285 353 108 89 69
422 806 273 99 78 66
282 290 358 108 89 70
326 699 211 79 28 32
286 283 355 104 87 70
306 354 354 152 105 82
268 294 324 106 85 62
311 694 325 114 22 43
268 294 329 113 91 67
268 295 333 116 94 70
340 892 402 63 59 60
291 290 362 106 87 66
267 299 324 106 85 61
283 917 276 93 84 83
465 577 306 135 13 41
491 588 299 203 136 120
266 304 324 107 86 61
265 304 329 114 90 66
371 443 349 113 47 47
321 785 202 77 60 53
270 294 339 115 93 68
268 300 338 118 96 71
411 461 319 60 42 29
426 849 383 78 65 53
267 304 339 120 96 71
271 299 344 116 93 68
296 694 334 137 8 43
269 302 341 118 95 71
400 745 149 106 75 53
505 565 271 107 81 59
281 349 285 87 73 59
273 300 348 113 90 65
421 597 305 99 24 37
263 316 331 125 98 73
263 316 332 126 99 73
357 649 190 140 104 71
184 518 222 111 17 34
196 554 329 83 36 34
343 444 269 77 54 40
265 309 324 110 87 62
190 774 314 190 129 103
183 542 226 157 11 51
244 867 349 103 84 75
264 309 329 116 92 67
264 314 324 113 87 63
264 319 324 114 87 65
389 580 241 35 30 32
266 309 339 125 99 73
337 414 264 72 60 50
274 882 283 61 54 52
268 309 344 123 97 69
363 826 204 93 72 60
268 305 343 120 96 70
384 446 352 126 25 46
269 308 346 121 95 66
266 314 339 127 99 72
441 594 250 147 108 71
466 498 304 85 6 28
416 509 324 36 26 31
301 266 347 112 92 70
267 314 344 122 95 68
268 315 348 118 92 64
269 319 351 118 91 65
273 290 342 117 93 67
296 919 280 90 82 83
274 293 346 117 93 67
274 298 350 111 89 65
261 639 325 182 16 59
211 594 244 196 13 51
271 309 354 118 89 62
267 830 343 134 94 95
374 833 275 110 98 101
436 493 323 113 20 41
271 314 354 118 90 63
347 615 228 100 26 37
451 475 282 92 25 36
270 319 354 121 91 65
431 569 274 78 19 33
396 788 169 83 64 53
398 780 194 78 56 49
278 291 352 114 92 67
277 294 354 110 89 66
280 293 360 108 89 69
359 617 254 177 3 56
370 744 264 75 36 40
278 295 358 106 87 67
272 390 260 86 73 58
276 299 359 104 86 65
274 303 359 113 91 67
276 304 364 116 94 70
367 789 260 132 101 78
282 295 363 108 90 71
278 300 363 108 89 68
287 291 362 105 88 70
206 584 239 197 14 52
386 554 309 178 6 57
284 292 361 107 90 73
283 301 367 114 91 67
419 440 266 116 23 37
341 509 340 107 32 45
285 298 366 112 91 68
221 689 294 59 27 32
406 534 313 179 19 58
336 853 324 31 31 31
196 729 293 134 99 66
286 299 367 114 91 66
203 544 349 139 94 77
273 305 358 117 93 66
427 792 255 101 74 55
177 579 325 125 98 69
273 309 359 122 92 66
273 310 362 126 94 69
292 857 371 97 79 62
277 309 367 126 97 71
421 529 235 175 1 43
278 306 367 119 95 70
273 314 362 133 97 73
275 314 365 140 102 80
476 579 308 52 26 32
273 318 362 135 97 75
277 314 367 143 106 84
223 729 256 111 15 31
366 664 186 139 100 63
321 564 323 86 28 40
253 686 327 34 25 25
513 562 291 141 100 87
281 319 369 150 107 89
372 821 207 105 80 66
281 314 370 140 102 82
286 309 371 122 95 70
253 854 352 147 107 93
350 884 269 80 68 65
286 314 371 139 101 80
291 259 340 110 92 73
240 605 232 89 33 42
302 710 330 154 2 50
301 878 394 32 31 33
290 263 341 110 92 74
168 512 297 66 24 32
317 868 345 54 48 43
336 564 319 147 23 51
295 258 341 112 93 72
296 259 343 111 92 71
189 539 361 163 115 94
296 264 345 107 88 69
298 875 241 65 57 58
290 268 345 108 91 74
292 270 347 108 91 73
212 629 289 126 25 45
298 256 342 112 92 70
291 274 349 107 90 73
312 719 320 121 18 43
251 649 239 130 1 34
193 578 250 124 34 49
289 277 351 107 91 74
185 599 313 113 87 59
320 264 334 126 98 64
246 815 320 44 35 35
363 850 413 48 41 34
306 259 343 116 94 69
306 264 345 116 93 67
378 775 150 104 75 57
386 839 399 80 66 58
308 257 341 116 94 68
312 259 340 118 93 63
307 268 346 117 93 66
313 263 341 120 93 62
317 444 326 80 59 42
313 267 341 120 93 61
316 269 339 125 97 62
320 279 333 129 97 62
320 284 334 129 98 63
265 364 329 128 93 73
312 274 345 121 94 62
462 790 289 101 79 67
426 489 324 122 23 44
309 274 347 117 91 60
310 279 348 122 96 63
230 754 248 77 40 43
396 609 219 105 89 70
307 284 351 123 96 62
437 781 278 67 55 45
315 279 343 123 95 62
451 568 273 106 66 38
347 835 188 126 98 74
317 279 339 126 97 63
506 588 299 114 42 49
317 289 339 127 99 64
318 288 336 128 99 65
