ply
format ascii 1.0
comment Created by Open3D
element vertex 2225
property double x
property double y
property double z
property uchar red
property uchar green
property uchar blue
end_header
186 479 211 93 30 39
317 424 337 69 24 29
190 480 210 115 29 43
257 334 304 100 73 52
166 454 237 84 58 62
262 23 296 136 21 51
289 263 313 111 91 69
221 334 291 120 96 69
199 414 256 89 72 62
387 760 166 94 70 53
167 459 232 69 45 46
307 169 244 126 94 53
237 874 322 166 124 98
323 56 203 113 68 30
221 759 323 147 112 78
168 464 237 68 31 34
170 454 227 66 33 36
292 629 229 61 35 37
260 703 344 89 22 37
170 610 288 149 108 81
170 460 230 80 28 34
171 464 232 54 31 33
173 464 227 70 31 32
329 468 310 65 23 30
273 101 247 133 77 67
251 284 292 70 58 44
316 588 214 110 24 41
361 494 212 62 33 36
168 462 234 58 32 29
290 254 307 111 90 68
236 474 187 134 22 41
163 454 248 108 74 76
297 813 304 127 96 71
204 449 209 110 9 24
164 454 246 121 86 86
360 792 163 101 75 60
208 542 214 145 24 47
271 315 277 93 73 56
314 424 365 156 22 51
208 442 215 110 10 27
377 795 186 84 64 53
173 488 244 41 33 35
163 450 250 95 38 39
413 555 264 30 29 35
258 124 241 126 90 59
163 454 251 78 40 41
186 609 251 143 106 77
363 662 253 78 32 39
273 488 314 56 25 30
329 230 300 121 96 66
235 567 340 180 16 57
227 773 249 73 58 53
166 464 242 114 33 44
336 19 283 132 91 77
381 529 235 44 35 40
308 99 229 94 66 44
165 464 247 100 25 37
198 400 276 114 91 65
213 289 276 120 93 66
468 494 271 87 16 28
163 458 249 77 48 49
291 903 268 79 70 68
163 464 252 80 37 36
163 464 257 74 34 33
319 752 315 72 57 51
362 444 273 131 7 42
401 424 242 94 11 32
174 471 235 105 24 37
376 584 241 142 14 34
164 459 257 55 25 28
164 464 250 84 29 40
326 609 223 58 34 36
295 839 347 121 97 73
170 466 236 43 30 32
301 558 199 178 12 42
316 26 279 144 24 55
349 547 299 38 25 27
171 469 237 71 30 35
261 654 241 129 7 33
231 704 257 64 32 35
381 454 217 152 9 33
290 464 375 166 19 54
394 673 219 141 99 69
266 949 332 72 68 69
173 467 234 44 29 35
326 839 211 100 78 62
281 419 197 104 20 27
176 474 227 96 27 39
286 909 395 59 56 57
258 411 170 115 57 39
175 474 232 80 27 35
329 126 260 115 93 69
175 479 232 66 30 34
292 833 347 122 98 72
310 270 325 119 95 67
297 275 330 99 83 66
456 464 257 66 34 32
312 299 332 121 91 59
172 473 238 78 31 38
394 774 227 126 87 56
326 624 317 115 32 47
174 474 236 82 27 37
396 599 238 100 82 60
454 466 254 52 34 30
392 590 257 85 27 38
175 479 237 62 29 34
348 760 209 73 61 50
203 381 280 121 96 67
173 477 239 58 31 37
321 269 317 124 95 62
444 447 249 43 35 34
334 109 246 124 99 71
460 831 355 72 58 44
331 401 197 124 29 20
166 469 247 66 33 37
395 593 246 73 58 40
164 469 252 74 35 37
269 699 230 128 16 34
457 469 257 39 35 36
164 470 255 106 41 45
206 499 205 53 34 36
411 489 219 79 31 37
443 431 231 73 17 28
205 474 204 66 33 38
326 850 222 124 94 70
168 473 243 51 36 34
436 859 342 110 92 73
220 434 338 128 20 44
354 748 186 59 48 41
141 474 277 153 108 90
424 532 295 108 24 36
292 479 190 44 33 35
281 400 212 92 78 62
183 504 306 70 29 36
256 764 326 71 58 50
200 524 216 158 7 40
163 472 254 86 44 45
148 454 269 70 46 37
298 18 270 141 21 22
226 579 333 52 26 30
212 411 232 88 75 63
257 469 322 40 21 23
301 464 197 80 32 36
166 474 252 72 35 34
170 474 241 49 32 33
170 479 247 79 29 35
169 476 252 72 29 37
266 569 206 180 3 41
195 749 313 147 111 80
170 479 252 71 34 37
199 422 252 41 29 25
281 34 286 131 33 53
386 412 213 100 14 34
344 68 232 129 17 43
167 478 258 54 33 33
161 553 255 146 109 78
169 479 256 54 29 33
301 406 194 137 19 24
176 479 227 84 29 36
180 484 217 94 32 40
221 764 324 158 122 87
330 396 253 118 99 80
322 45 238 68 39 30
211 359 287 120 95 67
183 484 214 77 27 33
333 402 314 134 101 73
183 487 214 46 37 32
249 636 250 59 33 34
237 411 218 85 73 62
315 787 305 118 92 79
458 491 325 52 28 30
296 442 309 121 89 72
182 489 217 103 26 40
436 509 307 107 2 35
449 480 244 121 27 36
310 54 242 82 45 33
241 414 192 82 47 41
313 357 260 95 84 73
333 853 389 55 46 38
178 483 223 93 29 40
148 471 280 75 59 46
179 485 221 80 30 37
472 474 292 88 13 28
183 493 218 149 12 41
306 104 247 112 80 64
256 764 236 70 56 51
485 495 292 97 37 44
226 269 287 120 93 67
215 459 333 83 27 36
215 264 277 120 93 66
312 534 190 79 34 41
295 768 315 66 54 47
341 889 357 67 59 60
177 664 277 169 114 85
326 855 312 32 30 32
301 903 272 77 69 68
186 489 213 69 32 37
192 484 209 92 32 37
231 479 192 114 27 37
261 99 272 123 100 75
194 418 267 75 64 51
518 865 318 100 83 66
442 479 306 63 20 27
203 390 259 98 81 62
184 490 215 85 33 40
342 885 317 56 49 48
188 493 214 157 10 40
192 534 232 167 8 42
309 574 320 65 28 34
191 494 213 150 9 38
191 584 277 68 32 33
182 499 222 124 20 41
284 63 270 132 91 79
228 642 274 160 12 43
183 503 224 67 24 31
456 534 316 150 104 96
156 549 256 160 113 85
190 499 216 159 4 39
287 699 224 127 12 32
370 658 239 72 48 35
189 569 287 85 24 36
285 821 316 97 78 56
192 499 214 160 4 39
191 504 217 140 14 41
288 45 279 111 51 49
264 454 315 34 23 24
223 444 340 124 17 41
296 314 277 82 71 59
335 169 267 120 95 68
187 503 218 144 14 42
352 779 178 66 52 47
311 15 277 120 55 56
267 918 288 91 81 81
234 766 245 73 58 53
259 704 235 151 6 39
192 508 218 117 22 39
192 479 316 129 12 41
190 510 221 157 11 45
231 479 339 105 17 40
307 175 281 103 84 64
195 459 204 129 5 28
177 484 237 58 30 37
396 553 332 102 26 43
395 573 282 100 29 43
161 504 281 116 65 58
276 729 342 158 18 51
229 601 245 175 7 40
171 484 247 69 28 34
175 484 241 65 30 35
340 458 306 150 14 49
294 739 220 73 32 36
192 429 267 35 32 33
170 484 252 58 34 34
290 240 265 128 94 62
192 549 243 125 23 42
310 124 237 116 88 58
291 454 376 160 19 51
169 484 257 92 28 39
267 608 229 107 29 40
170 489 252 76 29 35
332 269 282 133 95 64
169 488 256 101 18 33
316 779 307 68 54 48
434 447 223 92 15 34
174 490 245 58 33 37
338 764 304 74 58 48
204 417 246 65 52 45
376 830 232 85 64 57
336 608 322 63 34 39
246 360 310 123 93 65
174 494 246 102 21 39
256 469 178 73 32 39
334 220 290 119 95 67
209 264 262 124 95 64
176 494 242 129 11 37
187 509 312 72 29 35
196 414 277 103 85 66
168 491 254 106 15 35
298 844 234 68 60 59
232 420 207 43 30 33
390 564 307 194 8 60
170 494 251 119 16 36
168 494 254 125 15 35
371 739 163 94 68 48
289 611 225 65 25 30
261 951 362 57 54 55
451 469 251 52 39 36
234 542 342 39 24 24
168 494 257 121 14 32
163 498 256 101 38 28
476 489 297 110 7 36
241 309 298 113 84 58
191 424 287 38 33 35
315 421 361 137 33 45
257 16 263 92 74 64
233 654 272 132 10 38
258 917 289 87 77 73
430 428 214 108 32 39
188 475 310 32 30 31
286 938 313 83 77 79
282 380 253 87 74 60
163 510 255 144 72 66
296 540 190 180 3 39
341 745 313 63 52 47
164 506 254 121 39 42
321 20 267 110 54 54
173 498 249 140 14 37
229 911 368 80 72 71
171 499 252 133 7 33
265 114 267 123 92 69
256 400 237 90 76 62
251 379 314 124 92 65
164 464 262 64 33 30
174 501 250 130 0 36
394 739 224 146 99 67
399 760 205 73 58 43
418 531 304 169 16 55
323 461 319 63 19 24
177 504 247 112 16 36
231 614 328 73 27 36
216 499 207 79 29 35
300 248 314 112 92 70
400 773 178 102 76 59
175 504 250 129 9 35
187 574 267 63 47 40
301 29 277 139 42 58
349 659 239 45 30 31
227 459 192 100 21 33
175 509 252 108 16 36
190 544 308 167 0 50
212 529 209 131 10 34
173 508 253 130 9 34
257 458 173 62 35 42
172 509 257 124 13 33
212 558 223 127 23 44
304 74 242 101 26 34
241 274 292 101 80 58
346 852 345 46 41 42
506 869 331 101 83 65
303 170 271 102 82 61
393 790 144 103 84 67
415 507 294 115 7 34
334 154 252 118 93 65
426 534 292 127 29 43
328 281 285 125 90 64
177 484 227 61 32 38
296 353 266 91 78 66
261 164 247 116 90 59
151 549 262 170 119 93
177 484 232 56 29 34
292 44 267 120 76 66
320 870 237 94 79 70
510 858 337 99 82 66
239 417 176 124 35 30
357 775 289 81 64 58
386 426 252 72 21 27
351 854 257 81 66 59
178 487 224 88 23 34
202 808 288 210 140 110
437 447 282 58 19 25
178 488 228 126 13 38
214 440 219 97 20 25
310 48 251 94 27 35
306 765 314 69 54 48
381 569 238 83 30 39
392 526 306 49 24 26
305 493 327 151 16 51
226 480 339 112 25 43
200 666 295 139 102 76
178 489 232 114 21 40
178 489 237 92 27 37
343 856 250 74 63 59
271 502 370 60 24 31
276 324 322 122 90 67
214 484 334 142 8 42
159 594 277 163 114 88
222 359 301 115 92 66
179 491 230 130 9 32
291 389 322 132 95 80
318 819 294 114 91 73
316 429 197 69 36 41
222 299 286 118 93 67
289 228 283 103 82 58
180 494 227 145 6 39
156 489 286 154 110 95
425 538 287 131 26 33
291 489 322 73 17 30
178 494 233 132 13 38
178 494 237 125 9 38
325 618 321 85 32 40
391 883 376 71 56 43
250 833 342 139 122 115
308 146 265 99 80 60
261 17 260 94 82 70
351 424 272 92 76 60
380 604 257 133 16 44
204 383 283 121 95 68
286 855 392 35 34 34
198 543 228 36 30 34
181 499 227 137 14 41
226 815 312 121 86 69
461 499 327 126 15 42
182 504 227 128 15 38
323 811 204 56 49 48
316 174 283 106 88 68
180 504 232 153 3 40
266 723 345 173 19 56
231 289 292 115 90 63
179 504 237 143 5 39
387 545 335 63 23 30
272 349 307 102 74 60
234 434 175 145 1 38
421 419 217 105 19 32
237 416 202 62 49 43
346 885 372 52 45 42
305 240 255 137 99 64
340 720 219 38 35 40
178 502 239 125 14 31
396 504 286 58 23 28
212 259 272 119 93 65
379 593 281 97 35 46
182 509 232 158 5 40
218 401 315 117 94 69
251 299 298 87 69 48
229 926 358 55 52 53
181 509 237 150 1 39
306 434 195 80 31 37
310 857 229 107 86 74
184 506 225 61 29 37
311 74 212 117 21 40
184 511 230 166 10 49
448 512 269 64 22 37
248 489 329 28 22 23
301 204 292 108 88 66
178 504 243 102 20 36
178 509 244 120 17 37
441 539 277 105 72 36
359 847 259 74 59 55
391 714 217 126 92 61
276 549 332 140 15 45
177 509 247 110 22 36
264 471 175 55 37 36
258 733 340 37 23 29
279 855 270 125 91 75
243 488 189 82 41 45
252 416 159 183 13 33
182 613 289 144 100 79
242 664 253 47 33 35
214 402 245 94 81 67
284 259 282 94 75 54
238 416 187 95 43 39
263 169 257 116 92 66
345 79 212 136 33 52
187 440 267 77 15 29
369 587 311 194 5 63
460 449 268 106 19 35
439 433 223 132 29 45
237 416 192 80 41 38
338 851 349 40 37 36
381 873 321 64 53 46
306 793 305 168 117 97
246 415 167 148 38 22
406 830 367 48 41 36
345 64 217 118 35 42
221 454 212 72 27 30
263 122 250 129 93 64
242 416 168 152 29 24
235 417 207 56 49 43
214 545 210 139 10 43
296 384 326 139 100 82
298 210 291 109 88 66
191 599 282 77 38 33
246 414 172 129 50 30
331 549 207 75 27 36
356 489 282 97 14 35
307 139 242 112 88 59
361 814 193 85 66 58
416 425 242 85 14 28
251 415 162 158 30 25
222 410 320 117 92 65
251 413 177 118 54 35
474 511 324 56 16 26
266 79 274 113 26 43
376 549 238 124 9 33
246 413 187 95 51 41
266 74 274 112 50 51
246 413 192 84 52 42
232 719 249 123 13 31
245 490 190 40 36 43
362 605 298 189 12 59
251 413 182 103 53 38
225 704 307 68 27 33
324 324 288 111 90 67
200 419 252 50 37 32
227 644 302 131 18 43
256 412 182 95 54 40
251 412 192 80 58 45
332 709 324 68 32 37
381 809 202 88 66 55
306 856 372 39 35 36
219 453 216 82 24 27
256 411 192 79 60 47
273 500 349 40 28 24
168 484 259 86 19 32
214 743 255 101 23 30
217 597 325 46 27 30
301 24 271 153 35 52
244 531 200 91 21 35
329 514 204 64 32 35
241 324 301 115 87 60
366 444 271 127 9 41
295 449 375 157 18 50
256 412 187 82 55 44
255 899 277 83 75 73
268 542 194 103 25 32
480 538 310 199 140 128
254 412 192 78 60 47
310 714 331 60 26 33
219 561 220 187 13 50
361 829 268 58 45 38
251 419 159 169 9 35
496 853 341 95 79 69
252 423 159 164 5 40
306 94 252 96 19 36
188 608 284 87 59 43
329 284 302 129 97 64
291 529 186 185 6 40
266 739 233 50 36 38
241 418 167 158 14 32
386 469 276 80 23 34
139 484 267 159 110 87
447 429 237 104 21 35
299 11 306 133 44 54
381 431 265 63 31 27
241 424 166 143 10 38
329 164 239 137 104 64
218 618 264 55 33 38
364 664 220 114 89 62
197 539 227 104 18 38
236 419 177 126 21 33
326 848 382 35 32 29
279 88 248 109 47 51
235 424 172 126 17 37
321 354 326 131 97 69
233 424 177 123 14 35
234 424 175 124 15 36
397 829 237 81 69 67
351 544 298 41 25 28
196 644 253 153 105 74
271 784 316 63 51 45
202 598 302 98 31 43
238 420 169 131 18 33
239 417 171 140 30 28
236 489 193 93 28 37
432 521 321 60 20 28
234 429 175 134 6 34
197 793 278 185 122 92
401 830 357 53 46 41
308 267 324 112 91 67
308 485 328 136 16 45
238 428 169 158 1 39
321 719 324 85 28 38
315 390 243 106 90 73
328 339 297 117 94 69
350 474 292 130 13 41
239 431 170 163 3 40
261 934 381 51 48 47
230 424 182 98 24 35
314 58 231 70 45 27
231 420 187 79 29 34
266 26 254 103 89 75
301 609 337 120 28 46
228 425 188 58 34 37
352 829 273 31 29 28
226 444 202 99 11 32
232 429 178 124 10 32
302 179 276 102 83 62
471 510 324 55 24 26
263 516 343 70 16 28
316 219 247 140 104 62
228 429 188 65 34 38
286 479 312 40 23 29
400 818 221 89 68 58
236 418 182 116 31 34
289 238 293 111 89 66
235 417 192 78 36 36
316 94 257 100 56 49
214 659 277 89 46 39
385 543 333 71 22 32
234 362 309 115 91 63
376 434 267 66 29 25
237 434 173 155 1 38
218 693 276 82 63 55
235 439 176 154 1 39
240 435 171 162 2 41
361 405 202 82 26 32
237 439 174 159 1 39
435 421 231 61 22 30
241 439 171 163 1 38
217 479 336 94 21 38
448 441 250 116 31 40
160 478 271 91 59 45
269 872 281 58 49 46
256 644 326 169 19 54
301 544 321 81 25 35
189 564 292 74 25 37
356 619 242 51 30 32
240 925 372 60 56 57
313 150 270 100 81 60
241 444 173 147 12 40
274 382 265 82 74 69
238 443 174 126 15 38
163 462 284 104 64 57
179 563 259 101 65 51
251 594 333 55 31 35
240 450 175 95 32 41
206 579 247 146 17 44
265 209 262 109 90 70
395 848 267 80 66 63
232 434 178 133 4 35
276 826 345 134 109 82
344 66 208 110 44 43
301 429 372 39 28 30
230 434 182 86 27 36
231 394 242 88 77 65
313 480 323 135 26 49
332 815 289 98 77 65
233 439 178 139 4 36
228 434 188 56 35 35
478 526 313 109 62 60
492 503 307 96 79 60
226 439 192 76 29 34
214 585 245 176 8 43
381 500 230 150 11 36
138 472 275 169 116 99
330 144 237 128 100 65
346 414 287 114 90 63
229 434 185 56 35 36
212 623 287 75 32 39
197 544 316 164 6 50
231 449 182 83 33 37
208 350 272 115 91 65
276 869 408 50 46 44
232 269 290 118 92 67
227 444 187 108 22 37
211 413 226 91 76 64
390 804 262 159 118 89
226 444 192 96 20 33
308 401 198 105 70 44
162 569 254 149 109 73
228 449 188 106 21 35
381 839 272 41 35 31
275 616 230 45 34 42
226 449 192 118 8 33
229 449 186 101 28 38
266 64 217 119 29 30
444 562 290 205 133 108
256 324 302 91 66 47
306 294 337 115 91 61
246 464 333 51 20 24
443 565 276 175 121 88
266 725 344 157 23 54
233 448 179 128 15 40
243 419 164 166 7 36
388 581 245 123 31 46
263 115 269 120 94 68
217 405 238 92 79 66
246 424 162 161 3 41
337 886 286 84 71 65
245 430 165 165 0 41
195 569 256 87 31 38
203 479 325 132 17 45
280 383 256 81 70 59
381 743 178 76 58 43
249 417 160 182 8 32
280 488 314 31 28 29
251 429 162 169 1 37
256 429 160 127 14 40
242 433 169 164 2 39
164 525 275 80 47 36
246 434 167 166 1 37
416 534 302 167 16 54
246 439 168 170 2 40
166 509 267 113 70 60
261 219 272 95 76 55
251 764 327 90 74 64
282 499 362 67 30 36
423 541 283 175 30 52
272 89 236 129 30 33
244 440 170 170 2 39
246 444 171 176 6 41
277 384 257 78 66 54
247 443 169 177 4 43
335 244 268 141 105 68
241 854 357 141 101 88
326 344 317 123 97 67
339 94 237 116 29 45
482 535 292 196 126 108
316 855 312 35 33 33
280 319 277 74 63 51
318 92 199 133 13 41
250 435 165 170 1 37
236 529 334 40 25 28
222 729 253 130 23 42
257 438 164 162 2 39
342 886 302 62 55 54
286 674 228 59 34 38
255 439 165 155 7 37
292 229 292 111 90 67
251 444 168 143 18 43
312 69 207 109 23 37
380 578 239 86 34 41
256 444 166 57 34 38
372 850 266 82 67 65
276 913 396 64 59 58
362 417 238 79 20 29
391 699 217 129 94 62
321 49 232 73 41 28
204 424 323 125 12 38
182 445 277 82 16 28
361 856 327 47 44 44
202 524 213 153 7 39
341 734 318 172 15 56
263 76 215 154 15 39
252 448 169 63 36 39
336 39 237 109 94 78
182 514 237 151 7 40
207 389 253 93 79 65
241 357 309 118 92 64
280 393 247 90 76 61
203 461 325 149 10 47
353 746 190 49 41 36
246 860 376 118 98 78
205 389 257 96 81 64
219 383 309 118 93 67
208 754 259 122 89 52
332 189 282 120 96 70
342 89 217 132 43 55
301 339 265 92 80 68
263 375 255 80 66 52
202 399 257 94 78 62
246 729 333 178 17 57
344 777 205 57 47 42
207 394 253 94 79 65
433 470 240 87 30 40
137 459 262 135 96 77
196 415 227 82 61 55
381 875 318 63 53 48
291 409 198 126 16 22
196 415 297 67 53 44
350 563 318 51 23 28
261 474 318 30 24 24
325 364 321 132 99 70
201 415 227 101 81 76
206 489 328 118 16 40
201 414 232 75 56 52
216 484 207 51 36 36
201 416 237 57 40 35
331 569 312 95 6 29
206 414 227 101 86 78
333 169 246 130 100 64
249 741 334 170 19 56
206 413 232 84 69 61
206 414 237 64 49 41
201 404 257 107 88 72
197 599 287 51 30 32
284 264 302 109 88 63
207 410 248 100 85 71
336 35 239 105 90 75
250 456 175 128 33 47
203 415 249 75 60 52
330 847 377 30 29 31
316 424 321 99 68 50
216 389 246 86 75 64
229 722 314 40 27 29
317 84 197 134 12 40
342 406 194 114 36 21
326 54 202 129 50 20
257 58 216 89 36 20
371 779 162 86 64 46
209 389 250 90 77 64
302 372 330 144 104 80
332 69 254 129 34 53
316 119 262 105 85 62
376 719 188 93 67 45
211 394 248 89 77 65
153 472 264 89 54 46
331 889 282 88 75 72
216 394 246 89 77 67
211 399 248 92 80 68
302 169 267 100 81 58
336 15 272 116 65 70
377 417 208 94 19 33
325 790 215 71 57 51
218 389 244 90 78 65
217 400 244 92 79 66
170 504 282 136 8 41
210 412 232 84 70 59
248 666 325 84 24 36
436 510 267 176 14 43
229 357 304 110 89 64
335 17 285 166 127 126
378 484 225 147 4 35
299 27 285 145 59 61
216 411 228 88 75 64
311 274 268 142 98 67
331 436 200 83 30 38
216 410 232 90 77 64
335 174 257 119 96 69
196 659 257 140 95 68
378 571 329 181 12 60
306 549 196 138 25 41
439 446 275 58 14 29
326 689 323 57 27 30
230 259 289 116 91 65
305 174 277 103 84 63
284 862 256 61 56 59
216 416 224 88 68 55
212 411 238 87 73 60
188 460 305 127 10 37
269 481 175 155 40 61
321 514 198 75 31 36
378 726 197 70 61 52
314 81 205 130 5 41
215 605 256 169 6 41
320 210 300 112 92 69
179 734 277 161 109 81
216 409 237 90 77 63
296 459 310 43 25 27
221 404 237 92 79 67
342 84 227 127 34 49
411 459 283 79 23 32
380 604 262 166 17 53
332 895 317 67 60 61
436 513 242 165 11 40
321 239 311 118 93 65
363 576 240 146 13 38
361 879 357 66 57 55
276 458 309 43 26 29
221 408 232 91 77 64
276 674 233 92 29 35
219 407 235 91 78 63
460 845 336 103 81 56
231 574 336 166 22 55
223 401 239 94 81 68
222 406 234 91 78 65
339 230 279 123 98 68
221 410 227 88 75 61
307 109 237 126 87 66
305 15 306 126 88 65
216 404 242 93 80 67
213 405 244 92 79 66
264 124 252 124 90 63
228 299 290 121 92 66
411 597 241 115 92 65
196 799 321 190 135 110
208 404 249 98 83 68
331 845 211 118 90 69
386 504 230 93 27 36
349 421 255 82 69 57
208 411 244 90 75 60
220 402 240 93 80 67
197 423 215 82 33 37
396 799 232 79 56 43
201 424 216 73 36 36
196 417 221 107 77 63
200 420 218 67 41 43
335 740 214 36 34 38
300 918 292 80 72 72
166 464 272 69 38 35
193 429 210 108 21 27
321 559 203 134 19 40
201 475 205 73 30 33
180 539 292 148 5 43
196 429 211 105 21 30
232 670 268 72 29 32
272 680 234 81 26 28
200 429 214 101 23 31
204 421 219 59 35 39
205 424 218 83 34 35
360 669 244 50 36 33
259 54 274 97 38 42
346 838 213 92 71 57
232 355 305 111 89 64
233 316 295 114 87 58
321 489 201 128 4 29
206 429 217 92 28 31
197 474 321 139 9 43
361 779 167 80 62 49
195 449 204 127 3 29
226 329 293 119 93 66
421 873 292 80 65 53
310 99 226 98 72 48
403 546 317 150 19 52
200 445 208 114 7 24
258 709 345 160 19 51
197 449 205 123 6 27
196 434 210 113 15 27
301 464 337 109 9 35
259 51 219 119 100 78
374 447 209 133 34 45
334 618 315 73 20 29
151 534 257 166 117 93
254 471 180 150 24 50
449 463 304 85 18 31
259 883 282 46 42 42
162 487 265 92 58 49
241 804 252 76 60 54
195 435 209 118 10 24
277 534 347 162 14 53
345 449 306 106 22 41
341 878 391 58 51 48
201 468 205 111 15 30
327 139 231 139 104 67
186 634 253 155 108 77
276 719 226 70 32 39
352 851 344 55 50 51
261 259 262 95 74 50
198 438 210 114 9 26
201 439 211 113 8 25
170 629 288 169 119 95
309 433 366 152 21 51
199 440 209 113 11 27
411 509 224 141 8 31
202 443 210 114 8 22
336 514 292 73 21 32
396 433 267 66 18 25
237 309 296 118 87 60
348 31 259 123 61 59
160 574 256 155 110 80
203 432 215 96 22 30
269 314 262 70 61 51
471 529 317 171 113 102
206 434 216 99 23 30
310 765 215 72 57 51
380 855 386 49 40 31
152 488 285 154 109 92
301 554 198 111 28 41
329 176 280 116 94 70
403 546 312 107 28 43
205 439 214 107 10 26
328 677 225 105 23 27
240 635 256 158 1 38
206 444 212 109 9 25
259 169 270 112 88 61
304 100 242 111 37 43
211 424 221 85 32 36
323 801 214 49 44 46
356 439 277 130 9 41
270 566 205 177 1 39
301 764 316 69 55 49
216 419 224 84 43 40
216 424 222 65 36 34
361 664 227 92 73 57
241 424 342 80 28 33
204 585 255 68 32 40
291 574 328 115 22 43
212 289 267 128 95 67
246 569 211 174 16 45
208 428 220 92 28 33
373 743 263 121 85 64
356 834 227 84 66 61
414 786 211 75 55 41
328 289 297 120 89 59
210 430 219 95 26 35
262 159 257 115 91 64
448 526 284 106 53 35
164 475 262 104 62 52
261 414 312 62 46 28
390 818 256 139 97 75
386 474 225 40 36 39
293 436 375 125 12 39
361 880 312 58 49 43
216 429 222 79 30 34
164 469 263 86 48 43
221 419 222 71 48 41
316 186 290 108 89 69
226 614 326 142 28 51
268 502 370 55 25 28
177 639 267 189 126 98
325 439 331 138 19 46
224 453 206 89 11 32
221 424 221 54 35 37
211 339 277 118 92 63
306 839 222 71 59 54
281 13 262 99 85 73
221 429 222 56 36 36
386 509 286 108 10 34
494 877 248 109 87 70
223 430 218 49 35 33
401 649 246 169 114 86
331 804 293 99 79 69
220 344 293 118 94 67
351 811 181 88 67 56
279 493 350 52 28 29
215 434 219 89 26 28
271 793 239 74 60 55
255 370 310 126 90 63
338 826 279 33 29 31
294 684 225 117 27 36
321 15 277 134 65 73
361 809 277 92 73 62
216 434 220 79 32 31
211 443 215 106 13 23
351 639 241 116 15 30
171 539 272 81 34 28
211 445 213 107 11 23
313 79 207 129 5 42
211 449 212 106 12 24
316 853 303 33 32 32
486 880 246 143 111 84
281 11 267 102 82 68
209 459 329 57 25 30
331 474 306 73 25 33
284 746 225 154 5 41
216 444 217 99 17 24
394 744 232 150 99 65
461 512 321 61 30 31
214 446 214 104 15 22
284 464 182 106 6 31
301 894 262 79 71 68
381 485 280 106 25 39
223 435 213 52 35 38
287 380 248 95 81 67
333 445 319 146 18 46
179 464 287 106 7 31
221 439 217 54 33 34
288 230 286 105 84 60
219 439 220 70 31 31
223 444 212 51 33 34
361 408 204 80 25 31
203 399 290 120 95 67
224 700 304 35 26 29
317 861 240 128 100 77
356 599 312 193 10 61
221 444 217 69 30 29
287 49 256 129 30 44
234 679 260 56 33 37
222 449 212 64 30 33
336 25 248 102 87 71
220 449 217 89 21 29
279 528 351 105 16 39
217 443 220 91 16 27
341 34 267 136 55 61
182 544 292 85 22 36
354 454 285 89 21 32
322 304 286 103 85 65
336 249 292 124 96 61
396 744 172 95 69 52
241 359 310 119 93 64
268 93 230 135 18 33
472 850 331 106 83 63
263 501 362 49 28 29
274 816 332 109 88 67
196 417 238 46 30 28
342 759 304 76 58 50
219 469 211 102 15 27
296 219 292 111 90 68
200 417 238 54 38 33
271 384 305 74 53 45
247 453 174 120 30 43
410 538 335 138 30 51
211 334 277 119 92 63
340 32 270 129 80 67
177 638 262 190 128 104
296 479 317 96 4 32
266 399 308 97 63 49
411 504 223 142 7 34
307 439 362 109 26 41
204 417 225 100 82 74
305 275 330 110 87 62
196 419 242 49 28 30
341 94 222 135 39 52
276 339 265 73 61 51
245 402 230 94 81 67
307 664 324 157 10 50
441 508 287 128 14 37
306 319 337 135 93 69
331 634 231 60 30 34
201 418 242 56 40 36
326 909 327 69 61 60
217 629 302 44 31 35
201 419 247 54 42 37
291 10 277 115 51 38
199 418 255 51 36 29
376 704 253 123 70 58
335 234 292 122 96 65
169 505 267 140 83 77
211 807 320 189 139 114
231 489 337 148 6 46
197 419 257 55 42 33
346 59 232 111 60 55
198 420 253 40 28 24
281 837 364 121 97 73
313 146 270 102 82 60
351 459 201 143 7 33
337 199 267 119 95 67
194 428 253 84 21 32
286 29 259 62 48 40
235 519 335 56 20 25
203 416 240 57 42 36
271 393 262 77 68 62
204 417 242 61 46 40
237 416 197 70 42 39
201 415 307 65 54 46
286 769 317 65 52 46
293 460 374 164 16 52
337 109 217 133 30 47
241 414 197 71 48 41
188 770 315 160 116 85
211 644 277 85 35 30
241 414 202 65 52 44
349 654 295 154 13 48
241 414 207 72 60 50
237 416 208 63 54 47
227 514 198 100 24 33
218 386 310 118 93 67
184 474 304 67 30 35
275 13 303 132 96 83
226 414 222 87 75 63
322 804 212 53 48 48
244 425 340 113 27 38
227 411 224 86 74 63
314 917 313 84 73 71
231 410 222 88 75 63
251 664 326 103 21 37
325 359 272 104 89 72
228 416 219 79 70 60
263 159 252 115 91 62
226 574 337 54 24 32
207 563 233 184 11 47
302 479 343 153 4 47
240 407 221 90 76 62
236 415 212 71 60 51
324 807 295 152 112 92
236 413 216 81 69 59
368 674 213 128 96 63
156 514 281 124 84 69
241 413 212 83 70 58
244 849 311 142 107 78
261 833 357 97 68 56
240 412 215 85 73 62
212 274 272 125 94 69
193 514 320 69 30 36
194 454 204 131 1 28
246 413 197 74 55 44
383 460 220 122 17 34
431 880 282 92 73 60
363 736 304 73 22 31
287 404 316 127 92 78
296 18 306 175 128 110
231 399 238 90 78 68
291 579 328 157 16 49
279 425 188 110 13 31
330 390 258 115 97 79
251 412 197 77 61 48
194 585 282 123 10 40
253 411 194 78 62 48
206 364 277 119 93 65
396 834 352 49 43 42
251 410 207 89 73 58
429 453 219 87 33 37
212 464 331 93 25 37
185 589 257 121 87 62
302 484 195 113 12 25
256 410 202 85 69 53
249 714 339 162 18 52
351 554 307 64 21 28
337 79 237 119 95 73
330 12 295 156 29 64
399 762 174 106 83 62
201 743 314 151 113 82
256 752 330 70 59 53
221 339 292 119 94 67
242 406 223 91 78 64
406 629 256 178 120 95
226 439 342 127 22 43
256 798 315 64 52 46
246 408 217 92 76 62
462 849 331 110 90 70
286 229 272 104 83 58
162 604 282 164 115 90
352 760 201 56 45 40
403 828 233 74 59 53
247 406 219 92 78 64
311 169 241 130 97 57
315 64 207 83 29 27
224 489 202 93 17 30
246 405 222 93 79 65
244 407 220 92 78 64
306 24 272 121 45 44
156 509 282 133 94 77
224 904 337 50 47 48
246 410 212 91 74 59
152 469 267 91 58 49
257 214 241 125 98 66
294 38 276 130 23 44
250 407 216 92 78 63
304 468 322 97 4 30
399 509 225 69 32 34
255 407 211 88 74 60
188 788 316 180 128 100
494 506 297 149 121 92
251 406 218 92 78 63
251 404 222 93 79 63
397 564 292 99 25 40
228 385 239 87 76 65
304 84 237 103 31 39
365 539 233 72 33 36
230 385 239 88 77 67
138 446 270 115 85 68
211 494 206 51 35 37
227 401 239 91 80 69
366 865 282 75 64 59
229 897 379 64 53 50
233 396 239 91 79 67
372 581 317 180 14 58
223 530 204 110 12 26
338 224 267 124 98 68
453 495 245 170 5 42
236 399 236 91 79 67
241 395 238 93 81 69
276 674 334 75 25 34
254 941 325 77 71 71
241 398 236 92 80 68
267 105 232 130 34 42
226 394 242 91 79 67
418 569 271 110 67 60
366 416 231 82 16 28
216 574 336 67 29 35
395 724 242 166 110 78
226 398 241 92 80 68
204 639 254 149 106 77
191 689 261 149 105 70
241 389 243 93 81 69
244 709 241 150 1 40
331 13 292 155 34 67
432 549 292 120 60 63
203 538 218 166 9 41
236 393 241 89 78 67
241 393 241 93 80 69
206 719 263 137 97 71
406 441 280 95 13 29
445 434 237 147 24 42
279 411 199 98 58 36
231 408 227 88 76 63
230 407 231 88 76 63
371 604 287 65 29 34
223 355 300 113 91 65
422 437 268 71 11 24
145 494 278 152 109 87
470 499 282 67 22 27
226 404 237 92 79 65
204 550 226 166 12 48
280 429 177 56 31 37
258 162 245 119 93 61
163 538 279 95 60 42
286 834 251 167 121 95
226 408 232 90 76 63
267 505 353 66 16 29
388 422 218 89 17 32
210 614 302 119 21 45
281 274 292 87 71 54
226 406 234 90 77 64
416 541 288 161 17 52
278 339 326 133 97 76
250 919 388 51 47 47
232 405 233 89 77 64
318 109 208 127 21 39
466 534 278 202 137 116
288 488 176 113 8 29
226 410 227 88 75 61
217 324 286 125 98 71
461 484 262 131 13 35
224 412 225 86 73 61
367 684 213 118 92 61
236 403 231 90 77 65
240 402 230 91 79 66
213 309 276 121 93 66
241 404 227 92 78 65
251 399 237 93 80 66
223 319 290 122 96 69
246 389 243 95 82 68
284 334 334 138 100 79
296 699 222 119 15 33
361 574 338 144 24 51
361 684 282 148 16 45
253 386 250 92 79 65
254 389 249 95 81 66
316 239 312 116 93 68
308 134 242 108 85 57
252 398 246 93 79 66
228 705 259 97 28 37
256 399 247 91 77 63
395 559 302 181 13 58
254 394 249 96 81 66
284 366 324 124 93 75
266 299 267 72 61 48
335 99 202 157 21 49
257 394 251 91 78 65
257 398 250 90 76 62
151 504 281 151 110 89
223 365 305 115 92 67
326 74 190 112 42 32
246 403 227 93 80 65
334 169 271 120 96 69
466 459 287 76 21 30
268 514 327 58 25 30
267 11 292 107 74 65
279 449 168 120 9 31
251 402 226 93 79 64
206 721 310 150 108 78
371 880 342 60 51 47
249 270 290 84 68 51
256 401 227 89 76 62
276 31 289 140 30 56
348 625 235 64 31 34
182 549 262 141 29 42
255 402 226 91 77 62
336 659 231 76 28 31
174 516 277 103 8 35
153 444 258 67 41 25
275 45 243 81 40 34
256 400 242 90 77 62
232 704 317 84 24 36
172 619 258 173 120 86
228 425 197 51 32 36
225 484 197 115 14 34
331 714 218 44 36 37
339 411 240 59 24 25
232 420 197 70 33 35
258 355 256 80 71 62
335 184 252 130 102 66
305 64 247 87 33 34
333 369 312 122 96 64
419 619 242 170 118 85
230 423 202 52 31 35
281 11 305 130 75 63
323 334 319 126 99 66
376 415 206 94 22 37
321 239 254 145 102 66
227 429 197 77 25 33
228 429 202 82 21 33
223 469 340 86 20 33
230 418 216 67 48 39
220 329 289 121 96 70
461 849 342 89 77 68
405 589 263 124 77 69
325 219 301 118 95 69
229 423 212 64 29 33
227 419 218 67 45 41
213 334 259 117 93 64
379 727 186 67 54 42
276 944 372 72 69 71
225 418 220 76 62 55
197 484 321 138 8 41
331 49 262 123 44 53
179 719 282 151 102 74
224 424 220 50 35 36
406 444 281 129 17 42
167 459 267 63 29 29
334 386 269 122 100 76
251 639 326 180 18 56
296 659 228 62 29 33
473 478 301 89 18 28
307 139 252 102 81 58
200 609 277 69 36 30
328 284 286 123 90 64
234 417 211 61 50 42
311 259 320 111 88 60
272 557 199 162 32 45
233 416 214 71 59 49
276 289 297 87 72 56
225 383 314 118 94 67
168 633 282 173 122 94
226 434 197 102 14 32
189 566 289 76 27 39
137 474 262 164 111 89
366 474 212 88 29 38
316 70 259 112 47 52
253 900 279 80 72 72
455 528 313 86 51 45
381 634 218 98 82 64
331 798 207 53 49 49
312 455 338 120 25 43
431 431 251 57 20 24
226 439 197 101 14 33
283 856 397 34 33 33
227 434 202 97 15 30
354 817 194 86 65 53
381 444 273 108 13 34
227 439 202 98 15 31
251 555 344 194 12 62
226 449 197 111 4 31
396 783 187 87 68 58
294 463 371 167 14 53
225 434 212 50 33 35
290 219 277 100 79 57
272 401 213 72 61 48
368 699 252 77 29 32
265 309 254 87 76 66
224 439 211 51 33 33
336 55 212 122 101 76
473 509 290 77 39 38
224 444 210 52 33 34
377 791 175 93 67 46
371 522 289 102 4 30
224 448 210 63 34 35
309 120 240 114 84 58
241 379 316 123 96 67
269 310 262 72 63 53
271 11 268 93 79 68
226 454 192 123 8 35
334 546 300 116 11 36
249 577 340 162 22 52
358 705 223 99 74 56
274 677 334 84 12 24
369 488 219 155 3 35
295 253 313 109 90 71
232 319 295 112 85 58
229 454 186 89 27 36
427 549 282 96 47 43
251 314 301 101 74 50
341 469 206 138 13 35
227 464 192 121 12 34
230 459 187 114 25 38
232 459 183 98 27 40
311 864 402 57 55 55
348 422 276 106 86 63
215 776 325 161 127 94
228 459 189 107 23 38
234 451 180 97 27 35
291 398 222 103 87 69
234 455 180 98 28 39
393 837 258 57 47 41
173 513 280 132 4 40
322 46 264 134 101 79
301 394 231 103 88 71
241 454 177 102 30 40
236 464 182 114 27 40
218 355 295 117 92 65
166 524 272 80 52 37
320 389 325 140 100 73
312 401 206 98 79 52
285 483 314 31 27 27
261 274 267 86 69 51
260 921 295 90 81 79
401 664 232 178 120 92
481 513 277 118 48 38
333 134 240 125 98 67
241 459 178 85 32 41
427 494 297 122 6 37
335 602 331 144 33 57
421 604 266 190 123 97
239 461 180 152 18 44
365 588 321 193 12 60
288 275 321 109 88 65
316 254 317 119 94 63
333 99 249 113 27 44
376 889 372 66 55 48
232 469 188 141 9 37
232 473 188 145 13 37
338 74 243 119 40 49
221 808 268 76 61 56
237 468 184 90 32 39
306 219 303 107 88 68
361 584 241 109 18 33
306 439 367 117 25 44
234 466 185 142 18 39
276 55 279 121 32 47
235 470 185 135 20 40
371 594 297 95 32 44
311 174 241 133 99 59
227 578 228 200 12 49
164 514 275 89 52 42
233 477 189 146 22 49
400 554 297 131 20 48
257 826 314 97 65 50
349 597 325 191 16 61
237 479 188 154 13 41
201 784 267 180 120 87
238 472 184 94 32 41
156 469 262 100 74 69
241 479 187 103 30 42
146 529 262 181 126 105
244 451 175 126 28 47
389 636 249 129 84 68
421 454 287 134 16 44
219 700 281 79 58 54
328 501 299 40 29 32
246 454 175 113 30 42
196 479 206 97 27 36
226 319 292 121 94 66
356 729 316 178 7 57
293 327 340 145 102 80
389 619 254 123 74 65
251 454 173 93 32 40
441 499 238 129 11 30
255 450 170 45 38 40
212 289 272 124 95 69
427 516 317 75 4 25
402 789 201 86 66 54
350 773 197 43 41 41
256 454 171 69 37 41
162 609 272 174 123 92
297 481 322 99 3 30
307 144 242 116 90 58
255 460 175 57 34 41
296 473 313 87 9 30
356 590 327 193 9 60
138 479 267 156 109 84
453 526 279 112 65 40
246 459 177 79 36 40
224 362 304 115 93 68
246 463 179 86 33 41
485 512 325 180 19 62
327 274 277 137 95 66
251 464 178 106 29 42
466 454 277 67 25 29
351 838 222 103 77 63
255 409 316 70 55 37
365 558 333 43 27 30
256 464 176 46 36 40
236 284 293 105 84 59
396 759 207 66 50 39
246 474 183 49 37 40
303 780 219 76 62 53
245 476 185 48 38 40
307 50 253 93 29 33
262 505 358 77 22 34
247 478 184 59 36 37
201 624 277 67 36 29
346 449 201 136 17 34
252 894 292 66 56 53
311 219 247 139 103 62
297 510 323 157 8 50
252 468 179 155 20 40
342 45 258 131 47 57
426 419 213 129 21 35
150 454 267 68 41 30
321 249 313 121 95 63
335 410 194 99 27 33
249 466 180 154 20 37
179 472 294 110 17 41
251 474 182 73 35 40
246 828 262 116 93 81
312 879 399 50 45 45
203 411 301 109 89 67
396 464 277 32 26 28
201 779 324 156 117 88
331 254 267 148 106 71
332 615 318 40 30 34
256 474 181 86 34 42
263 164 257 116 92 66
323 167 279 110 90 67
324 395 248 111 95 78
250 480 185 107 31 46
219 601 250 173 6 42
396 515 291 82 11 29
238 482 189 134 19 38
302 844 228 70 60 56
393 810 241 125 83 66
356 464 202 145 5 34
214 398 309 120 95 68
370 639 237 67 38 26
241 489 191 61 36 41
246 484 187 66 37 41
279 79 248 96 53 42
273 686 340 47 22 28
334 73 250 123 95 77
213 654 277 89 44 35
386 534 233 108 21 34
322 88 193 148 23 46
302 617 224 120 23 41
210 389 297 121 95 65
246 489 189 59 39 44
235 329 298 116 89 62
241 494 192 160 11 41
356 828 203 115 87 62
216 689 292 55 36 29
275 533 351 83 20 34
246 494 191 95 27 39
304 178 278 102 82 61
457 843 329 94 75 55
391 814 237 88 61 52
256 485 185 46 37 42
191 654 291 143 108 83
401 599 238 103 85 65
267 669 239 105 24 36
404 876 375 64 50 42
251 494 189 44 38 41
352 444 287 88 20 32
243 340 305 124 93 66
318 431 344 121 23 41
246 499 192 153 10 38
246 839 337 86 64 53
227 899 377 56 49 47
138 478 271 161 108 88
340 572 328 96 1 30
181 624 253 160 113 80
222 679 292 47 29 31
251 504 192 106 22 35
253 497 189 47 39 42
294 198 256 116 92 63
321 794 217 71 57 52
428 559 285 123 76 72
393 815 252 151 110 89
203 376 275 118 93 66
256 509 191 120 14 33
249 576 215 203 10 47
201 454 207 115 6 27
194 806 301 210 137 108
366 464 273 124 8 39
177 514 292 108 19 39
197 459 205 126 6 28
346 869 387 36 32 31
240 704 247 101 17 36
196 462 204 130 7 30
481 494 331 101 22 38
198 416 305 58 39 36
367 857 326 54 49 47
456 499 252 168 10 44
196 464 205 131 9 32
207 613 287 75 29 37
330 835 206 94 74 60
317 359 328 135 98 71
201 464 205 126 9 29
206 459 208 115 8 27
207 453 210 108 9 24
285 952 356 70 65 65
196 469 205 117 18 32
307 439 315 116 79 65
271 654 237 118 16 30
201 479 205 117 21 33
291 10 292 122 56 53
281 699 226 111 22 32
206 474 205 75 33 35
371 725 178 100 69 48
384 539 235 42 36 41
213 314 277 122 95 66
261 124 247 128 93 63
429 522 239 175 13 43
336 389 272 103 86 67
223 454 207 82 18 31
250 930 378 61 58 60
210 460 209 104 14 26
211 459 211 102 15 24
262 11 272 90 61 54
339 87 199 162 23 53
475 477 324 116 26 43
216 459 213 98 16 25
326 29 247 77 47 33
487 882 244 128 100 78
325 424 337 150 19 48
216 464 212 94 17 26
331 29 246 124 67 42
396 814 217 90 72 61
266 690 341 68 28 35
229 491 195 138 5 34
223 451 209 76 31 29
188 439 291 47 28 31
347 499 289 85 21 32
298 217 254 127 93 54
241 754 330 74 61 53
195 509 216 143 13 40
218 457 215 94 15 26
392 794 201 81 61 54
220 459 212 92 17 28
236 420 337 55 45 38
344 406 278 103 85 66
219 464 211 94 15 27
298 936 369 55 52 54
306 19 287 119 44 51
441 534 302 89 28 34
276 89 267 118 78 64
241 679 252 40 33 37
307 89 251 97 66 53
211 469 207 84 28 31
263 149 252 115 91 63
294 224 293 111 90 67
396 535 230 47 31 36
215 480 208 56 34 36
226 604 247 177 7 43
251 339 306 128 93 67
337 528 294 135 13 41
317 844 293 44 40 37
306 789 307 165 118 98
316 509 196 66 32 36
223 469 202 101 9 31
216 741 315 121 89 61
216 384 307 120 95 68
371 708 210 101 81 58
461 519 282 81 40 35
223 474 203 103 10 31
341 619 307 124 25 47
221 474 207 92 18 31
223 479 203 98 15 31
221 479 207 73 26 33
265 108 270 120 95 68
214 469 209 86 23 29
217 469 211 95 18 27
366 849 263 73 60 54
214 474 209 88 21 30
273 69 227 110 40 35
388 466 225 145 5 35
219 474 210 90 22 29
313 298 329 120 93 60
324 215 300 117 94 69
323 299 318 137 103 71
396 739 182 81 69 58
214 349 288 120 94 65
196 484 207 95 30 37
391 489 281 70 26 32
211 559 327 115 21 42
421 438 272 70 12 24
201 484 205 116 18 33
322 65 194 110 39 25
191 434 297 64 28 34
219 333 289 123 98 71
263 67 215 139 26 36
196 489 208 64 33 37
226 494 336 142 6 43
441 489 240 128 13 30
201 489 206 123 24 35
325 173 239 145 106 65
197 494 208 73 33 40
206 489 205 62 35 38
306 819 303 131 102 79
206 494 205 45 35 37
361 841 382 45 39 34
257 269 283 71 57 41
263 219 250 119 91 61
202 509 208 70 30 37
332 388 266 122 102 80
400 831 241 75 57 61
278 444 166 78 31 33
228 294 290 121 93 66
231 484 338 152 8 48
206 509 206 69 33 37
268 47 235 109 93 76
391 509 286 89 14 32
156 504 282 145 106 88
339 650 305 58 28 31
434 436 260 57 17 22
195 499 211 146 10 38
429 468 234 83 25 35
193 502 214 162 5 39
246 529 357 60 25 30
294 233 299 112 91 69
225 585 235 194 11 49
196 504 212 156 7 39
406 419 222 108 15 34
211 484 205 49 37 38
211 489 205 43 37 38
486 494 317 65 14 26
471 539 311 174 120 105
216 489 207 61 33 35
268 478 174 79 33 37
216 494 207 74 29 33
184 761 275 189 127 99
223 488 204 92 21 30
211 499 205 70 32 34
287 49 278 119 36 49
190 479 313 67 24 33
289 434 366 63 25 31
332 111 227 132 93 74
234 897 315 64 57 56
211 504 205 77 30 35
306 59 257 109 74 62
207 614 272 81 38 34
246 389 317 122 93 66
300 358 261 97 84 70
221 504 207 75 26 32
332 407 237 73 51 40
247 358 309 123 93 64
211 784 261 162 111 78
337 219 282 115 92 65
466 546 302 209 140 117
231 459 342 84 28 38
334 113 208 148 25 47
265 299 258 83 71 59
221 509 207 61 31 34
255 889 292 68 58 54
476 489 286 122 12 31
251 625 329 113 26 43
331 489 207 143 3 30
225 454 197 111 6 31
182 549 282 50 27 34
225 459 197 110 6 32
419 547 272 44 33 29
224 463 200 101 9 29
338 445 314 145 14 46
225 469 197 107 14 33
454 436 260 86 18 30
184 531 245 158 3 40
281 449 309 43 25 28
224 470 200 106 12 34
310 499 311 45 26 29
266 479 317 31 25 26
270 334 263 70 61 51
182 474 302 74 26 33
288 439 368 100 24 39
266 315 295 64 51 36
225 474 197 98 21 33
199 404 282 119 94 67
270 942 375 82 81 85
305 104 237 124 65 60
420 534 262 146 13 40
306 402 222 103 89 72
225 479 197 94 24 33
221 419 337 71 54 44
246 659 253 99 17 30
351 784 288 75 60 54
157 494 285 151 112 97
222 380 310 116 93 67
256 824 302 153 107 83
470 480 284 106 10 30
224 474 201 104 12 33
220 565 221 149 19 45
202 379 272 118 94 67
271 424 161 88 32 38
183 754 306 158 112 80
224 479 201 107 14 31
231 489 194 132 12 34
396 425 247 88 12 31
224 484 201 105 16 28
232 492 194 130 14 30
304 509 189 82 32 33
290 214 272 99 80 58
273 547 194 101 17 30
224 491 205 68 24 30
276 34 286 131 32 51
265 107 236 118 79 60
195 554 242 55 30 35
288 455 363 94 3 31
221 823 292 56 49 52
334 139 257 115 93 67
225 494 202 53 30 33
256 709 343 158 19 51
451 438 263 65 16 26
387 820 257 121 82 63
224 494 206 57 32 33
319 617 325 119 44 56
237 493 194 146 11 39
446 508 257 82 28 41
227 504 198 120 8 32
249 583 335 84 29 37
231 499 196 133 7 34
452 449 261 45 34 34
231 504 196 134 8 33
317 420 347 92 44 42
139 464 274 130 98 78
147 431 262 92 73 56
312 792 219 77 61 53
342 879 277 85 73 69
242 592 229 50 39 43
227 509 198 108 18 31
360 433 199 74 34 39
268 496 359 51 21 28
365 484 213 137 19 42
281 931 384 63 61 61
321 864 401 59 56 55
259 301 249 94 82 70
231 509 196 124 14 33
266 54 278 119 82 68
224 509 205 57 31 32
236 499 196 129 13 34
301 719 219 79 32 35
288 233 264 123 90 60
236 504 196 95 26 35
232 699 258 63 32 34
239 496 195 159 1 37
267 389 256 63 54 46
236 509 196 122 20 34
241 509 196 72 32 37
321 139 269 108 87 64
397 754 203 68 56 46
324 319 289 109 88 65
247 509 194 80 32 37
163 458 283 117 74 64
198 803 320 197 140 115
267 770 240 78 60 51
212 329 262 115 91 63
210 264 267 122 94 65
365 524 228 100 26 40
238 562 209 161 40 60
406 586 249 95 76 54
212 264 272 121 94 66
261 369 252 82 70 59
280 69 248 119 75 61
210 269 262 126 95 64
217 349 292 119 93 66
210 269 267 124 94 66
212 269 272 122 93 67
391 709 247 163 113 84
213 260 275 120 94 66
310 74 222 119 32 43
216 259 277 117 92 64
305 401 223 104 88 71
329 184 244 141 105 64
282 729 224 74 34 37
328 135 231 133 102 65
241 334 303 122 92 65
179 504 299 84 26 36
348 861 384 39 35 33
457 465 310 65 30 33
216 269 277 120 92 66
227 928 347 54 49 49
218 264 280 119 92 66
323 240 255 144 101 67
259 61 214 97 34 30
374 718 254 128 73 60
221 264 283 118 92 66
242 783 244 77 61 55
223 264 285 118 92 66
223 269 285 119 92 66
259 234 243 125 96 63
200 806 318 199 142 116
243 681 249 65 35 35
236 644 262 151 3 41
452 514 292 85 23 35
305 79 237 97 74 55
341 779 297 75 58 53
211 274 262 128 95 64
191 429 292 72 28 34
270 489 362 74 25 34
271 12 265 93 80 69
189 433 276 90 20 33
316 239 254 145 103 66
225 729 312 90 47 47
211 279 267 128 94 67
428 479 235 90 30 35
253 389 314 120 90 65
212 279 272 125 93 69
229 904 322 62 57 57
211 284 262 128 96 65
225 304 288 119 93 66
266 939 317 90 84 85
213 274 275 122 94 66
348 766 204 61 51 44
213 279 275 121 94 67
201 439 317 130 5 38
196 784 272 188 127 95
416 594 271 175 118 102
160 589 262 170 120 92
321 554 201 64 34 40
345 74 207 135 39 51
215 279 278 119 93 66
286 940 316 86 81 83
237 689 252 76 32 37
221 274 283 119 92 67
328 339 292 116 93 67
218 280 280 117 91 65
179 684 277 158 106 81
220 279 283 116 91 65
260 490 185 91 33 41
223 274 285 119 93 66
282 759 228 78 51 49
356 789 167 95 72 54
286 396 224 99 84 68
361 879 327 50 43 40
328 56 194 137 36 13
426 594 271 194 126 101
218 284 280 116 92 66
275 444 163 123 17 35
321 169 237 143 103 65
325 390 253 108 92 74
220 289 283 115 92 67
212 294 262 129 93 66
338 394 272 102 85 66
212 294 267 127 94 67
402 559 287 123 28 48
213 294 272 123 93 68
332 159 242 127 99 64
233 376 315 119 93 65
336 401 207 104 40 28
331 28 280 148 33 59
212 299 262 121 92 64
311 394 237 104 89 72
336 13 282 140 76 90
253 483 324 28 23 23
183 567 268 64 55 46
311 314 277 89 77 64
212 304 262 121 92 65
371 469 274 114 17 38
212 299 267 119 90 64
279 506 180 178 5 42
213 294 276 121 93 66
478 536 290 204 131 109
214 299 278 120 93 66
188 558 296 136 10 41
214 304 277 121 94 66
330 219 296 120 97 70
336 414 193 103 29 35
271 319 297 88 67 51
216 304 282 121 95 68
306 634 324 98 29 41
319 95 201 130 12 41
315 539 193 53 35 39
431 494 302 93 11 32
267 618 234 136 17 40
299 478 318 98 0 32
220 294 283 116 92 67
246 354 308 121 91 63
316 639 228 102 24 35
386 684 247 145 100 74
361 739 307 68 28 35
299 837 236 61 57 56
329 420 330 120 24 41
316 159 236 139 102 64
208 366 285 121 93 66
219 304 284 118 94 69
310 84 226 108 40 42
286 459 309 39 27 26
252 292 294 74 59 43
213 309 262 126 94 67
250 454 331 41 23 24
212 309 267 119 93 66
446 508 297 82 13 31
318 37 270 121 18 43
213 309 272 118 91 63
291 360 259 91 78 65
197 700 305 153 110 83
213 314 262 127 95 68
261 104 272 118 96 71
242 422 338 63 45 37
213 319 259 131 99 68
213 319 262 123 94 65
234 862 358 126 103 83
346 664 236 51 33 33
212 319 267 116 92 64
271 324 272 74 63 52
214 314 279 124 97 69
331 594 218 63 35 41
352 412 228 80 20 29
215 314 282 124 97 70
336 724 324 39 27 30
206 594 317 176 17 53
241 289 296 103 82 59
238 849 318 157 118 90
204 369 272 117 93 66
213 319 280 126 97 68
238 664 259 104 39 46
218 310 285 117 93 68
447 554 277 177 122 93
166 460 272 79 39 37
374 576 240 114 18 36
218 314 285 120 95 69
393 739 248 167 114 82
301 759 317 69 56 48
221 494 336 152 7 47
297 499 186 102 16 26
240 831 289 35 32 42
266 419 158 58 42 43
351 434 196 63 38 38
221 764 251 67 55 50
431 873 282 104 80 58
154 539 255 155 113 87
150 434 266 86 55 42
245 404 321 102 81 58
311 184 242 136 101 61
223 316 290 118 93 66
188 567 286 76 28 35
288 444 371 131 23 45
204 378 278 119 94 67
224 259 284 116 91 66
176 524 277 93 16 34
361 852 341 53 50 51
158 455 285 158 126 116
226 259 286 116 91 64
183 704 269 160 110 82
361 829 222 90 70 60
255 334 305 113 82 59
374 831 235 83 63 58
207 558 228 182 11 46
226 264 287 119 92 66
338 100 239 128 20 48
325 473 311 119 22 42
224 636 275 144 40 62
301 294 277 83 69 55
226 274 287 120 93 67
315 114 227 133 93 71
226 279 288 117 90 65
225 289 288 120 94 68
326 880 257 72 65 63
256 259 282 74 60 43
166 552 255 136 102 74
253 259 284 75 60 42
253 262 284 73 58 40
335 401 199 124 30 21
256 264 282 72 59 43
350 557 308 80 12 29
198 573 254 109 28 45
334 149 252 116 92 63
241 354 308 116 91 63
231 719 317 67 32 37
251 269 287 76 61 45
400 819 233 82 62 53
242 759 239 69 56 50
382 540 322 31 27 30
254 270 285 70 57 41
311 99 256 104 83 61
464 840 329 99 79 59
282 402 210 93 79 63
230 434 344 137 19 47
316 379 327 139 99 74
252 274 288 71 58 43
255 274 286 70 57 42
207 613 277 75 32 33
285 249 277 101 80 56
457 459 262 85 29 31
356 799 172 92 69 57
286 920 389 60 56 56
164 460 282 114 66 58
451 844 361 85 66 53
232 259 290 117 91 66
236 264 291 116 90 65
361 855 307 39 34 31
210 534 210 75 23 33
241 259 291 113 89 63
307 874 239 111 88 74
241 264 291 111 87 62
236 269 291 114 89 64
229 274 289 119 92 67
231 274 291 118 91 66
300 174 267 100 80 58
366 594 243 56 30 34
231 279 291 114 89 64
274 293 302 98 79 59
224 640 287 145 20 44
262 144 247 125 93 63
275 617 334 37 25 29
269 389 259 56 51 46
228 284 290 117 92 66
268 314 292 63 53 44
228 281 290 116 90 66
236 274 292 111 87 61
346 883 307 51 43 42
224 338 294 118 94 67
180 674 272 156 106 77
477 530 281 176 116 97
251 404 318 90 71 50
234 911 384 55 51 51
266 699 231 103 24 35
231 380 315 118 93 66
236 279 292 109 86 61
237 290 295 110 87 61
248 259 289 97 77 54
218 792 259 68 54 49
246 264 290 98 78 56
264 194 248 119 92 60
259 214 244 124 97 66
312 220 305 110 91 71
375 856 338 57 51 48
165 469 282 89 51 45
276 795 240 76 61 56
314 85 216 114 18 36
248 268 289 86 69 51
211 759 257 105 78 53
246 274 291 85 69 51
262 264 262 91 72 50
282 294 327 103 82 58
247 283 294 81 67 51
181 519 242 62 32 36
261 344 247 79 70 60
161 456 274 102 57 51
242 633 253 159 6 40
245 449 336 98 15 32
334 114 233 126 93 68
246 289 296 87 70 51
249 275 290 74 60 45
203 607 290 51 35 34
326 853 347 37 35 34
285 336 262 72 62 51
250 279 291 67 55 42
269 772 240 79 61 52
162 509 278 97 59 52
381 415 217 89 10 32
260 129 271 117 93 66
251 289 293 74 60 45
265 119 252 127 92 64
306 754 318 69 56 48
319 427 351 158 19 45
254 281 290 65 53 40
417 521 321 62 20 23
350 759 197 57 47 41
226 324 292 122 95 67
256 289 291 69 56 42
178 538 264 131 18 44
143 512 266 153 111 85
171 509 262 134 13 31
370 644 238 69 38 28
331 730 324 97 25 39
231 294 292 119 90 64
227 304 290 122 94 67
231 299 292 123 91 66
260 822 343 94 46 44
262 53 222 114 97 78
229 879 340 164 127 101
289 858 250 61 57 58
297 263 268 132 94 60
231 304 292 123 91 65
311 384 243 105 89 73
146 454 271 74 52 39
234 294 294 117 89 62
456 479 316 77 21 30
241 294 297 113 87 61
295 249 266 131 94 60
185 774 312 170 121 91
159 594 272 166 117 89
282 317 280 73 62 52
335 229 262 134 101 62
281 891 404 61 57 55
234 299 294 128 92 67
237 299 295 128 91 68
221 584 331 68 29 35
237 304 295 126 91 65
357 554 226 152 2 36
241 299 297 124 90 66
315 48 241 83 48 38
227 309 291 118 92 65
431 519 257 56 33 38
455 494 247 159 9 40
333 160 246 124 98 68
231 309 293 118 89 61
