ply
format ascii 1.0
comment Created by Open3D
element vertex 2232
property double x
property double y
property double z
property uchar red
property uchar green
property uchar blue
end_header
312 934 357 51 44 41
306 658 332 96 25 40
311 658 332 74 29 37
306 868 402 37 34 36
311 663 332 53 23 32
306 668 333 61 29 36
306 673 332 155 24 53
311 668 332 71 25 34
320 663 330 87 24 36
316 673 332 166 17 54
368 644 265 58 31 23
316 693 336 130 23 45
291 678 334 136 18 45
291 683 334 93 23 39
296 688 334 57 25 31
301 683 334 100 24 40
291 693 335 86 29 39
291 698 337 72 25 33
296 702 339 109 30 43
455 814 289 92 75 63
301 698 337 57 29 32
453 820 330 85 67 54
301 702 339 91 26 37
306 683 334 61 29 34
311 683 333 72 24 35
311 687 334 58 29 33
321 678 331 149 17 48
316 683 332 50 28 32
321 893 387 42 38 37
316 688 333 44 27 30
321 683 332 41 25 29
311 690 335 115 28 45
311 693 336 88 25 36
315 690 335 125 30 51
321 694 336 77 28 35
306 698 337 37 29 30
403 802 284 145 100 79
306 702 339 41 27 28
306 704 340 74 29 37
311 704 340 69 23 30
321 698 338 64 29 33
321 701 339 71 22 30
261 765 319 63 52 46
261 768 317 63 51 46
271 768 318 61 51 45
276 768 318 61 51 45
373 819 240 69 55 48
281 768 318 62 51 47
395 553 267 108 19 40
286 768 318 63 51 47
261 708 339 152 14 48
258 718 339 163 5 52
261 718 339 165 4 52
270 713 339 144 19 49
272 717 340 165 23 55
271 733 335 181 8 59
257 723 339 170 4 54
261 728 338 178 1 58
261 733 337 179 6 59
266 728 337 179 6 59
271 728 337 180 7 59
276 708 339 133 22 46
381 753 291 125 94 66
273 710 340 143 20 48
276 713 340 83 25 37
371 832 247 78 60 55
360 836 244 88 68 60
281 707 339 76 26 36
281 718 340 58 27 34
286 709 340 109 28 43
286 713 341 124 24 45
286 718 341 96 26 41
286 733 335 71 25 35
281 721 340 157 29 58
286 724 339 104 26 42
309 785 225 67 55 49
286 722 340 121 26 44
261 738 335 178 14 59
261 743 333 89 24 40
262 740 334 175 17 59
267 739 334 175 15 58
266 743 333 123 22 45
271 736 335 179 14 58
271 743 332 101 29 42
395 876 304 93 74 65
375 777 208 81 60 50
266 748 331 52 30 33
266 753 328 65 45 43
271 753 327 63 51 47
378 830 261 167 107 86
261 757 325 60 51 48
266 759 324 63 52 47
276 738 334 138 23 50
276 736 335 179 16 59
356 892 312 65 55 52
281 736 335 133 24 48
281 743 332 76 31 37
276 750 329 58 48 46
281 747 331 54 46 43
390 573 272 66 28 34
281 753 328 64 51 46
286 736 335 135 23 48
301 869 397 33 31 34
286 743 333 88 37 44
381 818 372 99 80 62
281 757 325 64 52 47
276 763 322 63 52 47
308 910 280 75 66 66
281 908 267 81 72 70
400 799 367 85 72 60
292 705 340 55 27 28
291 713 341 46 26 32
296 713 342 33 29 30
301 718 341 46 31 33
291 724 339 103 32 44
301 724 339 56 27 32
331 845 301 33 31 30
303 735 340 84 30 40
398 738 272 144 98 71
306 713 342 44 28 31
306 718 342 80 30 38
311 718 342 92 28 41
316 713 343 163 20 54
321 708 342 147 12 47
321 713 343 160 14 51
314 931 318 68 60 56
316 718 344 104 22 41
304 732 339 102 24 39
306 733 341 81 25 35
318 724 345 32 29 32
321 727 345 41 25 31
296 738 336 115 25 45
291 753 327 67 54 49
293 746 335 62 48 46
296 749 333 66 53 49
293 751 330 68 55 49
296 754 328 66 54 49
301 748 336 88 40 48
300 750 334 63 50 49
290 758 324 65 53 48
292 758 325 67 54 49
296 758 325 67 54 48
291 763 323 65 53 47
326 818 216 57 47 45
300 755 329 64 52 48
301 768 322 61 50 45
302 762 325 63 51 47
306 748 337 132 30 51
311 748 336 150 23 52
311 753 333 71 45 45
310 751 335 132 35 52
366 772 198 78 57 48
316 933 337 58 52 50
316 753 333 106 38 48
321 748 336 170 20 56
275 891 421 55 50 49
321 753 333 104 30 45
275 871 406 39 37 38
306 738 341 95 26 40
311 744 339 75 22 33
316 738 342 121 25 46
321 738 342 174 18 56
311 757 331 61 49 45
318 832 219 55 49 47
383 809 398 73 56 42
311 759 329 61 50 45
306 762 326 62 50 46
305 764 324 61 50 45
312 766 325 59 49 45
316 757 331 60 49 45
348 643 260 43 34 37
345 648 258 88 26 30
347 648 261 50 33 34
350 643 263 46 32 35
352 648 267 67 26 29
418 761 280 83 63 42
347 653 261 42 31 34
345 658 258 58 32 31
311 857 347 43 39 36
331 830 294 33 28 31
347 658 261 55 32 32
347 662 261 63 33 33
350 668 262 54 34 35
349 670 259 46 33 34
341 648 318 143 20 49
342 653 318 160 17 51
352 648 307 160 17 50
357 829 377 69 57 48
347 648 313 160 18 50
349 648 310 159 17 49
345 643 316 160 17 53
349 653 310 162 23 53
344 653 315 163 20 52
342 663 318 103 21 40
349 658 310 112 32 43
317 868 318 31 31 33
352 658 308 76 25 36
377 794 221 75 57 50
349 663 310 64 30 36
344 658 315 133 19 45
347 668 313 53 24 29
350 668 311 82 23 36
352 668 308 101 29 42
350 673 311 151 20 47
345 678 317 131 15 42
348 678 314 89 18 35
347 688 318 125 13 40
348 682 314 55 27 30
350 693 316 138 15 44
357 643 271 93 23 32
381 673 276 136 103 77
354 648 269 33 31 33
366 643 262 59 42 29
352 830 231 74 60 57
363 653 261 73 56 42
364 653 263 67 54 42
366 653 267 60 34 28
359 642 273 146 36 49
361 643 277 147 27 45
266 929 276 96 84 82
360 648 277 139 21 40
360 653 277 137 26 45
363 643 287 160 19 50
362 648 287 130 22 44
364 642 284 134 18 41
362 653 282 142 25 50
362 653 287 89 24 38
355 658 272 85 32 35
290 838 452 72 57 48
421 553 263 166 117 92
372 736 289 92 59 43
356 663 272 65 34 38
353 671 265 45 34 39
357 673 272 123 40 42
326 883 392 62 55 55
316 883 237 102 82 73
363 658 262 80 60 49
362 663 262 93 81 76
364 658 264 71 54 45
363 664 266 82 69 65
366 658 267 56 36 29
368 658 270 61 37 26
316 853 442 72 62 54
365 663 268 60 45 39
367 663 271 53 36 26
361 673 262 82 70 64
371 688 283 57 40 31
361 673 272 74 54 58
364 668 269 84 73 71
366 668 272 73 61 56
366 672 272 56 47 46
361 792 204 79 59 50
361 658 277 77 27 33
358 663 275 80 35 35
350 828 222 93 72 54
360 672 275 53 31 46
364 664 278 61 35 36
362 658 282 56 28 32
292 893 238 103 84 73
362 665 274 88 76 76
363 668 287 86 28 38
365 668 281 53 30 30
364 673 286 44 29 30
375 642 269 101 74 58
373 645 270 102 76 58
372 648 270 100 72 58
369 652 269 76 44 34
381 648 271 134 102 80
274 876 395 36 35 37
376 658 273 115 86 67
371 673 277 59 44 35
372 664 275 96 71 53
375 665 275 110 80 62
376 668 276 114 85 65
376 673 277 109 83 62
381 658 273 140 104 82
381 669 275 136 101 78
276 918 392 63 57 55
355 643 302 165 10 53
410 863 313 77 65 59
358 643 298 167 8 54
391 853 328 79 67 57
356 653 302 157 21 51
355 748 321 97 17 34
360 653 296 63 29 34
363 640 289 171 18 55
361 648 292 115 25 42
353 644 304 165 13 53
356 663 302 110 27 43
358 658 298 62 30 38
300 946 355 59 56 56
360 673 297 56 26 32
358 673 299 47 25 30
362 673 292 67 30 36
354 658 305 102 37 47
399 518 271 151 14 49
354 673 306 96 23 38
403 860 344 61 49 46
353 677 261 40 35 41
360 678 261 92 69 58
362 683 262 76 58 48
361 684 267 76 51 53
362 688 262 85 62 49
367 678 283 47 31 29
292 853 242 66 56 55
361 683 275 78 45 44
389 694 280 152 111 76
366 698 287 78 26 34
367 703 287 95 25 35
370 674 280 60 42 29
374 679 280 91 65 51
368 686 284 43 32 26
381 678 278 132 100 75
377 683 279 111 82 62
381 683 279 130 97 72
382 686 279 134 101 73
380 685 280 125 92 70
369 693 285 63 32 28
376 693 281 102 71 53
370 703 285 50 32 27
376 698 281 109 75 56
358 678 299 80 24 34
360 683 297 78 26 37
357 683 302 89 29 41
357 688 302 71 29 36
456 818 317 88 70 57
359 688 300 47 26 29
364 679 290 46 27 32
399 528 271 149 14 49
364 683 290 47 31 31
355 683 306 68 27 34
355 688 307 41 27 31
353 688 309 65 28 32
360 693 297 99 25 39
358 693 303 102 26 41
359 693 300 112 29 45
359 698 301 153 20 49
358 702 304 150 19 47
361 703 297 153 14 47
364 698 291 157 19 49
364 703 291 155 17 49
354 690 310 55 28 30
354 693 310 87 19 35
356 698 307 148 16 46
353 701 314 138 10 45
354 704 316 137 11 43
323 643 329 49 29 30
326 643 328 86 29 40
356 832 238 82 66 60
331 648 326 105 24 42
353 841 405 57 49 40
336 643 323 87 26 38
334 642 325 144 37 54
336 648 322 119 21 43
373 825 399 83 63 53
326 658 328 109 31 44
322 658 329 88 28 38
323 672 329 160 19 52
346 872 371 52 48 47
336 658 323 154 15 49
333 658 324 149 18 49
333 663 324 149 16 45
331 668 326 81 19 33
336 668 323 149 15 47
333 666 324 145 16 46
334 673 325 144 13 46
339 648 320 115 20 41
339 668 320 132 17 45
340 673 320 144 12 45
327 677 329 150 13 47
326 683 331 134 14 43
335 678 326 137 8 43
330 684 330 142 12 44
390 871 299 86 69 63
331 688 331 129 14 42
401 623 271 157 111 83
336 688 328 129 4 40
331 698 336 113 14 38
326 704 340 140 15 45
336 703 337 124 5 38
340 678 321 140 9 44
341 683 322 137 8 43
395 753 277 135 97 66
344 684 320 139 11 44
339 695 330 128 2 41
342 697 328 129 1 42
341 698 331 126 1 39
292 835 449 84 63 51
392 743 282 140 101 73
261 841 339 118 97 74
342 702 333 125 2 39
346 693 322 137 8 43
345 699 327 128 4 40
349 704 326 118 8 40
345 704 331 126 3 40
351 768 318 55 47 42
367 838 398 69 54 46
367 713 287 118 20 38
370 714 285 101 25 33
376 718 286 121 81 60
371 723 287 95 36 37
306 824 299 109 82 66
376 723 287 123 83 61
376 728 288 124 85 63
381 728 288 138 99 71
363 708 294 153 12 48
365 708 292 152 17 49
388 575 270 78 30 31
365 713 292 148 15 47
406 779 365 89 75 66
361 713 302 132 13 41
366 718 292 137 9 42
394 796 395 85 69 53
364 718 297 138 10 43
364 719 300 144 16 45
359 705 305 151 16 46
358 707 308 144 11 45
359 709 306 141 11 43
358 712 313 133 10 42
359 713 312 135 11 42
357 713 317 139 14 44
359 715 315 143 17 44
360 718 312 128 19 43
358 717 318 142 21 45
360 827 377 80 65 53
362 718 307 139 13 45
365 723 297 148 10 47
376 796 410 57 45 37
367 728 292 142 18 46
320 898 382 53 47 45
367 733 292 87 22 34
366 733 297 143 20 49
360 723 317 55 26 32
361 728 317 117 22 43
362 723 312 126 20 42
362 728 312 133 15 42
364 725 305 132 10 40
368 723 288 129 20 44
371 733 289 93 52 42
266 852 357 97 80 62
366 853 426 80 64 54
382 743 289 132 97 71
368 753 298 135 104 78
367 753 302 136 95 76
359 738 316 136 15 44
359 748 316 111 18 39
414 757 383 121 101 85
357 748 318 107 20 37
361 738 312 142 18 46
410 593 266 159 110 83
363 748 308 95 24 38
363 752 309 117 14 38
362 753 312 109 19 37
368 762 303 137 106 79
359 758 316 63 33 35
353 764 319 56 47 42
300 917 278 80 72 71
359 762 315 55 45 43
361 763 313 43 36 37
361 768 313 52 44 40
364 754 310 112 15 39
384 876 346 60 54 50
366 758 307 130 81 67
325 856 238 88 67 57
307 843 298 69 57 46
364 758 311 101 32 42
366 763 307 135 104 79
365 763 311 95 73 60
365 768 310 121 92 73
377 736 289 124 89 66
376 738 290 121 88 64
376 743 291 118 87 62
411 848 330 81 67 58
371 748 292 101 72 50
371 753 293 98 68 46
369 750 295 112 80 57
379 740 290 129 94 69
380 743 290 128 94 68
381 748 290 127 94 68
341 883 367 48 44 43
376 758 294 109 81 54
375 760 295 105 78 50
353 729 329 41 27 31
376 763 295 107 81 55
369 764 301 131 102 75
382 763 294 125 95 69
381 768 296 122 94 67
383 767 294 124 95 69
369 769 305 132 100 73
331 708 341 147 9 46
337 706 339 127 6 39
334 705 340 140 12 47
389 789 295 140 102 79
336 718 344 157 8 49
299 946 308 85 77 77
325 723 345 168 17 55
327 729 344 160 17 53
326 733 343 158 17 54
331 723 344 168 5 55
336 723 344 164 10 53
336 728 343 174 10 57
311 919 296 79 70 70
336 733 343 176 13 58
381 783 217 64 49 43
347 707 333 132 10 42
344 705 335 127 3 40
345 709 336 129 8 40
349 709 331 130 17 43
349 715 335 76 29 33
346 718 337 100 23 37
339 709 340 72 13 26
343 712 339 62 22 29
287 879 244 67 57 55
341 718 342 85 20 34
349 723 335 53 26 30
349 727 335 56 29 31
351 728 332 66 31 36
346 733 337 51 30 32
346 728 337 47 30 32
341 723 342 101 24 39
343 734 339 35 29 28
344 723 340 47 27 29
336 863 307 39 35 34
344 728 340 35 28 28
336 748 336 144 18 47
336 753 333 121 22 42
277 878 257 56 50 51
326 738 342 179 15 58
331 742 340 180 14 59
390 698 280 152 109 78
321 769 324 55 47 44
326 763 326 58 48 44
326 766 325 55 47 43
331 757 331 100 30 42
331 877 243 82 72 71
331 760 329 56 45 43
296 854 322 64 54 45
377 875 322 47 40 37
361 868 310 46 42 44
331 766 325 54 45 42
331 768 323 53 44 40
336 763 326 53 45 41
341 743 337 75 25 35
341 753 332 55 27 30
342 749 333 69 26 32
343 744 334 91 15 33
351 743 327 112 20 38
345 737 336 44 27 28
344 742 335 74 38 43
387 843 359 68 57 47
350 738 331 49 26 29
349 742 330 101 30 44
350 748 327 68 24 32
271 812 233 81 65 58
352 753 323 70 27 33
345 752 330 38 27 28
346 753 328 40 27 28
340 756 330 45 24 27
342 755 329 44 28 29
338 765 324 51 43 40
347 759 324 98 29 41
351 758 322 105 31 42
349 756 325 90 21 34
344 761 325 54 41 39
354 709 321 70 19 32
355 713 322 80 25 37
354 714 326 43 30 31
355 718 327 66 29 33
290 853 247 71 58 56
426 842 340 62 49 41
357 723 322 45 29 34
310 933 312 77 67 65
354 720 330 107 32 42
353 733 328 114 25 43
357 733 322 131 23 45
354 738 325 139 19 45
355 743 322 131 18 42
353 744 324 118 19 39
354 742 325 137 20 45
353 748 324 91 26 39
354 758 320 61 27 29
412 763 387 91 72 57
400 528 267 130 17 44
392 518 278 113 13 35
388 518 283 52 26 31
323 844 460 60 52 44
386 518 287 56 28 32
390 518 281 87 21 34
386 523 287 62 27 34
386 528 287 102 21 39
390 528 282 149 15 48
388 528 284 149 18 48
395 523 277 135 14 44
397 523 274 144 13 46
399 531 262 87 24 35
325 869 429 58 53 52
399 533 271 152 15 51
283 945 369 55 51 49
386 533 287 157 13 49
386 538 288 152 12 48
386 543 288 146 16 45
392 538 282 141 6 44
394 538 280 135 9 41
421 818 338 88 76 67
394 543 280 136 18 45
402 518 262 134 38 49
401 523 267 139 20 48
409 528 258 95 53 40
414 523 264 95 60 49
376 830 424 78 62 49
306 913 282 78 69 69
414 528 264 88 52 39
295 774 319 60 50 45
413 521 265 100 60 52
406 753 257 84 63 45
409 533 259 80 50 35
414 533 264 86 54 40
417 533 266 102 66 51
420 837 282 113 96 98
411 543 262 85 57 40
416 543 265 115 80 61
384 517 291 64 23 31
390 553 258 110 24 39
389 556 259 109 25 34
394 547 258 58 30 32
395 548 262 84 22 35
401 778 281 95 70 53
393 550 260 108 25 41
394 551 263 91 20 36
396 548 267 126 20 43
397 548 272 97 23 38
395 553 272 106 19 39
393 555 265 88 24 34
394 557 272 99 22 37
386 553 288 60 24 30
401 779 279 83 62 41
390 548 286 107 20 39
395 553 277 137 23 48
394 548 280 105 24 40
394 553 280 140 22 49
394 557 277 128 23 45
389 566 263 115 24 38
392 563 272 80 29 40
391 568 272 59 29 34
384 571 264 81 22 35
390 675 275 149 111 81
386 573 266 72 25 33
387 569 265 91 22 38
399 567 259 63 37 27
399 571 259 65 38 27
401 573 262 73 50 34
414 754 381 96 76 63
361 852 341 55 50 46
387 568 288 115 23 43
390 568 282 113 23 43
392 563 277 84 24 38
408 549 260 72 46 32
411 553 263 96 67 48
414 546 264 103 73 54
416 548 265 123 87 66
402 564 261 66 44 27
403 574 265 87 62 43
404 571 264 82 57 39
406 573 266 104 75 56
317 914 297 84 73 71
306 948 337 59 52 50
411 563 265 116 84 62
415 563 265 146 103 77
411 573 266 136 97 72
417 573 264 166 113 87
384 563 290 89 24 37
421 518 267 165 118 95
427 518 263 170 118 91
428 514 264 172 119 92
427 528 262 165 117 85
429 522 260 177 125 95
325 860 333 32 32 34
420 543 265 150 106 81
399 738 267 140 94 67
422 543 264 164 116 90
272 896 254 82 71 68
427 533 262 170 118 90
424 534 265 161 114 87
429 536 258 165 117 84
385 578 268 76 23 36
387 578 272 72 25 32
266 942 375 81 80 82
391 593 262 72 45 33
384 587 273 96 16 35
397 578 261 68 45 30
396 583 262 75 50 35
399 582 264 82 59 41
401 583 266 103 74 54
395 587 263 82 57 40
396 593 267 98 70 51
401 588 267 111 81 60
389 576 277 125 18 43
386 578 287 80 30 38
385 583 287 57 27 33
389 576 281 157 20 53
384 588 277 80 24 35
384 591 279 131 19 47
385 588 282 80 23 35
384 587 286 94 21 37
386 603 263 66 43 33
301 844 462 77 62 51
385 608 263 68 40 29
387 608 265 87 59 44
391 603 267 93 65 47
391 608 268 106 76 58
396 603 269 114 82 62
381 830 289 75 46 37
395 608 269 119 86 66
397 608 270 125 90 70
401 603 269 134 96 72
402 578 265 94 67 48
406 578 266 117 85 63
416 583 263 170 115 90
292 838 448 81 64 51
416 588 262 170 116 89
413 585 264 163 112 86
413 588 264 166 115 87
406 598 268 147 103 75
406 603 268 153 108 79
415 598 262 167 116 87
410 598 266 159 112 84
413 598 264 163 116 88
415 603 262 168 116 87
411 608 266 163 115 86
384 578 290 46 28 31
390 612 269 111 80 61
392 614 270 119 86 67
385 623 269 107 80 60
387 623 270 117 87 67
391 618 270 121 88 69
388 620 270 115 84 65
401 613 270 145 102 78
356 833 408 59 50 42
396 618 271 134 97 74
396 623 271 141 101 78
401 618 271 150 106 79
387 672 274 145 108 80
284 916 390 62 55 52
386 628 270 121 90 70
288 870 376 38 34 35
322 918 363 52 45 42
386 638 271 135 101 79
314 841 460 62 52 45
391 638 271 150 107 84
356 867 326 47 41 39
401 628 272 162 115 86
272 880 388 34 33 35
396 633 272 156 112 87
401 633 272 167 119 90
407 613 269 158 113 83
405 613 270 155 109 80
408 623 269 162 117 87
284 867 256 62 55 57
414 613 261 166 114 82
411 613 266 165 116 86
414 621 258 162 110 79
413 623 262 165 114 82
410 618 266 165 116 86
405 628 271 165 118 88
404 637 270 170 120 89
412 628 262 165 113 81
411 638 262 171 119 87
419 578 261 173 117 88
381 837 289 48 39 33
418 585 259 169 117 84
351 843 357 59 55 54
386 643 271 142 104 83
386 658 272 146 107 85
391 658 271 144 110 86
396 658 271 159 121 96
399 658 270 171 126 100
351 798 207 84 65 57
336 804 206 76 58 49
401 663 267 176 123 98
395 668 271 162 118 91
398 673 269 169 117 89
400 673 266 174 120 92
379 793 300 137 104 81
386 663 272 147 108 84
386 673 275 144 108 80
402 654 269 179 127 98
406 653 266 183 126 100
409 648 262 177 121 92
406 658 262 183 125 98
405 663 262 181 126 98
404 666 261 179 123 95
399 688 262 158 107 75
395 683 272 161 111 80
398 683 268 165 113 82
365 878 322 47 40 39
398 688 269 164 110 81
386 678 277 143 108 78
390 678 276 149 111 80
305 833 466 77 63 50
393 678 274 153 112 81
386 683 278 143 108 78
391 683 276 148 109 77
399 693 258 148 102 70
316 848 452 59 51 44
399 693 262 155 106 71
396 693 272 164 113 81
399 703 258 144 100 67
399 703 262 148 100 68
351 857 402 88 78 71
399 698 266 159 107 75
398 698 269 163 109 80
399 703 267 158 107 75
392 693 277 155 110 79
386 693 280 144 105 76
386 698 281 147 107 77
399 748 267 131 90 62
389 703 280 153 109 79
394 690 275 160 112 81
394 703 275 165 114 83
400 683 262 163 110 80
399 708 258 140 99 66
397 708 272 164 111 81
399 708 270 161 108 78
399 713 271 160 107 76
399 718 271 155 102 74
392 708 278 161 112 84
390 708 281 155 110 80
390 713 281 157 111 82
384 715 285 142 99 72
276 966 346 60 56 54
390 718 281 157 110 81
392 713 278 162 113 84
392 718 278 160 109 81
398 718 273 158 106 77
399 723 271 155 104 75
304 931 299 80 70 72
400 733 262 139 94 65
400 728 262 141 96 66
399 733 267 144 97 69
399 731 270 148 100 71
337 846 299 34 30 30
385 723 285 148 104 76
441 828 322 82 68 58
385 728 286 147 105 77
376 803 406 65 49 39
391 723 281 155 109 80
385 733 286 144 104 76
395 728 277 151 103 75
398 723 273 156 106 76
261 918 268 84 74 72
393 733 279 145 102 74
316 859 439 74 65 58
423 781 277 111 82 62
395 733 276 147 101 74
400 723 262 142 97 66
399 743 272 138 95 67
397 753 273 134 94 65
325 846 298 33 30 31
301 793 231 69 56 48
391 738 282 141 101 74
389 740 285 139 102 74
308 919 373 46 43 42
389 743 285 137 100 72
386 748 287 135 99 72
389 748 285 137 100 71
390 753 286 135 100 70
371 823 427 87 70 54
393 738 279 143 101 73
399 744 276 140 96 69
396 748 277 138 97 69
393 751 279 135 97 67
398 758 272 130 92 60
399 760 270 129 90 58
386 758 288 133 100 70
390 758 286 131 98 67
391 763 288 129 97 67
394 754 280 133 96 67
393 758 284 132 98 68
395 758 282 132 97 66
398 762 278 132 95 63
399 764 276 133 94 61
400 768 277 135 96 64
392 768 288 129 96 67
395 768 286 130 96 67
399 768 280 136 97 65
401 748 262 121 83 56
403 756 259 101 70 48
401 758 262 113 78 54
405 759 261 98 73 54
406 762 263 105 81 64
402 768 272 128 91 63
403 766 269 119 86 60
406 764 267 108 86 70
415 757 258 95 80 71
266 834 307 66 54 39
416 758 267 94 81 70
364 853 409 77 64 56
410 761 259 100 85 75
411 762 262 98 84 75
411 768 269 83 69 54
261 883 281 129 102 78
416 763 272 79 61 45
414 766 269 62 47 29
416 768 272 81 61 44
413 758 272 98 90 81
413 762 273 82 66 52
384 753 290 134 100 71
384 758 290 134 100 70
270 912 406 80 73 70
307 914 378 46 42 42
385 763 291 129 98 69
389 765 290 128 96 67
420 757 262 77 63 50
421 758 272 84 63 43
426 758 267 85 66 46
432 759 262 114 85 62
427 764 262 109 79 57
429 761 258 109 78 58
431 762 262 116 85 60
426 760 271 81 61 42
427 764 267 114 84 60
284 849 326 66 55 44
425 768 267 106 78 57
430 762 267 111 81 58
418 759 278 75 57 40
418 759 280 76 56 40
425 763 276 95 71 46
429 765 279 88 68 49
425 763 283 101 76 54
435 758 262 114 84 58
443 756 319 116 85 62
276 883 253 58 53 53
446 756 319 118 86 64
399 768 372 65 51 35
411 749 363 96 76 60
411 753 363 101 80 64
412 753 367 108 87 69
414 750 366 96 76 61
406 753 372 97 85 73
411 753 372 105 88 74
410 752 378 103 85 69
412 750 376 106 84 67
414 750 373 105 81 64
414 753 372 107 90 77
415 753 377 106 87 73
410 758 362 103 83 63
409 768 368 84 66 51
402 759 372 86 72 58
407 754 377 101 90 80
404 757 372 96 84 73
400 768 377 84 70 55
400 768 382 103 88 72
346 878 270 73 62 60
406 867 336 47 40 34
404 761 382 110 93 77
414 756 374 108 92 84
386 863 307 49 40 35
413 758 382 120 98 79
410 768 377 69 50 37
412 763 382 96 77 62
411 768 382 73 52 41
432 768 339 104 91 81
430 768 342 94 82 70
432 764 345 90 71 53
441 752 327 101 79 61
442 750 328 103 80 62
443 751 336 101 80 63
444 750 332 103 81 63
444 752 331 106 81 62
440 758 331 99 78 59
438 763 333 104 83 63
442 756 322 111 84 63
444 757 327 113 86 66
441 761 329 110 88 70
436 759 341 107 81 61
433 763 339 93 73 56
436 763 342 93 73 53
434 765 345 86 68 52
408 755 386 93 74 52
402 763 386 103 87 70
403 760 386 104 88 74
412 758 387 97 79 63
410 759 390 85 68 48
414 759 385 109 92 81
381 808 431 83 66 53
410 768 387 82 57 45
408 766 390 76 60 45
414 761 385 99 83 76
261 773 222 68 56 50
261 777 224 69 56 50
271 773 223 70 56 50
266 778 223 74 61 52
275 772 224 67 54 49
261 783 225 73 58 52
265 780 225 75 61 53
272 779 225 72 59 52
366 828 362 78 66 55
369 831 388 70 53 47
389 787 391 91 79 67
261 793 228 79 62 55
260 799 231 81 63 56
266 788 227 79 63 54
266 798 229 80 64 56
268 799 230 80 64 56
272 794 230 78 62 54
269 796 229 79 62 55
273 775 225 68 57 51
277 773 225 69 56 50
266 882 392 35 34 36
281 778 227 70 56 51
285 774 229 64 51 45
285 778 229 68 54 48
287 778 230 66 52 46
276 789 230 72 58 52
276 793 231 74 60 54
281 793 232 70 57 52
281 798 233 70 57 53
313 935 326 67 60 57
286 788 231 71 58 52
286 793 232 71 58 52
286 798 233 70 57 52
373 810 379 99 87 79
261 803 232 79 63 56
264 806 229 82 65 58
271 808 233 80 63 56
267 815 235 84 65 58
261 818 234 80 64 58
358 809 405 55 46 37
261 823 236 84 68 61
262 820 235 82 66 59
265 817 234 83 65 58
267 818 236 83 66 59
266 823 237 83 67 62
271 823 237 75 61 59
266 828 238 66 59 61
271 828 238 93 80 75
266 833 241 190 139 116
271 833 242 189 136 112
276 808 234 79 63 57
281 803 234 71 59 54
280 807 234 75 62 56
276 813 236 82 65 58
281 813 237 81 65 59
283 804 235 68 56 52
286 808 236 67 56 52
286 813 237 71 58 54
276 818 237 86 68 61
379 886 335 53 45 38
276 823 237 68 56 56
281 818 238 83 66 60
281 823 239 65 54 54
281 827 239 91 78 72
286 817 239 79 64 57
297 770 224 72 57 50
297 773 219 69 56 50
299 774 219 69 56 49
301 777 224 68 55 49
321 818 217 59 49 44
306 773 223 66 54 49
310 773 221 65 53 49
311 783 222 64 53 48
321 773 212 57 46 44
312 773 219 64 52 48
391 858 352 52 45 40
316 771 220 62 52 49
320 778 212 58 49 46
318 779 214 57 48 46
319 783 211 67 56 52
316 783 217 58 49 46
306 860 356 48 43 41
321 788 211 65 53 50
317 793 217 64 54 50
320 867 363 36 33 35
318 792 214 66 55 50
314 789 220 59 50 48
315 793 221 60 50 48
317 798 217 64 54 50
313 798 224 58 49 47
293 770 229 71 55 48
291 783 231 65 53 47
296 778 226 69 56 49
336 798 203 75 59 52
296 782 228 69 55 49
302 771 225 68 54 49
301 783 228 68 55 49
291 788 231 67 54 49
301 853 232 77 64 60
296 788 231 67 55 48
291 793 233 68 55 50
296 798 233 67 54 48
298 787 229 69 56 48
311 843 457 64 53 46
306 943 347 50 44 42
301 788 228 68 56 49
304 771 225 68 54 49
305 780 225 67 54 48
310 798 227 67 55 51
309 799 230 75 60 53
312 808 222 59 50 47
331 888 275 59 52 53
312 813 222 58 50 48
316 803 217 62 51 48
321 803 211 66 55 49
293 843 238 69 57 54
321 807 213 67 55 51
313 815 219 60 51 47
311 938 342 53 47 44
307 823 223 66 57 53
289 848 246 75 60 58
308 819 223 62 54 52
301 818 302 122 88 71
307 833 224 63 53 49
311 828 222 64 53 47
311 833 222 69 56 49
316 818 218 62 52 47
396 811 254 80 61 54
321 823 218 55 47 44
319 825 220 57 47 45
291 802 234 71 58 51
291 804 235 71 57 52
296 803 234 68 55 49
296 813 237 70 57 51
301 804 235 71 57 49
303 806 234 72 57 50
376 867 294 80 64 64
292 822 239 68 54 51
296 823 238 64 53 50
296 833 237 68 56 52
301 843 443 77 65 54
302 819 233 55 48 49
302 824 228 54 48 47
302 828 227 62 53 52
298 834 234 61 53 52
291 823 240 66 52 49
291 828 240 79 66 61
332 861 335 33 32 33
294 833 240 92 71 60
311 803 227 60 51 48
309 803 231 72 59 52
310 808 227 55 47 46
382 792 416 72 59 49
306 803 233 74 60 52
307 808 233 68 56 51
304 809 235 71 58 52
307 894 253 84 73 68
307 813 232 57 50 49
308 813 229 51 46 47
356 843 403 79 68 57
307 818 227 50 46 47
294 900 246 80 70 65
305 817 232 52 48 49
304 822 226 56 50 48
309 816 226 52 47 47
304 816 235 60 53 52
304 828 225 64 55 52
305 834 225 61 51 48
261 839 246 206 148 127
295 956 342 67 62 61
266 837 244 196 139 116
266 842 249 202 143 123
331 773 203 65 51 45
266 844 251 202 143 123
271 841 249 197 140 120
377 804 378 120 117 114
271 847 253 193 138 116
266 850 256 192 134 110
296 862 362 42 38 37
276 838 247 188 134 110
456 819 322 93 74 60
281 838 246 175 127 101
276 843 251 186 133 110
287 837 244 143 105 82
286 839 246 152 111 87
386 773 217 56 45 42
286 843 247 131 96 78
284 845 250 172 123 99
287 847 248 94 71 61
281 853 256 172 121 98
287 853 253 108 79 68
287 863 252 65 57 57
271 893 252 84 72 70
266 893 257 79 70 69
281 878 252 55 50 50
372 863 359 56 50 47
282 868 257 64 57 58
281 873 257 59 50 53
285 868 252 63 57 59
287 869 249 62 54 56
261 923 272 90 79 76
286 878 246 60 52 52
264 860 365 114 88 70
283 879 248 57 50 51
275 887 251 68 61 61
273 885 254 60 55 54
273 891 249 85 72 67
282 883 248 63 57 56
285 883 245 71 61 58
286 888 243 102 82 68
282 889 244 96 78 65
379 787 219 70 53 45
285 895 246 92 81 76
311 838 223 73 59 52
316 838 221 69 56 51
311 869 432 63 55 51
319 835 220 65 53 47
320 839 220 90 70 57
372 799 393 48 40 33
316 843 223 86 68 58
321 843 221 100 77 64
317 848 224 100 77 66
295 837 236 69 55 53
295 843 236 63 53 53
295 848 236 64 55 54
301 838 228 63 53 51
297 843 233 65 55 54
341 798 203 74 58 48
297 858 237 70 59 58
294 854 240 66 56 55
290 858 247 68 57 57
290 863 247 66 57 58
271 842 338 91 75 59
293 863 243 66 56 56
310 844 225 77 62 56
313 846 224 79 65 55
311 853 227 89 71 63
311 859 231 95 75 66
342 810 210 83 63 52
306 862 234 80 65 62
321 853 227 98 77 64
322 855 232 107 82 64
315 856 229 98 76 65
360 853 371 50 44 43
314 861 234 105 83 71
316 863 237 93 74 61
321 858 237 107 82 64
319 862 238 106 85 66
321 863 241 94 75 63
298 873 239 67 57 56
301 872 239 70 58 57
292 868 243 65 56 56
292 873 244 66 56 54
351 887 356 47 43 41
296 878 242 65 55 54
301 878 241 79 66 59
296 890 239 116 92 73
296 893 237 105 84 71
368 845 344 61 56 51
301 893 237 105 84 72
301 888 241 117 95 80
302 895 254 88 75 70
301 894 257 79 70 68
306 868 237 85 70 65
316 879 238 103 82 71
311 878 241 103 83 72
322 878 242 89 76 71
306 888 238 110 89 78
311 888 237 104 85 74
320 887 238 96 84 77
305 882 240 107 86 71
310 881 240 104 84 74
312 885 253 74 65 67
312 888 253 74 64 66
327 857 312 32 31 32
308 895 248 96 85 79
311 893 247 94 81 75
315 887 247 84 70 67
319 906 284 65 58 59
440 841 284 84 74 63
317 884 242 82 67 60
320 882 242 86 73 66
320 882 248 77 67 67
316 884 252 73 65 65
321 883 257 70 63 65
313 889 243 94 81 70
313 889 246 87 72 67
322 783 208 71 58 53
326 783 207 69 55 51
328 773 204 60 48 42
328 776 204 71 56 47
331 783 206 65 52 48
332 781 204 65 51 47
336 778 203 62 49 45
356 783 312 38 33 33
336 783 204 67 53 48
334 784 205 64 52 47
349 815 299 48 41 38
323 774 209 58 47 44
327 798 208 71 56 50
331 793 206 70 56 49
333 788 204 69 55 47
330 797 206 73 58 50
332 798 204 73 58 51
351 893 352 44 38 35
325 797 210 65 53 48
341 773 203 58 48 42
341 778 204 64 51 44
346 773 202 69 53 43
351 773 202 68 53 44
346 783 201 78 60 49
341 793 202 70 56 48
346 793 201 68 54 46
351 788 201 70 55 47
351 793 203 73 58 51
348 800 206 80 62 54
331 803 206 76 60 52
440 812 292 105 85 66
332 801 204 76 60 51
332 806 208 72 57 51
324 861 441 78 71 67
336 808 208 77 60 51
324 804 210 71 58 51
326 808 212 67 54 48
327 806 209 72 58 50
260 846 343 117 89 71
325 810 215 63 51 47
328 812 214 63 50 44
331 808 211 70 55 49
331 813 213 70 55 48
326 823 216 59 50 46
326 828 216 71 58 50
332 818 213 76 60 52
329 823 215 70 57 52
331 823 213 76 59 51
336 818 212 83 64 52
331 832 214 101 76 60
336 828 212 107 81 61
336 831 214 105 81 62
341 804 206 73 56 45
337 811 209 76 59 50
341 813 211 86 64 52
291 852 318 70 59 48
350 807 209 82 62 53
346 809 210 79 61 53
351 813 210 97 73 52
341 828 213 102 78 59
342 829 216 93 73 55
348 890 354 52 48 46
346 818 210 105 78 56
347 824 216 78 59 49
351 818 212 107 79 58
352 819 217 87 66 53
349 821 214 96 74 58
345 828 217 82 64 52
305 933 302 65 58 61
347 829 221 87 66 51
346 833 222 114 86 62
278 920 389 59 55 54
349 826 219 70 56 47
349 831 224 122 95 71
349 831 227 86 65 56
351 832 232 71 57 55
358 772 199 93 69 56
361 772 198 91 68 53
361 783 198 80 61 50
341 870 323 39 36 37
356 781 200 79 59 50
361 778 201 79 60 47
292 824 477 75 59 45
374 854 416 87 66 59
362 782 200 79 59 48
366 774 200 77 58 49
364 783 199 81 60 50
353 786 199 73 55 48
400 787 396 79 61 52
356 795 205 84 65 55
356 798 207 88 68 57
361 794 206 77 58 49
361 798 208 76 58 49
366 788 203 87 65 52
382 813 372 112 93 75
396 857 307 81 69 58
367 799 212 83 64 52
370 772 198 76 58 49
371 773 202 79 60 48
375 772 203 82 62 50
373 774 205 80 59 44
338 895 285 85 73 69
370 778 203 90 67 54
373 778 206 82 60 49
372 783 206 86 65 54
380 772 208 80 59 50
377 779 211 70 52 45
376 783 212 66 51 45
382 773 212 64 49 44
383 775 215 56 47 42
382 778 216 58 46 41
348 840 367 64 58 55
371 788 206 79 60 50
370 792 208 79 61 52
370 797 213 75 58 50
373 795 215 96 74 58
379 796 224 85 65 55
431 843 337 74 59 50
382 794 226 82 62 52
357 804 210 77 58 49
358 810 215 96 70 49
310 896 396 51 46 44
358 814 221 80 60 49
363 805 216 82 63 52
345 876 269 67 56 54
362 809 221 85 62 48
381 863 357 50 45 42
366 808 222 102 77 59
354 816 213 103 76 57
356 818 222 72 55 46
366 813 301 149 116 95
353 820 220 66 52 46
354 822 223 75 57 44
368 800 216 74 55 50
371 803 222 93 69 56
369 806 224 99 73 57
374 801 224 76 59 52
362 814 225 104 77 58
364 812 224 115 89 68
394 831 269 91 70 60
361 818 227 88 65 53
359 822 229 77 58 49
353 825 225 106 84 65
354 826 228 84 65 56
355 827 232 82 65 59
362 825 236 69 55 50
284 866 429 42 38 37
359 826 234 75 60 56
364 817 228 78 60 51
366 818 232 71 53 48
365 821 234 68 54 48
357 834 241 79 63 58
361 833 242 81 64 57
366 832 243 86 66 56
371 808 227 79 59 51
358 828 410 57 48 41
375 803 227 81 61 55
379 831 264 167 106 85
372 809 231 80 61 54
377 804 231 87 65 57
372 833 358 64 54 44
377 809 236 84 63 55
374 811 234 81 61 54
380 802 233 84 61 54
382 804 236 82 59 50
377 814 241 82 63 55
382 809 241 81 58 51
380 812 243 80 60 52
382 815 250 104 75 61
355 892 350 41 34 33
370 817 234 76 57 50
371 838 427 73 57 44
370 823 238 82 63 53
356 854 427 72 59 47
369 826 239 88 69 60
372 823 241 73 57 51
376 818 242 68 54 49
376 823 247 73 57 51
371 828 242 75 59 51
369 831 244 72 57 50
373 830 250 87 66 57
372 833 252 90 66 58
351 783 313 48 41 38
377 818 247 79 61 55
381 818 252 105 74 60
378 819 251 87 64 57
377 823 252 77 59 55
378 825 255 77 57 54
322 841 219 102 76 64
326 843 221 103 78 63
328 840 220 107 80 62
331 848 222 124 95 71
336 843 222 104 80 64
341 838 221 116 87 66
335 843 232 78 62 59
332 849 227 98 74 61
332 848 232 81 63 58
334 846 232 80 63 58
332 849 237 72 58 54
345 892 356 52 49 47
335 847 238 71 59 56
324 851 224 94 71 60
328 850 225 131 99 71
330 851 227 120 91 68
330 852 238 74 60 57
297 822 490 87 72 61
332 854 241 72 60 56
333 850 240 71 58 53
337 853 246 66 54 54
360 857 431 76 65 57
331 863 247 80 66 63
334 856 244 74 61 58
365 842 253 80 63 59
336 858 247 70 59 56
334 862 249 75 63 60
338 840 228 80 62 58
338 839 232 72 58 56
343 835 229 68 52 56
338 840 236 67 56 55
346 834 232 71 58 55
346 893 297 73 64 65
347 835 235 69 58 55
273 965 349 52 47 46
350 836 239 73 60 56
341 843 242 72 61 59
339 846 243 69 58 56
346 839 241 71 59 58
351 838 242 73 59 56
346 843 247 71 59 57
350 841 244 73 59 55
351 843 247 78 63 59
345 846 249 68 57 54
351 848 252 75 61 59
352 845 250 80 63 59
338 850 246 64 54 53
342 849 250 66 56 54
342 855 256 68 58 56
339 856 248 65 56 54
316 857 332 33 33 35
345 852 253 68 56 56
346 854 257 73 61 60
351 853 257 76 63 61
266 878 372 66 57 50
325 868 244 83 70 64
343 895 354 48 42 38
327 868 245 84 70 65
325 872 244 85 73 69
326 877 244 87 76 73
326 878 247 79 69 69
327 879 257 76 67 68
328 864 245 81 68 65
361 854 338 54 49 44
334 866 249 81 68 64
331 873 252 82 70 68
331 873 257 83 71 70
333 870 256 79 68 69
381 873 352 52 46 44
330 879 246 79 68 67
334 877 244 80 71 72
427 778 287 86 70 53
329 877 258 80 70 70
327 881 248 74 65 66
323 880 255 70 62 62
329 881 248 77 67 68
356 837 243 79 63 57
326 918 357 57 49 43
356 847 253 73 58 54
361 843 251 80 62 58
356 849 256 72 59 55
361 848 257 79 64 60
363 845 255 80 65 60
387 810 246 96 70 60
369 836 249 79 62 57
370 838 257 99 71 65
388 773 220 59 47 42
271 898 257 81 70 67
316 871 387 31 28 32
276 898 257 76 65 63
342 795 309 49 42 39
281 898 257 72 64 62
283 896 249 86 77 74
286 898 252 83 74 72
285 900 256 77 68 65
286 902 257 83 73 68
288 901 254 79 70 68
292 897 238 83 68 59
291 898 242 81 70 66
306 856 332 43 39 37
291 899 247 86 77 74
297 901 242 78 64 57
291 903 257 75 64 60
293 901 248 76 65 61
301 902 242 99 81 73
298 898 254 95 85 77
301 900 257 90 83 80
301 902 257 90 84 81
311 897 237 106 93 87
307 898 247 97 89 84
305 902 247 94 85 80
311 898 242 99 88 81
384 772 214 55 44 40
391 773 222 61 49 43
385 778 218 59 46 39
387 778 220 64 49 42
384 781 219 65 51 43
392 783 226 75 56 45
393 772 225 63 50 45
395 773 227 65 50 43
397 773 232 62 48 42
398 771 235 66 52 44
400 773 237 72 56 49
399 774 234 65 51 42
394 782 228 70 53 44
395 783 232 67 51 43
399 776 234 67 52 43
399 777 237 73 57 51
399 781 239 84 67 59
401 778 247 103 76 60
399 782 242 93 66 56
384 791 224 84 62 52
326 893 278 61 53 53
386 793 227 83 60 50
392 789 231 76 59 46
385 797 233 92 66 54
386 799 236 91 65 53
392 793 237 80 62 51
395 793 242 89 66 56
398 788 245 101 70 54
401 788 248 94 67 51
393 794 240 83 66 57
393 798 241 90 70 63
401 773 242 89 68 57
311 868 435 73 67 63
402 774 246 100 74 60
406 772 248 98 75 60
407 774 250 92 70 55
404 778 249 92 68 55
406 783 251 92 67 50
411 771 249 102 76 58
416 771 249 108 76 53
295 952 317 88 81 82
362 845 374 55 47 40
411 778 251 97 70 52
411 782 253 99 71 55
403 789 250 88 65 52
406 788 252 90 65 50
405 793 253 84 63 52
408 793 255 87 66 54
402 798 251 76 57 46
405 798 253 85 65 54
407 798 256 84 63 52
408 790 255 93 68 57
392 865 349 54 48 44
386 802 238 92 67 56
391 803 242 91 66 57
390 807 243 90 64 57
326 813 303 40 36 35
384 811 244 90 64 53
386 812 247 96 69 58
390 812 252 73 55 49
392 814 256 74 59 54
395 803 247 76 53 46
394 806 249 70 50 44
396 808 252 78 59 51
401 803 252 74 55 46
386 818 256 76 57 51
406 803 257 84 63 51
386 873 347 58 52 49
418 770 250 111 79 55
420 773 257 91 66 50
261 775 314 62 51 45
296 869 392 31 30 34
261 778 313 61 50 44
266 773 315 61 50 45
266 778 312 60 50 44
399 813 350 86 74 64
266 783 310 59 49 44
265 785 309 59 49 43
268 786 310 58 48 43
266 793 307 57 47 44
271 789 309 57 48 43
271 787 310 57 48 44
276 783 312 58 48 44
286 773 317 61 51 46
355 818 396 66 51 41
285 779 314 59 49 45
288 782 315 58 48 45
291 783 316 58 48 45
276 790 309 53 44 41
276 793 309 53 45 43
296 927 376 52 49 49
279 790 309 50 43 40
281 798 309 116 86 73
283 796 310 94 71 62
265 804 304 101 79 69
381 833 365 63 50 43
271 808 304 140 102 85
264 800 304 42 37 39
272 806 305 137 100 84
261 818 298 149 104 85
261 828 297 137 100 76
258 834 295 127 91 68
260 833 297 110 80 58
365 856 278 63 50 50
267 823 300 138 102 78
379 829 428 82 65 54
264 827 299 119 87 65
267 828 301 95 74 53
366 858 307 51 43 40
264 831 299 96 73 54
265 832 303 72 58 44
351 868 371 48 43 42
270 831 304 68 56 44
281 813 303 125 90 73
286 813 302 126 91 73
286 809 304 129 93 76
276 818 302 126 96 75
276 823 302 106 83 62
281 818 301 119 90 70
286 818 301 121 90 71
286 823 302 104 83 63
286 828 303 88 71 54
273 830 305 72 58 44
276 832 307 74 61 48
345 887 361 52 47 46
281 832 308 77 64 51
291 778 317 59 49 45
296 778 318 58 49 45
301 783 316 56 47 44
292 786 315 57 48 45
296 787 315 57 47 44
282 870 403 39 37 38
291 798 311 118 90 77
296 798 311 103 82 72
301 798 311 76 62 58
306 783 316 54 46 43
311 783 317 53 45 41
321 783 318 51 43 39
306 786 315 53 46 42
306 793 313 50 42 39
311 793 312 50 42 39
331 872 397 60 52 50
306 798 311 51 44 43
311 798 311 42 37 37
321 790 314 51 44 40
321 797 310 51 43 41
291 813 303 126 91 73
296 813 303 127 91 73
301 813 303 126 88 71
291 807 305 132 94 77
293 801 310 138 99 82
296 803 308 132 95 77
296 801 310 134 98 81
296 808 305 129 92 74
365 891 312 71 62 58
291 809 304 129 92 75
301 801 310 130 95 78
382 870 316 57 48 39
291 818 302 122 90 71
291 823 303 109 84 64
296 818 302 122 89 70
292 828 304 94 76 57
293 831 304 87 71 54
380 832 267 164 105 84
301 833 302 79 64 49
303 827 299 98 76 60
385 848 360 63 54 46
291 833 307 82 67 52
310 815 304 127 91 74
306 801 310 111 85 73
306 804 309 128 93 76
306 808 307 129 93 74
335 856 346 35 33 33
306 811 305 128 91 74
311 812 305 130 94 77
316 802 310 41 36 38
322 799 309 51 43 41
320 812 305 75 60 52
381 875 300 78 65 63
321 814 304 82 63 54
306 822 300 115 84 69
311 824 299 108 80 64
311 822 300 115 83 67
306 828 299 94 74 58
304 830 300 87 70 54
311 828 298 95 72 58
316 818 303 124 91 74
319 831 295 86 66 55
316 825 299 106 76 62
321 825 299 106 76 63
364 816 386 47 36 27
261 832 327 90 74 57
258 831 329 99 82 65
297 772 320 61 51 45
301 773 320 59 49 45
311 777 320 54 46 42
316 769 324 56 47 43
321 773 322 54 46 42
369 896 336 69 59 55
316 778 321 53 45 42
261 854 262 187 129 100
262 856 264 182 128 99
257 856 268 194 136 104
259 859 271 191 137 103
266 852 258 187 130 105
266 858 263 179 127 100
279 876 374 38 36 36
271 858 262 176 125 100
265 859 265 181 131 103
271 864 266 169 126 99
260 864 276 186 133 101
274 855 260 173 120 96
277 856 259 171 121 97
281 857 259 158 113 90
280 859 261 158 113 90
281 863 262 117 85 71
283 863 259 77 60 56
260 837 302 74 59 44
261 835 307 67 54 39
261 832 317 79 64 46
266 833 312 71 58 42
341 813 301 47 39 38
271 834 312 71 59 45
276 835 312 71 59 48
281 834 311 72 61 49
277 837 313 69 58 48
281 838 313 68 58 48
286 838 311 71 60 49
286 843 312 68 58 49
295 956 337 63 57 56
311 848 452 64 54 46
282 842 317 67 58 50
266 867 269 171 127 99
272 878 267 62 53 53
261 868 277 175 127 97
259 869 280 170 125 96
257 878 283 147 113 85
260 892 272 55 51 52
262 889 272 56 50 52
267 884 267 59 52 55
264 886 272 57 49 51
270 882 267 59 52 54
265 892 261 68 63 64
257 883 284 133 106 80
257 888 283 113 91 73
261 888 281 97 79 67
258 894 277 58 52 52
259 891 280 70 59 56
264 886 277 66 55 52
336 878 402 64 56 56
264 884 280 119 95 76
264 886 280 97 77 63
275 865 265 153 115 92
276 868 266 128 97 78
278 870 264 73 59 57
301 843 303 67 56 44
295 838 306 73 60 46
289 844 310 70 60 50
420 834 341 99 87 78
296 849 312 66 56 45
307 939 357 47 43 42
362 843 412 92 82 73
298 841 304 69 57 44
296 850 315 67 56 46
302 853 307 63 54 44
298 851 314 64 54 43
375 872 313 48 41 38
301 852 317 62 52 43
303 856 306 63 54 45
311 838 296 71 59 47
456 813 317 79 62 48
310 843 296 73 60 47
281 923 386 61 56 54
304 843 300 66 56 45
307 848 298 70 58 47
305 848 301 66 56 46
317 835 294 74 59 47
313 839 294 71 58 45
459 814 314 78 61 44
321 833 293 82 63 53
321 838 291 72 57 48
313 843 294 69 57 45
325 868 387 32 31 31
316 843 292 57 47 37
287 915 388 63 57 55
313 846 294 57 47 37
316 848 297 36 32 30
321 843 288 47 40 34
321 847 297 33 30 30
311 853 302 45 39 35
313 920 369 50 46 46
313 850 300 40 35 34
306 854 312 56 48 41
311 854 307 41 37 34
311 853 312 40 36 34
306 857 307 54 46 40
314 851 308 39 35 33
316 852 312 33 31 31
318 850 310 33 32 32
320 850 310 31 31 33
321 853 312 33 31 30
316 854 317 32 31 32
320 855 316 33 32 31
321 858 318 32 31 32
311 892 262 79 71 73
300 901 396 50 45 43
311 894 267 76 69 70
316 888 262 72 65 66
322 885 261 71 64 65
317 889 267 74 66 66
318 890 272 76 69 69
318 890 277 71 66 67
321 888 277 67 62 62
322 889 280 60 54 55
318 871 318 33 33 34
261 838 337 118 97 75
266 834 327 85 70 54
268 836 328 84 69 55
265 835 331 93 77 59
266 839 337 103 85 67
381 804 300 139 106 83
261 843 341 117 95 73
266 845 345 113 93 71
266 847 347 109 89 67
271 850 351 94 77 61
279 840 321 68 57 46
278 841 324 71 58 45
276 843 332 74 62 50
280 849 332 68 58 47
284 845 321 67 56 44
391 858 292 85 68 66
285 848 322 67 55 43
275 849 347 89 74 59
282 851 332 67 56 45
282 852 337 66 56 47
286 854 337 60 51 43
372 824 377 94 76 66
287 858 323 65 54 44
288 862 324 62 53 44
288 862 326 63 54 44
370 822 366 110 94 77
288 857 331 63 53 43
282 852 342 67 57 48
274 850 350 87 72 57
371 823 432 76 60 45
287 856 348 53 45 40
259 851 354 90 75 59
261 858 363 123 94 76
448 816 300 106 77 60
261 860 365 125 95 78
316 857 342 36 35 35
292 945 363 56 54 56
258 860 365 133 97 84
261 863 366 124 93 77
272 857 358 78 66 54
266 863 365 106 83 65
267 862 364 100 79 61
271 858 361 84 70 56
281 859 357 56 49 42
281 861 359 53 46 39
276 863 361 65 54 44
285 860 360 49 42 36
266 868 367 98 77 61
266 872 368 82 69 56
261 873 371 81 70 59
276 958 312 87 83 87
368 870 359 46 42 41
262 877 373 73 64 56
261 879 375 70 61 53
271 878 372 55 49 44
265 880 375 67 57 49
335 896 283 84 71 68
266 883 377 58 52 46
271 881 374 52 47 42
271 884 376 45 42 40
267 885 382 42 40 40
265 886 383 41 39 39
271 886 378 36 35 36
276 866 364 61 52 43
350 828 402 44 37 35
276 869 366 61 51 42
276 873 368 55 48 42
280 866 364 57 49 40
286 865 366 48 42 37
277 875 371 47 42 39
276 877 372 41 38 38
280 877 382 37 34 35
285 872 373 41 37 36
361 854 411 80 66 53
286 872 377 36 33 35
275 883 377 36 35 37
275 882 382 32 33 35
292 860 327 63 54 45
296 857 332 58 50 43
302 855 330 49 43 38
381 838 342 59 51 44
301 856 332 50 44 38
289 855 342 55 47 41
296 857 342 59 51 44
366 828 407 52 42 36
266 944 291 87 79 78
291 857 347 55 47 40
301 858 352 50 44 40
311 855 322 33 32 33
306 856 328 39 37 36
311 856 327 34 33 35
311 857 332 36 35 35
315 855 321 32 31 32
319 859 321 31 32 33
316 857 337 34 33 35
321 859 332 32 32 34
451 823 312 103 83 69
311 858 352 46 42 39
316 857 347 41 38 36
366 868 361 48 42 39
321 857 347 39 36 35
261 944 373 91 87 88
291 861 359 49 43 39
296 859 357 50 43 40
291 862 362 45 40 38
291 864 367 43 39 37
294 860 360 47 41 38
298 861 359 44 39 38
301 862 362 40 36 36
306 861 359 48 43 41
311 859 357 49 44 42
306 862 362 42 39 39
311 863 362 45 42 41
291 943 367 57 53 53
316 859 357 47 44 42
317 860 360 48 45 43
316 863 362 46 43 41
321 858 362 45 41 40
318 865 321 32 32 33
317 868 321 31 32 33
436 838 338 84 71 63
293 865 370 40 36 36
356 852 258 71 58 55
296 867 372 37 33 35
296 869 382 33 30 34
301 868 377 34 30 34
302 866 369 34 32 35
307 866 368 35 33 34
311 867 367 35 33 34
315 869 367 35 33 34
321 868 367 34 33 33
351 887 297 73 63 63
319 871 367 33 31 32
377 840 344 60 52 45
306 867 372 33 31 34
306 869 382 31 29 32
316 870 376 30 28 32
313 871 378 30 28 33
316 871 379 30 28 32
312 871 382 32 30 33
316 872 382 31 29 33
326 779 319 51 43 39
326 788 316 52 44 40
326 793 313 53 44 41
326 790 314 52 44 40
331 790 314 52 44 40
336 788 315 52 44 41
336 793 312 51 44 40
331 798 310 50 43 41
346 778 316 52 44 39
347 784 314 50 43 39
350 778 315 52 44 40
352 778 314 51 43 39
341 788 314 51 43 40
341 798 308 48 41 38
339 796 310 49 43 39
378 809 428 82 66 52
346 793 311 48 42 39
346 798 308 46 40 38
351 794 309 44 38 37
331 813 303 46 39 37
336 813 302 46 39 37
326 803 308 49 42 40
326 811 305 42 37 37
331 803 308 48 41 39
331 808 307 48 41 38
336 803 307 48 41 38
335 807 305 47 40 37
332 810 304 47 40 37
381 861 304 54 44 41
326 818 302 47 39 37
326 822 300 64 50 45
426 846 306 93 77 65
326 828 296 81 61 52
331 818 301 43 38 35
331 823 298 39 34 34
331 833 292 31 29 31
341 809 303 46 39 36
346 813 301 48 41 38
346 815 299 49 42 39
341 806 305 46 40 37
346 806 305 47 40 37
352 805 304 41 36 35
342 819 299 47 40 37
341 826 295 45 39 38
351 819 298 45 39 38
441 848 321 80 67 59
346 826 295 47 40 38
346 828 293 44 39 38
352 826 295 40 35 37
351 832 291 35 33 35
353 775 314 52 43 40
361 773 312 71 57 49
361 783 311 89 68 55
367 773 307 127 95 71
364 772 310 122 90 69
366 778 307 120 89 66
316 859 422 57 49 44
366 798 303 136 106 83
356 793 308 48 39 37
355 791 310 36 32 33
353 895 349 66 55 52
360 787 310 86 66 54
361 788 308 112 85 66
371 773 302 108 81 56
376 773 298 115 89 63
374 774 300 110 86 59
371 778 303 113 85 61
375 778 301 121 93 67
381 773 297 123 94 69
383 772 294 122 94 67
381 778 297 123 95 71
377 778 299 124 96 71
378 783 298 127 97 74
371 788 303 129 100 77
371 793 303 129 100 79
376 788 301 126 97 74
381 788 298 131 100 78
381 798 298 141 105 83
369 786 305 128 98 76
382 830 266 157 101 81
361 803 303 120 94 75
357 804 304 62 49 42
361 808 302 131 103 83
356 813 301 68 56 49
356 823 297 66 51 45
361 832 291 111 80 63
366 817 300 149 113 92
366 828 293 125 89 70
366 832 291 121 83 66
395 789 291 147 107 81
371 803 302 140 108 85
371 808 301 150 114 92
376 808 300 147 112 90
376 813 299 158 117 97
377 809 299 151 115 93
381 802 299 140 106 83
381 813 298 161 120 99
376 822 296 143 103 84
371 818 299 150 111 91
376 828 292 121 81 63
381 824 293 139 96 78
381 818 297 159 116 98
291 919 275 82 73 73
381 828 291 110 72 57
378 830 289 101 64 51
331 773 321 51 43 40
336 773 321 51 43 40
453 821 303 102 78 64
331 776 320 51 43 39
334 776 320 51 43 40
344 772 320 52 44 39
368 815 383 58 46 36
361 833 366 88 78 70
363 825 368 114 99 85
364 826 365 92 78 66
321 872 431 71 65 62
366 833 362 76 66 57
357 829 372 74 63 53
358 830 369 97 84 74
357 833 368 79 71 63
356 833 372 66 57 49
356 828 382 43 36 33
361 823 382 48 38 32
326 883 262 72 64 65
367 819 373 97 82 68
382 813 367 110 96 83
376 808 378 119 113 109
372 808 382 88 77 68
376 803 382 101 93 85
375 808 381 103 96 91
371 813 381 66 55 47
342 870 407 67 59 54
371 814 378 86 73 63
376 813 382 75 63 57
381 803 377 111 103 98
383 805 374 109 94 82
378 800 383 73 59 45
383 810 369 119 109 101
381 809 382 86 76 68
371 828 358 64 53 43
376 833 356 60 50 40
406 827 268 87 69 64
370 826 360 63 50 36
376 826 360 62 51 40
377 814 436 77 61 47
379 816 366 109 94 80
380 822 360 68 55 43
378 825 359 68 56 46
395 822 366 71 58 50
376 833 367 86 67 55
381 828 367 98 75 61
376 819 372 99 82 66
374 819 377 86 75 66
376 823 372 123 96 82
374 822 376 95 78 67
375 818 382 72 60 55
376 828 372 117 91 72
374 832 371 106 85 65
366 833 382 84 68 62
369 831 380 77 63 53
382 824 369 111 84 68
379 827 370 119 89 72
291 828 462 61 48 39
326 838 288 59 47 41
322 846 288 36 32 32
406 802 352 74 61 47
331 843 288 31 29 28
335 847 288 32 30 29
341 838 287 30 28 28
341 842 288 28 27 28
314 932 323 68 60 57
346 834 288 39 36 35
351 838 286 40 34 31
346 841 288 27 26 26
351 841 288 33 28 27
338 863 260 73 63 62
348 855 260 79 68 65
344 856 259 69 56 55
349 861 264 68 57 57
352 860 265 74 61 61
322 840 289 59 47 38
326 846 292 33 30 29
327 845 293 33 31 30
331 844 297 33 30 29
331 847 291 36 32 32
336 844 297 33 30 29
336 847 302 31 29 30
326 849 306 32 30 31
327 853 308 32 31 31
326 863 316 32 31 32
336 849 306 31 30 30
333 852 310 32 30 28
335 853 310 32 29 30
330 859 311 31 31 31
341 845 297 32 29 29
365 823 412 64 52 43
341 847 302 32 30 31
341 845 300 30 28 28
346 843 292 28 27 28
348 845 296 33 30 30
346 849 301 35 32 31
