ply
format ascii 1.0
comment Created by Open3D
element vertex 2182
property double x
property double y
property double z
property uchar red
property uchar green
property uchar blue
end_header
464 749 239 141 98 73
327 923 212 67 62 63
450 739 253 136 26 46
450 744 253 127 33 46
348 857 279 85 68 49
450 749 248 117 40 46
453 750 242 112 78 57
449 749 253 113 30 41
314 904 308 196 145 129
459 759 239 117 83 61
314 779 303 167 120 89
463 754 240 137 95 71
343 874 237 119 93 67
449 834 263 48 37 29
451 754 245 113 78 56
272 699 278 147 103 72
450 754 248 120 63 53
451 759 245 107 75 54
332 960 227 73 69 71
454 759 243 107 76 55
451 764 245 111 81 60
454 764 244 103 76 54
454 565 261 79 21 32
456 757 240 107 73 54
338 831 221 88 77 67
470 823 260 65 51 41
461 762 240 106 75 54
409 844 144 80 67 55
465 759 242 119 83 61
464 769 244 86 65 49
400 770 280 82 62 53
469 739 238 147 101 78
279 584 317 169 121 93
469 744 239 151 105 80
469 749 239 149 103 77
479 739 228 160 108 81
425 896 232 72 63 62
479 744 228 160 108 80
477 744 233 161 112 86
476 738 235 148 101 77
339 765 305 82 66 60
363 779 188 47 40 40
477 744 236 146 101 77
449 920 303 62 53 45
479 749 228 159 111 83
319 924 304 158 126 107
474 749 238 148 104 79
477 750 237 147 103 78
469 745 242 146 101 77
324 804 294 55 47 45
469 748 244 143 98 75
541 510 198 184 130 99
471 751 247 130 90 67
369 599 306 60 27 33
473 746 243 147 103 77
474 748 245 145 100 75
469 753 240 142 98 74
477 754 228 158 112 84
404 619 290 38 30 32
474 753 240 144 103 78
479 754 238 133 95 72
469 755 242 138 97 72
470 754 249 119 85 63
469 763 245 95 70 53
469 766 246 89 64 47
281 524 319 162 110 90
423 894 218 65 56 55
288 831 278 195 127 99
470 761 253 97 72 53
479 755 247 135 97 75
479 759 244 116 87 68
289 809 305 189 142 118
518 584 218 172 121 83
479 759 247 111 83 65
339 579 305 107 25 42
475 770 244 89 66 51
476 761 247 98 73 56
479 764 243 110 82 61
513 464 221 49 23 29
480 764 247 100 75 58
373 967 292 69 64 63
478 769 243 101 74 55
473 764 251 96 70 53
480 820 242 81 58 49
473 761 252 100 73 55
262 519 320 153 115 92
314 549 310 165 16 52
482 704 205 134 96 62
482 714 209 152 105 73
455 874 243 77 61 54
483 709 213 159 109 78
483 709 223 171 114 84
399 649 289 71 31 40
482 719 213 154 103 72
483 714 218 161 107 75
482 714 223 169 112 82
482 719 218 159 105 75
481 724 208 145 99 68
324 734 309 170 19 54
482 722 214 153 102 70
481 729 213 147 97 67
437 602 266 184 22 60
365 976 280 67 62 61
481 725 218 157 104 72
482 722 218 159 104 73
481 724 223 166 111 80
482 722 221 163 106 76
480 729 218 154 102 71
480 734 213 146 96 66
481 716 225 173 116 87
482 712 226 175 119 89
481 759 198 129 92 62
481 759 203 125 90 61
482 764 198 137 97 69
482 768 194 135 95 66
481 764 200 135 96 69
482 761 203 125 91 60
501 903 315 92 73 54
482 764 208 123 90 64
483 769 204 131 95 66
483 770 208 124 92 66
493 769 198 114 81 58
495 765 198 119 90 65
509 768 204 105 84 61
489 769 203 128 96 66
493 767 203 118 89 60
495 765 203 109 85 63
481 762 212 119 86 60
448 784 160 81 60 47
482 764 213 122 89 61
482 761 214 124 90 64
462 822 204 194 131 105
483 769 213 120 90 64
482 764 218 130 94 66
374 949 210 78 72 76
481 768 218 125 91 63
481 769 223 137 100 74
499 763 198 100 79 61
329 539 308 135 20 45
504 765 198 96 77 60
499 766 207 85 65 48
325 875 306 138 54 68
504 768 203 108 86 64
505 769 198 104 78 64
499 767 209 88 68 49
508 769 194 113 83 66
474 903 293 85 70 55
509 769 198 123 91 69
482 760 238 142 103 76
480 764 233 144 105 79
481 769 233 136 99 75
427 897 235 67 59 59
482 762 235 139 100 78
515 488 180 160 110 94
482 762 238 140 102 76
495 764 229 110 81 56
493 769 233 113 83 60
491 770 233 112 82 57
491 766 238 93 70 55
448 842 119 79 70 64
529 514 188 209 154 136
491 768 238 98 74 58
468 848 234 72 57 51
494 765 238 96 71 56
412 559 281 107 30 42
482 759 243 115 85 67
486 760 251 115 85 64
274 749 298 163 114 87
484 768 248 98 75 60
426 889 223 74 63 62
484 766 252 97 73 56
277 566 260 165 2 45
485 768 252 102 75 59
494 757 242 117 86 64
496 765 241 90 70 57
494 770 247 96 73 56
405 865 139 102 83 73
488 762 251 115 86 67
334 845 232 179 122 94
493 766 249 103 76 57
501 751 233 117 87 66
502 748 230 124 91 67
503 750 233 118 88 66
500 753 234 113 85 65
409 914 297 37 34 33
499 759 233 108 82 61
502 758 233 105 81 60
502 755 234 111 84 65
501 759 239 104 80 61
499 763 233 103 78 57
339 969 304 65 60 59
364 859 284 152 122 94
534 504 228 173 127 103
498 764 229 104 77 55
498 764 238 95 74 55
502 763 239 99 75 53
502 763 242 96 72 50
502 768 245 94 72 51
267 514 258 155 1 41
268 519 258 151 2 42
269 514 273 37 30 35
269 519 268 54 30 34
409 914 218 69 61 61
269 519 273 104 27 40
370 664 300 155 19 52
414 729 293 60 28 34
269 524 263 55 26 32
269 529 258 83 21 35
429 593 275 131 10 39
270 524 273 102 27 40
271 528 272 105 23 37
421 673 274 143 8 44
279 524 323 159 116 91
287 634 311 174 124 97
268 514 278 39 31 34
269 519 278 102 27 40
267 514 283 47 30 34
266 514 285 70 30 36
268 519 283 83 29 39
369 579 308 163 12 50
325 838 230 176 123 95
267 524 288 109 31 45
270 534 258 168 3 47
271 534 267 174 2 47
316 818 225 78 61 55
270 539 258 174 0 48
423 897 224 66 57 57
271 539 263 165 4 47
271 543 258 177 0 49
403 803 266 87 68 62
271 542 262 172 6 49
271 538 266 150 7 45
420 920 282 63 56 59
271 544 284 84 34 39
269 544 288 56 36 38
475 809 202 131 90 71
272 526 274 146 33 53
272 529 273 103 29 42
272 531 270 163 18 52
324 973 288 67 61 58
272 534 269 170 2 47
272 534 273 103 19 37
271 559 284 98 33 42
272 544 263 170 3 48
272 539 273 112 21 40
434 839 238 66 56 47
402 948 277 65 57 56
393 874 168 70 61 63
272 530 281 52 31 33
272 539 278 92 28 38
273 544 278 103 29 41
313 879 273 152 119 90
449 884 278 76 63 54
272 544 282 75 29 35
390 865 139 107 87 72
419 930 313 38 34 33
260 513 294 158 108 97
524 534 228 169 129 102
258 515 297 187 138 122
339 619 303 51 31 34
260 519 299 178 129 112
257 516 301 193 148 128
394 958 278 61 55 54
262 516 296 162 101 92
395 906 296 36 32 32
258 524 302 147 106 85
261 524 300 162 115 98
264 529 298 102 77 63
266 524 293 97 49 48
327 714 310 147 15 46
303 659 297 163 123 98
267 529 292 69 40 41
266 529 294 64 46 42
336 583 305 38 29 27
409 935 318 36 33 33
259 519 318 155 117 94
263 514 320 152 115 91
256 524 305 155 120 96
355 760 305 93 73 64
256 527 308 166 122 103
257 529 308 174 126 109
257 524 313 151 114 90
257 529 313 168 123 101
364 544 312 156 21 52
259 524 318 152 114 90
314 759 302 161 122 94
261 534 300 125 96 71
259 539 303 161 120 95
259 544 303 170 123 101
354 649 302 174 5 55
261 539 300 133 102 76
260 544 299 144 109 82
494 900 313 89 73 57
266 534 295 65 53 45
435 774 259 89 69 62
268 534 292 58 41 41
266 539 294 77 63 50
458 919 302 67 57 50
257 534 308 184 131 113
470 794 251 70 55 40
279 634 313 176 125 99
258 534 313 181 129 110
260 534 317 171 124 103
263 534 319 170 122 101
258 539 308 181 128 108
258 544 308 175 124 103
261 539 316 172 124 101
285 514 304 101 23 38
419 863 188 62 53 50
289 514 301 66 26 32
285 519 304 78 23 33
289 519 302 65 24 29
284 524 304 64 26 31
284 529 304 54 30 33
289 524 302 52 26 27
369 898 168 90 78 74
322 966 253 97 92 91
289 529 302 49 26 27
283 514 308 104 53 51
283 519 307 87 39 43
281 518 309 81 54 47
281 519 311 97 64 53
281 513 320 158 118 91
293 825 252 85 61 59
282 524 308 80 60 55
282 529 308 81 67 60
524 473 188 108 88 67
282 529 313 142 101 83
432 830 125 102 74 56
281 529 319 153 103 84
285 534 304 40 35 35
336 710 316 50 23 32
289 534 303 43 27 27
282 534 313 141 99 81
285 539 305 49 42 40
283 539 308 85 64 53
525 503 184 173 93 89
284 544 308 84 60 50
283 544 313 139 94 75
285 544 305 50 39 37
281 538 315 138 93 73
280 539 318 159 107 86
432 839 125 117 90 68
277 669 277 149 103 76
282 540 316 147 97 77
282 544 316 154 100 80
271 554 284 100 34 43
383 897 167 82 75 74
269 559 288 97 68 52
269 564 288 117 80 58
344 704 317 37 30 33
270 574 283 85 64 50
272 545 258 177 0 48
289 574 309 121 83 68
273 549 258 176 0 49
273 549 268 160 5 45
344 734 319 160 27 56
276 559 263 163 4 45
274 554 273 144 12 42
275 559 273 39 29 33
276 564 263 120 15 42
277 569 259 164 4 45
276 568 264 36 29 34
424 604 281 156 15 49
275 564 273 62 29 37
374 934 313 44 41 40
275 569 273 84 28 37
397 854 247 122 92 74
276 569 268 71 33 39
277 574 258 167 1 46
277 574 268 106 19 39
409 849 238 30 27 26
312 922 294 113 87 70
276 573 269 46 32 37
325 884 249 129 103 76
339 664 301 37 28 30
276 574 273 53 32 34
274 569 278 74 29 38
265 554 294 134 103 74
264 559 293 137 104 75
261 554 299 158 117 90
260 554 303 174 125 101
261 559 303 171 123 98
265 549 294 127 99 73
267 553 291 117 90 65
414 943 303 80 72 69
260 549 312 170 123 101
262 546 315 168 120 98
262 550 315 167 120 98
260 554 308 168 121 98
261 559 308 165 120 96
263 559 313 166 119 95
268 554 319 166 118 96
266 558 316 165 119 95
264 564 293 139 105 75
425 810 123 92 75 68
264 569 293 145 109 77
261 564 303 167 121 94
262 569 303 164 118 91
354 961 315 73 68 68
263 574 293 150 111 79
262 574 298 165 119 90
267 562 291 132 101 70
434 884 282 54 46 41
266 575 290 136 103 70
262 565 308 163 118 94
404 724 295 108 31 43
265 569 312 164 118 93
360 799 188 59 50 47
263 574 308 165 119 94
266 562 316 163 119 95
269 564 318 167 118 96
449 834 233 89 75 62
428 908 268 69 59 58
267 565 315 162 116 92
268 569 315 162 117 92
287 547 305 50 40 37
289 549 306 85 33 37
308 914 283 83 60 63
280 549 319 165 112 89
286 554 309 92 60 51
518 447 221 174 14 56
289 554 307 91 40 40
544 494 218 145 115 88
461 906 290 75 64 55
384 854 273 146 116 92
284 554 313 145 97 77
289 559 308 91 48 45
282 559 316 163 111 87
274 564 320 168 116 94
279 564 318 166 115 90
403 833 247 140 106 90
279 569 318 165 115 89
274 574 318 165 116 91
279 574 318 166 116 89
407 865 161 75 61 55
287 564 311 133 90 72
289 569 309 101 64 54
287 569 312 150 106 83
271 644 303 164 118 89
282 564 316 163 110 87
397 772 281 81 62 53
284 569 314 159 110 86
317 684 295 79 25 36
282 569 316 163 113 87
294 514 302 41 27 26
294 524 302 50 23 26
294 529 302 65 19 27
298 529 304 45 26 28
297 514 305 34 28 26
300 514 306 40 27 28
297 519 305 36 28 25
386 868 270 124 96 77
300 519 306 43 28 28
304 524 308 76 24 33
384 931 311 39 36 37
304 529 307 110 22 41
294 539 303 92 14 33
294 544 304 127 12 39
299 534 304 79 19 31
304 534 307 146 19 48
303 539 305 148 18 48
305 539 306 155 18 49
309 514 309 160 18 49
309 519 309 157 17 49
309 529 309 161 18 51
314 519 309 167 11 53
395 965 248 76 72 73
319 519 309 165 10 51
314 524 310 169 9 52
314 529 310 165 14 51
309 534 308 160 18 51
309 539 308 157 18 50
305 544 306 158 18 51
314 534 310 165 15 52
319 534 310 164 12 50
319 539 310 165 12 51
429 644 258 165 18 51
293 550 306 143 17 47
294 559 307 142 22 46
303 549 305 145 16 46
303 554 305 144 14 46
410 789 138 64 52 48
404 719 296 69 32 38
300 569 305 129 14 40
304 569 305 83 23 34
304 574 305 102 22 39
306 549 306 154 17 49
309 554 308 157 18 50
489 771 224 124 90 63
428 639 262 138 20 48
309 559 307 157 18 50
319 549 310 168 9 52
295 720 305 177 123 97
319 554 310 168 8 52
317 556 311 172 13 54
319 559 310 169 12 52
307 564 305 118 18 41
433 619 262 180 14 57
306 562 306 152 17 47
290 594 309 157 112 86
374 869 154 67 57 53
307 568 305 41 28 30
309 569 307 66 24 33
309 574 307 41 28 30
314 564 309 160 18 51
314 569 309 140 23 48
306 934 263 152 121 99
319 564 310 167 16 53
319 565 311 168 17 51
319 569 310 128 23 44
319 574 310 65 32 37
265 519 322 151 113 89
262 524 320 151 113 90
264 524 322 151 113 89
265 514 321 150 113 90
269 519 324 155 116 91
422 872 200 70 58 57
269 524 325 155 115 91
269 529 324 167 121 100
269 544 322 167 120 98
354 977 282 72 67 66
328 749 310 171 20 55
279 519 322 153 115 87
274 524 325 157 116 92
384 599 299 47 30 32
278 529 323 168 120 99
306 793 225 74 58 51
365 878 299 144 115 84
278 534 322 171 120 98
274 539 324 166 117 95
347 555 305 34 27 29
278 544 322 168 118 95
270 549 322 167 120 97
301 653 264 109 40 45
367 719 311 158 3 50
274 549 322 171 122 98
278 549 321 168 117 95
274 558 321 168 118 95
274 560 320 168 117 95
468 829 262 63 51 44
277 554 321 167 116 93
265 579 289 139 104 71
270 579 283 108 79 56
267 583 286 133 96 67
271 589 280 120 88 60
342 798 211 74 58 51
265 594 288 153 111 79
284 734 304 170 117 91
269 594 283 138 102 71
265 599 288 155 114 81
409 935 292 64 59 61
269 599 283 143 106 74
284 774 305 163 120 91
267 600 286 154 113 83
271 594 280 128 96 64
265 604 288 157 115 82
447 827 184 73 59 54
267 604 286 157 115 82
269 609 283 152 111 79
267 609 286 157 114 81
271 602 280 137 100 70
278 579 258 168 2 46
279 584 263 173 0 46
443 704 258 108 18 38
277 579 268 124 17 39
277 576 271 38 34 33
277 584 272 37 31 36
446 840 112 111 91 74
279 589 268 146 6 38
277 589 272 144 22 47
280 589 258 130 21 43
355 805 285 65 50 51
273 579 278 130 39 45
372 912 173 89 83 84
273 584 278 135 49 47
273 589 278 106 62 50
424 840 127 82 61 52
277 594 272 155 24 47
414 819 252 54 45 43
477 838 220 82 63 57
280 599 268 158 9 41
339 934 202 78 68 68
449 919 344 67 54 42
282 596 263 101 18 34
283 599 263 150 13 46
369 729 309 180 2 57
423 818 247 72 55 50
282 600 266 162 1 41
284 604 263 180 1 46
286 608 258 156 21 50
346 844 271 163 121 97
312 918 289 114 92 80
284 609 268 160 14 43
282 606 271 140 32 41
283 609 272 120 45 46
276 594 274 75 46 43
276 599 275 85 63 50
276 602 275 116 74 52
409 890 203 75 63 61
277 605 276 130 92 66
396 668 290 119 16 39
263 579 293 154 113 82
263 584 293 156 113 84
263 584 303 163 118 90
410 835 240 50 39 35
263 589 293 156 113 84
263 589 298 162 117 87
263 579 308 164 118 93
264 584 308 163 118 92
418 844 163 50 43 43
265 579 312 165 118 91
328 904 233 110 76 66
271 584 316 162 115 91
265 589 308 164 119 92
268 794 268 182 123 93
264 599 293 162 120 89
341 801 210 76 60 53
409 823 252 116 85 71
264 599 303 164 120 91
265 609 293 164 119 89
439 921 299 55 45 42
269 594 313 162 118 90
267 595 310 162 118 90
267 599 310 161 116 90
371 904 176 85 77 75
269 599 312 160 116 90
266 604 307 166 118 93
311 827 235 85 66 58
267 604 310 164 117 92
266 609 307 167 119 94
270 604 312 161 116 90
419 899 223 67 60 59
270 609 312 161 116 90
274 579 317 163 115 90
274 584 317 164 116 90
314 899 309 166 126 107
313 934 299 187 143 123
272 586 315 165 118 92
270 764 297 161 115 86
376 790 154 59 50 44
384 958 303 68 61 60
274 589 316 165 116 91
287 579 311 157 111 86
287 589 311 157 111 83
339 564 305 136 24 48
479 900 311 80 64 48
284 589 314 163 115 87
281 590 315 166 118 92
274 599 315 164 117 91
369 514 315 143 24 49
279 594 315 165 119 91
400 784 274 85 65 57
278 592 316 165 118 91
334 753 311 100 33 45
279 599 315 165 119 91
274 604 314 162 117 90
274 609 314 161 116 89
279 609 315 164 119 90
426 880 207 68 58 58
284 594 314 164 116 87
288 594 311 157 111 84
349 963 312 70 64 63
288 604 312 160 115 85
322 810 221 77 60 53
288 609 312 162 117 86
458 804 108 82 68 59
423 829 169 66 53 49
376 679 300 148 13 49
269 614 283 156 112 80
270 619 283 157 112 79
268 624 288 166 117 85
269 629 288 168 119 85
271 634 284 167 118 85
270 634 288 171 121 89
407 948 263 61 54 54
271 639 285 177 124 98
270 639 288 177 122 96
288 614 258 156 18 49
452 832 210 190 121 102
287 615 263 161 10 42
283 614 272 111 64 52
285 614 268 149 24 44
287 616 267 159 17 40
288 619 268 94 28 39
286 618 270 89 54 45
441 714 279 109 28 44
284 624 272 116 86 59
398 873 259 35 30 27
459 915 288 80 65 59
290 624 269 62 45 40
378 895 287 100 78 59
287 624 271 94 71 50
278 614 276 137 98 66
272 615 281 147 107 73
274 619 279 147 107 72
280 619 274 133 96 65
278 619 276 140 102 67
280 624 274 135 99 67
278 624 277 143 104 69
272 620 281 152 110 75
288 628 271 108 82 53
290 629 270 99 72 51
283 634 271 140 102 69
275 629 279 147 106 72
280 629 274 139 102 68
277 629 276 143 104 70
272 629 282 153 110 74
275 634 278 138 99 67
449 918 318 83 70 62
275 639 278 141 102 69
279 634 274 145 107 72
489 793 204 101 74 60
414 926 302 35 33 32
277 634 276 144 105 72
469 914 303 75 61 54
277 639 276 134 98 65
273 634 282 154 110 77
273 639 283 170 121 93
266 614 298 170 122 93
266 614 303 170 123 95
267 616 291 165 118 89
350 884 208 38 37 39
267 619 293 171 123 93
400 859 129 116 86 62
267 619 298 173 124 95
269 634 303 163 115 86
329 544 308 113 25 43
267 616 300 174 127 97
268 624 298 173 123 94
462 858 259 75 61 56
268 624 303 169 120 93
268 614 308 167 119 94
269 624 308 165 119 93
385 870 149 122 99 83
271 624 311 163 119 92
422 862 270 39 34 30
269 629 298 172 123 93
269 629 303 166 117 89
270 634 293 177 127 96
270 639 293 175 123 95
415 860 257 39 34 31
269 634 298 170 119 90
270 639 303 162 116 86
270 629 308 167 120 94
271 628 311 167 121 94
270 634 308 169 120 95
539 469 213 76 24 32
274 614 314 160 116 88
274 619 314 160 116 89
274 624 313 166 120 93
279 619 315 165 120 92
279 624 315 170 123 96
284 614 314 165 119 89
288 614 312 166 118 88
284 624 314 173 125 97
274 629 313 170 122 96
272 630 310 169 122 95
279 629 314 174 126 99
272 635 310 170 121 96
275 639 311 174 122 98
279 639 312 177 126 100
284 639 312 180 129 101
348 792 291 85 66 56
289 639 309 173 126 99
529 454 205 60 36 31
284 634 313 178 128 100
289 579 309 139 99 79
334 889 309 144 108 90
294 584 307 95 61 53
293 589 307 117 86 69
296 590 305 73 53 47
299 579 306 146 23 49
299 584 306 77 35 39
301 578 305 143 17 46
304 579 305 106 25 40
304 610 300 87 49 48
304 582 305 84 31 39
304 584 306 73 31 35
362 862 212 47 43 45
404 934 223 71 62 63
299 589 305 62 38 38
302 590 305 116 46 55
409 854 133 134 109 90
286 714 306 169 116 91
299 594 304 77 47 45
299 604 303 111 84 70
299 609 302 138 102 83
443 869 218 80 69 72
539 763 203 105 85 73
304 608 301 83 46 45
290 599 309 160 114 87
399 749 289 74 59 53
293 594 307 147 109 86
296 599 305 140 105 84
290 604 309 161 116 88
367 877 156 83 70 61
290 609 310 162 117 89
293 604 307 161 118 91
296 604 305 153 114 91
296 609 305 161 118 93
309 589 306 104 32 43
314 579 309 93 31 40
365 740 310 101 24 42
314 584 308 99 29 41
319 584 309 39 28 31
420 835 172 61 52 51
374 919 299 76 59 50
309 604 304 132 33 51
309 609 302 153 31 54
309 594 306 85 32 39
396 843 149 69 59 52
364 829 208 47 41 43
309 599 305 63 31 35
485 819 228 84 64 56
444 915 328 80 69 61
310 598 306 38 29 34
314 594 307 69 35 39
314 599 306 84 38 44
373 809 158 56 47 42
542 471 190 148 113 87
319 599 307 80 32 39
316 602 306 104 48 56
290 619 258 48 32 36
358 524 310 58 29 33
290 619 263 102 29 42
525 444 218 79 25 32
293 624 258 52 33 36
293 624 263 83 38 43
294 629 258 38 31 35
296 632 258 44 32 35
294 639 267 100 69 51
384 854 148 72 60 56
298 635 258 72 32 40
297 634 263 70 30 38
378 519 303 159 11 49
300 639 258 108 25 42
364 654 302 167 11 53
299 639 263 133 31 49
297 636 266 70 35 35
297 639 266 65 37 34
299 614 302 155 114 93
301 615 300 141 101 85
345 864 234 145 106 78
304 614 299 108 58 56
298 624 302 164 118 95
339 940 310 185 144 122
301 624 300 153 113 92
462 844 266 58 48 40
293 614 307 164 118 94
293 619 307 168 120 96
296 619 304 166 121 98
296 624 304 170 122 98
298 629 302 168 117 97
303 629 298 144 104 86
458 913 285 82 66 58
379 893 284 107 84 64
298 634 302 170 119 98
385 799 139 63 51 43
298 639 302 171 119 97
303 634 297 158 111 93
293 629 307 175 124 99
295 629 304 172 121 98
311 612 301 157 35 59
313 615 300 56 33 38
319 614 303 68 27 33
314 619 299 66 30 35
314 624 298 106 29 45
318 620 300 111 30 48
473 769 174 118 86 63
308 626 295 86 47 46
445 836 236 82 69 57
309 629 295 101 50 50
311 627 296 60 28 31
364 945 206 88 82 85
359 894 308 164 125 100
444 834 233 91 79 69
309 634 293 111 52 53
315 628 296 106 32 45
319 629 298 50 26 31
542 503 221 164 123 96
314 634 294 152 34 52
317 636 295 172 27 56
319 639 294 173 24 56
526 512 189 172 124 104
316 632 296 170 27 55
320 638 296 172 24 55
324 519 309 163 11 51
347 871 306 164 130 98
329 514 309 123 19 42
329 519 309 153 19 50
306 934 283 186 143 121
329 524 309 161 17 50
329 529 309 108 20 39
334 514 308 61 24 32
268 724 273 141 101 70
334 519 308 49 26 31
334 524 308 89 25 38
334 934 312 192 155 136
334 529 307 112 31 45
324 534 310 162 17 51
324 544 309 162 13 52
334 534 307 52 26 34
334 544 307 39 28 32
339 519 306 49 27 31
345 514 305 162 19 52
318 790 216 76 60 52
344 519 305 103 26 40
340 529 305 80 28 36
349 514 306 110 21 40
347 516 305 156 24 49
280 724 302 167 115 89
347 519 305 112 24 43
350 519 306 117 28 45
348 524 305 94 31 42
348 529 305 72 29 36
338 534 306 33 28 31
340 534 305 36 29 30
344 534 305 38 29 31
340 539 305 110 29 46
431 795 250 72 58 49
350 534 306 108 30 44
348 539 305 64 29 33
350 539 306 53 28 31
518 473 193 78 63 50
324 549 309 162 9 50
324 559 309 162 10 50
329 554 308 158 17 50
329 559 308 151 18 49
324 569 310 107 24 42
329 564 308 141 19 46
432 512 271 95 35 48
329 569 308 146 22 48
519 469 219 96 19 35
329 574 308 93 30 42
344 549 305 43 28 31
406 634 285 81 29 38
326 938 210 80 70 70
340 554 305 109 28 43
338 559 306 44 27 32
340 559 305 89 28 38
344 559 305 93 30 41
346 549 306 31 29 29
337 569 306 169 21 54
339 574 305 143 20 47
348 569 305 138 24 49
350 564 306 88 24 35
350 569 306 116 25 41
420 689 284 62 26 33
347 574 305 162 19 50
350 574 306 158 21 50
358 514 310 133 20 43
360 514 311 59 24 31
360 519 311 48 29 32
354 524 308 90 26 37
360 524 311 75 31 36
360 529 311 48 31 33
404 879 273 34 31 30
369 519 315 51 30 32
447 724 263 44 30 34
364 524 313 97 28 39
364 529 313 60 28 33
369 524 314 99 27 41
358 534 310 48 29 31
477 777 236 99 73 55
264 779 268 179 121 92
360 534 311 41 29 31
354 539 308 86 27 38
313 799 301 175 132 101
358 539 310 69 27 34
357 544 310 38 28 30
359 544 311 89 28 39
369 534 313 65 28 33
307 811 231 78 61 52
369 779 173 53 45 43
364 539 313 91 26 38
368 544 311 166 15 52
380 519 299 157 10 48
383 514 296 152 9 45
476 908 311 82 68 54
380 524 299 154 16 47
384 524 297 134 15 43
384 529 297 143 15 45
373 794 158 59 51 46
374 514 313 129 19 44
339 860 273 80 63 41
373 529 312 98 27 40
519 544 202 155 116 83
377 514 307 159 12 49
377 519 307 159 14 49
377 524 306 151 19 50
376 529 305 116 21 42
376 534 304 133 21 46
384 534 298 110 19 40
376 539 304 159 17 50
378 539 302 157 13 47
379 774 158 54 44 41
378 544 302 156 8 47
381 544 300 147 10 45
374 539 308 153 19 50
372 537 311 87 22 35
374 544 308 163 10 50
354 549 309 49 30 31
357 554 310 70 29 36
364 549 312 153 20 50
368 554 311 158 19 51
364 559 312 35 29 32
357 564 310 121 28 47
434 817 170 80 65 60
359 564 311 108 30 43
357 569 310 46 28 28
457 922 298 84 73 69
359 569 311 61 29 33
360 574 311 42 30 32
367 564 311 52 27 33
417 845 160 57 49 50
369 564 309 87 24 38
363 574 311 113 27 44
379 549 302 155 3 48
462 802 190 140 92 67
384 549 300 151 8 47
382 551 301 151 4 48
379 554 303 154 2 47
379 559 303 153 3 46
383 555 301 152 5 48
384 559 301 154 2 47
370 549 310 163 9 49
533 534 223 169 118 88
334 975 283 57 53 52
374 549 307 162 5 50
370 559 310 134 21 47
374 554 308 161 9 49
374 559 307 162 11 49
428 624 267 118 21 43
415 920 244 60 54 55
376 554 305 159 4 47
474 824 214 100 74 59
379 564 303 152 4 45
383 564 301 155 0 48
404 864 173 58 53 56
384 569 302 158 0 47
384 574 302 160 1 49
376 564 305 156 9 47
326 967 244 85 81 84
373 569 306 151 16 48
373 574 306 156 12 48
324 579 309 33 29 31
399 539 293 118 24 44
299 814 238 80 62 55
430 714 290 155 5 49
368 753 302 92 71 61
324 584 309 38 30 31
329 579 308 67 32 36
412 862 138 98 79 67
329 584 308 43 29 32
329 589 308 56 31 35
274 784 253 166 112 79
263 744 283 160 108 78
334 584 306 59 32 35
334 589 306 86 34 42
324 594 308 51 29 33
324 599 307 58 32 37
329 599 307 87 34 43
276 817 296 198 136 109
324 604 306 142 28 52
324 609 305 75 30 38
365 864 183 30 28 29
294 831 285 198 135 110
329 604 306 130 28 49
330 606 305 108 28 43
334 599 306 114 26 44
334 604 305 156 26 54
334 609 305 60 31 35
415 554 278 84 28 36
339 584 305 48 28 31
399 869 152 88 76 65
344 584 305 141 22 48
337 589 306 45 31 33
344 589 305 127 23 45
391 890 186 63 59 61
327 917 305 117 93 82
349 579 306 162 18 51
346 584 306 167 18 51
489 814 228 83 64 55
349 584 307 164 17 51
347 591 305 166 18 51
344 594 305 138 24 48
514 899 310 92 75 63
424 514 277 58 29 33
344 599 305 171 19 53
339 604 305 80 23 38
425 936 297 75 67 65
339 609 305 40 31 32
344 604 305 65 26 36
344 609 305 36 29 32
367 982 266 57 51 50
347 594 305 166 19 53
349 594 306 169 18 53
347 599 305 171 19 54
349 599 306 173 18 54
349 609 305 39 27 31
350 604 306 115 23 44
350 608 306 39 29 30
449 895 273 72 61 61
324 619 302 52 27 31
321 622 301 154 22 50
329 614 304 85 33 40
329 619 303 71 32 37
329 624 302 64 30 36
302 665 266 102 45 42
334 624 302 38 28 31
334 614 304 80 32 39
323 625 300 78 18 33
326 627 301 34 24 30
328 630 300 110 31 46
420 941 319 83 69 66
324 639 297 115 27 46
329 639 298 77 24 34
443 724 273 71 35 38
335 633 301 56 29 31
322 971 267 85 79 81
344 624 303 147 26 53
349 624 303 157 18 51
339 614 304 45 31 31
344 614 304 58 30 34
429 899 288 61 52 47
339 629 302 137 27 50
363 872 188 33 29 31
344 629 302 81 26 38
344 639 301 125 22 44
349 629 302 39 28 30
408 774 276 83 64 56
354 579 309 125 21 43
339 819 283 59 51 49
354 589 308 168 17 53
359 589 309 174 14 54
369 584 307 158 15 49
369 589 307 123 24 45
354 599 308 176 16 55
354 604 307 147 24 50
464 914 334 94 76 64
364 594 308 160 16 51
364 609 306 62 26 35
367 608 306 101 33 46
357 799 201 69 57 51
379 584 303 163 7 50
459 829 233 71 59 47
384 579 301 162 3 50
383 584 301 167 3 52
324 929 309 126 109 98
372 579 306 155 10 46
372 584 306 156 15 48
374 589 305 134 20 46
372 589 306 80 21 34
398 880 166 72 63 62
374 609 302 134 29 49
379 594 303 165 23 55
379 599 302 53 27 33
385 594 300 127 24 48
379 604 302 35 30 33
380 609 300 79 31 38
381 605 300 36 30 33
384 609 298 75 34 40
371 599 305 65 26 34
310 948 288 189 138 115
370 604 305 136 33 53
354 624 303 175 19 57
320 924 223 62 58 61
359 624 303 182 21 58
359 619 304 87 26 38
369 614 303 82 28 37
364 624 302 131 28 49
359 967 224 87 84 89
364 614 304 96 27 41
276 797 255 179 123 87
354 613 306 183 26 60
365 610 305 138 38 56
362 612 306 181 40 68
354 629 302 58 26 30
364 629 301 84 30 39
417 622 281 81 22 33
364 634 301 84 24 36
368 634 301 89 25 37
399 864 148 89 78 69
368 639 301 107 22 43
409 929 283 63 57 60
374 614 301 101 29 42
375 619 300 82 32 39
374 624 300 138 31 51
459 869 268 72 57 49
404 870 262 32 29 28
379 614 299 100 32 43
384 614 298 77 28 36
379 619 299 82 29 37
384 619 297 152 28 54
384 624 297 85 29 39
370 634 300 82 26 36
345 885 229 73 65 58
374 634 299 104 28 43
374 639 299 88 30 41
379 629 298 62 30 34
379 634 298 79 34 41
359 899 308 161 122 99
379 639 298 77 28 38
367 792 171 49 43 41
271 643 289 179 123 98
283 644 271 114 81 48
279 649 273 137 99 70
285 644 270 130 95 62
284 649 269 112 78 48
289 649 268 132 92 59
280 654 273 156 108 81
284 654 269 133 90 62
471 906 303 68 55 41
282 654 271 142 101 73
275 644 279 162 113 82
277 644 276 139 101 70
309 838 268 54 48 46
273 644 283 181 126 100
429 584 268 100 15 34
272 645 287 181 124 99
392 864 257 136 106 86
275 649 283 179 121 95
274 649 288 181 122 97
399 885 277 35 31 30
275 654 288 141 93 66
354 879 223 46 42 43
276 653 284 164 107 82
280 659 273 143 101 72
282 659 271 136 96 66
369 962 316 70 64 63
282 664 271 136 94 65
519 495 182 172 82 83
285 664 269 124 84 55
289 659 268 124 81 51
282 668 271 132 93 63
454 829 208 191 124 101
289 669 268 113 77 45
278 659 278 152 104 78
334 944 309 176 135 114
275 659 288 127 88 58
277 663 282 148 101 73
364 664 302 167 12 53
276 664 284 143 98 68
280 664 274 142 98 71
276 669 279 148 101 75
274 669 288 139 97 66
271 644 293 172 118 91
271 648 294 161 110 81
270 719 288 148 100 72
460 846 229 60 48 48
414 898 295 43 38 35
271 644 298 155 107 75
271 648 298 150 105 73
271 648 303 168 120 93
272 646 291 176 121 94
273 654 293 127 85 56
272 650 304 175 125 99
272 654 298 157 111 80
483 818 243 85 62 52
273 654 303 177 125 99
274 644 309 175 125 99
272 646 305 175 126 101
279 644 311 178 126 101
280 647 311 182 130 103
275 654 307 176 126 100
279 654 308 181 130 104
284 644 311 181 131 104
283 647 311 184 133 106
299 779 227 74 58 51
289 644 308 171 124 101
287 642 311 177 128 100
273 664 293 152 106 77
322 825 226 86 65 57
369 779 289 84 64 56
272 659 298 168 119 90
344 774 203 71 57 49
274 659 303 180 127 101
274 669 293 161 111 83
275 669 302 177 122 98
278 669 304 176 122 98
276 658 306 180 129 103
279 659 307 178 132 105
279 664 306 178 131 104
284 659 308 177 132 106
309 654 291 126 89 78
288 664 306 174 129 103
271 701 280 151 107 75
271 704 278 148 103 73
271 704 283 150 103 73
410 854 129 134 104 75
271 704 288 150 101 73
278 679 273 140 98 67
278 684 272 139 98 68
277 688 271 137 99 67
439 794 247 75 59 51
280 684 269 132 96 62
279 689 268 130 97 62
279 674 273 141 99 69
424 904 243 64 56 56
415 804 148 64 54 48
395 789 275 79 61 56
281 674 270 134 97 61
379 869 153 89 71 58
438 824 236 103 80 67
281 679 270 134 97 62
277 749 300 165 118 90
293 774 232 58 49 48
438 787 251 57 47 44
284 679 268 128 94 58
414 935 292 65 60 60
289 674 268 116 82 47
289 679 266 118 84 50
284 684 267 126 93 59
283 689 266 127 95 60
272 789 300 171 121 93
289 683 266 118 85 51
289 689 264 121 88 55
274 674 283 145 101 70
274 679 283 144 101 69
274 679 288 145 101 71
276 685 274 142 99 69
358 729 317 189 7 62
273 689 283 146 100 70
274 694 273 136 98 65
432 877 210 80 70 68
276 695 270 130 95 60
276 691 270 134 98 65
275 699 269 128 96 63
354 981 241 58 54 53
272 704 273 135 97 66
280 699 264 122 93 57
279 704 264 121 93 59
392 967 252 76 70 73
319 939 304 187 144 125
284 694 265 125 94 60
282 692 266 127 95 60
339 774 299 76 62 56
289 694 264 122 88 56
360 980 242 70 67 68
284 699 263 121 91 57
289 704 262 121 86 55
272 694 278 144 101 69
272 694 283 147 102 71
340 785 295 75 61 56
272 699 283 149 103 72
366 766 295 85 67 56
272 699 288 151 104 73
274 674 298 179 124 97
279 679 303 173 120 95
369 889 149 100 80 70
274 684 293 159 108 81
277 684 300 168 113 89
281 674 306 171 120 95
284 674 306 168 120 96
282 676 305 170 121 96
347 861 296 118 95 69
289 674 306 166 121 94
285 684 306 168 118 93
289 684 307 166 120 94
474 894 339 90 72 56
448 912 338 77 64 51
289 689 307 167 120 94
275 694 298 163 112 87
277 694 300 163 112 88
272 699 293 157 107 79
272 704 293 158 107 80
275 699 298 163 112 86
277 699 300 163 111 86
277 704 300 163 112 87
418 664 277 136 24 47
280 704 302 166 115 90
285 694 306 168 117 92
264 754 288 166 114 89
289 694 307 169 121 94
283 699 305 167 117 91
386 580 300 163 5 51
294 649 268 132 88 61
300 644 263 96 33 39
301 643 259 64 30 35
302 645 257 73 30 36
303 649 258 105 15 35
364 754 303 90 70 61
365 860 178 33 31 34
300 649 264 104 32 37
298 645 266 110 58 49
331 804 215 78 60 52
298 649 267 111 59 50
304 654 258 115 15 39
489 880 345 95 78 65
269 779 297 166 117 89
303 654 263 65 33 35
299 654 267 115 63 50
349 863 298 125 101 75
299 664 268 113 68 52
412 882 280 38 34 33
304 664 263 67 31 34
301 774 225 74 58 50
489 898 303 95 79 65
304 669 263 67 28 34
307 664 256 120 19 38
294 654 302 154 114 90
297 644 301 170 120 99
480 829 238 73 56 49
296 651 300 156 113 88
299 654 298 155 117 92
404 853 159 48 44 48
354 924 309 156 121 96
296 654 300 149 115 88
292 644 306 167 120 97
291 650 305 160 116 96
291 655 305 156 117 93
272 779 300 165 118 89
294 659 302 152 114 90
299 659 299 156 121 94
404 779 129 89 66 48
299 664 299 159 121 93
303 664 297 156 118 93
414 529 283 90 24 38
300 669 299 155 117 89
303 669 297 154 114 90
291 659 305 162 124 100
290 669 305 165 124 96
309 644 291 137 77 71
308 641 290 127 59 58
268 774 257 164 111 79
278 814 267 198 134 105
305 654 294 158 113 94
314 644 291 146 36 52
312 646 290 115 43 47
264 784 273 178 121 94
313 649 290 74 41 40
315 649 291 82 37 41
510 784 202 112 82 59
319 644 293 136 19 45
319 649 293 79 26 37
319 654 293 50 30 32
309 659 292 121 88 77
419 834 128 104 82 67
306 664 295 154 113 94
309 664 292 122 88 76
309 669 292 115 83 71
314 659 291 64 40 40
314 664 291 52 38 37
418 857 254 39 34 31
313 668 290 58 40 38
315 669 291 50 33 34
319 669 293 51 29 33
294 679 267 107 72 45
301 686 260 43 32 34
301 689 258 60 33 35
302 688 257 83 36 40
439 578 265 97 3 29
298 684 266 75 54 42
301 681 265 47 37 32
294 694 264 109 77 52
293 704 261 100 67 46
295 705 259 79 41 30
308 954 278 90 75 70
462 864 263 77 63 56
300 694 258 89 23 35
298 698 262 58 37 33
294 674 304 157 118 88
304 679 298 152 111 88
301 678 300 151 113 88
344 824 216 70 55 50
299 684 303 156 114 88
291 673 305 162 122 92
469 809 198 163 108 79
295 684 305 162 119 89
299 694 304 161 114 89
305 694 299 152 107 87
404 858 133 107 82 63
303 699 302 158 110 88
303 704 302 160 111 89
294 694 307 171 122 92
297 694 306 169 119 91
297 699 306 172 120 94
421 847 135 95 77 57
297 704 306 172 120 93
309 684 294 97 65 58
308 689 296 143 100 85
314 679 294 54 33 33
458 819 235 72 56 41
319 679 297 71 26 35
320 675 296 129 23 45
364 968 224 84 81 85
314 684 294 64 28 33
319 684 297 80 28 38
320 689 298 47 25 29
310 694 295 50 32 31
305 699 299 153 108 88
309 699 297 96 66 58
314 694 295 61 22 29
317 692 295 44 21 25
315 695 296 59 26 29
436 865 206 62 53 53
319 694 298 54 27 31
312 698 295 68 23 28
284 739 304 170 119 92
314 704 298 53 29 31
318 699 299 41 26 28
319 704 302 69 28 34
271 711 270 137 99 68
270 714 273 143 102 70
270 719 268 136 100 68
269 719 273 142 102 70
271 709 278 148 104 72
270 709 283 147 100 71
271 709 288 150 101 73
519 459 218 137 10 42
360 774 194 65 53 47
270 714 283 143 99 67
270 714 288 148 99 71
431 797 160 64 48 40
269 719 283 142 98 67
270 729 264 130 99 65
273 729 262 126 96 62
267 727 273 140 101 70
270 799 268 182 124 93
271 721 265 130 98 63
271 724 265 129 97 63
269 734 263 130 98 65
271 735 260 127 96 63
344 904 316 188 135 117
266 730 269 140 102 70
372 778 166 53 45 43
267 733 266 138 102 71
265 734 273 142 102 71
268 724 278 141 99 69
509 904 309 91 77 64
267 727 278 141 100 69
269 724 288 149 101 74
268 729 288 151 103 75
266 730 283 145 101 70
311 921 291 122 92 72
320 786 300 163 120 92
265 734 283 148 103 73
365 936 311 42 39 38
266 735 287 153 105 77
272 708 272 137 100 68
450 807 126 81 70 62
276 706 265 120 93 60
274 719 263 123 94 60
280 715 260 121 91 57
359 889 307 166 128 101
279 719 260 122 92 59
374 854 183 33 31 32
272 718 266 129 97 65
290 710 260 116 81 52
283 712 261 121 89 56
412 872 270 38 32 31
284 714 260 120 89 56
289 714 260 112 78 51
289 719 259 104 72 49
274 724 262 124 94 61
275 729 260 127 96 61
404 860 248 31 28 27
279 724 259 123 93 59
379 784 283 84 65 57
279 729 259 125 94 60
274 734 259 128 97 63
308 899 290 177 127 111
272 732 261 125 94 60
315 794 219 78 61 52
321 714 306 109 20 41
279 734 258 128 95 62
284 734 257 122 92 65
306 914 273 121 98 83
271 706 291 156 107 79
271 714 292 156 106 79
271 719 292 157 105 79
414 824 248 54 44 42
270 724 293 156 106 80
272 709 294 159 108 81
274 709 298 161 111 84
303 714 302 163 110 90
277 709 300 162 111 86
272 719 294 160 109 83
543 504 218 171 127 99
275 714 297 160 110 83
274 719 297 160 109 84
277 719 300 163 112 87
286 709 306 169 118 91
289 709 306 171 119 93
450 809 172 66 53 49
284 719 304 170 116 91
286 718 306 169 117 90
274 724 297 162 110 85
277 724 300 164 112 87
277 729 300 165 114 88
274 734 297 163 112 86
324 869 263 120 95 68
280 734 302 169 116 91
284 729 304 170 118 90
289 729 305 172 122 94
419 559 277 103 24 37
264 739 273 146 104 75
264 744 268 150 107 78
351 842 220 146 99 78
263 749 268 156 110 80
270 745 259 134 101 65
266 740 265 142 103 75
266 745 264 145 104 75
388 619 296 117 26 45
313 882 284 121 89 72
267 748 261 140 101 69
431 688 269 137 3 41
269 749 259 137 102 67
266 751 260 142 104 72
510 790 214 101 75 56
264 739 283 153 105 76
262 749 278 160 110 82
261 750 277 160 110 82
262 749 283 164 112 84
265 739 288 157 108 80
261 754 270 163 113 83
261 754 273 162 111 84
264 759 263 162 113 83
262 759 267 168 115 86
261 759 273 168 115 88
414 869 268 39 33 30
263 764 263 168 115 86
261 764 269 171 119 89
262 764 267 173 118 89
262 769 268 176 119 91
262 766 273 174 120 92
269 754 258 139 103 69
268 769 257 153 106 74
261 754 278 165 114 85
494 779 243 89 68 55
262 753 280 164 113 85
261 759 278 170 116 89
414 794 143 73 64 58
261 756 281 168 115 89
261 759 282 171 118 91
262 769 278 176 121 93
419 839 173 56 47 45
430 639 258 167 15 55
261 762 281 173 119 90
262 764 283 173 120 92
263 764 288 171 119 92
262 769 283 173 120 92
263 769 288 171 118 91
274 739 258 130 98 63
274 744 258 132 99 64
279 739 257 130 96 64
406 945 231 66 61 63
476 901 308 69 56 41
279 744 257 130 96 63
321 960 301 48 43 44
516 766 206 104 87 67
279 749 256 127 94 60
283 744 256 106 77 52
287 737 256 63 42 35
278 752 256 125 92 56
269 739 293 160 111 84
315 914 248 93 80 71
266 749 291 163 112 87
271 749 296 162 112 86
266 754 291 165 115 88
266 759 292 165 117 88
271 759 296 161 115 86
266 764 292 165 116 88
268 764 294 161 115 86
265 769 292 167 117 89
268 769 295 162 114 86
272 738 295 160 109 84
274 739 297 165 115 88
274 744 298 165 116 89
280 739 302 169 118 91
277 744 300 167 118 91
279 744 302 167 118 91
333 724 315 175 19 56
279 749 302 166 119 90
284 749 304 168 121 93
284 744 305 170 121 93
274 759 298 160 113 84
279 754 302 163 116 87
279 759 302 162 116 87
273 764 299 159 114 85
273 769 299 160 115 86
275 769 301 161 116 87
284 759 304 169 125 94
284 764 304 165 121 92
288 768 305 165 122 92
294 709 258 86 45 34
293 719 257 76 35 32
292 722 256 79 32 31
303 709 302 161 110 88
294 714 306 178 126 98
299 724 304 173 118 92
303 724 302 168 111 91
299 729 304 174 119 93
294 724 305 178 126 98
294 734 305 179 127 100
309 719 299 79 50 45
383 896 286 77 64 51
549 489 213 144 109 83
306 719 300 158 106 89
315 710 301 34 28 29
316 706 301 48 28 27
319 709 303 33 27 31
315 714 302 101 25 40
430 826 176 81 62 58
315 719 302 144 19 48
318 714 304 87 22 38
318 719 305 154 17 48
378 859 152 71 60 56
309 724 299 79 45 43
306 724 300 161 105 89
309 729 299 73 46 43
306 729 300 160 103 88
452 831 112 106 86 73
309 734 299 82 46 43
313 724 299 95 24 37
313 734 300 117 21 41
453 833 264 50 40 31
315 734 302 150 17 47
512 538 219 92 55 45
318 724 305 157 18 50
320 719 306 156 17 49
317 729 305 161 18 51
320 734 307 164 18 52
299 744 304 174 119 93
499 905 307 97 77 58
303 739 301 167 110 89
299 749 304 176 121 93
363 758 302 92 71 60
303 749 302 163 109 85
294 744 305 179 128 99
409 584 289 135 21 47
304 764 302 156 110 80
294 754 305 180 129 99
294 759 306 177 129 97
291 761 306 173 128 97
294 764 306 173 127 94
294 769 306 170 127 94
300 764 305 170 122 90
299 769 306 170 126 92
300 768 305 168 124 91
309 744 299 76 45 42
306 749 300 153 103 82
394 799 272 149 115 98
312 743 300 87 20 34
312 747 300 116 50 58
314 749 302 137 43 56
345 795 290 85 66 57
319 739 307 168 19 54
320 744 307 167 19 53
317 749 305 142 17 43
376 811 150 55 46 40
320 749 307 163 19 51
306 754 300 156 106 82
309 754 300 136 95 71
306 758 300 148 99 75
308 759 300 140 97 73
311 754 301 149 112 83
309 764 301 146 102 76
309 769 302 140 99 70
323 644 295 161 19 51
325 644 296 155 18 49
329 644 298 164 19 53
325 649 296 148 20 48
329 654 297 137 19 46
334 649 299 176 16 56
409 919 218 69 60 60
323 659 295 36 28 30
325 659 296 35 26 29
329 659 298 125 22 45
539 464 208 46 34 29
325 664 296 98 22 40
339 975 288 59 57 58
484 900 312 80 65 50
329 664 298 153 20 50
322 669 295 96 24 39
421 781 265 88 68 60
329 669 299 106 22 42
334 659 299 153 19 49
338 649 300 179 13 57
344 644 301 178 13 56
338 654 300 166 15 52
340 654 301 168 14 53
349 649 302 174 11 54
409 714 296 68 28 36
349 654 302 165 14 51
428 689 278 130 9 40
339 659 301 131 18 43
344 664 302 34 29 31
344 669 303 76 29 39
374 889 288 126 97 72
349 659 302 152 16 48
330 866 259 116 84 48
349 664 303 132 20 45
349 669 304 153 19 48
329 674 299 59 28 33
328 678 300 54 28 30
330 680 301 76 32 37
329 684 303 44 29 31
331 676 301 50 22 25
332 673 300 38 30 30
334 674 301 42 30 30
334 684 304 49 30 33
333 687 305 51 26 30
336 686 306 37 30 33
322 694 300 58 23 28
324 699 303 65 24 31
361 724 315 178 1 58
323 704 304 101 16 36
427 632 266 178 18 55
489 774 228 116 83 58
327 698 305 43 26 26
329 699 308 76 25 37
326 700 306 95 28 42
328 704 309 136 14 42
330 690 306 60 21 27
334 694 309 74 28 35
331 704 311 144 15 45
334 699 312 59 27 33
443 754 262 116 34 48
425 674 268 143 3 44
335 696 311 53 27 27
339 674 303 39 30 31
379 944 207 72 66 69
435 788 167 67 51 46
344 674 304 67 26 34
411 771 141 54 46 44
403 882 275 34 30 30
343 678 305 51 28 31
338 683 305 43 29 31
427 612 276 190 21 62
340 685 306 44 29 31
428 614 272 136 23 47
359 977 282 63 56 55
345 680 306 100 29 41
344 684 307 85 27 36
369 925 193 82 76 77
344 689 309 62 27 33
349 674 304 140 19 45
349 689 309 123 17 41
338 692 310 36 29 31
339 695 312 40 30 31
344 694 312 52 30 32
339 699 313 58 29 33
344 699 314 103 28 42
325 784 209 73 59 48
342 702 315 40 29 28
339 904 203 51 48 48
340 705 316 58 28 35
345 691 311 46 30 32
349 691 311 92 19 35
349 694 312 79 22 34
346 701 316 46 28 28
359 644 302 174 10 55
345 890 208 35 33 36
354 654 302 169 6 54
359 654 302 168 2 52
368 654 301 153 19 51
354 659 303 167 8 53
459 864 238 79 61 52
359 659 302 168 4 53
359 664 303 168 4 53
552 490 208 157 113 89
359 669 303 165 2 51
429 599 277 165 9 52
364 659 302 164 15 52
390 886 178 69 63 68
368 659 301 83 23 35
374 644 299 138 24 49
379 644 297 115 31 47
383 644 296 77 29 37
385 649 295 131 31 49
385 654 295 72 31 37
370 659 300 49 29 33
329 833 225 95 76 66
374 659 299 58 27 35
328 800 216 79 62 53
371 667 300 166 13 50
385 659 295 150 35 57
379 664 297 162 14 50
382 659 296 111 27 44
379 669 298 163 6 50
364 679 304 151 12 48
354 678 305 125 15 43
364 684 305 149 13 47
363 685 306 148 9 46
464 834 217 105 90 82
352 691 311 137 14 45
359 693 310 142 4 44
358 695 311 138 7 42
389 897 158 87 74 67
402 942 225 74 65 66
359 699 312 136 7 41
355 702 315 131 11 41
425 524 274 61 28 35
354 704 317 133 14 42
362 700 311 140 6 45
363 704 311 137 7 42
365 704 310 139 12 43
403 857 245 32 28 27
373 674 301 170 8 53
375 674 300 172 6 54
362 743 311 36 29 31
373 679 301 112 17 40
374 689 303 87 23 36
483 829 254 73 56 50
379 674 299 172 7 55
379 679 299 158 14 51
384 679 297 169 17 55
377 685 301 37 28 28
381 688 300 36 27 28
379 694 303 76 29 37
379 699 304 40 26 31
371 693 305 150 16 47
375 699 305 70 24 36
528 898 309 85 80 78
434 699 278 135 13 43
392 788 136 79 61 52
373 699 306 127 25 48
429 929 333 83 65 49
322 708 305 70 24 32
324 709 307 115 17 39
324 714 308 138 17 45
329 714 312 150 16 47
336 714 316 143 20 48
324 729 309 170 18 54
346 782 205 75 60 50
326 724 311 168 18 53
326 729 311 178 18 57
326 734 311 179 19 57
335 724 316 176 19 56
426 911 277 65 56 57
333 729 315 182 19 59
336 729 316 183 20 59
333 734 314 181 21 58
453 850 271 50 42 36
339 709 317 71 29 35
379 839 273 169 132 105
344 709 318 75 30 37
343 719 320 167 19 54
339 724 318 177 19 56
478 912 303 93 75 66
339 729 318 163 21 56
339 734 317 73 25 38
344 729 320 183 20 59
324 739 309 166 19 53
369 975 233 84 80 82
324 749 309 170 19 54
334 833 272 97 71 60
330 744 311 175 19 56
409 948 318 78 66 60
334 739 314 144 22 51
330 749 311 171 20 55
324 754 309 163 23 55
324 759 307 67 50 48
431 610 269 188 15 58
329 759 308 79 61 58
324 765 305 44 40 41
329 763 306 74 62 56
329 769 304 70 58 53
429 514 273 88 30 40
278 809 262 190 128 98
334 756 310 105 32 46
334 763 306 81 66 60
337 741 315 33 28 30
419 714 294 129 23 47
339 744 315 105 34 47
399 754 287 78 61 53
340 742 316 120 38 49
349 743 316 89 25 40
349 745 315 110 25 44
349 749 313 95 30 44
344 768 302 85 68 60
349 764 303 91 73 64
348 767 301 91 72 61
349 769 299 91 72 60
351 766 300 91 71 60
339 754 311 99 35 47
339 759 308 89 65 61
370 833 188 56 53 53
339 756 310 117 40 53
344 754 311 129 38 54
349 756 310 51 31 38
433 853 270 47 38 30
348 762 306 90 72 64
357 709 316 140 8 44
354 714 319 153 14 48
312 950 236 83 79 80
355 719 320 163 14 52
420 886 207 63 54 54
358 719 317 167 7 53
366 709 310 139 10 44
355 724 320 176 14 55
358 724 317 180 6 57
354 734 318 187 17 61
360 734 315 189 14 61
364 724 313 175 0 56
370 724 309 170 1 54
367 724 311 171 0 54
384 898 178 67 60 60
361 729 315 190 5 61
379 714 304 133 27 52
530 485 226 129 102 79
384 719 301 156 27 56
263 774 278 176 121 94
374 714 307 160 15 51
379 709 305 58 28 36
379 729 302 173 15 55
384 729 299 75 24 36
378 734 302 153 18 51
375 734 304 156 19 54
418 599 281 143 11 44
381 734 300 169 22 56
434 919 318 59 48 41
376 724 305 167 10 53
373 729 307 177 6 57
373 734 306 184 12 60
384 759 288 88 67 59
379 764 289 88 68 60
353 879 178 47 44 45
353 742 316 192 19 61
359 739 314 101 24 42
356 740 315 186 18 60
359 744 312 122 25 48
360 749 309 162 29 59
364 744 309 40 30 32
369 739 308 149 21 51
366 736 310 187 16 61
368 744 307 57 30 34
449 779 163 80 59 48
360 746 310 112 33 48
366 751 305 88 68 61
374 974 233 80 75 78
359 769 297 88 67 58
370 754 299 92 70 60
369 759 297 90 69 59
393 908 195 68 60 60
369 769 293 85 66 57
461 846 231 59 46 46
364 764 298 87 67 57
368 763 296 87 68 56
469 849 218 101 81 69
399 880 162 78 69 64
354 753 311 155 25 55
516 585 225 183 123 96
363 753 306 81 68 62
361 756 305 90 72 65
374 739 304 91 30 43
374 744 302 48 36 37
384 784 148 59 48 43
371 751 300 93 72 63
449 819 234 97 71 54
373 748 301 92 73 64
376 745 300 78 64 57
379 744 299 76 62 56
384 749 293 90 70 62
382 747 296 88 69 61
371 740 305 109 34 46
372 738 306 186 18 59
371 760 295 89 69 59
372 757 296 91 69 60
373 764 292 87 68 58
373 769 291 84 67 57
379 759 292 90 70 61
384 754 292 91 70 62
466 772 246 72 56 43
380 760 290 90 68 60
378 762 291 89 68 60
453 874 253 67 54 50
346 716 321 162 19 52
349 716 321 159 19 51
346 728 321 187 19 61
396 929 211 56 51 53
349 728 321 176 21 57
349 730 320 186 19 59
353 724 321 177 18 58
414 848 159 53 48 50
352 727 321 183 18 59
473 849 223 71 57 54
408 519 287 109 24 42
377 922 195 70 64 66
414 514 283 104 27 42
414 519 283 76 26 35
411 529 285 102 37 47
408 534 287 71 28 34
408 539 287 71 29 35
468 817 204 182 121 97
414 534 282 136 21 45
411 544 285 37 30 32
451 880 237 75 64 63
416 539 280 76 27 34
354 929 309 156 120 96
414 599 284 135 20 47
413 544 282 58 29 34
416 544 279 64 29 33
389 514 294 141 11 43
386 520 295 103 16 40
391 529 295 47 28 30
394 873 259 62 49 41
389 529 296 91 24 37
394 514 293 134 13 42
394 519 294 47 26 31
399 514 292 141 14 45
314 789 302 178 130 98
338 976 279 66 62 62
409 900 297 39 35 33
399 519 292 41 26 30
425 854 188 60 51 47
394 529 295 62 28 32
399 524 292 38 27 30
362 872 185 24 23 24
399 529 293 110 27 42
389 534 297 42 27 30
399 534 293 97 27 39
395 539 295 106 24 41
306 952 272 96 86 83
396 544 295 156 16 49
399 544 293 137 19 45
359 981 269 62 58 56
393 539 296 97 22 39
393 544 296 155 15 48
404 514 289 148 14 46
434 923 298 60 51 48
404 519 289 105 21 40
327 914 305 135 98 89
402 519 291 56 23 32
405 524 289 44 28 31
402 529 291 104 28 41
405 529 289 77 30 37
402 534 291 97 27 40
405 534 289 86 31 38
402 544 291 70 26 33
408 554 287 50 28 30
344 923 188 76 66 64
462 799 101 97 86 76
420 865 197 69 57 55
407 559 287 45 30 32
415 549 279 72 29 37
410 549 285 59 28 34
440 604 258 56 30 34
413 549 282 91 26 39
420 629 274 108 32 45
415 559 279 96 21 38
410 554 284 99 29 41
329 969 243 92 89 91
410 559 283 64 29 33
412 554 282 109 25 42
406 844 235 58 41 33
408 564 287 48 28 32
409 930 287 66 61 63
404 564 289 82 25 36
519 534 202 140 107 76
408 569 287 120 19 41
429 874 282 54 44 37
411 568 285 145 17 46
416 563 280 129 19 43
395 801 136 87 65 49
431 774 155 68 51 46
409 574 287 149 14 46
414 574 284 158 11 50
412 575 286 152 12 48
389 554 299 155 8 48
549 499 203 175 122 96
396 549 295 155 15 48
393 549 296 156 10 48
395 554 295 155 11 48
395 559 295 155 6 48
393 554 297 157 7 49
432 834 125 98 74 65
386 568 300 158 0 47
389 569 299 156 1 48
389 574 299 159 2 49
387 574 301 161 3 50
396 569 295 158 6 48
399 564 293 157 12 48
396 574 295 158 4 48
384 949 323 61 55 53
399 574 293 158 8 48
308 919 262 155 125 100
393 574 297 158 3 49
404 549 289 56 29 34
492 807 218 90 69 58
