ply
format ascii 1.0
comment Created by Open3D
element vertex 2194
property double x
property double y
property double z
property uchar red
property uchar green
property uchar blue
end_header
432 699 294 176 117 87
433 698 300 180 118 89
432 700 300 179 118 88
436 690 310 189 126 98
433 691 313 181 115 90
358 772 318 34 29 34
435 688 320 192 123 92
416 663 325 137 98 82
416 668 325 146 103 87
391 788 307 173 125 95
425 647 330 114 91 67
420 653 325 122 90 74
419 653 330 127 93 76
420 653 335 132 97 80
277 808 205 70 56 47
421 649 335 126 93 74
430 644 335 109 91 71
270 878 215 47 43 43
422 649 340 132 99 79
421 653 340 138 102 84
424 648 345 130 99 79
422 650 343 137 104 84
395 813 256 70 53 48
423 652 346 144 105 89
426 645 340 110 89 67
427 645 345 116 93 69
430 644 340 108 90 70
430 644 345 110 90 68
429 647 351 131 101 81
418 657 326 131 94 78
419 658 330 134 96 80
417 664 328 141 100 84
419 663 330 142 100 85
420 663 335 148 105 88
426 718 285 156 105 74
417 672 324 150 103 87
418 670 327 150 105 87
417 666 328 146 104 86
419 668 330 150 106 88
270 878 255 69 57 52
421 673 330 156 107 88
422 671 334 159 110 91
421 658 340 147 105 90
422 663 345 161 115 98
435 683 330 196 129 100
423 658 350 163 119 103
424 663 350 170 121 104
422 671 338 162 111 93
425 668 350 174 120 103
283 829 204 82 70 62
430 674 350 184 126 104
435 645 330 108 92 75
438 645 331 99 85 71
440 648 330 97 82 67
365 884 370 70 58 51
438 645 335 95 82 69
444 654 325 111 88 63
443 650 332 110 89 67
444 653 335 119 95 66
438 645 340 98 85 72
435 642 350 106 90 73
443 645 350 100 84 68
447 658 325 120 94 62
446 658 330 130 99 64
445 658 335 142 106 69
447 661 335 154 111 76
430 648 365 148 113 92
431 649 360 148 112 92
425 653 355 157 115 97
333 906 276 65 58 58
427 653 360 162 119 102
292 902 327 65 53 44
455 912 274 83 74 66
428 651 357 153 116 95
428 652 361 157 116 99
430 648 370 148 113 93
260 972 315 67 64 64
431 648 375 150 114 94
314 921 380 62 54 51
432 648 380 153 116 95
424 658 355 168 122 106
425 663 355 177 126 109
289 912 366 38 36 37
427 658 364 172 125 108
427 662 363 177 124 108
426 668 355 181 126 107
427 666 359 182 126 107
427 671 353 179 123 103
431 671 359 187 126 106
431 667 365 185 127 107
384 807 308 162 121 94
431 658 375 169 122 104
315 793 216 66 54 52
484 943 279 98 83 70
440 643 355 99 84 69
435 644 365 116 95 73
442 646 360 106 88 69
442 646 357 105 87 67
445 646 355 107 89 69
443 645 366 109 91 71
435 643 370 118 96 75
435 643 375 120 98 75
432 645 370 133 104 85
432 645 374 134 107 82
440 642 370 108 92 76
440 642 375 109 93 78
435 643 380 122 99 77
435 643 385 125 101 79
433 646 381 144 112 90
440 641 385 114 96 78
432 650 383 157 119 97
368 864 357 64 54 49
328 926 343 49 43 43
432 651 383 159 118 100
446 646 374 125 101 74
434 669 365 188 126 105
435 672 360 190 128 105
436 671 364 188 126 103
440 672 365 189 127 102
445 672 365 194 129 102
432 658 378 171 122 105
433 658 381 171 121 104
362 844 249 61 48 45
432 666 373 187 129 110
440 670 375 189 124 103
436 667 385 184 125 105
260 858 330 142 115 87
445 671 370 191 128 101
442 671 374 191 126 104
445 668 385 193 129 106
418 675 322 150 102 85
421 678 325 154 103 85
474 938 269 116 103 92
329 869 293 33 31 32
423 680 326 158 106 88
422 677 329 157 106 88
271 875 230 41 37 38
425 678 330 163 111 90
338 866 287 36 33 32
394 827 290 164 113 92
426 677 335 167 115 94
430 685 326 177 120 95
430 686 324 180 119 94
428 680 332 171 116 92
260 838 235 151 103 80
431 681 334 185 126 102
430 678 340 183 126 102
435 686 324 196 126 97
435 685 326 196 128 97
440 684 325 200 129 99
438 686 324 200 129 97
440 683 330 198 126 99
446 678 325 193 131 102
446 679 330 199 134 105
445 679 335 201 133 105
444 682 325 200 134 105
443 681 330 199 127 101
435 677 345 196 134 109
440 679 340 199 129 99
435 676 349 197 135 110
434 680 337 195 135 108
447 675 342 202 134 109
444 676 349 200 128 102
496 868 278 87 75 63
446 675 350 200 130 103
438 675 352 199 135 109
440 675 355 197 132 106
440 674 360 191 127 103
340 874 293 34 32 32
445 674 355 201 132 103
390 713 265 99 67 39
389 712 270 102 65 37
391 709 271 102 67 32
387 719 260 95 64 41
388 716 264 98 66 41
387 714 270 109 67 44
395 711 260 101 77 47
401 708 260 104 81 52
365 828 240 77 59 53
396 709 266 97 73 45
397 710 262 101 78 50
399 707 264 100 78 52
281 930 373 48 44 44
394 707 270 96 67 39
392 710 267 99 66 35
398 706 269 94 74 50
386 713 275 107 71 52
387 710 281 95 68 49
393 836 267 97 76 61
388 712 274 107 68 46
388 707 285 83 59 41
392 704 272 100 68 28
402 705 260 110 85 54
389 899 290 64 53 48
412 706 263 105 80 55
416 713 265 96 74 51
414 705 266 107 82 54
411 717 258 85 63 48
416 718 265 93 67 48
389 708 290 78 53 37
390 708 295 91 59 45
389 713 295 85 53 40
392 709 299 112 74 63
387 714 294 74 45 32
385 718 290 66 46 32
360 808 307 161 124 101
386 718 295 79 46 34
387 720 298 98 62 48
388 717 297 91 54 40
390 718 300 116 77 65
396 708 304 136 95 81
393 712 302 127 87 74
395 713 305 138 98 82
259 803 292 97 77 70
395 718 306 141 100 84
399 708 307 143 101 85
398 713 307 145 104 87
400 718 310 154 112 91
386 728 299 107 69 56
265 917 356 42 39 39
390 733 304 147 104 87
394 728 306 151 108 90
397 723 308 153 110 91
400 723 310 160 116 94
396 728 308 157 112 93
376 885 351 55 45 43
394 733 307 156 111 92
396 733 308 162 115 93
324 928 285 70 63 63
400 733 310 171 121 98
375 878 396 80 63 46
405 708 311 156 112 90
501 955 265 101 82 63
405 713 312 159 115 93
404 718 312 164 118 95
407 718 313 171 121 97
300 938 259 68 61 63
415 708 314 170 118 90
414 717 313 174 119 91
261 826 227 70 56 52
416 719 312 175 118 90
407 721 313 177 125 100
412 720 312 174 121 93
414 733 309 179 120 91
451 925 278 90 74 59
413 742 257 79 58 48
450 942 295 90 78 70
355 910 336 44 39 38
415 743 265 114 80 57
412 745 258 79 59 48
413 748 261 102 72 52
415 753 265 108 75 54
406 763 259 108 79 58
409 758 261 89 65 47
411 758 264 104 74 53
416 758 269 124 86 63
336 830 233 64 54 54
295 902 361 37 35 35
408 763 262 124 90 63
411 763 264 127 91 64
414 763 266 122 87 63
414 768 266 107 79 61
416 768 285 112 77 57
387 739 303 143 101 84
310 813 304 168 125 101
281 902 336 43 38 35
386 743 304 147 105 86
390 743 306 157 112 92
389 753 307 165 118 94
290 784 189 71 57 45
391 753 308 170 121 95
396 738 308 166 118 95
395 743 309 170 121 97
394 808 303 167 120 93
295 905 336 36 34 35
392 744 308 164 117 95
400 743 309 177 125 99
395 753 309 177 125 99
400 748 309 180 125 99
311 933 264 78 70 68
388 758 307 169 120 96
386 768 308 175 124 97
390 763 308 178 128 99
305 958 315 67 61 59
399 757 308 181 126 98
400 803 300 176 122 96
416 743 300 180 117 92
450 847 370 79 65 52
413 747 303 181 119 93
410 748 305 180 120 92
405 753 306 180 122 93
412 740 307 181 120 93
409 742 308 180 121 93
415 738 305 182 120 93
413 737 308 180 120 91
408 746 308 181 121 92
404 768 303 177 123 94
405 763 304 179 122 93
480 941 267 119 100 81
407 764 302 179 121 94
406 768 301 178 122 93
412 754 302 180 119 93
413 758 299 176 116 89
415 763 290 137 91 64
340 899 285 59 50 45
413 767 294 160 106 78
411 768 296 171 114 86
408 761 303 181 123 94
413 761 298 176 117 88
402 754 307 180 124 96
359 876 343 61 53 48
417 713 268 105 80 56
419 713 270 112 84 55
423 708 276 141 99 68
421 713 274 127 91 61
423 713 276 137 96 66
423 718 277 133 93 65
419 723 309 182 122 97
425 718 280 145 101 70
469 672 485 187 128 114
424 708 280 152 105 73
425 713 280 149 103 72
426 708 285 166 112 83
417 721 261 80 48 43
417 721 264 83 56 44
325 778 319 75 61 57
265 873 339 147 116 88
420 728 270 109 78 55
300 803 306 175 129 107
417 730 258 89 67 53
330 922 286 54 48 50
417 733 260 93 66 50
418 733 265 101 74 51
422 730 278 127 87 60
422 735 284 148 95 68
425 723 285 150 99 69
429 708 290 170 112 81
428 713 290 165 108 77
428 713 295 169 110 79
429 708 300 179 114 86
428 713 300 177 113 87
390 924 295 89 76 71
428 716 296 167 109 76
426 713 305 184 121 96
426 718 300 178 116 89
425 718 305 184 123 97
425 708 309 181 120 95
361 860 283 35 32 31
420 713 311 179 120 93
424 713 309 184 123 97
257 853 266 170 122 92
317 939 283 84 75 73
420 718 310 181 122 97
417 714 312 175 116 89
423 727 303 183 119 96
441 931 308 89 83 79
423 733 290 158 101 72
422 734 296 170 110 81
419 733 304 183 120 95
424 728 295 167 106 79
423 732 298 177 114 87
421 724 306 184 123 97
419 743 270 118 81 59
419 753 271 123 84 61
421 738 275 113 78 57
422 738 280 133 89 62
423 736 280 133 90 65
422 738 285 147 94 67
419 753 280 123 83 55
421 748 275 122 84 62
420 748 280 124 83 56
420 753 275 121 84 63
432 743 280 127 87 64
432 744 283 115 79 56
417 759 275 115 84 62
417 758 285 134 86 57
417 763 280 110 78 56
310 895 325 32 31 32
420 764 275 110 89 75
416 768 280 90 64 47
420 768 280 86 71 58
370 793 310 169 129 101
425 763 274 125 92 74
421 764 279 103 86 72
426 768 273 106 73 52
417 763 285 129 86 60
418 761 283 133 89 63
426 763 284 83 66 53
426 759 280 119 98 85
431 754 281 94 72 56
300 903 364 37 35 35
427 760 283 114 102 93
429 768 287 90 67 45
435 748 284 96 70 51
435 753 280 104 73 50
440 750 285 101 75 53
443 749 287 109 78 54
444 753 286 109 83 60
280 958 335 69 66 66
434 760 277 102 72 45
439 758 285 111 82 58
436 763 280 100 71 52
266 771 308 72 60 55
434 768 280 101 72 50
435 768 285 100 68 50
437 764 285 107 74 53
438 762 282 104 77 56
394 788 245 65 51 45
420 743 290 157 99 71
421 738 295 170 109 83
419 738 300 180 118 92
287 795 193 92 68 44
418 742 299 179 118 92
417 749 291 160 100 74
417 753 290 153 97 68
418 751 288 148 95 65
417 745 296 178 116 90
431 763 288 90 68 45
445 749 290 115 87 61
445 753 289 113 87 64
447 748 293 110 85 58
432 755 288 77 59 45
436 755 289 91 72 55
349 886 324 52 47 44
341 793 224 65 54 51
370 833 250 67 53 50
440 758 290 108 79 55
448 672 317 149 103 70
448 673 320 158 107 73
448 659 326 128 98 61
258 907 234 60 56 57
449 673 325 170 115 83
450 668 330 158 109 75
450 668 335 165 112 78
260 778 301 74 60 55
449 673 330 177 118 87
449 673 335 185 124 92
350 858 242 68 55 51
448 659 341 158 114 78
450 658 350 155 109 75
451 668 345 178 120 89
449 673 340 193 129 98
451 668 350 184 123 94
449 672 350 196 131 105
449 648 360 119 96 68
449 653 355 140 106 69
450 653 360 145 108 72
448 650 364 132 103 70
448 645 381 118 97 76
449 644 385 117 98 77
449 653 370 159 117 83
451 653 375 162 118 84
452 653 380 165 119 86
441 662 425 191 136 115
453 655 376 167 119 84
453 655 378 169 119 86
451 658 365 170 115 84
451 663 365 185 124 93
276 873 331 131 104 80
448 671 364 200 134 104
452 658 374 174 120 89
453 658 380 178 125 91
452 664 380 193 129 103
284 957 334 60 55 54
452 664 385 192 130 103
450 668 370 201 136 104
449 668 380 199 132 106
449 667 385 196 131 105
448 676 335 199 134 104
448 676 338 200 135 108
450 748 290 117 92 67
448 746 293 104 76 45
461 742 294 121 100 81
458 746 292 117 94 73
459 746 293 117 94 73
470 672 475 193 128 113
436 644 390 131 106 83
434 648 390 151 115 96
435 648 395 151 117 95
439 642 400 123 103 82
436 648 400 149 116 93
436 653 400 157 118 95
442 640 390 114 98 81
445 640 390 108 93 78
442 640 395 115 98 82
442 640 400 115 98 82
437 645 403 141 114 91
306 869 220 65 59 61
418 863 261 90 73 64
437 649 410 137 111 86
441 643 415 121 101 82
438 648 415 132 108 85
436 653 415 147 115 93
443 641 415 109 94 81
435 658 390 170 121 103
436 663 390 182 126 106
436 663 395 182 127 106
436 663 400 181 127 108
438 665 401 189 129 109
441 666 400 190 129 106
445 667 395 189 127 106
402 874 403 90 72 59
445 667 400 187 127 105
436 663 405 182 129 108
348 835 238 64 54 53
436 658 415 163 119 100
436 663 410 182 129 108
437 662 414 181 128 108
439 665 410 189 131 109
435 843 379 88 69 54
445 667 405 188 128 106
441 666 410 188 129 106
442 666 414 188 127 106
444 666 414 193 129 108
447 665 411 199 135 113
438 653 420 147 115 93
437 650 426 135 108 86
437 653 426 150 115 95
437 650 430 133 110 86
443 641 420 111 96 83
444 642 425 116 99 83
446 640 420 110 95 80
442 644 430 130 108 87
444 642 430 127 104 82
437 653 435 146 114 93
438 651 437 129 106 84
444 642 435 134 105 82
442 645 435 135 105 83
442 645 438 132 103 78
446 644 443 133 104 82
443 652 447 112 94 78
340 812 227 53 45 43
437 658 418 161 118 99
438 659 425 172 126 107
374 868 285 57 48 44
441 662 420 189 132 112
440 662 430 192 135 116
445 664 420 192 128 106
445 663 425 190 129 108
356 859 249 74 58 50
445 663 430 187 128 105
437 657 434 165 121 104
437 656 440 149 114 98
437 661 433 190 138 118
440 838 369 90 73 57
437 663 442 188 135 121
337 850 238 62 54 53
441 666 441 197 141 123
445 667 440 193 137 117
446 649 449 111 93 74
440 658 450 140 114 100
441 658 455 133 109 93
472 839 362 109 82 55
437 664 448 179 135 119
438 663 450 174 131 118
300 923 379 70 58 49
439 663 455 166 125 112
440 668 455 187 132 117
443 656 451 120 101 86
442 660 459 128 102 85
442 663 463 155 116 101
445 670 449 193 136 119
445 672 455 190 133 115
446 671 451 191 134 116
443 669 461 187 131 116
292 970 294 80 76 79
446 671 464 178 122 108
335 873 294 37 34 35
447 664 474 157 112 98
447 667 469 178 123 112
450 643 390 117 98 78
454 648 395 152 115 82
453 644 401 124 103 80
454 648 400 158 119 87
454 653 390 171 121 88
454 653 395 178 123 94
400 848 379 69 57 47
306 881 307 35 33 32
455 653 400 182 127 97
452 641 409 103 90 77
455 643 415 124 102 83
457 647 409 156 121 90
458 649 411 171 125 97
289 928 235 92 86 88
458 648 415 174 127 100
456 653 405 186 130 102
458 652 415 193 133 105
457 654 414 193 131 102
454 658 390 185 125 97
355 898 300 50 42 37
453 662 390 191 130 99
452 664 390 194 131 102
455 658 400 188 128 100
334 907 355 53 47 45
450 667 395 196 132 106
450 667 400 193 130 103
460 931 318 88 77 71
452 665 400 197 131 106
455 658 415 193 130 102
449 666 405 190 129 104
367 886 314 64 57 51
456 643 420 139 112 90
456 643 425 139 112 88
450 852 356 102 81 64
457 646 420 179 134 107
458 649 420 190 134 109
314 952 310 64 56 51
457 646 428 170 131 102
459 648 430 171 128 100
458 649 425 189 135 108
457 654 425 185 127 101
287 970 279 91 87 89
458 652 431 171 122 93
457 654 429 171 119 92
449 646 446 127 100 81
453 642 447 128 101 82
344 898 279 65 58 56
461 642 435 124 104 85
462 641 438 116 100 85
385 845 384 57 46 38
465 643 440 129 107 85
463 647 437 157 121 95
461 653 435 168 121 92
462 654 439 168 120 92
450 663 420 197 132 104
450 663 425 196 132 105
455 658 425 190 128 100
453 661 420 198 131 103
453 661 425 197 134 103
455 664 435 200 135 109
450 665 434 203 139 116
318 942 286 71 62 62
330 858 232 67 59 59
456 665 439 199 134 107
452 671 447 199 141 122
455 669 445 208 145 125
346 866 287 42 40 40
457 659 433 186 127 97
458 656 432 170 116 87
462 660 443 181 124 98
460 668 445 194 130 106
335 903 275 64 57 56
467 641 444 116 101 87
469 643 445 124 103 83
468 640 446 105 93 82
429 852 380 79 62 49
468 646 442 150 117 87
469 648 446 161 121 93
466 653 444 168 121 93
405 878 370 100 81 68
468 656 447 168 119 93
476 658 480 177 120 106
450 648 449 119 95 76
450 652 452 103 86 69
456 650 453 126 100 85
455 654 465 104 84 66
465 928 269 148 123 102
459 642 452 127 101 82
461 643 455 128 100 84
458 647 452 134 102 87
459 648 455 133 103 88
462 644 459 129 98 81
464 643 460 122 96 79
295 793 309 58 51 50
461 648 460 130 98 81
463 647 462 132 99 83
462 650 464 129 96 79
465 648 465 131 96 79
456 655 470 101 79 60
457 655 474 111 81 66
345 887 300 51 45 42
460 653 470 119 87 71
394 772 237 66 51 43
460 654 480 114 80 63
464 652 480 112 83 63
449 656 457 94 80 65
449 657 460 95 80 64
386 892 281 61 50 39
449 670 448 190 137 117
455 672 450 198 141 119
460 672 450 200 137 115
464 671 451 189 128 104
451 659 480 118 86 69
455 657 475 106 80 62
450 673 465 172 116 105
451 671 468 157 102 93
450 668 475 170 114 103
450 668 480 166 108 98
471 642 449 115 97 81
264 883 343 144 110 86
472 641 453 107 93 80
472 648 449 160 117 93
466 640 459 113 93 74
466 643 464 124 96 79
471 653 449 166 117 91
475 643 455 128 105 84
476 648 455 172 125 102
476 641 458 115 95 76
478 644 457 153 120 95
479 643 460 148 114 92
480 643 465 156 118 97
477 653 465 179 124 106
471 643 470 130 100 80
468 646 467 134 98 81
470 643 480 115 95 75
481 643 475 162 117 97
478 648 480 150 101 86
275 937 240 109 102 103
478 651 466 181 122 110
500 868 279 89 77 65
477 654 470 180 122 105
467 659 448 171 119 95
466 663 449 180 123 100
470 658 450 168 117 92
468 666 452 182 125 103
470 668 455 185 125 103
468 671 457 191 129 105
469 672 460 200 135 113
471 669 460 197 134 112
473 656 452 164 111 89
309 902 245 70 66 67
409 843 375 57 47 37
474 658 455 176 122 99
475 658 460 181 124 103
474 663 460 187 126 107
473 667 461 194 131 109
473 667 465 193 130 111
470 673 470 200 133 115
475 663 475 185 125 108
385 918 285 65 56 51
472 670 470 196 133 113
472 669 480 193 129 114
456 648 495 144 112 97
456 649 491 122 87 72
457 645 494 138 107 91
460 644 494 146 116 105
460 648 496 149 120 107
465 644 490 136 105 89
464 644 493 143 111 99
463 651 484 103 80 58
461 650 487 111 84 62
465 648 485 105 84 62
375 883 326 90 79 71
460 653 496 144 108 93
454 657 485 111 81 60
452 663 490 156 114 106
453 657 490 115 78 64
455 663 495 171 122 112
341 825 235 69 59 59
453 664 492 157 111 102
450 668 485 177 127 120
452 671 485 160 102 95
455 672 485 146 99 86
455 668 491 165 119 106
456 666 493 172 124 111
299 797 206 56 52 53
329 837 231 58 51 51
460 663 496 172 118 107
465 668 491 185 126 113
465 672 489 182 124 112
456 658 498 170 129 122
460 658 497 154 109 97
467 644 486 118 95 77
379 879 335 67 58 57
470 642 485 118 96 79
475 648 485 154 109 92
477 648 482 147 102 86
478 646 483 151 101 88
474 644 488 154 108 93
473 648 488 156 120 101
346 885 331 54 48 44
473 653 488 161 120 101
470 658 490 158 120 98
468 658 493 154 119 93
470 663 490 170 117 102
468 662 493 174 122 104
471 668 485 185 123 110
466 665 492 181 125 111
468 671 488 182 120 111
474 658 485 168 113 100
472 663 486 173 115 101
473 656 488 160 114 97
473 666 484 184 125 109
450 673 455 189 132 114
450 674 460 185 128 112
455 674 466 177 119 110
460 675 454 197 137 118
288 853 194 89 72 62
460 676 456 192 135 117
460 677 460 189 128 114
460 677 464 192 130 118
465 676 465 199 130 117
459 675 466 192 131 120
465 675 470 196 134 118
460 674 480 186 122 114
465 675 475 195 132 118
466 674 460 198 133 114
467 675 465 202 135 112
265 773 186 104 77 54
261 773 190 76 59 47
265 772 190 89 65 49
265 770 192 81 62 51
262 776 187 103 75 51
265 776 187 109 80 56
266 781 191 84 62 47
274 779 191 75 56 46
280 783 191 73 54 44
365 813 231 63 51 45
286 774 185 71 55 45
350 793 225 52 43 39
285 773 190 72 55 45
282 773 192 81 61 44
281 778 192 67 52 42
285 783 190 65 53 45
275 788 191 89 65 49
378 887 361 64 52 48
285 788 190 71 56 45
290 774 185 73 57 47
290 773 190 67 53 43
293 775 191 81 59 36
290 782 185 68 55 45
294 778 185 77 61 46
293 781 186 77 62 47
292 776 188 72 57 42
294 782 190 80 65 51
290 788 191 78 61 45
290 792 192 89 67 44
300 815 188 108 82 58
297 819 191 102 78 57
303 816 186 92 75 64
303 821 192 75 68 64
350 908 290 61 53 49
259 774 194 52 45 43
490 847 369 113 94 80
258 775 199 52 45 42
259 778 200 50 43 41
263 780 194 66 54 42
261 782 200 53 45 41
263 784 199 58 49 45
300 839 187 85 70 63
398 796 303 176 124 95
258 780 203 52 44 42
270 772 194 68 53 48
268 784 193 79 58 43
260 788 205 55 45 42
265 787 200 59 48 43
385 833 261 68 52 45
265 789 204 58 47 42
270 788 195 82 61 48
269 789 200 60 48 40
268 790 203 58 47 41
260 790 208 57 47 44
264 863 260 142 105 79
260 799 214 62 51 47
265 797 211 64 50 45
265 800 213 66 52 47
268 795 208 56 46 44
270 798 210 53 44 42
487 937 250 108 91 75
277 781 193 91 67 46
274 790 194 88 67 51
275 793 195 86 65 50
273 794 199 80 61 48
276 797 196 80 61 48
280 798 194 79 59 46
280 796 192 78 57 43
302 857 297 76 63 50
284 796 192 81 61 45
340 898 400 83 65 49
285 798 193 91 68 47
265 803 215 66 51 47
260 805 218 67 53 49
260 808 220 69 53 47
265 813 221 62 49 45
270 803 214 55 44 43
268 809 218 59 48 44
269 813 219 54 45 43
272 812 216 52 43 41
260 819 223 70 56 49
265 817 222 61 50 47
265 823 225 65 53 49
270 818 220 59 48 44
276 803 201 80 60 47
375 858 379 72 57 44
280 803 196 80 60 47
275 803 205 68 54 45
290 898 225 74 68 69
421 915 288 90 75 60
277 806 202 76 59 45
355 893 370 69 59 54
465 925 274 90 74 57
298 872 195 95 85 81
282 813 197 82 63 50
285 813 197 88 64 49
274 804 209 56 47 43
275 808 210 59 48 45
504 958 251 94 81 68
278 814 208 67 53 47
281 818 200 81 64 49
320 893 370 46 40 37
285 818 198 81 62 49
282 827 206 72 60 55
282 831 207 72 60 54
277 817 211 59 49 44
278 819 209 60 49 44
280 823 210 63 53 47
277 822 216 54 45 43
311 778 208 62 51 47
278 820 214 56 47 44
272 816 217 55 47 42
274 824 223 48 43 44
278 825 218 51 44 44
278 828 220 60 50 46
280 833 215 57 48 45
304 833 206 65 61 62
367 885 290 64 53 50
415 828 262 56 43 41
278 833 219 61 49 45
277 833 221 69 53 47
281 828 210 68 56 51
385 868 375 84 65 56
282 833 210 64 54 51
260 823 226 74 59 53
256 826 227 78 62 56
340 907 399 73 59 51
260 833 230 70 57 54
264 830 228 51 44 50
315 948 320 60 53 51
265 833 229 118 86 69
270 834 230 134 92 70
284 931 232 93 84 84
292 772 193 76 58 41
294 773 195 84 65 47
305 773 204 55 45 45
303 775 202 50 41 41
301 783 204 52 47 50
293 786 192 88 68 48
293 788 195 81 64 50
291 794 193 88 67 47
294 798 196 65 52 46
295 798 200 57 50 47
301 788 205 56 49 51
303 793 206 63 55 54
296 798 204 54 49 49
390 861 274 81 68 59
301 799 208 59 55 57
305 798 210 63 54 56
355 773 318 61 51 46
425 922 318 90 76 65
309 778 206 58 48 46
320 773 206 56 45 42
310 783 210 62 50 47
315 773 210 63 50 48
318 774 208 54 42 40
315 778 210 64 52 49
320 778 209 54 44 42
306 788 214 61 52 53
305 793 210 61 53 54
306 793 214 68 58 57
308 785 213 59 48 48
307 796 214 72 58 60
310 798 211 63 53 53
320 793 215 62 50 47
290 803 196 84 63 48
279 867 225 41 35 38
295 808 197 71 57 51
288 812 197 86 63 49
290 813 198 77 58 48
492 947 246 121 102 83
295 813 196 73 57 50
297 807 200 64 54 51
293 813 198 73 55 48
489 844 360 110 85 63
298 804 207 56 53 55
298 809 200 64 54 52
299 808 205 53 49 51
300 803 209 58 57 59
305 803 209 58 55 57
305 808 210 52 52 55
305 813 209 49 49 52
290 818 199 77 59 48
290 833 195 72 58 49
294 828 194 90 69 52
294 833 193 88 69 54
345 903 390 81 67 59
296 833 191 98 77 59
300 818 200 70 61 55
303 822 195 72 65 62
301 823 200 71 64 60
303 818 207 52 50 53
299 834 191 87 71 61
301 833 200 72 65 60
302 833 204 78 74 73
310 803 211 58 50 49
312 813 214 52 47 49
313 801 212 59 49 48
315 803 215 58 50 50
312 804 213 56 48 48
312 808 213 55 47 49
309 896 345 36 34 35
316 808 219 61 51 50
320 808 221 60 50 49
316 813 220 57 50 51
320 813 222 60 50 50
317 815 223 56 48 49
362 885 279 60 50 45
306 823 209 50 47 51
309 818 211 52 48 51
308 823 211 52 48 52
310 823 215 56 51 54
320 825 297 128 92 75
311 823 220 56 52 54
306 828 209 54 50 53
379 853 275 67 56 50
311 833 215 59 54 58
312 820 219 56 52 54
312 824 224 58 54 56
283 853 204 57 50 49
316 818 223 53 48 50
320 824 223 57 48 48
312 828 225 61 56 59
312 832 224 56 52 55
320 828 224 56 48 47
314 825 228 54 50 51
315 833 225 55 49 51
275 909 355 40 38 39
320 833 226 56 48 46
286 863 190 109 94 82
287 868 187 101 80 66
286 868 190 110 92 78
340 904 370 62 54 50
295 838 190 93 74 59
292 843 190 80 64 54
295 843 191 87 71 59
295 848 186 98 77 62
265 972 315 62 57 56
300 838 190 84 72 64
303 835 190 81 66 57
300 843 186 95 77 68
312 861 287 35 31 28
300 847 192 91 83 79
303 840 187 99 81 73
304 843 189 90 80 74
294 853 185 101 80 65
291 853 190 91 75 62
405 881 371 100 79 63
294 858 184 104 82 67
290 863 185 105 85 68
291 858 186 100 82 69
289 858 190 98 83 72
334 931 315 70 59 53
299 852 183 110 86 72
297 854 182 108 84 69
306 853 185 88 77 72
300 858 180 109 88 78
302 858 177 103 85 77
303 857 177 96 78 69
304 858 185 100 87 79
303 863 185 103 89 82
304 863 190 99 89 84
307 849 182 87 74 67
310 848 181 93 83 79
313 848 181 94 83 78
309 851 183 91 80 76
306 853 190 88 79 73
305 858 190 93 82 77
290 868 185 105 82 66
295 869 183 98 78 66
270 954 355 73 68 66
301 868 185 105 91 85
299 871 186 103 88 81
299 872 190 98 85 81
301 868 190 102 92 89
302 865 190 100 90 86
285 838 200 76 64 57
388 771 232 68 50 42
286 838 196 93 74 61
282 844 207 60 52 48
283 848 204 63 56 54
282 848 206 60 53 50
275 838 225 72 55 48
277 837 222 66 51 46
276 842 226 63 50 44
280 842 220 54 49 47
279 844 225 53 46 45
283 834 208 68 57 53
282 843 214 61 53 51
283 840 215 65 57 54
282 847 213 56 50 47
283 848 215 53 47 45
285 848 225 49 45 46
284 853 200 68 56 52
284 858 200 66 57 55
499 852 358 107 86 69
282 864 196 88 75 66
286 858 195 81 69 61
281 858 206 54 48 46
282 860 202 65 57 55
277 864 214 40 35 35
279 862 215 42 38 38
281 853 210 51 45 44
282 854 213 49 44 43
286 853 225 46 42 42
281 859 215 45 39 39
282 860 218 40 35 36
283 862 221 39 35 35
285 858 225 42 38 39
270 838 234 127 86 68
269 845 238 106 76 62
270 847 240 100 72 60
265 847 245 155 103 81
340 813 304 57 48 45
261 847 250 188 130 98
264 849 249 172 118 91
363 872 261 82 65 58
267 846 241 118 75 63
266 858 256 151 109 82
275 843 230 68 54 49
273 840 233 92 67 58
277 846 232 65 54 49
281 846 226 49 45 46
285 853 235 47 43 46
284 854 239 46 42 46
290 904 360 38 36 36
280 864 230 41 36 41
284 861 230 40 34 42
281 864 235 42 38 42
284 862 235 42 38 43
345 848 230 56 48 46
284 862 239 45 41 47
274 850 244 85 64 56
375 788 310 171 129 98
278 854 244 59 51 50
277 858 247 68 58 54
276 863 246 59 52 50
279 858 244 54 48 50
281 858 242 48 44 48
279 862 244 55 49 50
272 874 211 49 44 44
272 874 215 41 38 37
270 878 220 41 38 39
271 883 210 88 75 71
269 888 215 84 71 68
267 884 217 60 53 51
267 888 217 79 69 66
268 882 220 45 41 42
341 925 331 53 47 45
267 892 217 84 74 71
266 893 220 76 68 66
268 893 218 92 81 80
280 873 195 112 92 77
274 873 205 68 60 56
276 878 201 102 84 74
285 877 196 93 74 67
285 879 200 90 75 71
275 868 210 48 41 42
375 888 400 91 72 58
273 872 210 49 44 44
274 872 220 37 33 35
275 873 225 39 34 37
278 867 220 38 33 35
272 874 220 38 34 36
272 875 225 40 36 38
275 882 206 86 71 68
370 868 270 76 61 55
283 880 203 85 73 71
285 883 205 85 72 70
286 881 202 89 75 73
375 910 332 53 46 43
275 884 209 79 67 65
317 935 344 59 52 49
275 890 213 79 69 66
275 893 214 87 74 72
273 895 212 82 69 67
280 890 214 88 76 72
285 892 216 86 74 73
272 873 250 70 60 54
271 873 255 93 73 60
272 878 246 48 46 47
263 892 230 52 49 49
262 894 230 53 49 51
263 891 235 43 41 42
265 888 240 39 36 38
263 891 240 40 37 41
266 884 230 41 38 40
370 831 298 131 92 74
269 882 231 39 36 38
356 879 385 83 69 59
378 895 300 70 60 56
266 884 235 39 36 37
271 883 240 41 39 40
268 886 237 35 34 35
360 837 290 121 85 70
268 886 241 37 35 38
263 887 254 59 52 51
261 889 256 64 57 53
257 894 256 70 61 59
264 893 250 47 45 48
267 885 247 48 47 49
269 883 245 45 44 45
266 884 251 56 51 51
325 844 281 81 61 47
275 873 230 44 40 40
276 868 235 47 42 44
276 868 240 49 44 46
278 866 239 51 47 48
275 873 240 43 40 42
273 877 236 44 42 42
274 878 240 41 39 41
359 898 295 63 53 44
285 866 225 37 31 35
275 868 245 59 53 51
274 873 245 49 46 47
334 918 350 50 44 41
273 865 254 97 74 60
273 867 254 92 71 59
272 870 252 70 58 54
295 838 193 87 71 59
290 843 193 89 72 61
289 848 193 89 70 59
302 838 200 75 67 63
305 838 205 70 65 65
303 838 201 75 70 68
301 843 194 92 81 73
301 848 195 89 81 75
302 843 200 79 66 57
302 847 199 82 70 63
303 843 202 73 65 62
303 849 201 73 64 61
303 850 195 87 79 73
303 853 195 90 81 76
304 858 195 80 69 63
303 857 200 78 66 58
302 863 200 77 69 67
303 862 198 77 67 64
475 948 275 107 88 71
304 863 206 65 59 61
308 839 207 59 55 58
307 836 208 59 54 56
310 838 210 57 53 56
283 976 303 76 72 72
311 843 209 59 55 58
313 835 216 55 51 54
315 838 215 53 49 52
316 838 220 55 50 53
335 831 293 45 38 36
320 840 220 59 53 54
312 846 213 57 52 55
304 853 294 81 67 53
315 848 215 60 55 56
319 842 217 59 52 53
316 847 220 62 56 59
320 843 224 60 54 54
318 846 217 63 57 58
306 853 204 67 60 61
308 856 207 63 58 60
311 853 210 59 54 56
330 794 312 69 57 53
307 859 208 60 55 56
309 858 210 55 51 53
309 863 215 60 55 58
311 860 219 60 54 56
312 855 213 57 51 53
314 857 216 58 52 53
315 858 220 57 51 52
445 943 290 125 106 92
313 861 222 60 54 54
316 860 223 58 51 52
319 856 221 58 52 52
288 852 230 46 42 46
288 857 234 43 38 43
320 838 226 57 50 50
317 840 228 56 49 51
320 838 228 58 50 50
301 928 254 80 74 77
320 843 230 62 55 54
319 862 226 65 57 57
320 863 230 67 59 60
290 874 195 95 77 70
290 878 199 99 84 79
294 878 200 96 83 78
296 878 205 92 83 81
373 891 397 96 77 62
300 868 200 84 75 72
298 871 200 90 79 74
304 868 210 63 58 61
302 870 210 68 62 64
302 870 213 68 62 65
300 873 215 71 65 67
303 871 216 66 61 62
297 875 208 88 78 77
297 879 215 74 69 70
298 877 216 73 66 68
301 874 219 70 64 67
390 873 399 90 72 56
297 880 219 72 65 67
304 873 220 65 59 61
304 877 226 67 60 61
290 884 204 94 83 79
294 882 201 94 82 80
342 905 347 59 51 46
295 883 215 80 75 77
293 887 215 81 77 78
335 883 350 36 34 34
296 883 220 73 67 68
294 887 220 78 73 74
298 883 222 73 66 67
299 887 225 69 63 62
307 865 214 61 56 59
308 867 221 62 58 59
310 868 225 59 55 57
294 893 231 68 64 65
296 893 234 71 67 68
348 872 359 41 36 35
301 883 230 69 62 64
302 885 234 70 64 65
385 903 330 61 54 51
480 843 361 111 85 61
301 888 239 68 63 64
306 884 238 55 51 53
305 888 240 54 50 51
297 890 233 69 64 65
300 893 239 65 60 62
264 956 358 72 66 63
355 882 330 60 53 48
310 873 230 59 54 56
376 835 292 132 92 75
310 874 234 57 52 54
314 867 226 54 50 53
317 865 228 58 53 55
319 866 232 67 60 61
319 873 236 69 62 62
315 877 236 66 58 58
316 879 238 67 61 61
310 883 239 58 53 54
310 893 240 64 58 59
459 907 265 93 79 69
315 883 240 64 57 58
312 893 244 64 59 60
314 886 241 63 56 57
316 884 244 60 53 54
320 883 244 61 53 55
315 893 247 60 55 55
318 892 247 57 52 53
379 858 280 62 53 47
320 893 250 62 56 57
317 895 253 62 57 59
320 895 253 64 57 59
315 822 299 143 102 84
440 907 266 98 81 65
325 778 209 55 45 40
331 773 214 56 46 43
335 773 216 58 47 45
331 778 214 54 44 42
329 783 212 66 53 50
322 791 212 64 52 48
325 791 212 67 54 50
325 794 214 69 55 52
349 898 370 65 56 52
336 793 219 60 50 48
330 797 216 75 59 55
304 858 294 71 59 46
333 796 217 72 57 55
336 799 224 61 50 49
338 770 217 55 44 44
338 773 217 54 44 42
340 773 219 65 51 44
405 927 320 69 60 53
345 773 221 73 56 49
376 829 259 92 67 52
339 783 221 75 57 51
344 777 222 77 58 51
340 857 281 34 31 31
436 936 303 83 72 64
341 783 223 75 57 51
345 792 313 67 55 51
342 780 223 76 56 50
345 783 224 66 53 49
347 775 223 65 53 49
351 773 223 54 44 42
339 793 221 65 52 49
338 797 222 62 51 49
380 883 275 68 57 50
345 798 224 56 46 45
350 788 224 52 44 40
350 798 225 56 45 41
285 813 296 184 134 117
326 803 217 74 59 55
350 817 303 41 33 33
327 814 223 67 53 48
330 808 221 74 58 54
335 803 225 64 52 50
333 806 222 74 59 55
328 811 222 70 54 51
385 921 328 64 57 54
371 889 268 74 59 54
370 818 236 67 53 48
330 813 224 76 60 55
335 813 225 63 52 50
325 823 224 64 51 49
340 803 224 60 50 48
344 818 226 59 51 51
304 863 295 60 50 41
325 828 225 59 49 49
325 832 227 58 49 49
330 823 225 63 54 52
331 828 229 59 51 51
336 826 227 62 53 52
335 823 228 58 51 51
339 814 228 55 46 46
350 802 226 61 49 45
350 805 229 66 54 50
349 813 231 79 62 57
351 809 234 79 64 61
351 813 234 84 66 62
338 823 227 60 53 53
283 952 353 71 65 62
345 818 229 60 51 51
337 880 355 39 36 34
343 821 227 61 52 50
345 823 230 63 53 52
341 828 234 66 57 57
280 942 250 97 91 94
345 824 234 67 55 53
345 828 235 72 58 55
350 822 232 76 60 57
350 824 233 74 59 55
350 828 233 70 57 55
350 833 235 65 54 53
360 783 226 58 47 44
363 773 227 77 58 51
410 879 394 98 78 64
366 773 228 80 61 52
364 783 227 67 53 48
366 784 228 65 53 48
355 793 225 58 49 44
360 788 226 58 48 45
355 798 225 57 49 45
360 798 227 55 46 45
363 786 227 56 46 43
316 925 362 52 47 45
365 788 228 57 46 44
365 793 229 53 45 42
362 796 228 52 44 42
370 773 229 74 57 50
372 771 227 74 58 50
375 778 229 75 57 49
375 783 230 69 53 46
380 778 231 77 58 50
384 783 236 65 49 43
370 793 230 59 47 43
375 788 230 66 52 45
375 793 231 64 50 43
370 798 230 58 47 41
376 798 234 56 45 41
302 786 313 67 57 55
354 913 288 67 56 55
379 788 232 70 53 46
380 793 235 61 47 41
274 873 333 136 109 83
383 792 237 69 53 45
385 793 240 72 53 45
381 798 239 54 43 39
382 794 238 63 48 41
355 802 227 58 50 47
360 802 227 54 46 44
363 802 227 49 43 42
365 803 229 49 42 42
365 808 230 51 44 42
360 818 234 70 57 52
355 833 236 65 52 50
359 827 237 69 53 48
360 829 238 70 56 54
364 817 232 69 54 46
366 824 238 74 56 49
364 833 241 77 60 54
370 808 231 61 49 42
290 934 370 61 55 54
375 803 235 57 46 42
374 808 236 59 47 43
369 812 232 56 44 40
374 812 236 62 49 44
379 808 241 56 45 41
383 801 242 63 48 42
382 805 243 59 45 41
381 808 245 64 49 42
384 807 246 72 54 47
382 810 248 71 53 44
385 808 249 76 56 47
334 856 231 57 50 52
382 814 249 73 55 48
330 889 365 42 38 36
384 813 251 76 57 50
368 821 237 71 53 47
370 823 240 87 63 53
373 816 237 74 58 49
374 822 241 91 66 56
372 825 243 76 55 48
374 828 250 64 51 47
374 832 256 79 59 51
391 834 276 103 73 60
377 820 244 69 52 46
378 816 242 83 62 53
379 818 245 66 51 46
380 823 255 68 53 47
382 819 254 79 59 50
384 822 257 65 51 44
324 839 227 59 51 49
288 941 252 87 81 82
322 853 224 63 55 55
325 843 230 62 53 51
331 838 234 60 52 52
355 921 300 67 59 54
332 835 233 61 51 52
334 837 236 59 51 51
330 848 231 62 54 55
330 843 234 62 53 54
335 844 236 60 52 53
302 801 308 168 123 102
336 848 234 57 49 50
325 858 230 71 60 59
322 860 228 71 62 61
334 895 303 38 36 35
324 862 231 69 61 60
327 860 234 72 63 61
335 853 235 58 51 53
330 858 235 62 55 56
350 838 239 64 53 53
334 857 234 55 49 51
335 858 240 58 52 53
334 862 242 58 53 53
340 838 230 61 52 51
340 839 239 65 57 56
345 838 239 66 56 56
340 843 231 58 48 49
345 848 227 58 54 54
348 845 228 55 48 46
345 843 241 60 51 53
349 863 241 71 57 51
340 850 243 49 42 43
350 898 275 101 95 108
340 858 243 50 44 45
341 863 241 54 45 47
290 843 301 133 106 83
284 976 300 73 69 69
345 858 241 55 47 46
422 872 253 94 81 74
322 865 233 69 61 61
322 870 238 64 57 58
324 873 241 66 59 59
327 870 243 56 50 54
321 880 243 62 55 56
335 873 243 62 52 51
335 879 243 75 63 61
470 894 265 78 66 59
325 887 246 66 59 60
326 889 249 67 60 61
325 894 254 70 62 62
335 882 246 73 61 60
330 889 250 70 60 60
325 891 335 38 36 36
336 884 248 74 62 60
329 891 252 69 62 61
332 890 253 72 61 59
360 903 290 69 58 52
340 868 241 64 54 53
340 873 242 74 62 58
303 946 267 78 71 71
340 878 245 76 62 60
348 866 242 63 52 48
350 868 250 65 52 49
349 873 250 72 58 55
352 869 253 69 55 51
350 874 254 73 59 56
350 878 256 72 59 56
353 836 237 64 54 53
355 838 239 65 54 51
360 838 240 80 63 58
360 843 245 79 61 56
365 835 292 130 91 74
490 864 275 86 75 64
357 848 244 82 65 59
362 840 244 80 61 56
367 839 253 77 62 57
365 848 255 66 52 49
354 853 242 77 61 55
356 853 245 80 62 56
353 856 242 77 61 52
355 858 245 73 56 51
353 862 246 65 51 48
358 856 247 80 63 55
355 863 250 68 53 49
359 858 251 72 56 49
362 853 254 63 51 47
362 850 253 59 46 46
361 863 255 80 62 55
371 834 254 71 55 50
368 836 251 73 60 54
369 838 255 72 59 54
358 866 252 71 57 52
360 868 255 73 58 54
360 873 256 67 55 52
356 880 252 69 57 56
355 883 255 67 57 54
355 881 252 69 57 54
263 902 224 85 77 74
265 908 220 88 78 75
265 914 224 88 75 74
270 898 215 93 81 77
375 878 360 67 54 50
272 898 212 89 75 69
271 902 211 86 73 69
266 898 220 93 83 80
264 898 225 64 59 59
270 911 221 94 82 82
270 914 225 96 84 84
275 898 211 82 67 65
276 897 214 93 78 76
281 943 356 64 57 56
279 902 215 87 78 79
280 903 220 81 73 74
310 954 315 63 55 50
275 908 220 91 81 83
275 913 225 92 82 82
300 953 330 53 48 45
279 907 221 83 75 76
280 912 226 85 76 77
284 897 217 83 73 72
285 904 224 77 69 71
282 905 223 81 71 73
262 898 227 58 53 54
262 898 230 56 51 52
261 903 230 59 55 56
342 894 310 38 36 36
344 922 333 52 46 42
261 898 235 53 49 50
259 908 230 72 66 67
261 913 225 90 79 76
257 905 236 56 52 51
258 901 245 46 41 46
460 919 335 90 81 74
257 900 252 58 50 53
259 919 230 85 75 73
261 917 226 84 74 72
265 922 231 93 83 83
257 927 237 90 77 75
265 928 236 93 84 85
270 915 228 93 82 81
270 916 227 95 84 83
360 896 276 121 111 101
270 919 229 96 84 84
270 928 235 105 95 95
285 908 226 79 71 71
283 912 227 82 72 73
286 910 228 81 71 72
351 880 337 52 45 41
270 948 255 93 88 91
275 919 228 95 83 81
281 914 228 85 76 77
275 928 231 100 90 89
280 923 227 93 83 82
279 922 228 94 85 84
280 929 229 94 82 81
272 926 232 107 96 97
295 968 295 78 74 76
286 915 233 87 77 76
286 918 234 94 83 82
283 920 227 94 82 79
286 922 230 96 85 85
343 892 310 40 38 37
286 926 226 85 74 72
287 922 234 97 88 88
309 957 291 71 65 66
260 933 240 84 76 75
265 930 238 93 84 83
265 933 240 92 82 81
271 931 236 108 99 100
259 935 244 84 74 75
265 938 245 90 80 80
266 942 247 93 84 85
270 942 246 100 93 96
260 946 252 89 81 82
260 948 254 96 87 89
280 931 231 95 83 80
277 792 303 49 42 43
274 929 234 103 92 92
275 933 235 109 99 97
282 935 240 100 95 97
276 936 237 119 108 114
280 937 240 97 91 92
285 933 240 89 84 85
275 942 246 103 98 101
280 944 254 94 89 92
337 890 383 76 61 50
285 940 249 86 81 82
285 942 251 87 81 83
285 944 254 88 82 84
447 825 377 65 52 38
281 893 332 68 57 45
277 945 253 90 86 87
280 947 256 94 89 91
290 924 225 98 93 97
290 928 225 89 83 84
291 927 222 96 90 92
293 928 224 98 94 97
296 898 235 74 69 71
294 903 235 79 73 73
292 909 233 83 76 76
295 968 300 68 63 64
296 908 240 72 65 67
295 913 240 77 70 71
301 898 237 67 61 64
297 903 240 75 68 70
366 879 275 69 56 51
306 898 238 63 57 58
300 903 240 65 59 61
307 925 375 63 57 56
305 903 240 66 60 63
299 904 244 66 59 62
297 907 244 74 66 71
333 931 305 75 63 58
411 782 263 70 52 40
300 908 245 72 66 68
303 906 242 66 59 63
260 793 295 68 56 51
292 915 238 84 76 77
336 899 264 72 61 61
294 918 241 81 74 75
289 928 229 90 83 84
291 928 240 87 81 82
320 928 280 83 73 71
293 928 242 82 75 76
295 928 245 82 76 77
297 914 243 82 78 81
300 918 246 83 78 80
385 828 260 69 51 44
302 918 248 82 76 78
303 918 250 84 78 80
299 928 250 84 78 80
304 923 255 82 77 79
302 925 253 82 76 77
303 927 256 76 71 72
306 904 245 69 64 66
311 898 245 67 62 63
275 808 296 189 139 118
312 899 249 66 61 62
306 913 255 81 75 77
460 844 365 98 75 53
309 907 251 70 65 67
309 912 256 72 66 68
314 897 250 64 59 60
305 918 255 83 77 80
291 934 244 81 75 75
389 802 247 79 58 48
293 931 242 80 76 78
294 932 246 81 76 78
296 933 250 85 79 80
261 777 303 74 60 55
290 937 245 84 78 78
290 939 250 83 77 77
265 962 335 65 60 59
294 937 251 81 75 76
299 933 255 79 73 75
298 937 256 75 69 72
390 773 235 71 54 44
387 780 238 75 55 44
396 773 239 62 50 42
398 772 242 57 47 41
400 773 250 77 57 48
398 778 245 62 50 44
397 784 249 68 52 45
425 918 282 112 96 86
391 788 243 69 51 42
388 792 242 78 55 43
396 863 384 85 67 56
390 798 245 74 56 47
396 793 250 80 62 56
400 788 255 82 59 47
397 790 253 84 63 54
397 793 253 85 63 56
400 793 254 73 53 45
393 796 247 79 60 50
392 799 248 80 60 51
401 773 255 97 70 53
394 802 252 83 62 53
326 887 302 35 34 35
395 808 255 79 57 48
400 803 254 56 45 41
415 847 256 63 50 43
303 961 305 65 62 63
421 865 247 80 65 59
420 865 250 85 71 65
318 941 323 57 51 48
421 868 251 85 68 59
419 865 254 98 83 74
424 868 250 82 69 65
455 919 256 102 87 78
494 925 256 100 83 67
495 928 256 101 85 69
486 934 251 107 92 79
316 894 369 45 40 38
338 926 301 86 76 72
486 934 255 109 91 74
489 933 254 111 93 76
414 910 277 89 71 55
496 931 254 100 86 73
491 944 246 124 105 86
490 938 250 117 99 82
493 942 248 135 112 89
493 942 253 143 116 89
360 857 360 49 41 37
485 959 256 106 88 68
494 948 246 118 99 80
496 954 255 95 82 71
499 928 255 101 86 71
500 931 253 98 84 72
497 933 252 97 86 77
504 935 252 99 84 71
345 904 401 86 68 55
501 937 248 100 85 71
503 936 250 100 85 71
497 952 251 92 81 72
495 958 256 95 80 64
331 894 379 62 51 42
380 793 309 171 128 99
420 919 320 83 71 63
505 959 254 96 81 68
439 855 383 78 65 54
386 835 286 119 74 62
505 962 255 100 81 60
510 963 256 98 82 64
266 781 303 73 60 55
269 784 302 71 59 53
270 772 308 71 60 55
260 788 296 71 58 53
401 808 295 180 123 97
258 785 297 72 59 54
265 793 297 63 52 49
260 798 294 54 45 43
258 799 292 58 48 46
266 792 298 65 54 51
275 773 309 73 60 55
280 773 310 72 60 55
279 779 307 73 60 56
301 954 326 56 52 50
280 778 308 73 60 55
285 773 311 73 60 55
287 772 313 76 61 55
284 784 307 72 59 54
360 908 285 64 54 52
404 879 273 52 42 34
350 924 310 65 58 56
282 781 308 71 59 55
286 783 308 72 60 55
274 789 302 68 56 52
280 793 304 68 57 55
280 798 301 179 137 115
354 877 258 62 51 49
285 798 304 179 137 116
285 788 306 68 56 52
287 787 308 73 60 55
410 863 269 59 49 43
259 815 287 179 127 109
259 823 281 172 127 102
258 820 282 176 128 106
263 819 287 178 130 108
258 832 277 166 123 95
261 828 285 162 123 96
261 802 293 103 82 74
265 803 295 160 122 105
266 808 293 176 129 109
260 813 289 179 128 110
267 811 293 182 131 112
265 833 290 155 121 95
270 828 291 159 125 98
268 831 292 156 123 98
270 833 295 140 111 85
275 802 298 182 136 115
274 804 297 184 138 116
372 891 267 77 61 57
280 803 299 188 140 117
280 809 297 188 136 117
281 806 298 190 139 119
280 813 295 183 130 111
287 811 298 190 141 123
274 823 292 164 128 103
280 818 294 178 132 111
471 936 276 82 70 63
280 823 293 163 127 103
273 826 292 157 124 98
275 832 296 141 111 87
280 828 295 150 117 94
303 889 313 35 33 32
279 831 297 148 116 92
285 818 295 180 137 114
285 823 295 162 125 101
289 774 312 75 61 55
290 778 311 72 60 54
290 783 310 68 58 55
296 781 313 67 57 53
299 774 317 69 58 54
510 968 260 105 88 73
301 782 313 68 57 54
306 776 318 69 59 54
305 783 315 69 57 54
289 793 307 75 65 62
295 788 310 66 55 53
300 788 311 65 56 53
300 793 310 54 47 46
304 790 312 67 56 53
305 798 309 62 52 50
310 780 317 69 58 54
315 773 320 71 60 55
315 778 319 72 60 56
315 780 317 71 60 54
315 783 316 70 58 54
320 783 316 72 60 54
310 788 314 68 57 53
310 798 310 52 45 45
320 791 313 67 55 52
320 798 310 64 54 49
290 802 303 185 139 118
290 804 302 188 142 120
296 807 303 175 129 107
325 889 365 41 37 36
295 813 299 178 133 110
293 815 297 178 134 110
299 809 302 177 131 110
300 813 301 174 127 106
296 817 298 172 127 105
279 893 334 74 62 49
290 827 297 155 119 95
290 830 298 153 119 95
295 828 296 152 115 94
300 820 297 162 118 97
300 823 296 158 119 99
305 823 296 154 117 96
369 903 274 70 60 59
300 833 295 140 112 91
305 828 294 150 118 98
309 815 302 166 121 98
310 805 307 153 122 100
316 806 308 44 35 37
320 803 309 59 50 46
320 808 306 46 40 41
310 821 298 145 104 84
379 899 329 53 44 45
310 828 294 146 114 95
315 828 294 137 105 88
315 833 291 130 102 85
365 778 314 174 123 96
316 830 292 135 106 89
256 843 265 182 130 99
256 843 270 169 121 94
256 848 270 167 120 92
257 838 280 162 121 93
257 840 284 149 112 85
258 837 281 160 120 93
256 843 275 166 124 95
256 843 280 156 117 89
258 841 287 140 107 82
260 853 260 180 128 95
295 899 355 38 34 34
263 855 258 177 126 94
259 858 264 164 118 88
262 857 262 164 119 89
257 858 266 160 117 85
257 863 267 151 114 84
263 837 292 143 112 87
257 844 289 98 77 57
259 843 290 103 82 62
258 846 292 72 60 48
380 895 310 70 60 51
258 846 296 75 62 49
262 840 293 112 88 66
259 846 300 79 65 50
261 845 300 81 67 52
265 842 300 95 78 59
262 845 303 81 66 51
266 834 293 146 115 89
269 837 297 126 100 76
266 840 299 107 87 65
269 841 302 120 98 74
270 843 304 122 99 76
356 889 379 96 82 69
264 846 306 98 80 62
265 848 310 109 89 67
420 863 265 75 58 48
264 850 314 111 89 65
263 850 318 111 87 60
271 852 311 119 95 71
270 853 315 116 92 67
382 810 307 161 120 95
269 854 319 115 91 65
280 838 301 149 117 92
275 840 303 141 112 87
285 838 301 148 116 92
286 842 302 141 112 88
284 844 303 138 110 87
275 847 307 129 103 77
265 927 361 41 38 39
274 849 308 124 99 73
281 852 307 121 97 75
279 854 309 120 96 72
280 858 311 118 94 71
281 863 315 118 93 70
285 853 306 117 95 74
282 861 312 113 91 69
260 868 265 138 106 77
268 865 258 139 104 78
269 873 258 116 91 70
269 877 258 98 78 62
259 883 263 102 82 63
259 888 260 78 66 56
345 808 305 60 51 46
267 880 257 74 61 50
287 872 311 87 72 58
284 868 315 106 85 65
286 873 315 91 75 58
285 878 320 84 69 54
316 843 287 87 68 51
380 873 380 84 70 62
321 848 281 55 42 32
382 851 373 60 49 43
320 858 285 30 28 29
290 838 300 142 112 89
294 838 298 134 107 85
296 838 297 130 104 83
291 848 302 122 98 77
355 883 294 47 41 37
304 838 293 126 102 82
435 904 288 66 54 44
304 843 293 109 89 70
298 848 298 101 83 65
293 855 303 101 83 66
299 853 298 88 73 58
299 858 299 78 65 52
300 863 299 67 57 46
297 862 302 74 63 52
291 862 307 87 73 59
306 838 292 122 98 79
310 838 290 119 95 76
370 878 290 62 53 48
310 848 290 87 70 53
315 838 289 113 89 70
314 843 288 96 76 57
313 848 288 79 64 47
326 905 268 77 67 65
306 858 292 66 54 41
309 858 290 55 46 37
390 863 383 91 72 56
313 852 288 67 54 41
320 860 288 32 30 29
473 942 284 100 85 73
295 868 305 70 60 50
298 865 303 69 58 48
300 868 300 60 51 43
298 868 303 63 54 46
302 868 297 55 47 39
302 872 297 51 44 38
305 873 295 39 35 32
303 875 304 49 43 38
289 868 309 83 70 56
295 873 306 63 54 46
293 874 309 64 55 47
375 814 307 158 118 94
296 877 307 59 51 45
289 880 319 74 62 51
300 877 307 52 46 40
290 882 320 68 58 48
295 883 314 60 52 46
330 912 385 67 58 51
296 887 316 59 52 46
296 887 320 61 53 46
300 883 311 48 43 39
305 883 309 35 33 32
301 886 312 43 39 36
299 889 320 51 45 39
301 891 316 36 35 34
301 891 320 38 36 35
305 894 320 33 31 32
310 872 296 32 30 31
306 877 301 37 33 32
310 878 301 34 32 33
309 880 303 34 32 32
314 866 292 31 29 30
355 827 299 112 86 70
265 948 364 73 67 64
315 872 297 33 32 33
315 878 299 34 33 34
319 874 298 36 34 35
310 883 305 32 31 32
315 882 301 35 34 35
311 886 307 33 32 33
308 885 308 31 30 31
306 891 312 32 30 30
310 891 312 34 33 33
310 894 320 34 32 32
315 887 306 32 32 34
345 818 301 55 46 44
315 889 309 32 32 33
320 888 305 33 33 35
316 891 312 34 33 34
315 892 315 33 33 33
320 893 320 31 31 32
260 853 325 129 104 76
260 855 328 140 112 82
266 856 326 128 103 75
260 863 334 146 118 89
266 862 331 138 111 82
269 860 328 132 105 77
300 953 270 82 75 76
270 863 330 133 107 79
273 859 324 122 97 70
274 864 329 131 104 77
271 867 332 137 109 81
260 867 337 145 116 84
264 870 338 147 116 85
258 875 343 140 111 82
260 878 344 147 115 88
327 917 356 54 48 46
262 877 342 145 114 87
268 875 338 145 115 89
271 878 336 138 108 86
269 878 338 141 110 88
263 880 343 145 113 88
266 883 341 140 107 85
272 883 337 132 103 81
270 888 339 129 99 78
270 893 341 122 93 74
330 864 289 33 31 31
275 868 330 132 105 80
273 870 333 138 110 83
340 924 300 83 73 68
330 856 282 30 29 29
278 870 328 127 101 77
279 878 330 113 90 69
282 871 322 111 88 67
275 888 336 110 88 68
280 888 331 85 70 54
284 889 328 77 63 49
286 892 327 74 60 47
272 886 337 126 98 76
290 888 325 97 78 64
294 885 323 62 54 46
315 928 360 52 46 42
290 893 326 93 73 57
288 895 328 77 64 52
405 916 280 79 65 63
299 889 324 56 47 38
316 895 335 41 38 38
320 893 330 35 34 34
311 895 346 36 34 34
420 836 376 58 47 35
310 894 350 35 32 34
315 894 340 36 34 34
312 895 342 37 35 35
315 894 345 36 34 34
315 893 350 35 34 35
311 894 364 41 37 36
317 890 364 39 36 35
325 781 318 74 61 57
325 788 314 70 57 53
325 798 310 65 54 50
330 791 313 69 57 53
335 788 314 71 59 54
335 791 313 70 58 53
335 798 310 67 56 51
340 773 320 78 65 58
345 773 320 77 63 57
340 777 318 76 62 56
345 780 317 74 60 55
345 783 316 72 59 54
350 773 319 78 62 55
350 777 318 76 61 55
350 783 316 69 57 52
340 794 312 68 56 52
340 798 310 65 54 50
350 788 314 63 53 49
330 813 304 64 53 48
335 813 304 61 51 47
304 947 329 52 48 46
334 815 302 61 51 47
330 805 307 66 55 49
330 808 306 66 54 49
325 819 302 45 38 39
325 828 295 69 54 49
325 833 290 94 73 61
324 826 298 90 70 61
330 818 301 61 50 46
330 823 299 57 48 44
335 833 291 41 35 34
331 825 297 57 48 44
335 825 297 55 47 43
