ply
format ascii 1.0
comment Created by Open3D
element vertex 2225
property double x
property double y
property double z
property uchar red
property uchar green
property uchar blue
end_header
506 876 310 93 73 59
248 474 270 132 95 75
276 804 275 56 50 48
386 364 226 93 82 70
325 324 256 73 56 36
307 43 221 129 96 77
316 454 263 145 16 45
336 164 197 109 88 65
292 214 198 117 95 72
436 895 326 41 38 36
249 418 234 94 33 43
359 64 176 93 32 34
248 416 218 124 36 44
438 514 314 161 116 85
425 426 237 92 73 65
431 522 89 67 37 43
326 489 97 60 35 40
316 184 183 129 100 64
352 64 155 104 34 28
436 684 277 89 66 45
355 469 292 119 14 41
254 479 215 82 29 35
349 346 289 138 96 76
281 644 246 69 24 26
437 689 262 119 88 77
481 524 127 89 35 43
333 70 154 143 26 35
388 798 305 66 54 49
377 74 228 142 11 42
253 432 218 164 3 44
249 698 220 127 95 59
441 469 82 94 69 48
301 744 291 69 57 52
431 434 262 78 35 36
362 214 243 109 88 64
412 589 306 158 111 91
474 821 278 93 76 60
386 374 292 127 99 65
361 440 77 82 64 50
306 734 295 57 30 34
316 36 179 99 84 68
321 719 185 76 30 37
246 634 232 151 108 76
292 263 199 136 100 65
329 145 210 85 71 56
310 473 156 43 33 32
239 712 231 140 100 68
288 710 199 72 31 33
391 694 187 57 45 38
410 448 340 35 28 28
287 209 212 111 91 70
332 324 247 75 59 41
316 619 278 122 25 44
336 754 191 88 29 37
398 374 278 132 102 68
311 604 278 137 25 49
250 425 217 141 26 46
351 394 242 79 66 54
332 299 232 80 68 56
251 419 236 92 28 37
396 494 322 37 24 27
300 329 275 124 86 68
346 54 253 112 42 43
326 169 183 131 100 61
306 424 171 64 57 54
416 443 137 92 76 59
392 134 252 113 91 67
337 54 212 70 47 40
343 892 329 153 115 90
300 159 197 113 93 71
366 784 301 67 57 55
427 429 322 131 15 44
367 792 300 67 58 56
359 178 269 119 95 70
291 874 307 138 96 85
251 424 212 157 18 49
308 57 184 152 9 46
282 754 198 140 72 57
339 389 267 109 72 58
294 340 274 142 100 77
280 304 221 128 99 66
334 189 193 111 89 63
253 423 209 132 15 39
386 49 237 117 103 91
389 914 262 68 60 61
406 599 187 69 35 42
386 841 279 35 32 33
355 79 157 124 28 42
252 429 217 138 14 43
321 589 283 127 20 42
286 439 173 51 34 37
416 619 312 172 125 98
428 663 275 108 79 52
253 503 218 81 35 41
436 819 277 56 44 38
335 39 192 79 68 57
301 774 195 84 65 56
335 229 212 97 79 59
311 585 150 140 23 45
248 460 261 107 76 60
357 214 272 121 96 70
304 36 224 114 14 33
315 43 175 101 38 28
403 655 225 147 25 46
456 502 69 244 18 55
257 429 207 159 5 41
471 484 267 121 2 35
381 104 236 134 20 35
316 564 138 64 35 39
293 962 320 65 62 63
371 189 282 121 98 73
396 879 296 40 37 36
293 32 220 162 17 59
347 764 187 62 48 44
254 431 216 162 2 47
307 59 187 142 83 74
425 649 273 116 85 59
302 29 188 96 54 45
378 503 315 83 31 39
295 17 250 145 105 84
330 279 237 81 70 59
393 52 254 83 59 29
455 798 267 93 72 59
251 429 222 143 21 46
401 499 72 190 10 42
321 180 225 86 71 54
401 874 295 42 38 36
411 908 333 50 45 43
392 189 273 119 95 68
296 24 192 130 23 35
256 439 222 124 10 39
336 977 273 61 57 57
246 559 252 152 112 85
331 859 232 52 46 47
335 98 210 97 37 44
425 624 273 128 88 64
311 254 247 114 90 63
333 157 209 87 73 59
239 468 253 118 93 72
362 439 300 32 29 30
316 169 222 91 74 56
380 79 270 107 54 50
247 465 233 82 62 42
316 734 188 149 5 38
306 11 197 98 74 63
362 284 239 85 73 60
341 549 288 145 23 51
349 592 294 51 25 29
255 434 212 156 3 40
425 593 203 56 31 38
331 94 162 138 24 40
254 434 217 153 1 40
316 528 119 158 8 38
381 134 242 120 90 53
495 434 255 68 27 31
440 897 301 42 37 36
371 454 65 89 43 43
371 354 232 87 76 65
405 587 173 200 14 48
404 269 253 113 89 59
255 439 212 152 11 43
267 384 252 127 97 69
311 23 186 109 93 75
316 949 246 86 79 82
464 522 109 229 17 52
416 470 62 100 78 55
246 469 233 126 89 73
443 462 308 112 82 55
315 64 177 140 30 48
338 379 270 117 77 61
349 754 181 57 45 40
321 129 214 91 72 50
416 459 317 52 26 29
244 462 240 93 79 64
421 489 57 155 9 38
309 117 202 106 88 68
253 474 217 41 31 34
313 89 206 108 49 49
266 779 274 162 123 88
411 804 221 74 56 49
326 512 109 178 4 41
349 454 284 106 15 40
381 46 243 120 104 87
381 855 281 42 38 36
388 697 304 30 27 28
255 439 217 141 2 37
341 504 103 68 33 34
417 926 322 86 74 71
256 674 219 135 99 63
394 180 270 117 93 65
305 408 270 118 23 44
508 516 177 210 18 56
348 324 290 134 92 74
338 339 262 81 65 48
343 63 258 116 41 47
246 479 241 89 56 52
320 52 225 101 15 34
446 867 260 97 87 81
442 541 130 188 9 46
404 224 252 115 92 65
291 13 212 135 89 88
247 508 244 180 130 116
371 159 243 114 86 50
264 403 247 123 96 69
295 169 207 112 94 75
315 889 251 65 56 53
324 883 240 42 39 43
338 116 188 114 89 60
368 74 274 119 47 54
255 449 217 45 30 33
356 54 245 100 33 35
371 854 206 59 55 57
336 434 268 100 19 37
360 638 184 47 30 37
250 474 232 83 36 41
286 409 277 117 27 44
301 959 267 80 75 77
301 28 232 148 59 69
253 433 222 167 8 47
403 85 242 139 22 55
279 288 226 118 94 67
352 69 184 93 21 36
366 559 127 110 33 44
356 649 187 122 18 37
314 49 175 141 30 42
491 454 157 120 33 37
371 194 238 100 81 60
436 854 265 78 67 61
331 214 227 86 72 56
340 414 272 139 9 42
342 468 84 164 8 40
308 459 98 52 30 37
249 654 230 161 110 83
256 444 212 106 21 37
351 573 134 78 34 40
478 875 287 55 48 41
271 499 177 142 0 34
394 791 199 66 55 52
240 494 258 174 123 106
324 24 230 65 33 33
386 693 303 54 21 28
325 944 344 55 51 52
321 134 214 91 72 51
350 36 284 128 17 46
336 844 301 149 119 92
517 496 107 115 30 43
244 659 247 152 108 79
399 350 243 92 80 69
314 902 225 54 50 51
348 423 209 88 74 60
382 49 273 124 14 45
306 399 268 139 99 79
362 904 312 94 70 57
502 472 121 108 61 45
331 844 302 146 119 93
362 93 275 111 13 40
398 57 225 98 38 26
334 124 201 94 75 55
245 419 227 98 41 43
248 489 238 63 33 31
306 154 218 103 84 65
437 706 207 72 52 44
255 419 238 61 28 32
268 424 184 133 9 36
243 599 247 151 110 79
247 424 231 81 30 37
492 452 165 92 30 26
374 842 185 88 76 68
246 419 232 87 38 39
376 574 142 184 20 45
468 901 286 96 73 65
396 174 247 106 87 67
285 269 206 141 103 71
336 519 273 115 2 35
301 19 246 156 107 95
348 316 244 142 109 94
252 424 236 77 25 33
371 419 304 105 17 37
348 52 167 79 35 23
376 204 236 96 80 63
280 664 212 65 30 34
407 442 131 92 76 58
247 739 260 160 114 86
312 464 92 105 25 39
430 841 270 58 46 37
272 822 224 200 140 109
256 424 237 58 26 31
248 427 227 100 24 39
338 334 257 80 65 49
326 724 296 134 18 44
346 24 262 91 64 51
306 830 227 93 73 63
344 11 296 132 67 82
233 741 240 156 105 75
335 555 130 55 30 38
339 796 205 65 51 47
328 444 135 67 28 38
316 54 172 119 30 35
451 437 191 64 48 45
337 204 217 92 76 58
316 834 225 75 57 52
345 490 95 130 16 34
502 506 111 70 39 40
365 219 241 101 81 58
456 739 258 64 45 38
253 459 212 53 33 35
506 884 317 97 78 61
434 549 315 173 120 92
366 31 254 86 72 57
362 459 300 65 28 34
351 464 287 37 28 31
253 479 227 100 20 33
351 274 257 90 74 55
250 429 227 118 24 41
335 39 202 66 27 26
444 710 215 68 53 40
391 429 308 61 26 32
361 40 249 64 28 24
263 440 188 50 31 34
245 459 252 121 96 75
375 804 187 67 54 49
237 478 238 175 120 108
255 464 227 53 33 34
376 409 302 101 72 53
441 589 217 204 18 52
336 189 197 106 86 65
410 464 311 44 26 28
366 109 246 127 87 61
437 815 283 78 50 38
411 504 322 50 27 28
338 320 275 107 73 51
243 498 260 171 124 105
399 426 184 97 81 64
308 586 150 78 23 36
350 46 159 109 25 24
318 99 174 115 47 42
362 551 120 201 12 42
374 348 235 91 79 67
249 500 236 66 33 34
268 543 184 154 5 41
493 525 222 132 33 47
380 654 285 68 22 35
320 244 240 102 82 59
326 44 222 85 69 54
388 148 269 116 92 64
248 427 230 82 30 38
253 650 219 137 98 70
245 494 263 164 118 99
356 389 207 78 67 55
293 184 203 119 97 72
413 664 252 69 29 34
316 432 102 122 29 27
259 524 236 114 9 33
251 429 232 117 19 41
356 969 297 63 58 57
402 399 231 93 80 67
372 564 306 103 16 35
312 114 188 120 97 73
381 426 168 94 79 63
396 234 241 102 85 66
253 479 217 64 32 35
483 487 75 118 28 26
327 99 168 101 59 44
327 229 191 125 95 60
511 450 177 92 33 29
286 754 283 78 65 58
350 29 161 91 18 27
471 905 322 93 73 61
336 159 202 97 79 59
253 428 235 111 21 38
256 429 236 126 11 41
426 839 258 88 72 63
243 617 245 159 113 83
236 484 242 170 119 105
387 733 180 62 50 46
413 497 64 143 0 41
320 409 265 139 17 45
451 459 117 103 64 46
361 49 281 127 41 55
476 437 201 60 41 40
239 463 247 124 97 76
257 564 215 149 11 44
496 498 82 232 25 59
471 445 172 77 36 37
352 299 247 94 76 58
370 895 307 84 63 51
254 430 234 131 8 40
300 159 212 108 90 71
449 783 289 138 89 58
348 46 159 111 26 23
359 512 298 69 22 30
342 578 138 131 25 44
340 53 161 108 82 48
355 480 86 178 7 39
257 419 241 65 26 33
362 129 253 112 86 57
246 814 269 202 146 122
311 109 192 116 95 72
253 433 227 140 14 43
407 730 201 65 44 39
326 431 112 101 34 34
254 436 227 150 8 44
353 504 285 142 11 44
491 468 122 105 48 40
290 30 217 153 50 65
338 324 277 115 76 56
376 613 173 121 27 44
291 379 272 150 108 84
364 862 204 63 57 59
253 433 231 141 14 44
328 394 263 60 49 38
395 189 243 105 87 68
494 507 245 156 28 57
336 49 212 82 33 35
336 194 197 106 87 65
376 359 291 125 99 66
353 84 249 125 23 45
361 609 168 114 28 42
396 424 192 97 81 64
293 494 121 130 1 39
255 454 207 40 31 35
397 907 300 37 35 36
366 79 241 131 17 34
391 563 128 120 36 49
447 709 273 66 48 40
304 39 185 129 43 45
481 434 212 60 42 40
367 219 239 97 78 55
371 209 284 125 101 74
421 844 278 48 42 38
355 99 268 122 99 74
378 442 92 92 75 57
291 29 202 140 69 65
323 880 212 46 43 42
255 435 233 149 7 45
254 504 212 136 12 41
409 519 321 92 28 38
332 354 217 80 70 60
364 66 240 135 12 42
349 61 185 85 38 40
416 434 342 120 27 47
257 438 227 139 9 42
336 978 277 73 69 69
300 598 154 143 34 49
342 324 247 124 88 76
316 119 212 101 82 60
501 523 167 209 21 57
322 84 168 122 45 46
354 381 214 82 70 59
355 244 252 92 75 55
283 571 169 39 30 30
455 769 262 63 50 40
427 860 272 57 49 44
310 11 198 86 71 59
319 872 255 107 83 61
313 901 228 52 49 50
436 430 257 82 34 40
432 893 258 81 74 70
242 472 234 158 110 93
298 440 110 50 21 24
376 739 161 73 54 41
292 23 236 142 96 75
256 454 202 37 33 38
302 49 192 141 47 60
499 522 206 182 18 51
345 108 181 118 56 55
290 448 170 100 29 33
381 929 348 63 59 58
255 459 202 71 32 36
426 460 92 95 75 51
320 15 232 75 31 34
345 74 197 92 23 35
426 913 292 74 63 61
325 239 236 80 66 51
284 249 238 117 95 70
267 411 208 111 85 72
359 199 274 123 99 74
254 459 207 55 34 36
346 378 211 75 65 54
376 713 163 78 59 46
365 189 279 118 96 73
336 734 302 68 48 46
281 384 267 135 101 76
335 219 222 92 75 57
391 445 97 93 76 58
413 579 306 154 106 89
287 209 217 111 91 70
255 464 202 98 28 42
273 630 213 97 35 42
301 15 188 114 67 46
366 54 242 92 29 29
447 745 254 56 44 41
394 104 256 117 23 44
251 599 227 134 103 70
261 769 212 106 79 46
421 474 313 81 65 47
337 463 84 165 3 37
253 464 208 118 30 42
306 639 272 152 13 48
326 29 192 105 90 74
472 879 263 79 61 48
352 419 292 143 4 41
309 65 190 118 21 39
366 339 230 80 70 60
303 159 194 115 94 71
247 679 227 139 99 68
254 464 206 103 28 42
446 713 254 107 82 63
399 304 267 120 92 62
284 483 165 106 31 39
304 139 196 109 90 70
384 824 204 53 48 50
314 250 245 115 92 65
500 454 251 151 14 48
355 59 162 95 31 32
461 888 322 56 46 37
411 458 82 97 79 57
376 719 316 47 30 32
404 448 333 100 21 36
255 454 212 49 32 32
306 469 117 68 19 30
308 184 184 129 102 68
406 449 337 81 25 35
255 454 217 47 29 30
419 458 319 51 24 24
456 489 56 203 12 43
300 44 207 138 90 72
257 449 222 39 29 30
298 929 243 72 65 64
291 239 242 111 91 68
376 249 286 132 103 68
373 686 159 89 59 45
405 229 267 119 93 63
280 589 162 126 11 36
416 424 237 121 105 91
305 164 191 118 96 72
356 239 257 100 80 59
263 405 232 99 81 62
241 719 222 135 97 67
313 47 225 118 91 72
324 44 225 92 70 55
256 454 222 54 27 31
399 309 270 123 94 64
396 859 286 43 39 37
304 134 202 108 89 70
302 12 244 106 60 49
331 84 214 85 62 46
249 486 269 167 120 99
287 874 297 154 121 90
295 15 250 119 83 61
265 408 267 108 27 35
306 129 197 108 90 71
240 774 263 153 113 81
288 16 204 115 77 69
337 563 134 176 15 44
256 459 267 124 89 72
405 64 232 91 35 34
253 459 217 77 29 35
431 704 308 164 108 76
356 389 237 88 74 59
291 11 246 131 49 58
281 644 202 127 27 46
391 209 277 119 94 66
331 69 156 138 31 35
321 369 202 95 84 72
288 939 263 70 65 65
238 715 229 140 99 67
253 484 217 76 30 34
290 899 281 158 118 93
288 11 245 138 42 60
286 594 256 136 19 45
436 474 319 169 119 100
362 199 243 110 89 66
448 722 224 64 51 43
346 614 291 66 28 34
336 164 202 99 81 62
254 457 217 90 24 33
317 28 185 108 92 74
341 364 242 101 77 65
316 953 340 65 60 59
299 468 113 127 2 38
410 499 326 147 26 50
402 437 146 91 75 59
326 20 292 160 116 98
404 902 274 66 58 58
321 566 140 74 23 39
276 779 203 160 111 75
321 20 287 162 116 102
253 461 209 40 28 30
454 892 324 45 38 32
286 389 271 137 102 78
341 422 165 93 78 61
253 464 212 85 32 39
251 499 267 169 121 100
301 604 271 71 24 35
376 94 238 129 22 35
347 454 282 136 7 41
370 139 246 120 92 58
291 419 172 118 62 48
316 224 238 104 83 60
247 455 252 111 90 70
294 300 210 130 97 64
248 455 256 104 82 62
355 504 287 141 11 43
486 502 83 109 33 44
331 749 190 134 19 39
371 169 279 119 96 70
321 11 297 134 32 51
252 464 217 38 30 32
253 460 221 84 27 35
331 598 154 190 10 42
311 889 337 149 114 95
371 104 241 132 23 36
315 160 220 91 74 55
420 621 314 174 126 99
308 32 230 152 20 60
346 608 159 201 17 48
288 283 209 144 103 74
244 604 252 154 110 83
416 614 312 169 124 97
391 789 308 48 42 41
397 334 247 97 82 67
328 28 202 70 34 32
238 493 256 173 122 107
431 519 321 162 115 85
371 75 237 134 56 61
341 604 156 210 14 45
343 65 202 88 58 51
348 105 172 125 20 44
371 394 299 134 102 73
359 134 262 116 92 66
302 43 216 114 70 57
284 21 228 156 111 86
276 529 172 63 34 38
426 608 222 75 33 38
344 902 214 78 69 69
302 484 107 85 24 33
245 479 268 151 106 84
291 413 187 100 87 74
288 890 320 143 105 85
345 499 278 138 7 41
252 484 222 78 26 33
346 69 152 120 29 28
255 459 222 88 26 38
414 634 309 176 131 106
509 894 313 90 68 63
366 684 182 68 50 43
462 570 212 57 35 37
375 53 275 127 65 67
381 119 242 123 86 53
411 433 221 98 82 65
296 19 192 115 46 41
311 249 192 131 94 59
356 12 287 98 51 51
246 609 257 153 109 83
336 429 157 91 75 58
456 441 177 63 44 45
252 464 222 34 30 30
444 582 209 211 19 55
301 273 199 131 93 61
502 515 142 108 36 45
288 531 136 82 26 36
366 38 251 74 48 34
400 229 243 103 85 67
253 479 222 76 26 33
445 436 188 76 62 53
329 164 184 130 99 61
362 879 293 96 75 61
274 349 232 117 93 66
325 30 188 113 98 81
446 491 55 192 11 40
394 432 309 72 15 26
356 69 276 117 21 45
450 788 243 76 61 53
254 462 224 36 25 31
333 239 227 92 74 54
311 49 222 128 98 79
361 30 254 61 31 25
419 902 271 75 68 68
321 553 134 176 11 40
256 469 202 119 27 41
298 11 198 114 74 64
254 469 207 77 29 36
372 114 244 116 82 50
310 309 266 116 77 56
373 249 234 94 78 61
321 219 235 94 77 57
362 159 252 108 87 61
248 674 255 167 118 90
250 524 245 137 100 78
424 688 218 79 48 39
342 383 205 79 69 59
256 474 202 49 31 34
426 684 217 79 51 39
306 34 182 126 35 34
384 769 187 64 51 44
316 354 206 91 81 71
334 119 202 95 76 55
429 440 291 51 24 29
255 474 207 72 31 36
502 434 249 107 23 39
350 83 154 145 21 43
311 15 193 94 79 65
256 509 207 157 7 43
401 189 257 119 95 67
296 24 237 138 93 74
328 432 105 104 36 35
344 56 197 67 41 27
467 810 280 76 63 53
406 509 326 49 28 30
286 229 207 114 92 68
427 418 312 95 24 38
495 449 257 127 22 43
255 479 207 92 29 37
391 933 317 73 66 66
331 384 262 67 54 40
396 469 57 122 35 46
296 239 193 131 100 63
470 820 269 75 58 39
446 544 283 170 13 53
375 130 275 116 92 65
253 468 209 71 30 35
351 899 322 142 110 85
321 64 167 127 78 68
477 503 269 128 6 40
295 198 228 106 88 69
299 183 195 118 97 73
269 379 230 114 91 65
311 144 187 122 99 73
253 469 212 77 35 39
356 436 92 87 70 51
444 522 94 112 39 49
311 774 195 78 60 53
350 79 252 128 16 42
416 427 235 115 98 83
417 629 247 102 30 39
275 689 262 44 28 30
326 422 170 95 80 63
336 34 262 113 50 50
359 74 245 118 83 62
366 94 243 125 74 57
402 595 180 51 33 35
393 172 269 119 95 66
306 879 333 144 83 82
375 63 230 125 14 27
380 784 187 66 53 44
329 249 235 85 72 59
341 619 288 44 28 30
376 339 231 89 78 68
252 469 217 37 32 33
252 514 266 171 124 103
328 24 206 74 21 30
433 711 210 74 54 41
356 27 295 136 70 69
355 704 171 67 47 38
386 124 243 124 92 56
381 129 272 113 91 65
418 616 226 56 24 34
383 229 235 93 78 63
348 334 290 131 93 70
444 774 224 85 65 55
451 909 282 77 65 54
254 471 210 141 40 55
327 34 223 81 26 30
379 724 315 39 29 31
385 420 187 98 82 65
510 514 172 198 17 51
252 469 222 37 31 32
408 684 305 148 110 88
385 454 309 120 6 36
388 124 264 114 91 63
326 24 227 62 26 27
404 489 329 119 16 40
265 504 182 149 1 37
308 68 193 108 78 61
267 674 220 125 87 57
251 499 227 36 33 36
386 564 132 121 32 43
257 437 231 149 5 43
257 449 237 101 80 63
435 813 252 69 55 52
486 889 302 98 77 63
342 389 277 138 91 74
361 869 192 87 75 69
316 869 329 149 92 90
331 409 182 99 84 67
303 861 284 105 83 57
312 104 187 125 98 72
376 89 272 102 84 64
350 374 245 97 75 64
456 739 232 67 51 42
371 437 112 91 75 59
476 433 212 59 43 40
336 799 288 188 136 116
289 21 234 157 117 85
367 849 282 143 107 82
377 582 149 163 22 45
352 379 217 81 69 57
295 21 243 196 150 145
310 319 266 109 76 53
329 196 225 83 69 54
376 48 241 112 95 77
355 334 236 76 64 52
471 778 272 74 61 49
253 474 213 71 31 35
240 499 252 186 132 116
349 46 165 93 26 24
304 173 190 122 99 73
268 579 198 38 31 36
370 436 113 90 74 58
510 498 97 230 22 59
426 512 74 131 36 50
327 294 248 77 66 56
356 419 218 86 73 59
306 29 183 114 38 28
381 40 252 115 100 86
372 874 220 60 54 55
313 594 280 130 31 51
424 540 319 176 124 101
301 434 169 44 37 36
381 543 113 158 25 49
254 474 211 88 28 38
326 844 231 98 69 59
462 514 278 141 6 43
289 18 201 110 67 52
280 259 222 121 95 64
254 479 212 110 25 40
301 21 243 157 106 89
431 443 152 95 79 62
352 966 308 61 56 57
286 544 168 51 34 36
486 883 322 57 47 36
420 478 314 101 78 56
394 174 244 105 87 67
253 477 214 102 37 43
240 464 242 104 84 65
238 470 238 92 73 54
421 453 107 95 78 58
366 204 241 102 83 60
306 59 207 130 100 76
376 249 234 93 78 61
321 169 182 130 99 62
421 854 261 71 60 53
371 29 257 108 92 76
463 482 70 119 22 28
393 59 259 104 34 43
401 560 126 102 38 43
335 209 222 92 76 60
237 474 237 139 100 83
308 164 189 118 96 72
311 504 106 162 5 39
296 601 155 132 22 38
436 467 82 92 72 49
321 214 186 126 96 60
253 509 232 54 31 33
371 814 297 49 40 40
446 864 267 86 74 63
449 488 305 179 125 98
301 659 192 164 0 40
376 686 162 88 60 41
507 452 171 92 32 27
240 478 238 149 93 87
331 254 222 89 72 54
377 104 238 116 37 36
427 682 255 60 48 40
237 469 242 100 71 55
330 284 232 83 70 57
351 274 262 97 78 55
381 664 202 83 25 30
251 479 272 180 125 109
400 374 233 92 81 70
335 39 197 62 22 28
436 820 272 64 54 47
239 467 241 96 73 55
441 489 53 187 12 40
256 466 270 123 93 71
321 415 178 98 84 70
388 129 264 115 91 64
342 39 258 104 27 36
252 489 217 62 31 36
258 454 197 44 32 36
385 759 182 86 66 51
238 466 244 122 94 75
321 604 160 187 8 41
436 578 192 209 24 55
237 814 247 202 140 110
311 89 187 108 88 65
340 89 206 80 64 46
390 628 198 78 30 38
322 250 195 114 87 55
415 922 303 67 58 59
400 480 61 179 8 40
314 658 279 138 11 39
238 466 247 130 99 79
395 623 198 55 33 37
363 219 280 121 98 74
374 686 176 76 53 50
319 568 279 123 7 37
305 874 271 128 96 67
398 179 251 112 91 67
324 85 166 123 54 49
411 513 78 148 20 45
462 767 253 95 75 60
325 234 236 81 67 51
238 469 247 132 100 79
248 484 270 157 111 90
284 504 165 119 19 38
441 509 307 171 122 95
442 855 271 85 74 64
465 568 217 123 33 49
390 578 305 187 13 58
307 59 212 125 89 72
318 304 216 77 67 58
456 783 262 74 65 58
479 805 284 70 56 43
302 154 216 104 86 68
330 687 294 72 26 33
258 446 238 107 77 65
321 744 189 83 26 39
426 585 314 171 118 87
321 59 167 122 36 39
400 254 243 104 85 63
241 464 252 110 84 66
431 539 112 153 26 48
316 59 172 135 23 42
366 919 342 42 38 39
283 244 212 114 92 66
301 374 273 153 106 81
407 834 236 51 42 43
337 199 217 92 76 59
237 489 257 179 126 112
271 474 176 45 38 42
354 294 245 101 84 65
265 419 197 63 34 36
321 259 198 110 84 54
433 458 253 72 45 47
238 470 251 131 101 80
401 409 227 100 84 66
371 818 199 57 51 55
338 459 270 130 12 41
336 11 292 140 74 91
379 676 184 71 51 42
416 494 316 78 52 41
331 369 252 64 54 43
420 486 55 67 33 36
406 899 277 62 55 55
311 279 256 113 88 61
282 744 286 110 27 42
321 119 212 94 75 53
446 535 122 225 9 53
254 506 220 33 30 37
311 479 152 35 31 32
241 469 257 118 91 71
336 49 167 108 86 64
332 234 202 102 82 60
236 474 242 127 94 76
391 889 297 38 35 35
238 497 249 199 140 126
298 439 99 157 13 35
381 394 212 90 77 64
337 139 192 108 86 61
450 793 248 80 63 56
250 569 236 124 96 65
356 214 267 119 95 69
235 479 242 156 111 96
304 33 185 102 45 36
271 819 271 180 137 111
481 450 162 99 33 35
300 859 324 163 122 102
401 904 312 37 35 35
433 896 314 41 38 37
354 83 158 138 23 45
251 589 261 158 114 87
436 684 272 98 73 52
439 686 284 128 92 58
311 11 232 78 31 38
297 484 159 96 22 31
438 832 265 85 71 59
307 686 285 109 12 37
232 774 242 161 111 80
356 34 253 82 21 32
407 498 69 179 8 38
246 504 242 155 114 101
373 35 284 116 24 42
236 474 247 112 75 63
300 514 152 46 29 30
235 479 247 120 88 71
301 354 274 146 102 79
471 444 268 59 24 31
307 12 195 97 76 63
334 140 205 88 73 56
301 194 231 105 86 66
294 488 160 94 29 34
340 804 289 188 135 115
400 354 271 131 100 69
366 624 288 100 29 41
318 69 174 135 12 40
441 564 277 141 25 51
404 229 248 109 88 64
333 339 237 72 60 46
376 437 117 91 76 59
386 199 237 99 85 71
285 25 222 129 77 62
237 474 252 133 105 82
310 114 202 107 89 69
306 964 267 80 77 80
238 475 256 119 94 69
433 873 267 68 60 56
301 754 288 71 60 55
298 37 216 125 51 55
432 724 211 66 51 41
333 339 232 71 60 48
300 39 217 137 21 48
386 774 308 63 56 53
397 442 121 92 76 59
320 432 107 110 28 28
327 169 218 83 68 53
366 921 346 38 36 36
439 489 315 163 117 88
299 40 191 146 26 47
287 24 203 134 31 43
381 174 240 107 86 62
288 240 240 112 91 70
388 123 245 115 87 55
316 30 183 110 93 77
438 604 297 155 107 73
485 534 232 55 30 34
398 820 220 61 51 50
298 156 204 110 91 72
416 614 212 108 31 45
494 446 179 93 32 31
380 69 271 113 76 64
331 689 297 57 26 31
311 404 268 96 26 38
337 154 202 94 77 58
298 39 193 139 20 43
446 798 274 63 46 37
289 249 200 129 100 64
512 494 212 175 16 49
256 489 202 147 18 42
239 472 254 121 95 72
288 498 260 167 14 52
451 524 286 93 25 39
410 699 309 158 116 92
318 74 173 99 32 32
401 434 157 93 78 61
357 19 299 101 45 44
271 834 247 120 79 71
346 33 285 130 35 53
365 770 304 69 59 55
361 13 277 102 79 69
376 119 243 117 85 51
436 765 204 88 62 43
339 506 105 80 16 34
240 474 258 118 93 70
456 485 58 142 16 30
426 794 320 173 124 91
361 38 250 73 34 30
243 684 237 135 97 63
439 812 263 99 74 62
356 23 261 98 51 34
281 914 307 143 118 103
395 184 243 105 87 68
296 579 142 125 29 45
351 54 158 112 27 22
236 479 252 125 96 74
361 689 308 130 13 40
491 424 247 71 27 31
298 166 215 110 91 73
316 379 266 135 92 75
237 479 257 123 96 71
276 359 222 117 94 67
391 169 242 111 90 66
316 74 177 106 38 38
483 526 136 126 42 49
401 450 92 94 76 57
264 432 195 118 17 29
400 339 257 115 93 67
362 124 253 115 87 57
336 479 91 119 23 39
523 472 135 173 78 59
242 465 238 89 71 54
405 444 332 91 21 33
359 27 295 142 19 55
296 479 112 145 1 38
303 639 270 153 10 48
391 769 310 50 46 45
311 229 241 112 89 63
392 374 226 93 82 70
380 144 275 116 93 65
431 571 171 60 32 38
322 771 195 78 60 53
328 180 185 132 100 62
443 530 289 142 18 43
316 373 200 93 82 72
333 108 164 146 20 42
328 416 174 97 82 66
310 641 180 183 5 39
293 205 230 108 90 71
246 463 237 91 73 55
349 744 187 56 43 40
371 819 182 80 64 54
376 358 235 94 81 67
327 24 202 71 40 32
286 714 292 159 17 51
337 44 207 74 40 39
427 432 196 93 78 63
370 539 294 65 21 30
246 459 242 83 69 54
345 439 277 128 11 41
338 345 229 109 83 73
374 21 268 103 70 62
447 489 307 171 120 93
311 34 180 90 41 30
386 924 262 79 71 71
421 908 282 72 64 64
341 94 158 146 19 37
246 789 271 166 125 96
339 824 205 58 51 50
404 476 329 89 25 36
496 437 205 62 35 40
314 84 180 118 29 38
371 46 244 92 76 59
313 480 126 93 15 35
354 82 175 131 1 44
327 599 285 38 27 30
324 145 215 84 68 50
354 742 180 56 44 36
247 460 238 94 79 63
309 74 192 124 44 51
330 79 215 99 53 51
316 204 232 99 80 58
414 902 311 36 34 34
252 455 238 64 49 37
375 638 193 64 35 39
391 669 283 48 22 26
306 474 118 88 19 35
255 454 236 71 51 40
243 691 229 138 99 66
498 505 238 164 22 52
320 49 171 107 48 35
331 424 167 94 79 62
271 544 257 107 50 47
344 64 256 123 15 41
329 45 220 73 59 44
406 443 127 93 76 59
281 504 167 125 11 35
375 849 181 88 75 68
306 19 243 126 86 72
280 329 222 127 98 65
321 809 284 187 136 115
239 490 259 174 122 108
391 584 301 115 24 45
315 345 209 91 80 69
431 820 302 166 104 79
321 244 193 122 91 55
504 474 246 45 30 32
456 894 302 72 58 50
495 429 255 73 33 33
297 494 113 77 23 33
451 468 92 115 42 36
288 943 316 139 107 91
251 464 232 84 66 53
381 799 302 67 57 53
426 904 333 45 41 38
251 729 216 133 99 64
311 349 206 92 81 71
326 324 221 82 71 61
331 664 288 109 11 33
256 529 237 110 37 43
321 459 86 143 12 36
247 609 229 140 105 70
311 425 169 49 41 41
249 488 236 60 32 34
341 109 187 115 82 60
304 646 185 155 10 34
339 360 238 117 88 77
426 504 67 110 21 38
338 65 154 111 40 31
350 94 252 100 62 46
331 29 272 134 86 74
340 109 192 109 81 57
378 703 314 105 26 38
427 611 232 78 34 41
344 54 255 114 18 38
252 484 232 53 28 31
411 888 264 70 59 56
255 458 232 89 76 65
331 34 212 67 38 34
422 615 236 134 42 54
385 209 281 122 97 67
365 304 290 146 99 72
303 47 215 104 45 34
389 114 257 100 77 51
365 144 251 116 93 66
385 446 82 91 75 57
324 579 284 167 15 51
263 419 257 131 15 41
359 66 164 103 31 37
426 610 227 78 34 40
366 619 289 134 29 51
488 866 285 79 60 48
337 112 167 138 88 69
252 484 227 61 26 30
345 850 300 139 111 82
262 415 203 106 36 36
256 459 227 54 40 38
326 44 172 118 101 83
358 82 275 108 15 40
273 416 183 130 42 34
326 664 286 119 10 37
330 259 232 82 67 52
421 434 177 97 81 65
287 279 208 145 103 74
383 640 200 48 29 34
326 449 80 173 3 37
294 12 210 126 83 81
349 17 270 104 75 59
354 88 167 136 13 49
373 945 323 70 62 61
396 479 327 157 16 48
252 460 233 83 69 53
504 886 299 100 83 66
427 905 288 63 56 52
328 27 274 143 104 84
388 174 274 119 95 68
333 437 80 86 27 26
328 251 205 94 76 55
356 383 216 86 72 58
356 434 107 85 69 53
283 16 218 146 98 98
452 774 272 77 57 44
311 79 187 104 47 43
334 36 206 71 33 26
452 496 60 174 20 46
414 572 158 218 22 62
417 437 161 96 80 63
252 478 232 61 29 31
254 462 230 75 57 48
471 864 267 69 58 50
343 52 189 62 28 24
292 11 217 139 88 89
376 820 186 74 59 52
401 229 272 121 95 65
250 453 257 90 70 50
313 869 259 132 100 74
311 469 262 78 30 37
381 789 304 68 59 55
331 84 158 143 15 40
249 462 235 91 75 60
448 463 277 92 24 36
348 439 285 136 6 42
348 34 159 91 18 27
485 908 336 94 75 59
376 299 287 141 100 70
422 452 111 95 78 59
310 114 192 115 95 73
299 163 213 108 90 71
311 364 202 91 81 71
237 729 227 139 101 69
250 484 237 53 32 31
254 457 235 57 41 26
351 437 81 87 70 53
393 744 191 69 56 50
331 34 217 81 31 35
333 319 227 76 65 54
256 744 265 162 116 90
326 375 262 66 54 40
410 659 303 150 112 90
242 739 256 154 108 80
348 40 254 101 35 32
318 612 164 187 7 40
244 609 252 156 112 84
336 39 272 123 13 42
469 771 258 89 69 57
306 199 234 107 86 62
315 99 209 108 88 66
257 464 197 69 32 36
334 759 294 72 59 52
356 799 297 175 133 111
311 104 192 117 95 71
523 460 204 94 12 29
283 285 256 111 87 61
242 460 247 106 85 66
399 719 189 64 51 42
331 534 121 182 8 38
352 284 247 136 107 74
367 304 234 89 79 68
477 452 156 103 40 36
308 866 330 146 57 78
297 15 193 120 67 57
277 709 213 94 24 35
242 460 243 98 80 62
311 614 166 191 8 39
346 16 272 110 71 59
341 398 246 65 55 46
421 454 301 87 67 57
321 444 262 110 14 37
390 129 247 114 90 63
519 497 186 164 22 51
321 124 181 124 98 67
436 435 187 90 76 62
245 458 247 85 68 49
321 33 182 109 92 73
311 664 278 164 13 52
356 38 251 85 21 28
358 432 130 84 69 53
337 134 192 108 86 61
314 107 209 105 85 63
336 554 128 157 15 41
500 449 251 152 16 49
262 449 187 80 34 39
249 608 259 152 109 82
308 124 206 109 90 70
242 504 252 192 138 121
317 68 216 112 56 54
248 456 243 73 60 46
342 319 257 92 68 50
406 925 297 74 64 63
327 18 212 80 36 37
397 364 277 134 103 70
526 474 192 62 32 34
316 434 92 126 21 28
366 59 238 119 18 26
272 424 177 131 10 34
251 659 257 174 128 103
369 209 240 98 79 57
406 409 236 107 91 75
243 460 251 104 78 60
253 451 260 92 74 55
262 414 257 149 14 46
355 16 300 102 76 57
339 117 182 137 100 70
388 829 210 53 46 49
266 574 202 142 14 45
306 19 187 108 83 60
349 75 269 113 93 71
381 289 236 90 76 60
385 254 234 96 81 65
243 465 256 124 97 76
276 449 264 150 20 51
371 804 299 64 55 51
381 184 239 101 84 66
296 11 212 122 80 77
249 505 264 172 121 100
246 459 257 115 90 69
343 329 233 134 94 78
362 703 154 88 63 45
402 259 273 125 95 62
421 509 72 101 28 40
299 36 219 136 31 52
244 462 254 129 102 79
383 940 287 73 64 63
503 495 233 123 22 38
430 817 238 77 62 58
312 94 182 124 23 39
306 184 228 106 86 65
312 129 188 121 98 71
390 567 310 195 8 62
451 504 288 109 18 38
381 164 241 114 90 59
301 444 99 77 30 38
289 246 200 126 99 66
263 446 184 120 30 42
266 818 270 203 155 127
245 463 258 125 99 75
301 464 263 47 29 31
476 483 77 121 18 29
296 214 236 107 88 67
365 958 307 67 59 59
341 98 159 148 21 40
317 459 126 80 23 34
306 934 338 184 140 122
252 451 243 86 72 57
306 864 272 167 122 97
294 859 312 177 134 109
345 60 273 124 29 50
362 224 280 121 98 74
446 698 263 76 63 54
313 72 210 115 92 69
344 98 200 95 25 33
316 10 212 75 61 51
273 349 251 118 93 64
252 450 247 83 68 53
301 879 273 126 98 71
316 19 237 71 48 38
346 427 152 87 73 57
466 819 277 75 61 50
492 535 197 74 32 38
381 509 311 53 27 31
461 784 263 84 74 65
333 101 209 101 77 59
299 497 155 103 14 32
310 275 255 114 89 62
251 454 242 76 63 49
311 32 230 127 78 72
389 607 179 182 14 42
501 443 192 86 31 31
253 494 217 166 9 48
330 534 274 113 2 33
250 453 247 83 68 52
289 392 200 95 83 71
391 99 230 146 22 40
291 28 227 159 44 66
414 404 252 103 84 62
234 809 252 195 138 111
249 511 245 182 136 121
255 448 242 87 70 51
310 22 240 116 19 45
253 494 213 136 17 46
396 239 241 102 85 65
433 575 282 71 45 40
318 444 84 135 8 31
283 919 316 151 127 113
291 30 222 159 24 57
406 414 302 70 56 48
280 334 222 124 97 65
263 479 184 54 38 39
366 869 218 65 60 62
256 448 247 75 57 41
371 438 102 92 76 58
291 24 197 130 21 40
461 480 72 121 19 28
371 49 278 132 19 49
254 452 240 89 73 55
298 164 211 110 91 72
418 894 264 63 56 54
278 628 183 44 32 36
291 204 227 109 90 71
479 886 314 68 55 43
327 120 179 122 95 61
272 406 271 55 46 32
356 359 292 138 101 74
322 50 224 87 23 33
318 618 280 88 32 39
251 489 227 63 33 37
315 458 160 60 29 26
258 529 207 52 30 34
302 224 189 130 99 62
431 579 313 170 118 87
395 164 266 116 93 66
280 719 206 109 13 30
251 504 232 65 35 39
512 462 150 149 28 46
369 947 258 87 78 77
419 419 256 110 89 65
332 919 339 151 116 92
252 451 257 85 70 54
345 555 125 81 23 31
265 644 256 163 111 93
352 89 271 116 18 41
316 546 130 190 8 34
334 49 215 87 23 36
355 329 236 77 65 53
287 369 271 140 103 79
277 339 227 122 96 66
498 881 314 86 68 54
291 11 242 134 44 58
275 438 270 121 35 48
448 560 274 180 15 56
338 354 272 107 70 52
250 479 236 46 30 29
326 797 204 77 60 51
287 11 242 139 38 60
308 878 264 163 128 104
508 447 185 85 33 28
325 111 180 126 90 61
296 639 262 151 10 47
249 452 252 88 71 53
259 484 191 152 11 41
256 448 252 81 65 49
395 349 238 94 83 73
318 137 214 94 76 55
370 858 208 60 55 58
361 234 243 111 88 60
331 964 332 62 56 55
326 89 214 91 53 43
288 534 134 97 22 34
306 59 192 137 91 77
317 129 183 126 102 75
299 29 190 111 42 36
275 564 182 116 19 39
255 514 222 105 29 42
411 459 307 32 27 25
256 448 257 77 62 48
354 87 159 144 26 46
330 309 250 73 58 42
281 649 246 68 25 26
423 431 315 138 13 46
277 439 174 144 5 33
268 366 242 119 94 65
244 505 247 196 148 132
348 384 244 96 75 64
340 868 191 90 74 64
404 65 246 112 35 45
249 457 241 64 52 39
304 45 186 120 70 57
359 169 257 110 88 64
242 470 234 129 96 76
441 810 262 96 70 60
366 548 118 209 13 43
249 490 269 168 120 101
411 454 336 76 24 33
244 467 235 90 72 54
295 416 178 101 87 73
386 659 283 50 24 27
451 494 297 189 131 111
303 189 189 121 97 69
404 439 327 68 21 30
306 219 187 129 98 61
246 473 233 139 85 80
401 239 272 126 98 67
288 242 199 126 99 67
321 899 340 188 139 124
336 109 202 100 79 57
306 44 182 127 34 39
293 32 212 140 52 61
297 856 298 121 100 78
516 504 137 133 34 49
272 729 212 75 27 31
248 478 239 70 37 35
256 479 274 165 115 100
250 469 231 116 83 72
297 11 202 115 73 64
321 39 177 113 97 80
451 559 272 148 21 52
332 329 227 73 63 53
366 399 218 92 78 65
315 483 137 46 22 28
252 469 227 55 45 42
238 729 224 137 101 70
301 496 125 99 16 33
296 10 222 125 68 69
253 465 227 49 37 34
329 34 221 68 38 34
365 849 286 152 113 89
300 194 191 122 99 72
301 19 187 115 42 31
391 879 237 66 55 55
306 509 258 63 27 34
414 637 247 158 23 51
301 664 193 153 1 37
331 194 222 85 71 57
266 414 272 140 17 45
415 914 335 54 46 39
401 435 152 92 76 59
241 484 241 130 78 69
373 437 115 91 75 59
290 20 238 156 104 81
352 314 238 81 68 55
373 46 279 115 55 49
302 149 197 115 94 71
397 52 237 102 84 69
456 810 274 80 63 53
386 474 66 68 37 40
252 474 227 80 31 38
365 822 179 90 70 57
506 510 132 95 35 44
242 480 241 118 70 63
311 89 197 106 32 39
385 724 178 68 51 45
351 414 222 79 66 54
476 501 76 116 37 45
273 832 234 151 98 86
432 509 319 161 116 84
279 469 170 88 31 37
346 94 158 148 26 44
360 149 257 110 88 63
314 78 180 96 59 42
432 821 298 161 101 76
448 785 293 150 99 67
490 884 325 83 68 54
311 49 177 113 34 37
391 59 262 114 18 41
426 520 86 178 27 50
484 892 314 75 62 51
349 50 279 116 51 50
309 123 208 107 88 67
261 749 216 118 87 57
329 114 210 92 73 52
364 854 190 83 73 65
363 926 350 52 48 46
400 249 243 104 85 63
307 659 188 166 0 39
326 807 285 182 129 108
318 273 249 98 79 58
250 476 236 63 28 30
323 309 220 83 72 61
311 234 188 130 97 58
338 110 194 103 78 54
332 382 200 92 80 68
308 62 189 138 40 43
331 159 212 84 71 57
422 619 262 142 21 47
246 514 252 174 131 109
310 272 199 125 91 60
446 724 217 73 56 44
286 424 272 172 15 54
324 29 230 61 47 38
357 73 275 109 55 51
306 218 239 113 90 64
522 499 162 82 35 40
396 604 291 51 26 28
426 457 304 50 32 27
506 449 177 89 32 26
326 149 182 130 100 64
326 434 87 72 38 32
297 33 221 153 23 57
447 769 232 71 56 48
336 689 185 121 14 32
388 61 224 90 34 24
374 421 174 94 80 66
246 476 240 92 45 47
420 885 271 65 57 54
505 484 237 52 30 32
330 165 215 83 70 56
255 484 202 111 26 39
294 509 120 86 21 24
254 489 207 80 29 36
376 754 173 68 53 45
395 169 247 106 88 69
309 70 197 114 75 60
290 30 212 137 68 65
386 284 283 134 100 66
381 159 241 117 91 58
276 764 277 53 45 40
402 204 252 114 93 68
249 494 232 89 29 39
256 494 202 154 15 45
372 493 84 180 7 40
385 349 286 132 103 68
276 415 182 129 53 41
534 471 148 185 25 33
259 447 235 133 115 103
258 568 265 168 117 93
286 374 271 143 105 81
321 144 215 87 70 50
248 498 265 170 119 100
396 394 287 126 99 70
281 514 167 134 13 36
431 473 67 95 68 48
255 494 207 117 22 43
391 264 282 132 99 63
320 32 230 111 32 49
390 374 224 92 81 70
243 470 261 121 96 73
403 849 236 62 51 50
313 114 210 105 85 64
335 465 85 131 10 38
392 509 312 53 25 30
279 269 227 121 94 64
388 601 170 202 14 50
254 482 215 81 32 34
296 399 192 94 82 70
391 74 221 142 15 35
356 914 327 36 34 35
283 13 236 132 37 54
339 64 210 77 27 30
319 364 265 118 81 64
263 429 257 87 24 35
240 724 252 154 105 79
283 929 287 70 64 61
254 489 211 46 34 36
431 589 207 164 19 47
424 665 268 72 51 39
314 69 181 125 94 74
403 224 268 120 95 66
314 266 250 111 88 62
463 546 264 144 28 55
339 411 269 138 11 44
335 41 184 104 73 55
447 760 251 59 46 36
427 457 101 95 76 53
386 129 267 116 93 66
531 479 127 197 37 35
291 834 232 92 70 62
319 472 129 35 30 27
244 599 249 151 110 79
401 504 76 145 13 39
253 489 213 52 33 36
432 442 156 96 80 63
389 277 239 97 80 61
486 436 207 61 39 40
346 86 155 151 21 44
265 434 187 113 14 34
239 496 246 194 144 129
270 369 232 115 92 65
309 134 190 116 94 70
302 454 115 36 26 27
409 837 239 53 44 41
259 519 197 56 33 35
306 284 261 109 85 57
251 489 222 87 32 40
349 359 289 141 101 80
435 709 306 162 106 77
244 490 264 173 123 105
422 429 298 102 23 38
484 887 289 109 82 69
344 330 245 124 89 68
392 139 252 113 91 67
286 449 171 85 29 34
393 348 279 133 102 71
315 70 213 119 91 72
394 426 179 97 81 64
370 53 240 56 34 27
254 494 212 144 14 45
455 567 193 46 33 37
339 49 206 79 30 32
361 34 288 112 59 55
401 709 197 68 50 41
307 571 140 113 25 35
377 427 161 90 75 59
251 494 222 126 21 42
393 319 279 136 104 74
341 967 316 78 73 71
471 789 262 98 72 61
291 369 273 144 104 82
440 534 307 172 122 91
374 96 240 126 53 44
319 452 160 37 35 34
285 268 248 111 89 64
284 499 165 49 30 36
252 647 260 181 128 102
252 509 237 107 40 45
390 370 224 92 81 70
298 174 198 118 96 71
253 498 270 165 121 100
255 504 207 156 6 42
293 942 325 190 140 118
267 379 242 118 93 65
385 52 231 122 105 90
401 499 327 139 17 43
496 504 242 105 23 41
451 539 137 216 16 52
306 809 281 180 133 111
254 499 212 166 4 45
309 492 128 121 5 32
396 454 72 95 78 60
376 54 237 96 72 56
326 354 212 89 78 67
289 795 205 57 50 53
366 844 197 61 53 51
281 794 206 184 127 94
346 109 177 128 34 51
362 374 295 134 101 73
253 499 217 121 15 41
366 309 289 138 96 67
506 519 167 192 22 53
311 169 223 99 80 59
273 356 229 118 94 67
338 44 263 122 92 70
326 234 192 122 94 59
480 519 262 184 14 56
288 881 315 144 114 91
254 500 215 153 8 45
301 848 317 102 85 68
321 559 137 165 10 38
341 407 185 94 80 65
254 505 216 62 27 37
451 893 327 49 42 37
257 434 235 138 5 41
443 747 304 164 112 80
322 880 217 42 39 39
245 499 241 122 83 70
286 344 212 120 95 67
287 16 208 131 89 86
294 35 202 137 39 53
337 431 131 85 61 49
336 569 137 175 13 43
391 699 303 68 23 32
308 916 340 85 79 76
353 102 257 127 93 72
278 304 242 127 98 66
307 49 182 139 30 45
252 499 222 107 29 42
280 284 247 114 90 62
255 509 212 149 15 46
282 627 178 165 30 54
355 364 237 83 69 55
357 199 252 108 87 64
341 972 305 69 66 66
393 669 210 91 25 29
371 319 232 87 76 66
403 717 195 71 49 44
419 627 262 147 28 53
334 203 194 114 91 63
298 500 154 106 11 36
443 795 236 69 57 52
336 374 212 79 69 59
414 710 212 59 43 42
365 149 274 117 94 69
351 954 338 64 58 56
402 249 273 126 97 66
493 511 110 146 22 42
254 509 217 117 23 41
383 128 269 115 92 66
367 229 239 95 76 55
351 679 301 97 25 38
371 834 181 86 69 59
392 860 285 40 36 35
354 73 181 118 22 46
286 504 258 160 10 50
253 508 223 86 35 39
378 482 74 157 10 40
351 31 288 119 71 61
254 509 222 107 34 45
287 254 202 130 101 65
316 469 127 29 27 30
400 476 329 163 20 53
349 95 257 121 18 44
235 484 247 139 104 84
340 79 207 93 45 41
367 255 239 92 75 56
303 190 230 105 85 64
347 399 227 77 65 54
329 169 184 130 99 60
317 45 174 101 38 29
402 554 307 143 20 49
476 905 336 85 68 52
386 443 102 93 76 58
430 599 267 182 12 57
331 859 322 136 109 81
383 56 229 101 84 65
421 784 214 59 48 41
341 519 108 140 13 39
235 489 247 162 114 98
291 494 161 60 35 35
309 139 190 117 94 68
361 79 274 111 46 50
451 439 266 78 8 26
456 469 272 128 17 41
286 822 219 93 73 65
290 619 253 89 30 40
367 498 89 138 17 37
312 54 177 125 56 51
471 509 271 123 2 38
355 699 172 74 62 55
406 799 316 165 123 99
296 334 275 133 92 74
298 27 235 136 42 57
346 14 277 114 76 67
241 489 242 131 82 71
371 40 249 106 90 73
351 494 93 101 31 41
326 439 262 50 26 28
396 412 297 63 55 46
482 519 257 182 10 56
235 484 252 123 94 71
301 369 202 94 82 71
318 16 284 156 112 93
491 447 176 93 32 31
452 789 246 82 65 58
529 487 166 107 30 42
252 489 271 172 123 103
337 184 202 101 83 64
351 28 292 129 67 63
279 594 173 105 16 34
370 505 90 74 38 37
380 690 179 68 54 49
244 702 225 127 94 64
321 24 192 104 90 74
434 654 297 132 91 57
397 75 254 99 63 57
235 489 252 166 116 101
396 229 276 122 96 64
382 38 257 108 95 81
496 529 197 125 33 49
389 296 239 91 78 65
247 494 266 171 123 101
332 935 345 43 41 41
339 78 210 98 16 34
374 799 178 87 67 49
367 234 239 94 76 55
325 62 220 104 75 61
501 509 222 53 27 34
359 69 163 115 23 37
328 264 239 78 67 56
314 54 175 120 35 35
237 484 257 160 115 99
271 504 176 143 0 35
418 439 333 80 20 31
405 441 133 92 76 58
316 194 184 128 99 64
238 492 244 182 132 118
331 349 217 79 70 61
299 664 269 148 9 47
376 949 277 65 58 57
291 379 202 100 85 69
333 349 247 71 57 42
369 69 236 117 47 45
241 494 242 152 108 93
351 489 91 157 11 38
251 504 267 171 123 101
381 64 227 115 16 26
443 571 186 183 29 61
455 782 259 68 58 52
232 789 247 170 117 87
336 434 142 69 42 39
391 819 211 60 52 51
303 779 285 65 54 49
237 494 247 193 138 123
314 94 180 106 55 44
413 467 65 102 82 59
321 139 181 129 101 69
406 925 312 67 60 60
431 460 97 95 75 50
366 84 241 111 53 40
356 74 177 123 10 45
371 499 87 152 10 36
382 179 279 119 96 69
414 872 290 43 35 36
380 375 295 132 100 66
370 144 246 118 89 55
316 229 239 106 85 62
472 810 281 85 65 50
409 873 254 79 66 62
249 509 264 174 125 103
278 319 247 126 95 65
371 430 147 87 72 55
399 104 242 130 29 50
341 925 341 38 35 36
386 169 240 112 90 64
278 299 242 130 98 67
392 682 195 66 47 42
349 30 159 91 18 27
386 179 277 120 97 70
451 769 287 159 106 74
237 494 252 180 125 112
292 220 235 107 89 69
248 502 239 81 55 49
321 413 181 99 85 70
394 159 248 108 88 65
449 470 306 134 97 72
316 219 186 128 97 60
306 39 182 133 30 37
406 64 237 96 35 38
458 880 264 91 74 64
357 79 167 135 16 48
306 532 119 103 39 41
290 30 206 149 46 58
326 971 307 66 60 58
464 446 164 85 37 36
240 499 247 195 146 130
367 154 276 117 94 69
318 18 295 152 104 91
282 659 208 101 18 33
351 59 182 80 46 41
253 509 227 59 33 37
449 537 129 222 8 53
519 502 176 195 19 57
316 159 182 124 98 67
405 573 148 140 26 50
349 376 214 75 65 54
336 363 227 87 73 63
351 424 208 88 75 61
357 269 243 108 87 65
357 494 291 150 8 47
310 864 261 163 118 89
238 497 251 192 136 121
485 537 167 223 20 55
311 429 264 111 20 43
475 461 128 114 39 37
356 38 285 137 16 51
367 556 125 138 22 47
248 502 265 173 124 102
346 664 290 149 16 47
382 234 235 92 78 63
511 508 137 109 39 46
304 479 105 61 28 35
239 496 254 170 121 105
286 529 254 39 27 31
258 450 234 104 72 60
332 16 269 127 72 66
366 40 249 71 40 28
281 494 167 74 29 35
234 764 252 154 110 78
245 489 241 78 47 41
350 374 232 91 74 59
364 194 279 117 96 72
445 813 269 66 53 47
241 499 257 174 125 106
250 624 226 142 105 69
287 294 266 107 85 61
359 481 85 181 8 37
377 55 233 98 80 60
298 674 194 86 22 35
371 434 127 90 74 57
247 494 237 75 32 35
267 399 256 134 101 75
386 669 202 82 29 30
481 438 197 61 37 41
250 489 232 52 34 35
371 891 295 37 32 30
297 409 274 151 21 49
391 479 66 114 31 43
311 94 192 113 47 49
315 573 144 65 31 35
375 233 235 94 78 60
254 482 228 64 24 30
319 11 204 75 63 52
312 449 92 68 33 37
246 484 267 171 122 100
328 19 268 130 50 59
336 454 268 136 10 40
276 414 277 155 19 49
408 384 247 107 88 67
381 54 272 117 24 45
301 794 282 68 56 50
348 650 185 131 12 24
386 404 298 94 77 59
329 118 210 88 70 50
327 354 258 70 55 39
318 896 214 70 64 65
254 482 232 66 21 29
452 468 277 103 73 52
306 54 187 144 30 48
373 478 305 114 16 36
292 524 136 48 26 29
471 789 267 81 62 49
362 74 243 121 32 34
379 821 185 79 63 54
250 494 227 43 33 35
366 454 68 108 23 39
287 719 198 81 28 33
365 431 138 87 71 54
296 11 245 120 57 54
426 639 312 187 127 100
357 394 232 88 74 59
407 614 302 171 121 102
336 432 107 91 55 44
316 299 212 79 69 58
414 727 199 59 47 40
331 119 207 93 74 54
249 492 235 68 28 34
303 181 189 120 97 72
371 520 95 146 14 38
407 462 66 104 87 68
310 225 240 112 89 64
444 789 306 169 113 84
371 369 295 132 102 68
380 914 247 71 62 63
287 259 246 113 91 67
326 849 307 120 98 74
432 457 106 95 76 53
246 484 242 95 62 58
396 644 212 52 30 37
336 444 268 39 27 28
352 359 226 91 73 59
322 218 234 89 73 56
318 93 174 128 66 56
346 349 287 139 97 77
500 446 183 90 32 31
307 604 275 108 26 41
386 439 122 92 76 58
382 732 177 56 48 44
323 319 220 82 71 61
477 879 287 64 56 50
335 129 182 138 101 67
298 528 119 70 31 34
316 179 183 129 99 64
481 513 102 236 23 58
376 425 167 92 78 62
245 494 240 86 48 40
313 170 184 126 99 64
278 339 223 122 96 67
497 881 317 88 73 61
336 99 160 142 21 38
321 289 253 80 66 50
299 485 111 77 23 30
386 868 289 40 37 35
412 609 307 168 121 98
400 279 248 111 88 62
248 479 270 155 107 88
461 443 172 64 38 43
351 29 257 87 44 37
456 519 97 114 29 44
504 522 182 206 18 55
311 968 272 93 88 90
247 499 238 79 42 39
392 35 228 95 39 35
421 516 80 94 33 42
250 499 232 63 33 34
341 404 188 94 80 65
314 21 189 108 91 74
415 466 68 98 80 58
341 674 186 124 12 30
346 349 242 111 84 65
252 504 227 50 34 37
291 11 222 135 81 78
250 504 237 72 41 40
351 429 142 86 71 54
301 830 226 97 75 66
294 864 317 152 101 90
284 339 269 139 98 75
466 554 252 123 22 45
307 145 216 103 84 64
323 284 216 72 61 51
354 71 154 110 36 30
261 634 261 170 118 94
326 164 218 82 68 53
288 11 223 139 88 82
272 445 268 125 28 47
311 714 187 66 34 40
252 494 270 167 120 101
370 119 245 119 87 54
425 644 273 108 77 52
296 339 209 109 90 68
436 515 82 77 31 40
402 895 288 38 34 34
402 64 227 84 42 30
367 679 179 76 51 37
254 511 226 61 31 34
357 199 257 112 90 65
350 279 257 89 73 55
335 139 202 91 74 56
297 214 193 124 98 68
254 549 264 157 112 90
338 873 328 150 118 85
316 49 173 133 25 29
474 778 270 70 56 47
351 433 112 84 67 50
373 800 193 54 47 48
376 416 188 95 81 65
327 654 285 102 28 44
446 908 302 65 52 50
350 775 299 68 58 54
293 32 198 147 9 44
313 972 288 76 70 71
242 499 243 171 131 114
500 426 251 113 25 39
461 449 271 149 13 48
242 503 247 196 146 131
357 254 281 123 98 71
496 452 166 89 31 26
281 832 233 90 70 63
521 470 137 172 76 59
314 84 209 108 30 42
296 644 262 147 10 45
249 714 259 154 106 81
330 381 199 94 82 69
355 84 162 142 22 46
311 10 207 77 64 54
336 54 162 121 104 85
300 377 200 94 82 69
315 899 222 56 52 52
243 502 244 181 141 124
301 434 107 100 18 36
416 479 314 77 48 42
479 845 272 72 55 43
456 439 267 70 11 23
287 649 198 93 32 40
398 64 254 89 51 44
358 304 234 84 74 63
296 544 257 40 28 29
321 94 172 128 64 57
447 452 135 100 72 55
410 563 133 190 17 48
371 939 252 78 69 68
369 159 245 112 86 53
412 699 310 164 121 95
285 19 207 123 74 68
304 472 160 47 35 25
298 42 202 142 26 43
375 99 240 107 71 47
246 509 247 190 142 124
466 830 287 69 53 42
476 463 265 35 26 27
244 506 252 192 139 120
441 438 177 88 74 60
465 489 59 145 27 47
332 164 213 85 72 58
294 956 276 73 69 71
439 584 297 162 113 82
312 84 202 102 83 61
340 11 301 139 59 81
359 436 92 87 70 51
256 829 242 235 159 131
391 219 237 99 83 67
243 483 265 184 128 110
363 936 245 76 67 68
247 644 257 170 123 96
382 924 257 67 59 60
421 431 192 96 80 64
342 359 248 91 71 55
457 896 293 73 61 54
361 409 217 91 78 64
351 409 292 145 15 46
410 384 252 111 90 66
245 509 252 195 144 124
244 505 258 170 124 104
395 424 308 111 10 36
376 89 238 108 58 45
328 383 263 62 51 40
246 499 262 166 120 100
374 104 240 125 35 38
506 881 320 94 77 59
428 581 314 173 116 87
359 229 245 124 96 65
301 719 190 118 21 38
398 581 150 114 18 33
244 472 264 111 87 64
301 624 172 81 34 41
532 468 152 168 27 41
333 229 224 92 74 53
391 94 228 147 18 40
311 324 215 87 75 63
460 907 287 97 75 62
305 31 228 134 59 63
370 129 246 120 91 55
333 33 271 127 60 58
451 434 202 67 47 42
351 965 312 66 61 61
245 509 257 172 125 104
382 527 99 209 16 48
311 729 188 135 11 37
374 41 249 111 94 76
338 479 270 89 25 37
432 448 268 78 7 27
249 505 240 102 58 55
334 212 194 115 92 64
240 799 268 169 124 97
250 509 242 156 92 83
412 644 247 80 27 37
398 308 250 113 90 63
352 854 298 146 115 87
