ply
format ascii 1.0
comment Created by Open3D
element vertex 2215
property double x
property double y
property double z
property uchar red
property uchar green
property uchar blue
end_header
231 249 292 114 92 68
243 89 250 120 24 44
382 699 252 72 56 50
255 742 337 43 27 27
236 291 263 124 94 63
351 608 232 140 19 39
354 829 206 60 52 50
301 312 312 107 81 58
252 289 311 110 88 64
282 79 251 124 89 68
455 492 297 128 11 40
378 854 215 106 79 66
356 288 292 150 102 74
248 504 194 191 12 43
403 608 249 104 86 66
392 65 259 103 27 38
283 504 200 138 1 29
198 429 265 118 14 28
231 184 260 113 93 71
245 104 258 115 86 64
253 509 196 191 9 42
365 909 264 72 65 66
253 505 194 165 18 44
356 394 280 108 89 68
211 487 238 67 36 37
421 799 232 86 64 53
423 721 208 62 49 35
239 60 235 95 34 38
193 449 280 103 16 34
316 254 290 106 86 63
463 559 304 85 63 38
333 864 335 120 95 69
287 384 305 119 73 59
241 269 302 120 94 67
295 518 363 78 1 30
269 479 335 137 97 77
240 60 239 99 34 39
423 718 206 63 50 37
390 750 172 53 44 38
340 596 478 143 22 49
352 829 208 59 52 51
268 274 259 128 100 70
241 162 248 112 90 65
296 576 382 122 11 44
243 719 280 114 12 36
356 74 248 133 28 43
298 25 290 154 30 59
414 754 240 139 99 61
231 616 274 200 10 48
358 562 340 57 44 31
313 499 301 111 44 47
239 64 239 96 43 44
272 234 255 128 99 66
318 318 343 132 94 73
233 619 336 78 25 37
285 409 295 97 61 48
522 868 195 94 86 79
259 24 290 123 42 55
211 579 321 160 1 48
232 204 254 120 95 66
377 596 403 115 59 66
352 374 280 113 91 67
233 484 360 98 22 36
331 406 242 94 82 53
248 344 262 103 85 65
306 708 233 133 10 30
243 244 300 117 94 69
468 588 315 186 127 111
244 833 306 216 145 114
248 309 310 122 92 64
241 216 248 123 96 63
303 415 200 151 37 26
252 47 234 113 56 45
375 789 182 61 49 43
318 324 276 90 77 64
369 750 211 72 59 47
301 599 456 137 92 83
363 934 280 76 65 65
388 831 198 119 93 77
422 789 240 130 91 61
203 439 262 100 21 29
233 279 295 121 93 67
375 677 282 57 27 32
268 603 360 44 23 27
355 886 217 113 92 78
238 354 265 102 85 67
213 694 345 173 118 94
231 363 268 108 88 67
272 651 342 181 18 58
367 774 185 71 55 46
305 295 291 105 87 68
292 384 285 68 57 49
238 169 250 114 92 67
238 344 266 104 85 64
322 318 343 137 91 73
196 473 311 130 2 38
223 674 354 182 123 98
315 15 291 165 108 113
524 886 301 99 85 77
253 439 190 59 28 30
338 593 416 158 15 38
290 18 263 134 23 29
349 418 239 93 35 35
352 859 219 70 60 57
303 758 349 77 61 58
373 454 241 154 16 39
245 139 246 114 92 67
268 499 346 125 84 70
251 213 297 116 95 74
282 469 320 132 92 70
352 409 319 139 102 74
238 279 300 119 93 67
364 94 246 104 59 41
243 134 265 109 90 70
273 659 255 131 3 31
240 87 234 134 17 48
310 436 213 116 45 53
320 254 309 105 86 65
353 169 302 113 92 71
227 484 215 86 24 32
273 838 320 55 45 41
254 694 333 45 26 29
248 49 240 88 59 42
303 649 343 173 5 55
380 604 270 63 25 34
290 861 307 109 73 51
367 939 290 72 63 64
235 446 157 49 22 27
271 82 227 140 25 42
247 620 264 54 29 36
376 685 290 137 14 43
428 585 341 60 25 31
304 309 320 104 77 52
286 78 260 128 39 48
433 585 340 97 20 39
334 467 318 115 82 57
393 529 260 70 18 27
338 963 281 83 77 79
250 46 241 100 56 38
236 631 283 192 9 47
353 819 295 150 110 88
350 956 283 79 71 74
276 422 215 79 66 53
246 367 327 118 95 68
266 164 279 109 86 60
405 796 194 79 61 52
240 244 298 114 92 68
238 530 208 181 4 38
247 49 245 91 37 33
381 603 285 172 14 57
237 774 279 83 68 57
392 843 220 73 65 63
271 438 157 118 32 37
247 44 255 99 44 40
253 209 297 115 94 72
223 505 189 127 22 43
235 170 264 109 90 70
368 596 348 126 20 37
281 896 352 178 128 111
215 598 324 141 24 49
253 354 261 95 81 67
248 44 250 98 34 38
242 477 362 34 30 31
278 420 220 84 70 56
310 430 208 150 1 36
228 379 265 111 91 67
388 619 256 95 40 38
375 674 275 59 29 36
238 414 256 102 83 62
264 69 214 140 26 34
199 424 266 124 10 31
399 704 251 152 96 75
473 618 380 216 19 63
251 153 282 111 92 72
246 49 250 107 26 38
199 459 310 124 0 37
240 87 231 135 9 45
286 484 190 89 27 37
309 422 210 140 23 31
253 840 315 193 132 102
225 224 262 120 94 64
369 905 269 77 67 66
226 483 352 87 29 43
423 764 175 78 61 49
508 569 304 106 87 66
338 284 276 142 104 71
227 458 239 64 31 33
363 744 218 65 39 36
246 49 255 112 24 41
268 500 188 52 36 39
491 855 283 79 61 46
228 384 265 111 90 66
442 866 333 62 53 45
243 224 245 131 100 62
293 664 244 53 34 37
273 794 342 158 116 89
250 29 269 77 59 48
202 509 240 75 27 33
226 483 218 80 26 30
254 40 246 115 79 47
258 38 245 117 101 85
470 863 220 94 78 62
388 820 189 89 69 62
413 894 340 45 39 35
377 857 287 34 30 30
331 504 207 120 12 28
360 816 292 150 104 84
214 509 210 43 30 32
369 209 295 120 95 67
412 729 225 114 79 50
247 109 250 107 81 59
268 199 285 112 88 61
441 586 316 114 80 74
361 439 308 134 98 71
253 34 255 96 68 55
194 429 270 120 11 30
343 25 296 133 43 57
394 906 313 66 57 57
246 52 238 81 66 51
457 920 304 92 73 52
227 214 260 119 95 65
238 229 294 114 94 73
253 39 250 103 71 49
291 468 191 74 26 38
248 69 255 101 46 47
429 871 321 41 35 33
325 219 280 112 91 69
318 923 367 100 77 65
350 342 288 118 95 69
217 464 249 51 34 35
357 907 252 70 61 60
414 499 289 75 9 24
383 520 262 102 49 46
403 844 260 101 87 84
249 470 169 131 33 45
224 479 221 79 25 33
345 611 458 71 0 24
253 404 337 130 101 70
249 39 255 100 41 38
473 534 314 123 3 38
357 111 288 111 90 67
372 530 227 40 38 43
371 130 283 118 94 67
229 644 369 161 114 90
313 344 338 140 99 78
251 38 254 84 48 29
234 194 251 123 97 64
502 597 334 140 14 44
364 119 287 115 94 71
349 129 289 106 86 63
472 514 297 75 21 30
451 489 287 105 39 47
385 489 258 100 20 32
293 755 352 127 37 53
254 35 251 112 98 82
241 79 242 105 60 57
234 744 285 139 11 42
258 134 241 132 100 62
269 626 347 50 25 28
246 65 252 114 10 39
291 48 278 112 6 39
238 349 266 103 85 66
330 27 284 121 54 54
252 43 244 106 60 36
279 450 168 178 5 35
417 579 348 80 16 31
370 630 291 182 3 57
248 364 326 116 93 66
220 592 343 82 30 39
234 409 257 106 86 64
249 45 245 94 47 37
373 734 215 108 83 58
389 580 250 58 26 33
352 190 308 116 95 74
352 344 310 133 102 71
360 743 218 79 29 33
330 22 293 138 96 74
262 562 385 38 30 29
373 933 345 54 47 44
361 419 275 103 83 62
343 194 309 109 90 71
403 884 340 44 40 39
229 239 256 125 96 61
232 458 230 73 29 30
246 448 205 91 19 33
412 778 170 82 67 54
243 399 256 99 83 65
288 699 241 47 36 39
246 154 243 128 100 65
313 850 340 111 87 61
297 500 379 77 23 30
348 414 250 121 48 36
258 104 223 146 19 40
293 609 349 91 12 33
250 486 373 56 24 24
234 194 275 111 91 70
335 200 304 107 87 66
274 593 227 157 14 41
326 281 333 110 88 66
253 214 244 133 103 67
383 594 275 131 8 43
242 439 230 62 42 38
324 219 290 103 84 62
255 41 242 123 93 59
513 574 305 89 73 57
291 872 298 141 110 78
244 234 299 113 92 69
287 589 440 171 119 107
240 263 252 136 99 63
230 294 294 122 95 68
398 84 245 134 17 50
373 839 265 27 25 26
266 494 338 137 95 79
250 41 251 91 41 31
276 78 237 112 55 54
251 42 248 96 53 42
306 520 385 75 23 29
253 99 221 138 55 52
308 804 326 49 42 41
353 179 305 113 93 71
328 553 380 60 41 32
512 592 307 161 23 35
225 400 319 122 96 68
250 118 237 134 105 71
237 547 217 125 31 45
350 379 273 106 87 67
284 564 420 57 22 29
243 169 245 128 98 62
358 562 315 69 53 39
282 94 255 110 78 59
311 660 343 162 18 54
243 744 346 169 114 87
244 55 230 75 62 49
257 149 242 134 103 66
348 561 380 58 44 30
190 509 270 148 0 38
250 126 273 108 91 74
369 74 232 134 23 32
332 409 241 135 46 27
243 369 326 119 95 68
318 429 321 140 100 81
413 714 185 99 81 61
478 563 317 116 8 36
463 499 300 132 14 42
231 260 258 137 99 64
262 189 289 112 90 66
366 694 237 74 46 48
263 501 388 86 31 35
245 51 245 95 49 44
369 813 187 71 56 50
366 420 254 97 18 31
410 898 342 57 48 43
262 36 247 118 100 83
246 53 230 86 75 69
333 384 256 94 83 72
296 880 293 140 103 73
368 58 243 88 64 47
268 819 341 169 126 99
197 469 259 76 36 35
313 529 199 53 35 39
303 614 445 182 118 107
354 414 317 139 103 73
502 867 290 79 60 45
190 509 275 148 0 40
244 55 235 80 56 48
348 219 262 132 101 63
201 492 327 36 30 28
229 249 289 113 91 65
363 179 300 118 95 69
238 429 339 123 96 69
352 414 319 139 102 73
356 531 217 107 22 30
215 494 227 43 34 32
241 197 287 112 93 72
244 54 240 79 33 30
238 534 210 186 5 39
220 371 285 119 94 66
357 195 308 117 94 69
403 584 330 89 23 36
246 52 234 90 76 70
255 91 218 152 14 42
242 69 245 108 35 47
368 24 265 115 99 84
207 489 335 118 11 39
268 424 225 88 73 56
237 184 275 111 91 69
211 428 312 51 33 35
349 389 321 137 100 72
253 164 286 112 92 71
319 264 281 121 93 61
238 474 165 198 15 46
507 815 219 80 66 52
256 30 282 119 29 46
219 464 339 126 7 37
226 403 321 123 96 68
253 344 261 98 81 64
253 254 249 140 105 68
250 75 263 97 80 64
222 379 275 117 93 66
346 934 262 78 69 70
333 224 315 108 89 68
220 652 318 101 75 40
246 96 242 114 84 67
356 283 314 136 99 70
298 929 261 74 64 63
250 807 277 74 59 53
234 219 252 125 97 63
251 50 266 122 31 49
437 610 378 91 10 31
242 58 230 78 49 31
290 55 264 113 39 43
333 479 314 113 78 56
259 495 343 128 87 73
263 194 289 111 90 65
343 614 232 96 31 37
241 58 235 86 33 36
255 19 285 107 20 39
390 677 247 132 75 62
373 849 205 102 77 65
220 430 328 37 29 31
302 551 413 123 14 42
241 58 240 98 27 38
288 824 326 61 50 45
311 691 348 147 10 46
348 59 255 125 43 39
215 404 294 119 94 66
268 489 335 138 97 78
403 579 385 127 10 38
502 545 302 128 101 77
244 54 245 87 33 38
234 289 299 118 94 69
337 484 212 78 24 34
348 13 264 114 82 58
428 559 290 52 28 35
251 831 293 57 47 48
257 169 242 138 106 68
376 114 270 120 90 66
254 169 242 135 105 68
229 264 261 137 98 65
308 344 335 132 96 74
390 865 238 68 60 60
251 122 272 107 91 74
418 733 207 52 41 34
234 624 370 135 103 73
303 14 305 121 68 58
253 454 155 206 14 47
241 148 266 109 90 69
198 420 285 106 20 37
386 837 202 118 90 69
248 689 280 98 21 37
272 384 328 127 92 65
245 51 242 82 41 27
353 64 251 117 30 36
287 578 401 54 25 28
246 68 252 109 15 36
231 363 311 120 95 67
228 299 280 129 94 69
309 319 339 128 94 72
226 364 301 123 97 68
313 789 236 79 62 56
390 779 172 71 55 46
245 54 250 96 29 35
431 552 302 69 15 28
237 69 230 117 32 43
347 596 418 147 17 34
304 874 281 164 123 90
276 214 270 122 97 69
325 224 277 113 91 66
387 516 242 53 40 37
230 205 273 112 92 70
236 214 287 112 91 69
356 569 389 81 33 30
288 840 269 187 130 107
251 138 277 107 89 70
378 520 236 94 19 26
204 534 235 116 19 38
337 913 246 76 68 68
274 69 230 97 42 38
190 509 295 152 0 40
245 55 253 113 26 43
231 212 277 111 91 69
229 479 354 90 22 35
268 549 204 77 34 39
319 429 219 130 20 41
318 424 322 139 100 80
339 169 290 102 83 62
363 19 296 87 46 42
321 456 217 82 29 29
331 318 338 134 95 68
368 15 285 95 41 47
498 874 280 87 66 51
253 729 336 41 27 26
368 729 224 72 32 33
313 824 249 77 60 55
241 167 277 114 94 73
268 159 275 109 86 60
322 819 314 158 114 90
215 588 271 97 23 38
200 558 276 185 0 49
246 52 252 109 23 40
250 64 263 99 16 33
246 54 255 106 53 51
383 799 284 73 57 49
246 144 243 120 94 64
381 104 264 125 77 67
380 780 292 86 67 60
190 494 295 144 2 39
278 10 295 115 71 58
239 159 251 108 89 69
242 59 245 106 27 38
255 719 262 145 0 39
324 411 223 186 7 17
361 528 288 133 109 94
237 453 225 91 22 29
281 334 318 99 68 49
378 635 212 107 87 63
241 64 242 100 72 58
286 77 257 129 37 39
239 229 247 130 100 63
353 59 286 117 95 70
254 425 241 82 69 56
418 539 280 66 15 26
262 540 361 58 26 34
304 583 384 115 29 47
243 64 245 107 74 66
363 914 265 72 64 65
274 209 280 113 90 65
372 194 290 120 95 66
238 489 180 131 25 41
249 44 265 110 39 45
318 953 369 90 83 82
243 134 260 109 90 71
323 789 324 73 58 51
243 379 330 120 95 69
233 439 245 86 29 31
360 649 306 116 17 42
236 737 288 47 32 31
223 604 335 182 8 55
248 184 289 112 93 74
367 89 284 96 43 44
244 59 250 115 22 42
244 139 270 108 90 71
201 448 306 117 11 34
421 812 246 83 60 49
250 25 266 103 32 35
236 299 263 120 92 62
416 739 223 56 42 31
364 522 228 82 30 23
245 59 253 121 21 44
246 149 243 124 98 65
313 759 226 128 25 42
273 814 339 155 123 97
328 574 411 109 12 35
200 433 262 130 6 30
233 454 165 115 9 36
282 589 412 156 108 91
374 774 301 93 73 64
246 84 261 103 26 38
501 616 368 88 27 40
242 144 250 111 92 71
238 409 335 125 98 70
247 59 256 115 39 50
504 610 345 87 9 29
276 941 342 138 107 90
268 425 220 85 70 55
255 15 284 94 28 37
225 354 294 123 96 66
249 380 333 121 95 69
248 109 265 114 94 73
303 869 352 124 81 85
435 855 270 74 61 48
228 524 346 103 15 38
199 421 267 143 5 41
403 569 260 88 34 40
299 944 368 42 40 41
248 74 210 123 40 39
313 929 254 91 80 80
238 274 300 120 94 68
463 553 316 89 10 27
255 21 261 102 81 69
374 631 221 100 80 57
342 470 217 94 31 32
258 14 270 96 59 52
245 62 253 117 16 39
247 64 255 106 31 45
345 513 213 123 14 29
299 24 270 129 42 43
237 184 249 126 98 64
345 407 253 110 78 52
305 822 252 81 64 56
253 79 211 139 21 37
257 434 190 59 22 25
228 289 290 125 96 69
218 609 290 92 21 40
239 69 220 111 37 42
230 622 329 144 14 49
205 421 299 68 29 36
352 349 305 131 102 70
228 219 275 112 91 68
253 364 329 120 95 67
353 309 295 133 99 72
433 724 165 94 71 51
263 784 346 157 114 81
213 669 308 133 98 66
248 209 244 126 99 66
273 69 225 129 34 42
239 249 298 115 92 67
192 469 290 114 13 36
368 254 285 146 107 72
224 234 270 117 93 66
503 569 330 105 73 66
237 69 225 118 34 45
277 269 280 99 82 64
231 275 292 120 93 66
370 438 256 82 7 27
364 83 240 128 60 59
228 724 304 115 74 52
338 459 320 126 91 65
288 414 295 61 42 34
404 616 446 132 33 53
246 347 317 110 89 66
427 562 316 73 19 24
249 159 242 132 101 64
293 789 241 76 60 54
225 359 295 124 95 67
442 914 333 80 65 52
217 484 230 56 33 33
414 475 289 102 3 31
239 74 220 130 15 44
249 92 217 151 23 49
401 732 178 60 47 37
443 573 294 115 87 49
343 314 281 132 102 67
390 861 299 36 32 30
422 604 385 121 15 42
233 249 254 130 97 59
355 149 262 126 98 65
363 734 222 59 32 34
232 179 260 113 93 72
437 575 334 91 8 28
250 727 337 74 49 40
350 62 252 136 20 39
318 509 200 94 29 35
428 580 370 127 13 38
487 615 384 170 17 53
346 790 218 68 55 49
248 409 254 92 77 62
359 514 225 49 36 39
404 582 326 90 21 35
253 112 226 176 96 99
248 444 185 59 30 33
468 494 304 132 13 43
229 339 300 125 97 69
438 604 280 202 134 108
238 74 225 132 17 44
387 59 260 98 42 42
231 529 347 48 27 30
245 107 238 129 20 43
230 461 227 73 25 27
335 382 258 95 84 73
432 742 181 61 48 42
204 719 325 170 116 91
404 854 286 51 43 41
463 592 340 163 21 45
268 104 230 119 42 42
240 79 220 137 7 44
327 253 321 113 91 68
308 513 306 154 11 57
235 319 303 123 97 71
239 79 225 137 8 45
293 899 360 154 110 95
295 822 257 82 64 57
225 486 194 109 7 34
228 469 220 88 23 29
239 299 303 120 92 66
368 519 235 86 24 25
214 414 271 98 83 73
333 194 295 103 83 61
393 94 235 145 31 50
284 533 412 54 26 32
243 644 285 172 9 46
248 364 260 97 81 66
424 555 270 171 1 44
249 577 374 159 12 50
257 575 223 193 9 46
249 124 240 124 99 69
338 242 322 116 94 71
374 174 280 122 96 66
267 419 334 128 94 65
225 278 275 136 99 68
274 454 330 132 96 69
333 299 279 114 90 61
243 69 215 112 36 35
308 378 259 91 78 66
347 529 212 111 22 30
372 122 252 153 105 77
453 484 286 141 24 40
365 204 268 135 104 64
212 478 244 58 35 34
273 799 259 75 59 51
334 780 322 81 61 53
246 109 255 115 93 68
243 430 245 85 71 57
407 854 270 73 63 58
251 524 203 61 33 39
258 114 235 147 102 74
248 69 211 117 35 32
379 54 276 117 14 43
294 369 315 118 79 64
237 239 249 129 97 58
293 429 180 69 41 41
234 465 211 99 15 30
266 124 247 127 99 65
237 224 291 114 93 72
245 66 212 111 42 37
410 577 317 92 19 35
279 294 275 96 80 63
245 69 212 118 35 34
463 540 290 151 16 43
303 534 400 124 11 40
383 699 275 136 14 43
343 504 214 118 12 25
233 174 260 111 92 71
460 881 257 255 255 254
355 244 317 121 94 62
241 67 218 97 36 32
367 139 257 142 102 66
268 439 155 140 28 37
206 488 243 57 36 35
333 489 311 118 80 61
318 249 295 106 85 63
216 473 244 73 36 32
274 769 348 109 87 72
215 400 281 115 93 67
422 600 287 175 120 110
323 434 322 140 101 79
358 549 221 116 20 37
431 854 257 96 81 70
242 174 281 113 94 76
240 70 217 115 40 44
263 504 190 43 36 40
369 689 244 66 57 57
225 273 271 136 99 67
448 479 294 124 19 44
253 204 244 128 100 65
244 454 348 58 26 31
258 234 247 136 105 68
199 489 324 67 30 34
304 834 313 161 116 94
294 518 397 44 27 29
423 599 385 139 15 47
276 220 274 123 99 73
264 464 340 129 88 69
243 74 215 124 18 36
434 907 322 83 67 53
208 504 335 83 27 37
253 464 165 112 29 40
261 632 348 67 41 39
417 764 235 128 89 54
238 582 359 40 27 30
247 244 302 119 96 70
269 119 250 131 99 69
225 607 272 199 11 52
281 714 243 81 24 35
298 959 360 67 62 61
367 887 342 34 31 30
233 254 255 133 97 60
245 74 212 127 25 34
292 384 290 78 58 49
288 409 255 75 65 55
507 555 310 92 75 59
231 470 164 149 6 39
415 541 275 55 21 24
300 902 281 94 66 45
275 336 268 81 71 61
408 584 346 51 23 26
231 334 274 120 94 64
397 607 253 98 76 46
478 593 335 167 20 40
248 189 244 129 100 64
343 774 319 82 62 53
360 420 274 102 83 61
449 545 298 68 8 24
270 144 270 113 87 59
264 288 312 104 83 61
199 439 262 108 24 30
411 827 245 79 62 53
306 592 397 127 74 68
248 49 260 117 26 45
403 615 415 119 21 47
248 79 211 131 30 43
413 639 250 195 130 101
222 454 249 63 33 29
245 78 212 129 24 37
302 412 224 99 83 64
359 60 247 110 31 28
337 556 365 59 43 31
258 204 244 130 101 66
233 804 295 181 122 90
289 508 391 56 26 29
248 39 260 113 32 44
228 294 285 131 98 71
235 199 279 111 90 68
410 561 258 45 36 40
461 877 269 108 91 79
202 478 254 69 35 33
278 599 366 55 26 29
211 659 352 155 112 83
308 589 460 117 94 76
366 732 328 186 19 62
234 329 271 119 93 63
329 224 310 109 89 67
323 930 254 92 83 84
360 244 312 124 97 65
240 653 305 138 13 41
289 594 440 171 116 103
246 125 249 107 89 69
225 264 267 137 98 64
327 339 338 135 93 67
241 76 218 130 7 43
430 592 273 113 91 65
265 525 198 193 12 41
304 749 231 144 7 39
260 153 282 113 91 67
233 624 280 127 21 45
243 424 251 88 74 61
302 384 322 127 89 73
253 125 238 141 106 69
322 259 279 124 95 60
232 319 301 125 97 71
241 80 218 138 6 45
248 559 220 89 30 39
373 59 240 122 105 88
263 594 234 94 33 42
220 389 299 122 96 68
371 204 293 121 96 67
262 734 341 96 21 37
253 69 210 124 30 31
248 109 245 109 80 60
205 718 333 169 116 92
253 74 210 132 24 34
353 494 305 138 98 77
258 74 271 110 43 48
206 647 330 108 86 60
302 924 255 78 68 65
226 479 218 96 16 32
348 489 309 132 94 71
319 299 281 109 87 61
352 69 254 125 74 58
344 89 265 121 33 43
508 589 325 125 9 39
244 84 216 142 12 44
278 476 368 75 21 30
263 194 246 120 95 66
258 384 333 127 97 66
250 431 231 77 66 56
231 233 287 114 92 68
328 644 238 118 17 36
308 829 315 165 121 98
220 603 276 194 10 52
263 74 274 117 21 44
357 425 242 78 27 28
353 774 210 60 49 44
252 243 247 135 103 67
220 598 271 49 31 36
301 400 317 129 88 73
281 295 294 87 76 64
383 58 245 120 104 89
196 504 249 129 10 35
320 548 390 74 46 39
348 209 313 118 96 73
338 229 266 131 100 62
340 966 337 58 50 52
247 85 214 145 23 47
441 494 297 117 6 37
240 199 247 126 98 63
262 714 341 38 28 30
378 55 246 125 108 91
201 684 320 167 115 87
273 74 275 113 91 68
232 219 254 122 96 63
403 689 220 115 88 56
305 518 380 78 11 30
352 561 375 59 45 31
358 898 225 90 76 72
217 704 346 170 117 92
287 74 260 116 89 66
215 764 338 171 118 91
277 744 352 164 20 52
249 83 212 141 27 44
275 346 268 77 68 59
243 164 245 125 97 63
230 355 272 111 90 67
244 104 230 128 16 44
443 866 231 91 76 67
347 415 237 54 39 36
237 329 306 123 97 71
231 457 233 71 29 29
393 64 250 83 55 42
464 519 289 47 29 33
235 184 252 119 94 66
248 779 349 163 122 88
345 885 222 102 83 69
253 144 240 136 103 65
403 729 255 158 106 79
250 79 264 102 41 44
310 579 425 84 2 29
220 597 338 145 14 45
210 547 328 167 0 51
241 84 220 141 4 45
360 250 273 144 102 66
332 850 319 145 112 87
357 938 359 66 57 53
248 494 189 103 22 39
270 139 258 123 97 67
328 25 285 141 35 57
443 494 286 65 31 33
206 534 230 167 11 45
232 319 270 125 95 66
240 83 225 139 8 47
319 823 247 83 64 57
266 160 278 109 86 60
368 758 205 59 49 42
215 719 343 170 117 92
398 587 271 85 29 37
234 480 359 54 27 30
358 189 306 117 94 69
381 547 266 67 23 27
272 514 347 125 83 71
191 526 280 117 28 47
277 874 325 152 114 88
357 424 314 137 100 71
267 214 289 112 89 63
234 459 156 137 18 37
258 109 274 113 94 74
418 604 385 103 22 38
452 579 296 112 85 51
436 497 288 64 36 40
253 189 244 125 98 66
241 85 224 139 7 46
243 493 186 187 11 43
270 139 265 112 87 60
417 592 339 119 22 44
240 150 268 111 91 70
294 729 236 65 33 38
243 179 245 132 101 62
194 519 315 32 28 33
302 679 238 58 35 37
344 844 225 65 58 59
257 154 242 133 101 63
337 214 268 124 96 61
283 739 245 99 25 36
413 884 339 51 45 42
192 489 260 94 27 36
195 532 313 71 31 35
278 425 170 102 37 37
399 579 264 33 27 32
263 369 261 88 77 67
243 614 375 128 97 69
334 951 361 58 54 52
367 728 328 185 19 60
243 89 220 139 8 44
241 193 287 112 92 71
309 444 214 80 26 35
257 128 277 112 92 71
333 369 260 98 85 72
348 304 320 134 98 69
197 494 250 86 30 36
328 429 324 145 103 78
348 624 239 69 29 36
299 12 285 133 82 85
298 565 208 186 5 42
348 49 286 107 28 42
502 614 365 99 28 39
241 89 225 134 7 44
253 834 295 73 60 57
333 14 265 130 58 53
272 94 235 126 45 45
244 94 221 139 11 43
322 810 238 83 64 56
399 481 275 72 14 27
442 526 287 72 0 25
200 534 246 134 19 37
253 309 314 121 89 62
226 794 299 181 120 90
313 974 300 89 84 86
318 654 339 49 26 32
221 418 321 125 98 71
377 549 255 65 16 28
342 509 212 122 12 29
207 454 320 125 3 38
333 581 428 94 6 32
286 339 295 69 58 47
247 452 147 162 23 39
349 299 320 134 98 69
243 249 301 117 93 68
255 37 278 121 17 44
243 94 225 133 9 43
312 590 459 117 94 76
438 556 314 65 18 23
246 91 218 146 9 40
408 618 273 187 126 112
258 219 245 132 101 66
253 103 222 132 65 59
259 63 213 104 35 27
220 498 186 154 11 41
194 459 295 108 12 35
364 504 230 53 37 38
248 359 325 115 92 66
230 189 260 113 93 70
318 619 345 75 30 39
366 194 299 122 97 69
328 684 232 57 36 38
371 459 284 125 89 62
392 714 295 38 32 35
246 448 185 53 31 34
304 422 207 152 29 26
214 409 295 114 91 66
248 95 219 118 56 52
381 691 277 146 16 46
303 586 370 86 21 38
349 609 449 143 28 42
364 55 246 91 39 30
383 659 208 122 92 55
295 416 194 144 37 35
309 562 422 56 24 27
253 83 212 149 23 45
253 89 215 153 19 46
310 276 300 101 82 63
342 84 270 104 76 56
342 279 328 125 94 60
194 444 266 110 15 30
531 860 274 97 76 57
246 129 244 115 94 70
327 548 207 66 38 40
348 213 263 131 101 64
408 553 270 49 21 26
270 124 254 133 100 71
264 542 337 129 64 67
428 609 265 164 113 81
405 795 190 76 57 49
211 422 307 89 28 36
308 479 306 102 65 50
252 92 217 159 19 49
237 69 235 112 30 40
372 685 314 126 10 39
233 179 255 116 94 71
226 339 285 116 92 64
449 839 251 89 76 65
270 90 233 100 53 46
237 74 230 129 20 45
405 654 225 173 118 87
380 846 278 33 30 29
243 494 375 75 25 32
268 622 388 198 135 114
239 79 230 131 8 43
322 617 455 144 78 80
393 884 270 60 54 55
240 500 378 107 9 32
498 614 365 84 24 37
276 234 279 119 95 69
253 224 300 116 95 72
483 529 301 80 17 33
311 822 318 148 97 75
228 309 280 125 96 69
224 379 305 123 97 67
246 98 242 112 85 68
237 74 235 122 22 43
378 499 250 84 20 28
239 74 240 107 38 45
375 500 248 97 16 30
227 339 295 124 96 67
358 179 304 116 94 70
393 578 354 74 22 32
225 497 182 214 17 54
303 380 261 87 75 63
405 566 258 59 33 40
292 417 210 117 51 42
236 189 276 111 91 69
425 549 268 156 0 38
258 429 340 134 100 68
377 66 232 88 18 29
362 274 305 140 101 72
225 475 348 125 14 42
482 569 298 119 87 54
333 764 220 69 52 48
287 490 379 65 24 28
229 224 256 122 95 62
380 43 265 95 69 54
248 229 300 114 93 70
346 159 268 116 90 56
239 79 235 121 17 42
366 189 298 124 100 73
375 472 267 108 61 50
473 493 291 83 30 35
240 79 239 101 58 52
288 509 200 126 4 27
418 858 275 58 50 44
252 272 252 146 106 74
353 739 218 42 36 38
194 519 255 151 12 41
267 507 392 96 28 39
294 533 407 114 13 38
283 420 185 71 41 37
254 435 210 60 47 42
233 819 346 192 134 107
241 709 295 97 15 35
369 664 254 30 28 34
246 222 297 114 94 73
251 169 243 133 102 64
379 604 255 82 27 33
365 259 306 128 95 66
427 863 275 68 59 50
259 169 243 138 106 68
302 903 273 70 60 51
240 84 230 133 7 44
553 864 274 115 91 72
211 531 213 174 14 47
248 674 285 50 30 37
282 304 275 93 79 64
196 520 317 40 27 32
230 625 364 130 100 69
244 189 288 112 92 72
336 305 333 125 94 62
240 84 235 123 17 42
248 489 185 158 21 45
333 579 425 86 13 26
323 514 202 82 34 35
206 452 317 130 8 40
256 568 386 93 28 38
375 522 233 91 19 26
241 68 242 105 60 55
368 819 285 44 35 36
195 435 266 115 10 29
354 416 249 106 39 31
227 433 254 85 32 26
210 502 339 119 25 45
255 641 367 182 117 95
331 212 273 116 92 61
286 339 300 73 60 49
216 394 285 120 95 67
344 27 294 140 22 53
254 456 158 202 10 43
244 69 250 106 22 40
373 179 275 125 98 67
254 19 265 102 50 48
308 559 206 107 30 45
224 354 285 119 95 66
456 839 249 90 77 65
273 424 330 129 93 65
378 114 240 150 24 40
335 349 332 133 96 69
226 254 286 118 94 66
244 389 333 123 96 69
384 503 253 74 24 25
279 825 331 51 42 39
328 613 451 113 25 46
248 508 197 187 9 41
208 689 310 144 104 70
269 293 312 106 82 59
231 222 282 112 91 68
243 529 208 134 16 37
425 714 190 72 59 46
271 914 323 167 131 107
241 144 260 111 93 74
317 584 436 83 11 30
422 784 245 135 94 61
245 70 253 104 14 38
279 100 260 135 81 71
403 884 315 55 48 43
300 441 198 152 0 40
361 228 267 136 104 65
273 520 404 45 28 30
242 74 245 99 54 53
276 219 266 121 96 67
273 54 235 70 43 24
316 617 463 176 126 117
407 699 230 136 94 61
438 580 350 77 18 29
295 967 317 75 70 68
369 449 238 94 29 40
242 209 291 112 92 72
382 700 319 136 13 43
241 75 242 106 71 65
273 425 170 99 38 37
372 224 285 125 98 66
244 129 255 108 90 72
247 74 256 93 34 36
303 529 198 114 16 34
241 318 307 121 95 68
242 79 245 108 37 47
233 464 215 93 19 28
257 432 215 72 61 52
343 579 365 151 14 49
258 469 171 119 30 43
306 288 299 94 78 62
242 159 275 112 92 72
205 564 314 116 15 39
328 560 340 82 66 49
244 79 255 100 30 39
396 845 245 63 56 56
241 89 230 135 11 46
232 759 347 168 121 93
313 719 229 95 26 35
452 617 371 204 16 48
257 164 242 135 103 65
229 469 170 110 8 35
333 884 230 64 58 59
329 921 368 38 35 36
361 426 270 100 80 55
233 424 334 121 96 69
468 559 319 133 12 43
335 49 271 113 76 61
396 83 232 132 30 45
341 718 338 113 29 44
382 883 255 70 63 63
240 83 239 120 15 41
241 89 235 117 34 47
368 474 295 134 94 70
373 644 209 137 104 68
230 480 200 95 16 31
243 229 245 132 101 63
238 550 219 127 23 40
400 698 247 158 103 79
189 504 285 147 0 40
238 434 240 86 44 39
211 595 315 94 24 39
201 529 322 109 24 42
428 484 285 52 34 34
323 454 219 49 36 36
498 875 275 95 74 55
251 729 338 91 61 51
242 454 347 76 25 34
241 86 237 111 24 39
364 18 269 110 92 78
341 384 328 141 102 73
294 904 277 123 78 57
196 423 282 126 11 38
211 648 346 135 102 68
269 554 380 128 6 42
338 573 385 46 28 26
463 574 329 123 8 38
238 219 249 123 95 61
240 419 338 128 100 72
328 559 210 68 33 37
333 594 440 118 10 38
258 299 260 100 82 64
241 85 240 115 39 47
336 792 318 67 56 54
223 428 258 94 37 28
426 756 218 73 55 41
456 874 308 76 59 47
225 349 281 117 93 65
268 544 347 131 61 65
370 518 238 88 21 24
304 459 209 103 14 28
212 684 346 175 121 97
493 604 340 124 8 39
342 952 272 81 75 75
213 679 309 132 98 65
249 103 222 111 84 74
191 529 290 56 31 36
289 853 285 194 130 100
243 89 240 105 77 64
268 479 371 76 25 32
384 589 275 115 15 41
253 204 296 114 93 72
240 170 278 113 93 72
422 729 207 60 48 38
368 94 284 105 78 61
346 69 258 127 29 33
211 517 220 55 29 32
360 611 317 132 38 56
485 566 297 122 87 54
242 94 230 132 17 46
253 94 270 107 32 43
294 598 226 104 20 40
427 724 208 69 54 41
346 109 270 122 94 68
323 479 209 77 29 29
383 69 230 104 34 22
437 538 276 142 7 39
386 877 247 65 59 58
272 703 347 60 24 30
402 528 256 66 11 23
223 444 334 117 15 39
248 389 257 96 81 65
240 154 251 107 88 69
315 587 451 80 69 57
323 444 221 54 36 37
295 380 266 71 62 54
223 474 345 131 5 39
233 579 236 112 25 40
309 299 330 109 84 58
423 548 296 73 18 28
457 919 319 92 72 58
308 569 335 81 66 48
231 324 273 130 99 69
349 33 288 97 52 45
425 755 190 67 52 42
268 464 171 55 36 40
220 712 348 171 119 94
252 634 269 170 4 42
242 94 235 123 22 43
312 288 288 102 82 60
303 693 352 140 10 44
234 299 299 120 96 69
189 484 275 86 28 39
253 435 215 69 58 49
373 769 305 95 73 64
240 149 255 111 93 74
257 590 352 114 25 44
225 374 304 123 97 67
197 529 316 47 30 32
307 309 335 115 89 62
273 11 300 113 75 59
347 349 319 130 101 66
403 674 235 154 103 71
438 889 320 85 71 61
221 498 215 72 25 32
243 94 240 122 26 45
475 597 342 111 24 32
358 34 256 76 34 26
387 748 180 56 47 40
322 17 298 161 105 91
240 665 350 157 102 80
241 84 245 110 48 51
208 694 340 171 116 92
299 952 277 72 67 68
228 600 260 204 14 53
283 479 320 137 95 74
234 209 252 124 97 65
261 112 230 145 83 71
219 499 220 57 28 31
210 594 300 183 1 48
393 808 175 95 72 58
273 500 188 79 35 42
293 894 361 176 131 113
336 298 333 123 92 58
253 469 170 88 33 43
242 89 245 115 48 51
330 244 272 129 98 61
242 84 250 96 59 51
386 87 227 146 22 41
347 819 215 60 52 50
234 450 164 89 21 36
380 460 249 140 14 36
220 475 231 56 31 30
233 419 255 103 84 63
508 874 271 100 81 62
318 259 310 105 86 64
244 84 255 102 38 44
246 710 338 128 81 69
234 249 294 115 92 68
266 354 262 85 74 64
278 29 255 75 39 26
278 764 348 61 51 49
298 504 305 149 15 50
243 89 255 107 39 46
228 554 220 144 28 46
244 94 245 125 46 53
433 553 305 65 16 28
452 842 255 89 76 65
380 43 270 99 29 35
266 252 252 134 105 72
309 618 232 68 36 42
246 96 245 118 88 72
219 439 256 101 25 23
234 279 261 127 96 62
376 29 275 95 40 37
374 433 243 74 31 31
439 544 279 86 31 39
352 309 315 139 103 74
314 770 337 84 64 54
328 639 334 117 30 47
214 499 350 128 17 42
248 129 240 123 97 65
227 789 295 169 112 79
244 94 255 105 85 64
241 664 320 68 39 40
239 454 215 87 23 28
355 139 262 125 97 64
418 769 160 115 84 60
246 163 282 111 93 75
248 275 253 144 104 72
249 39 265 116 31 43
234 204 280 111 90 68
248 495 379 83 20 31
514 865 191 95 85 75
252 84 266 97 66 53
250 320 313 117 90 61
259 244 302 118 94 67
322 683 233 45 34 36
232 433 337 38 30 30
448 574 329 118 7 38
224 529 343 152 0 46
332 424 227 103 27 35
248 454 150 190 13 42
330 210 272 115 91 62
319 493 203 120 11 25
443 869 316 52 42 35
258 99 222 151 17 41
248 334 262 102 83 62
210 499 344 162 9 50
255 388 258 96 83 69
245 97 222 147 12 44
312 402 243 101 88 74
383 119 245 136 87 83
253 384 334 124 97 69
362 199 304 122 98 70
263 689 339 87 27 40
409 775 157 95 68 51
215 400 285 118 94 67
378 580 352 73 14 30
305 324 333 120 84 64
244 99 225 139 12 46
371 95 238 145 15 45
266 724 347 155 16 49
327 583 447 54 22 29
248 99 221 113 68 66
234 469 180 92 20 34
240 451 220 78 25 27
344 104 275 116 89 65
348 779 215 67 54 48
238 174 250 116 93 65
360 668 311 144 9 46
338 264 271 135 103 65
253 119 236 146 106 72
508 818 217 83 65 54
353 435 236 86 30 27
246 148 277 109 91 73
246 100 223 143 16 45
340 165 289 102 83 61
303 299 295 89 74 58
247 104 224 129 35 50
210 460 328 129 1 39
343 944 370 69 62 58
196 454 295 121 3 35
373 184 285 123 98 69
401 574 266 40 27 31
453 484 295 137 14 43
243 219 246 128 99 64
243 579 235 152 16 41
248 109 225 118 52 56
338 699 228 77 28 30
223 264 275 128 96 65
234 179 265 111 91 71
353 324 300 124 97 65
249 74 260 93 71 57
340 344 327 128 96 64
447 530 285 77 0 27
232 464 220 85 23 28
206 437 307 94 23 35
387 903 300 61 54 54
254 105 223 133 56 51
213 429 264 115 16 25
268 842 314 42 37 37
526 886 272 93 80 71
316 441 317 117 85 66
249 154 242 133 103 65
292 379 295 89 61 51
230 240 288 112 90 66
383 115 256 111 33 44
232 488 362 92 19 33
219 379 290 121 96 67
211 696 342 170 115 93
253 109 224 127 77 76
215 767 302 147 106 72
334 424 228 95 30 36
251 72 262 107 82 68
323 965 279 97 93 96
317 304 284 100 82 62
238 581 361 58 22 29
288 669 245 56 35 37
279 416 236 77 65 52
387 574 242 141 16 39
230 473 167 146 8 38
225 219 265 116 93 66
382 74 269 115 21 42
214 509 200 98 25 36
270 419 332 128 92 66
243 99 230 129 15 44
226 791 298 175 115 85
362 734 329 62 25 34
364 29 259 120 101 79
445 469 286 95 24 33
253 239 247 135 104 66
232 209 254 119 95 65
353 634 246 65 29 35
207 519 331 67 30 34
273 424 205 55 43 37
245 103 226 135 14 42
263 435 155 112 46 37
239 329 308 122 96 69
241 270 253 139 100 66
243 249 248 136 101 62
393 754 169 53 43 38
248 459 155 195 13 44
370 659 212 145 106 73
402 749 264 148 99 72
231 459 165 115 9 37
322 824 313 159 117 90
308 499 300 123 23 45
243 99 235 126 24 46
346 671 237 89 30 34
390 581 254 50 28 29
257 159 242 134 103 64
271 139 263 112 88 61
281 73 247 123 96 75
369 164 291 119 95 66
387 675 248 120 70 57
245 122 247 110 91 70
263 459 345 103 63 52
278 418 230 80 67 54
215 470 246 63 33 30
240 209 247 121 96 64
231 321 273 132 98 70
306 541 323 116 90 68
370 687 317 105 7 36
246 124 245 114 93 71
369 698 326 139 7 44
397 583 265 48 28 30
332 204 300 104 85 63
354 284 316 134 100 70
258 824 344 177 128 102
366 664 218 149 109 82
228 404 260 106 86 64
202 504 240 96 23 34
251 616 258 60 35 39
240 460 179 58 30 33
343 444 321 142 100 74
250 36 256 99 29 36
243 639 376 180 123 99
357 563 227 155 0 36
355 213 312 120 97 70
247 432 234 78 67 54
302 774 240 75 60 52
366 416 247 92 29 30
364 64 241 88 40 30
259 378 332 127 99 67
338 669 236 100 18 27
294 374 280 64 56 49
244 99 240 102 64 51
356 834 284 141 109 91
298 749 236 155 3 39
210 416 294 94 80 65
375 124 270 116 92 63
193 529 270 66 31 34
234 454 155 107 23 36
406 716 208 78 62 60
248 729 340 139 89 72
377 50 251 124 108 91
236 448 233 91 23 31
468 484 290 124 20 41
253 113 230 148 92 77
328 564 335 83 67 50
442 598 299 194 131 111
381 98 269 121 73 64
367 64 283 108 17 41
253 524 380 153 11 50
245 107 227 131 14 42
406 857 262 72 61 59
297 29 266 133 51 52
250 646 367 184 120 97
448 921 325 90 72 57
247 443 215 69 31 29
263 15 261 95 81 68
318 479 310 109 74 55
266 364 262 85 75 65
253 249 304 120 96 69
367 639 290 165 17 50
358 794 304 45 37 38
245 107 230 129 18 40
367 548 227 151 19 43
245 107 235 133 17 46
458 874 295 92 68 56
252 525 370 164 0 50
244 339 314 111 89 64
398 569 305 84 25 34
481 611 353 81 9 24
294 849 305 170 118 93
224 455 338 124 9 38
247 110 235 134 40 53
322 669 338 163 8 52
418 799 260 155 112 87
313 679 344 149 14 47
300 21 296 170 111 93
333 605 345 52 29 35
360 779 196 66 53 45
268 449 335 131 97 69
234 199 252 124 98 65
233 389 260 105 86 65
300 864 286 172 114 85
292 421 182 111 46 39
406 749 168 60 48 41
405 854 259 80 70 64
247 109 240 124 72 61
245 100 245 107 54 47
483 875 245 105 84 70
308 949 370 70 66 66
252 64 265 98 22 36
245 109 255 115 93 68
283 519 320 162 19 66
312 889 265 60 55 58
246 98 244 108 84 67
235 471 206 105 11 29
446 552 298 58 30 31
387 583 290 98 30 46
225 635 363 139 102 74
248 249 248 135 102 64
288 654 247 78 28 35
218 729 345 172 118 94
215 727 343 170 116 93
358 884 215 108 87 75
273 639 346 61 25 31
339 413 244 147 28 20
367 68 238 112 36 26
227 610 274 200 13 51
349 789 311 45 39 40
437 904 333 67 53 39
199 474 256 67 35 35
333 479 211 84 29 33
245 103 245 132 19 46
229 444 338 58 25 30
323 379 256 95 83 72
391 577 300 100 33 39
371 504 242 108 20 30
244 99 250 111 48 48
401 601 403 136 12 43
383 89 229 150 19 41
334 44 275 104 11 36
304 314 330 114 81 58
244 99 255 116 32 45
358 879 219 102 81 64
483 855 200 103 88 75
363 234 270 137 103 63
244 410 338 126 98 70
194 539 280 108 21 40
438 577 289 111 83 43
290 485 297 121 68 61
272 924 315 97 82 72
293 417 205 124 42 36
245 89 259 99 40 42
263 179 246 137 105 68
439 576 291 110 82 42
231 299 296 123 96 69
338 575 380 43 24 27
351 810 208 58 50 47
300 653 242 94 26 32
245 104 250 121 33 48
239 510 198 149 9 36
377 609 255 69 28 36
245 104 255 115 64 57
238 299 261 116 90 61
354 374 310 126 98 65
326 26 274 134 48 51
268 580 361 153 15 49
338 334 276 111 91 68
232 184 255 117 94 69
339 955 351 57 52 51
241 664 315 79 28 37
536 881 278 96 86 79
365 74 236 126 38 42
392 64 255 90 38 32
322 758 338 88 69 57
298 604 450 158 111 95
320 16 282 159 100 90
283 839 270 169 122 97
246 106 245 120 56 52
253 299 314 127 92 68
236 255 253 133 97 60
368 809 290 50 41 40
254 798 271 76 59 54
352 601 423 92 11 26
271 118 252 136 102 73
252 438 175 56 18 27
246 106 241 126 26 43
253 244 303 119 96 70
398 769 280 156 114 89
250 25 269 98 35 38
218 429 260 98 24 22
246 106 249 109 72 58
277 621 347 59 22 28
399 879 296 44 38 35
400 503 273 81 16 27
333 744 336 87 67 60
274 924 310 66 59 57
341 167 292 102 82 59
245 107 252 108 83 62
318 574 215 46 34 37
301 392 263 93 80 66
293 374 290 76 58 49
370 610 306 163 17 57
332 704 343 104 23 39
363 416 249 100 25 31
255 289 313 111 89 64
323 387 253 95 83 71
343 249 269 133 100 62
246 810 283 50 47 47
238 289 301 120 95 69
358 249 315 123 95 62
197 509 321 72 31 37
273 469 175 68 34 39
275 557 207 167 13 45
256 526 380 101 29 43
230 209 256 117 93 64
408 610 404 134 11 46
344 94 265 109 40 43
249 112 227 157 68 79
362 754 318 88 67 58
240 832 312 214 144 113
283 84 265 117 87 65
244 174 284 113 95 77
254 644 350 163 103 86
249 112 230 149 77 75
269 89 230 106 61 48
277 509 195 172 5 37
253 399 254 95 81 66
233 804 350 178 129 101
250 113 235 132 93 69
206 680 342 174 120 96
368 634 290 175 12 55
229 234 284 113 91 67
267 244 252 134 102 67
305 432 313 113 82 62
364 139 257 130 96 57
371 468 242 95 28 34
343 549 214 151 4 33
338 934 374 59 54 52
243 194 246 128 98 61
205 435 304 112 14 39
442 533 277 179 5 40
401 670 238 159 105 78
239 189 284 115 95 74
376 29 280 87 42 42
333 964 280 82 77 80
323 954 271 95 88 90
194 539 285 158 10 45
278 469 176 98 27 39
287 830 263 64 52 52
277 274 290 96 81 66
353 564 315 73 57 42
253 114 234 142 100 70
422 799 235 80 59 49
390 101 238 158 42 60
213 549 225 133 21 45
333 254 271 132 101 65
249 114 240 119 93 64
377 34 270 98 70 53
281 564 416 94 21 35
298 797 242 79 64 56
229 299 275 126 94 65
284 572 212 129 16 35
324 719 347 166 7 53
252 560 219 147 16 40
195 474 309 131 1 39
249 119 240 121 97 68
481 516 303 134 12 43
240 451 216 77 28 29
243 219 295 111 91 70
263 219 295 113 90 65
391 711 285 85 23 35
232 469 175 89 21 34
251 120 238 131 102 66
354 433 238 81 35 29
438 914 325 90 73 60
197 549 285 181 0 49
387 459 255 86 28 36
346 154 268 116 91 60
323 553 355 68 51 38
443 615 420 84 28 30
232 204 275 110 90 69
336 632 237 100 19 29
219 694 348 170 117 91
374 84 276 102 62 51
243 520 204 131 25 40
253 123 237 144 105 68
387 754 173 57 46 39
338 394 328 141 99 72
286 27 293 143 31 57
238 214 290 113 93 71
380 499 253 70 25 28
394 884 300 36 33 32
225 500 363 132 7 41
252 334 317 119 93 65
253 154 241 134 102 65
217 394 280 118 94 66
276 264 271 113 90 62
348 64 255 130 26 36
312 818 319 151 100 79
236 472 200 106 11 31
253 129 238 138 102 64
437 602 294 200 132 112
248 114 245 105 83 57
249 34 265 104 38 41
240 450 169 86 21 34
399 508 265 91 11 29
400 839 254 84 68 58
363 69 240 120 41 37
363 729 223 62 32 31
228 709 349 169 117 91
247 119 245 110 90 67
359 829 201 66 56 51
218 669 356 179 126 101
318 609 440 113 55 60
245 663 292 142 4 39
307 639 343 162 21 54
308 966 342 65 60 58
246 114 250 106 85 61
403 612 244 107 89 70
350 883 321 94 79 66
279 323 317 105 70 51
438 874 337 70 59 52
240 221 247 126 96 60
273 425 175 72 33 29
277 959 340 67 63 63
417 499 291 75 21 30
245 114 255 114 92 69
223 499 184 198 15 45
337 825 238 82 64 56
293 659 345 164 18 51
247 493 377 60 27 29
245 116 252 109 88 65
246 113 253 113 91 67
273 79 275 104 69 54
286 374 290 82 61 42
249 144 241 132 102 65
378 689 255 44 26 32
246 820 288 40 37 47
282 509 314 152 18 53
311 541 366 78 42 39
230 329 276 126 99 69
253 134 239 138 104 65
414 612 248 104 88 70
488 539 315 135 6 43
245 119 250 106 87 66
244 445 175 70 26 32
298 874 355 145 88 90
435 505 298 101 3 29
228 199 260 118 96 71
277 424 324 130 89 65
249 129 274 107 90 73
393 789 169 72 57 49
216 502 200 60 32 33
294 578 379 142 13 48
396 898 348 47 40 37
230 389 262 108 88 65
327 461 217 83 31 33
281 596 382 101 51 50
443 590 335 72 23 32
238 164 250 111 90 67
412 576 292 61 27 32
253 334 261 102 84 65
294 538 411 124 6 38
351 105 258 132 19 38
283 724 359 172 19 55
302 309 315 107 80 57
287 494 310 140 83 72
333 469 317 113 81 56
245 119 255 109 90 69
232 224 254 124 96 61
346 129 285 103 83 61
278 99 265 125 82 66
280 828 267 83 64 57
315 351 267 90 79 68
217 419 315 114 91 67
220 792 307 192 127 100
245 124 250 106 88 68
225 676 352 180 121 97
364 104 246 121 53 45
277 20 302 131 94 71
251 100 267 111 88 66
331 588 451 56 22 29
233 314 301 122 96 71
358 489 229 58 35 36
230 479 210 97 17 28
203 459 259 54 37 35
303 793 241 79 63 56
245 129 250 110 92 74
275 630 348 35 25 24
362 908 256 66 59 61
283 309 290 79 66 52
268 489 184 61 36 42
359 668 244 61 25 30
245 154 278 110 92 72
243 317 262 101 81 59
298 459 205 145 1 35
246 128 248 113 94 74
212 599 310 49 31 35
370 245 296 130 100 67
284 869 335 145 76 90
312 511 303 154 12 54
323 604 225 113 27 40
263 154 246 126 98 65
248 134 241 125 97 64
242 459 190 101 15 34
347 454 318 137 98 71
371 481 242 58 27 27
360 178 302 116 93 68
209 514 230 101 15 32
376 679 280 50 27 33
318 434 320 136 97 79
249 139 241 127 97 59
259 604 390 147 109 85
436 876 338 70 60 52
363 219 305 123 97 68
251 166 243 132 102 65
345 556 218 174 4 38
228 494 180 201 16 49
428 617 420 199 16 66
236 163 260 109 91 72
242 274 253 141 102 69
218 439 330 73 27 34
298 834 260 181 131 108
253 139 239 136 102 64
242 442 160 49 24 28
349 664 321 162 16 51
453 479 285 132 23 40
271 144 263 113 89 61
273 509 395 59 26 31
283 454 315 128 93 68
194 489 256 66 34 36
456 836 248 89 75 63
230 632 296 40 33 34
244 431 241 82 70 58
432 729 200 76 59 46
245 130 247 114 94 72
243 419 339 127 99 71
246 133 272 107 89 71
338 39 260 128 32 39
373 89 279 92 57 47
250 54 263 118 19 43
228 670 356 178 119 93
348 294 285 135 102 68
443 618 425 159 18 53
313 859 269 168 119 93
264 430 165 83 23 28
324 818 241 83 64 58
278 779 252 74 58 52
292 384 280 65 57 50
195 499 252 121 20 38
423 884 339 61 52 45
210 490 339 126 4 38
365 811 292 97 78 68
199 504 245 122 12 33
343 39 284 110 29 45
248 44 260 84 46 39
448 618 415 140 17 47
373 934 350 67 58 55
238 419 255 99 82 63
359 785 306 82 63 55
246 134 244 117 94 69
377 684 270 139 21 46
199 485 252 62 36 34
384 804 281 73 56 49
385 64 266 111 18 42
246 139 243 116 92 63
228 739 348 172 120 93
338 26 292 143 31 56
346 94 282 99 53 49
395 911 318 72 62 59
244 134 250 112 93 73
225 219 269 113 91 66
240 169 247 122 96 64
353 590 353 110 8 34
209 479 334 57 22 31
254 244 248 136 103 66
369 789 296 79 61 54
278 415 240 79 66 53
357 726 222 63 34 30
359 558 291 92 71 50
216 574 327 158 2 47
214 464 334 133 4 41
347 188 307 112 92 72
243 134 255 110 92 74
268 499 335 138 96 79
237 199 249 126 98 63
400 804 272 153 114 89
248 403 337 126 98 69
394 844 230 72 63 61
238 454 151 72 36 39
303 489 300 102 47 47
353 89 285 107 65 53
370 624 292 183 2 57
313 561 208 51 36 38
295 704 237 116 17 32
294 580 388 111 30 48
353 364 295 118 93 65
244 144 246 115 92 67
291 52 262 138 25 35
358 701 232 89 21 29
236 622 344 70 51 33
240 436 236 75 43 36
458 499 289 59 29 33
265 239 297 111 88 61
372 893 256 73 66 65
243 139 250 112 92 72
318 459 315 99 72 50
438 529 270 185 1 43
358 44 286 119 95 73
215 568 245 191 7 51
211 493 233 52 35 34
254 19 280 93 36 45
361 74 243 79 47 35
298 579 389 98 23 40
241 144 255 112 94 75
268 524 200 172 5 37
273 324 320 119 82 61
356 389 285 108 89 67
244 149 246 114 92 66
226 487 196 102 12 34
298 454 307 98 65 47
268 40 246 115 99 82
418 719 206 59 48 37
230 651 317 106 63 45
368 539 224 89 34 38
236 674 335 136 87 71
208 439 261 86 26 30
249 149 241 132 101 65
232 467 172 79 22 30
333 588 455 64 24 30
343 414 235 98 32 31
243 234 246 131 100 61
372 464 241 83 25 36
242 149 250 109 90 69
286 473 181 52 33 37
212 514 225 98 18 30
293 369 305 104 71 57
366 670 304 142 4 43
253 289 258 107 84 60
369 549 275 107 76 61
241 148 253 111 93 74
240 146 256 112 94 75
238 254 251 135 99 62
247 159 243 129 100 62
250 606 375 113 87 60
288 834 264 120 94 82
282 586 223 195 7 43
308 634 239 146 12 37
283 409 260 76 63 49
326 238 311 109 89 67
231 202 272 111 91 69
365 641 221 111 87 62
243 159 245 119 94 63
348 164 266 123 93 56
270 794 342 170 124 93
280 461 173 176 11 38
308 884 364 157 114 95
190 519 280 158 1 40
193 499 255 138 15 40
269 364 264 82 72 63
241 158 248 109 89 66
273 425 180 48 27 26
228 209 270 113 92 68
408 784 155 97 79 66
253 581 357 150 13 48
395 571 307 74 20 32
352 849 294 142 109 85
248 774 348 164 118 87
252 544 210 130 16 39
253 199 244 122 97 66
298 319 295 75 60 47
266 448 338 129 94 67
259 608 246 105 35 45
253 149 240 135 103 66
306 348 278 78 68 59
422 628 255 195 131 102
403 584 348 60 20 28
288 364 315 115 73 60
298 416 210 132 40 36
243 329 310 119 93 66
428 550 300 75 12 29
253 159 241 133 101 64
243 319 309 120 94 66
330 697 342 31 29 32
235 165 256 113 94 74
468 878 246 101 77 60
227 279 270 135 97 66
399 715 200 77 60 45
295 826 322 41 34 39
242 618 345 42 26 27
276 107 256 142 99 78
232 239 254 126 96 59
343 568 319 84 69 53
265 426 221 86 68 53
310 847 262 177 122 97
356 508 298 138 96 78
238 199 285 114 93 72
253 448 147 180 11 39
410 780 170 77 61 47
268 404 260 87 74 61
408 499 279 75 16 28
288 534 351 84 38 41
232 453 342 95 13 32
235 169 255 112 93 72
312 613 435 176 110 106
399 605 264 99 48 45
281 294 281 92 78 64
272 169 265 117 94 69
236 169 253 111 91 69
283 963 335 67 62 62
245 577 373 175 10 58
253 440 150 112 39 34
252 648 360 180 116 94
207 514 234 91 22 33
237 469 200 107 10 31
355 587 407 80 22 38
355 484 228 110 24 36
234 174 255 114 94 71
253 480 179 74 38 39
259 640 342 143 24 50
352 824 294 147 112 91
228 369 310 122 95 66
250 29 265 101 41 43
238 464 205 101 12 30
301 389 264 87 74 61
235 175 252 116 94 70
243 835 335 203 139 112
224 249 280 118 94 66
232 189 255 116 93 67
403 524 256 73 7 26
493 529 304 55 31 31
388 89 229 148 26 45
264 57 224 89 52 25
226 222 272 113 91 67
293 719 362 154 24 52
244 129 260 110 91 71
375 746 207 82 64 46
306 428 201 150 1 38
482 501 299 94 24 38
248 174 243 133 102 65
486 877 266 89 70 58
417 779 205 77 59 50
240 174 247 125 97 62
199 449 262 115 21 31
402 799 180 79 63 52
323 400 245 102 87 72
508 822 224 82 67 53
288 69 260 117 84 63
251 810 278 74 59 53
296 444 186 124 17 38
253 224 245 134 103 66
248 179 244 134 103 65
326 622 232 105 37 47
240 179 247 128 98 62
240 184 247 130 99 62
206 736 327 174 118 93
350 804 207 56 48 45
287 409 270 71 62 52
424 617 420 204 15 67
283 591 387 107 64 55
338 684 334 89 25 38
378 109 238 147 23 41
235 179 252 116 93 67
353 509 219 41 35 39
266 93 226 130 24 40
217 439 258 97 25 25
222 600 269 65 30 38
289 497 382 49 28 28
243 154 275 111 92 71
361 414 270 99 81 63
248 440 165 56 22 26
355 295 311 138 101 71
327 234 310 110 90 69
253 809 276 75 59 55
256 553 357 36 26 30
241 245 248 135 101 61
294 34 264 114 66 49
206 505 332 58 27 33
237 179 249 121 95 65
307 926 253 86 75 72
356 424 252 79 62 57
248 249 303 119 95 69
232 234 254 126 96 60
368 509 289 149 105 88
240 189 247 129 99 60
237 189 249 127 98 63
369 755 206 62 51 42
224 454 246 61 31 31
418 615 409 164 16 55
298 794 242 77 62 55
268 149 275 110 87 59
233 349 270 109 89 66
248 164 243 131 101 64
358 399 275 105 87 67
278 11 270 108 88 75
353 614 321 95 29 42
248 169 243 131 100 63
271 204 252 124 98 69
270 329 263 89 76 64
362 179 262 137 103 62
254 618 257 53 33 37
230 439 338 33 29 30
395 860 243 74 65 62
329 209 295 104 84 62
245 206 293 112 92 72
346 879 223 61 52 51
407 456 273 137 14 39
253 389 257 96 82 67
243 174 245 129 98 61
218 384 285 121 96 66
367 189 266 137 105 64
249 163 242 131 101 64
230 254 257 134 98 60
341 815 228 63 53 50
212 754 336 173 118 92
225 394 266 108 88 65
429 749 190 80 59 46
253 164 242 134 103 67
231 749 294 113 71 48
231 477 209 102 15 32
342 588 222 107 32 39
224 384 305 122 95 67
288 953 290 75 71 71
327 209 285 107 87 67
