ply
format ascii 1.0
comment Created by Open3D
element vertex 2212
property double x
property double y
property double z
property uchar red
property uchar green
property uchar blue
end_header
279 124 271 108 85 59
299 264 260 117 92 62
401 674 249 85 38 32
283 119 260 105 83 56
379 134 280 111 89 65
391 436 358 51 35 25
281 198 292 114 95 74
282 119 268 108 84 57
282 124 265 106 82 55
348 632 227 50 31 34
379 109 275 115 93 69
280 129 271 107 84 58
453 828 281 74 58 53
261 425 209 131 13 39
261 439 208 142 0 38
274 113 272 113 92 68
314 845 335 129 104 82
329 468 405 53 26 30
274 115 273 113 92 68
359 229 301 116 95 71
274 119 273 113 92 69
424 493 420 61 32 29
464 819 275 76 61 57
277 129 273 109 87 63
291 66 258 114 47 49
416 589 260 62 32 37
383 199 288 119 95 68
291 70 260 108 56 49
337 328 264 78 69 60
290 69 265 105 41 43
298 786 322 65 54 49
433 690 221 68 55 43
263 169 281 114 95 75
304 939 345 176 129 108
292 67 263 117 29 40
400 424 225 66 29 33
291 457 317 93 66 49
297 225 288 110 87 59
393 249 285 131 99 66
289 74 265 110 10 39
416 557 362 150 106 73
267 469 201 94 15 28
436 805 249 71 56 49
322 892 293 126 96 65
369 389 235 99 86 72
442 659 281 112 88 61
411 464 300 39 30 33
329 13 270 134 68 68
263 529 455 108 14 36
442 648 313 184 123 94
334 13 265 130 51 50
335 15 261 136 39 38
358 476 440 68 20 28
314 476 431 64 28 34
326 893 363 189 137 123
309 408 231 94 80 65
368 462 387 63 16 24
356 445 313 77 60 43
364 859 324 142 111 84
327 12 279 153 95 92
323 12 285 156 84 82
325 11 285 154 80 80
433 724 225 65 49 41
260 578 329 176 0 54
359 913 226 68 58 53
409 489 225 63 28 34
334 10 280 141 80 81
362 11 270 100 87 75
334 10 285 142 71 75
329 19 265 122 48 41
302 360 252 89 79 69
334 284 275 85 72 59
287 161 269 103 82 58
362 753 228 107 23 31
327 18 268 144 43 52
354 456 330 56 42 29
328 25 270 141 24 43
305 299 264 97 82 67
383 129 275 115 93 68
369 104 278 116 95 72
413 559 245 159 17 44
342 249 264 107 86 61
331 22 262 142 28 40
368 439 175 109 20 35
247 542 375 96 18 30
332 18 263 107 61 42
334 19 261 137 32 36
432 522 402 191 129 111
394 424 201 74 35 36
333 29 265 139 90 73
469 856 343 52 44 37
249 573 425 197 124 110
350 732 227 122 11 29
245 739 276 141 101 73
269 294 300 123 97 71
331 27 266 136 52 46
491 871 347 80 65 51
395 403 235 92 45 43
464 886 368 79 63 49
323 19 275 139 59 57
321 18 277 142 65 60
405 483 385 118 2 35
264 189 286 114 94 74
359 950 273 87 82 85
321 19 280 147 87 71
325 23 275 143 18 50
322 21 280 140 73 64
323 21 286 161 109 92
399 678 240 76 38 43
393 194 261 125 97 63
359 489 174 86 31 36
325 23 285 151 111 90
336 477 443 173 18 53
419 494 250 141 13 38
327 26 275 133 43 52
355 244 303 116 93 69
325 889 291 119 93 68
330 28 275 142 90 79
387 713 208 54 44 40
349 894 359 152 110 87
409 485 419 60 14 24
288 334 316 128 96 69
330 28 280 138 18 50
334 27 285 128 61 60
249 573 435 196 134 126
280 134 271 106 84 59
320 803 318 64 55 51
272 626 243 96 36 46
242 570 255 168 2 42
332 26 286 147 28 60
364 453 365 65 23 23
339 434 309 72 55 38
422 600 302 89 69 45
344 14 260 134 46 40
344 12 264 126 60 51
327 314 280 65 56 47
339 11 266 128 53 48
260 174 279 116 96 74
382 962 292 83 75 75
339 11 270 125 58 55
475 821 313 68 57 48
349 14 260 124 64 50
279 249 305 119 95 69
379 789 221 64 52 48
344 30 285 123 53 57
320 506 387 172 17 55
349 12 264 115 78 66
256 680 282 126 92 56
367 826 313 163 129 98
349 11 270 109 84 73
344 10 275 115 73 67
245 519 390 67 27 34
263 224 292 115 95 73
394 874 315 31 28 29
344 10 280 117 65 64
266 314 290 128 98 70
339 10 285 128 56 61
386 468 198 57 33 38
349 11 285 101 52 52
484 855 340 79 66 55
408 604 335 185 127 111
251 728 313 174 119 93
339 19 259 125 28 34
264 434 200 67 36 35
341 47 262 137 106 90
261 608 304 58 28 35
300 214 260 114 92 66
344 19 258 136 23 34
284 789 322 174 129 96
357 402 227 97 83 69
363 853 234 62 52 51
395 610 233 46 34 39
245 529 405 60 29 32
359 23 299 119 17 45
249 570 335 186 1 56
344 29 257 107 42 35
349 534 181 166 3 34
254 699 319 173 120 95
324 399 270 73 53 40
321 408 234 74 63 53
342 29 258 124 90 71
389 424 201 80 32 34
269 439 326 109 25 36
316 473 161 144 7 41
349 24 258 119 28 32
425 530 336 45 25 32
412 872 337 40 35 33
368 68 278 107 19 39
417 714 319 144 20 47
323 805 317 62 53 51
254 589 355 137 102 71
399 434 230 46 34 34
348 24 257 112 25 29
362 356 313 128 99 64
350 28 258 74 47 37
367 440 167 108 14 35
374 724 343 92 30 43
317 521 183 138 21 42
348 481 436 125 22 45
322 12 288 151 69 70
306 273 301 115 90 60
391 203 282 118 94 67
392 384 262 126 101 72
344 799 235 67 53 47
321 11 299 144 40 60
485 709 256 100 75 54
324 11 300 150 33 60
439 888 340 77 64 58
339 344 314 135 95 73
334 10 290 142 54 66
334 10 295 143 40 61
334 11 300 148 36 63
444 819 300 95 59 45
316 468 155 81 28 38
280 729 250 119 12 34
334 14 301 152 69 84
244 519 365 51 31 35
461 781 243 76 57 43
335 13 303 154 40 67
374 489 185 108 16 34
388 119 265 113 90 65
374 455 380 62 17 23
324 18 295 166 116 104
401 635 258 41 29 35
328 21 292 138 95 74
295 284 259 128 96 64
382 190 288 119 95 68
320 17 298 145 84 77
292 250 303 113 90 64
344 234 265 115 92 65
325 16 297 130 57 60
272 449 337 105 17 37
453 764 241 64 51 44
304 840 270 87 67 59
334 20 296 130 90 70
333 25 290 128 77 66
313 299 315 111 86 59
335 23 294 124 88 67
304 794 243 82 64 56
264 259 256 142 99 66
335 27 289 145 32 59
278 689 314 114 80 68
329 474 440 54 24 33
386 541 198 77 37 38
315 289 290 91 72 51
358 373 243 102 88 75
394 518 410 84 19 33
339 487 418 39 24 27
339 11 300 136 38 60
445 703 245 78 59 44
397 414 300 69 30 33
338 13 303 142 42 62
349 11 295 101 35 43
419 809 230 78 56 49
381 37 258 114 99 83
349 804 316 175 124 104
350 12 296 100 36 42
363 452 345 64 26 25
344 19 300 120 80 70
426 694 313 137 90 73
265 364 265 111 91 68
390 894 254 62 56 58
337 26 292 122 53 57
344 28 290 127 45 54
369 484 175 142 1 32
234 534 255 154 3 42
434 659 275 99 80 59
269 134 276 111 91 71
474 819 311 66 55 45
344 27 294 150 21 57
343 26 297 137 43 57
317 553 379 177 15 56
379 409 200 121 35 35
349 420 146 116 46 36
402 424 206 111 26 36
349 29 290 125 33 52
351 441 153 107 24 39
244 554 470 109 26 43
385 879 244 68 59 59
334 879 360 139 108 80
329 380 255 67 56 46
349 26 297 145 19 55
334 34 270 130 21 44
336 38 270 123 8 37
392 459 322 63 27 28
359 506 386 71 24 31
369 963 344 57 52 51
335 33 279 128 26 49
339 34 260 127 52 50
337 36 263 123 26 41
339 39 260 139 22 40
300 899 315 186 133 114
359 463 311 64 48 32
413 914 310 63 56 58
337 40 265 133 18 36
342 39 258 136 18 40
351 189 270 108 87 65
369 314 257 100 84 67
339 44 265 134 93 74
379 34 280 99 56 50
342 44 259 132 92 71
343 49 260 132 70 63
337 40 270 117 7 37
379 494 191 102 16 26
329 744 338 77 38 42
243 719 300 161 109 81
320 384 305 129 83 70
261 632 276 58 23 30
413 459 245 102 20 32
338 44 270 112 30 45
325 909 275 121 88 71
363 558 192 176 5 37
340 49 270 112 21 42
313 419 308 115 81 65
339 34 280 116 19 44
314 919 285 64 60 62
349 960 355 88 84 84
337 36 276 108 39 43
340 39 279 110 14 39
289 319 260 105 85 61
271 501 395 124 5 40
360 396 227 97 85 72
341 32 283 111 78 62
271 637 252 189 14 53
341 49 274 107 33 43
341 42 278 117 86 71
453 694 300 157 105 73
392 184 261 125 97 63
424 649 276 85 70 54
250 528 375 128 17 44
278 603 359 170 113 99
345 49 278 118 90 69
346 37 283 122 10 43
343 54 265 126 49 50
422 898 330 70 61 61
314 425 150 87 72 56
341 53 270 111 12 34
442 741 313 173 122 89
354 334 253 89 79 69
344 59 270 136 96 78
346 53 257 139 19 31
450 688 274 93 76 58
242 537 437 86 66 51
345 59 260 115 51 45
277 358 312 121 95 67
346 63 261 119 40 44
430 589 325 128 100 67
389 889 250 63 56 59
344 54 275 107 22 42
347 56 277 107 34 40
346 62 273 119 92 73
267 319 296 135 101 75
415 489 300 71 23 34
284 578 385 164 50 67
354 15 261 112 86 66
434 894 361 68 58 50
359 14 265 104 91 79
319 684 229 122 13 30
317 392 253 82 69 56
249 589 245 173 6 44
354 59 279 103 63 54
352 11 267 107 87 75
400 424 204 84 35 33
394 459 391 59 34 29
274 154 281 111 91 69
360 501 178 154 4 32
403 681 226 78 56 46
359 11 270 101 88 76
424 825 296 40 35 35
314 459 155 93 28 40
356 12 268 104 89 77
369 39 285 117 26 46
315 934 359 160 121 105
364 339 252 95 84 73
459 880 349 98 76 58
364 13 270 100 83 73
260 419 309 132 102 74
303 456 358 69 50 36
389 904 260 63 56 57
311 550 387 179 19 58
401 454 222 143 19 43
271 416 318 135 102 77
367 16 267 106 89 77
427 606 302 99 81 61
380 204 291 120 96 70
254 624 315 95 75 50
354 11 275 102 85 75
384 949 280 76 67 68
339 320 264 81 71 61
382 918 262 73 65 64
354 11 280 98 73 66
354 11 285 93 55 52
364 403 210 95 82 68
386 384 248 111 91 70
364 13 280 94 64 58
374 19 285 97 36 44
369 15 275 98 65 60
486 750 273 104 75 56
352 11 293 94 36 39
369 14 280 94 56 53
429 499 410 64 27 30
499 725 270 93 71 49
364 13 285 90 51 47
430 862 327 35 32 30
354 19 259 113 53 33
354 24 258 112 33 29
362 898 242 73 63 63
246 631 317 129 98 62
357 16 262 109 93 76
257 784 263 165 112 77
360 17 263 108 95 82
359 25 257 94 37 24
359 23 258 108 72 41
257 429 177 138 6 30
244 534 415 55 26 26
364 20 261 108 94 80
273 764 254 133 96 61
403 429 215 112 25 39
306 719 232 114 18 35
497 754 276 87 71 57
373 16 280 95 49 49
372 16 284 93 50 48
255 804 314 178 128 101
344 297 312 121 95 67
373 20 270 100 66 60
372 21 266 105 86 75
378 25 270 83 53 39
385 789 215 69 55 50
350 239 299 109 89 66
349 555 341 83 23 35
359 454 360 61 29 24
396 437 356 58 33 34
386 398 243 100 85 71
378 30 261 111 95 80
265 504 435 101 9 35
258 493 336 75 30 36
258 404 300 125 98 69
329 824 251 84 66 58
380 29 270 82 47 38
313 479 175 109 23 36
371 17 273 99 64 60
275 469 350 78 28 36
354 319 311 128 91 62
324 354 308 108 71 59
374 24 285 97 28 36
376 23 282 102 19 36
380 29 275 84 36 39
248 537 475 73 18 28
378 29 280 71 51 42
353 11 290 91 41 42
264 399 310 129 100 72
364 19 295 90 44 43
319 304 310 100 76 50
403 444 220 78 33 37
355 12 291 90 39 41
410 543 354 90 53 37
443 834 271 65 53 50
354 13 295 91 36 39
358 15 298 88 31 38
454 759 245 68 50 43
424 499 426 101 68 57
354 24 299 128 26 51
516 801 313 89 74 59
354 26 296 128 71 67
259 828 305 213 150 123
354 29 290 114 65 58
417 494 242 62 33 33
298 463 183 117 9 27
378 484 407 52 33 25
269 614 360 188 126 103
307 923 299 63 58 58
359 30 291 127 33 53
370 19 290 98 37 45
294 467 386 67 43 32
364 24 295 111 50 55
370 24 291 99 29 38
272 500 444 73 26 27
369 29 290 120 57 59
254 549 335 67 24 30
396 941 288 78 68 69
409 568 369 200 135 111
354 39 284 116 14 43
358 36 287 120 12 41
360 179 289 108 88 68
243 754 300 174 119 93
369 274 304 127 96 61
315 329 264 77 67 58
273 630 244 87 32 42
257 607 328 93 69 40
359 39 285 115 33 47
353 45 282 101 29 38
324 410 205 90 75 59
354 44 283 105 11 37
319 354 260 70 60 51
369 513 380 124 18 43
376 442 198 58 35 35
354 49 282 110 11 40
366 36 287 123 15 44
462 699 245 71 55 42
493 739 274 79 61 42
362 47 283 114 70 58
403 471 408 57 23 22
280 450 202 116 8 29
369 45 282 108 59 56
359 50 282 109 8 39
309 769 234 83 52 50
286 238 302 119 97 73
356 822 237 61 51 49
283 139 265 106 83 56
359 54 281 110 73 60
379 770 327 77 63 57
359 59 280 122 97 72
313 358 258 77 68 59
393 184 275 119 96 69
364 54 281 107 67 57
369 54 280 99 30 41
321 918 363 179 144 124
247 700 312 174 118 94
364 64 279 109 74 59
245 524 220 55 32 34
289 456 363 64 45 32
394 734 196 72 56 46
274 434 210 119 2 28
354 179 261 115 93 67
369 64 279 112 26 44
329 503 389 172 16 55
301 419 317 133 95 78
376 33 258 113 95 79
314 408 220 91 77 62
379 34 260 110 96 81
304 827 308 61 53 49
266 314 294 133 102 75
298 679 238 74 30 37
254 558 465 169 23 58
381 33 265 96 80 61
344 471 458 98 24 31
265 364 299 125 98 68
269 194 290 113 93 72
299 545 188 105 29 38
382 35 265 87 53 36
407 714 334 86 31 40
427 496 355 74 33 28
424 509 275 44 33 34
381 358 253 111 92 72
385 39 265 83 34 28
381 32 269 79 36 24
407 450 299 55 28 28
374 39 284 116 13 42
289 794 247 69 58 55
374 44 281 113 48 53
389 490 445 74 23 27
307 441 165 148 0 35
408 917 351 68 60 63
344 425 307 115 82 68
234 529 245 122 19 38
379 39 280 105 39 47
382 34 275 99 24 35
419 494 375 64 29 25
417 560 363 153 105 75
381 38 277 101 26 40
264 705 277 111 79 49
274 415 225 89 76 63
377 34 283 109 23 39
299 534 186 144 0 30
292 186 274 103 82 57
260 539 440 107 20 39
298 204 265 110 89 65
248 799 305 183 129 100
272 498 456 106 19 39
377 37 283 118 22 46
316 479 170 101 23 36
379 44 279 112 93 76
333 359 264 74 64 54
378 48 278 115 32 46
289 484 426 123 14 41
381 44 277 96 69 52
244 524 315 133 13 45
274 499 195 48 34 35
373 53 278 101 42 45
275 143 277 112 90 68
248 529 215 52 33 35
405 479 380 124 8 38
314 459 160 122 10 36
390 459 315 59 30 30
375 54 277 113 91 76
416 573 324 74 52 35
373 719 229 105 23 30
348 269 264 98 81 61
409 929 305 73 65 64
308 444 160 132 12 39
379 54 275 108 61 57
514 865 339 91 78 66
331 471 433 90 20 35
382 59 273 112 7 39
339 595 208 117 15 36
321 478 152 86 30 39
359 334 253 91 81 71
275 268 252 137 98 66
247 624 346 168 118 92
331 466 148 93 26 33
338 779 233 81 61 52
385 59 271 109 23 42
264 558 197 166 4 38
364 34 289 115 34 48
347 66 265 110 76 59
379 394 310 129 99 65
280 289 309 123 95 69
257 489 197 112 20 38
347 69 265 111 44 46
484 786 293 79 62 47
351 79 261 126 29 43
249 564 310 52 29 31
237 530 290 83 20 35
377 199 293 119 95 68
340 469 159 48 33 39
350 79 265 112 35 44
324 699 228 116 17 31
350 79 269 99 24 39
359 391 232 99 85 72
262 806 268 185 129 93
351 82 262 108 82 62
354 364 246 92 80 69
408 549 340 42 30 35
351 83 265 112 84 65
319 410 210 92 77 61
345 239 285 109 87 62
380 244 297 120 93 60
352 76 258 108 70 48
309 749 233 108 30 40
370 99 277 116 96 72
256 618 265 126 27 45
349 462 381 50 31 24
349 238 258 119 93 63
399 449 365 61 29 34
354 69 276 102 69 58
324 466 394 48 32 26
412 471 303 46 28 30
261 269 293 127 96 71
410 874 325 33 30 31
374 399 314 134 101 70
375 739 210 55 45 42
354 74 275 106 86 65
342 887 255 52 48 48
294 444 319 109 79 60
361 74 278 96 35 36
279 569 203 148 3 30
352 84 260 103 61 48
352 89 260 113 40 44
254 609 255 117 28 46
352 85 265 111 87 65
263 439 206 124 8 38
268 208 292 114 93 71
352 85 271 99 28 42
353 94 260 120 21 38
372 469 180 112 11 34
355 89 274 99 14 36
369 524 183 81 33 40
356 94 273 94 54 47
369 84 276 107 87 67
350 199 265 114 93 70
369 89 277 105 41 45
364 94 277 98 63 52
253 528 436 72 16 28
390 924 275 66 59 61
369 94 277 103 49 48
350 434 308 100 74 58
379 194 290 118 95 68
299 919 315 166 129 105
384 74 270 103 85 66
344 455 330 53 41 28
291 452 338 82 40 36
263 504 190 81 20 29
371 66 277 106 84 67
394 184 265 124 98 66
374 79 276 101 23 36
369 154 287 112 92 69
441 623 310 128 97 60
382 69 273 106 75 60
314 830 306 63 55 56
360 149 260 115 92 65
379 74 274 107 41 47
272 472 341 30 30 30
399 554 380 201 140 118
379 79 274 104 26 40
271 262 252 140 100 68
448 664 295 136 98 61
309 929 355 176 135 118
365 434 165 66 37 34
443 724 236 70 52 39
463 724 280 129 91 57
382 79 273 102 31 41
316 962 305 88 83 82
252 605 361 174 121 96
344 574 196 184 8 40
384 244 294 119 93 62
383 84 273 96 61 50
383 239 294 118 93 63
273 284 259 136 98 68
356 104 269 107 85 63
256 267 271 144 103 72
384 94 274 105 31 43
403 499 455 107 21 38
346 385 242 95 82 68
355 99 260 124 47 48
355 99 270 106 84 63
389 159 275 117 93 66
319 563 364 194 8 61
400 924 341 53 48 46
382 319 285 129 99 66
262 474 186 85 27 36
318 403 244 80 66 52
357 99 272 107 86 65
406 669 259 38 37 38
404 424 260 64 30 32
356 107 266 119 93 67
324 434 135 170 15 37
427 673 312 170 122 98
356 107 268 110 86 63
361 108 257 136 102 74
304 514 185 82 18 30
358 599 329 114 27 44
359 99 274 109 89 68
249 540 380 76 21 25
329 818 314 168 117 96
346 253 257 106 85 60
334 670 328 161 11 51
379 486 460 82 5 28
465 760 230 81 61 47
360 104 274 106 87 66
237 551 413 178 118 104
384 339 280 127 99 68
404 559 225 155 17 39
360 109 274 105 85 63
294 364 250 93 82 71
363 104 277 109 89 68
368 99 278 119 97 74
428 519 290 73 31 37
319 456 344 54 41 27
414 789 219 62 49 43
365 104 278 112 91 69
300 289 263 114 90 63
363 109 277 109 89 66
387 400 303 128 100 67
369 109 278 113 91 68
327 395 280 95 62 49
334 310 261 84 72 61
262 384 301 126 99 69
360 119 260 122 94 64
354 249 304 117 94 69
395 924 279 65 56 59
299 475 410 60 25 26
377 434 197 51 37 38
358 119 265 117 92 65
390 224 286 117 94 67
334 764 231 87 42 44
388 608 227 105 33 45
262 477 322 116 9 35
359 124 265 116 92 66
359 129 265 117 93 66
382 562 202 51 36 32
262 565 355 169 1 49
281 183 287 112 91 69
390 394 250 106 87 67
369 314 305 132 99 67
359 124 270 105 84 60
324 364 306 110 74 62
364 495 410 156 16 49
424 824 245 71 57 54
359 129 270 105 84 61
265 484 199 68 32 34
399 719 341 85 25 39
265 394 251 109 90 68
362 119 258 120 91 61
404 677 240 57 44 46
391 384 259 126 101 72
365 114 278 110 89 66
374 483 450 80 22 24
410 693 235 76 48 39
416 585 270 85 24 37
313 279 285 103 84 62
365 119 279 108 87 65
404 904 370 45 37 32
381 606 223 39 31 32
364 124 279 109 89 66
402 847 292 36 31 29
377 510 401 170 14 54
418 620 331 187 130 107
259 814 275 186 125 94
399 483 417 46 25 23
373 448 360 74 10 26
374 129 281 113 91 68
487 728 260 84 67 51
261 474 184 85 26 31
369 129 281 111 90 67
359 965 284 92 88 93
374 99 277 112 89 65
384 554 201 148 16 40
372 105 278 117 95 71
287 583 373 45 27 34
464 842 322 55 46 39
409 667 297 48 25 29
247 774 306 166 118 88
377 404 313 133 102 73
298 435 184 59 36 39
375 109 277 115 93 68
374 114 278 115 93 70
450 871 319 77 61 56
311 452 157 144 17 45
262 432 228 91 21 38
269 572 405 194 128 109
376 114 277 114 93 70
374 119 279 114 92 69
494 764 280 87 66 48
244 554 235 56 30 35
379 114 275 116 94 69
328 322 273 66 56 48
391 484 198 66 23 31
381 214 292 120 96 69
246 572 324 189 0 58
409 444 250 113 13 34
382 114 273 116 92 66
328 971 320 65 60 58
385 114 271 117 94 69
309 739 341 160 22 54
380 124 277 113 91 66
381 128 277 113 92 68
306 426 160 92 75 59
259 134 270 110 92 73
424 529 395 172 114 90
259 139 270 111 92 72
239 554 455 83 53 47
458 714 295 159 105 73
314 359 314 128 89 69
324 636 228 113 28 42
258 144 270 112 92 71
264 134 274 110 91 72
310 499 182 137 3 31
267 383 254 109 90 68
254 538 455 67 12 31
261 140 273 109 91 72
409 879 340 34 32 31
476 750 267 82 62 45
262 137 272 110 92 73
412 569 241 144 14 38
260 144 274 109 91 73
269 509 455 104 18 36
299 285 313 106 86 65
334 829 309 171 124 100
264 424 205 86 34 34
269 144 278 111 92 71
260 434 190 93 18 28
262 280 292 131 99 73
434 879 295 70 59 57
428 636 277 94 74 51
421 729 316 127 23 44
271 141 278 112 92 71
349 403 210 95 82 68
402 649 261 58 32 35
257 153 272 115 94 72
263 555 370 99 15 36
444 759 314 167 120 86
349 416 156 96 70 56
392 400 289 124 99 69
259 154 275 113 93 72
378 458 386 66 16 24
256 159 273 116 94 71
380 174 286 118 95 70
264 159 280 111 92 73
269 149 279 111 92 71
563 882 349 104 89 74
247 526 380 67 27 34
339 577 197 195 9 41
269 154 281 111 91 71
404 434 240 58 31 33
279 444 204 113 3 28
285 395 242 100 87 74
396 234 275 123 95 61
280 509 416 161 10 48
372 481 442 76 15 24
283 134 260 103 83 59
239 564 425 213 138 120
363 424 160 69 37 33
383 568 329 105 4 32
282 134 269 106 82 55
271 391 247 103 87 70
284 144 260 104 84 62
365 459 169 141 0 34
284 144 265 105 83 57
281 138 272 107 84 56
283 139 270 109 85 56
317 928 273 68 62 66
274 144 278 111 91 69
309 444 155 68 30 36
248 542 451 88 70 53
285 149 260 106 86 64
384 764 329 80 65 57
433 504 355 56 27 32
402 415 260 105 21 39
492 783 286 93 68 55
363 956 278 92 86 91
432 702 217 74 57 42
285 154 265 103 82 58
286 159 260 108 88 66
385 404 306 125 97 66
269 249 300 118 94 69
342 811 243 73 57 51
286 159 270 103 82 57
429 524 435 192 128 118
231 535 425 131 101 82
277 150 278 108 87 64
344 948 368 74 68 66
423 604 301 95 76 54
278 154 279 108 87 64
280 154 276 107 85 61
364 880 240 74 64 62
254 784 314 169 124 95
279 159 280 108 87 64
374 484 415 55 32 25
288 699 245 75 27 37
347 433 147 103 26 37
433 794 231 69 54 44
274 158 282 111 91 70
282 150 273 106 84 58
294 219 290 109 86 60
381 466 398 66 14 25
283 154 274 105 83 58
353 481 441 121 21 45
284 159 275 105 84 59
256 485 206 47 30 34
281 158 277 106 85 61
256 164 273 116 95 72
300 393 243 96 84 72
405 684 225 74 55 41
315 389 253 87 73 60
406 584 321 111 69 63
258 164 276 115 94 72
256 169 274 116 94 71
260 169 279 116 95 74
313 355 257 79 69 59
298 924 325 184 141 120
264 164 281 112 93 74
269 164 283 112 92 72
279 584 206 178 7 42
247 586 302 106 26 40
257 178 277 117 96 73
265 179 284 116 97 77
448 734 309 165 114 82
381 388 307 129 100 67
362 329 308 127 92 61
324 404 250 71 58 44
258 189 281 118 96 74
255 544 345 122 4 35
395 399 265 124 100 73
463 881 348 104 82 61
235 524 290 136 8 41
261 189 283 117 96 75
319 874 295 133 101 71
382 165 283 119 95 69
288 164 260 108 89 67
408 934 319 64 57 54
287 164 270 102 81 57
493 848 316 115 88 68
263 589 225 83 27 37
319 699 228 115 20 32
251 679 286 129 93 60
350 480 168 114 22 37
257 546 198 185 15 48
329 378 258 69 58 49
286 163 271 102 81 56
350 329 312 130 91 63
439 799 244 72 56 47
367 462 312 63 45 29
277 165 283 111 91 68
357 158 276 95 76 55
359 407 198 95 81 67
252 739 312 175 122 95
360 214 298 115 94 71
390 960 315 67 64 65
279 174 285 110 90 68
369 349 249 97 86 76
379 264 256 140 105 67
446 682 273 100 82 62
285 164 275 105 84 58
399 709 206 64 53 43
287 169 275 104 82 57
409 469 230 106 15 30
340 977 319 51 47 45
309 484 180 140 1 32
286 168 276 105 83 58
244 569 320 152 10 49
288 174 275 104 83 58
349 214 285 106 85 62
281 172 282 107 86 64
287 175 278 105 84 59
282 175 283 107 87 65
419 579 260 91 22 37
254 619 320 100 79 53
279 179 286 112 91 70
294 384 246 93 82 70
352 896 358 150 110 84
283 179 284 108 87 64
334 496 401 50 25 30
284 184 285 108 87 64
253 539 320 59 26 35
406 920 337 53 47 46
286 182 282 105 83 58
274 189 290 113 94 73
297 264 257 123 95 64
269 284 300 122 95 69
369 234 302 122 96 66
271 180 288 116 96 76
247 554 229 105 23 33
347 456 315 58 45 31
269 189 289 112 93 73
244 669 320 190 132 106
369 455 375 61 19 23
266 191 288 112 92 72
435 693 232 69 54 40
277 703 263 121 7 35
274 180 288 112 92 71
260 563 355 179 1 54
374 194 294 119 96 69
274 184 289 112 93 72
278 180 288 113 93 71
254 714 275 123 93 59
289 169 260 108 89 68
383 454 312 61 32 28
290 174 265 106 85 62
334 864 351 161 130 100
291 178 260 110 90 68
265 309 290 128 96 69
344 478 445 182 19 59
313 444 170 148 2 36
249 619 350 168 119 93
429 504 430 109 90 70
291 178 265 107 86 63
292 180 268 106 85 60
402 504 210 145 12 39
291 204 287 107 85 59
294 189 265 108 87 63
369 319 304 135 98 69
339 939 265 86 80 81
289 179 275 103 82 57
262 372 268 120 96 70
388 199 284 116 93 67
291 184 275 102 81 56
310 904 300 166 122 97
346 879 241 71 62 60
292 189 275 101 80 55
387 908 255 64 57 59
372 481 443 76 14 27
304 404 316 134 97 78
292 190 278 100 79 53
258 194 281 117 96 73
260 194 284 117 96 74
352 971 293 100 95 97
260 199 284 116 95 73
274 569 202 136 4 30
263 194 286 114 94 72
395 239 275 126 98 62
256 400 290 125 99 70
324 449 140 163 0 35
259 209 285 116 95 71
269 254 300 119 94 69
341 259 280 106 86 63
358 144 270 103 84 62
369 684 229 47 37 38
355 224 298 111 91 69
359 224 300 115 93 70
247 556 292 33 29 30
397 952 306 57 52 53
324 468 454 135 24 51
258 219 286 114 92 68
286 574 380 96 25 44
289 194 285 107 85 60
246 565 316 71 29 31
290 199 286 109 87 61
265 199 289 114 94 72
246 669 296 151 105 76
444 873 360 40 36 35
283 472 448 169 18 56
264 204 289 114 93 71
264 209 290 115 94 72
445 800 255 79 60 53
328 309 275 70 61 53
266 194 288 114 93 71
392 838 298 143 108 86
268 204 291 113 92 71
376 956 278 72 67 69
245 694 290 148 102 71
276 474 354 42 25 29
466 754 286 133 90 59
369 402 229 97 83 70
414 613 334 185 127 108
271 201 293 112 92 71
270 204 293 111 92 71
284 494 186 42 34 37
327 389 260 74 60 49
267 256 297 119 94 69
261 210 288 115 94 71
364 314 307 130 95 64
356 185 288 106 88 68
261 214 288 114 93 70
409 459 300 54 30 33
264 214 291 114 94 72
260 219 289 114 93 70
251 814 305 192 135 109
454 689 285 129 95 61
344 345 257 82 73 64
477 752 261 72 53 39
366 897 347 84 67 48
260 224 289 115 93 71
317 388 308 132 90 74
263 219 291 115 94 72
364 549 189 103 22 38
404 890 368 50 43 40
267 213 292 113 93 71
269 214 294 113 92 70
330 905 270 118 84 67
266 216 293 114 93 71
389 554 205 92 30 38
314 554 380 155 21 54
266 220 293 114 93 71
265 224 294 115 94 71
309 604 336 127 20 45
269 224 296 113 93 71
256 449 227 101 9 30
279 194 291 114 94 74
404 844 290 36 31 30
278 196 293 114 94 73
294 304 261 107 85 61
270 429 209 98 20 30
279 199 293 114 95 74
394 499 199 131 13 33
274 204 294 112 92 72
251 730 272 126 96 60
279 204 295 114 94 72
279 209 296 114 93 72
241 552 278 181 0 53
382 437 345 72 10 28
284 199 291 110 90 68
283 204 293 113 93 72
289 209 290 109 88 64
290 434 190 71 33 40
352 424 147 106 35 35
286 207 292 110 90 67
257 550 204 167 11 45
314 414 240 89 75 61
274 214 296 114 94 72
283 607 348 60 40 38
279 213 297 115 94 72
397 455 345 48 28 31
279 216 298 115 94 72
523 790 299 111 90 70
423 894 300 68 59 60
246 567 338 192 9 61
273 219 297 114 93 71
275 219 298 114 93 71
298 548 404 188 16 61
414 639 276 62 43 36
364 305 257 95 80 65
274 224 299 114 94 72
354 413 180 91 73 61
398 554 355 143 87 82
272 483 351 91 18 31
374 402 229 97 83 69
479 724 249 107 81 54
279 219 298 116 95 72
258 575 224 112 23 40
401 826 233 92 67 51
279 224 300 115 94 73
296 917 321 150 129 114
288 214 294 111 90 66
233 529 270 132 6 39
285 218 297 113 92 70
460 714 275 94 74 49
283 219 298 115 94 72
299 494 183 96 22 32
324 809 317 50 42 42
393 857 231 66 57 56
284 224 299 115 94 71
264 684 320 165 116 92
403 500 440 86 1 31
287 679 248 85 22 35
239 566 451 152 96 91
354 894 239 78 67 68
403 449 220 74 27 34
343 288 265 96 81 66
289 224 296 110 89 66
359 894 241 72 64 64
258 498 182 143 1 37
257 228 287 115 93 69
423 539 280 53 29 35
400 439 225 92 29 39
349 364 314 136 98 72
380 440 350 77 12 27
257 232 287 115 93 68
256 242 257 138 100 66
389 69 265 101 27 38
411 649 298 110 71 62
354 487 424 159 16 54
290 266 253 133 100 66
258 249 258 142 101 68
254 794 270 184 122 92
292 412 208 96 83 69
364 399 230 98 85 71
390 164 275 117 93 67
258 254 259 144 101 68
262 599 320 85 30 41
364 400 225 97 84 70
287 589 365 80 29 40
243 555 409 174 114 97
260 253 257 142 100 66
378 448 370 67 13 25
262 228 292 115 94 71
371 469 178 117 7 32
324 459 365 52 40 27
259 234 290 117 95 70
256 236 288 117 94 69
259 239 291 117 94 69
409 535 336 118 24 45
372 294 303 131 99 65
378 489 191 100 18 27
262 234 292 117 95 72
372 439 192 81 31 35
264 234 294 116 95 72
395 594 311 39 26 25
396 838 233 89 65 55
264 239 295 116 95 71
262 556 367 159 3 48
414 719 325 162 14 50
268 229 296 115 94 72
286 438 197 127 5 26
271 229 298 114 94 71
268 234 297 115 94 71
519 864 335 96 83 73
285 555 400 109 15 39
270 234 299 114 93 70
399 495 455 68 25 23
269 239 299 115 93 70
256 244 288 120 95 68
259 244 291 117 94 68
258 249 291 119 94 68
324 409 215 85 71 57
329 467 397 50 32 26
381 518 188 70 33 37
261 244 293 117 94 69
369 774 326 77 63 57
424 876 350 35 33 34
328 481 426 173 18 53
264 244 295 117 95 71
261 249 293 117 94 68
344 480 435 162 17 52
284 354 316 125 96 68
264 249 295 117 94 69
256 254 288 125 98 69
310 409 244 92 78 64
269 579 395 195 130 111
359 289 308 123 95 59
488 789 290 92 69 55
403 474 380 142 14 43
261 254 293 119 94 68
405 674 255 50 43 44
359 568 334 52 26 31
264 254 295 118 94 68
359 380 237 100 87 74
266 252 298 118 95 69
394 179 270 120 95 67
304 842 290 49 40 42
344 924 254 84 75 75
339 744 334 78 62 54
414 780 317 69 55 49
274 229 300 114 93 71
344 539 355 84 23 37
289 234 300 114 92 68
308 540 385 132 5 40
274 234 301 114 92 70
274 239 301 114 92 68
364 978 300 69 64 65
267 339 297 134 101 74
279 236 303 115 93 70
276 240 303 116 94 70
314 458 360 57 44 30
381 487 429 62 20 24
344 418 150 101 70 55
395 894 260 60 54 56
287 225 298 112 92 69
414 829 295 50 42 40
284 234 302 117 95 71
356 472 402 62 33 28
287 587 369 106 19 43
284 236 303 117 95 71
341 260 288 106 85 61
284 239 303 118 96 72
345 803 237 64 51 46
304 838 299 60 50 48
289 239 301 115 93 68
287 240 303 117 95 70
351 220 293 107 87 64
386 269 264 142 101 69
265 459 325 131 8 40
273 244 302 118 95 70
249 575 325 184 0 56
272 254 302 119 95 69
350 214 290 107 87 65
275 254 304 118 94 69
288 244 303 117 94 69
386 459 198 115 25 36
314 487 413 88 28 33
284 244 304 118 96 71
299 934 335 186 139 119
403 732 197 64 49 40
284 249 305 120 96 70
424 529 265 37 34 36
289 249 304 117 94 68
284 254 306 119 96 69
313 673 327 149 14 47
409 489 360 99 13 31
379 699 211 68 50 42
344 244 285 108 87 62
294 194 260 113 92 69
320 900 292 110 86 61
295 194 265 107 87 64
417 480 289 132 16 39
336 298 262 92 78 64
446 659 290 132 100 63
278 545 424 68 21 30
424 500 430 82 62 49
319 786 322 70 58 55
405 484 220 121 8 31
374 448 365 70 12 25
413 758 323 82 65 58
296 198 260 112 91 67
441 687 263 99 78 54
295 194 270 106 85 60
374 479 185 98 20 34
351 889 357 156 116 93
355 606 218 48 37 40
390 374 275 130 101 68
379 914 256 67 60 61
296 199 270 107 85 61
297 200 257 119 95 67
359 769 225 56 45 44
296 198 265 106 85 62
271 587 212 127 13 45
466 826 298 78 64 57
262 570 346 173 0 50
334 834 255 61 53 53
382 340 267 120 97 71
298 204 260 115 94 69
334 393 240 82 69 56
298 209 260 113 92 67
416 536 243 49 33 34
427 496 408 62 24 27
266 329 294 133 100 73
298 209 265 109 88 65
419 689 235 94 60 43
362 144 258 117 94 67
297 204 270 108 86 61
329 864 350 163 130 105
250 536 471 60 25 28
304 319 259 91 79 66
296 202 272 107 85 59
312 934 278 77 71 73
379 354 295 134 105 71
301 232 271 114 90 61
298 209 270 109 87 61
384 848 219 90 70 58
294 194 275 105 83 58
424 694 215 76 56 41
295 199 275 107 85 59
314 534 365 51 21 29
293 199 280 106 83 56
466 759 290 141 96 62
296 204 275 106 84 58
314 854 315 141 109 84
301 234 275 111 87 59
414 610 336 187 129 109
291 207 287 107 85 59
293 204 284 108 85 59
301 234 285 108 85 58
312 440 144 148 2 39
319 759 232 109 28 38
419 849 295 30 28 27
284 364 318 131 99 72
420 760 220 65 51 45
294 209 285 108 85 59
297 205 274 108 85 60
387 898 252 64 56 60
256 520 434 96 8 30
274 409 319 136 102 77
389 189 281 116 92 66
491 835 314 97 80 66
246 620 343 153 109 81
329 324 270 64 55 45
344 684 229 107 20 33
298 209 275 108 86 59
289 739 241 118 19 39
246 624 340 154 110 81
304 334 259 88 76 65
305 249 265 115 91 62
341 358 313 136 97 75
296 207 277 108 85 58
299 214 265 112 90 66
262 528 451 98 11 36
289 413 205 94 80 66
451 678 296 145 101 67
300 214 270 110 88 63
366 487 458 95 30 44
380 294 295 134 101 69
301 219 260 116 93 66
319 444 139 170 0 36
300 219 270 113 91 66
394 459 199 63 33 37
301 224 270 113 90 63
396 448 331 145 14 46
296 218 287 108 86 59
449 898 365 84 74 67
404 704 335 87 26 37
297 210 279 107 85 58
379 401 225 99 82 67
378 514 185 90 31 31
399 485 419 46 24 23
299 214 275 111 88 61
309 269 275 106 87 65
301 224 275 113 89 62
391 492 455 72 25 27
346 972 297 97 90 94
300 224 280 110 86 59
339 409 306 126 87 75
297 219 285 108 86 59
289 804 250 84 67 61
274 749 319 170 115 95
290 214 291 110 88 63
447 712 237 87 64 50
390 139 265 115 92 65
384 349 265 122 98 71
413 919 300 70 62 62
291 218 292 109 88 63
245 560 330 105 15 33
301 228 258 122 95 63
272 492 371 122 16 40
428 519 295 47 29 33
302 229 260 121 95 64
299 838 270 89 68 61
302 229 264 114 91 65
301 228 267 114 91 64
352 208 258 119 96 70
256 582 318 78 16 32
301 229 270 114 90 62
319 456 335 56 42 28
302 231 268 113 90 64
379 259 254 140 105 66
426 521 352 79 36 39
302 235 257 121 94 61
329 439 138 160 0 31
245 514 380 137 10 43
303 239 260 121 95 63
389 619 308 155 14 49
304 239 265 116 92 63
340 449 149 138 7 35
303 239 270 112 89 63
334 759 230 86 31 37
354 324 311 127 92 61
384 569 325 97 11 32
374 405 205 93 79 62
264 504 456 143 14 45
301 229 275 113 88 59
331 915 261 58 52 53
253 585 311 70 23 34
248 519 210 76 22 34
407 434 270 86 24 35
322 918 273 88 68 56
300 229 280 109 85 57
395 939 285 83 73 74
383 379 247 109 91 71
302 235 275 112 88 60
467 716 264 60 47 36
302 234 279 110 86 58
302 239 275 113 89 62
301 238 286 109 86 58
378 515 396 131 17 46
304 244 260 119 93 61
245 664 300 143 98 70
245 549 230 80 20 34
302 247 257 120 94 64
415 574 250 148 15 40
262 499 190 75 21 30
303 249 260 115 91 62
421 499 260 48 30 33
300 254 259 118 92 62
360 139 260 117 93 66
301 250 258 118 93 62
303 254 260 111 88 60
306 399 243 96 81 67
380 575 208 153 24 51
296 432 182 49 32 36
257 449 312 49 29 29
304 249 280 112 89 61
260 553 196 175 12 41
302 244 285 110 87 60
359 402 214 96 83 70
390 189 258 126 97 62
270 274 256 139 99 68
303 249 285 110 86 58
329 404 300 119 77 66
305 244 265 117 92 63
305 249 270 110 88 63
280 405 237 98 85 71
422 567 279 118 29 50
305 254 265 109 86 60
306 254 275 112 90 64
305 254 280 112 89 62
341 904 242 91 80 81
407 480 375 109 5 34
377 196 293 120 95 68
290 228 296 109 88 65
296 229 291 110 88 61
334 467 400 52 30 27
293 229 294 109 88 63
412 538 380 157 102 72
291 714 242 134 6 32
294 234 295 109 87 62
360 880 239 77 66 64
295 239 296 108 86 59
296 695 328 39 29 31
291 232 297 110 89 65
296 232 292 111 88 61
288 704 245 112 13 35
300 239 290 109 86 59
339 540 351 53 22 28
393 500 435 146 13 44
298 239 294 108 86 60
270 359 260 105 88 70
435 729 229 59 45 40
285 833 271 194 134 109
276 664 311 158 106 90
348 839 254 90 66 56
291 247 302 112 89 63
294 244 299 112 89 63
293 254 304 112 89 61
313 314 266 84 74 64
284 464 195 97 17 24
261 395 304 126 99 70
295 254 301 112 89 62
337 394 307 130 90 76
299 244 295 109 86 60
289 799 320 179 135 104
302 241 288 109 85 57
263 414 311 131 102 73
270 434 209 98 15 28
328 422 149 88 66 50
329 714 339 165 9 51
339 967 344 67 62 61
302 244 290 110 87 59
339 390 241 91 78 65
415 489 400 79 13 28
302 249 290 109 86 58
339 794 236 74 57 51
405 890 268 72 62 63
359 980 310 60 56 56
297 249 298 113 89 62
339 599 211 94 35 42
277 487 381 34 28 27
302 250 293 110 87 59
354 419 314 123 90 73
380 970 310 72 68 69
269 269 299 124 95 69
399 439 315 101 19 36
404 674 305 44 26 28
243 654 310 150 104 73
303 254 290 109 85 57
300 254 296 112 89 61
390 194 281 116 93 66
258 584 355 116 80 53
309 539 186 137 4 35
302 254 294 111 87 60
351 185 270 107 87 65
351 190 265 114 92 69
262 489 187 62 38 41
364 414 190 99 66 50
324 754 334 78 64 57
361 756 227 96 28 31
351 190 262 120 97 71
351 189 275 105 85 62
421 881 273 75 63 59
319 299 280 83 73 63
360 134 261 118 93 65
273 669 275 110 24 37
359 139 265 115 92 65
381 966 322 60 55 55
263 549 196 123 9 34
359 144 265 111 89 64
262 417 238 92 80 66
259 509 390 41 28 28
339 783 323 73 60 54
359 139 275 103 82 58
488 788 285 88 65 54
282 477 386 69 5 23
311 850 325 170 130 105
350 458 310 62 49 34
359 144 275 103 83 60
361 135 278 104 83 60
393 404 290 119 96 69
364 134 281 107 86 64
459 884 366 70 57 46
279 457 333 73 39 34
369 134 282 111 91 68
383 844 309 143 114 91
369 136 283 112 91 69
360 144 279 104 84 61
263 588 340 78 20 26
257 479 209 54 30 33
284 694 250 54 34 37
400 716 196 71 55 42
363 144 281 106 86 64
344 314 257 87 77 66
284 393 244 99 86 74
259 809 316 182 131 106
294 309 319 119 89 63
403 589 330 160 104 96
369 139 283 112 91 68
417 471 283 90 28 37
365 144 283 108 87 65
369 144 284 110 90 67
301 520 387 162 7 52
334 851 269 169 114 85
403 414 220 124 20 40
280 329 262 120 94 64
334 416 170 90 73 60
411 507 440 72 8 27
336 348 313 133 91 74
413 868 330 34 31 31
358 149 270 104 84 63
357 154 270 105 85 63
357 158 269 107 87 65
362 148 258 119 95 67
408 614 250 77 37 41
278 454 203 112 6 24
358 149 275 103 83 61
357 154 275 101 82 60
429 868 331 34 31 31
335 459 149 44 36 39
428 519 285 110 30 43
359 154 280 96 78 57
364 149 284 107 87 65
474 804 280 74 59 52
362 152 282 101 82 61
403 424 210 99 28 37
397 582 222 75 30 40
319 848 270 187 130 100
364 154 285 106 87 65
382 442 333 78 5 24
364 159 286 108 88 67
275 709 265 121 10 34
393 239 285 126 99 67
374 134 282 113 92 68
372 136 283 113 92 68
384 759 330 80 64 56
404 519 420 81 44 44
374 139 283 114 92 68
319 409 220 86 72 59
314 804 244 85 67 58
375 138 282 114 92 67
390 552 348 152 19 53
339 458 360 50 39 25
374 144 284 114 92 69
306 920 353 180 142 123
384 134 275 115 93 67
382 136 278 113 91 66
273 836 301 215 154 130
329 583 201 111 21 38
383 144 279 116 93 68
377 141 283 114 92 68
430 846 299 38 34 31
385 434 330 90 5 29
377 144 283 113 91 66
251 694 318 176 123 97
467 802 257 76 58 51
359 970 289 92 88 91
383 149 279 117 94 68
368 240 303 122 96 66
378 149 284 116 93 67
379 154 284 116 93 67
359 314 256 97 84 70
379 159 285 115 92 67
374 379 241 99 86 73
410 559 305 112 26 44
381 157 282 116 93 66
384 159 280 116 93 66
310 934 355 176 135 117
355 169 280 104 84 62
359 839 240 55 48 47
450 674 295 142 100 65
369 160 288 112 91 68
544 879 339 105 88 71
373 160 288 114 93 69
399 769 325 82 65 59
391 260 274 132 97 62
269 484 201 61 30 32
356 164 265 110 90 67
398 449 201 52 35 38
358 164 260 113 90 63
357 162 264 110 89 67
244 679 310 179 123 97
273 499 405 122 3 36
401 904 273 68 60 61
356 166 262 113 91 66
266 544 199 128 2 32
386 638 312 151 12 46
356 169 261 113 91 66
356 161 267 108 88 66
434 619 295 110 90 68
265 573 206 101 31 43
404 569 325 53 25 31
353 174 265 114 93 70
350 264 260 101 82 61
359 174 259 116 92 63
274 714 320 146 97 83
484 783 291 81 64 49
356 435 153 49 39 40
318 765 233 122 31 42
425 589 346 175 120 91
333 457 346 49 38 26
353 174 270 107 88 66
351 262 256 105 85 63
361 169 257 115 90 61
356 164 275 101 82 60
375 353 301 128 101 69
355 169 275 103 83 61
349 418 150 95 73 56
356 161 278 96 76 56
370 848 317 147 117 90
356 165 279 100 80 58
458 769 309 158 112 79
357 163 281 100 81 60
347 238 292 108 87 63
359 164 284 104 86 65
359 169 285 106 86 66
279 779 321 157 118 84
282 546 193 144 21 45
409 724 196 67 52 44
354 174 275 104 85 63
355 174 280 104 84 62
401 467 354 67 29 33
341 250 266 101 82 61
262 566 352 175 0 51
356 174 284 105 85 64
401 479 205 107 26 38
424 594 310 95 76 54
349 904 241 87 75 77
390 502 458 145 28 50
358 174 286 105 86 65
359 474 430 67 24 25
362 168 287 106 87 65
354 184 260 117 94 67
380 329 265 120 96 70
352 184 265 116 94 69
364 963 281 87 83 88
357 184 258 119 94 64
299 629 229 174 0 39
349 944 369 69 64 63
282 444 203 119 5 27
395 434 350 72 26 34
352 179 270 108 88 67
369 480 415 67 32 28
449 789 314 163 118 87
414 464 245 116 14 33
379 484 440 71 16 25
353 189 260 118 94 68
299 384 319 136 100 72
294 416 190 95 81 67
249 584 310 83 27 39
320 612 217 87 38 52
353 179 275 104 84 63
354 179 280 103 83 61
481 853 322 86 71 58
400 509 205 146 11 36
311 856 317 159 123 96
353 184 280 101 81 59
462 695 242 73 56 43
358 179 287 105 86 65
279 456 333 73 39 33
347 223 266 110 88 64
299 551 395 87 27 39
389 892 347 31 28 29
357 182 287 107 87 67
583 876 348 99 87 76
399 409 204 108 27 34
316 320 317 130 88 69
364 479 172 151 1 33
352 188 276 104 84 62
284 319 261 116 91 63
352 189 280 102 82 59
308 389 314 134 95 75
385 164 280 118 95 68
392 464 324 66 39 40
383 169 283 118 95 67
400 805 312 71 56 50
402 415 246 42 35 37
274 604 225 176 11 46
403 469 335 33 29 31
381 249 297 118 91 59
383 174 284 119 95 69
277 469 356 79 24 35
381 178 287 119 96 71
382 324 280 124 97 65
267 576 208 83 42 47
319 839 260 74 59 58
383 179 285 119 96 70
371 453 184 103 16 32
534 874 339 89 73 56
329 497 398 150 21 53
283 482 438 175 10 53
261 429 231 75 27 34
239 563 454 135 92 85
384 184 285 119 96 70
439 819 300 126 84 63
360 175 288 105 86 66
364 169 289 110 90 68
428 504 434 142 108 86
280 455 331 72 39 33
264 409 245 103 86 68
425 699 313 127 80 63
369 169 290 115 94 71
428 534 310 138 23 46
386 502 419 171 12 51
369 790 322 101 84 75
391 182 277 115 92 66
364 174 290 109 90 68
378 369 304 128 99 66
353 473 167 83 27 40
369 174 291 115 94 71
359 184 290 108 89 69
394 429 201 67 37 35
279 299 309 127 95 70
412 491 355 86 23 27
294 598 334 156 15 50
304 464 180 133 0 30
438 674 275 108 87 62
369 179 292 116 95 73
338 976 309 78 73 74
251 528 201 51 34 34
365 184 293 114 94 72
344 414 170 93 71 59
412 465 299 54 31 32
364 189 294 113 93 71
361 190 293 109 90 69
374 164 288 116 94 70
365 862 222 101 81 69
247 795 300 184 128 100
243 774 280 180 123 95
374 169 289 117 95 70
374 174 290 116 94 70
248 525 370 69 28 34
310 491 407 50 20 26
379 744 205 52 44 41
334 391 242 82 67 51
374 179 291 116 94 70
434 694 245 75 57 42
373 185 293 116 94 70
373 189 293 117 94 69
349 904 359 132 97 78
375 189 292 118 95 70
367 454 172 130 0 34
324 494 159 72 33 36
474 844 306 102 79 60
244 531 430 42 30 27
387 268 266 142 102 69
378 179 289 117 94 69
351 194 261 120 97 70
419 699 206 69 54 43
350 194 265 114 93 71
414 867 306 34 31 30
246 550 355 57 33 32
322 550 369 40 26 30
389 609 310 171 17 55
408 527 354 49 29 31
350 199 260 120 97 69
244 724 305 169 115 89
394 503 458 100 24 37
350 194 270 108 88 65
414 540 395 185 121 95
304 304 262 97 83 68
350 199 270 109 89 66
313 444 145 150 2 38
257 438 234 99 17 38
350 204 260 121 96 68
339 834 314 161 121 98
400 434 204 80 35 37
349 204 265 113 92 68
349 209 265 110 89 67
288 454 194 113 9 26
339 412 188 93 79 66
275 784 252 156 105 71
274 299 304 124 95 69
366 439 165 107 21 34
349 204 270 110 90 67
334 789 322 72 59 54
273 464 203 105 4 26
473 769 250 61 48 42
394 579 313 60 26 31
351 194 280 103 83 60
352 194 285 105 85 63
267 744 268 78 59 45
350 199 275 107 86 64
338 548 182 68 34 34
350 199 280 104 84 61
351 200 284 104 84 61
249 599 255 47 33 36
406 469 316 104 23 40
349 204 275 108 87 64
350 204 280 105 84 61
254 694 320 173 120 95
339 471 440 116 19 39
348 209 275 109 88 65
253 519 195 126 16 38
256 496 344 58 22 27
349 209 280 107 86 62
351 204 285 103 82 59
269 439 205 102 14 28
350 209 285 106 84 61
488 727 278 83 68 51
351 214 257 120 96 67
418 509 245 131 14 36
470 809 275 63 50 48
421 492 415 67 24 27
394 899 260 58 52 53
294 259 304 114 91 64
349 219 260 118 94 66
268 836 295 210 134 108
349 224 259 119 94 65
351 217 257 120 95 66
414 524 235 116 20 37
370 469 175 130 0 34
347 224 268 109 88 65
291 461 373 64 43 35
409 779 318 74 59 52
349 734 228 122 17 33
262 368 269 118 95 69
348 214 280 109 88 65
346 220 274 109 88 64
402 439 206 87 32 36
250 560 450 205 168 160
315 459 150 114 18 38
349 864 350 146 116 84
346 224 275 111 89 64
312 320 262 84 74 64
347 222 277 109 88 64
249 519 405 33 29 32
346 225 280 111 89 65
347 223 280 111 89 66
384 691 338 140 10 42
343 802 318 180 131 112
231 514 275 74 27 37
348 219 285 106 85 61
272 493 375 111 16 41
347 224 285 109 88 65
299 884 325 146 107 87
378 869 320 133 107 87
261 439 185 111 3 30
399 414 285 116 17 35
351 205 288 104 84 62
351 209 289 105 85 63
427 580 340 144 106 69
350 916 374 40 38 38
349 219 290 107 86 64
374 459 326 65 37 37
348 224 290 107 86 63
449 808 308 146 94 70
350 224 294 106 87 65
450 704 306 166 110 79
345 229 265 114 91 65
325 341 278 86 81 77
272 729 264 116 13 36
351 229 257 125 97 64
347 227 267 109 88 65
363 459 166 146 1 32
409 559 315 126 31 47
345 229 270 110 88 63
280 419 206 79 68 59
239 549 275 172 0 48
299 399 319 138 100 78
391 154 260 121 96 68
364 554 346 116 24 45
411 462 296 58 30 27
347 228 269 110 89 64
391 234 259 130 99 62
349 234 259 120 93 62
440 805 254 72 58 51
350 240 257 121 95 64
277 463 351 66 28 33
314 418 175 91 77 62
374 394 313 134 100 68
344 234 270 111 89 64
245 639 310 129 98 63
345 229 275 112 90 65
343 412 189 94 80 66
386 444 318 79 2 29
339 619 330 81 31 40
346 229 285 110 88 64
347 228 286 108 87 63
280 284 308 119 92 66
249 604 345 144 106 73
345 234 275 111 89 64
383 540 361 100 21 38
384 814 222 72 58 54
345 234 280 111 90 65
381 487 452 72 22 24
475 790 274 83 64 56
345 239 275 110 88 64
345 239 280 110 88 64
293 794 248 75 59 54
255 618 358 186 128 107
262 439 190 97 15 26
384 493 463 152 24 53
346 234 285 109 88 64
344 244 260 111 88 61
342 244 265 110 89 64
431 526 419 165 103 94
344 249 260 107 85 60
341 250 269 102 83 62
364 519 181 147 9 34
344 254 260 102 82 60
389 769 327 81 64 57
342 254 264 100 81 60
341 254 270 99 81 60
347 245 258 113 90 64
249 804 305 185 132 103
406 483 355 118 16 38
348 248 258 111 89 62
354 882 237 81 68 66
375 249 301 123 96 63
296 627 318 65 9 23
332 848 312 63 48 33
355 457 324 59 44 30
341 255 274 103 83 62
304 654 234 161 4 40
464 759 251 86 63 47
342 253 276 105 85 62
344 249 285 108 86 61
397 534 206 39 34 38
414 624 275 65 38 35
347 229 290 106 85 60
350 229 295 107 87 64
456 836 298 73 59 51
322 310 309 98 72 50
349 234 295 109 89 67
360 878 346 147 115 91
438 694 313 171 117 87
280 319 262 124 96 65
346 239 290 107 85 62
379 694 210 69 51 40
348 239 295 108 88 66
351 235 298 110 90 67
344 254 290 108 87 63
407 450 295 78 24 32
393 199 279 119 95 67
346 244 290 108 86 62
346 241 293 108 87 63
408 877 321 35 32 31
407 665 261 59 35 36
252 530 199 52 34 33
345 249 295 110 89 64
347 248 297 110 89 66
276 476 197 70 31 26
349 249 300 110 89 65
303 949 310 78 73 72
406 433 255 49 33 35
351 255 303 113 89 64
352 204 258 119 95 67
352 192 281 104 84 61
254 614 265 98 30 41
352 202 287 104 84 62
369 625 228 166 9 35
352 220 258 123 96 63
354 199 290 106 87 66
359 754 229 119 17 30
459 779 309 156 111 81
249 804 285 185 125 97
339 413 185 92 78 64
377 504 186 117 14 32
270 319 270 142 103 79
274 719 321 154 99 85
360 194 294 111 91 70
359 930 376 53 47 45
308 280 304 103 81 56
357 198 292 107 88 69
359 199 294 110 90 70
435 860 284 72 60 59
250 529 205 54 31 33
271 496 379 111 17 31
275 659 260 172 4 45
324 399 295 119 75 62
393 244 265 135 101 64
385 84 272 96 34 35
356 204 293 107 88 68
339 420 145 105 70 58
355 209 294 108 89 68
356 200 293 107 88 67
329 425 140 76 64 52
465 874 362 66 53 43
359 204 295 112 92 71
429 858 319 33 30 29
349 734 335 73 42 44
359 209 296 112 91 70
359 469 168 55 36 39
329 487 414 49 26 26
385 668 322 138 5 42
346 446 153 162 1 32
525 851 324 96 82 70
364 199 296 117 97 75
326 910 271 161 109 82
277 551 198 40 36 35
364 815 312 178 135 112
369 194 295 117 96 72
376 841 227 58 51 52
284 272 252 134 99 66
369 199 296 119 97 72
363 203 297 117 96 74
462 699 253 63 48 39
268 524 465 161 16 50
364 205 298 118 97 74
460 825 284 75 61 54
369 209 298 121 98 72
406 434 245 63 31 37
354 214 295 108 88 68
414 479 300 121 17 39
358 213 297 112 92 70
354 219 295 108 89 68
499 794 305 90 71 53
353 224 296 108 88 68
357 217 297 111 91 70
411 492 370 74 21 27
359 219 299 114 92 70
361 210 298 116 94 70
364 349 310 121 94 62
369 214 299 120 97 71
286 699 247 99 16 36
364 219 300 119 96 72
275 832 276 220 151 121
364 224 301 119 97 72
303 548 399 182 22 61
369 219 299 121 97 70
369 224 300 122 98 71
374 199 295 119 96 69
374 209 296 121 97 70
388 618 232 114 26 40
381 493 193 106 13 26
376 192 292 119 96 68
253 549 340 90 15 31
429 825 295 62 43 38
280 324 262 123 95 63
382 195 288 119 95 69
273 494 380 97 18 34
388 489 197 122 15 32
378 204 293 120 96 69
411 919 321 59 50 51
378 209 294 119 95 67
386 259 292 124 95 63
258 489 330 41 30 31
383 204 289 119 96 69
339 564 190 158 21 45
278 441 334 86 55 42
381 209 292 120 96 70
375 214 296 122 98 70
340 494 164 70 38 42
342 313 258 87 76 66
423 526 432 178 82 93
373 219 298 121 97 69
376 218 297 121 97 69
339 754 331 77 62 54
374 224 299 120 95 67
434 498 394 82 41 37
389 699 341 152 5 47
395 244 280 129 98 64
379 224 295 119 94 66
328 473 431 74 20 32
374 384 311 131 99 66
384 224 291 116 92 64
289 590 208 176 5 38
389 484 197 72 26 32
280 294 309 126 96 69
369 575 203 182 7 40
427 892 331 69 59 58
376 223 297 119 95 66
421 499 255 84 22 31
352 228 297 108 88 66
354 229 299 112 91 70
480 768 257 89 66 49
313 384 252 88 76 64
352 232 297 109 89 67
354 234 300 113 92 70
323 504 165 97 23 37
354 239 301 113 92 69
390 863 302 34 29 28
359 234 302 117 95 71
441 694 312 171 117 86
583 879 346 104 89 75
266 443 199 112 6 30
252 552 335 60 24 28
411 458 291 98 24 37
359 239 303 118 95 70
369 229 301 121 97 70
349 908 361 90 71 56
431 725 223 69 52 43
364 236 303 120 97 71
257 549 393 91 62 50
364 239 303 120 97 70
349 634 228 99 30 38
476 767 270 82 62 48
370 238 302 123 96 65
