ply
format ascii 1.0
comment Created by Open3D
element vertex 2200
property double x
property double y
property double z
property uchar red
property uchar green
property uchar blue
end_header
460 415 194 74 25 26
410 414 295 67 52 39
482 631 232 122 91 54
400 446 122 72 39 39
455 757 149 75 58 44
439 417 278 103 83 62
299 786 222 59 51 50
480 735 179 55 45 38
382 80 191 154 11 41
436 376 254 106 86 63
385 81 189 153 16 44
283 774 232 130 96 57
349 407 238 90 75 57
324 66 194 103 75 73
365 416 314 145 17 46
334 770 201 69 57 51
340 601 319 185 10 58
316 595 313 43 27 29
390 409 183 93 78 62
363 22 274 137 29 53
405 166 253 119 96 68
322 64 195 98 70 63
291 595 230 167 8 44
322 65 200 94 49 39
404 106 243 118 95 72
310 371 323 149 106 79
326 76 204 92 43 42
499 825 280 59 47 35
445 481 285 161 10 50
263 746 274 169 115 88
477 751 245 161 111 81
324 76 209 104 31 42
324 81 209 114 20 43
405 301 281 112 88 62
329 76 199 87 49 38
277 785 236 172 116 82
410 397 205 94 80 65
266 516 269 72 30 36
344 420 217 81 66 54
375 701 200 114 16 29
338 414 227 90 75 59
402 922 232 73 63 62
391 201 215 118 93 62
412 917 263 66 58 59
329 81 199 120 31 46
318 189 221 130 98 61
323 76 214 102 83 65
480 423 214 65 21 26
325 681 299 83 29 39
418 193 216 115 94 69
424 630 216 107 24 38
259 450 303 111 8 28
322 80 213 101 79 65
400 181 212 131 100 60
485 476 199 118 21 34
376 371 230 84 72 60
400 316 285 121 89 66
428 291 239 123 96 64
322 75 220 99 34 40
323 78 222 103 14 33
342 441 180 53 31 31
396 287 272 104 84 62
385 506 300 159 4 49
448 879 245 86 66 64
470 611 230 126 96 62
327 86 200 112 79 69
290 716 298 182 126 103
367 456 150 67 33 36
266 451 274 128 4 35
392 953 286 53 48 46
417 798 271 71 57 51
446 812 160 163 135 123
325 86 204 115 61 62
428 281 244 125 96 61
380 96 249 118 49 55
331 316 304 123 93 63
324 86 209 118 21 42
434 366 244 109 88 65
488 500 236 98 15 33
327 96 199 113 62 59
415 236 263 125 99 69
327 97 195 131 32 51
282 316 279 137 104 73
326 91 204 115 22 44
316 131 203 154 107 77
475 486 193 135 15 35
277 421 225 99 25 31
420 526 174 44 37 40
325 96 209 108 30 42
277 491 219 138 8 36
330 86 194 130 21 46
355 466 318 161 16 51
426 487 167 155 1 35
328 91 198 123 35 48
480 843 287 69 55 44
374 81 224 122 19 41
296 391 318 137 102 79
290 721 248 93 67 44
328 96 194 139 18 50
432 598 291 91 26 40
449 651 228 94 74 52
323 86 214 102 48 48
285 496 335 145 11 44
460 785 165 78 59 52
325 831 224 89 69 61
322 86 220 109 75 60
323 91 217 107 28 41
328 464 197 70 27 30
323 96 217 95 29 37
432 488 172 101 18 33
382 518 157 171 7 38
295 409 217 135 11 28
273 542 249 73 32 38
325 101 209 107 59 50
455 416 174 127 21 36
326 106 199 116 51 52
287 225 231 133 101 63
385 741 195 58 33 36
400 417 149 92 76 60
351 426 194 52 33 35
504 470 234 82 26 35
395 361 285 133 94 76
326 111 199 107 56 48
295 21 259 154 114 93
344 396 289 111 84 64
263 771 269 171 117 88
324 106 204 111 75 59
392 381 282 130 94 77
470 431 285 51 37 34
280 821 283 201 143 118
380 903 181 83 71 66
430 412 189 96 78 64
309 133 202 143 108 72
503 467 216 124 9 33
323 110 209 111 34 42
306 289 316 104 86 66
330 857 264 99 77 54
321 101 224 105 67 52
300 731 291 64 40 35
321 112 214 123 80 65
324 106 219 111 18 40
409 292 277 120 94 67
490 836 249 95 77 65
495 744 226 91 69 50
323 109 218 121 64 62
365 542 167 70 33 39
307 173 212 140 105 67
325 116 194 129 24 44
435 371 249 106 86 63
454 864 246 73 61 59
421 196 224 120 98 74
289 146 229 110 91 71
305 206 270 111 91 71
474 657 231 92 73 50
325 116 199 122 34 47
449 641 233 92 72 51
324 120 194 139 32 49
390 96 251 122 97 72
310 791 293 187 136 106
287 176 248 115 95 76
328 256 274 113 89 61
330 576 194 188 7 43
440 766 150 73 57 49
385 461 312 97 22 38
321 116 209 112 76 57
283 236 238 133 101 66
381 231 224 125 96 60
427 608 207 126 41 50
375 71 209 110 33 40
410 491 293 105 23 39
316 931 234 66 61 64
340 566 318 98 30 41
384 121 239 116 86 65
419 361 220 92 82 73
308 700 232 121 6 35
426 216 234 115 94 71
365 821 210 78 61 54
376 76 209 124 20 43
350 481 173 137 4 34
378 65 197 95 38 26
405 146 250 118 93 65
319 146 214 119 90 59
452 667 226 89 71 50
368 459 147 49 31 31
379 71 194 137 18 37
504 751 228 90 67 48
300 231 225 140 102 65
305 261 295 115 94 72
420 881 265 32 30 29
306 409 217 110 29 20
377 341 236 86 71 55
377 71 199 132 12 38
286 236 235 135 102 66
341 565 186 140 27 46
295 416 334 81 38 34
450 481 284 157 5 47
465 591 264 67 29 37
300 246 289 113 93 71
376 66 209 105 45 42
316 964 302 58 54 52
376 71 204 126 15 40
285 176 234 119 96 71
421 191 244 117 95 70
302 451 336 132 19 43
382 798 186 64 52 47
377 74 196 147 8 38
469 541 228 35 32 33
405 412 174 92 76 59
377 76 199 145 6 44
262 746 269 165 111 81
287 437 211 64 38 36
268 446 274 130 4 36
295 291 253 158 105 77
316 686 225 75 32 36
381 81 194 157 9 43
449 856 244 78 69 67
420 721 200 45 34 35
378 77 197 150 6 45
377 76 204 135 6 43
375 66 214 89 58 45
350 426 184 46 34 33
308 833 237 87 66 62
415 646 215 125 15 36
315 491 325 82 27 36
374 71 214 111 36 43
384 241 250 121 97 72
513 456 235 110 14 31
374 66 219 106 34 41
279 586 249 107 15 35
329 216 249 106 84 57
375 791 190 74 58 52
277 412 226 121 19 27
290 141 229 111 92 72
339 336 289 117 86 62
310 666 239 116 15 35
262 665 298 190 134 109
360 541 308 157 13 48
305 266 238 146 98 67
462 871 267 74 58 52
395 696 201 55 35 34
374 66 224 88 49 45
317 300 315 108 84 55
461 671 225 94 76 55
373 71 219 126 25 46
406 136 218 110 90 69
407 918 305 79 62 53
376 76 214 122 49 57
373 76 224 117 29 42
503 835 278 71 52 43
453 535 283 51 24 30
421 191 239 113 93 70
376 81 219 129 23 44
253 611 294 155 112 79
446 421 229 64 46 41
333 460 183 93 22 27
475 431 185 68 38 39
378 77 215 119 88 82
378 81 214 121 31 42
335 356 304 129 94 68
383 82 192 160 10 43
502 464 217 82 25 30
325 256 244 125 92 60
330 656 300 159 16 50
287 171 226 122 98 69
515 819 236 113 86 77
315 887 307 165 129 106
419 646 288 154 19 51
382 85 195 159 10 43
369 598 197 105 33 44
452 434 291 133 11 39
378 82 204 140 7 42
506 466 224 153 9 40
266 640 312 179 131 105
378 82 209 112 35 41
384 196 223 122 94 59
380 86 204 141 7 43
310 967 284 80 71 70
383 88 198 153 11 48
357 708 201 123 24 37
281 256 245 144 105 71
345 406 309 61 49 36
400 810 170 64 52 48
306 254 291 115 94 72
403 789 282 80 61 56
454 423 274 66 57 47
382 89 201 145 10 45
423 326 231 97 82 67
344 905 219 57 52 51
405 516 293 77 24 35
330 406 230 94 80 65
493 484 224 33 30 32
375 641 208 99 26 34
345 526 313 57 27 33
382 91 204 137 10 44
297 180 216 135 104 68
384 101 204 134 15 42
335 896 317 187 137 119
383 96 203 131 16 40
381 841 275 153 117 92
423 651 282 165 11 51
382 96 206 128 18 42
382 96 209 120 27 41
376 86 219 98 50 44
265 521 274 105 22 36
287 570 225 49 32 38
374 86 224 114 26 39
471 507 295 184 21 61
395 31 229 106 89 71
428 367 277 121 94 63
306 216 222 135 101 63
314 297 318 106 85 62
376 91 219 128 31 42
284 196 249 116 94 71
451 792 261 159 116 87
379 86 214 116 39 48
378 83 217 129 27 46
285 276 294 118 94 67
395 412 169 92 76 60
385 446 129 124 12 32
385 111 224 116 79 54
391 962 275 60 55 54
380 12 269 163 109 117
460 776 159 84 61 49
418 413 171 102 85 65
420 596 198 110 31 42
378 86 217 99 50 41
428 266 249 126 97 61
290 291 309 119 92 65
292 819 236 184 126 92
378 91 217 128 30 41
390 336 225 95 80 63
372 66 230 104 34 41
456 424 274 63 56 48
379 216 229 120 93 62
373 66 228 103 56 51
324 246 240 123 92 57
370 66 234 102 18 38
264 486 259 51 32 35
330 975 269 84 80 81
322 170 240 106 84 59
460 431 289 123 20 41
303 946 259 64 60 63
339 832 217 55 49 52
365 406 219 78 68 58
265 481 259 52 30 32
369 66 239 103 49 51
410 186 255 120 97 71
355 621 312 108 30 45
285 436 213 91 33 33
370 71 234 114 20 42
383 955 231 79 71 72
370 71 239 104 71 60
385 46 262 126 97 73
372 80 229 84 65 47
255 535 337 176 118 97
335 701 313 105 27 42
491 486 209 170 12 42
373 82 228 96 50 44
475 437 288 72 30 34
371 76 234 111 37 48
319 805 287 64 53 48
371 76 239 110 45 50
480 501 199 137 20 39
419 571 190 164 3 39
365 591 311 165 13 52
372 81 234 103 44 44
314 587 207 178 6 41
435 451 302 138 14 42
369 66 244 122 35 52
504 824 251 107 82 65
371 71 244 119 85 71
422 340 227 96 84 73
353 511 172 88 27 34
426 591 300 179 7 56
478 729 155 90 68 48
372 71 248 119 17 43
399 90 191 149 21 40
378 511 302 158 6 48
295 836 264 186 129 103
375 66 254 122 86 70
290 366 259 110 90 68
374 71 250 122 24 45
318 141 229 107 82 54
286 762 235 105 80 49
415 736 194 54 36 39
304 177 257 107 89 70
376 71 253 123 24 48
424 211 244 117 95 71
372 76 244 113 64 61
493 606 240 141 105 70
424 413 175 107 86 66
451 852 264 35 31 30
444 641 253 113 41 46
426 321 233 97 81 65
385 221 218 127 97 59
386 912 207 68 60 61
398 292 222 111 88 63
261 491 264 76 32 36
372 74 247 114 55 48
304 906 269 145 114 96
376 902 191 91 77 76
442 557 290 178 5 56
374 76 249 122 16 45
349 627 212 109 28 41
340 978 279 71 66 66
291 167 248 107 90 72
372 80 243 112 11 37
355 801 204 77 60 53
374 81 244 108 48 51
288 745 242 77 59 42
376 81 249 115 64 58
366 536 306 153 14 48
305 196 217 139 104 65
497 834 258 91 73 56
376 75 252 115 16 39
283 331 285 132 101 70
320 601 213 178 4 40
366 817 276 179 122 101
326 336 315 129 94 65
380 76 253 113 80 63
378 81 251 115 26 45
435 626 224 66 34 40
262 504 270 47 30 36
320 866 299 141 54 73
381 81 252 118 31 46
435 875 309 41 37 35
410 186 213 126 98 62
389 186 250 111 90 67
385 76 254 124 100 74
399 96 248 116 59 55
373 83 233 107 22 43
462 719 156 78 59 45
372 84 238 114 12 38
285 566 229 88 34 39
404 25 269 136 19 51
429 351 234 99 84 67
359 409 254 73 62 51
286 356 309 132 100 72
393 122 212 141 95 62
326 221 264 115 92 67
373 86 239 111 20 41
430 421 144 142 44 46
373 91 229 103 39 44
279 486 214 137 9 36
411 926 274 60 54 55
372 92 230 102 40 43
405 171 254 119 96 69
405 206 211 120 95 65
373 91 239 97 44 47
349 427 322 55 28 31
372 93 232 88 67 53
302 907 274 94 82 76
282 211 245 117 94 68
539 812 272 96 76 59
372 96 233 100 65 51
314 176 215 137 102 64
421 911 274 72 62 61
440 412 219 103 83 67
431 478 291 178 14 55
355 541 310 140 15 45
337 438 206 78 33 23
365 556 174 139 28 44
373 96 235 110 63 55
365 26 269 135 67 67
373 96 239 108 38 46
408 116 238 115 94 71
435 416 159 126 88 67
373 83 241 110 9 38
429 396 225 104 90 75
374 381 254 87 71 54
304 656 254 93 24 37
294 210 271 108 90 71
374 86 244 101 69 55
283 356 273 127 99 69
409 46 234 115 34 44
470 492 288 73 19 33
383 246 251 117 94 70
455 682 220 93 78 62
376 86 248 120 95 74
295 156 245 106 89 70
314 151 239 106 84 59
376 96 244 112 17 41
350 817 212 79 63 56
310 651 239 150 1 39
375 631 308 38 29 32
381 306 230 114 92 68
310 141 239 109 87 62
248 527 302 104 29 41
405 326 223 88 75 63
483 794 211 130 87 64
267 737 251 127 95 64
385 86 253 126 22 47
297 158 247 107 89 70
428 286 249 124 97 62
316 176 217 134 100 61
419 910 289 79 65 62
392 362 221 91 80 68
471 734 174 66 53 42
363 28 259 125 84 73
377 94 247 111 15 42
288 501 202 130 8 35
489 785 210 135 92 66
380 91 250 110 49 52
518 451 250 92 14 30
478 691 230 138 98 66
297 630 255 41 34 37
382 90 252 110 38 46
395 231 260 122 98 73
385 91 253 116 23 44
480 471 284 146 11 45
385 96 250 119 91 70
390 30 228 112 89 60
500 491 239 118 7 30
254 541 289 126 17 41
325 226 234 118 89 56
385 573 182 187 7 41
272 720 292 175 122 96
280 376 279 128 100 68
381 371 274 102 78 58
272 426 274 119 18 38
530 797 237 106 88 74
343 964 312 60 57 57
265 511 264 52 32 38
300 466 334 170 15 54
370 927 207 80 72 72
264 550 272 95 9 28
383 116 234 121 89 67
382 100 206 131 18 39
412 927 259 56 49 48
327 265 280 119 93 62
382 101 209 106 42 37
421 882 313 40 37 36
385 405 194 94 80 65
383 106 208 132 20 40
279 404 254 111 64 56
375 891 294 85 68 52
385 110 209 122 53 53
387 256 221 134 102 64
267 486 246 140 5 36
395 161 213 129 97 56
435 412 199 102 85 68
330 427 220 59 36 32
380 106 214 126 38 47
390 20 238 99 85 70
394 832 182 57 49 49
370 20 289 216 161 177
460 863 302 52 43 37
327 913 231 90 74 59
382 109 212 124 48 47
387 292 267 99 79 58
385 621 306 104 34 45
385 109 213 121 71 60
334 696 310 44 29 32
360 501 309 142 17 47
377 104 224 122 40 41
506 808 252 72 60 47
407 86 235 104 70 58
394 156 251 111 90 66
549 476 264 137 112 87
415 417 149 113 75 62
390 419 134 93 73 57
385 107 219 134 89 71
384 107 223 126 84 63
315 391 320 139 100 74
328 216 235 118 91 56
375 101 239 122 58 56
461 463 296 176 19 59
345 806 208 80 63 54
404 460 130 186 10 45
470 716 253 174 123 95
355 581 190 105 36 44
267 496 245 141 4 38
378 103 230 135 95 76
435 835 184 81 63 56
378 103 234 134 96 79
468 723 191 80 56 46
379 103 240 129 96 77
524 456 260 42 30 31
257 644 302 174 125 99
320 146 219 106 83 56
403 55 242 132 106 89
345 401 289 79 64 47
377 104 228 134 82 72
382 109 226 124 81 58
382 110 229 132 94 72
394 23 236 109 86 66
294 16 263 116 75 59
380 106 239 129 95 75
335 756 203 81 34 36
467 735 167 117 83 59
305 486 194 96 26 25
382 111 234 130 95 74
393 48 191 122 33 14
269 746 285 170 118 91
381 191 239 112 89 65
264 431 304 88 27 36
376 99 243 119 60 55
350 426 179 50 33 30
331 896 239 119 96 74
395 691 202 61 35 35
290 206 225 132 103 68
380 101 244 124 94 74
390 580 186 176 11 43
367 909 306 73 57 48
358 496 162 132 7 33
300 196 217 141 107 68
272 716 292 174 121 95
475 430 274 67 57 46
385 101 249 124 101 76
482 838 279 60 49 39
390 46 191 124 34 19
395 286 270 103 83 60
299 366 253 101 86 70
382 106 243 120 91 70
470 461 184 150 6 37
383 835 207 63 53 50
383 107 245 120 94 71
480 861 293 76 59 46
336 441 204 78 29 26
262 496 260 44 33 36
284 611 274 119 22 39
385 106 248 122 99 76
395 81 187 133 30 41
448 585 287 157 25 55
383 112 240 122 91 70
465 756 254 165 116 89
315 236 230 133 97 59
465 412 184 110 23 28
425 786 159 70 55 46
309 572 203 174 7 42
351 661 211 108 17 31
384 121 229 119 89 62
376 952 310 64 59 59
287 158 226 120 97 71
463 428 287 129 26 48
406 892 209 71 63 62
318 150 211 132 96 62
287 157 229 117 95 73
272 416 254 134 8 38
381 276 249 100 80 59
287 157 233 113 93 71
296 161 215 131 104 73
369 46 259 118 58 61
365 536 165 137 21 40
289 611 303 141 101 86
257 447 310 115 6 33
287 161 234 113 92 71
375 27 274 133 57 61
392 401 282 71 54 35
410 410 291 104 79 57
286 166 234 114 93 71
340 741 317 149 22 53
400 396 204 95 80 66
475 861 295 68 53 44
435 566 199 155 3 36
454 865 249 72 58 57
286 171 229 121 97 70
476 801 209 127 84 62
287 176 226 121 97 68
500 862 281 95 76 58
287 167 242 112 93 73
285 266 289 119 95 68
500 434 236 77 16 26
429 241 234 121 97 69
287 171 244 114 95 75
279 386 294 136 103 73
408 121 225 111 91 69
285 186 229 123 98 70
282 631 306 177 127 102
292 220 226 136 104 65
330 891 244 126 102 78
372 398 216 79 70 61
287 191 226 126 101 71
417 838 166 104 80 61
285 191 229 124 99 71
290 221 228 134 102 65
280 371 294 132 101 69
402 96 246 115 44 52
450 621 259 156 21 51
337 321 279 102 80 56
488 769 208 124 87 64
393 219 256 117 94 70
284 186 234 121 97 71
322 268 247 126 90 62
303 627 238 101 25 42
419 261 216 133 99 60
385 971 269 65 60 59
483 736 228 116 77 51
372 510 151 173 2 35
384 166 239 106 85 61
301 541 195 104 17 38
490 541 243 124 95 64
284 191 234 119 96 69
446 711 264 147 7 45
430 576 303 174 13 55
325 701 214 83 29 34
285 181 244 116 96 76
380 582 187 189 7 40
376 301 254 87 73 57
390 466 130 86 29 37
372 388 244 83 71 59
286 181 249 115 95 76
287 183 252 114 96 78
515 815 274 91 75 62
399 272 217 137 102 64
284 186 244 117 96 74
431 371 274 122 95 64
296 230 226 141 103 65
485 742 233 122 81 54
330 412 225 93 79 65
405 511 293 88 27 37
284 191 244 118 96 73
285 191 249 116 96 74
398 340 286 133 95 73
323 172 238 106 84 59
298 593 222 170 7 43
319 706 304 131 13 42
311 403 226 94 81 68
310 256 234 139 97 64
233 523 329 214 149 127
287 187 253 113 95 76
351 451 171 142 0 33
320 366 249 100 84 66
495 801 248 73 61 50
257 523 296 66 26 27
440 412 214 110 90 72
336 429 222 55 35 32
414 166 220 111 92 71
298 131 207 134 105 71
305 131 203 138 106 69
454 415 179 125 28 33
263 480 267 59 29 35
400 336 287 133 95 72
301 136 206 135 106 72
321 246 238 123 91 54
331 310 272 105 83 54
494 438 278 66 51 41
393 964 264 74 70 71
250 536 334 182 122 102
315 211 269 112 92 70
307 805 221 77 60 54
335 586 198 116 27 39
394 126 212 140 97 61
300 141 208 135 108 77
354 446 169 140 0 33
267 441 284 92 23 37
305 141 205 137 106 70
300 151 245 109 89 68
368 476 147 50 38 35
296 131 210 133 105 72
382 176 229 115 92 64
293 131 214 127 102 74
471 766 163 69 54 43
296 136 210 132 103 71
420 376 218 91 81 70
294 136 213 130 104 74
342 876 241 136 107 76
390 33 191 118 45 29
448 799 166 84 61 54
292 131 224 112 93 73
257 499 301 82 35 37
389 412 302 82 40 34
292 136 219 119 97 73
291 136 224 113 93 72
359 496 159 108 20 37
323 699 306 35 27 31
292 131 219 117 96 73
292 136 216 126 101 73
453 839 216 81 66 57
398 296 222 106 86 65
296 141 211 132 106 75
369 451 149 65 33 34
389 33 192 118 45 29
292 141 216 128 102 72
282 368 271 126 99 67
365 846 279 151 121 95
294 141 214 130 104 74
291 141 219 124 100 74
535 467 256 111 88 60
311 131 235 106 84 58
385 12 279 171 110 121
529 791 237 107 88 69
300 146 209 135 106 73
477 426 187 106 26 31
325 950 230 77 71 72
303 146 207 138 108 71
482 438 192 113 32 47
295 146 214 129 103 73
295 151 214 131 104 73
444 656 233 74 58 42
295 156 215 132 105 75
293 153 217 127 101 71
400 745 302 182 26 62
285 671 265 105 77 43
293 161 217 129 103 73
467 748 149 80 62 49
297 146 211 131 104 73
442 868 272 33 30 30
299 155 246 107 88 67
315 581 204 185 9 44
282 241 241 135 104 69
428 246 224 124 97 66
297 150 211 134 106 73
300 151 210 136 107 72
298 152 212 135 106 74
474 734 160 96 69 50
401 101 246 120 98 72
301 156 210 137 106 70
297 386 246 94 82 69
437 762 281 89 72 65
390 226 255 121 98 73
319 874 301 136 96 91
441 707 184 63 54 48
299 156 212 134 106 73
485 546 265 96 40 40
450 466 181 78 31 38
420 426 124 141 54 54
357 496 165 130 5 32
299 161 213 134 105 70
339 341 274 94 75 54
335 856 264 83 66 46
305 156 209 142 107 69
305 161 209 142 107 70
270 655 307 190 139 112
409 51 234 119 34 46
451 838 213 75 60 56
505 756 230 94 70 52
390 414 159 92 73 57
428 306 254 127 98 64
320 151 224 106 84 58
460 731 159 84 60 47
310 131 200 149 111 73
301 619 297 115 39 53
425 501 288 56 25 30
310 136 203 145 109 71
425 391 284 132 98 66
360 979 278 57 53 52
411 364 217 89 79 70
335 961 234 77 72 76
310 141 204 145 108 71
402 903 217 68 60 59
277 441 220 63 31 36
488 462 201 82 24 32
482 726 229 126 84 54
310 457 206 68 35 31
305 491 328 158 14 49
500 511 274 115 80 73
327 201 234 111 88 60
318 136 209 125 92 60
414 900 225 85 72 68
411 190 256 119 96 71
461 690 214 94 77 59
504 441 225 76 31 36
313 680 291 122 22 45
315 141 205 152 108 76
317 141 208 144 100 68
511 811 274 89 72 60
460 566 224 142 9 39
247 551 314 180 127 104
300 241 229 143 101 66
318 131 214 104 80 51
272 446 244 69 28 37
305 391 321 141 105 79
475 880 299 70 54 49
365 691 203 86 23 29
376 18 286 172 115 106
319 136 214 106 81 52
294 171 218 128 102 72
318 131 219 104 80 54
315 206 223 130 99 60
475 706 249 175 121 91
310 395 233 96 83 70
393 672 302 108 12 35
417 301 276 135 97 67
318 131 224 108 80 56
390 331 225 96 81 64
310 361 323 149 106 79
319 136 219 105 81 54
319 136 224 108 83 55
400 391 208 94 81 67
316 550 186 134 19 39
258 636 306 173 126 100
310 146 205 146 109 72
409 461 139 168 5 42
310 152 207 143 105 66
456 677 225 92 75 56
316 146 208 142 102 67
402 937 243 79 68 66
463 626 256 174 122 103
313 150 206 146 107 71
346 855 231 171 117 88
421 482 291 162 16 50
366 30 268 139 102 89
255 566 325 176 123 102
315 151 209 139 101 67
510 435 234 110 19 30
402 730 307 56 24 33
381 341 230 94 77 59
256 517 300 51 30 28
403 895 206 72 65 64
310 161 209 144 108 71
318 146 210 133 96 63
315 441 212 77 29 29
282 316 284 135 102 73
319 151 214 125 94 58
440 866 249 66 58 53
459 561 214 137 14 39
320 146 224 106 82 55
395 421 304 120 18 40
429 371 226 92 81 71
316 872 260 135 109 83
315 156 210 140 103 68
379 206 239 117 94 69
340 405 309 66 52 38
340 721 205 130 10 31
400 146 212 127 98 62
288 239 281 112 92 73
314 160 211 140 105 69
454 834 210 76 60 55
392 356 282 127 92 71
325 911 315 147 120 99
316 161 213 134 100 63
497 477 238 105 25 37
319 177 247 108 87 63
442 451 172 51 39 43
330 850 289 97 78 58
390 711 199 114 17 28
319 161 215 129 96 59
227 519 344 207 142 122
349 573 187 185 6 39
301 706 290 76 52 45
292 131 229 111 92 73
283 591 243 110 31 43
456 861 249 72 59 57
402 402 287 110 82 61
427 438 152 145 22 43
390 893 192 83 72 68
291 136 229 111 92 73
293 130 231 111 92 72
356 747 311 42 30 32
435 414 184 110 68 58
251 561 323 171 120 98
295 131 234 109 91 72
292 132 232 112 93 74
405 846 178 78 62 55
416 446 134 167 3 41
292 136 233 112 93 74
315 276 300 110 89 65
315 186 219 136 101 62
330 226 249 105 82 55
273 476 228 101 31 40
415 796 273 75 58 53
294 136 235 110 92 73
303 671 257 95 23 36
283 349 296 132 102 70
257 495 284 73 28 37
414 911 244 73 63 60
315 386 239 97 83 69
291 216 225 137 106 69
291 141 234 110 92 73
351 692 206 120 12 29
300 242 287 113 92 71
330 231 249 106 83 54
410 421 300 120 21 40
495 822 249 91 75 64
296 136 238 106 88 69
501 561 249 155 112 76
436 386 239 102 84 64
295 141 239 107 89 70
443 411 234 89 75 61
272 466 234 79 30 38
292 142 237 108 90 72
298 130 236 107 88 69
335 366 259 111 90 65
419 536 176 46 35 39
300 131 238 107 88 68
485 636 234 123 93 58
262 751 255 155 107 79
410 936 259 56 52 51
388 211 251 114 93 69
428 316 258 125 96 63
471 751 158 80 69 62
430 351 264 120 95 65
505 816 259 70 59 46
387 841 191 60 52 53
305 136 240 110 89 66
439 794 161 89 65 52
385 419 134 109 66 40
393 960 255 79 73 73
295 186 218 134 103 67
306 140 241 111 90 66
375 406 269 60 50 38
510 486 240 134 11 33
434 765 283 89 70 63
292 146 238 110 92 73
289 151 234 111 92 73
268 744 247 127 97 65
295 486 198 99 27 30
495 738 223 90 68 48
405 361 218 90 80 69
416 783 281 84 65 57
288 159 236 113 93 73
397 196 257 118 96 71
421 547 297 83 19 33
288 161 240 112 93 73
425 461 304 76 27 34
447 727 166 64 49 42
396 286 221 119 92 62
388 161 246 110 89 67
482 755 209 118 87 61
315 251 235 134 94 59
448 614 236 88 27 35
294 150 241 107 90 73
498 798 247 76 63 50
326 272 253 129 93 66
388 141 245 111 90 67
295 151 243 106 88 70
435 371 244 106 86 64
296 147 242 107 89 70
375 351 254 89 75 59
292 153 242 107 90 73
432 414 182 109 72 59
294 160 246 107 89 72
391 166 215 130 96 55
386 191 247 112 90 67
445 536 303 152 20 50
295 161 248 106 88 70
392 375 282 128 94 74
408 47 230 121 34 42
302 153 247 109 89 67
388 170 246 111 90 67
366 402 229 78 68 58
465 721 189 70 52 39
305 156 248 108 88 67
284 346 304 131 99 70
286 206 263 110 92 72
345 691 208 117 17 30
409 550 176 80 34 38
300 161 249 108 89 68
329 266 259 108 83 53
456 882 269 81 64 56
441 626 234 62 33 36
278 553 244 51 31 34
310 136 238 107 85 61
316 136 229 107 82 53
295 656 268 102 69 50
317 130 226 110 81 56
318 133 227 108 80 54
262 423 320 65 39 24
430 731 303 188 11 61
380 191 229 128 101 69
395 111 199 145 107 106
430 366 229 92 80 68
356 923 327 40 38 37
483 726 211 91 70 48
313 142 237 106 84 58
318 143 232 105 82 53
280 422 343 87 28 34
432 838 188 79 62 54
446 622 265 192 14 61
419 216 215 120 96 68
381 246 248 116 93 68
308 142 242 113 90 66
351 896 209 54 50 51
392 236 257 121 98 73
333 388 246 95 79 62
328 266 279 116 91 61
301 946 269 82 76 75
389 171 218 129 95 53
365 948 222 86 80 82
319 146 229 106 83 55
431 371 229 95 81 67
282 452 211 43 36 40
279 256 264 123 96 66
428 301 254 125 95 61
439 511 185 148 1 34
326 306 268 106 83 54
320 151 229 106 82 54
378 291 244 98 80 60
316 146 234 105 82 56
426 395 222 101 87 72
430 417 149 122 81 66
319 151 233 105 82 56
390 416 149 91 75 57
284 206 234 124 99 71
362 24 268 129 16 45
262 516 291 56 29 37
315 156 239 107 85 60
455 476 285 166 8 52
320 156 234 104 82 56
318 157 237 106 84 60
405 376 286 140 101 74
395 465 131 114 27 40
495 835 250 99 76 59
427 887 228 69 57 56
431 710 301 83 18 34
321 161 234 105 82 56
452 766 265 165 121 94
408 40 248 123 23 46
310 151 243 108 87 64
290 476 334 172 15 55
406 497 162 159 0 33
312 150 241 106 85 60
310 156 244 106 86 63
375 414 164 92 71 53
260 571 325 177 122 102
254 556 302 125 94 65
385 756 193 121 18 29
359 702 312 157 14 48
308 158 247 108 88 66
418 362 282 129 95 65
311 161 245 107 87 64
340 980 264 69 65 66
271 456 249 93 22 36
415 231 211 128 99 61
292 383 251 100 84 67
314 161 243 107 86 62
291 166 220 125 100 71
279 481 337 172 9 54
293 166 217 128 102 73
288 336 311 128 98 70
296 166 215 131 103 71
480 417 194 90 26 30
291 236 283 111 92 72
443 707 274 140 10 44
289 171 223 123 98 69
428 246 244 118 93 62
385 540 166 65 38 42
494 601 254 177 121 90
370 407 204 85 72 61
283 288 262 155 106 80
291 171 220 124 99 71
388 443 312 37 28 32
479 883 308 101 82 64
296 171 215 132 104 71
294 176 218 131 103 70
268 806 258 180 123 93
415 413 174 96 80 61
305 166 210 141 107 68
282 352 297 131 100 68
400 601 197 73 30 40
300 171 213 137 105 67
326 615 308 73 29 35
272 461 235 77 32 36
381 206 244 114 92 69
461 802 256 162 120 91
300 176 213 138 106 67
287 615 270 132 16 42
302 171 211 139 106 65
366 466 149 62 36 36
390 882 177 97 80 70
430 446 300 127 11 38
305 171 211 140 106 66
422 301 227 108 87 65
419 413 292 105 79 57
407 111 239 115 93 70
313 204 221 131 99 59
485 841 285 69 54 42
424 256 258 127 99 66
305 176 212 140 106 65
292 186 221 131 102 68
325 186 244 106 83 57
540 491 250 170 121 100
400 901 319 38 35 34
295 191 219 136 105 69
515 441 239 113 23 38
268 476 244 134 3 36
389 176 218 131 97 55
414 834 252 54 41 39
305 181 213 141 106 65
442 676 256 72 29 34
426 221 229 120 98 74
420 821 167 60 49 44
311 646 288 142 20 47
298 183 217 136 104 66
421 191 229 122 99 75
437 602 212 61 33 37
300 191 216 140 107 67
245 521 349 200 139 120
320 366 320 144 101 75
396 836 260 143 112 94
405 256 267 128 101 72
305 186 214 140 105 64
298 184 217 137 104 66
384 186 245 111 90 67
297 189 216 139 107 69
326 301 268 108 84 54
384 151 229 110 87 60
495 486 242 72 21 33
428 241 225 122 97 66
428 304 236 111 88 61
435 506 179 147 4 36
310 166 210 142 107 68
309 170 211 140 105 67
311 172 212 140 105 67
407 97 214 116 67 60
315 166 213 135 101 63
403 110 204 133 28 40
490 831 279 63 52 40
475 596 260 157 110 88
459 561 287 97 26 41
275 556 319 90 42 44
329 216 244 105 83 58
425 901 264 71 61 60
450 857 294 45 39 34
277 401 279 127 99 69
301 681 290 134 93 82
318 166 216 128 95 58
337 321 284 113 84 61
328 211 235 117 90 57
395 191 213 129 98 57
494 447 287 65 27 30
441 450 301 111 21 40
439 541 195 46 36 40
390 966 269 68 65 65
418 377 216 91 80 70
315 171 214 136 101 64
305 446 335 41 27 29
390 966 264 75 70 71
486 656 244 193 137 106
317 172 217 132 100 61
442 748 156 58 48 43
299 376 248 98 83 69
318 170 216 130 98 60
410 226 263 125 100 71
320 171 219 126 95 57
467 577 274 164 30 56
300 211 221 140 106 66
319 176 220 129 97 58
448 509 291 34 30 28
428 306 239 116 92 65
281 412 221 112 18 29
310 181 214 139 104 64
370 901 192 79 67 67
384 894 191 85 74 72
309 190 216 140 104 66
474 502 297 86 21 34
311 191 218 139 103 64
348 408 317 53 48 31
319 181 220 130 99 59
417 170 245 116 94 70
313 184 216 139 104 65
340 777 296 82 65 59
428 651 226 98 26 34
340 416 224 88 74 58
285 801 234 168 113 79
334 301 284 111 88 62
320 186 223 126 96 58
503 784 231 84 63 52
442 699 261 151 6 46
317 192 222 129 96 58
382 912 198 73 67 67
300 290 250 155 103 75
380 461 135 64 33 37
364 964 303 60 57 58
304 838 249 70 61 61
383 201 246 115 93 70
320 191 224 124 94 57
485 429 234 58 26 22
429 796 163 69 53 46
295 166 250 106 89 71
437 381 254 107 86 64
380 191 234 117 93 67
338 331 275 96 77 56
291 177 253 106 89 72
383 166 229 111 88 60
354 603 202 128 42 54
295 171 253 106 89 71
489 495 235 111 17 35
455 446 179 92 33 35
292 173 252 106 89 72
300 167 252 108 89 69
395 114 205 137 88 67
412 926 254 58 52 51
306 165 251 108 89 68
340 361 269 93 75 55
304 167 252 108 88 68
396 565 301 42 28 31
382 186 225 130 100 63
350 661 307 176 8 56
296 168 252 107 89 71
331 461 184 84 25 27
480 507 280 76 17 31
300 171 254 108 89 70
382 902 302 69 52 46
299 175 256 106 88 68
321 472 326 108 31 44
481 886 281 86 70 59
282 270 251 151 105 77
288 180 250 112 93 74
370 751 197 130 6 32
495 836 283 62 48 39
405 106 214 117 50 50
289 186 255 110 92 74
288 190 256 111 93 75
440 406 269 118 93 65
420 418 144 117 75 61
320 166 239 106 84 58
306 175 256 107 89 69
296 263 297 109 89 67
431 878 274 32 31 32
311 170 250 106 87 66
310 176 254 108 88 67
272 511 230 113 27 39
409 745 192 58 37 36
328 201 239 108 87 61
435 895 264 78 63 57
312 164 246 108 88 65
429 879 261 51 44 38
423 682 288 140 4 44
335 511 179 137 3 30
230 516 319 193 142 123
330 691 214 65 32 36
405 191 212 129 99 60
318 167 242 107 86 62
418 331 277 126 90 60
470 469 288 111 15 40
386 94 252 113 78 62
314 171 248 106 86 64
299 646 264 121 30 42
317 170 246 108 87 65
339 361 264 128 98 74
267 786 250 174 116 86
490 491 214 160 15 44
295 605 302 40 32 33
321 176 245 107 86 61
458 429 241 73 56 46
392 455 126 162 0 36
351 456 171 142 0 32
314 177 252 108 88 66
311 180 255 108 88 67
465 476 283 160 9 51
354 420 179 62 36 33
335 656 218 131 4 31
400 191 212 130 99 60
329 226 259 113 89 61
315 181 253 109 89 68
325 771 300 78 65 58
439 520 295 37 26 28
385 13 264 137 100 104
265 436 294 97 24 36
324 371 318 145 101 78
425 531 179 49 36 41
320 181 249 109 88 64
283 336 294 133 103 72
260 431 314 48 34 36
294 431 337 76 20 30
318 182 252 109 89 69
431 331 244 121 96 67
355 591 314 157 17 51
316 186 255 110 90 68
408 833 172 65 54 48
283 596 269 134 16 42
321 186 250 109 87 63
411 156 219 107 89 70
380 446 314 126 14 40
482 767 187 105 78 63
317 190 256 109 89 68
316 291 309 112 89 62
374 655 307 46 25 30
320 191 254 110 89 67
445 721 284 68 30 39
287 196 226 127 101 70
400 15 254 102 67 59
425 418 144 117 78 63
404 920 314 74 61 55
394 56 190 104 40 21
375 501 147 160 14 40
280 381 294 134 103 72
291 611 300 96 62 56
285 196 229 125 99 69
329 752 311 52 27 33
512 463 239 164 11 41
394 246 260 119 96 71
345 531 176 146 5 32
380 251 244 114 89 63
292 604 236 163 15 52
446 566 207 160 7 37
287 200 226 128 100 68
284 196 239 118 95 69
487 492 203 52 30 37
370 756 197 128 13 33
357 408 230 82 69 56
435 791 160 74 56 48
284 196 234 120 97 69
345 771 202 73 58 50
284 201 234 122 98 70
395 56 254 126 97 75
310 357 251 100 83 65
286 206 229 129 101 70
350 701 205 86 24 32
419 331 225 97 83 69
352 481 171 138 8 35
283 201 244 118 95 70
283 201 249 116 94 70
316 227 227 129 97 58
316 751 211 129 11 33
426 226 244 116 93 67
285 196 254 114 93 71
360 587 192 113 33 45
315 686 295 51 28 31
283 206 244 117 94 68
249 520 303 51 36 35
408 76 214 110 75 64
283 206 249 117 94 69
334 956 232 78 73 75
282 236 240 130 102 68
283 206 254 115 93 69
326 631 221 164 0 37
375 12 279 151 74 82
240 527 339 206 145 122
325 421 220 65 34 33
384 965 283 62 59 60
282 208 252 115 93 68
298 419 337 163 23 56
386 95 195 151 13 45
286 211 230 129 101 69
438 740 292 43 30 33
302 656 259 60 30 33
422 391 222 100 86 71
333 376 308 127 94 70
290 646 269 111 76 47
283 211 239 118 95 69
495 437 259 63 33 29
337 630 216 64 36 43
365 751 305 85 67 59
283 216 239 120 96 69
283 221 237 125 99 69
282 217 240 118 94 68
324 221 231 122 92 56
279 241 254 120 95 66
416 221 260 121 96 68
260 496 348 101 23 39
282 221 239 123 98 69
328 684 217 96 18 26
430 837 184 80 63 55
390 30 269 141 38 60
283 210 243 116 93 66
300 571 209 90 26 38
423 197 234 115 94 72
282 216 249 116 93 67
435 576 294 179 5 55
282 216 254 115 93 68
282 221 244 117 94 68
381 336 230 95 78 60
465 461 183 104 23 36
375 533 162 165 7 38
437 386 259 107 86 63
385 146 239 108 86 62
425 291 229 113 88 59
289 751 238 100 78 51
330 591 203 179 9 42
383 277 232 123 96 64
281 221 249 115 92 66
324 397 235 97 82 66
281 221 254 115 92 67
346 431 184 37 31 34
282 397 260 106 86 65
456 816 189 80 62 55
422 364 222 92 82 73
282 212 257 116 94 70
283 226 237 128 100 67
262 443 351 110 22 37
273 576 282 53 33 36
409 510 166 110 26 38
350 611 316 66 32 37
437 707 174 74 61 48
285 231 234 133 101 66
292 417 317 94 71 55
283 232 237 130 100 66
421 872 199 67 57 57
282 231 240 128 100 67
286 241 235 140 104 67
280 231 254 117 94 68
420 412 179 97 80 62
280 236 249 120 96 67
437 713 193 63 55 50
323 172 225 115 90 60
260 576 324 177 122 100
328 265 251 126 91 61
415 436 300 67 28 32
279 241 249 124 98 69
385 816 189 57 49 48
348 402 250 87 74 59
406 106 239 114 93 69
294 562 315 164 16 52
281 226 249 116 93 67
395 221 259 119 96 71
281 606 310 163 119 97
281 231 244 122 97 69
415 871 189 76 64 60
408 26 258 110 32 42
280 231 249 118 95 68
285 251 240 144 104 71
405 676 298 127 14 42
327 544 181 51 34 37
279 246 249 128 100 68
493 484 210 155 16 38
345 456 174 141 1 32
402 112 217 100 76 52
280 256 249 138 103 69
387 14 248 93 79 68
429 783 157 73 57 48
281 246 244 137 104 69
282 246 241 139 103 69
419 451 149 161 0 36
275 423 344 62 27 28
305 646 249 140 8 37
299 921 274 175 141 120
391 250 216 133 101 63
509 436 229 149 15 40
330 331 309 125 92 63
296 206 220 139 106 68
393 55 257 122 86 69
427 315 261 126 97 62
294 207 222 138 106 69
300 201 218 140 106 67
350 940 216 85 78 79
283 617 277 86 56 41
305 201 218 138 103 65
295 216 223 140 106 68
340 411 234 90 75 59
298 212 222 141 108 68
460 415 199 68 25 28
434 899 274 75 60 55
379 645 307 118 28 49
297 214 221 142 107 68
300 216 221 140 106 67
386 126 220 122 91 60
433 445 161 93 31 43
304 215 221 137 104 65
300 218 222 140 105 66
440 611 284 68 30 35
383 438 312 139 13 38
404 51 244 131 30 50
265 771 279 167 117 88
310 196 218 138 103 63
310 201 220 135 102 62
382 271 231 127 98 64
548 482 277 127 100 79
310 206 221 134 100 62
330 286 279 107 85 60
398 140 211 129 98 61
476 507 289 89 20 34
312 207 222 132 98 59
394 94 191 128 42 34
386 51 194 113 61 41
394 151 250 114 92 67
446 416 169 160 17 35
319 201 225 125 95 58
539 786 231 102 85 70
309 210 221 133 100 63
340 506 178 128 12 31
310 216 222 132 99 61
403 126 216 115 94 69
439 841 238 38 32 30
310 221 223 133 99 62
329 690 305 37 29 31
315 216 224 129 98 60
459 790 169 85 65 55
288 203 227 129 102 70
436 557 198 159 4 37
425 456 305 157 18 49
288 206 227 130 102 69
319 211 226 126 95 58
318 216 226 126 95 59
375 906 189 91 76 74
321 216 228 125 94 58
308 298 322 108 87 63
406 374 287 140 100 72
276 767 236 126 94 58
318 220 226 127 96 60
241 530 329 204 139 117
310 226 224 133 98 61
250 571 314 170 120 96
457 703 257 138 90 70
290 226 229 136 102 64
338 397 246 92 76 58
293 227 227 139 103 66
294 621 254 45 32 37
512 793 241 93 74 58
329 731 316 162 17 53
426 681 218 64 35 35
336 426 222 60 34 35
288 231 232 136 102 65
291 236 230 140 102 66
360 855 226 148 104 80
329 251 259 107 83 53
295 236 228 144 104 66
339 351 294 119 88 63
350 600 201 169 19 41
437 714 296 143 25 52
472 767 169 62 48 41
409 76 200 137 29 47
331 651 220 134 3 31
294 421 337 153 19 49
311 651 288 70 27 36
423 352 226 93 83 74
289 236 232 138 102 65
298 233 227 142 102 64
301 235 226 142 103 65
326 949 322 61 57 55
447 607 280 77 27 37
306 237 227 138 100 64
357 501 164 116 14 34
290 246 234 144 103 69
381 236 224 127 97 61
286 336 270 120 95 65
315 201 264 110 90 69
355 777 295 81 63 56
294 243 232 144 102 67
495 511 246 120 55 48
428 331 262 128 99 63
295 246 233 145 103 68
289 252 238 147 105 70
303 896 268 186 135 116
409 36 244 115 40 44
361 441 160 131 12 38
505 816 244 101 79 65
290 256 238 149 104 71
375 621 308 141 25 50
305 481 196 72 32 32
295 251 234 147 103 70
331 376 252 97 81 64
315 481 194 42 34 35
395 65 187 100 44 29
397 187 257 118 96 71
375 491 305 168 7 53
295 256 235 149 103 70
390 636 304 54 28 32
297 244 231 146 103 66
286 536 209 129 19 41
360 531 308 143 18 47
301 245 231 144 102 67
305 249 231 140 98 65
331 560 186 81 31 40
484 651 235 119 91 59
318 306 318 124 90 62
424 316 230 98 81 63
300 251 233 147 102 69
300 256 234 149 102 69
340 656 215 129 4 30
325 236 239 121 90 54
416 176 219 112 93 71
435 876 264 38 34 33
305 256 233 144 100 66
277 401 284 130 101 70
501 493 285 119 35 46
311 232 227 134 97 62
383 279 232 123 96 64
508 458 226 86 22 25
378 842 277 163 126 99
314 226 226 131 98 61
308 881 294 160 119 102
410 176 254 117 94 68
313 229 226 133 99 62
315 231 228 131 97 59
459 585 230 106 17 33
320 226 229 125 94 56
407 37 251 129 21 46
275 586 315 163 113 92
322 171 224 118 92 58
305 941 299 175 128 106
445 794 161 87 61 46
499 571 254 173 116 86
319 231 230 126 93 56
436 381 244 104 85 65
408 53 220 75 28 28
314 241 230 133 97 60
424 441 150 125 16 38
432 581 202 155 4 36
368 450 152 111 24 39
323 212 262 112 90 64
318 236 231 128 93 55
342 467 321 178 11 56
310 246 231 134 96 61
420 506 169 73 27 38
350 801 204 78 62 54
311 248 232 136 97 61
482 773 192 85 60 45
310 251 233 138 97 63
416 181 219 112 92 70
423 296 267 127 94 61
450 807 165 145 120 104
294 626 264 60 34 39
313 244 231 133 97 59
480 840 284 62 50 39
389 161 218 128 95 54
300 811 289 187 142 112
332 462 180 90 25 29
316 242 232 131 95 57
340 806 284 75 60 54
390 236 215 132 100 60
407 25 243 95 57 51
337 447 189 84 25 27
408 844 247 114 84 69
318 250 236 129 93 56
336 432 215 75 31 29
317 252 237 131 93 58
370 401 259 70 59 47
320 151 219 108 85 58
473 571 263 91 27 37
357 441 165 132 6 34
465 481 282 153 8 46
336 574 191 185 6 36
321 161 219 120 92 58
395 626 303 46 30 33
322 161 229 106 83 57
322 176 224 122 94 58
283 250 281 118 95 69
322 170 229 107 85 60
269 756 243 136 101 67
353 759 307 85 68 61
323 172 229 107 85 61
323 174 226 117 92 61
435 817 256 53 46 41
273 666 272 136 98 67
427 230 228 119 96 71
323 172 234 105 83 57
283 322 296 136 104 74
315 351 255 104 85 62
371 963 301 56 49 47
281 296 279 130 100 69
361 535 166 82 29 36
487 774 214 135 94 67
323 176 234 106 84 58
415 472 300 97 30 40
323 176 239 106 84 57
410 191 212 127 98 62
333 909 227 157 109 85
375 761 196 105 40 41
317 844 245 69 56 58
413 176 215 116 95 71
322 174 241 106 84 58
322 177 227 116 91 61
323 181 226 122 92 57
324 181 229 114 89 60
293 394 247 92 81 69
408 56 224 121 27 40
298 675 268 69 46 37
325 181 239 107 84 58
440 413 204 107 88 70
386 23 281 150 113 95
323 186 226 123 93 56
317 969 288 65 57 56
370 651 308 104 29 43
323 474 197 56 33 30
416 161 234 116 96 74
323 191 226 118 92 58
324 191 229 115 89 58
325 186 234 108 87 62
360 726 200 120 12 32
462 728 162 97 68 44
325 186 239 106 84 58
353 858 292 124 99 72
410 446 123 73 35 40
326 191 234 109 87 63
410 413 169 94 77 60
500 541 267 187 131 103
326 191 239 107 86 61
448 736 274 166 10 50
471 526 234 92 29 40
325 601 210 179 4 41
324 181 244 108 86 60
435 435 296 122 13 39
448 850 225 87 75 75
323 183 247 109 87 62
401 66 244 112 85 69
391 156 248 110 89 66
338 341 279 103 80 55
346 441 175 109 16 29
428 256 253 126 98 63
324 186 248 108 86 61
336 401 305 118 89 69
326 191 244 108 86 59
327 286 272 108 84 57
325 191 249 109 87 61
432 441 158 48 37 42
388 846 267 141 114 93
322 190 251 109 88 65
383 381 276 110 82 64
323 192 252 109 88 65
389 605 307 143 27 50
383 499 302 165 7 51
398 104 196 129 41 34
490 431 199 60 39 40
495 501 279 134 16 47
384 156 229 109 87 60
343 506 177 92 21 29
272 426 254 140 2 37
305 431 334 139 12 43
384 161 224 120 91 56
446 646 234 89 67 45
383 161 229 111 88 60
395 316 283 122 91 65
410 311 283 116 87 60
383 161 234 109 87 63
286 616 305 160 118 99
339 455 178 114 13 28
384 186 223 129 98 58
445 866 249 80 70 67
445 717 167 68 51 39
383 191 223 126 97 60
266 461 264 126 4 34
384 171 224 123 93 56
300 516 190 144 12 38
302 956 293 61 58 60
383 171 229 111 88 60
395 21 239 104 88 73
373 426 143 115 20 33
284 424 328 60 37 30
395 396 204 93 80 66
274 416 234 126 8 34
382 172 231 108 86 61
386 585 306 158 13 48
400 444 121 66 39 39
308 889 262 143 113 86
275 741 244 121 93 60
263 672 289 176 122 97
382 176 226 122 95 62
483 451 195 139 11 36
383 170 235 107 86 62
430 506 175 85 25 37
382 176 234 108 87 63
326 466 199 65 31 28
306 382 241 93 81 69
382 172 238 106 85 61
440 816 159 136 104 89
443 595 216 147 12 44
382 176 238 106 85 61
383 176 240 108 87 63
330 576 325 115 23 42
455 486 283 152 10 46
381 181 229 119 94 65
430 831 249 53 43 41
403 104 201 133 34 44
400 166 254 119 97 72
441 419 280 82 68 51
381 181 234 109 88 64
380 491 303 167 12 51
364 426 158 59 37 38
433 704 212 64 45 39
381 186 234 112 90 65
399 86 190 150 24 45
383 180 241 109 88 65
434 391 230 117 96 74
424 336 230 96 84 71
480 812 224 127 85 67
477 522 219 139 19 43
385 176 244 109 89 67
456 807 256 165 122 95
444 770 151 69 55 46
384 181 244 111 90 67
285 356 269 121 96 67
397 947 285 51 45 43
321 616 303 56 28 32
406 101 209 121 35 43
455 746 259 113 63 55
489 611 235 125 96 60
382 186 242 111 89 67
382 191 242 112 91 67
410 417 149 105 75 61
405 146 214 119 96 67
272 447 236 53 32 36
456 432 177 141 12 33
320 206 263 111 91 68
384 191 245 112 91 68
282 266 284 123 96 66
298 414 320 98 75 57
344 850 269 67 52 36
401 42 255 135 84 76
451 492 187 152 1 35
405 921 304 74 59 51
324 201 230 116 90 57
375 892 189 78 68 65
399 216 261 121 98 73
326 196 234 110 88 62
356 565 181 110 16 35
327 196 239 107 86 62
448 584 216 161 5 38
382 285 231 118 93 65
253 603 297 155 115 83
510 816 269 93 79 67
447 858 262 36 32 30
330 850 284 95 76 56
308 879 280 134 107 81
431 532 297 54 25 26
285 741 295 183 130 105
375 12 259 116 72 67
460 426 178 82 35 38
330 405 315 105 81 62
270 626 277 131 98 61
327 199 239 107 86 62
282 778 231 142 100 63
395 291 223 110 86 60
269 441 274 105 16 34
355 955 319 71 64 61
328 202 236 111 89 61
391 181 216 132 98 55
490 831 245 91 72 60
490 796 224 98 70 55
328 206 239 111 88 61
295 736 234 53 33 38
370 471 144 123 19 35
306 264 296 116 95 72
310 221 275 113 93 71
400 216 210 125 97 61
327 196 244 109 86 59
360 415 184 67 36 38
326 196 249 111 88 61
266 603 281 122 89 56
483 495 201 94 26 40
252 596 295 152 111 78
360 791 288 76 60 53
335 502 177 67 28 33
327 201 250 111 87 60
355 567 182 175 7 40
390 893 298 36 33 32
324 196 253 109 88 63
389 381 280 125 91 75
327 204 251 113 90 64
326 206 255 112 89 64
328 202 248 110 86 59
475 430 279 64 55 46
272 536 245 50 26 34
345 975 249 86 83 84
328 207 253 111 88 62
324 211 230 119 91 55
324 216 230 121 91 56
440 891 254 83 68 64
345 766 303 90 72 64
326 216 233 118 90 55
340 426 219 64 39 35
422 216 218 114 93 69
326 221 233 117 90 56
494 511 271 80 35 36
328 211 239 112 88 59
424 879 310 40 37 36
414 571 301 65 28 34
328 221 236 118 90 55
373 431 143 137 3 34
413 147 243 113 91 67
303 385 242 95 83 70
428 281 254 126 97 61
404 656 210 94 26 29
461 576 234 101 18 30
395 356 220 90 80 69
329 221 239 115 89 56
329 211 244 106 84 58
390 966 259 81 75 78
395 28 274 152 22 59
290 461 340 142 18 45
320 896 309 180 132 115
414 226 262 123 97 67
320 646 228 149 0 36
355 796 209 78 61 53
328 211 249 108 85 58
425 417 154 116 89 70
328 211 254 111 88 61
316 605 216 179 6 41
425 422 134 111 75 54
407 121 222 108 89 68
265 521 279 139 17 42
329 216 254 111 88 61
323 224 231 122 92 57
372 388 249 84 70 56
424 830 162 111 85 66
372 34 267 137 113 94
502 799 237 94 69 48
349 501 312 60 25 32
415 551 179 81 31 39
322 227 233 122 92 55
375 676 306 176 7 56
385 61 259 127 30 50
315 636 294 144 23 50
324 230 236 120 91 56
515 806 244 105 79 60
465 876 274 78 62 54
326 231 238 120 91 55
375 553 172 155 18 43
397 843 256 144 112 93
322 236 237 121 90 55
388 151 246 108 88 66
475 441 290 69 25 31
322 242 238 122 91 54
398 86 247 112 94 74
375 356 254 88 72 56
254 576 320 177 125 101
328 224 236 118 89 58
421 414 172 108 89 68
389 484 141 85 33 36
402 278 272 115 92 68
412 165 217 109 90 70
475 526 214 169 13 44
329 226 239 115 87 55
310 611 223 113 18 38
335 501 317 59 28 34
400 383 211 92 80 69
327 238 242 121 91 55
408 44 242 130 100 82
330 226 254 109 84 55
376 751 196 127 10 31
329 236 249 108 84 55
405 246 266 127 102 73
328 241 245 119 89 57
330 236 254 108 83 53
340 861 244 166 114 82
330 241 254 106 82 53
480 731 199 76 61 46
323 250 240 122 90 57
395 757 296 81 64 56
385 576 305 153 4 48
404 29 263 138 93 84
425 571 194 160 3 37
325 251 243 123 91 59
328 246 245 122 90 58
315 811 285 58 48 46
329 246 254 105 81 53
355 408 279 64 53 40
262 554 283 177 0 53
329 256 249 122 90 58
318 356 322 143 98 76
405 356 220 91 81 71
470 451 296 37 30 31
395 26 234 109 90 70
326 853 275 107 85 66
329 251 254 107 83 55
458 824 201 87 67 60
417 166 234 115 95 72
401 468 306 146 39 58
329 256 254 109 84 56
404 56 204 87 57 36
281 586 244 170 12 47
405 151 214 121 96 65
383 201 222 120 94 62
381 201 225 126 99 65
435 576 204 157 4 36
380 206 224 122 96 64
270 531 254 159 6 43
407 116 223 108 89 68
486 437 198 138 23 43
383 205 222 121 95 65
380 211 224 121 94 61
385 211 219 125 96 60
287 202 262 111 92 73
384 216 218 126 96 59
437 427 157 99 27 39
411 641 212 74 33 35
333 455 189 81 26 28
277 446 220 73 32 38
393 255 261 117 94 70
380 216 224 122 95 61
415 356 220 91 81 71
294 491 197 70 32 33
501 502 276 115 25 45
382 216 221 123 95 60
399 916 224 74 65 66
395 521 165 90 26 37
290 406 219 144 6 27
340 946 223 84 77 79
382 221 221 124 95 61
305 185 261 106 87 67
379 196 229 132 104 72
494 486 240 69 26 33
379 201 229 131 103 71
367 473 146 55 34 36
321 912 313 134 108 87
381 196 225 131 101 66
440 482 286 159 15 50
428 331 236 102 85 68
380 196 234 119 95 68
489 464 292 163 20 51
335 486 175 62 31 36
379 206 234 122 97 70
462 736 256 156 108 83
311 541 330 54 28 32
382 196 243 114 93 70
384 196 245 114 93 70
455 427 259 69 59 49
273 421 255 130 9 37
385 206 249 114 92 69
350 651 213 127 5 30
378 211 234 124 98 70
305 421 334 152 18 48
268 808 276 188 131 105
340 606 318 181 18 59
460 661 225 93 75 55
390 216 214 131 99 59
378 216 234 123 98 69
495 537 241 137 107 74
348 430 178 54 36 30
379 221 229 120 94 62
410 470 303 93 31 42
439 423 292 148 15 50
360 721 312 162 4 51
289 391 253 98 83 67
375 331 259 108 89 69
485 793 242 51 38 28
424 551 185 73 35 40
328 931 217 66 59 59
333 710 316 42 27 30
427 637 222 84 41 42
431 381 228 94 80 65
402 69 241 105 65 55
475 471 284 131 12 40
379 221 234 122 96 67
379 221 239 121 96 69
504 776 229 91 68 54
325 481 179 63 32 32
385 211 249 114 92 69
273 431 249 137 1 37
224 517 334 210 143 125
382 216 247 115 92 68
394 646 302 47 31 35
380 221 244 116 92 67
422 310 266 126 93 58
382 221 247 114 92 67
393 47 194 115 48 26
310 396 321 141 103 77
401 87 192 154 23 48
495 436 249 69 23 24
275 496 340 116 20 40
455 711 196 65 52 40
384 221 250 115 92 68
406 60 204 93 46 31
325 426 219 70 32 31
282 343 276 129 100 68
381 226 224 124 95 60
353 506 172 128 17 34
382 224 221 125 96 60
375 401 209 88 76 62
395 116 249 122 97 69
352 422 205 59 52 47
270 424 344 60 26 27
385 226 219 129 98 59
429 741 177 67 50 41
435 651 234 91 28 32
417 351 281 132 96 67
385 231 219 129 99 60
460 416 204 71 26 30
368 979 277 70 68 68
443 698 173 80 67 54
414 181 215 117 95 68
454 840 219 84 65 59
455 426 288 132 18 41
302 935 297 182 138 117
383 231 222 128 98 61
381 241 225 128 98 62
309 343 256 107 87 63
442 756 151 69 56 49
330 416 223 81 64 50
512 816 235 99 80 65
384 241 223 130 99 61
408 81 200 144 29 50
292 619 259 46 34 36
267 521 264 52 31 35
384 251 223 132 100 62
380 975 269 63 58 60
384 126 224 115 88 60
379 226 229 121 93 61
429 291 244 123 96 62
404 141 215 118 95 68
491 436 203 45 35 39
535 811 265 100 79 60
379 231 229 121 94 61
385 276 259 98 80 60
415 246 213 134 100 57
378 226 234 120 94 64
379 231 239 121 95 67
379 236 234 120 92 61
474 723 200 80 63 47
390 51 190 124 28 19
326 350 257 102 83 60
320 815 282 67 54 48
379 236 239 119 92 65
379 241 234 121 93 61
379 241 239 119 92 64
415 786 279 83 64 58
390 121 214 132 94 63
324 226 268 114 91 65
380 226 244 118 92 68
382 226 247 119 95 70
380 236 244 120 93 69
384 236 250 122 97 73
382 246 225 128 97 61
380 246 229 125 96 62
347 579 191 168 12 40
380 246 234 121 93 61
360 901 192 80 68 65
310 481 195 61 34 31
382 250 226 129 98 63
328 958 316 68 63 62
349 716 318 155 4 47
489 426 195 86 35 40
340 661 214 122 11 29
393 216 256 120 97 72
320 271 294 116 94 68
381 251 229 126 95 62
268 660 282 122 85 59
457 728 156 70 52 43
