ply
format ascii 1.0
comment Created by Open3D
element vertex 2225
property double x
property double y
property double z
property uchar red
property uchar green
property uchar blue
end_header
234 419 257 131 15 41
236 419 261 136 8 42
290 368 235 92 79 67
283 95 234 97 61 41
250 485 293 172 18 55
336 19 246 99 85 71
404 449 158 47 36 37
311 754 316 84 66 58
323 389 227 72 61 51
246 839 301 207 148 121
237 419 266 110 15 36
346 74 246 119 29 48
454 435 208 69 43 41
238 416 269 144 5 41
416 709 267 114 78 54
354 59 211 108 44 45
401 841 267 172 111 86
293 59 254 99 52 49
238 419 269 87 20 34
321 39 231 77 36 24
331 254 241 102 85 66
315 432 293 58 19 23
245 505 288 164 17 51
301 724 325 180 1 57
360 154 216 108 90 70
346 129 247 123 98 68
239 419 272 95 21 35
293 245 244 99 79 56
266 420 304 123 93 71
281 426 193 90 76 63
237 424 266 122 14 39
314 369 252 133 98 85
301 374 236 87 71 55
354 104 235 120 96 69
278 706 319 124 23 48
336 69 254 116 40 50
238 424 270 101 17 36
234 429 257 55 24 30
324 442 304 78 26 36
279 971 259 78 75 78
331 139 231 109 86 61
233 578 232 142 21 48
257 703 291 31 26 25
315 424 290 40 23 23
233 489 280 142 12 43
326 79 201 142 5 43
224 508 258 71 17 29
251 674 281 138 110 95
236 429 266 126 11 39
228 514 269 33 30 30
281 550 165 84 29 37
398 713 198 79 62 50
436 564 211 87 29 38
320 422 179 77 66 57
366 314 256 123 90 58
263 590 314 146 110 85
331 254 216 118 93 64
428 440 194 92 26 35
266 113 226 140 96 72
361 644 214 40 34 39
241 719 271 86 62 44
240 419 276 96 20 38
282 405 303 154 111 82
239 428 273 120 11 40
259 804 309 166 128 93
406 454 166 88 27 37
260 539 161 96 13 27
375 960 312 85 76 69
381 922 266 60 52 48
384 622 213 166 55 73
256 439 306 59 26 33
371 425 161 97 81 64
438 764 263 170 115 81
239 429 276 75 25 33
276 354 301 128 97 70
446 855 226 83 69 60
307 894 201 63 57 57
316 739 186 57 44 40
231 449 261 91 27 36
362 499 145 180 9 37
435 664 270 175 121 91
284 107 242 120 80 59
355 119 221 105 87 68
351 54 206 104 61 48
256 124 251 117 96 74
326 69 255 113 32 47
341 957 301 56 49 45
290 219 241 109 85 55
291 244 242 97 77 54
491 894 226 88 76 66
406 724 197 76 59 47
291 764 211 49 38 37
233 435 260 75 25 31
299 729 179 66 50 41
274 470 113 140 0 43
299 350 238 84 73 62
334 269 214 113 91 66
337 400 193 84 74 64
355 79 231 103 39 42
234 434 261 112 22 39
283 947 223 83 78 81
321 319 246 77 63 48
275 41 238 111 94 76
234 438 262 57 34 37
281 519 291 52 23 28
233 440 265 79 26 35
295 869 250 131 93 65
301 749 322 143 26 52
442 449 262 137 13 45
342 596 184 186 9 42
330 259 221 111 88 62
341 139 210 130 99 62
283 597 193 196 10 44
311 449 98 104 33 32
234 439 266 72 26 33
333 871 194 66 57 55
411 649 277 171 113 91
286 69 231 111 34 41
442 454 262 143 14 44
346 89 192 150 27 46
261 794 235 76 59 51
308 445 151 74 49 40
356 184 206 124 97 63
351 417 175 94 78 62
366 564 170 102 32 41
259 378 239 99 85 70
236 439 271 94 24 36
403 647 274 153 96 79
273 510 130 76 24 30
254 656 281 136 98 85
325 831 188 60 50 48
299 38 271 131 21 49
236 449 276 79 26 34
356 434 279 138 15 44
302 844 232 98 71 59
338 719 200 61 36 31
271 314 247 130 98 66
334 150 238 107 84 63
508 881 213 86 73 65
240 499 288 163 16 52
233 444 266 65 28 33
234 443 268 85 28 37
267 459 106 100 16 37
379 426 158 101 81 65
389 780 199 62 49 41
351 634 306 118 31 46
235 444 271 74 28 34
314 44 256 105 71 61
433 480 268 84 42 46
232 449 266 45 30 33
324 57 209 87 61 49
289 909 319 173 125 101
403 648 271 129 77 62
321 469 292 137 27 47
267 530 292 58 27 29
234 449 272 60 27 31
333 154 236 105 85 62
452 969 294 90 78 69
436 834 230 119 88 70
268 308 248 132 98 70
256 504 291 130 20 46
260 805 235 77 61 52
261 399 231 91 80 70
238 435 275 49 27 31
335 389 200 89 77 65
361 698 313 95 19 36
341 79 187 130 29 39
351 923 297 32 30 31
445 694 236 146 104 72
315 334 276 109 77 54
239 438 278 92 28 41
321 64 221 106 37 36
356 114 231 116 95 72
262 109 236 123 90 67
292 224 277 121 96 67
240 439 281 85 23 35
451 959 295 76 63 53
359 502 143 135 18 41
224 524 256 161 1 44
279 31 253 90 71 51
342 416 178 93 78 63
220 733 269 135 101 67
343 194 249 119 94 67
299 801 199 75 61 51
237 444 276 44 26 30
238 441 279 41 30 31
258 139 241 119 96 71
271 929 315 155 130 111
277 784 222 71 57 48
264 42 239 104 88 74
256 544 166 80 16 32
346 674 210 97 20 31
299 244 261 111 87 57
262 249 285 122 96 71
356 224 201 122 96 62
414 812 208 68 54 47
447 734 246 152 101 72
287 655 218 130 20 30
238 445 280 41 28 30
266 409 302 135 103 78
379 457 128 173 8 38
319 460 104 180 8 40
370 224 245 123 98 71
218 807 291 187 131 103
383 591 194 42 36 37
238 449 280 73 24 33
239 449 283 87 25 36
435 416 257 87 30 35
242 419 281 95 20 36
355 349 269 138 96 70
417 923 227 95 86 79
434 892 214 89 79 69
346 534 310 173 124 99
285 154 251 111 89 64
356 179 250 122 98 70
374 287 244 130 100 66
222 814 301 191 134 106
324 951 324 54 51 50
261 149 236 125 99 67
381 428 151 118 71 60
241 429 281 97 21 37
379 752 309 89 22 39
300 496 129 93 18 31
467 534 231 192 13 58
330 69 190 129 22 33
289 467 169 60 29 27
262 575 306 126 101 75
418 676 233 99 74 50
368 491 144 171 6 34
428 825 210 75 65 63
243 429 286 105 19 37
346 460 100 186 10 42
333 65 188 105 43 29
244 429 288 85 24 35
237 479 285 142 13 43
371 669 222 90 27 28
243 422 289 111 23 43
259 139 239 119 96 69
257 50 236 96 57 41
433 810 234 93 64 50
326 27 275 151 77 76
274 107 269 119 96 71
356 74 211 115 77 67
424 417 261 57 25 28
331 413 185 86 74 63
245 424 291 104 20 38
355 104 221 108 72 56
259 148 239 118 94 67
331 59 259 125 24 47
361 884 191 71 60 56
246 424 296 94 23 37
286 64 275 127 55 59
353 106 219 102 75 52
247 429 296 95 19 35
301 589 303 110 28 45
320 89 236 95 57 46
219 804 281 169 114 83
248 920 271 104 87 74
258 84 259 102 63 54
248 429 300 97 24 36
213 719 290 159 110 85
270 474 106 160 1 40
238 603 247 134 20 44
332 139 226 110 86 60
293 627 208 158 26 47
248 416 294 68 49 35
256 419 301 81 65 49
311 729 320 182 3 58
251 424 305 68 28 34
346 224 252 121 96 70
256 421 304 66 52 38
270 44 215 112 70 44
256 424 307 46 31 30
455 956 294 91 75 60
227 554 231 166 2 43
251 429 306 84 28 37
351 825 282 190 135 110
338 144 244 116 88 66
277 110 235 123 84 58
326 784 300 80 64 57
275 740 318 165 18 54
357 94 221 110 78 61
255 429 308 113 24 42
313 393 272 118 82 67
246 669 276 128 87 69
356 569 301 166 108 93
243 440 289 126 13 43
361 589 297 140 17 43
245 434 291 79 25 33
286 877 313 161 129 97
330 269 231 101 82 61
356 899 230 63 59 60
308 879 211 51 48 49
351 129 246 119 94 66
253 569 289 74 17 31
212 754 281 166 115 88
321 438 141 74 59 47
246 434 296 64 24 31
334 334 262 73 57 38
340 477 108 54 32 41
229 524 210 152 10 38
244 437 288 105 11 30
291 354 304 146 105 80
447 926 239 90 73 58
408 876 214 81 76 75
289 45 248 78 49 33
296 639 212 54 34 39
291 294 302 117 91 67
327 910 210 79 74 77
361 144 226 115 94 70
360 441 98 94 72 49
357 84 226 118 26 44
212 759 286 174 118 93
351 109 211 107 75 57
286 448 101 78 36 38
291 229 241 102 80 54
276 54 278 120 38 50
243 444 290 116 7 34
395 444 279 149 8 46
271 74 271 122 23 45
242 449 291 117 13 40
369 254 249 130 102 68
246 444 296 115 17 38
361 926 306 37 36 37
270 144 233 130 98 62
309 888 200 63 57 58
261 423 307 71 49 40
231 464 271 126 13 40
339 115 210 126 84 58
418 581 209 183 17 44
368 324 253 128 94 61
298 224 256 112 89 61
260 329 261 113 89 63
318 53 259 115 29 44
245 449 296 112 17 39
426 484 270 91 27 40
352 546 159 171 0 26
241 634 311 148 109 80
434 770 269 168 117 83
351 214 253 125 100 72
306 933 212 74 68 69
248 449 299 125 27 45
245 599 276 53 27 31
329 85 210 128 16 39
506 440 226 71 23 30
296 324 306 146 100 81
296 414 221 91 76 60
242 599 226 113 18 38
312 573 298 129 20 44
431 704 227 123 92 61
250 434 302 79 27 38
336 354 267 84 61 41
290 74 246 108 79 63
359 852 259 93 69 54
312 903 193 78 68 66
356 119 226 112 92 70
226 794 261 177 121 86
249 939 286 195 149 128
374 791 177 52 47 47
352 687 308 119 17 36
250 439 302 101 27 38
360 144 221 113 93 72
315 724 319 174 5 56
306 494 126 114 20 35
278 57 219 87 56 28
426 933 252 84 71 61
334 90 199 135 9 40
270 971 265 74 69 72
303 697 318 145 4 46
312 329 251 83 66 49
250 444 302 81 30 38
269 738 313 164 16 51
321 474 291 114 57 55
289 868 254 124 91 60
361 684 206 60 41 34
307 382 238 120 89 73
366 569 172 88 28 38
328 193 228 107 87 66
441 804 251 95 67 51
306 629 205 87 35 43
270 453 101 74 32 36
256 434 307 50 27 30
411 424 236 67 44 37
276 854 261 155 112 88
267 32 284 145 23 57
352 19 256 112 41 48
407 499 186 152 1 35
331 54 260 120 43 51
296 819 297 58 48 48
253 444 304 70 27 35
255 869 286 168 127 105
381 819 205 56 47 45
297 440 172 95 42 28
353 786 193 59 46 44
309 826 200 62 53 50
268 46 228 106 87 68
411 885 215 93 80 69
228 459 260 103 19 34
256 444 305 83 27 38
408 426 174 126 23 38
365 224 202 124 97 64
256 449 304 35 28 30
261 664 287 37 25 26
336 630 204 63 34 37
276 368 234 96 83 70
280 149 270 117 93 64
230 454 266 47 29 32
465 439 244 126 16 42
315 407 221 86 73 64
294 53 274 120 21 46
229 459 262 101 18 33
266 219 236 126 97 62
409 887 258 66 57 53
351 259 256 125 96 69
346 399 271 123 88 70
342 809 187 96 73 53
228 464 261 75 20 30
310 369 291 143 100 77
291 279 295 103 83 60
229 464 263 108 21 39
231 459 271 67 25 30
267 434 193 110 26 27
278 100 225 130 33 44
290 94 251 110 75 55
406 559 194 120 17 35
234 453 273 31 29 34
276 289 243 121 92 63
373 654 293 151 17 49
280 634 298 51 26 29
235 454 276 47 26 31
266 504 171 62 31 31
311 439 161 75 62 50
328 189 230 103 84 62
289 69 241 108 47 43
391 959 317 68 57 49
240 454 286 95 19 35
233 459 274 87 20 33
366 944 318 55 49 45
420 574 259 58 30 32
307 304 254 100 81 59
406 840 267 180 115 86
363 936 259 69 63 64
353 797 194 79 60 60
233 464 275 132 15 40
426 474 271 79 22 34
239 459 287 82 23 33
326 399 266 65 50 39
320 79 246 110 26 45
270 129 232 130 94 57
365 339 260 126 93 60
284 859 266 119 82 66
285 59 226 98 45 32
239 464 288 118 19 39
376 774 297 90 70 62
341 159 246 111 84 64
227 469 261 118 15 38
379 447 118 166 1 42
288 449 298 39 27 28
275 60 212 87 37 21
314 411 289 54 45 31
315 676 165 88 64 51
271 479 298 80 33 40
311 479 295 149 104 99
405 969 297 93 69 51
229 468 263 93 10 36
229 469 266 88 18 33
230 469 271 95 20 35
409 979 306 92 75 60
329 47 214 111 89 72
265 354 292 119 94 66
431 789 226 97 69 54
273 484 111 156 0 46
276 459 97 74 38 40
228 470 264 125 18 42
337 548 300 159 103 90
383 377 225 111 90 66
325 299 236 85 71 55
227 474 261 132 6 38
512 459 231 173 17 58
486 449 237 88 26 39
296 824 295 97 72 66
291 824 296 60 52 51
419 778 203 69 54 46
416 524 190 60 32 36
254 684 260 38 32 36
271 639 227 171 8 42
228 474 265 136 4 39
352 896 211 61 57 58
376 344 216 97 85 72
334 254 210 128 100 67
287 534 305 143 117 98
336 369 206 91 80 68
347 426 158 93 77 60
229 474 267 116 11 41
230 474 271 79 19 32
401 459 156 88 30 34
379 269 221 126 97 61
394 877 233 84 73 64
260 249 240 131 97 59
276 209 285 118 96 71
332 94 206 125 8 37
271 484 176 46 32 28
228 480 269 145 6 39
321 529 300 148 101 82
289 56 238 88 42 31
363 217 204 121 97 66
263 535 151 94 17 34
232 469 275 72 22 31
285 54 231 70 44 28
261 774 230 67 54 47
316 439 126 67 35 30
449 552 213 46 36 28
236 469 281 102 15 35
346 139 209 125 95 59
393 422 184 101 83 69
216 739 271 141 102 72
248 894 291 168 124 105
238 469 285 130 12 40
346 604 301 79 16 30
345 93 193 154 37 54
350 19 271 107 32 44
239 469 288 141 14 43
235 474 281 137 12 42
292 249 286 120 95 66
296 322 244 92 78 62
237 474 285 135 12 39
290 74 266 127 18 45
239 480 288 153 16 48
273 139 234 123 92 54
383 500 154 165 5 42
241 459 291 123 15 39
507 469 231 153 18 50
343 496 124 69 26 25
241 464 291 119 19 41
301 324 306 147 99 78
248 454 299 89 24 37
286 10 276 108 68 54
287 44 246 62 48 34
408 738 198 54 42 38
261 194 236 126 98 63
251 454 301 90 25 37
291 334 242 90 77 64
248 457 299 51 24 27
270 576 184 164 4 44
321 59 257 130 91 77
303 12 291 206 150 165
326 582 173 182 5 34
285 30 257 65 43 28
259 699 245 126 10 36
249 460 298 46 27 31
250 465 298 58 31 33
406 624 286 186 128 102
280 144 241 112 87 55
364 919 236 61 55 56
346 729 316 94 21 36
276 562 173 145 24 45
371 819 281 81 64 58
267 39 211 110 62 45
252 464 299 81 30 37
256 459 302 132 23 47
369 914 284 44 41 41
322 99 241 116 26 43
256 464 300 88 31 38
341 524 310 139 102 74
271 239 290 119 95 70
259 518 174 87 25 29
285 79 236 124 29 40
242 469 291 102 21 37
372 199 221 122 99 73
308 24 257 125 35 26
429 701 269 158 107 73
224 509 261 147 6 43
389 507 163 162 7 36
231 704 310 165 116 90
244 465 293 33 26 30
381 549 171 74 31 38
366 384 197 89 79 69
284 114 248 113 84 57
244 469 293 46 28 29
367 174 236 117 95 71
406 904 233 101 84 71
336 364 207 90 78 66
331 14 256 103 74 62
253 813 243 78 61 54
266 14 266 90 68 59
247 469 295 48 29 31
242 474 291 140 24 49
263 164 274 114 94 74
251 469 298 67 30 35
256 470 298 54 28 31
448 978 300 88 81 75
251 479 295 133 22 48
376 889 277 45 39 35
335 289 252 72 61 50
353 33 241 101 46 38
273 90 214 149 20 42
467 438 215 68 35 38
424 615 261 126 98 66
251 474 297 90 27 40
444 755 237 142 98 73
256 474 298 78 26 37
333 281 249 73 60 46
340 244 205 132 102 65
479 518 217 168 22 46
409 462 178 47 29 34
496 904 240 89 72 55
324 897 193 76 69 68
224 504 261 73 18 32
354 452 98 46 36 41
226 489 266 139 6 41
291 339 240 90 77 64
223 524 246 139 3 39
259 299 278 134 99 74
382 649 281 161 12 50
321 13 251 111 64 47
398 627 284 168 101 86
330 344 216 90 76 61
228 484 269 146 7 46
397 428 276 72 51 39
371 569 176 125 20 40
297 44 271 122 81 67
224 494 261 138 4 40
228 494 270 149 7 44
370 219 207 120 96 67
454 464 254 142 4 44
234 530 278 99 28 40
328 921 314 158 101 86
232 489 276 144 10 44
286 349 238 92 79 67
525 923 235 116 96 81
233 484 279 136 10 41
295 64 261 123 21 45
315 49 246 109 38 38
291 830 292 55 44 44
235 484 281 136 11 40
378 289 236 125 97 64
237 489 285 148 14 46
272 108 269 118 95 71
237 484 286 147 15 45
324 374 221 73 63 53
328 289 241 81 68 53
334 129 219 113 88 58
234 494 282 129 13 38
248 929 281 110 97 89
333 258 213 121 96 66
280 703 318 79 25 35
262 364 242 103 87 71
312 314 296 125 91 65
225 654 302 149 106 80
419 895 239 74 63 53
306 380 232 108 83 68
236 494 285 141 14 44
421 819 221 104 78 62
327 72 254 110 71 58
378 548 288 140 39 51
276 174 235 126 98 63
301 979 301 61 55 54
240 494 288 163 17 53
401 489 171 55 32 36
224 499 261 113 13 39
224 504 257 46 29 31
226 499 266 151 5 45
366 695 310 49 31 33
330 184 226 104 84 63
284 128 252 110 84 57
226 504 266 151 7 43
351 436 107 93 75 57
345 628 309 116 28 44
323 384 241 68 55 41
350 109 202 135 34 43
266 99 267 114 91 71
266 112 222 152 84 75
385 379 231 108 89 67
271 12 266 85 70 61
235 733 269 121 92 65
289 49 247 112 34 32
341 404 190 88 76 65
229 504 272 98 17 36
259 47 239 96 75 54
378 279 227 127 95 62
367 264 252 132 98 65
226 509 266 126 13 41
356 273 203 118 92 61
228 509 270 81 25 36
378 237 219 124 99 71
303 853 237 109 76 60
276 819 232 81 63 54
290 69 246 111 75 61
276 29 251 102 87 72
276 545 161 164 10 39
391 712 203 75 47 40
229 509 272 63 25 32
231 499 276 95 17 35
423 612 266 133 102 68
231 504 276 47 28 32
347 835 278 174 131 109
329 209 226 108 88 65
356 448 97 70 35 36
231 509 276 61 28 33
372 368 263 122 95 63
235 840 286 212 137 110
329 239 226 109 87 60
248 689 302 140 96 73
259 144 239 118 95 67
351 274 257 111 87 62
321 519 301 131 91 70
329 274 236 94 77 59
233 499 280 58 27 31
449 750 254 149 96 68
232 504 280 55 28 33
332 144 231 107 85 61
215 694 291 156 108 81
248 914 276 95 68 63
416 519 190 116 12 32
234 499 283 46 23 28
351 789 297 76 61 55
236 499 285 124 16 41
407 432 262 60 37 26
244 618 276 61 36 35
286 294 301 118 90 66
275 124 236 118 87 51
234 504 283 91 28 38
278 339 299 122 94 66
268 524 133 57 32 34
237 504 285 124 21 44
286 494 296 57 26 31
325 753 189 54 44 40
357 74 206 136 32 51
273 521 150 99 6 33
274 538 147 143 16 41
241 504 287 155 16 50
227 544 226 39 31 34
265 914 250 134 106 78
439 568 240 55 29 34
266 69 205 121 32 33
501 459 209 130 19 31
372 825 278 76 60 53
461 469 211 75 27 33
237 509 285 108 25 44
314 319 271 117 85 61
236 634 277 114 90 63
336 606 299 79 22 30
410 725 197 71 53 41
352 515 145 189 10 43
284 175 274 114 91 64
361 603 192 77 35 42
242 484 290 164 17 54
265 929 241 62 58 60
242 489 290 167 17 54
259 260 244 136 98 64
318 54 236 99 26 32
266 39 241 105 88 74
354 107 210 132 67 70
291 314 307 129 93 70
512 460 210 40 35 39
246 489 292 169 18 54
246 494 291 166 17 53
251 484 294 173 19 54
412 900 228 103 86 68
255 489 293 154 17 50
311 509 133 88 20 36
257 294 271 143 104 80
238 694 274 129 94 69
329 210 231 105 86 66
265 53 209 120 24 20
410 608 227 75 33 40
256 489 294 171 20 56
310 511 134 136 9 37
426 494 269 161 14 52
342 506 129 103 29 39
286 828 233 80 61 52
256 494 293 77 22 34
261 869 276 142 113 89
267 24 214 107 70 50
287 849 276 148 108 86
330 492 118 172 10 38
285 50 237 82 39 30
356 880 190 97 79 69
299 244 271 121 95 65
335 129 242 114 88 67
328 541 293 100 55 50
251 499 291 137 22 48
378 244 215 124 98 66
372 918 281 41 38 37
406 434 161 115 17 35
330 169 231 101 81 60
403 479 171 44 33 36
316 634 206 127 21 38
248 508 289 153 24 53
270 294 292 133 102 75
256 509 291 114 16 38
312 430 172 77 64 51
271 59 275 126 97 75
362 480 125 161 4 42
269 14 214 107 70 50
327 360 260 70 55 40
286 454 97 116 26 38
258 184 238 129 99 64
218 661 278 137 102 70
261 519 296 49 27 29
267 19 212 107 70 51
287 485 298 103 25 42
326 412 283 48 41 36
281 877 313 166 136 107
256 734 306 120 53 49
354 73 198 136 30 46
267 19 214 107 70 50
267 24 212 107 70 50
329 219 221 110 88 63
376 259 211 124 95 59
331 89 206 135 9 43
256 563 167 87 22 40
250 944 271 179 136 113
356 249 256 131 102 71
277 74 210 143 17 40
337 459 282 40 26 28
269 19 214 107 70 50
265 19 297 114 34 48
424 925 226 91 77 66
263 909 253 148 112 84
268 29 214 108 69 50
260 109 240 114 83 59
304 275 275 120 94 65
270 29 214 108 69 50
366 674 300 146 14 45
260 244 240 130 97 58
229 810 264 179 124 89
385 952 276 85 69 58
264 552 288 120 3 35
301 11 273 116 49 42
431 954 296 80 67 55
261 24 256 94 80 66
371 469 281 130 20 45
264 558 293 129 6 41
299 240 255 105 83 58
264 367 239 103 88 73
262 29 252 97 84 72
266 109 216 129 91 84
271 279 241 131 98 65
381 958 281 79 60 48
264 898 254 128 100 72
263 26 253 98 85 73
306 397 228 102 80 62
238 554 201 167 6 43
238 697 274 126 92 67
266 21 253 97 84 70
265 48 217 75 62 49
300 23 296 153 84 78
304 388 294 142 101 78
331 631 204 71 35 36
313 324 281 107 79 51
305 722 173 64 45 37
336 33 230 115 91 70
342 394 270 125 88 71
365 602 193 113 27 39
264 22 254 97 83 68
384 483 148 133 22 46
271 19 257 99 86 72
371 604 195 129 31 45
271 25 252 102 87 71
269 39 214 110 64 45
368 347 258 116 90 57
361 914 232 63 55 54
292 184 256 111 89 63
266 579 312 141 109 82
266 29 250 97 83 70
337 239 245 101 81 60
276 23 254 101 87 72
397 509 176 148 0 34
246 899 301 122 91 72
348 730 188 59 45 43
491 469 212 134 9 29
281 824 296 60 51 48
281 24 256 85 65 51
301 724 176 72 54 42
326 446 98 130 43 33
215 674 291 156 105 81
284 79 231 105 42 42
341 154 246 111 85 63
274 31 248 103 89 74
370 224 207 120 95 64
277 59 215 83 35 23
276 25 253 101 87 72
322 59 211 82 36 31
374 245 208 126 99 64
326 909 310 144 97 76
371 854 256 33 29 29
379 259 217 122 95 60
281 29 255 67 47 39
328 446 298 68 25 28
386 944 276 73 54 43
262 324 256 130 100 71
492 499 221 75 31 37
260 573 293 76 23 32
251 559 284 116 2 36
311 435 166 73 61 48
316 529 141 112 28 40
262 49 212 102 43 32
334 120 243 117 89 69
354 120 218 103 85 66
262 33 280 113 44 49
262 50 216 77 57 46
323 731 184 59 44 44
267 34 212 109 67 48
426 649 277 173 119 87
337 339 208 99 83 67
350 388 194 87 77 68
267 354 295 118 94 66
258 874 304 173 125 108
404 587 203 181 15 47
267 34 214 109 67 48
341 41 222 120 100 78
295 249 281 121 96 67
292 198 245 116 91 60
296 459 102 189 10 38
267 39 215 107 67 48
330 104 215 121 28 40
301 869 300 153 121 91
270 34 212 110 66 47
339 17 284 135 92 91
251 949 271 184 142 119
427 826 207 68 59 59
354 60 206 108 39 42
269 34 214 109 66 48
266 804 305 162 119 90
306 671 193 86 52 44
283 86 234 77 51 31
327 364 218 78 67 57
366 854 182 100 79 68
258 74 259 104 47 46
287 174 245 112 88 58
276 889 252 119 94 65
356 289 206 103 84 64
266 44 215 96 69 53
261 609 316 160 118 89
327 349 259 78 62 48
378 269 237 130 97 63
316 603 187 81 33 38
388 412 205 101 87 72
388 740 302 144 31 55
266 49 210 129 26 18
351 144 210 121 96 65
309 442 155 77 67 55
388 418 263 126 97 67
411 599 281 141 105 69
270 49 211 109 44 24
432 799 271 187 131 101
271 744 315 174 19 56
377 339 221 103 86 69
240 829 266 193 130 100
332 294 251 72 62 52
247 609 310 138 107 77
274 679 229 68 35 38
320 19 245 114 47 36
387 384 246 111 89 65
351 734 319 50 28 32
266 48 221 90 75 58
311 399 286 119 86 65
433 753 224 98 68 44
408 616 235 184 19 51
266 64 206 114 32 28
312 789 183 78 60 47
356 229 201 124 96 61
263 565 294 106 10 35
295 694 190 64 47 38
269 55 208 113 27 22
329 309 253 69 57 45
260 53 215 77 47 38
277 494 120 110 10 34
261 54 211 93 39 28
330 889 193 81 70 71
289 98 259 127 14 42
354 45 232 120 38 40
346 484 286 100 70 65
416 879 216 93 79 67
261 50 221 73 61 48
315 730 180 71 53 45
260 58 210 88 39 25
380 954 294 88 67 57
287 104 251 133 88 72
258 56 213 79 40 34
281 44 282 132 100 79
321 795 183 82 61 47
258 65 208 114 45 35
381 484 147 124 11 35
265 704 235 92 23 35
364 170 213 109 90 70
469 444 213 97 26 35
228 573 243 160 0 39
443 509 263 147 16 51
286 64 231 83 55 44
299 467 108 188 10 37
274 50 217 115 98 80
246 699 305 152 102 79
241 514 286 149 21 49
301 289 296 107 86 61
323 340 227 77 66 55
273 52 214 107 88 62
260 114 240 109 84 56
386 704 306 134 9 41
406 579 200 178 16 41
318 31 243 64 58 53
275 50 221 115 98 81
271 494 297 96 15 33
252 524 290 51 26 28
381 804 194 52 43 40
426 569 207 99 24 38
296 669 215 114 30 29
324 335 231 77 65 52
277 53 220 117 99 80
277 344 299 121 94 66
263 871 268 127 105 82
276 64 211 108 35 26
422 909 228 102 90 81
371 279 210 113 88 58
266 124 232 138 104 68
259 264 283 129 98 72
383 384 257 118 93 64
280 60 217 86 34 19
296 609 302 39 30 31
268 526 293 88 29 38
436 449 267 124 17 42
282 64 216 104 33 27
271 69 272 118 32 47
284 60 223 101 35 27
247 894 276 159 118 96
317 539 302 164 112 90
313 384 246 122 92 79
288 167 257 112 89 62
386 764 296 88 70 64
256 924 300 129 98 80
420 661 273 184 125 96
284 64 221 111 29 36
286 874 311 155 125 94
378 782 195 56 45 43
338 461 99 187 9 29
301 259 271 118 92 62
370 339 212 98 85 72
261 49 226 89 74 60
341 48 201 113 83 54
260 48 236 99 79 62
282 459 177 63 31 29
411 995 296 100 85 70
261 44 241 99 85 71
300 606 194 146 27 40
326 339 256 73 61 52
262 45 237 102 85 69
281 479 300 93 25 37
361 914 235 60 52 51
256 834 251 85 65 57
387 718 204 65 46 38
267 258 238 130 97 61
271 38 240 112 95 78
233 635 278 107 88 65
276 10 291 112 56 52
268 580 314 148 112 86
257 109 256 120 98 74
312 29 251 105 45 39
230 824 307 193 137 110
407 913 232 92 76 63
441 534 200 163 12 36
266 47 226 100 83 65
284 492 113 186 11 43
313 740 318 136 24 45
346 50 206 124 102 81
267 841 292 50 39 37
271 45 231 113 96 76
316 922 197 73 65 65
287 494 146 67 27 31
274 887 313 164 129 100
311 443 106 86 34 33
354 80 234 104 25 41
266 43 236 107 88 71
267 41 238 110 89 73
336 124 216 118 91 60
282 505 125 81 27 34
279 724 323 171 18 55
271 42 235 115 95 77
283 937 213 85 74 74
264 719 307 148 15 47
346 688 190 56 44 41
332 69 188 122 31 33
484 969 289 108 93 79
346 749 184 65 50 41
328 200 228 106 86 65
391 404 246 113 90 64
316 612 193 125 23 38
271 41 238 114 96 79
323 374 231 68 58 48
248 724 252 130 5 37
229 549 266 79 23 35
386 420 181 100 84 67
353 855 262 105 74 57
291 810 298 79 65 56
259 37 249 77 61 43
420 691 234 96 74 52
313 384 281 123 86 66
249 631 266 78 34 40
326 354 222 78 67 57
355 94 211 121 44 49
405 719 197 79 58 45
346 420 171 94 78 61
288 42 249 62 56 45
259 43 245 83 64 51
249 923 265 139 116 99
282 664 222 123 21 34
282 168 273 115 92 65
282 109 241 120 80 57
389 395 249 116 92 66
331 419 296 106 12 34
422 654 233 120 93 66
258 46 242 92 48 30
286 89 266 122 88 68
336 61 188 105 39 21
436 899 212 88 78 69
266 34 246 100 84 69
354 508 142 103 23 37
278 32 289 153 24 59
271 35 243 108 93 74
331 104 246 121 92 73
311 814 295 190 135 113
290 379 304 147 106 76
290 189 270 110 87 60
320 851 294 175 140 113
264 32 249 98 84 72
258 129 242 116 96 74
377 329 221 104 86 68
271 845 282 55 45 42
296 780 308 85 68 60
376 229 236 119 95 66
276 39 241 109 93 77
259 95 214 148 20 42
260 463 189 53 35 36
273 47 229 113 97 80
360 134 231 114 93 71
380 577 304 174 121 90
331 124 231 117 87 63
441 494 265 143 18 50
275 45 232 113 96 78
301 684 191 76 47 39
329 279 241 89 75 62
300 324 243 90 75 60
276 49 226 115 97 79
324 76 208 139 1 44
449 484 259 62 23 32
334 967 290 59 51 49
324 398 205 79 70 62
401 969 315 73 58 47
261 834 246 83 64 55
267 559 294 110 12 37
346 134 247 122 96 67
276 43 236 110 93 76
299 240 262 114 89 60
366 559 308 165 120 88
281 45 237 85 57 44
262 239 285 118 94 70
404 454 158 51 37 36
281 43 241 83 51 36
388 860 214 75 63 61
262 209 280 116 95 72
224 684 274 134 101 66
381 664 231 71 31 31
279 46 233 110 93 72
356 194 252 123 99 71
376 428 131 142 52 46
285 44 242 73 44 30
318 406 212 75 66 57
389 705 300 138 11 44
284 46 238 83 45 24
436 544 201 165 14 39
322 329 241 75 61 47
268 240 289 119 94 69
331 764 182 71 55 45
287 49 241 88 37 26
299 279 253 97 78 57
276 34 246 105 90 74
305 500 299 142 104 88
274 36 243 109 93 75
316 429 171 78 67 56
272 408 304 144 110 83
277 38 245 104 90 75
277 33 250 101 87 72
257 124 256 114 93 72
295 214 251 109 87 63
312 849 206 47 44 45
276 304 245 117 91 63
346 219 202 125 96 61
344 486 299 124 92 77
292 524 305 140 113 91
280 41 242 87 61 40
301 904 211 50 47 48
321 30 272 129 54 59
296 244 246 108 85 58
378 426 144 121 62 54
349 462 103 191 11 48
304 897 210 51 47 49
225 824 281 193 132 104
306 294 256 118 96 72
392 784 193 80 57 48
305 874 240 74 61 50
320 64 226 115 30 38
286 34 255 74 44 27
361 399 272 136 98 69
288 49 245 95 39 29
218 764 268 150 107 74
279 51 227 108 89 68
351 104 201 130 30 40
426 434 191 136 9 36
278 52 224 114 97 79
300 437 174 85 71 54
378 318 238 127 99 69
431 426 206 134 25 29
236 769 311 168 126 93
364 914 237 62 56 56
284 133 248 111 87 59
302 29 281 138 34 54
283 52 235 79 41 34
276 850 271 60 46 42
284 51 233 83 46 41
280 976 276 60 55 56
283 490 129 100 16 35
353 79 236 106 28 42
281 108 236 118 78 55
398 440 144 143 1 35
353 29 251 116 57 53
383 422 278 90 73 55
283 57 225 97 57 34
311 384 241 132 98 84
260 838 300 192 141 117
285 64 226 107 41 41
426 698 268 146 101 71
379 254 216 124 96 62
287 64 236 95 35 35
283 69 215 121 20 31
414 512 274 43 22 30
313 15 252 121 43 32
316 14 251 117 53 38
471 529 226 189 15 54
297 470 109 187 10 34
316 13 256 118 49 35
373 659 224 74 28 31
314 389 256 96 70 56
321 13 256 116 60 45
265 552 157 196 17 45
259 319 276 133 101 73
312 19 251 126 29 23
320 399 226 76 65 55
270 94 213 147 22 38
296 763 315 93 76 67
308 19 257 138 34 20
337 917 213 71 65 69
401 749 191 72 54 41
287 229 239 104 82 55
310 501 299 140 110 86
427 927 267 46 39 35
296 44 261 111 30 38
286 28 291 146 98 83
270 519 136 52 30 31
309 24 255 116 36 29
261 224 282 116 94 71
276 973 266 84 80 82
259 846 264 82 66 58
312 24 251 116 26 24
361 239 201 128 97 58
383 889 245 76 68 62
310 29 256 106 63 51
341 204 247 114 90 65
346 748 315 75 61 59
276 449 116 109 8 37
316 24 247 106 23 27
320 24 245 100 31 31
314 19 249 142 31 24
386 419 266 126 97 69
300 417 200 88 74 60
266 144 271 113 93 72
314 24 249 120 15 21
347 110 200 153 56 62
376 848 260 48 39 39
294 284 248 88 72 54
336 42 220 117 93 71
263 370 238 102 87 72
285 913 225 108 82 58
317 534 302 163 112 90
259 124 239 115 93 69
354 164 249 122 97 69
319 28 244 59 44 37
438 417 262 63 31 30
267 914 315 196 140 125
407 699 246 74 57 48
416 539 192 153 0 37
313 27 248 87 19 31
290 94 256 119 45 50
363 344 263 126 92 64
288 37 254 88 29 25
362 269 204 124 95 61
292 39 256 117 30 31
225 549 251 159 0 45
261 861 300 107 83 59
332 194 240 100 81 59
291 49 251 113 29 31
267 389 227 90 80 70
289 56 241 66 39 29
390 639 236 85 26 34
281 159 271 116 92 66
290 59 241 96 38 35
376 354 216 97 84 72
418 831 273 197 134 109
289 63 238 106 30 34
327 476 295 110 78 64
288 53 245 77 44 36
319 437 154 75 63 52
245 714 271 63 39 34
290 54 246 83 40 32
338 368 203 92 80 68
354 70 198 128 38 45
315 782 304 77 62 55
359 184 249 123 99 72
222 714 305 159 111 85
385 447 284 43 26 30
293 55 254 100 62 51
376 524 157 140 8 34
329 85 206 139 6 45
361 426 153 97 79 61
387 747 188 64 48 40
333 50 196 128 28 19
346 429 151 92 75 58
256 934 256 151 118 93
224 642 291 132 103 71
338 159 244 107 82 62
292 59 246 98 28 35
360 704 201 59 40 33
301 452 98 106 35 41
276 465 99 67 38 38
501 484 216 97 25 35
291 64 246 115 48 50
293 59 251 112 29 40
286 274 295 114 91 66
452 917 240 94 70 58
343 184 208 126 98 62
294 59 256 103 60 56
346 806 293 193 141 120
346 174 250 119 94 67
294 64 253 107 27 40
271 144 272 116 94 71
462 500 208 65 31 27
294 64 256 111 29 45
343 239 203 130 100 63
281 575 180 144 19 42
378 244 237 121 95 63
276 234 235 117 92 62
281 764 312 72 61 56
361 224 253 126 100 69
319 33 240 60 47 34
261 555 160 221 20 52
336 745 187 52 43 40
267 11 272 89 52 51
317 35 242 76 58 44
460 469 250 145 11 45
319 39 235 82 36 28
223 812 273 171 116 82
346 194 206 115 93 68
316 39 241 93 30 32
350 477 113 186 10 41
321 39 266 120 23 45
326 360 266 73 59 44
318 36 238 82 50 35
361 179 246 121 97 70
313 369 249 143 103 91
285 519 297 115 19 39
316 44 241 80 53 43
303 883 308 149 118 88
271 784 307 59 51 49
317 49 236 100 37 31
317 513 132 124 20 40
314 35 250 111 21 36
446 449 202 78 36 41
265 959 302 63 53 52
381 684 201 83 57 41
257 689 251 57 29 35
407 469 176 98 29 36
329 205 231 106 86 65
299 821 224 62 51 45
313 38 256 98 28 38
299 449 299 46 28 31
322 99 226 103 45 44
315 44 246 95 36 36
425 881 248 77 66 58
426 739 270 169 114 81
306 655 215 108 19 30
320 54 226 84 37 31
371 734 316 202 2 65
296 512 138 169 16 31
319 54 230 84 44 38
318 54 232 94 40 35
319 64 230 109 57 50
318 64 233 107 51 46
313 319 291 119 79 61
286 940 216 84 76 78
462 534 241 131 19 46
285 458 98 122 16 32
254 799 239 75 59 51
278 124 240 116 87 51
371 439 284 56 28 32
355 109 222 104 83 59
322 887 194 74 64 63
317 64 241 103 36 38
346 324 269 124 86 65
296 483 117 197 15 38
426 880 251 76 66 57
354 116 218 102 83 61
270 699 307 60 22 30
282 80 221 141 18 42
461 534 211 105 25 39
302 393 234 92 76 57
286 10 301 136 55 65
299 454 299 52 24 27
346 899 290 44 41 40
336 649 307 83 29 39
281 288 243 107 81 55
316 364 276 116 79 60
316 54 256 111 31 45
431 943 261 109 86 65
230 569 236 129 13 41
323 339 231 74 63 51
317 59 251 114 73 62
410 887 217 104 84 63
308 416 294 104 22 39
370 199 212 113 92 70
290 174 251 109 88 64
351 219 201 123 96 62
318 64 250 111 62 57
266 904 251 135 105 75
306 414 201 81 70 59
355 139 245 119 94 66
229 564 257 160 2 46
459 494 254 152 1 49
336 14 286 159 89 99
331 588 177 206 12 42
256 729 305 115 50 47
319 61 253 120 82 69
289 215 279 119 94 66
356 89 216 131 30 48
258 69 208 120 30 29
355 99 236 118 72 63
250 548 290 133 10 41
291 10 311 136 40 57
496 438 221 70 38 35
261 74 206 128 27 35
306 419 191 80 69 59
329 249 231 108 87 63
277 709 319 59 25 31
349 22 274 123 72 60
317 39 265 115 8 40
356 729 320 57 31 35
232 559 221 92 29 38
261 79 207 139 21 41
352 659 303 70 23 36
252 600 310 134 104 75
391 845 261 109 71 56
292 684 217 90 28 35
341 109 248 124 98 69
337 430 302 54 27 32
271 69 206 126 21 29
281 659 301 137 13 43
266 79 206 136 26 43
360 164 245 119 96 70
456 459 210 72 33 33
375 324 245 130 99 67
271 74 205 135 17 30
258 124 242 113 92 67
273 351 299 121 95 67
271 79 207 146 20 39
316 27 274 138 29 53
258 74 208 131 15 33
280 248 238 103 82 58
351 421 168 94 78 60
408 454 175 86 30 33
261 84 208 148 23 46
374 249 208 126 98 64
346 299 264 100 78 54
266 924 312 114 98 92
270 83 208 146 17 39
275 374 303 139 105 78
322 903 306 133 94 73
351 129 212 117 94 66
396 744 187 70 53 42
257 88 212 142 13 43
278 511 144 40 29 28
416 884 246 78 67 58
377 384 205 93 81 71
248 909 276 184 128 112
261 214 237 125 97 62
496 440 234 99 21 37
327 384 262 77 56 41
263 87 208 154 21 50
406 954 291 88 74 67
263 822 238 76 59 52
258 92 213 145 17 42
372 204 216 118 96 71
342 224 249 118 93 68
380 799 186 56 44 40
261 94 212 126 56 52
406 574 266 104 24 41
336 199 210 118 94 66
265 87 208 153 20 46
268 86 209 147 23 45
272 85 210 143 16 36
368 304 209 112 92 69
404 459 162 68 33 36
391 754 295 126 29 49
301 673 214 105 28 30
272 95 214 143 18 36
378 882 184 79 75 76
316 684 172 79 58 45
307 314 303 124 90 63
375 869 191 67 60 58
305 452 98 154 36 49
275 74 207 142 18 33
262 464 187 55 35 36
403 426 169 174 26 37
287 490 115 187 10 39
389 648 238 96 28 26
287 94 241 101 61 46
277 68 209 134 20 32
411 438 267 90 18 31
360 889 221 68 63 64
385 758 300 122 47 57
361 584 181 183 10 45
471 454 213 66 38 36
398 760 283 142 58 59
344 78 249 104 76 57
376 933 272 57 46 44
276 194 235 116 93 65
280 69 212 133 22 36
282 74 216 138 17 37
390 452 138 163 5 40
335 359 210 92 79 66
329 732 188 52 43 39
329 214 237 98 80 62
291 934 314 152 118 95
286 10 296 147 78 88
301 454 298 56 25 29
414 926 269 40 36 35
280 79 216 146 19 43
284 69 217 123 25 35
284 74 218 137 19 37
294 729 184 71 54 42
365 224 250 126 100 70
273 81 209 147 18 37
275 84 212 145 16 40
346 149 209 124 95 60
277 84 216 145 16 39
424 588 222 199 16 51
325 344 256 75 63 53
345 495 304 137 105 81
445 454 260 139 12 43
343 175 208 126 99 64
415 659 241 108 77 55
314 330 241 96 74 58
476 484 212 86 30 31
347 380 198 88 77 67
276 89 216 144 18 41
323 334 241 77 63 50
361 139 231 113 92 70
428 967 293 91 79 68
278 89 220 135 20 37
378 264 215 125 96 60
219 652 285 113 90 62
214 769 291 179 122 96
346 214 202 124 97 62
378 284 221 125 95 60
286 329 242 91 78 64
279 89 222 138 24 43
291 979 286 68 62 59
266 264 240 131 97 62
265 879 260 121 97 71
275 94 217 135 17 36
432 638 245 107 88 67
406 574 197 175 12 38
362 189 247 121 97 71
223 524 236 144 6 40
332 369 211 87 76 66
279 94 223 121 19 33
257 69 256 102 67 57
241 644 312 147 108 79
288 69 236 119 32 42
341 364 205 91 79 67
283 80 225 131 27 44
285 74 226 124 35 46
330 407 273 52 41 28
232 594 271 106 11 39
333 136 218 116 91 61
243 602 227 146 10 42
272 11 300 112 53 47
287 79 241 127 27 39
276 364 302 137 103 75
352 949 251 76 70 71
261 179 236 129 99 62
271 179 235 127 98 64
286 777 309 67 57 54
351 39 251 124 23 46
381 744 311 137 21 48
284 82 228 131 27 46
504 441 218 106 31 37
230 574 241 158 4 40
326 54 206 105 86 67
294 240 243 99 79 54
340 174 210 126 98 62
284 83 231 124 28 39
306 504 300 130 98 76
346 84 190 149 25 45
383 922 255 66 57 52
401 619 287 186 128 102
349 102 198 136 23 38
421 424 206 154 25 27
252 934 261 175 133 109
342 907 293 45 42 41
301 639 210 87 30 36
378 284 236 125 97 64
283 89 234 109 27 32
327 25 237 90 72 57
331 214 216 113 90 64
448 540 253 170 0 52
285 84 236 99 56 45
271 49 277 123 35 51
391 826 278 181 135 105
393 703 287 139 8 43
290 749 211 60 40 38
287 84 241 116 31 37
280 359 303 136 102 76
334 540 303 133 91 71
274 474 113 140 0 43
289 264 243 95 76 53
281 529 292 70 26 30
292 219 276 120 96 67
328 107 240 125 89 70
348 90 194 148 25 45
288 89 240 118 28 37
331 424 307 145 17 47
301 694 318 144 6 46
282 94 231 113 51 45
367 189 241 120 97 71
260 99 215 133 34 43
270 213 234 124 98 65
362 159 216 109 91 71
312 889 302 150 115 88
346 309 267 105 80 55
262 98 213 104 89 80
258 99 217 139 14 44
276 863 301 105 85 63
403 712 257 77 67 58
258 103 218 134 15 42
261 804 307 169 126 91
321 834 188 59 50 49
261 110 221 144 42 54
287 430 188 89 76 63
306 944 222 75 71 73
267 100 214 139 41 41
304 23 286 139 41 58
269 98 213 147 23 35
271 104 217 137 20 35
309 829 201 59 53 50
415 426 192 164 21 28
236 724 270 123 90 62
333 364 212 89 77 65
517 921 245 97 80 68
289 754 206 58 43 38
276 189 234 118 93 64
270 108 218 132 22 36
313 308 272 119 93 63
271 199 234 120 95 65
416 444 272 75 25 32
400 494 279 163 14 51
298 421 192 89 75 60
271 109 220 143 27 42
406 804 282 177 132 99
311 349 241 103 79 64
321 84 226 121 24 38
431 419 246 65 25 39
306 481 119 113 19 31
274 98 218 135 16 38
296 314 307 127 93 67
410 854 240 79 66 55
336 47 201 122 61 38
243 784 243 151 110 73
275 109 222 134 21 36
356 94 236 114 30 44
300 259 276 120 95 65
443 652 253 142 98 70
432 545 199 151 17 40
276 99 221 135 17 39
276 104 221 135 23 39
445 494 202 124 7 30
257 108 226 138 24 48
501 446 211 114 18 39
296 319 243 92 78 62
296 224 271 122 96 67
322 494 301 125 86 72
283 129 246 116 91 61
326 940 320 40 37 37
422 810 220 101 72 52
306 374 296 147 102 82
252 684 281 68 54 51
281 554 167 163 15 41
363 183 209 122 97 65
258 107 230 131 53 54
346 349 204 93 82 70
252 654 312 168 115 90
282 119 246 116 88 57
304 290 291 110 86 59
376 634 290 136 21 47
297 360 303 146 101 77
279 774 224 68 52 48
321 54 221 84 34 31
400 563 193 156 4 36
266 417 215 99 85 72
308 319 249 89 71 51
260 106 232 139 86 71
376 427 146 117 67 57
261 109 226 128 66 60
311 320 245 106 80 58
382 554 296 116 84 62
266 599 315 162 117 91
281 239 237 104 83 59
340 31 233 111 96 79
480 468 214 128 5 26
243 904 300 178 136 117
435 650 233 113 94 73
260 105 240 123 87 65
314 324 275 107 78 53
264 111 226 134 90 72
256 109 246 122 96 69
293 188 256 113 90 64
503 481 222 155 19 43
301 413 206 88 74 60
416 804 281 175 128 96
367 284 252 125 95 61
484 462 214 128 5 30
351 928 322 49 45 44
364 649 299 52 29 32
256 109 251 123 99 74
346 274 205 120 93 62
263 114 232 130 98 68
263 119 232 128 100 68
262 119 236 118 94 67
336 844 190 76 63 51
346 79 246 103 55 50
495 899 222 98 81 67
279 254 238 104 82 57
267 669 237 119 12 34
260 119 240 110 88 62
379 240 217 124 98 67
301 765 313 90 73 62
351 355 203 92 81 71
263 122 233 128 100 68
437 449 199 68 32 35
262 124 236 121 97 68
291 469 131 117 4 38
301 961 318 75 69 68
265 114 230 142 104 73
315 12 288 126 63 62
342 525 145 191 11 43
289 180 269 115 90 62
347 950 245 75 69 69
431 664 272 184 121 94
266 439 307 96 25 39
321 535 145 152 14 38
341 69 252 119 21 45
331 854 188 82 67 55
268 117 228 147 108 74
331 344 261 77 62 48
269 117 228 144 102 72
227 774 309 164 118 88
228 789 258 159 111 73
371 639 216 91 33 42
305 315 247 88 72 54
357 79 226 101 33 39
446 422 236 85 38 38
397 709 276 144 3 46
276 504 126 62 26 31
383 382 214 102 86 68
271 119 231 132 93 59
260 364 286 121 95 66
264 125 234 129 101 68
362 835 187 75 60 52
333 166 239 106 85 63
311 339 296 133 88 72
266 129 232 135 101 63
258 114 243 115 90 63
284 477 103 143 11 39
256 114 246 120 97 70
406 424 231 71 57 48
276 399 221 93 81 69
256 119 251 119 97 74
230 679 308 158 112 88
411 843 246 70 51 42
347 69 190 124 29 28
380 259 231 124 96 61
257 129 256 115 94 72
361 953 315 80 68 60
299 684 195 74 46 39
278 104 225 126 26 40
341 602 188 181 12 38
331 48 211 113 88 66
279 104 228 116 33 36
455 937 261 101 81 64
324 329 252 73 61 48
312 314 255 120 94 65
248 894 286 163 120 100
276 109 226 134 57 52
360 149 241 117 94 68
351 69 241 112 46 49
279 107 228 126 39 43
306 634 306 53 28 30
357 69 211 115 23 42
311 489 122 168 3 34
280 108 231 125 71 61
421 509 271 44 28 30
330 174 221 104 84 60
309 395 289 130 92 71
388 750 298 60 27 30
267 714 311 147 13 47
268 546 289 118 3 35
281 104 231 121 32 36
388 674 277 125 22 43
396 519 281 160 7 50
389 582 193 119 8 29
411 474 186 57 31 38
287 99 241 105 38 35
271 264 239 125 94 59
286 104 241 124 57 51
278 491 168 62 32 28
481 509 236 158 16 50
288 100 256 133 76 69
309 368 294 147 104 81
326 79 211 119 38 51
331 634 205 56 35 37
284 108 246 122 85 62
426 420 246 66 27 36
400 704 261 121 18 39
285 109 251 124 87 64
274 113 232 124 87 61
276 794 304 63 52 49
340 254 248 99 80 58
375 239 241 123 97 67
291 634 302 94 28 40
240 654 313 153 114 84
358 133 238 111 90 66
261 904 255 142 108 79
276 114 236 117 83 53
328 88 213 97 64 53
283 714 218 113 17 32
276 119 236 117 85 52
292 779 206 66 50 42
261 809 236 78 61 53
258 339 275 130 98 71
357 134 241 115 92 66
278 115 239 111 81 50
333 350 213 92 78 64
280 114 241 114 81 52
259 743 234 133 7 33
371 344 211 97 85 73
291 279 246 89 72 52
271 530 135 86 31 34
273 129 234 120 86 48
296 549 315 150 114 87
271 214 233 125 98 65
248 818 248 59 49 48
295 209 251 108 87 64
280 119 242 116 88 54
355 99 211 104 52 45
348 224 254 123 97 70
280 124 242 116 88 55
391 504 282 136 17 46
283 120 249 113 86 57
292 69 251 121 27 44
326 369 256 70 54 37
275 919 230 65 60 62
284 114 251 117 85 61
393 973 306 79 71 64
420 804 211 76 58 46
333 239 212 125 98 66
400 894 260 56 49 45
284 114 256 121 88 65
288 521 144 120 19 40
324 84 220 108 48 47
275 205 284 118 96 73
324 402 262 62 49 40
364 259 254 131 99 67
282 233 288 119 95 68
284 117 248 113 86 58
296 334 305 140 97 74
257 639 246 60 28 36
291 979 281 62 56 53
375 219 216 119 96 71
346 119 247 123 96 66
329 269 241 90 75 59
269 877 259 111 90 66
438 852 234 80 70 61
402 519 185 140 0 35
361 436 106 101 73 56
284 119 251 115 86 61
370 204 241 121 97 70
286 349 304 138 100 74
231 514 206 136 8 34
282 124 246 116 90 61
334 622 308 46 29 28
331 429 161 86 72 57
301 974 310 68 62 60
301 10 286 192 138 151
283 129 251 110 85 56
293 209 244 111 87 57
346 40 227 120 100 83
284 124 252 113 86 59
374 711 198 70 53 42
341 129 210 128 94 56
314 309 266 108 85 60
291 423 195 91 76 61
395 428 161 144 55 45
288 70 240 120 30 38
276 779 307 67 58 53
289 78 243 109 51 41
369 827 279 83 67 59
325 100 242 121 81 67
380 849 196 62 58 59
295 663 308 143 17 47
292 74 251 121 38 53
346 904 225 62 56 57
374 448 112 61 33 38
261 864 281 112 88 66
291 79 251 123 50 53
436 423 226 97 30 32
509 468 229 175 15 52
289 84 246 125 25 42
231 529 271 100 26 38
289 89 243 115 19 34
232 629 301 140 106 73
308 436 168 77 65 52
360 214 203 120 96 66
291 84 256 121 18 42
481 464 241 87 26 34
422 641 238 108 85 57
290 89 251 104 71 57
289 94 243 114 30 33
284 498 118 149 10 42
369 284 250 129 97 63
290 94 246 118 35 39
229 762 264 122 93 56
391 893 244 79 69 59
392 519 283 162 15 51
320 69 226 116 47 49
311 759 183 67 53 42
342 461 99 193 11 34
317 69 241 110 66 54
320 74 226 117 46 47
366 209 206 120 97 68
401 869 256 50 42 37
301 434 176 84 71 56
389 443 133 148 1 34
398 946 276 82 66 57
372 775 298 92 72 63
319 79 231 99 78 59
318 74 236 112 46 44
404 492 178 46 35 35
333 199 213 116 93 66
439 434 198 70 30 36
251 624 315 154 111 84
247 929 276 119 104 96
331 563 163 122 25 41
318 74 241 111 59 53
326 49 216 98 66 51
290 479 161 55 33 29
405 421 201 117 77 63
321 69 211 106 41 44
297 445 299 68 27 32
425 675 268 173 119 96
318 79 237 117 37 47
267 324 290 136 103 77
356 209 253 128 102 72
393 408 236 86 74 61
332 209 240 98 80 60
304 19 291 129 47 56
319 79 235 98 56 49
310 919 196 79 70 68
431 679 268 175 119 89
257 54 261 120 51 55
266 194 235 123 96 63
391 824 279 183 139 112
289 464 127 110 11 36
268 919 314 140 100 89
321 541 149 57 34 36
317 69 246 112 44 50
245 609 307 134 105 75
318 68 249 114 18 43
321 69 251 109 38 47
326 23 240 90 65 53
374 374 264 124 96 62
336 139 241 114 87 65
351 623 202 56 37 40
284 448 179 76 28 26
319 75 247 108 39 46
235 594 246 60 28 34
319 80 241 115 12 39
266 289 247 138 99 69
281 464 177 70 30 28
453 930 263 80 65 50
360 479 122 127 14 36
386 454 282 151 20 50
321 74 250 114 12 42
320 89 231 108 38 41
319 84 236 118 24 40
320 84 241 111 24 41
277 435 188 95 29 22
293 445 173 91 25 27
329 219 237 100 81 60
401 885 215 87 75 68
260 19 291 114 50 52
320 89 241 108 18 40
344 322 268 117 83 62
338 129 213 120 90 57
289 97 243 115 36 35
281 976 271 77 71 74
262 669 247 110 19 38
297 704 187 62 47 37
311 14 261 124 41 30
289 98 246 126 21 40
290 99 251 131 23 45
346 149 248 119 94 67
305 844 230 80 60 52
326 576 169 93 35 40
333 224 212 121 95 65
416 928 271 40 37 36
253 649 313 169 117 89
296 44 276 123 69 64
289 98 256 131 18 44
244 559 185 66 26 32
288 101 251 133 52 56
221 689 275 139 103 69
393 932 298 36 33 32
266 514 297 110 23 41
264 434 194 107 31 31
368 289 252 122 93 59
336 54 191 122 33 17
341 364 270 118 83 64
304 888 225 43 39 44
274 508 127 79 25 32
412 866 243 57 46 42
327 64 192 98 40 25
396 836 273 179 123 95
268 622 218 192 13 50
366 319 210 106 87 66
326 978 261 82 78 79
340 61 188 97 37 28
446 769 246 125 84 62
257 679 285 43 24 28
297 24 265 111 33 28
446 474 205 125 14 33
249 934 291 190 147 129
331 64 190 107 42 27
326 509 306 145 99 86
328 93 217 135 22 44
331 59 192 114 34 24
374 205 221 121 98 73
332 55 192 122 27 18
291 239 241 96 77 53
316 439 151 73 60 50
336 64 187 103 41 28
305 448 141 74 25 26
341 274 251 83 67 49
367 765 303 88 69 63
334 62 189 108 33 26
351 437 105 96 75 57
416 997 292 107 90 73
340 54 192 104 37 19
321 428 292 64 21 27
231 699 272 123 93 61
378 233 220 122 98 71
265 674 241 108 22 37
366 184 211 113 92 68
326 12 276 141 66 72
345 60 193 91 48 24
390 883 236 78 69 61
420 599 236 196 16 52
345 523 147 190 11 42
311 479 117 130 17 38
346 64 191 102 44 27
416 427 191 162 10 25
326 15 246 99 77 63
340 26 238 102 88 72
316 934 316 53 50 50
293 381 228 95 80 65
453 453 253 138 4 42
276 334 244 109 88 63
326 14 251 105 73 58
256 624 315 161 114 88
331 16 251 100 78 65
230 664 307 146 104 77
442 749 236 132 91 68
370 573 178 52 35 39
336 16 252 99 80 67
259 46 268 128 31 51
291 973 252 78 73 74
322 24 241 85 33 28
287 580 313 173 120 96
323 54 216 74 41 32
436 454 199 51 37 40
323 329 250 73 59 45
240 709 273 119 83 61
435 799 266 183 124 93
255 584 296 78 62 45
414 668 240 95 65 51
322 30 237 74 39 30
276 499 113 165 10 42
516 459 216 111 21 38
286 474 126 118 7 37
378 248 214 124 97 62
346 284 257 87 71 53
326 29 235 78 57 45
380 249 226 122 96 65
271 420 211 96 83 69
294 225 274 120 95 66
301 964 231 86 83 87
366 714 319 158 16 50
331 23 240 100 86 70
244 539 184 60 34 34
245 569 186 151 19 43
329 224 231 105 85 63
395 509 172 148 0 36
331 30 232 105 90 74
249 910 275 161 110 95
276 610 205 190 8 42
258 144 265 112 92 71
332 234 241 98 79 59
331 28 235 103 88 71
240 824 261 180 122 89
232 823 310 195 141 116
322 20 243 93 55 34
351 529 310 166 116 90
263 104 264 118 97 76
326 20 242 95 82 68
331 21 242 97 85 71
228 714 309 166 117 91
406 959 311 59 49 41
331 18 246 97 83 69
316 364 261 95 71 54
220 809 301 189 132 104
301 614 302 121 23 43
346 314 207 93 80 66
284 488 299 45 27 28
333 792 194 68 57 55
336 21 243 100 86 70
359 949 286 94 85 81
341 23 241 103 89 73
367 359 205 93 82 72
306 962 228 89 86 91
381 554 291 121 65 57
370 199 236 118 96 71
411 423 231 71 48 41
436 639 261 137 102 65
336 504 127 60 34 38
341 29 235 110 94 78
296 229 246 106 83 56
346 24 241 110 94 79
372 194 221 121 99 74
311 11 285 121 69 68
348 27 239 115 98 82
350 50 216 110 69 59
242 704 308 165 113 83
352 29 241 84 52 40
400 965 293 85 62 50
353 88 238 111 92 70
341 17 250 101 82 69
376 459 126 175 9 42
341 15 256 100 73 62
310 343 246 90 72 56
301 429 296 110 20 39
379 249 235 122 95 61
346 20 246 106 88 74
335 515 309 149 109 86
261 414 220 98 84 68
301 334 245 82 69 56
376 579 304 182 125 97
382 384 210 98 84 70
357 69 206 127 38 49
270 867 269 102 77 42
356 664 214 87 28 32
353 119 243 116 94 69
451 479 207 124 13 30
307 13 288 132 89 93
410 489 187 64 27 37
422 624 278 150 108 72
259 244 283 119 95 71
350 20 247 110 72 62
352 24 246 95 52 44
358 148 215 107 89 71
404 972 314 78 63 50
376 508 153 164 2 35
346 16 256 101 67 58
388 392 226 104 86 66
356 799 293 77 61 56
385 539 284 80 19 33
348 17 254 104 68 59
363 169 243 120 97 71
331 43 220 110 91 73
339 859 279 152 118 93
351 19 251 112 52 53
336 48 195 124 33 18
502 894 217 95 79 64
306 349 246 86 69 52
219 805 297 187 130 102
335 46 197 126 37 20
274 932 224 71 67 70
325 299 226 98 81 63
400 514 181 139 0 34
324 38 229 72 47 34
271 129 270 115 93 69
335 47 206 118 82 58
324 48 220 84 46 38
300 898 225 52 48 48
404 617 228 156 25 46
331 40 222 112 91 71
259 537 169 74 19 27
320 926 209 76 70 69
318 675 188 68 50 31
336 436 121 90 67 50
