ply
format ascii 1.0
comment Created by Open3D
element vertex 2213
property double x
property double y
property double z
property uchar red
property uchar green
property uchar blue
end_header
322 649 337 104 28 42
321 854 264 163 115 90
246 299 261 100 81 60
198 430 288 124 10 40
316 334 336 132 94 73
256 498 381 49 30 31
246 304 261 97 80 61
211 434 264 124 9 28
221 459 335 120 5 36
251 304 261 90 75 60
279 228 266 125 99 68
297 416 210 121 43 36
242 308 262 108 86 63
363 74 241 88 52 40
262 491 378 67 21 30
193 504 304 65 23 32
427 764 221 76 57 42
360 419 237 93 27 28
346 239 264 133 102 63
363 409 301 119 92 59
262 445 158 149 13 37
321 629 340 75 29 37
246 309 261 101 82 62
378 74 272 115 96 77
495 564 331 56 17 23
243 312 262 106 85 61
246 314 262 100 81 60
229 647 323 85 64 41
246 319 264 101 82 60
252 309 263 92 76 59
422 561 280 159 14 46
251 824 286 72 58 55
428 594 278 109 88 64
297 924 266 71 64 64
252 318 262 98 80 61
251 319 263 98 80 61
269 427 204 58 45 38
229 338 290 121 94 65
411 553 306 54 37 25
363 556 315 77 61 47
281 354 321 124 86 63
404 645 222 124 95 61
252 314 263 95 78 59
255 314 263 100 83 64
287 389 275 70 56 43
267 27 293 120 87 71
445 605 395 155 22 51
352 289 279 146 105 72
231 304 290 124 95 67
278 561 413 120 13 42
336 364 260 99 85 72
236 294 299 119 95 70
272 129 270 112 85 60
239 294 302 120 95 70
401 889 290 53 46 43
232 304 295 125 96 69
387 84 261 109 39 46
416 555 309 52 37 27
230 389 264 108 88 65
332 463 318 109 80 54
416 564 280 101 26 42
236 304 300 122 97 70
300 412 218 92 78 62
316 959 275 93 87 89
239 303 302 122 98 72
232 314 295 126 98 70
341 204 266 120 95 63
265 550 348 120 62 62
206 434 266 122 8 30
233 309 298 126 98 72
265 50 236 123 105 87
241 539 210 192 7 41
385 639 252 110 66 56
486 514 310 116 16 38
235 309 301 122 97 71
281 869 315 149 113 85
356 489 224 125 9 30
238 306 303 121 96 70
429 732 224 91 66 45
326 329 271 91 78 65
336 585 465 89 41 37
241 309 305 120 96 69
490 521 318 125 11 38
367 104 245 114 60 48
281 21 302 143 95 76
369 179 262 137 104 63
235 314 301 123 96 71
295 868 352 138 104 104
345 54 258 128 28 35
233 319 299 129 99 72
251 836 336 203 142 115
484 606 403 195 17 65
290 868 304 126 94 68
237 314 303 121 97 71
400 580 398 139 1 44
351 12 290 99 48 53
249 702 278 49 29 36
401 595 443 100 32 40
241 314 306 120 95 69
234 830 325 215 146 115
355 364 310 125 98 67
269 678 258 123 6 30
242 294 304 121 95 69
399 71 249 108 42 44
361 919 370 46 41 41
273 106 239 137 61 61
436 733 219 88 67 46
245 294 306 123 96 69
391 844 280 37 32 29
248 299 308 125 93 68
236 389 326 122 96 69
394 729 280 143 24 48
207 724 320 167 115 88
450 924 343 70 55 40
219 799 325 193 132 105
256 585 355 128 19 45
331 414 230 162 25 15
269 280 308 97 77 53
247 304 308 126 94 68
251 294 311 120 92 65
368 454 297 128 93 65
266 564 400 115 21 43
350 215 313 118 96 71
224 378 278 119 95 66
345 339 320 133 99 68
285 489 186 85 34 39
256 294 314 120 92 65
466 499 306 122 17 39
234 458 342 127 11 38
251 304 311 128 94 67
256 299 314 127 93 68
244 308 307 122 96 69
241 359 320 115 93 67
246 314 309 120 93 65
246 319 310 121 94 67
332 698 342 32 28 31
223 384 276 117 93 66
262 14 295 97 62 52
396 709 257 139 80 66
253 309 313 122 92 64
441 916 343 53 42 35
447 522 283 91 31 24
203 534 246 98 26 37
256 309 315 121 89 63
396 774 165 80 62 53
229 795 298 181 120 90
316 975 300 89 84 86
320 654 338 37 28 31
224 418 321 124 98 71
314 612 358 145 28 52
228 491 358 78 27 33
238 622 272 194 13 47
313 659 342 139 18 46
260 12 274 96 56 51
373 136 258 140 102 69
244 684 305 50 31 33
250 314 311 119 91 63
285 584 420 171 126 104
252 639 271 170 6 43
326 569 385 102 27 41
214 518 204 79 30 38
288 455 178 147 4 35
375 504 285 139 95 76
250 319 312 117 89 62
252 314 313 120 91 63
223 374 285 121 96 67
321 364 261 95 83 72
358 844 281 122 90 69
236 459 344 85 18 32
326 289 277 128 97 65
363 428 254 70 44 32
361 613 484 113 25 47
269 431 338 129 95 65
230 334 295 124 95 66
266 354 262 87 76 65
385 843 201 114 88 69
333 204 295 103 83 62
204 674 319 162 111 84
291 575 385 132 12 47
223 379 280 119 94 66
222 384 280 118 94 66
400 74 240 106 40 39
223 371 288 121 95 66
271 539 375 153 3 47
362 510 296 143 100 83
396 794 279 128 97 77
219 554 331 169 0 52
429 721 188 63 53 44
336 399 245 98 83 68
350 504 216 119 13 27
369 668 237 68 46 40
239 348 312 118 94 67
222 384 295 124 97 69
466 569 334 118 4 38
255 709 264 114 23 40
326 394 327 143 101 77
298 885 291 137 106 82
365 419 295 117 91 60
223 385 298 121 95 67
287 344 317 109 71 54
326 249 274 122 94 60
217 519 196 100 25 38
238 322 267 113 88 60
356 74 250 126 58 54
201 474 260 52 36 37
336 470 212 51 37 37
214 658 352 156 113 83
312 588 461 93 70 60
369 732 328 186 13 60
237 329 271 116 91 62
333 224 309 108 89 68
361 244 311 123 96 64
447 877 239 88 75 69
416 923 340 79 65 54
326 931 253 93 83 84
215 545 219 124 22 46
394 729 295 164 16 49
229 794 347 177 128 99
315 546 408 90 19 38
306 604 470 177 123 116
194 504 310 120 23 42
240 329 268 112 88 62
370 737 223 60 48 41
239 334 269 111 88 62
231 329 280 118 93 64
432 579 315 80 34 38
250 819 284 65 54 51
296 534 324 149 27 65
208 744 316 168 117 88
376 159 275 119 94 66
230 324 285 118 93 64
317 633 237 146 15 39
430 549 271 148 7 38
356 364 305 123 97 66
271 679 256 127 4 31
230 329 285 117 92 63
256 339 320 116 90 63
317 359 267 90 78 66
298 492 376 82 23 29
336 15 261 136 43 40
225 369 280 118 94 67
236 324 304 125 99 73
391 596 440 68 30 36
291 535 347 103 61 54
229 334 285 115 92 64
215 584 325 167 3 51
396 923 326 60 52 51
260 79 272 101 44 45
389 612 255 78 44 28
279 934 299 52 49 51
260 433 180 58 23 26
232 324 275 131 100 71
234 324 273 126 97 68
351 34 288 104 46 46
234 329 273 122 96 65
437 928 349 90 69 52
350 169 264 123 94 59
270 139 251 129 100 69
276 39 285 118 30 47
313 290 320 104 83 59
372 545 228 123 30 41
240 339 269 108 87 62
237 344 270 109 88 64
270 699 253 106 15 32
346 554 355 58 45 31
218 409 300 119 95 69
391 654 247 138 86 71
399 752 168 55 46 41
406 584 390 141 10 37
239 348 268 106 87 67
238 351 267 105 87 67
391 479 260 98 13 29
339 379 328 138 97 72
397 829 187 98 75 61
287 379 285 77 61 46
214 492 342 110 14 33
251 584 235 187 8 42
230 344 280 115 91 65
328 215 280 108 89 68
416 594 290 142 91 87
323 22 285 162 117 96
384 445 242 49 35 41
335 12 268 132 63 56
229 339 285 115 91 64
451 839 250 82 69 58
272 89 235 103 48 40
246 494 374 81 20 31
382 845 279 32 29 28
406 654 225 154 108 75
228 344 285 117 93 65
345 779 218 68 54 49
253 561 358 43 28 31
403 642 223 122 94 61
271 415 235 87 73 58
229 342 283 115 93 67
217 584 265 130 28 46
232 349 275 113 92 68
361 264 275 152 103 70
358 394 311 124 97 64
407 579 274 34 27 31
271 399 331 129 94 66
227 349 285 119 94 65
366 876 308 31 29 29
505 888 325 91 83 76
228 359 277 114 92 68
476 605 400 186 23 61
272 709 349 114 18 41
219 407 302 122 97 69
366 239 305 122 96 64
234 349 273 110 90 66
356 314 300 125 96 65
343 69 279 104 16 38
212 454 261 79 30 30
269 627 378 178 114 88
336 588 430 165 18 40
242 329 266 109 87 61
384 98 264 118 51 54
393 841 243 65 61 62
317 940 373 47 45 45
274 518 196 180 8 35
361 557 315 76 59 45
266 659 339 43 27 30
246 329 264 104 84 61
261 529 196 74 29 36
417 489 293 113 105 101
191 484 280 124 8 36
289 846 273 180 121 94
242 334 266 109 87 62
391 634 259 128 78 69
212 769 330 183 124 101
351 919 255 75 67 68
235 504 370 154 5 48
351 599 335 62 29 36
230 674 312 115 70 55
333 201 293 103 83 61
246 334 264 104 84 61
356 129 261 121 92 59
256 459 354 113 15 36
255 324 263 103 84 64
257 324 262 101 83 64
381 580 339 94 36 46
303 537 407 128 11 41
352 309 316 137 102 72
253 328 262 103 83 61
470 542 297 83 25 40
206 454 265 97 25 28
356 594 228 87 27 33
388 850 219 75 66 64
305 299 305 100 79 57
254 332 263 104 85 64
246 339 264 103 84 62
307 449 204 149 0 34
368 123 252 122 86 49
301 403 245 90 77 63
244 591 243 197 10 42
329 815 238 82 64 56
276 74 235 129 55 58
273 554 337 106 65 57
246 349 264 101 84 66
247 350 262 101 84 66
301 558 338 80 64 46
315 384 327 135 96 79
237 394 329 122 96 69
214 457 258 69 38 34
218 779 338 173 120 92
249 339 263 102 84 63
227 409 261 106 86 63
259 694 263 78 33 40
296 416 202 155 20 22
261 694 260 109 20 35
251 339 262 103 85 65
256 339 262 100 83 65
391 600 463 85 22 27
257 645 341 130 36 49
226 684 309 115 79 53
348 89 283 103 15 37
401 499 275 75 18 27
360 85 248 138 21 34
351 434 230 117 19 28
366 929 369 57 50 45
250 509 386 63 28 34
328 252 272 123 93 56
249 347 263 102 85 66
264 719 342 45 24 28
347 359 321 130 100 67
296 29 265 126 70 61
369 239 272 138 103 64
238 798 287 167 112 78
395 854 240 72 61 57
249 567 365 32 29 29
205 569 285 48 33 35
237 546 213 111 21 41
257 475 363 40 27 29
230 634 367 146 107 80
251 349 262 100 84 66
431 574 296 76 48 31
329 421 224 157 24 21
245 358 322 112 90 66
456 553 320 67 12 25
231 324 295 126 97 69
310 444 311 86 64 40
230 329 290 122 95 66
210 729 335 169 115 91
466 485 299 132 20 42
365 84 244 122 67 58
296 503 306 146 17 50
378 630 248 79 40 26
361 24 259 117 99 79
231 329 295 126 96 68
246 594 245 140 17 42
229 334 290 120 93 64
273 486 332 137 98 78
266 519 194 122 13 32
363 69 242 99 48 41
363 427 260 87 66 43
357 424 249 78 61 55
330 454 217 47 34 38
331 390 327 144 103 78
270 259 299 114 90 63
261 833 285 86 67 62
232 334 300 127 98 70
356 743 329 78 55 53
215 555 230 147 19 47
233 324 300 129 101 73
371 559 360 52 38 27
266 594 354 58 24 31
356 24 258 109 58 39
283 474 322 135 95 72
204 675 325 165 113 88
237 355 266 105 87 69
239 605 258 203 14 49
246 594 347 78 26 35
234 323 302 128 100 73
470 510 313 132 12 44
198 544 285 179 0 48
234 329 302 128 100 72
391 444 246 52 37 37
233 334 303 128 100 72
351 244 318 121 96 67
223 612 314 48 31 34
276 15 261 113 99 86
386 459 255 103 25 35
351 29 259 84 43 35
234 332 302 126 98 70
378 38 264 102 90 77
236 334 305 125 99 71
217 574 250 140 18 45
376 189 285 121 96 67
451 574 335 91 7 30
388 712 257 80 32 37
239 333 307 121 96 69
346 579 425 89 13 27
311 304 281 92 77 59
400 906 313 58 50 48
228 344 290 120 95 65
281 674 249 74 28 32
356 911 354 35 33 35
215 454 259 73 31 30
229 344 292 122 94 65
357 745 327 80 65 58
232 349 304 123 96 67
235 339 305 125 98 69
408 486 280 71 9 25
358 407 263 121 94 70
387 513 268 98 35 40
370 435 260 84 49 37
356 99 254 112 73 51
233 344 304 124 96 68
363 424 270 102 82 59
358 73 247 138 23 40
356 744 219 48 36 37
360 272 277 151 104 72
235 344 306 123 97 68
228 406 323 126 99 70
414 887 285 72 65 61
321 764 335 85 66 56
446 540 300 72 3 27
241 339 310 120 95 68
359 384 305 123 96 64
263 431 175 53 21 27
237 344 309 121 96 68
241 349 314 115 92 66
374 448 237 69 32 37
238 351 313 118 94 67
371 593 424 111 11 35
370 63 238 88 36 27
242 324 308 125 97 70
502 594 341 138 14 43
245 334 311 116 92 65
388 25 228 85 85 85
331 659 237 45 34 37
391 584 255 61 23 28
374 783 298 86 66 59
362 129 257 126 96 62
466 514 315 134 12 44
292 464 307 124 83 66
307 630 347 127 31 49
221 484 345 50 29 31
248 329 313 117 92 65
350 556 327 73 59 44
390 104 255 129 18 48
248 334 313 113 90 64
251 324 314 115 89 61
422 461 278 122 10 34
335 962 349 61 57 56
380 109 270 122 71 62
407 599 275 109 60 54
331 864 345 134 106 77
425 532 272 55 18 24
327 582 440 74 16 28
255 324 316 115 90 61
381 514 244 58 27 31
200 444 295 126 4 37
338 587 427 178 18 45
370 444 285 124 94 66
254 329 317 117 91 63
266 224 249 135 104 68
241 474 355 58 28 32
416 576 351 52 25 28
256 334 319 120 93 65
197 464 300 123 0 36
370 124 284 119 96 70
209 438 311 69 33 36
376 597 440 182 6 59
320 543 202 45 34 40
277 43 248 72 49 34
280 479 352 107 57 51
244 338 312 116 93 67
395 734 290 161 19 49
323 739 347 112 19 41
328 220 294 104 84 63
434 851 269 91 78 68
244 359 263 101 85 68
373 164 263 128 98 60
267 99 229 126 50 49
408 707 218 105 82 62
242 345 313 114 90 64
307 724 232 76 32 37
336 949 370 68 63 62
290 349 310 98 62 48
276 194 275 111 88 64
450 861 323 47 41 36
245 348 316 111 89 65
395 94 240 151 19 54
373 581 334 136 17 43
430 754 210 81 60 48
356 79 250 129 32 41
247 350 319 110 89 65
251 339 316 110 88 63
199 468 307 127 0 36
251 344 319 110 88 64
203 661 321 161 109 84
316 474 208 41 38 41
375 534 275 130 88 76
307 454 308 90 64 41
253 339 318 112 89 63
266 34 286 125 38 52
366 634 255 167 22 36
464 861 311 65 52 41
214 438 321 48 30 33
256 344 321 111 88 61
360 902 347 43 37 35
282 479 353 99 43 43
274 78 231 95 71 58
251 594 240 168 21 48
248 346 318 110 89 65
436 475 294 94 20 31
251 349 320 110 88 64
387 930 334 66 59 57
354 254 318 124 96 63
351 869 220 68 57 56
450 579 301 113 84 50
237 359 266 104 87 69
321 562 326 81 67 50
241 764 348 171 123 93
400 529 242 108 29 36
287 738 358 172 20 57
296 389 305 101 64 51
232 364 270 107 88 67
216 444 260 61 33 33
282 586 392 110 70 56
235 354 269 107 88 66
272 17 303 144 115 114
236 664 320 127 84 70
232 359 271 109 90 68
327 567 327 82 67 51
230 644 367 160 114 88
261 840 300 81 65 62
300 11 305 129 45 53
316 699 231 62 33 36
418 536 277 52 20 24
426 574 305 35 23 25
401 586 339 82 31 38
225 529 342 153 1 46
473 546 323 60 13 22
412 759 260 158 111 81
235 359 269 107 88 67
258 110 273 110 91 73
366 624 305 90 24 40
236 399 329 122 96 70
236 644 315 79 34 37
236 364 265 103 86 68
305 309 311 106 79 57
356 229 314 121 97 68
268 158 277 109 87 61
281 734 246 115 21 36
491 594 350 144 16 47
402 854 260 85 72 64
386 109 259 116 32 45
236 369 264 104 87 68
338 514 208 92 25 31
239 630 279 188 13 48
244 825 299 200 136 103
239 369 263 101 85 68
381 879 235 65 64 66
278 949 339 55 47 46
197 484 261 97 29 36
233 366 267 104 87 68
246 404 336 126 99 70
193 459 279 45 31 33
356 589 425 87 19 35
224 399 269 106 87 66
232 369 266 106 88 68
356 685 237 37 34 36
200 424 290 123 13 39
229 353 279 115 92 65
260 744 259 96 22 35
244 362 263 100 84 67
392 481 268 80 23 29
353 683 327 122 22 44
224 458 337 122 6 37
224 434 258 99 24 27
228 354 280 116 92 65
230 359 275 113 91 68
227 354 285 120 95 67
505 608 374 130 32 50
311 559 206 93 31 43
457 524 295 74 22 27
275 424 329 129 93 65
381 114 240 149 26 40
226 364 280 117 94 67
215 759 336 172 118 91
361 769 195 60 48 42
228 364 276 115 92 68
210 500 336 162 20 54
425 749 170 91 71 55
227 369 275 116 93 67
274 255 293 112 88 64
283 94 260 120 30 42
336 564 214 162 6 39
250 478 362 60 25 31
417 530 268 46 24 21
355 603 329 125 29 48
363 271 283 155 104 76
300 951 278 73 68 69
360 129 259 125 96 62
441 587 370 122 12 31
229 364 274 111 91 68
237 379 261 103 86 67
386 59 235 105 54 41
229 368 273 112 91 67
225 364 285 118 94 67
353 304 284 133 101 71
232 374 266 108 88 66
381 884 335 35 32 32
247 486 368 56 26 29
266 209 246 134 104 69
296 418 190 148 21 26
337 714 342 118 27 47
363 460 228 147 14 38
490 514 311 91 23 36
230 374 269 111 90 68
495 854 284 75 59 46
231 384 265 109 89 66
441 468 285 105 30 40
271 169 255 118 94 66
369 649 218 144 107 77
301 629 349 176 20 58
206 439 266 107 19 29
279 507 191 179 7 40
381 689 300 125 11 39
356 14 265 108 93 77
281 579 370 170 15 54
229 382 268 112 91 68
437 871 311 52 41 36
236 374 264 104 87 68
269 181 283 107 85 59
197 529 260 49 32 35
273 842 286 78 65 61
220 779 341 170 120 91
376 124 260 119 90 62
216 414 300 110 88 66
237 375 262 103 86 67
491 824 224 93 77 61
474 860 213 85 77 70
355 224 313 121 97 69
239 372 263 102 85 67
241 374 261 100 84 67
421 539 290 63 17 25
374 451 272 108 76 53
236 384 261 104 86 66
329 213 290 103 84 63
326 769 224 71 57 49
224 374 280 119 95 67
346 674 236 96 21 27
445 529 276 157 2 40
212 645 330 100 81 58
286 15 261 137 67 45
338 882 347 145 111 86
215 417 269 86 65 55
233 518 348 142 13 48
199 477 312 123 7 38
273 119 270 116 87 62
346 394 255 94 83 71
228 370 272 112 91 68
416 621 277 206 138 114
386 579 241 134 17 36
389 99 258 113 24 40
233 376 318 122 96 67
244 354 263 100 84 68
262 69 274 109 35 46
266 510 393 39 29 28
297 374 275 66 57 49
268 199 248 124 98 67
247 354 262 100 84 68
321 754 224 132 17 36
247 359 262 100 84 68
298 894 363 182 136 119
320 592 462 64 36 34
214 594 320 148 12 43
312 334 334 127 90 71
246 364 261 99 84 67
272 129 265 111 85 59
419 739 233 122 82 51
516 604 350 151 23 52
246 369 261 98 83 68
210 417 280 67 58 52
251 369 260 96 82 67
381 119 245 152 63 65
324 595 437 133 57 64
217 404 290 115 92 67
360 919 261 75 67 67
256 369 260 93 80 67
375 224 290 125 98 66
253 818 282 77 60 55
226 764 344 165 117 89
246 609 256 200 11 50
319 282 283 116 89 58
246 379 260 97 82 67
278 313 269 97 82 68
376 74 229 127 23 31
400 849 250 72 63 59
249 714 274 61 33 36
251 374 261 96 82 67
291 423 296 46 37 31
413 481 283 78 5 26
368 204 297 122 96 67
396 789 160 97 75 60
280 94 246 122 32 42
256 374 260 93 81 67
251 379 259 95 81 66
252 573 226 123 28 42
305 940 264 78 70 69
237 369 320 120 95 68
199 483 258 57 33 34
321 279 325 105 86 66
248 380 263 98 83 67
256 384 258 92 80 67
226 679 310 117 76 54
391 684 252 128 73 62
229 784 347 168 122 93
277 239 265 122 95 64
250 544 352 97 26 40
229 354 297 124 97 68
230 354 300 124 97 68
236 527 202 160 14 40
243 616 345 46 27 27
258 561 369 34 28 30
315 674 343 169 7 52
421 468 276 131 17 35
229 359 300 122 97 69
228 360 299 123 96 68
231 359 305 122 96 67
261 184 246 135 104 67
245 836 314 220 148 116
288 399 295 111 72 55
341 874 230 55 49 50
227 364 295 124 96 67
418 572 298 85 29 41
362 118 287 115 94 70
214 417 297 87 72 57
297 384 265 71 62 54
226 369 295 124 96 67
228 364 300 123 96 68
248 704 280 92 23 38
306 413 214 111 59 42
214 417 301 98 80 64
231 544 341 87 20 35
361 869 216 77 62 55
360 140 293 113 92 69
219 758 303 137 100 67
263 636 342 116 29 49
227 369 300 124 97 69
229 369 305 123 96 67
429 489 287 41 32 37
446 604 435 146 22 50
391 715 259 107 46 49
353 104 257 135 19 36
232 359 309 121 95 67
416 574 295 77 23 35
296 389 265 71 62 53
232 364 310 121 96 67
321 684 234 50 35 37
356 414 240 95 35 26
465 843 235 90 73 63
233 355 308 120 94 67
359 293 296 139 98 70
373 631 235 77 59 40
235 354 310 119 94 66
269 169 251 118 94 68
265 604 396 169 121 100
240 354 316 114 91 66
239 358 317 116 93 67
272 234 255 132 102 67
347 159 294 101 82 62
370 704 224 103 74 55
275 299 314 106 82 56
381 444 249 77 3 25
199 439 291 134 3 39
377 694 212 144 105 70
346 229 262 131 100 63
466 605 415 130 23 46
236 364 315 119 94 67
263 95 223 140 16 39
526 873 281 93 75 59
226 419 260 97 81 64
296 389 300 98 63 51
233 366 313 121 96 68
304 805 248 78 61 55
450 862 313 63 49 38
238 365 319 120 96 68
288 939 359 182 137 119
370 84 234 146 14 43
341 952 360 62 56 54
396 564 249 75 27 31
241 364 321 118 95 68
225 374 295 124 96 67
407 535 249 54 32 38
218 548 333 158 1 49
226 374 300 124 97 68
224 378 296 123 98 69
261 283 312 109 88 67
210 429 306 95 24 37
331 10 295 147 51 68
341 69 270 109 63 51
495 531 323 112 7 36
225 379 300 123 97 68
224 382 297 121 95 67
345 588 222 104 30 39
226 384 305 122 95 67
291 954 290 75 70 71
330 209 285 105 86 65
374 242 290 125 97 63
276 584 400 114 74 58
340 174 290 104 84 63
354 962 291 87 80 80
229 374 306 123 97 68
371 444 275 113 84 57
230 374 310 123 97 67
228 380 309 123 97 68
398 815 195 97 76 59
261 414 245 86 73 59
258 550 358 31 28 28
271 144 255 124 97 68
362 419 239 99 31 27
256 559 215 165 14 43
229 379 311 123 97 68
331 554 209 69 35 40
318 729 352 176 3 57
364 416 242 75 42 25
407 523 248 65 36 36
430 441 274 110 18 36
277 209 260 122 96 67
232 384 320 124 98 69
372 740 322 170 30 60
340 849 314 143 111 88
344 158 274 109 89 66
267 139 276 112 88 59
276 794 256 74 59 51
218 769 338 170 119 90
246 779 274 72 57 51
369 617 308 189 28 64
234 373 317 122 96 67
361 89 285 107 81 61
236 374 320 121 97 69
241 819 349 188 134 110
381 577 353 81 20 32
314 541 385 92 48 45
271 84 230 141 29 49
386 694 254 82 54 47
291 11 309 152 35 60
361 159 297 114 92 68
275 544 415 122 22 43
325 572 374 84 26 37
266 124 245 129 99 64
264 633 365 177 110 91
351 558 320 79 64 48
235 379 321 122 96 68
421 562 325 74 22 23
291 449 305 118 80 62
379 49 278 119 20 42
515 584 325 153 91 87
242 355 318 112 91 66
244 352 317 110 88 64
318 575 385 58 27 33
460 558 313 61 44 36
255 348 322 112 89 63
281 744 246 86 29 34
366 44 285 108 55 52
273 269 263 126 99 69
221 424 261 92 48 39
236 794 350 172 125 96
360 124 259 121 92 57
393 746 172 51 43 38
253 351 323 112 90 65
430 562 326 76 22 25
386 592 346 123 29 50
388 57 249 106 91 75
257 350 324 114 90 62
311 654 239 149 6 36
321 584 354 72 22 31
357 839 285 142 107 85
213 597 305 126 21 43
326 584 425 146 16 43
423 794 238 118 82 59
395 438 250 41 36 36
238 375 323 120 96 69
369 597 323 191 10 60
260 74 212 148 20 39
320 644 338 130 29 50
429 441 272 117 15 33
351 583 426 96 18 31
382 104 265 121 58 58
241 374 325 121 96 70
204 659 320 154 106 82
331 254 271 128 98 61
241 588 350 75 27 35
270 229 251 133 103 67
237 379 324 120 96 69
342 289 326 126 94 61
227 495 359 99 18 34
288 412 286 64 42 34
236 384 325 121 95 68
506 604 370 97 11 33
193 484 267 44 33 33
342 79 270 119 25 41
282 416 221 79 66 51
295 888 294 113 89 66
326 284 330 106 86 66
269 259 257 135 104 69
316 849 325 94 72 48
240 379 326 120 96 69
467 874 326 92 72 55
374 199 271 132 101 62
284 603 382 121 66 66
396 560 324 61 49 37
194 521 269 39 33 32
288 414 306 117 73 57
239 383 327 120 95 69
287 369 280 69 57 46
373 215 273 131 101 64
247 360 324 112 90 65
456 555 324 69 16 25
256 354 325 115 92 65
441 586 325 125 90 83
233 621 352 102 80 55
273 476 332 134 97 77
244 509 381 123 16 42
257 360 328 120 95 66
356 149 295 110 89 67
210 654 340 139 101 71
220 570 239 198 13 52
244 373 327 120 96 69
246 374 329 120 96 69
337 418 224 139 18 30
254 457 352 109 16 35
289 439 177 48 41 42
365 449 304 131 95 68
211 474 330 78 20 32
242 380 328 120 96 69
191 499 275 140 0 38
284 434 314 127 86 65
331 385 251 93 82 71
242 384 329 121 96 69
218 607 292 191 22 62
326 844 320 137 106 81
246 384 331 121 95 69
250 379 332 121 96 68
368 264 300 132 98 67
249 382 332 121 94 68
232 554 343 103 24 40
256 377 332 124 96 69
461 590 354 157 16 41
325 465 212 62 37 42
192 474 285 135 4 37
261 89 273 105 48 47
192 489 275 73 23 32
282 379 321 130 89 68
273 68 228 116 50 50
476 601 363 151 16 46
410 734 254 162 110 81
246 424 340 129 99 71
424 624 256 193 132 102
191 489 280 137 3 37
356 284 280 150 102 72
371 576 409 89 19 27
273 173 271 109 86 60
404 725 258 157 103 77
191 484 285 133 3 36
191 489 285 138 0 37
358 284 284 149 101 72
191 494 275 126 5 37
435 608 290 201 129 105
191 494 280 139 1 37
192 499 270 139 1 38
511 607 350 131 28 53
385 598 456 107 7 35
242 476 358 30 29 29
326 463 213 55 34 37
418 512 279 59 16 26
191 499 280 143 0 38
195 444 280 124 6 34
192 504 275 144 0 38
460 541 295 175 10 43
304 510 367 77 4 28
334 433 222 63 36 33
191 504 280 146 0 39
192 509 285 149 0 39
192 484 290 136 0 37
363 741 327 179 19 56
252 649 360 183 118 96
277 364 268 75 65 56
259 660 268 139 0 35
331 467 213 65 38 38
296 555 203 159 4 36
393 576 318 157 23 53
375 104 238 138 16 37
266 494 381 87 28 35
246 473 356 53 28 31
418 636 256 192 129 100
207 509 329 41 30 31
292 479 305 133 85 71
191 494 290 143 1 39
241 579 365 148 13 48
315 892 368 188 136 119
191 499 290 147 0 39
289 468 182 90 39 46
377 430 247 95 7 32
219 468 337 132 4 40
257 779 347 154 115 82
344 859 229 64 57 57
278 11 267 112 89 75
321 369 331 141 103 78
420 571 350 65 14 26
223 395 271 111 89 66
388 759 296 99 80 72
341 539 210 101 31 40
223 399 271 107 87 65
381 104 236 147 19 39
400 715 258 149 91 73
223 389 275 118 94 66
331 571 375 99 23 39
323 235 277 118 93 64
389 798 283 71 57 48
286 589 373 77 24 34
398 777 162 82 62 54
219 399 280 115 92 66
220 394 280 119 95 66
279 264 272 111 88 62
350 64 254 132 23 34
221 399 275 110 89 66
461 581 345 61 18 26
219 397 283 119 95 67
286 904 300 111 89 68
375 164 270 123 97 65
218 396 286 120 95 68
301 359 320 118 82 63
261 19 295 112 53 54
384 602 290 112 22 44
222 404 270 105 86 66
294 709 238 128 12 33
223 405 267 106 86 63
391 59 240 96 64 51
374 719 218 123 92 69
260 70 212 132 23 30
306 554 204 72 32 37
222 409 266 102 84 65
271 514 191 150 10 33
226 614 320 158 16 51
287 464 179 110 26 38
391 554 310 69 43 42
377 619 260 87 19 33
275 94 240 117 71 56
221 414 265 96 80 64
293 470 189 43 33 36
426 594 300 168 115 105
285 479 181 110 30 42
425 789 245 134 93 60
275 334 323 121 87 61
335 670 333 137 15 45
282 64 245 123 55 52
218 416 267 86 73 60
219 412 268 92 78 65
257 674 333 72 27 35
344 89 270 97 75 52
285 464 177 127 14 36
224 388 302 122 96 68
278 238 277 124 100 73
213 425 309 55 30 32
273 309 263 100 85 70
371 664 240 80 52 46
254 754 263 119 13 34
217 409 275 101 83 65
421 898 295 73 62 58
238 512 359 171 4 54
212 416 280 68 59 53
278 234 265 123 96 65
388 615 258 92 29 30
364 101 248 119 67 51
411 623 274 199 132 111
218 404 280 107 87 65
375 144 275 119 94 65
327 11 285 147 80 74
256 573 385 59 31 35
311 609 467 139 88 82
225 389 305 124 97 68
219 402 278 109 88 65
322 11 300 151 36 60
374 916 363 43 39 39
372 34 286 116 47 53
371 699 220 140 104 77
217 404 285 111 90 66
380 99 275 117 81 66
481 585 354 130 12 40
336 941 372 64 59 58
221 389 295 124 97 68
352 595 336 79 29 36
218 399 290 120 95 67
263 15 298 126 102 88
337 44 279 106 81 63
376 425 248 101 10 32
358 413 258 100 59 43
220 394 295 124 97 68
219 399 295 123 97 69
222 394 300 122 96 68
291 844 305 138 92 70
341 552 355 61 47 34
274 450 333 133 100 71
403 770 157 92 67 51
222 399 305 122 96 68
300 428 307 87 56 38
223 400 308 122 95 67
351 44 254 111 29 29
426 723 164 98 70 46
222 499 354 150 3 45
218 401 293 121 96 67
350 59 254 127 30 33
218 404 295 119 94 67
376 849 205 127 96 72
223 430 328 38 31 33
306 550 414 114 10 37
219 403 296 122 97 69
366 109 284 117 95 70
219 404 300 122 96 69
285 36 257 106 39 28
310 772 338 83 65 56
218 406 298 120 96 68
194 529 295 142 8 42
219 409 305 124 99 70
302 507 387 30 28 28
253 779 267 73 58 50
342 649 326 80 27 39
346 399 254 98 83 68
343 69 261 126 44 43
390 704 290 138 18 45
223 404 309 124 97 69
386 574 241 118 12 28
356 14 295 92 40 44
354 314 313 141 105 77
203 445 304 106 16 34
286 11 270 124 70 59
481 608 405 213 12 71
270 427 174 93 37 32
245 694 300 43 28 32
281 634 348 80 27 37
223 410 314 126 99 69
219 413 307 121 96 69
220 414 310 122 96 68
316 784 230 78 61 54
319 882 273 57 50 45
229 414 327 129 102 74
336 395 246 96 84 71
218 416 309 116 93 68
374 552 277 84 56 46
222 414 315 124 98 69
400 669 244 161 106 80
282 348 274 74 64 54
223 416 318 126 99 69
346 710 227 62 35 36
375 553 280 84 57 48
423 712 185 66 54 43
233 621 364 127 98 68
206 420 270 113 20 35
376 894 260 71 63 62
357 844 285 135 102 78
195 509 310 126 18 41
336 649 330 39 28 32
470 591 354 167 19 41
246 619 381 153 111 86
205 424 269 128 14 34
204 438 301 115 11 36
377 619 285 187 3 58
202 429 271 126 9 31
281 514 200 139 5 29
212 420 267 90 40 35
386 449 249 57 30 37
286 11 275 120 64 55
253 689 271 41 36 40
377 659 212 136 100 65
346 254 321 123 96 64
207 429 266 124 11 31
290 11 271 126 56 47
205 429 268 128 9 33
214 647 323 93 77 58
271 11 295 108 74 61
339 977 302 73 67 70
451 459 285 106 22 38
200 424 275 127 14 35
229 684 348 167 112 89
396 443 252 46 35 34
331 284 329 112 89 65
198 421 283 122 31 43
278 650 252 138 3 32
365 414 280 103 85 65
314 546 347 78 60 44
296 850 275 178 121 92
416 885 290 70 61 56
198 424 285 124 9 39
199 423 286 124 10 39
403 689 247 156 103 77
276 423 190 34 25 27
351 24 299 134 22 52
245 493 372 80 27 34
316 314 279 88 75 62
296 589 395 109 38 51
197 429 280 116 11 33
315 774 228 78 61 54
369 420 242 97 30 26
256 464 356 92 20 33
422 899 325 72 61 55
226 744 346 172 118 93
198 429 285 123 8 35
237 434 339 108 20 36
316 604 440 126 59 61
426 799 250 132 90 62
199 427 287 127 8 38
259 88 272 103 22 39
378 76 227 137 24 36
192 489 270 78 30 35
260 570 392 58 29 33
202 420 275 130 19 41
266 69 275 114 20 41
384 469 252 155 20 46
364 932 368 69 58 55
203 420 272 139 13 37
261 59 220 92 41 20
405 729 175 62 50 41
461 581 360 94 4 27
436 469 285 140 18 38
399 79 235 118 30 41
288 350 284 65 57 48
366 704 331 158 16 50
206 418 275 99 34 37
351 254 266 140 103 65
206 418 280 85 43 42
371 159 261 132 100 62
206 417 285 68 56 47
316 774 335 83 64 54
414 725 235 136 91 57
364 478 303 143 104 82
322 601 443 175 111 101
372 422 244 92 30 27
200 444 269 116 13 31
438 522 273 55 37 27
198 445 272 116 8 29
202 434 270 122 11 33
316 509 198 93 30 36
421 584 380 145 5 35
219 422 317 68 36 30
485 873 284 91 70 55
204 434 268 121 11 32
206 444 265 96 27 31
269 82 222 149 16 41
206 449 265 98 25 31
354 525 217 136 12 37
335 244 268 131 100 63
352 557 328 68 54 39
197 504 320 41 30 32
199 434 274 119 8 32
313 349 333 132 95 75
197 434 280 120 9 34
276 219 260 124 98 67
335 331 272 102 85 67
270 630 253 100 34 44
326 570 420 84 3 27
272 809 341 158 123 94
199 438 273 118 10 33
223 774 343 166 117 88
279 874 315 153 116 87
197 439 285 131 3 38
212 574 320 154 0 45
196 444 275 119 9 31
249 715 339 131 84 72
311 593 466 102 80 63
294 765 243 72 58 52
377 550 285 80 52 44
291 504 390 70 26 31
211 418 270 85 46 40
293 507 358 79 21 30
211 424 266 129 12 32
273 169 270 108 85 58
436 601 435 113 17 38
331 945 264 96 89 90
235 729 295 114 28 38
217 419 266 85 66 53
217 429 262 112 17 24
331 509 205 67 31 35
325 239 300 106 86 64
211 429 265 122 14 29
435 873 309 57 46 41
286 854 335 176 129 107
275 179 260 122 97 69
259 51 227 125 104 81
398 86 240 141 24 50
360 556 293 87 67 49
220 419 263 87 74 60
219 422 263 88 56 45
209 759 315 173 118 93
300 354 315 113 77 61
222 420 261 87 74 60
391 759 171 60 47 41
278 84 243 138 22 47
221 429 260 101 23 24
312 578 413 111 11 36
405 887 305 70 61 55
363 413 270 100 83 64
211 417 285 65 59 53
304 454 307 92 63 43
214 434 263 121 11 29
264 770 258 67 53 48
271 575 218 182 4 40
341 27 290 130 63 62
333 797 227 82 65 54
276 639 254 82 27 35
232 708 308 111 73 51
326 349 334 140 95 71
379 651 247 99 60 53
286 420 181 88 43 37
216 439 261 80 27 31
214 439 263 85 25 30
264 20 297 112 68 59
211 444 264 81 29 32
361 874 216 89 72 59
210 449 264 75 31 32
421 764 170 93 73 55
306 854 271 176 119 92
324 878 260 52 48 50
314 898 263 49 46 49
234 403 258 108 88 65
214 442 263 73 33 34
345 364 324 132 97 69
487 606 380 102 20 39
261 29 254 106 90 75
213 445 262 65 35 31
221 449 330 125 7 37
230 744 299 85 62 48
212 449 262 66 32 34
277 404 327 129 91 67
354 329 309 140 104 76
241 618 345 57 39 31
218 491 348 45 25 28
216 449 259 60 34 33
245 689 330 93 59 53
274 473 333 135 96 76
496 550 328 84 8 29
351 39 286 118 14 43
279 950 300 73 69 69
238 466 348 49 26 29
221 434 259 104 21 26
373 209 292 121 96 67
229 389 316 124 98 69
292 517 317 156 18 62
364 639 299 146 15 48
301 24 275 139 35 50
268 218 292 112 88 62
346 254 266 134 101 62
387 489 254 143 15 40
255 453 352 122 13 39
261 189 291 113 92 70
390 84 258 101 44 48
271 426 175 98 37 32
407 759 266 152 107 78
223 436 257 103 21 25
203 420 294 86 23 36
266 563 211 74 32 38
219 444 258 60 33 32
341 410 229 134 26 22
201 420 290 107 18 37
206 418 290 71 53 42
339 879 345 142 110 83
384 50 269 93 35 38
385 592 353 124 31 48
204 424 297 82 26 36
284 464 319 131 94 70
231 660 362 180 120 96
231 598 343 38 24 28
241 514 194 160 9 38
206 424 300 66 29 35
437 606 291 200 127 103
291 734 241 131 16 41
207 651 321 115 91 67
353 441 317 136 97 69
276 35 287 120 35 49
316 383 253 92 81 70
456 580 355 87 16 30
202 429 295 78 24 34
428 726 198 68 53 41
193 470 272 59 26 36
291 10 300 141 44 53
321 570 444 94 31 40
451 474 295 96 24 36
206 429 300 61 27 34
251 399 337 126 98 69
456 465 290 115 24 38
198 434 289 130 7 40
273 516 326 144 55 66
451 499 306 110 4 34
353 50 252 128 25 33
368 645 221 129 98 70
199 434 291 119 11 37
241 419 336 127 99 72
403 606 273 124 67 66
311 865 353 157 123 98
364 665 247 79 25 23
208 542 236 182 11 54
251 833 340 201 142 115
198 444 290 132 4 38
317 968 286 86 83 85
199 443 292 131 4 40
327 239 305 107 87 66
277 249 265 121 95 64
430 596 394 91 10 28
288 413 280 61 49 39
201 459 265 80 30 32
197 449 290 130 5 38
257 569 390 67 31 35
304 501 378 79 8 31
329 218 296 104 85 63
198 446 293 127 4 38
346 584 354 122 9 38
260 764 259 82 41 45
411 484 276 115 21 36
263 442 342 119 89 61
328 411 218 182 9 18
504 596 329 150 27 41
326 384 328 142 101 77
198 450 294 126 3 37
373 488 238 54 39 40
372 649 280 124 29 48
486 834 225 90 81 72
335 956 273 95 89 92
203 440 299 120 8 37
341 484 312 119 85 62
366 659 250 57 26 31
205 434 300 102 19 37
206 439 305 75 26 33
195 464 295 109 11 34
308 319 329 119 84 63
466 948 330 96 77 59
328 255 318 112 91 67
241 659 315 98 40 45
202 444 300 115 5 34
318 429 318 135 95 78
201 449 300 117 2 34
445 515 286 64 26 32
395 94 245 144 10 54
228 581 345 92 24 37
391 828 191 112 87 67
289 369 290 78 58 42
202 449 305 117 7 35
456 594 374 136 13 45
204 442 302 98 14 35
205 444 306 76 26 34
214 505 337 80 23 36
206 444 310 48 30 32
376 629 235 80 63 43
409 499 277 72 24 31
205 449 310 83 19 34
312 590 352 82 18 31
426 874 320 43 37 34
351 444 319 137 98 70
388 865 233 69 65 66
372 134 281 117 94 67
211 418 300 81 46 42
341 729 336 153 22 53
212 420 304 84 30 35
310 583 380 88 26 40
264 452 162 181 7 45
281 424 175 67 45 44
291 418 205 122 40 34
281 843 276 171 124 96
283 89 255 108 78 60
279 604 376 109 63 60
208 424 303 61 30 34
194 488 302 87 16 33
371 848 202 106 80 66
291 10 305 143 36 54
345 324 277 122 96 65
357 804 200 57 48 46
326 304 277 112 89 61
208 429 304 89 24 37
361 943 355 61 54 51
361 104 286 118 96 72
217 419 310 88 66 53
199 529 254 56 33 36
388 572 243 114 17 29
215 423 311 63 31 34
202 499 329 73 26 36
212 429 310 66 30 36
274 83 236 131 34 45
418 738 226 76 54 35
217 424 315 55 29 33
374 149 265 124 97 65
213 430 313 44 32 34
333 786 322 80 61 53
379 39 275 102 24 36
368 644 253 131 20 39
251 794 274 71 57 52
220 424 320 55 37 34
343 353 268 108 91 73
326 12 280 148 88 76
222 419 319 115 92 68
340 418 232 151 24 21
218 425 318 35 29 32
217 429 320 53 31 34
371 739 324 191 13 61
205 514 326 81 31 37
320 396 242 100 87 73
390 60 250 99 84 68
416 564 265 172 16 47
429 716 205 74 59 44
209 433 306 107 18 36
210 434 310 68 29 33
209 699 313 152 107 77
350 324 315 141 103 78
211 439 315 57 31 34
214 433 316 82 29 36
210 444 316 44 30 31
212 444 320 62 28 33
338 49 265 129 100 76
368 154 292 118 95 68
326 459 317 102 75 51
271 418 230 86 72 58
209 448 317 89 19 35
321 849 325 118 93 68
424 856 278 82 73 64
415 494 292 74 19 29
295 739 239 43 33 41
317 269 310 106 86 65
471 610 395 214 20 67
211 449 320 116 14 39
400 809 185 99 76 60
228 385 267 111 90 67
225 404 315 124 97 68
280 584 366 91 23 38
315 325 337 129 91 72
331 939 256 97 89 90
229 394 264 107 87 65
342 189 266 121 95 62
266 489 345 131 89 74
291 20 301 150 104 83
271 604 400 174 121 102
371 74 280 110 29 43
281 615 347 53 25 29
310 851 349 139 111 85
274 921 336 194 147 127
229 398 263 106 87 64
225 394 270 110 89 66
321 674 340 169 7 54
230 774 290 146 101 71
301 854 351 173 130 111
233 386 262 107 88 66
221 429 325 44 29 31
357 424 234 56 36 38
362 756 211 63 49 42
265 174 246 133 103 68
336 29 261 128 73 57
272 684 343 39 27 29
261 459 356 87 21 33
241 389 260 102 84 64
338 552 354 65 51 37
354 364 280 117 94 68
350 549 217 149 5 34
236 394 259 105 86 65
454 838 249 83 70 58
222 434 329 39 29 32
263 679 338 47 26 30
336 654 240 94 23 29
261 119 240 138 101 69
266 11 290 101 63 55
262 836 331 187 128 104
236 399 259 106 87 65
303 764 237 80 52 51
239 397 258 103 85 66
239 520 352 42 24 28
424 779 245 142 99 64
194 462 285 32 32 34
289 492 196 68 28 34
236 494 366 70 24 31
362 134 257 126 97 62
261 506 188 48 37 42
311 694 350 146 8 46
198 537 262 152 17 45
399 705 212 99 78 53
423 798 238 97 67 51
224 389 273 116 93 67
373 244 285 129 99 63
344 153 280 101 82 61
301 334 315 101 72 53
225 404 265 107 87 64
427 579 305 88 41 47
225 590 254 201 14 53
230 409 259 108 87 63
432 731 224 70 53 40
251 578 370 137 9 44
224 412 263 105 86 64
295 555 333 83 65 47
230 414 258 106 86 62
347 714 337 39 28 31
351 204 261 124 98 66
236 404 257 107 87 64
238 401 257 105 87 66
365 903 250 69 62 64
345 389 256 94 83 72
242 395 257 101 85 66
384 752 179 54 45 40
280 84 273 109 20 42
223 808 330 197 136 107
245 393 258 101 83 63
266 629 375 179 111 89
283 558 424 78 28 36
341 574 420 96 12 30
348 389 322 136 99 70
282 38 253 97 34 29
226 659 362 175 120 97
248 391 257 100 83 64
353 863 217 71 59 56
372 925 284 66 58 60
352 37 288 122 15 41
316 649 340 157 18 51
372 454 285 126 93 63
406 659 240 176 118 92
328 547 376 72 43 38
231 389 320 122 97 68
224 397 307 121 96 68
296 369 290 71 57 48
225 399 310 122 97 68
289 399 301 114 73 57
260 769 342 137 93 68
272 479 348 127 84 69
228 394 315 122 96 68
227 399 315 122 96 67
268 531 408 95 27 38
323 235 289 106 86 63
331 570 420 92 6 30
298 394 313 122 81 67
229 393 317 124 98 70
452 519 313 101 1 32
359 556 332 57 43 28
346 269 269 142 105 67
194 509 305 40 29 34
209 754 325 177 119 95
356 905 245 71 63 62
309 429 312 113 82 63
230 394 320 123 98 70
265 413 244 90 76 60
229 399 321 124 98 70
224 403 311 124 98 69
471 534 321 113 1 36
227 404 320 124 97 69
324 229 285 108 87 65
461 564 331 108 6 34
362 424 260 85 65 43
367 605 316 190 10 60
275 249 290 113 90 65
224 409 316 126 99 69
411 614 280 186 126 113
282 612 237 187 7 46
281 519 321 157 18 64
224 413 317 126 99 70
485 510 307 122 21 38
226 424 259 87 67 51
366 719 332 56 30 34
296 559 334 82 65 46
198 455 299 118 1 35
288 532 197 150 0 35
260 497 382 42 31 30
229 418 258 103 84 62
537 893 301 104 89 79
389 108 254 128 12 46
223 508 344 91 25 38
405 759 269 141 98 68
228 425 257 87 62 41
278 95 272 111 62 55
242 520 198 175 7 36
222 425 324 70 37 37
337 869 340 133 104 75
386 626 227 101 84 64
218 431 323 72 32 38
217 439 325 53 28 33
445 505 292 48 29 32
218 450 328 126 6 37
244 759 348 175 123 94
439 931 346 99 80 60
214 443 322 87 31 39
209 569 316 159 5 49
497 873 211 113 92 73
310 374 326 129 94 75
208 490 334 121 9 35
406 650 246 190 126 99
261 354 327 118 91 63
216 449 325 125 8 37
404 837 260 87 70 60
219 438 327 74 27 34
417 715 171 104 76 51
199 524 317 90 25 37
275 114 260 125 94 68
226 533 206 196 9 42
382 83 227 149 16 43
336 809 230 80 62 54
232 394 324 121 97 70
438 577 298 106 77 35
270 119 274 114 91 64
236 814 300 195 131 101
233 386 323 122 97 69
221 714 346 169 117 92
386 583 400 109 31 42
241 389 330 122 97 71
366 499 296 148 107 88
360 219 309 123 98 70
424 596 297 172 117 108
225 595 260 201 9 52
441 509 305 99 2 32
443 595 288 129 94 61
238 390 328 122 97 70
380 459 245 146 17 39
235 394 326 122 97 70
399 587 267 58 32 32
346 79 280 103 82 62
234 398 327 123 98 72
240 399 331 123 98 70
231 404 325 125 98 70
417 508 288 63 12 25
331 764 221 72 53 49
276 319 265 92 79 66
214 458 327 126 2 38
371 254 295 133 100 69
393 844 230 74 65 63
329 218 273 114 92 66
410 653 240 191 126 96
395 479 254 86 16 32
228 410 324 128 101 72
232 409 329 125 97 70
287 860 316 125 94 71
346 11 290 109 53 62
403 799 195 74 56 49
506 869 187 109 92 79
231 414 329 126 99 72
330 12 274 141 79 70
261 154 244 129 99 62
350 696 232 100 22 26
470 483 297 121 18 40
239 403 332 124 98 70
314 278 310 102 82 60
412 574 279 55 27 30
238 764 277 57 26 34
301 520 399 61 29 30
450 604 395 168 27 57
241 404 334 124 98 70
265 448 161 169 7 38
207 484 329 32 28 30
237 414 333 125 99 71
236 583 359 92 30 42
275 104 240 131 38 47
438 522 293 80 19 24
338 863 322 144 111 85
224 427 327 69 25 36
241 414 336 127 99 71
278 242 268 121 94 64
301 533 406 128 11 41
245 388 332 123 96 69
327 674 337 166 8 52
380 85 228 150 16 41
298 340 313 103 73 56
328 547 359 69 50 39
336 599 355 161 18 53
244 393 332 123 96 69
332 596 223 43 36 36
246 394 334 125 98 69
381 438 248 89 0 30
410 759 264 157 110 82
346 144 285 101 81 58
251 389 335 125 97 69
256 389 335 126 97 69
490 864 289 78 62 45
224 774 298 121 87 57
356 384 275 109 89 67
368 92 242 133 30 40
256 399 336 129 101 70
443 523 279 91 39 22
409 597 275 99 56 45
226 644 365 155 112 85
279 245 279 124 99 73
245 409 337 126 98 69
244 413 337 127 99 70
302 499 370 76 0 28
286 540 419 73 27 33
400 837 247 73 64 59
316 369 330 136 99 78
246 414 339 127 98 70
262 421 231 88 74 58
431 479 290 102 22 35
261 59 275 100 38 41
251 405 338 127 99 71
337 663 238 59 35 31
321 799 235 82 64 54
308 508 380 75 14 29
388 57 255 100 85 64
381 118 250 120 70 64
281 444 320 126 90 66
328 592 460 83 16 32
248 406 338 126 98 70
335 734 223 53 37 39
274 901 323 175 128 107
251 409 339 128 100 71
505 591 319 165 60 63
398 592 402 103 26 37
201 554 280 177 0 47
256 409 338 132 103 72
316 714 229 118 16 31
310 434 312 99 72 51
271 406 250 90 75 60
276 64 235 103 55 48
357 615 239 62 32 34
256 414 339 133 102 71
411 571 314 81 15 30
266 32 253 109 94 78
267 460 168 55 37 37
441 534 276 185 2 44
227 424 329 99 76 57
354 152 263 122 94 60
239 668 345 146 93 76
231 419 330 126 99 71
347 354 320 127 98 64
217 603 285 190 1 51
301 411 220 96 80 62
217 774 305 167 112 83
242 814 290 187 126 96
383 809 177 86 65 54
234 418 332 125 98 70
236 419 334 124 97 70
276 694 250 126 7 29
366 45 252 93 74 57
343 908 248 63 58 58
234 422 332 122 97 70
233 426 333 113 90 66
309 817 323 153 114 90
386 54 265 99 31 39
319 521 308 152 14 58
306 954 275 73 67 69
240 424 337 124 98 70
407 435 263 92 12 31
374 737 214 85 66 51
386 734 315 144 27 51
374 744 209 66 53 42
326 489 309 114 75 58
332 245 318 111 91 69
316 575 425 70 10 25
484 866 310 67 52 44
368 209 297 122 97 68
281 479 179 64 36 40
437 890 319 89 75 65
239 428 337 120 95 69
238 431 338 90 63 40
225 434 331 38 30 31
225 439 332 79 26 35
326 11 295 150 48 65
206 564 270 75 34 40
310 792 237 80 63 56
312 414 318 134 94 78
227 439 333 37 29 30
224 444 332 127 12 40
354 299 313 137 101 71
324 706 348 153 23 50
226 449 334 125 9 38
230 444 336 81 23 34
261 408 249 87 74 60
231 516 193 199 10 39
341 750 327 81 63 53
229 506 356 183 4 53
351 744 330 74 59 53
234 437 337 72 25 35
236 439 340 110 18 37
422 513 289 62 18 24
241 434 341 113 42 41
207 559 315 165 0 50
240 439 342 123 14 39
195 469 270 55 33 36
236 444 340 96 21 35
450 469 287 106 31 39
461 608 420 116 29 51
239 444 342 118 17 40
316 464 311 99 69 49
326 264 320 108 88 66
239 448 342 52 27 30
267 89 225 153 22 48
243 419 338 128 100 72
246 419 339 128 99 71
340 39 259 127 27 34
258 774 262 68 54 49
246 429 340 130 100 72
423 876 316 38 35 34
326 359 332 143 100 76
265 169 246 132 104 70
326 399 240 101 86 71
291 49 260 137 35 44
281 789 254 75 60 52
251 419 340 131 100 72
316 419 205 135 12 33
251 424 341 132 101 73
256 424 340 133 100 71
287 374 316 126 81 64
402 864 285 43 36 35
214 754 308 150 104 77
401 633 264 165 106 90
209 584 300 166 11 49
316 379 255 92 81 71
415 634 235 135 100 64
243 436 343 116 19 36
348 459 317 133 94 68
256 563 375 76 20 30
381 888 315 33 30 32
247 435 343 111 74 53
394 779 168 72 58 52
381 779 295 89 69 62
391 684 212 119 88 53
251 435 343 126 96 70
390 869 240 63 58 58
377 48 253 120 105 90
402 844 260 82 66 56
381 828 269 57 45 41
463 879 263 87 71 57
231 594 344 89 21 36
381 118 242 147 37 43
258 524 197 90 25 34
259 544 357 121 21 43
362 399 285 104 86 67
255 436 343 130 99 71
331 434 221 46 37 41
311 594 221 46 36 39
192 509 280 149 0 39
509 601 328 158 18 22
458 873 227 88 70 62
250 443 347 100 27 39
366 659 230 96 65 54
251 444 348 114 24 40
318 327 338 133 94 74
296 24 295 150 94 81
278 214 265 122 96 67
347 480 312 127 89 66
248 446 348 83 26 33
255 576 376 120 14 40
358 69 247 130 23 33
306 764 344 88 69 60
314 866 273 161 119 87
489 834 225 91 80 69
304 323 316 96 72 49
251 449 349 94 20 34
468 582 350 68 17 24
296 404 305 91 59 44
497 569 334 50 19 23
256 444 349 97 34 37
247 577 232 73 34 38
344 839 238 55 49 49
196 454 270 69 30 35
383 55 272 109 30 43
271 439 335 128 94 67
264 82 217 152 16 43
202 454 266 108 21 29
424 768 223 73 57 44
198 460 267 50 35 37
268 476 368 64 25 30
302 409 313 122 81 67
263 219 297 113 91 65
200 464 264 78 30 32
374 421 246 92 22 30
205 458 264 69 32 30
307 349 329 122 89 69
204 462 263 47 35 35
194 454 275 58 30 34
195 454 285 133 12 38
373 702 217 145 107 77
447 519 309 97 4 31
331 609 345 50 29 35
306 459 205 145 1 34
194 458 281 51 28 31
341 414 240 147 23 21
315 855 349 147 116 84
326 14 300 157 36 65
261 459 164 162 5 35
516 877 203 101 83 67
247 509 384 49 26 32
193 464 275 79 31 35
284 78 252 125 75 61
274 596 377 103 61 52
383 855 214 81 67 60
359 288 291 144 99 71
406 609 250 104 88 69
394 66 258 107 37 42
286 504 199 145 2 29
194 464 273 82 31 33
194 459 285 72 24 35
373 635 259 133 36 44
241 634 376 169 119 95
366 654 251 60 27 32
265 499 339 135 94 78
449 457 282 108 22 38
409 730 253 162 110 81
346 154 290 102 82 61
406 459 270 161 15 39
194 462 282 36 31 33
248 699 281 50 30 35
276 239 285 114 91 66
424 779 240 137 95 60
331 449 320 117 85 60
200 469 264 87 31 31
375 784 184 58 47 43
405 774 273 160 118 88
290 364 295 87 62 46
350 174 264 125 97 60
197 469 266 63 33 33
196 474 265 51 35 36
355 584 226 142 9 34
377 504 275 128 83 67
198 476 262 41 37 39
293 401 288 62 47 36
194 473 269 69 32 36
300 829 258 53 48 50
356 379 280 111 90 66
232 823 340 198 134 107
371 89 236 145 14 44
193 479 270 51 31 35
350 474 313 132 94 69
266 843 305 65 54 54
361 429 310 132 100 69
194 478 268 43 34 34
337 554 310 95 78 59
247 481 363 47 28 29
336 384 254 95 83 72
345 304 276 127 98 64
299 880 293 153 111 85
370 57 243 102 85 66
271 819 340 168 126 99
278 469 327 134 96 72
202 469 261 82 32 31
316 529 199 69 34 39
286 399 265 73 61 47
363 232 307 121 95 65
205 469 259 68 35 33
229 610 273 202 14 52
352 789 311 55 45 43
203 476 257 71 34 39
336 479 210 98 28 32
204 472 258 54 32 30
223 475 343 129 5 36
192 469 280 85 27 34
357 619 316 124 31 49
193 469 285 117 16 38
289 38 283 124 15 44
289 857 318 115 85 63
396 789 280 119 90 72
496 529 320 89 19 32
192 474 275 87 27 35
311 314 335 121 90 67
192 479 275 60 29 36
266 29 290 129 35 53
322 837 252 168 119 93
209 454 263 83 30 31
321 574 444 68 27 32
326 869 265 69 56 52
285 474 319 135 95 73
211 459 260 63 35 32
248 674 286 89 23 37
209 457 263 66 30 25
229 566 228 128 13 38
271 27 294 141 40 60
218 486 343 66 16 25
212 554 240 52 28 35
395 538 241 38 34 40
434 602 448 165 20 56
359 213 262 130 101 63
215 564 245 186 6 50
209 463 258 60 35 33
437 907 335 50 41 39
375 444 237 55 37 37
276 459 359 101 19 35
343 201 308 108 89 69
218 450 257 64 34 35
253 522 374 169 2 52
314 450 312 89 67 42
196 454 290 130 5 39
199 454 300 117 1 35
356 114 287 112 91 68
488 820 223 93 77 60
369 659 237 84 57 50
323 22 280 141 33 57
194 464 290 58 25 33
197 459 300 119 1 35
198 461 303 122 0 37
286 749 244 51 35 38
388 111 252 133 18 48
401 854 250 69 61 58
223 807 316 190 127 97
351 634 244 52 31 34
203 454 309 124 2 37
303 349 324 116 81 62
347 839 220 66 59 58
256 575 380 67 27 34
204 453 311 125 3 37
215 594 325 129 14 41
206 454 315 125 3 36
208 455 318 124 3 37
340 224 264 128 98 62
227 459 339 121 7 37
286 309 280 86 73 61
291 589 391 104 29 45
203 460 314 127 2 38
271 10 290 104 69 59
273 886 338 156 114 98
245 564 351 55 26 31
393 886 270 60 55 56
290 475 365 73 18 29
205 459 316 127 3 37
301 496 298 135 14 44
381 719 325 182 9 58
361 44 251 90 32 29
221 659 359 163 116 91
388 821 272 51 41 41
207 459 320 126 3 38
204 462 317 97 9 32
286 764 245 84 53 52
321 809 240 82 64 56
337 588 441 98 14 34
278 556 342 99 64 53
193 469 290 128 7 37
256 489 375 82 21 31
193 514 265 121 13 38
209 509 332 41 29 32
353 369 317 129 98 67
280 343 271 74 65 56
325 800 234 83 64 55
194 469 295 125 1 36
193 471 293 126 4 36
198 543 300 93 18 39
379 659 247 95 57 46
336 244 319 114 92 69
368 439 290 125 95 68
377 66 232 87 21 28
391 444 250 49 34 36
421 588 280 105 79 45
196 469 300 125 1 36
369 115 283 119 96 71
391 429 254 86 10 29
192 474 290 130 2 35
398 800 161 89 75 66
391 854 230 74 65 63
321 879 270 53 46 45
256 789 269 75 58 51
312 557 338 80 65 47
192 479 290 133 0 36
255 468 357 70 27 32
362 892 207 110 92 83
381 684 250 84 56 50
193 479 295 134 1 38
278 459 173 165 8 36
362 564 380 60 44 30
247 654 285 165 6 45
324 238 296 107 87 64
301 378 264 79 67 55
195 474 300 131 2 38
240 744 348 176 124 100
196 474 305 131 1 38
328 239 272 123 94 60
