ply
format ascii 1.0
comment Created by Open3D
element vertex 2232
property double x
property double y
property double z
property uchar red
property uchar green
property uchar blue
end_header
389 850 371 53 44 36
312 937 349 57 49 45
269 393 300 128 91 71
272 388 298 128 88 70
272 393 298 127 89 69
343 638 253 64 30 35
293 842 454 51 42 35
263 398 304 131 94 72
218 819 285 107 82 72
269 398 300 127 89 70
257 388 307 136 100 71
257 393 307 137 100 73
257 398 307 135 99 73
353 862 364 68 62 57
260 398 306 132 96 72
323 548 337 85 25 36
263 403 304 130 94 72
410 633 276 166 118 89
385 518 286 126 3 39
348 847 294 33 30 29
266 403 302 128 92 71
263 408 304 129 93 71
226 640 262 39 28 31
269 408 300 124 88 68
266 408 302 127 91 70
227 858 314 148 117 88
278 783 314 63 52 49
272 403 298 125 86 69
271 408 297 122 84 66
263 413 304 126 91 69
258 403 308 135 98 73
258 920 251 81 69 64
260 413 306 129 93 72
275 388 295 126 84 68
274 393 295 126 86 67
395 479 280 138 8 43
277 388 293 124 82 66
276 393 292 124 83 65
348 895 294 70 61 60
303 553 190 44 36 40
375 533 304 163 18 52
274 398 295 125 86 67
279 398 290 116 79 60
274 403 295 124 84 67
408 428 274 128 23 44
273 408 295 120 82 64
313 624 237 52 38 41
155 517 212 172 125 104
381 429 310 105 8 32
279 403 290 115 78 60
279 408 290 110 74 56
276 408 292 116 78 60
276 413 293 110 74 57
376 827 389 72 61 53
285 418 264 60 48 37
288 423 259 74 58 46
288 420 264 67 51 41
283 888 420 54 47 43
288 423 264 67 50 41
286 420 268 55 43 35
388 428 370 144 18 45
288 427 270 61 42 35
287 424 274 58 44 35
285 422 279 53 41 33
286 424 278 50 40 31
263 713 226 118 18 30
284 418 284 65 47 33
359 513 350 29 25 25
318 857 299 34 32 33
282 418 289 81 58 38
285 423 284 52 41 30
287 428 279 54 41 32
289 432 274 57 37 32
373 703 229 95 72 50
285 426 286 48 38 27
285 428 290 53 41 28
328 869 393 32 31 33
415 543 259 87 68 46
288 433 284 49 37 28
198 593 284 167 4 47
266 418 302 121 87 66
327 492 360 67 20 29
266 423 302 116 84 64
266 428 302 111 82 61
263 433 304 110 82 61
266 433 302 105 79 57
304 508 383 105 25 41
273 428 298 96 70 50
184 656 221 155 106 71
273 433 299 90 67 46
257 418 308 129 95 71
260 418 306 127 92 70
290 686 237 94 22 26
260 428 306 120 88 66
369 768 214 61 48 43
260 432 306 115 85 65
348 443 315 72 53 37
264 438 305 91 63 47
209 613 214 124 88 66
414 731 231 77 57 42
263 854 349 109 89 67
267 439 303 84 63 46
273 438 300 83 63 44
268 443 304 64 34 32
216 663 248 97 62 50
355 702 258 53 41 43
167 557 216 136 98 76
274 442 301 65 50 35
257 438 313 87 33 35
258 448 309 52 24 28
262 443 308 70 30 32
257 443 313 50 26 28
438 794 395 87 68 52
273 518 163 172 11 41
338 803 310 50 43 39
256 447 312 41 23 26
370 824 242 76 58 51
274 423 296 102 72 54
260 734 226 116 28 36
278 423 294 89 63 45
280 421 291 85 61 43
373 763 300 117 86 58
312 516 382 130 30 50
285 432 291 51 41 30
278 448 301 35 30 28
343 823 219 81 63 50
276 448 302 30 28 27
283 438 294 60 47 32
370 706 226 74 54 36
361 648 289 149 19 46
443 789 414 107 87 66
288 438 289 42 35 28
283 443 295 58 45 30
289 443 289 37 31 25
380 437 290 143 15 46
313 408 309 127 93 73
285 446 296 51 42 32
338 868 263 69 59 58
226 514 177 126 28 53
386 743 292 154 109 81
282 444 297 61 48 32
283 448 298 48 34 28
386 483 329 143 23 49
347 563 350 135 14 42
287 449 297 55 35 27
354 523 208 96 30 38
273 728 225 79 29 32
293 388 264 87 65 47
293 393 269 87 62 44
293 398 269 91 63 46
210 593 244 122 12 39
293 388 274 85 59 42
386 778 226 72 53 45
293 388 279 96 66 50
263 540 177 199 10 41
294 393 279 100 69 53
381 498 293 159 17 51
295 390 287 117 80 65
378 821 302 158 111 90
160 533 196 147 104 74
295 398 283 114 78 63
254 536 176 199 10 46
296 388 289 117 79 64
297 398 289 118 80 65
293 403 264 92 64 48
292 408 259 91 68 53
292 408 264 93 65 51
358 643 274 82 27 34
293 403 269 94 64 49
292 408 269 94 65 51
292 413 259 90 67 53
292 413 264 92 64 52
292 413 269 92 64 51
381 496 305 129 17 42
294 403 279 104 71 56
318 528 180 169 3 37
333 553 200 135 18 39
292 408 274 94 65 51
337 496 402 192 17 63
326 597 341 133 13 42
293 408 279 100 69 55
294 408 284 112 77 62
318 503 364 83 21 31
296 403 285 116 80 64
368 453 309 74 24 26
297 403 289 118 81 65
237 663 315 139 15 46
263 908 253 82 71 72
226 923 381 48 46 47
297 408 289 117 81 64
298 388 294 120 81 67
248 643 325 99 28 42
298 393 294 121 83 66
300 392 298 123 84 69
304 388 303 123 88 71
304 393 303 123 89 71
223 528 312 76 23 32
299 398 294 121 82 66
300 397 297 122 85 68
301 409 295 121 84 68
195 523 244 119 11 38
301 413 295 120 84 67
365 451 328 72 25 29
303 413 299 122 86 69
268 842 324 93 74 54
238 798 226 70 58 54
300 544 342 107 27 44
309 388 307 127 93 74
253 783 224 69 57 51
410 559 259 86 62 38
310 393 307 126 92 73
313 393 309 128 94 73
213 831 259 202 136 105
317 498 391 49 27 30
307 398 305 123 89 72
452 497 263 176 118 103
310 398 307 123 90 71
185 665 242 151 114 90
317 398 311 130 95 72
305 408 302 122 88 71
241 931 270 90 77 74
308 408 304 123 89 71
403 428 279 79 23 32
243 773 313 69 57 52
286 966 326 88 80 83
308 413 304 123 89 71
313 403 309 127 93 73
310 411 307 124 90 72
334 715 191 89 59 47
317 408 311 128 95 73
241 590 217 185 5 34
223 778 304 45 38 38
394 609 246 132 101 69
320 413 312 126 94 72
291 418 264 86 61 50
291 418 269 88 61 49
378 414 269 67 57 47
373 844 407 58 46 39
291 422 270 83 58 46
396 731 242 130 96 67
288 426 266 62 45 37
381 431 347 85 20 33
370 848 274 74 56 52
289 431 271 59 39 33
337 912 330 68 60 59
292 418 274 88 62 48
291 422 274 83 58 45
293 418 284 102 72 56
295 420 287 111 78 61
382 425 318 96 19 32
292 428 284 90 63 49
354 693 310 52 27 32
218 603 239 130 15 39
291 433 284 75 54 42
294 428 288 104 75 58
243 718 339 154 20 50
185 688 235 167 111 82
373 719 215 80 59 43
289 437 280 53 32 28
291 437 286 51 39 29
289 442 285 41 30 25
300 418 293 119 82 65
228 957 334 64 61 61
238 833 244 84 67 62
367 768 210 67 50 44
297 423 290 115 81 64
175 612 211 160 108 77
301 418 295 119 83 66
186 568 196 154 109 81
297 433 291 114 82 64
299 433 293 119 87 67
301 428 295 120 88 68
311 423 306 125 92 72
301 433 296 121 89 68
304 428 298 121 90 70
304 433 298 121 90 69
290 446 291 42 34 26
273 478 300 67 19 29
293 448 294 58 44 32
376 546 322 32 28 35
294 444 292 79 59 42
256 492 307 36 24 26
296 437 291 110 80 61
303 438 298 121 91 69
354 408 305 85 71 56
298 443 294 112 83 63
376 501 362 116 25 47
298 448 295 107 80 61
178 558 217 101 72 55
365 687 266 82 66 55
301 443 296 119 88 67
314 744 226 56 39 37
213 558 219 129 25 42
303 443 299 121 91 69
218 778 222 129 91 56
379 874 297 78 63 59
303 448 299 121 91 70
308 418 304 122 88 71
309 433 303 124 93 72
359 555 356 175 16 56
311 428 306 125 92 73
305 490 333 103 9 31
243 837 314 99 80 60
313 428 308 125 92 72
311 433 306 125 94 72
315 495 387 60 25 28
370 588 304 37 27 33
317 418 310 127 94 72
320 423 312 127 94 72
300 776 226 64 51 45
362 508 341 45 22 28
317 428 310 126 93 72
306 438 301 122 92 70
308 438 303 124 93 71
215 870 324 149 112 89
232 614 238 126 14 33
298 738 340 134 25 48
306 443 301 122 91 70
397 887 329 65 57 53
312 928 304 84 74 72
278 938 375 53 49 46
308 443 304 124 94 72
311 438 306 126 95 74
360 722 311 148 17 48
320 438 312 126 94 72
259 851 256 177 122 95
249 542 181 175 13 46
318 443 310 128 95 75
203 743 221 132 97 65
273 453 302 30 25 26
263 463 305 40 25 26
232 582 318 63 27 31
393 415 277 77 36 31
303 798 314 43 37 39
267 463 302 39 25 27
422 588 268 171 116 92
270 458 301 50 27 29
333 448 319 105 79 57
273 458 301 36 25 27
269 463 301 29 25 25
222 918 304 62 56 57
258 453 309 51 23 28
418 583 245 155 112 76
283 778 228 68 54 48
261 453 307 57 25 28
288 614 227 124 33 47
263 458 305 35 25 25
306 881 345 33 32 32
317 487 354 107 3 34
260 463 306 40 25 26
263 468 304 34 24 25
368 743 209 74 57 46
263 473 303 58 22 26
173 583 223 135 98 73
269 468 301 32 25 26
266 468 302 35 24 26
269 473 301 68 20 28
266 478 302 39 24 26
256 478 307 30 25 26
241 743 227 54 36 40
318 813 308 54 45 44
276 452 302 28 26 26
316 566 201 155 30 54
332 648 327 143 23 48
278 458 300 36 26 27
283 458 299 33 25 27
283 463 299 48 25 28
371 459 316 78 18 29
288 463 298 65 21 29
278 468 299 28 25 27
281 571 331 38 25 27
278 473 300 68 17 28
275 940 282 91 83 82
278 478 300 82 12 31
374 778 223 64 50 43
283 468 299 41 24 27
331 711 237 74 35 28
288 468 299 71 18 29
389 468 319 102 27 40
203 658 250 134 103 85
286 477 301 105 5 31
288 478 303 107 1 33
254 888 280 110 90 72
380 503 299 151 18 49
263 483 303 38 25 26
269 483 301 32 25 25
256 483 307 29 24 26
243 574 320 147 21 49
259 483 306 28 25 26
258 488 306 38 26 27
268 498 303 69 21 31
273 503 304 78 16 30
283 633 334 51 28 31
354 459 364 82 18 32
258 498 306 30 26 27
223 613 243 119 21 42
256 498 307 29 24 26
210 811 287 170 132 108
258 503 305 38 25 27
263 503 304 71 20 30
268 508 305 34 27 28
273 507 306 50 24 27
412 643 273 179 127 97
270 510 307 34 26 28
252 825 237 81 66 61
284 483 302 76 16 29
381 427 348 81 11 29
281 486 301 30 25 26
313 528 178 165 3 35
283 488 303 38 25 26
283 493 304 77 17 31
285 495 307 92 17 33
277 507 306 76 16 29
279 508 308 91 16 33
200 558 292 139 8 42
390 789 296 144 106 80
280 505 307 104 11 37
278 513 314 42 24 25
282 498 305 94 12 34
333 703 339 125 5 38
281 502 306 70 21 31
210 552 220 179 25 44
288 498 309 87 17 33
288 503 314 54 25 30
283 508 314 70 22 31
253 702 336 142 17 46
286 506 316 74 24 30
294 452 296 66 36 26
290 451 296 61 32 26
372 538 230 42 32 37
362 403 269 104 86 67
293 454 297 90 21 31
299 454 297 91 44 36
399 433 281 56 26 29
303 453 299 115 86 67
263 961 357 80 76 77
248 698 235 58 32 36
298 463 300 107 7 34
301 462 301 104 11 34
411 823 270 85 65 57
345 630 326 175 14 55
386 453 310 140 18 45
303 463 303 96 15 33
293 473 303 109 1 33
221 678 230 104 77 53
295 470 302 110 1 33
358 444 323 67 38 27
297 467 301 112 1 35
231 544 192 175 6 42
299 465 302 109 6 36
248 857 349 100 84 68
298 473 305 112 1 35
303 468 305 115 4 36
293 478 305 111 0 35
303 473 309 116 1 36
297 476 306 114 0 36
324 518 183 138 0 33
279 930 272 90 79 77
308 652 241 54 34 34
301 477 310 116 1 36
307 463 305 85 19 32
313 458 308 124 95 74
309 464 307 85 21 32
349 868 268 66 55 53
274 515 329 38 29 26
347 548 349 83 23 35
314 453 308 128 97 76
241 906 282 138 88 64
254 718 231 120 16 30
318 458 310 125 95 76
241 913 282 98 65 57
317 462 311 108 82 66
307 472 310 115 2 35
310 470 313 100 16 35
318 469 324 58 25 30
306 476 315 120 4 37
308 478 319 119 6 38
309 474 318 108 17 35
314 470 318 63 27 33
317 466 315 77 28 34
291 482 306 112 1 35
283 599 218 69 33 36
408 618 276 158 112 84
292 492 310 54 25 29
191 696 256 148 107 82
249 903 280 80 64 55
294 493 313 63 23 30
442 796 372 98 77 50
408 618 245 157 111 75
295 495 317 81 27 38
218 613 310 81 29 37
296 486 311 117 1 35
342 471 369 85 9 28
236 841 312 124 100 75
302 488 319 51 24 29
296 492 315 72 24 31
362 793 215 71 55 47
318 888 423 61 56 53
291 496 311 43 20 27
243 618 235 177 4 41
368 508 365 150 21 50
294 498 319 63 25 30
292 502 320 78 21 33
415 594 271 153 106 79
385 458 303 130 18 43
278 512 334 38 27 26
284 510 324 52 27 29
284 510 329 53 28 26
183 763 244 152 108 72
287 507 324 41 27 27
278 537 176 199 11 42
288 507 329 49 26 28
288 508 334 57 27 31
282 511 344 34 27 28
288 508 339 44 26 26
428 808 369 81 63 43
207 598 254 46 28 33
323 718 347 163 8 52
288 508 344 38 27 25
216 625 301 40 31 29
403 468 274 91 24 35
278 512 349 37 29 29
337 887 270 74 65 64
328 438 316 113 85 63
273 743 223 48 36 41
284 510 349 32 28 27
347 468 364 97 10 32
206 600 258 103 24 44
288 508 349 37 28 27
322 716 346 161 9 51
281 511 354 40 26 29
283 614 227 77 31 38
387 642 276 140 105 84
174 618 214 163 109 78
284 510 354 39 29 28
284 510 359 58 29 30
288 508 364 52 28 31
284 514 368 87 27 36
289 509 369 75 27 35
314 473 324 79 25 35
258 552 186 157 19 45
316 481 334 110 9 36
310 479 323 116 5 36
311 476 321 102 13 34
318 473 329 70 26 31
364 454 356 76 23 29
320 470 328 59 28 32
316 477 331 84 19 33
318 478 339 105 12 35
364 758 309 146 107 84
319 479 344 105 13 35
304 488 324 92 15 31
300 494 324 53 23 30
302 492 324 85 20 34
336 535 337 54 26 29
302 493 329 61 22 30
303 864 308 43 39 34
300 495 329 28 29 30
300 495 333 32 28 28
454 843 325 90 77 67
293 502 329 54 26 30
294 500 324 56 25 29
250 736 337 191 13 61
293 502 334 46 26 29
278 883 409 39 37 38
212 624 237 81 50 35
290 505 329 49 26 28
405 523 269 117 16 40
179 528 194 147 96 84
290 505 334 53 25 29
396 476 282 135 13 44
332 918 339 60 51 48
298 498 334 30 28 28
301 496 331 31 29 30
363 828 299 133 94 73
293 503 339 39 27 26
295 500 337 35 28 28
293 504 344 38 27 26
288 534 331 62 17 27
169 558 217 130 95 72
391 720 241 115 85 54
237 653 252 123 1 29
294 504 349 60 23 27
291 506 345 34 29 27
288 696 232 81 29 32
435 735 266 132 96 68
286 859 328 64 54 45
296 501 340 42 26 26
352 492 390 180 21 52
297 502 344 42 25 26
378 498 359 116 31 46
302 496 339 47 27 30
303 503 344 71 22 32
461 780 408 102 81 65
447 508 259 179 123 99
298 502 349 67 24 27
300 500 348 46 27 29
303 498 349 48 27 29
278 912 398 72 67 66
298 508 344 75 25 34
307 907 275 71 64 65
301 506 345 94 23 41
246 888 292 135 105 82
299 509 348 88 20 34
302 507 349 85 21 39
405 575 251 108 82 56
308 483 324 105 6 33
353 788 315 38 34 34
310 861 301 33 31 32
307 947 324 74 66 63
307 487 329 105 7 32
311 482 325 113 7 36
309 485 329 106 5 32
293 638 239 135 16 39
308 733 228 65 30 34
310 485 332 107 3 33
354 698 259 46 40 47
311 486 336 107 4 33
376 531 297 140 18 47
278 756 327 64 52 48
343 497 399 195 14 63
210 616 270 154 16 54
315 480 332 107 11 35
333 483 348 116 14 38
309 488 339 104 7 32
303 528 340 71 4 24
311 486 340 106 9 33
312 487 344 106 12 34
218 824 281 88 64 60
258 974 329 55 52 51
222 898 365 151 118 96
210 577 235 48 29 34
307 493 344 91 19 33
309 494 349 83 22 33
310 490 347 102 15 34
314 484 344 108 5 34
354 890 370 41 36 32
317 482 344 109 5 34
373 888 305 82 69 66
320 480 348 97 9 32
364 708 295 146 18 45
318 488 350 87 10 31
318 493 344 60 25 29
306 501 343 67 21 31
298 608 225 155 16 43
308 503 340 71 26 32
318 514 379 131 24 44
253 748 329 67 28 36
310 500 341 89 27 38
312 503 341 79 27 35
306 501 350 67 24 35
338 393 311 123 95 68
308 508 340 47 24 28
212 743 294 87 22 38
322 911 295 85 73 72
313 508 343 32 24 26
221 866 318 106 87 66
451 791 261 108 101 94
313 513 344 34 23 27
318 513 346 34 26 29
292 506 364 57 28 31
365 448 320 67 31 28
288 763 325 68 56 51
292 507 370 82 24 32
251 849 275 185 130 100
294 505 364 59 28 29
389 578 279 87 20 35
298 502 354 58 26 27
298 503 359 49 27 26
303 499 354 51 25 28
243 608 229 183 5 42
273 623 233 80 36 42
408 583 270 101 72 52
408 653 274 181 126 99
354 393 299 126 99 68
362 762 199 75 59 48
300 500 357 49 23 26
245 542 332 160 18 51
304 500 364 70 23 27
508 843 314 97 80 64
304 500 369 85 20 28
308 639 336 144 32 53
299 513 354 107 15 36
303 508 354 82 21 36
333 894 384 59 52 50
301 512 356 96 9 33
363 803 224 91 68 54
304 510 357 76 14 31
304 513 358 93 10 33
293 508 373 129 16 42
295 505 372 120 17 43
343 448 318 84 62 43
298 504 374 111 13 35
302 502 375 99 15 31
297 507 375 135 15 43
298 893 415 60 55 54
298 513 378 155 21 51
248 848 259 199 136 105
302 513 381 105 23 39
295 599 336 158 21 52
313 493 354 82 18 31
310 495 359 50 23 30
278 543 354 43 27 30
313 494 364 84 18 27
223 773 305 46 40 39
212 638 215 145 105 72
313 494 369 82 18 26
318 492 359 92 16 35
318 494 354 70 23 35
319 489 364 97 11 32
319 490 369 92 14 33
310 495 378 72 28 28
314 494 384 69 27 27
317 491 374 85 18 28
320 490 374 88 15 31
258 944 283 91 81 80
319 490 379 85 22 29
358 418 304 65 53 43
317 492 384 67 26 30
216 630 237 86 47 40
303 745 341 137 20 48
307 497 354 62 24 30
346 582 226 51 25 34
308 503 354 65 22 31
385 485 319 37 24 29
308 497 364 72 23 25
234 637 250 156 7 39
308 497 369 80 21 27
283 828 239 84 67 59
311 496 366 79 20 27
338 678 323 143 11 45
401 698 274 165 110 80
307 507 355 66 18 27
308 508 359 85 18 32
193 613 237 118 90 70
353 799 311 55 44 39
307 512 361 78 13 30
398 814 404 61 50 40
310 505 357 87 31 35
311 506 360 102 22 37
313 508 364 102 14 36
348 907 344 67 57 52
310 509 362 98 12 35
364 478 359 71 18 31
312 512 365 105 13 36
314 499 358 51 24 29
346 547 339 51 25 30
317 496 355 73 28 37
403 728 249 104 79 53
315 510 367 107 8 32
172 560 197 162 113 84
320 504 367 93 10 33
293 863 429 61 50 44
309 499 383 55 27 30
308 503 384 89 24 35
220 951 333 61 57 58
311 496 380 63 30 24
312 497 385 57 26 31
198 603 233 97 69 54
177 544 212 83 54 39
316 512 370 93 10 31
340 895 287 78 67 65
200 651 216 186 122 94
214 723 294 46 30 33
203 813 284 173 131 107
288 738 232 112 22 33
321 390 311 132 97 73
323 393 312 131 98 72
328 388 312 133 99 73
333 803 310 51 44 41
328 398 313 126 95 71
276 881 400 42 40 39
188 578 224 92 68 52
334 388 311 129 97 71
401 713 264 137 96 64
192 601 201 156 108 76
332 389 312 130 98 72
323 403 312 127 94 72
223 898 309 169 123 100
272 548 340 101 8 33
263 519 329 63 24 26
323 408 312 126 95 71
328 413 314 117 90 66
397 463 283 95 21 38
374 748 218 66 52 44
413 798 276 75 54 42
218 593 234 105 20 39
333 408 313 105 83 60
408 818 374 77 64 50
333 413 314 104 82 59
268 773 222 70 57 49
206 583 248 136 9 41
351 384 302 128 100 67
366 851 367 77 67 60
338 388 311 127 97 69
343 393 310 123 95 68
340 650 321 156 24 60
415 810 376 102 93 86
313 552 191 119 36 45
336 394 312 122 94 67
341 399 312 112 89 63
346 389 307 126 98 68
357 673 274 96 37 42
353 398 304 121 96 68
321 881 326 33 32 34
338 403 312 104 82 59
342 403 312 104 83 60
362 767 206 86 66 51
307 948 329 54 48 46
348 403 309 101 82 62
393 738 235 106 79 53
353 403 304 107 87 65
351 404 307 96 80 62
352 408 307 79 67 54
221 678 244 83 60 46
348 413 310 82 68 53
352 413 308 73 62 51
343 868 398 43 38 35
350 815 222 72 55 45
323 428 314 123 91 69
388 788 298 137 103 78
327 433 316 115 87 64
308 872 394 33 31 35
333 418 315 104 82 58
406 521 269 111 18 38
512 843 312 95 80 65
193 688 226 143 97 62
394 803 253 85 58 50
333 423 315 104 82 58
333 427 316 106 82 58
330 433 317 111 84 60
373 453 329 73 21 28
375 543 313 41 26 32
454 768 359 101 80 62
334 429 317 104 81 57
333 433 317 104 80 58
460 839 321 85 74 64
320 443 312 127 95 74
320 448 312 128 96 75
323 448 313 125 94 73
327 443 316 116 86 66
416 571 247 141 109 75
327 448 316 118 89 68
215 709 268 93 17 32
333 438 317 103 79 56
333 443 318 103 79 56
314 869 243 72 64 64
308 838 220 95 74 61
338 418 315 94 75 54
343 423 314 89 71 52
337 429 317 98 77 54
378 808 305 140 105 81
337 433 317 96 76 53
343 428 314 88 70 50
349 418 310 79 65 50
349 423 311 78 63 47
353 423 308 68 56 42
313 869 404 45 40 38
347 418 312 83 68 50
301 844 449 64 53 47
347 423 312 83 67 50
353 428 309 67 53 38
295 846 306 71 59 47
350 432 311 75 59 40
255 894 269 53 50 51
348 433 313 79 62 42
339 438 316 91 71 50
348 568 219 47 36 40
346 566 216 27 34 47
337 438 317 96 74 53
338 448 319 95 72 51
258 788 309 63 51 46
344 442 316 84 64 43
353 701 239 78 37 36
343 444 318 85 65 45
344 438 317 83 63 44
353 438 315 64 44 31
274 863 349 95 78 61
417 608 250 154 107 74
346 445 317 78 59 40
197 523 239 137 7 40
348 446 316 69 48 35
354 443 319 64 42 30
298 909 394 58 52 50
359 653 278 122 29 35
352 446 320 67 46 33
239 932 275 86 75 71
359 393 264 106 88 68
359 393 269 108 88 67
360 397 268 106 87 67
359 388 274 113 91 67
358 388 279 117 94 67
360 393 279 116 93 67
358 388 284 121 96 67
221 707 257 83 16 42
287 527 344 139 12 44
368 454 358 69 21 29
357 388 289 124 97 66
268 944 284 88 81 81
361 398 279 115 92 66
360 398 284 118 95 67
361 399 283 118 94 66
362 403 259 96 80 66
278 708 231 115 19 31
191 564 201 134 93 71
364 408 264 87 75 63
364 408 269 93 79 64
368 413 259 75 67 59
251 853 284 155 110 82
365 411 264 80 70 61
278 828 238 95 74 65
365 411 269 82 71 61
368 413 269 77 69 61
320 721 196 78 62 47
362 403 274 108 88 67
242 569 202 186 7 39
361 400 288 121 96 66
380 519 329 166 20 55
388 573 289 121 24 43
325 493 397 89 21 34
368 414 274 77 68 59
364 412 284 90 74 58
367 415 284 78 67 56
373 413 264 72 64 57
378 414 264 69 59 51
383 414 269 66 52 43
211 565 227 37 39 40
373 415 277 67 55 48
356 384 292 126 99 66
356 389 293 125 98 66
355 391 296 126 99 67
420 523 262 88 56 42
355 398 300 124 98 68
318 832 297 99 76 64
360 403 294 120 94 66
355 401 301 119 95 68
343 628 329 178 16 57
296 775 321 65 53 47
193 623 207 167 115 81
356 404 302 111 89 66
357 408 303 88 73 58
392 787 234 73 56 45
442 791 378 98 77 59
360 412 300 77 65 52
360 402 291 120 94 64
361 404 292 118 93 67
360 407 295 112 90 65
363 413 294 85 67 53
209 608 229 95 47 39
361 414 298 75 62 48
296 887 250 79 69 69
288 674 237 71 32 34
319 743 219 59 41 39
355 413 306 71 60 50
369 417 284 71 46 41
375 583 296 48 26 30
442 798 267 98 82 70
326 506 380 103 19 36
357 734 198 65 49 42
370 416 280 64 57 49
373 418 284 65 37 37
198 648 215 185 124 95
285 870 226 114 95 88
373 418 289 69 34 36
367 457 311 77 23 27
368 843 384 45 38 33
200 522 231 125 17 43
383 417 280 64 31 31
217 653 220 116 79 53
383 419 284 94 20 36
383 428 285 122 14 41
381 429 287 135 14 46
322 869 410 50 42 39
381 433 288 147 12 48
394 593 254 99 64 43
383 433 285 137 10 43
384 437 286 136 7 41
267 868 267 130 101 79
382 438 289 146 11 47
382 443 289 141 10 45
384 444 285 138 10 42
383 448 284 101 17 37
365 416 295 79 48 42
418 623 259 166 115 81
363 418 299 76 50 42
363 423 304 68 39 36
169 593 214 163 112 82
284 847 245 79 62 57
358 428 305 62 46 32
357 429 307 62 45 31
363 430 307 71 37 30
362 435 318 58 38 25
367 434 313 60 38 30
368 438 314 61 35 28
254 956 300 86 81 82
424 593 264 169 116 84
366 439 317 58 35 24
368 448 309 71 26 25
207 563 234 57 34 36
368 443 314 63 31 26
343 705 234 74 48 35
378 863 369 65 54 48
468 829 325 103 85 70
370 421 295 75 33 34
338 892 329 45 41 39
403 818 415 81 66 52
374 419 294 67 32 33
372 423 299 85 32 36
374 419 299 83 29 32
374 423 303 82 20 32
370 426 301 87 29 37
223 643 299 164 4 50
373 428 301 94 25 38
392 733 287 159 109 79
273 839 313 84 69 54
373 429 302 91 21 34
377 419 294 76 28 34
193 808 279 170 128 104
227 564 207 56 31 34
237 703 243 96 19 26
376 419 299 92 21 35
308 878 369 32 32 34
380 428 290 127 17 43
379 428 299 95 19 36
378 429 304 97 17 31
381 433 304 107 13 36
288 621 231 180 10 46
258 972 343 49 46 47
378 428 309 102 9 32
176 540 212 84 53 41
379 425 309 96 17 37
406 518 272 139 12 45
391 453 344 84 29 37
375 438 359 81 18 29
377 433 309 109 10 34
272 789 311 62 51 46
382 433 309 117 11 36
344 504 334 46 19 24
380 428 317 111 6 35
451 501 258 178 117 98
313 702 341 72 29 35
383 428 314 111 16 39
337 706 237 88 37 30
383 428 318 115 14 39
383 433 314 100 10 34
376 692 252 95 76 54
383 433 319 60 17 28
372 445 305 69 29 28
352 857 394 39 34 32
323 857 422 55 46 38
380 437 294 122 17 39
381 439 294 125 13 37
381 438 299 113 12 36
246 706 336 136 15 42
382 438 304 126 12 40
382 443 294 126 10 39
383 448 294 140 13 45
294 550 187 135 32 47
406 433 277 75 26 33
383 448 304 142 14 45
373 434 308 90 24 32
373 437 310 70 27 29
373 439 312 66 26 28
303 871 324 30 31 33
353 893 429 78 70 66
370 445 305 70 29 28
369 445 309 66 29 27
372 445 309 65 28 28
373 443 313 63 26 28
373 448 314 68 20 26
374 448 319 73 16 29
347 742 207 94 69 53
199 553 289 145 6 43
384 438 309 129 13 41
358 843 290 39 32 32
428 803 374 94 78 61
378 438 314 71 17 29
377 442 315 64 20 25
233 813 290 66 55 50
376 446 320 57 21 25
359 438 322 58 37 25
355 445 322 64 42 29
297 704 231 74 34 34
357 442 321 61 40 26
358 447 325 68 37 29
363 447 344 62 22 28
273 895 252 82 70 67
303 758 228 114 23 35
263 828 298 138 102 77
368 447 339 57 23 27
368 446 344 50 23 25
186 722 242 154 102 72
365 870 292 73 60 62
368 446 349 45 22 25
384 429 329 75 8 25
383 433 329 82 8 29
384 428 334 70 13 25
406 513 269 132 26 45
304 842 221 93 73 63
381 433 344 62 17 25
219 932 373 51 48 48
368 528 359 109 31 45
381 438 324 66 19 31
382 438 329 82 12 30
283 935 376 53 47 44
381 438 334 68 16 27
218 708 294 61 29 35
379 443 329 49 22 26
376 448 324 73 18 28
217 688 254 86 58 44
376 448 329 71 18 29
366 506 347 66 23 31
381 441 329 62 21 27
268 555 187 90 35 41
202 578 300 53 28 32
348 697 249 83 35 32
378 443 334 49 22 26
376 446 333 53 21 24
378 763 224 61 48 40
375 445 340 45 22 27
245 678 322 45 29 33
313 867 310 31 31 33
370 445 346 51 24 24
374 444 349 47 19 26
202 553 294 42 25 31
371 446 349 38 23 25
381 437 343 49 20 26
457 488 259 169 116 99
380 439 344 53 19 27
379 438 349 61 21 27
381 493 354 51 29 32
380 434 346 63 20 26
378 443 339 51 21 26
358 448 354 62 23 29
364 774 214 64 50 46
363 448 359 60 24 32
422 749 265 114 81 58
368 448 353 46 21 25
362 449 363 95 25 40
400 718 275 159 105 74
383 422 354 77 19 30
383 421 359 78 23 30
377 433 359 73 18 30
380 428 368 127 15 43
220 662 287 35 29 32
377 433 364 66 19 27
224 567 211 141 18 42
380 425 367 108 8 33
383 428 369 136 16 42
383 433 370 145 18 46
214 673 222 141 96 67
372 448 354 43 22 24
425 588 264 169 116 85
263 888 249 85 74 72
318 568 204 99 33 41
290 518 372 149 22 51
373 448 359 76 12 26
375 443 364 110 8 33
375 443 367 127 12 38
374 448 364 115 15 37
323 788 318 55 46 42
423 814 404 82 62 50
434 790 400 93 77 61
377 438 354 61 21 28
376 436 359 92 14 32
376 441 353 52 21 29
363 878 295 75 64 63
344 559 212 123 42 54
378 448 369 99 20 37
383 443 370 115 23 40
388 723 289 157 110 81
383 448 369 47 28 30
320 453 312 128 97 76
327 453 316 119 90 69
219 653 224 124 87 61
352 453 364 75 14 27
238 938 284 84 75 72
326 462 316 113 87 67
329 453 317 114 85 65
329 458 318 113 85 64
200 593 264 116 18 41
331 461 320 89 68 50
343 452 320 76 56 39
384 458 284 123 14 40
383 458 289 144 16 46
368 452 306 72 26 26
368 452 314 77 23 27
293 618 230 109 25 39
368 462 315 77 19 28
443 844 339 88 75 65
198 633 242 127 97 78
383 453 294 143 13 47
384 453 299 139 13 43
383 458 294 141 15 45
373 453 319 79 18 30
372 870 312 45 37 35
384 478 299 65 23 31
383 483 294 91 21 36
383 488 289 131 14 43
384 485 290 139 15 46
222 824 242 148 106 86
313 713 345 155 18 50
383 483 299 46 27 30
456 789 377 96 75 60
384 483 304 44 28 29
388 421 349 55 24 29
383 488 304 78 26 38
283 573 334 49 26 30
381 493 295 86 24 39
322 502 366 93 19 32
391 812 297 165 120 93
381 492 299 122 21 45
381 493 304 142 19 48
380 495 302 169 18 55
537 819 323 88 78 70
382 493 309 76 28 36
383 493 314 145 22 49
224 637 303 136 22 49
368 882 333 48 42 38
397 513 279 152 19 51
383 498 289 149 10 47
222 883 344 115 88 75
380 498 294 160 17 51
380 504 291 159 12 51
381 501 292 158 12 55
380 498 299 165 17 52
353 748 324 144 20 47
243 732 337 176 19 57
379 508 299 69 25 35
179 548 192 160 110 87
380 504 313 167 21 52
378 508 309 75 22 34
378 513 309 58 26 32
381 870 436 105 87 69
380 509 317 139 29 50
381 512 320 47 26 32
334 682 247 82 30 30
422 528 265 82 54 39
335 454 322 95 71 52
328 464 324 52 41 29
332 462 324 61 47 33
394 416 275 76 32 32
216 928 314 55 52 53
328 464 329 49 39 29
333 462 334 41 23 27
298 862 439 62 51 44
335 460 334 43 26 27
227 600 232 164 6 40
403 513 274 127 13 41
369 543 229 47 34 39
398 588 254 102 69 46
333 462 339 43 22 28
444 483 269 94 69 52
323 468 329 56 32 29
326 466 335 49 34 27
323 473 344 79 21 31
199 558 259 133 6 41
373 883 434 89 72 59
452 478 274 188 145 138
326 471 346 89 20 33
332 467 350 51 27 27
333 479 350 133 20 47
189 688 229 154 101 72
370 865 443 74 58 45
283 658 238 112 16 28
344 454 324 65 42 33
338 458 329 56 40 31
353 449 329 70 44 33
248 748 223 122 21 36
213 623 224 102 65 48
227 549 198 147 12 41
243 688 324 71 26 35
348 452 334 69 46 35
336 582 346 119 13 41
268 891 370 47 43 42
273 803 307 147 107 90
343 873 354 55 50 47
363 871 404 84 70 57
351 451 330 70 46 36
352 451 334 71 42 34
338 458 339 45 25 26
338 459 344 47 25 27
339 459 349 50 25 27
352 451 339 70 40 33
393 533 283 160 15 52
345 455 349 61 29 28
197 748 271 141 102 75
298 663 334 91 26 40
352 451 349 71 24 27
303 549 187 91 34 40
336 466 351 46 24 24
273 683 334 161 19 53
327 923 344 60 50 46
205 592 214 103 69 52
380 478 366 102 32 46
353 478 349 40 24 24
188 613 204 168 117 83
324 479 354 84 20 31
356 720 322 150 23 49
328 478 359 58 26 29
325 590 337 125 8 37
178 578 198 161 112 79
384 543 291 113 10 35
384 889 355 58 52 48
333 469 354 74 24 28
367 793 220 90 69 55
330 470 352 76 18 26
308 747 226 89 28 32
332 471 355 79 20 29
215 578 308 49 26 30
330 475 358 66 23 30
330 475 364 65 22 26
387 858 291 75 58 56
329 478 369 66 23 28
331 476 366 70 19 28
410 448 260 113 15 38
331 476 370 76 22 30
330 480 379 67 23 28
363 468 369 60 17 26
343 458 354 52 26 25
344 459 359 90 17 29
340 460 352 54 28 29
213 703 264 77 27 36
313 858 439 61 51 43
401 803 279 108 71 53
341 461 355 63 22 24
340 464 359 103 14 33
345 455 352 62 22 24
349 454 359 70 20 24
236 945 366 62 59 59
352 452 359 74 17 27
205 597 256 39 31 33
353 453 370 87 21 32
350 455 368 88 15 30
304 628 337 35 29 30
348 458 364 122 13 39
420 870 341 74 58 52
345 460 362 120 12 37
431 847 333 91 78 67
232 554 198 179 7 37
203 828 259 210 136 108
347 463 365 125 9 38
350 458 368 112 13 36
353 459 372 104 17 35
297 921 383 62 54 50
278 758 224 84 36 40
371 567 305 61 27 33
353 462 375 72 21 33
381 496 352 122 32 50
318 614 232 86 37 42
238 703 330 73 24 33
337 467 354 83 22 32
209 543 219 161 23 43
288 693 233 83 27 28
323 702 341 64 23 31
338 468 359 106 14 34
295 543 337 63 29 35
204 598 293 32 28 30
400 738 270 135 90 62
344 470 358 88 19 30
245 530 332 130 18 43
340 465 362 113 1 38
343 468 365 109 5 35
338 473 369 90 15 31
318 865 411 50 43 38
337 477 354 127 19 43
338 478 359 108 14 35
308 863 439 62 54 48
450 475 271 174 133 125
314 768 214 63 51 47
342 476 352 72 22 31
416 743 244 101 73 55
288 958 309 86 78 80
340 479 362 93 13 30
348 472 354 65 22 29
386 801 241 93 66 53
265 841 326 95 77 57
348 469 359 78 20 29
355 570 227 147 14 30
372 603 298 102 25 41
353 470 354 67 23 32
214 613 254 89 26 38
353 469 359 48 25 28
396 431 367 171 20 60
353 472 365 59 20 27
350 475 367 82 24 30
353 475 367 64 22 30
338 474 373 76 16 28
357 653 303 94 23 38
247 615 232 182 4 42
343 474 373 73 10 26
330 895 386 58 49 47
228 563 319 144 16 45
338 478 384 58 19 25
416 743 240 92 67 52
343 479 379 61 9 23
348 468 374 111 9 35
347 473 375 78 7 27
388 473 289 142 7 44
351 468 376 81 15 27
353 468 378 71 24 29
368 839 291 47 32 30
194 664 247 139 107 84
353 477 370 98 21 36
343 618 334 181 17 58
353 478 379 91 15 31
348 480 383 57 15 22
352 480 382 72 12 26
263 813 232 76 61 56
328 483 349 89 19 36
326 492 346 85 16 30
329 493 347 91 14 32
333 493 349 116 14 39
278 723 229 117 23 30
324 499 347 46 25 25
391 718 287 162 113 85
328 503 348 66 23 31
304 853 444 65 54 46
294 885 421 53 48 46
185 703 239 162 109 80
221 515 182 57 28 34
321 508 346 32 25 28
303 703 232 96 28 29
323 508 347 45 27 30
253 959 304 85 80 83
371 901 328 73 60 56
321 512 346 33 26 29
160 538 212 142 103 85
327 512 347 64 26 32
333 503 348 47 25 30
334 508 345 98 23 39
218 683 224 134 96 64
333 513 344 92 24 38
330 510 346 70 30 33
204 603 209 130 94 71
329 514 346 99 31 44
346 763 202 87 64 53
334 505 346 104 26 41
353 494 331 29 22 22
353 493 333 30 21 21
343 488 349 136 15 45
338 493 349 139 18 46
297 886 363 33 32 37
403 613 244 147 106 71
344 494 346 104 12 34
389 548 248 153 23 44
348 488 348 84 17 31
412 648 273 183 128 99
288 924 384 64 57 55
323 579 213 187 8 41
353 483 349 34 23 26
348 493 344 84 10 28
299 949 350 55 51 51
282 868 343 69 58 48
367 843 264 83 63 59
350 494 341 60 15 23
244 822 292 90 68 65
346 491 347 115 9 34
350 697 316 143 18 45
165 536 191 155 108 80
343 512 331 33 20 23
302 941 362 63 59 58
352 498 334 29 22 22
206 619 237 80 50 38
344 514 332 39 19 23
349 509 333 35 21 23
397 428 368 156 22 55
339 504 345 43 25 26
263 698 230 45 34 37
343 498 345 55 23 29
340 500 346 28 24 28
363 538 360 95 28 41
341 497 347 103 24 41
303 858 303 70 59 48
268 889 409 41 39 39
336 511 342 73 19 29
341 507 338 33 22 24
347 497 343 60 16 25
346 501 338 51 20 23
238 828 284 51 40 43
314 924 365 53 49 47
412 433 259 125 22 42
322 482 354 98 14 33
320 485 358 103 9 30
322 487 360 94 11 30
202 538 294 64 27 33
329 484 353 55 23 33
328 487 355 73 25 36
322 487 369 85 19 29
213 548 214 140 15 38
327 482 369 72 23 31
328 489 358 70 22 33
325 495 362 50 25 27
218 918 364 125 91 78
278 738 334 139 23 49
439 734 265 131 96 68
328 494 364 64 19 30
255 553 337 52 26 30
333 488 359 70 22 32
216 644 242 95 56 47
334 489 363 75 17 30
333 493 369 74 19 32
328 483 384 66 25 31
330 480 383 57 28 26
334 494 374 48 24 32
408 483 264 73 23 30
346 602 342 122 20 43
322 497 360 54 23 27
293 693 336 85 25 36
217 584 228 37 32 40
323 503 369 109 20 37
328 498 369 109 18 39
331 496 371 85 12 33
326 502 374 129 16 43
322 507 370 99 15 37
383 823 404 52 43 33
323 508 374 118 19 40
321 511 376 107 24 40
321 511 380 121 22 44
373 887 324 49 42 36
323 913 304 80 69 67
329 500 378 121 24 47
333 498 379 93 19 37
331 502 381 112 18 42
337 483 360 98 15 36
293 623 333 116 28 44
254 673 328 156 20 50
339 483 363 98 11 33
338 487 364 75 15 29
322 928 349 61 51 47
342 483 365 98 10 30
342 486 366 98 13 34
359 588 330 102 24 40
258 844 338 123 100 76
243 594 219 186 6 41
369 878 370 56 49 46
342 487 370 123 15 42
344 484 368 107 8 34
346 481 366 89 11 28
328 878 424 58 50 45
343 481 384 62 11 25
391 456 362 71 32 40
344 481 381 61 7 22
409 815 376 97 82 68
320 791 218 66 53 50
337 491 370 44 23 30
374 663 250 99 75 46
372 663 253 93 71 47
338 492 374 102 20 40
340 490 373 132 20 49
209 618 289 91 30 41
340 495 382 165 21 56
230 566 206 55 33 32
376 861 373 58 48 41
343 493 384 170 21 53
348 484 374 100 16 37
352 483 384 106 20 37
205 601 260 170 13 48
349 489 384 161 22 51
336 496 380 159 23 52
338 498 384 139 23 47
354 450 334 70 40 33
365 452 320 77 26 29
365 452 324 69 26 28
377 518 299 73 29 36
363 449 334 68 27 27
388 478 289 145 6 44
317 928 359 55 49 46
366 450 331 76 26 31
354 450 339 65 35 31
222 683 294 74 28 37
354 450 344 62 29 27
342 865 393 33 30 31
354 450 349 69 22 31
357 474 351 61 17 27
221 649 226 124 87 63
358 478 349 53 21 25
361 479 350 66 20 32
392 453 349 101 29 41
372 451 332 64 25 27
372 458 324 77 18 29
370 456 327 79 20 29
328 889 425 60 54 52
369 461 322 77 18 29
289 714 342 31 28 31
302 556 191 47 37 40
372 461 322 78 18 29
354 449 354 61 22 25
259 894 404 43 42 42
354 449 364 60 23 26
245 846 256 205 138 108
354 462 365 61 23 30
356 456 368 98 20 37
301 833 222 70 57 51
397 778 244 84 65 53
368 452 355 66 21 31
355 540 212 45 35 41
437 812 364 101 82 66
205 606 276 160 0 45
355 755 196 75 52 49
355 620 321 176 16 55
367 458 360 61 18 26
361 460 362 80 15 29
250 883 286 154 120 91
389 840 384 89 74 67
363 463 361 53 20 28
369 459 363 59 20 28
403 473 269 52 25 28
367 463 365 45 22 29
352 455 372 120 19 40
380 625 267 63 42 28
385 468 302 130 22 44
358 473 366 55 18 26
410 443 261 122 19 37
270 871 356 91 75 57
358 475 368 57 17 27
361 796 216 72 55 48
362 468 360 53 21 28
413 838 280 96 76 70
362 473 359 59 16 29
363 468 364 51 21 27
366 466 366 46 21 30
438 518 268 172 120 93
368 468 369 47 24 30
364 477 364 64 16 29
367 478 365 62 20 30
369 477 367 45 25 28
359 473 374 78 18 32
263 833 238 88 75 72
354 464 377 56 23 30
356 469 377 93 14 32
310 861 425 57 47 43
357 473 378 106 13 33
170 593 210 163 111 79
303 619 232 146 23 45
357 478 374 90 14 32
356 477 377 101 8 36
361 470 372 59 22 24
224 612 241 166 8 41
371 451 355 49 22 24
371 452 359 76 16 26
370 455 362 67 14 23
244 576 206 189 9 40
371 457 365 72 18 28
373 458 368 87 19 33
313 694 236 82 30 30
373 463 369 68 24 30
378 453 369 79 25 34
288 894 415 66 60 58
243 593 320 40 28 28
383 453 368 41 29 30
378 458 368 52 25 29
378 463 370 78 27 34
278 828 303 111 89 67
369 553 334 50 29 31
369 743 295 82 44 34
373 473 368 36 30 30
382 473 364 54 28 32
278 892 418 61 54 51
385 474 360 98 29 42
354 485 346 34 21 23
343 653 319 167 19 54
358 483 348 49 20 27
358 488 345 40 20 24
318 773 209 64 52 48
361 488 350 49 21 27
368 883 320 40 32 32
361 491 350 50 20 30
238 688 319 53 30 35
354 503 339 28 22 24
408 588 244 136 105 71
355 501 342 29 24 25
357 498 344 39 21 23
308 568 339 148 18 48
357 504 341 39 22 28
359 498 349 51 18 25
354 508 338 34 23 25
453 488 263 146 106 86
358 508 340 42 22 28
236 595 222 152 8 37
238 878 359 93 75 65
358 513 339 40 24 29
363 503 344 45 21 27
361 505 341 52 19 27
423 853 339 100 87 75
233 693 249 80 30 35
417 633 269 169 116 85
361 513 341 43 23 27
334 882 413 72 60 55
362 513 344 33 24 26
443 518 259 171 119 88
363 508 348 50 23 28
362 512 348 29 24 26
367 783 214 75 58 51
308 843 298 75 63 50
417 773 260 109 77 59
383 493 334 127 21 45
384 488 334 67 24 33
333 710 214 75 49 39
383 488 339 121 27 45
384 483 344 111 27 42
168 573 219 146 103 79
383 488 344 90 25 38
382 493 339 155 21 50
382 493 344 139 24 47
397 882 353 55 46 40
353 608 244 91 32 41
382 493 349 55 27 34
382 498 324 167 18 53
382 498 329 173 17 54
382 498 334 168 16 53
381 503 334 173 16 54
381 513 324 62 30 34
333 598 346 162 19 51
380 509 335 168 17 54
348 880 426 66 55 46
380 513 334 156 20 51
381 498 344 134 19 45
380 503 340 175 16 54
380 500 345 160 20 50
380 503 344 179 18 55
393 428 282 90 13 33
219 538 199 172 13 42
379 503 349 175 22 55
381 497 349 144 30 54
379 508 344 180 14 56
381 506 337 172 15 51
376 513 349 155 20 51
258 893 384 36 34 35
354 618 324 110 23 43
407 633 277 169 119 90
298 543 340 72 24 33
360 493 354 56 19 25
363 483 359 55 17 26
173 588 225 138 101 75
369 483 367 77 20 33
364 488 364 53 24 28
368 488 368 86 20 36
443 790 382 117 91 60
360 490 354 49 19 26
361 491 352 54 23 30
248 851 297 98 71 49
352 669 265 65 33 36
360 493 359 64 18 26
240 961 344 63 59 60
343 846 291 33 30 30
366 493 366 74 23 32
358 513 354 41 23 29
360 508 359 70 17 29
400 821 281 55 43 36
239 842 255 65 58 60
242 837 331 143 113 92
359 513 359 63 20 32
360 503 358 58 14 23
363 498 364 66 22 30
363 503 364 86 17 32
369 498 367 90 22 36
360 895 308 71 62 59
309 924 370 47 43 41
363 508 364 132 17 42
349 599 340 164 23 54
360 514 362 111 14 36
363 513 364 121 23 44
287 518 370 106 25 41
368 513 364 57 26 31
298 718 229 75 35 37
438 858 334 74 60 49
372 493 367 84 25 36
283 532 334 135 16 45
157 528 209 149 109 85
383 483 354 87 28 38
382 488 354 56 28 33
382 488 359 142 32 53
338 718 199 76 51 41
379 493 359 126 27 47
380 489 361 106 18 37
373 498 365 120 26 45
373 503 364 130 25 47
374 508 360 65 28 34
338 874 354 46 43 41
268 940 277 96 87 87
375 510 356 63 24 31
371 511 362 55 26 32
376 503 359 58 28 32
376 497 362 113 22 40
218 693 274 76 28 37
318 493 389 54 26 29
320 494 392 80 27 34
313 498 388 50 27 29
310 503 387 73 20 31
310 500 387 51 24 24
313 503 389 78 25 35
200 583 264 161 0 47
307 508 385 106 26 41
406 767 245 95 71 58
243 598 320 56 29 32
319 498 393 68 26 32
319 503 392 94 27 39
318 513 384 124 28 48
388 508 285 127 1 38
208 583 300 100 25 40
346 643 318 170 8 54
367 847 374 69 60 54
333 479 389 75 25 33
337 479 389 56 24 25
328 483 389 89 18 33
381 622 265 65 42 27
329 484 394 105 12 34
327 487 395 105 13 34
320 490 388 64 25 29
213 831 269 182 131 109
321 491 391 79 25 29
264 890 399 41 39 41
324 489 394 87 18 28
329 488 399 116 14 37
331 481 389 85 23 29
358 618 254 97 32 40
321 866 306 32 31 32
330 485 397 108 9 34
207 568 239 36 30 33
221 645 272 47 28 34
333 493 403 156 22 52
323 503 394 63 26 33
328 503 394 133 27 50
321 506 392 53 24 32
333 502 394 123 25 47
334 496 402 163 23 56
278 628 334 108 32 45
215 730 302 153 12 47
339 482 389 61 16 25
301 852 454 75 62 51
338 483 399 75 12 30
343 484 394 67 7 24
342 484 399 66 6 24
370 583 301 89 32 43
237 634 247 159 7 37
348 493 389 184 20 55
273 813 234 78 62 54
198 618 239 110 83 66
217 693 284 50 29 35
349 495 394 170 20 53
210 592 241 129 14 34
352 493 394 171 21 53
338 485 403 86 13 32
368 876 406 66 53 51
343 488 404 74 9 27
347 489 403 63 10 25
347 492 403 143 16 48
363 888 434 86 76 71
344 495 401 181 20 62
337 501 389 134 36 56
337 501 394 90 22 36
289 959 314 89 82 84
312 875 328 28 31 35
343 498 394 138 21 50
243 888 373 105 90 79
346 496 390 164 28 62
347 496 398 185 17 60
304 816 307 129 92 74
342 496 402 189 18 56
327 582 216 185 8 41
263 653 241 142 2 33
220 658 279 86 29 39
388 414 264 67 41 35
273 728 337 177 17 58
432 498 259 90 73 54
393 415 259 68 32 28
393 414 264 67 32 28
388 414 269 67 43 35
169 553 195 165 112 83
398 415 269 69 25 30
289 899 257 78 69 69
388 415 278 60 38 30
218 768 304 98 79 69
357 792 312 110 83 65
393 415 274 73 35 32
437 528 249 173 118 87
402 415 264 63 26 26
401 415 272 65 23 27
400 416 258 65 28 28
393 417 279 93 21 29
404 678 269 177 119 91
174 628 233 155 112 87
350 880 277 74 61 58
387 419 282 98 21 38
388 423 283 110 13 35
348 863 394 35 32 31
393 423 282 81 16 31
353 703 314 144 9 44
388 428 283 122 9 37
323 716 237 107 36 33
388 433 283 104 11 33
217 643 279 86 26 39
383 818 394 63 51 39
298 518 354 105 12 35
276 971 338 71 67 67
393 433 282 84 18 30
243 954 360 59 56 57
332 711 209 85 55 48
272 912 255 86 76 76
398 416 274 67 22 27
394 422 281 91 13 32
398 423 281 101 20 37
396 430 282 71 23 32
397 433 282 67 22 31
393 438 283 66 21 30
180 600 232 132 98 74
388 448 282 62 22 29
440 515 242 191 132 104
393 443 283 77 18 30
393 448 284 64 24 30
400 438 281 66 25 30
398 443 283 79 21 32
373 868 294 67 54 53
398 448 283 72 26 33
403 416 259 68 28 28
415 424 260 118 24 44
365 630 301 151 28 54
414 423 264 90 26 37
202 608 205 147 104 77
412 419 268 121 28 43
411 433 264 98 23 38
410 424 271 50 26 28
382 582 269 131 18 38
238 598 318 60 27 33
410 428 270 113 27 42
403 423 279 78 25 33
367 868 404 89 72 62
228 810 232 96 76 67
371 542 231 39 34 41
298 802 312 132 100 85
407 419 274 61 28 31
406 423 277 62 26 32
209 608 219 107 65 51
403 433 279 68 26 33
411 438 259 114 21 39
410 434 265 91 21 35
353 796 312 50 40 38
409 438 269 79 27 36
356 890 291 68 58 58
168 548 214 120 88 68
238 598 224 150 12 39
411 443 259 123 19 40
248 783 309 66 53 47
410 440 261 128 27 43
332 857 249 70 59 58
410 443 264 122 22 40
403 448 279 97 26 39
400 443 281 94 28 38
387 433 315 131 13 40
297 927 280 82 74 75
386 435 311 131 12 43
390 438 319 152 19 48
390 536 286 147 15 44
386 448 310 139 18 45
393 558 269 73 26 30
388 443 314 149 18 47
389 448 319 138 19 45
416 420 258 102 34 36
201 594 291 29 26 29
291 855 449 71 58 48
416 423 258 147 24 50
416 426 257 119 24 37
220 674 288 84 26 36
195 542 274 167 0 46
393 423 334 79 29 37
387 427 328 84 14 31
389 425 329 88 23 35
270 532 357 136 26 44
267 916 256 89 78 76
391 425 330 93 27 38
391 429 325 151 20 48
392 428 329 157 24 51
382 883 324 58 49 42
390 433 322 153 20 48
391 433 324 160 21 51
318 863 413 50 41 36
262 515 162 101 29 32
392 433 334 155 17 49
388 423 339 58 24 29
385 425 340 39 23 22
393 421 344 78 27 36
234 883 296 166 125 94
393 420 349 75 31 34
398 873 335 61 55 54
365 895 312 61 52 52
386 426 337 62 12 22
396 424 340 106 32 42
226 912 302 66 58 58
396 423 344 79 29 38
351 821 231 72 58 53
395 428 339 114 27 42
393 433 339 133 22 47
396 426 341 53 31 31
365 625 272 34 32 34
395 784 239 61 49 42
397 428 349 94 24 39
378 788 225 79 59 49
193 768 274 146 113 82
396 431 346 59 20 29
396 433 349 118 31 47
390 438 322 153 18 49
359 668 299 42 28 32
391 438 325 156 19 50
366 633 289 138 26 50
185 683 234 174 115 88
390 443 323 140 20 48
391 443 329 139 20 45
390 449 328 79 28 34
391 446 326 57 25 35
253 918 399 63 57 54
349 523 203 81 30 36
391 448 329 106 27 40
351 861 367 69 62 58
391 443 334 159 16 51
392 438 339 169 12 54
393 438 344 151 15 44
395 435 348 92 23 31
395 438 349 165 21 54
396 436 351 130 33 43
355 624 257 94 39 42
392 443 344 165 13 52
394 882 324 62 55 50
392 448 344 145 18 46
393 443 349 171 15 54
348 773 200 77 59 47
458 783 374 112 87 66
385 420 360 91 25 34
389 420 354 73 31 33
387 421 365 82 29 32
303 754 336 62 52 50
388 423 369 97 27 36
244 846 264 198 138 108
223 578 219 106 25 39
393 420 364 79 33 34
390 420 367 86 30 34
396 420 359 72 35 34
394 421 365 81 38 36
368 815 237 78 59 52
398 423 364 80 33 35
397 424 368 102 13 37
397 433 359 114 24 43
398 428 364 130 29 49
369 603 304 161 19 52
397 433 364 131 20 45
393 443 364 167 14 52
204 528 299 52 28 32
404 483 266 100 19 34
416 745 257 118 83 62
392 448 363 150 20 49
332 606 231 56 37 40
394 443 354 172 13 55
238 788 225 66 55 52
283 638 239 80 34 40
395 440 357 175 15 55
198 768 224 167 114 81
393 448 359 162 17 51
400 664 276 165 120 96
331 885 406 61 51 53
396 441 360 170 13 55
293 898 412 63 58 56
388 453 282 34 30 30
236 701 326 33 29 30
432 533 245 146 111 77
363 843 254 79 64 60
393 453 284 49 28 30
353 713 209 74 57 48
384 463 289 149 13 48
393 458 284 44 28 31
393 463 284 69 19 30
261 887 253 63 57 56
183 568 220 96 70 53
400 463 281 120 23 42
400 698 276 168 112 84
397 468 283 82 19 32
398 663 255 128 89 55
222 753 310 172 16 55
399 473 280 118 19 41
409 453 259 108 15 37
408 453 264 53 24 28
408 878 344 67 55 47
407 453 269 36 27 29
409 458 260 122 11 39
409 463 259 79 17 29
406 457 268 34 27 29
412 458 257 123 9 35
365 877 406 57 43 44
404 468 269 81 24 35
198 763 224 161 111 78
219 653 284 62 29 36
411 464 257 86 26 33
405 453 274 39 27 29
424 863 345 77 66 58
406 452 273 44 27 30
404 458 274 31 27 29
404 463 274 47 28 31
196 579 210 113 77 60
200 568 264 141 0 39
413 878 334 81 69 62
406 468 263 89 23 33
181 530 202 116 68 58
234 903 294 120 94 72
407 473 263 82 21 33
242 857 297 115 80 52
402 478 269 86 20 34
308 533 345 150 18 49
410 478 261 74 24 31
401 468 278 64 23 31
402 473 274 102 21 38
400 475 276 136 19 44
401 477 273 112 16 39
289 844 449 57 46 41
384 453 304 138 16 44
313 578 209 195 11 46
386 458 305 118 19 41
306 856 481 74 59 42
384 463 299 106 21 38
386 455 306 138 18 43
206 518 217 118 22 37
389 453 319 82 25 35
258 543 180 185 14 45
376 836 270 158 99 80
333 868 394 35 33 33
388 458 314 131 22 44
388 463 314 86 27 37
228 803 229 115 87 72
386 473 294 156 12 50
385 473 303 130 18 43
319 914 379 64 57 55
223 864 319 103 82 62
386 477 292 157 12 49
385 475 296 151 16 51
379 643 251 127 97 65
387 468 309 67 26 34
333 814 306 47 41 38
388 473 314 72 30 37
392 483 283 129 3 40
389 483 285 125 1 37
393 493 280 142 5 45
391 494 282 130 4 41
399 483 274 143 13 46
283 699 337 108 26 41
187 733 254 159 109 79
398 488 274 141 11 46
400 502 271 132 14 44
386 498 287 138 5 43
388 498 285 125 1 39
388 503 285 125 1 39
394 728 285 162 110 81
386 501 287 137 4 43
323 693 240 50 36 37
392 498 283 134 8 43
250 811 231 77 62 57
388 849 408 77 60 52
393 503 283 132 10 42
204 602 231 83 53 37
388 513 285 125 2 38
393 508 283 130 12 42
314 793 215 65 54 49
393 763 234 60 45 38
203 598 229 83 55 38
183 798 249 177 120 88
393 513 283 142 10 45
395 498 280 148 10 47
398 498 274 136 15 44
225 606 236 161 8 33
396 498 278 155 14 51
397 503 279 121 19 42
399 508 275 101 19 38
397 508 279 97 21 37
395 508 281 123 21 43
395 514 281 155 15 50
308 528 344 106 7 34
402 483 268 105 12 35
203 648 215 169 114 85
400 483 271 130 14 43
408 488 265 99 17 34
428 513 273 119 88 75
406 490 267 127 9 43
375 600 272 61 24 35
351 888 275 80 68 65
409 493 265 104 21 35
186 738 237 152 103 72
412 488 259 94 34 36
361 693 298 98 29 42
412 493 259 88 37 37
234 774 221 50 45 45
407 513 264 111 23 38
305 798 221 61 51 46
404 508 270 128 16 41
409 503 264 103 27 39
405 511 271 135 10 44
412 498 259 91 26 34
442 518 249 181 123 91
409 498 265 104 31 39
409 508 259 113 25 34
401 505 272 123 13 39
450 480 257 144 107 89
402 509 272 119 15 38
386 482 292 147 16 48
238 632 245 150 9 37
385 480 308 45 26 30
385 484 314 59 27 33
303 563 340 159 23 53
228 553 199 174 6 39
386 483 319 97 29 42
414 821 396 83 66 62
385 488 319 92 29 41
448 479 269 125 89 79
358 878 384 46 41 39
429 503 259 92 79 65
376 608 293 159 20 49
338 718 344 74 26 34
429 503 264 84 69 51
430 504 269 72 49 30
423 513 259 93 76 56
273 882 394 39 37 38
425 510 263 85 67 49
424 513 264 85 63 44
430 505 272 85 59 43
433 513 273 166 121 104
435 495 259 102 83 64
435 495 264 89 73 55
388 618 269 82 54 39
439 489 259 103 77 55
247 867 361 146 108 94
439 489 264 86 68 47
442 487 260 101 77 57
208 778 290 168 124 94
186 733 238 154 104 72
253 533 174 201 11 44
223 698 299 85 25 38
