ply
format ascii 1.0
comment Created by Open3D
element vertex 2240
property double x
property double y
property double z
property uchar red
property uchar green
property uchar blue
end_header
394 824 254 64 55 51
401 807 254 68 56 53
405 800 254 59 51 49
385 835 216 79 62 56
386 837 224 67 56 53
384 839 224 70 58 53
455 845 357 89 69 56
386 837 229 61 53 52
386 837 234 56 49 49
384 839 244 59 52 54
358 923 258 75 68 69
390 833 246 57 49 49
389 842 248 60 50 47
385 847 241 59 50 49
387 847 244 60 51 49
392 842 254 55 47 48
385 851 241 65 55 51
357 872 324 32 31 31
386 852 244 66 55 52
412 832 325 60 50 45
389 853 253 69 58 54
370 771 347 155 103 72
390 851 254 67 57 54
427 846 304 76 61 55
387 857 254 70 59 53
298 772 259 81 64 57
299 777 264 80 63 57
299 776 269 79 64 58
307 841 294 100 78 55
300 779 264 79 63 58
301 782 264 80 64 59
300 779 269 79 64 58
305 840 268 82 67 54
301 782 269 79 63 58
299 776 274 79 64 58
298 772 289 77 62 58
301 777 284 77 62 57
302 777 289 78 62 57
300 779 274 79 64 58
300 778 279 78 63 58
303 787 264 64 53 52
304 791 269 43 39 45
308 797 259 197 140 118
364 918 263 71 63 60
304 790 274 57 47 47
305 793 274 52 45 47
304 790 278 73 60 56
306 792 279 60 51 51
305 789 281 73 60 56
305 789 284 74 59 56
308 797 284 52 43 48
309 796 288 66 55 54
310 798 290 65 54 52
298 771 294 79 62 57
285 840 290 149 116 93
299 770 304 78 63 58
302 777 304 77 62 57
301 772 309 75 61 57
302 772 314 71 58 53
303 772 319 60 48 45
303 777 314 69 56 52
304 776 318 53 46 46
305 783 304 74 61 58
305 783 309 73 60 56
305 779 316 65 52 51
305 777 320 63 49 46
304 780 312 71 58 53
305 784 291 75 61 57
306 787 294 75 61 56
322 967 309 74 71 72
281 907 258 84 71 64
308 792 294 73 59 56
307 786 304 74 61 57
310 789 301 73 59 56
320 809 313 66 54 51
310 789 304 73 60 56
337 777 367 170 123 99
264 945 312 75 69 68
311 793 299 73 59 56
312 792 304 72 59 56
261 938 330 67 62 60
310 793 295 71 58 55
313 797 304 72 59 54
308 787 314 67 55 52
310 789 312 69 57 54
319 919 361 62 59 60
309 790 318 47 43 45
313 797 319 55 45 47
315 797 309 68 56 51
309 800 257 197 139 118
311 802 264 195 137 115
310 802 269 194 138 116
312 807 269 193 137 114
314 812 259 184 129 109
314 812 264 186 132 110
314 816 259 174 127 105
314 812 269 185 131 107
314 816 267 179 129 106
315 817 269 176 127 104
309 800 274 193 139 116
310 803 274 193 138 115
309 800 279 178 131 110
311 803 279 190 137 114
313 807 279 188 133 110
313 807 284 180 131 108
314 811 274 184 130 106
316 813 289 165 118 97
317 817 284 156 109 87
418 787 293 64 53 47
311 832 264 138 108 82
315 818 264 176 129 108
315 822 259 167 128 103
314 823 260 164 128 103
315 822 269 167 124 101
313 827 259 154 120 95
327 822 304 55 46 46
313 827 269 150 116 90
314 824 268 161 121 96
311 832 269 127 99 75
315 822 274 157 115 91
317 822 279 145 106 83
319 821 283 141 102 80
414 782 287 57 47 42
319 820 287 137 97 75
315 827 275 142 108 84
315 830 276 130 100 75
317 827 279 132 100 77
318 833 283 129 98 74
314 807 293 50 41 47
314 800 302 75 59 54
316 802 304 73 59 56
342 887 398 78 72 70
317 807 299 74 59 55
314 810 292 98 78 71
319 806 310 72 59 55
379 887 262 66 55 54
316 802 314 64 52 50
314 800 319 48 42 44
319 810 319 47 42 44
305 773 321 78 56 49
307 777 324 142 101 78
308 772 329 151 108 80
310 777 336 170 124 95
308 782 324 144 103 81
310 784 326 162 119 92
309 780 333 170 126 97
337 866 300 50 42 35
311 777 344 177 129 101
312 782 349 176 127 100
310 787 324 153 112 87
312 792 324 150 110 88
311 787 334 174 128 100
312 792 334 173 127 100
315 799 323 140 107 87
311 787 339 177 130 102
277 957 289 62 58 59
312 787 344 175 129 102
312 792 339 176 129 101
314 792 349 172 126 99
314 797 348 169 124 97
317 772 359 169 122 93
319 771 362 168 119 92
314 782 353 175 127 99
316 787 354 172 125 98
314 792 352 172 126 98
316 792 354 171 125 96
318 787 359 169 122 95
270 877 309 168 125 106
425 772 314 82 67 53
315 802 324 142 107 87
314 801 325 159 120 96
315 804 328 162 122 98
318 807 324 138 106 83
295 890 342 59 54 53
318 806 329 162 121 95
315 804 334 165 122 97
317 806 334 164 120 95
314 802 339 169 120 96
315 804 339 165 117 94
314 800 347 165 121 96
318 801 353 167 120 94
288 848 270 114 95 75
288 839 280 107 88 65
287 838 289 120 98 77
284 843 280 151 120 93
286 846 273 125 103 81
284 842 289 166 124 104
388 858 259 67 57 53
340 960 271 90 84 85
285 840 284 137 112 88
279 859 271 141 115 88
278 863 269 140 115 89
282 857 269 134 110 87
287 857 264 119 98 76
282 862 264 127 105 82
284 864 261 128 103 77
287 862 260 122 99 74
279 857 289 139 62 78
347 867 359 39 36 35
279 859 274 145 118 90
281 856 274 143 115 87
280 856 279 155 123 94
285 850 272 133 110 87
378 845 422 82 63 49
280 855 284 149 116 91
280 855 289 139 52 71
286 846 295 129 94 74
279 858 294 124 94 90
376 901 284 52 47 45
279 859 298 104 51 53
279 859 302 114 43 55
283 852 298 145 68 85
284 849 297 108 29 47
286 851 300 141 64 82
287 857 304 122 92 87
282 858 303 106 49 56
277 863 309 76 59 45
268 873 275 125 102 78
270 871 273 121 99 77
269 869 280 112 93 73
272 867 284 107 88 69
470 807 324 87 67 54
265 877 279 169 123 102
265 875 284 164 117 98
264 878 281 182 129 114
272 887 269 165 119 95
268 882 274 174 127 104
265 882 279 183 131 112
266 887 279 185 132 113
270 883 272 169 125 99
264 880 284 185 134 118
264 880 288 183 133 117
355 852 291 30 26 28
265 882 289 178 127 111
266 887 289 126 89 78
269 892 275 175 126 105
269 897 276 163 122 98
358 942 274 78 69 69
266 892 284 129 100 85
265 896 283 122 100 81
264 898 285 123 103 83
274 868 270 137 111 85
275 870 267 145 117 89
279 875 261 151 117 85
274 877 266 154 119 91
281 866 263 131 106 80
362 912 339 51 45 43
275 865 279 118 91 69
277 882 263 158 118 91
274 886 266 161 119 94
382 860 368 54 43 37
278 897 264 158 117 93
275 889 267 158 116 90
383 888 284 48 41 40
273 897 270 169 123 100
282 892 260 147 112 81
280 889 262 151 114 85
280 892 262 149 112 83
286 892 258 144 110 79
286 897 257 127 98 72
271 871 294 120 92 72
269 868 305 152 116 93
269 868 309 162 125 103
269 875 308 170 127 107
327 874 344 31 29 30
270 873 311 177 133 116
272 877 313 156 116 102
262 897 294 131 110 91
269 882 298 161 114 101
270 882 300 159 116 100
270 887 300 107 79 71
265 891 294 114 100 89
263 897 304 80 71 65
267 893 304 105 84 64
270 891 304 105 83 65
272 882 309 162 118 102
270 891 309 117 92 67
266 897 314 145 115 90
271 891 315 137 111 86
269 894 317 143 113 88
272 892 319 128 104 82
271 897 320 147 117 93
367 832 314 35 31 31
276 864 312 79 64 50
282 867 314 102 77 60
284 873 317 149 114 96
283 877 317 154 116 100
273 882 313 154 117 103
277 882 315 120 86 73
277 891 320 91 75 60
286 886 320 88 75 66
356 866 296 31 29 30
293 844 271 108 87 63
292 847 268 108 88 66
297 843 270 110 85 54
301 847 263 99 81 62
303 847 260 122 100 77
303 843 264 100 83 65
302 842 269 95 74 54
358 813 345 152 97 74
300 845 267 101 81 55
297 838 279 121 89 45
292 836 284 103 80 52
292 836 289 96 79 59
297 836 284 114 85 49
292 841 274 112 89 60
297 841 274 117 87 47
302 836 284 101 75 43
302 836 289 89 70 49
292 852 264 109 89 67
346 854 386 79 69 66
293 858 260 114 92 67
294 854 261 111 90 66
298 853 260 108 87 62
442 837 319 80 67 56
297 857 259 115 92 65
293 849 266 108 87 64
321 813 319 48 42 43
289 859 261 117 95 71
291 861 258 117 94 69
300 850 262 101 81 59
301 856 257 116 94 69
307 842 259 123 101 79
304 844 261 121 100 79
307 837 274 75 61 49
370 870 322 32 31 34
307 837 279 73 58 48
307 837 284 73 58 41
307 838 289 83 65 44
312 837 284 70 55 39
311 839 287 72 56 38
315 835 281 106 82 59
317 836 284 109 84 61
261 930 323 45 42 45
317 839 287 106 81 59
305 850 257 135 110 83
297 837 294 108 87 65
290 841 296 151 114 97
292 847 300 120 90 69
297 846 301 131 103 79
302 845 301 126 99 76
302 847 303 126 100 75
292 849 302 114 74 61
292 857 305 109 88 83
323 821 299 67 52 49
297 852 304 126 92 74
297 856 306 108 57 60
292 859 307 83 40 41
303 853 308 126 101 75
298 863 318 110 86 63
307 848 303 114 91 67
310 844 297 101 78 56
317 841 290 83 62 42
317 844 293 84 63 42
317 846 295 92 69 49
318 850 300 91 69 50
307 850 306 117 94 70
307 853 309 121 96 71
312 853 308 110 87 65
307 857 314 114 90 65
307 860 316 107 85 61
318 856 310 90 71 53
316 858 313 96 76 58
317 862 314 88 70 55
289 869 256 133 108 80
412 867 309 84 70 65
292 866 314 114 90 69
295 865 316 108 86 64
317 867 318 78 64 50
335 965 271 89 82 84
317 872 319 68 57 46
318 877 320 64 54 44
273 897 323 143 115 91
279 894 327 101 88 77
312 882 339 39 35 35
404 812 282 62 50 48
280 890 320 97 77 59
282 891 324 86 70 55
287 892 329 89 76 67
288 889 327 117 98 82
282 897 330 126 102 85
286 896 334 81 69 61
360 942 279 61 54 51
288 894 333 61 54 50
273 897 349 45 42 43
278 894 346 52 49 48
282 896 343 51 48 47
283 893 345 52 49 49
285 895 342 52 49 49
282 891 348 52 49 50
286 890 347 53 51 52
288 878 364 43 40 41
288 878 368 45 41 41
278 888 354 45 42 43
276 892 359 52 47 46
274 894 354 44 40 40
272 897 354 49 45 44
279 888 362 52 46 46
279 892 362 55 50 48
279 897 362 53 48 46
367 855 388 68 59 54
283 884 355 50 46 46
322 895 392 63 56 55
280 886 359 43 40 40
287 882 354 53 50 50
286 880 358 49 45 46
284 884 368 53 48 45
286 881 364 44 40 40
282 897 363 54 49 47
284 890 367 53 47 44
287 892 369 58 51 50
285 893 366 54 48 46
288 882 373 56 50 48
291 877 321 152 106 94
297 877 325 135 96 84
302 871 326 128 95 80
299 877 327 128 93 80
302 873 327 123 91 77
304 879 351 61 59 63
289 884 323 58 56 57
297 882 326 93 69 60
297 887 329 76 65 55
292 890 331 95 82 71
292 893 334 67 58 53
296 890 331 79 68 58
259 929 326 49 46 47
297 891 334 67 57 51
300 890 334 60 54 50
297 883 349 68 64 65
297 887 344 61 56 56
291 891 343 59 54 53
289 889 346 55 52 51
298 888 340 57 52 50
303 883 345 51 48 52
374 903 288 55 49 47
307 867 324 108 84 66
309 865 321 100 78 61
311 868 322 93 73 58
312 872 323 82 66 52
306 873 327 111 84 69
309 876 326 88 70 56
312 877 324 70 58 46
310 878 327 73 59 49
312 877 349 41 38 41
306 885 331 57 48 40
308 884 334 44 39 38
317 881 324 58 49 42
414 844 297 61 52 47
317 881 329 51 43 38
311 880 343 38 35 37
316 880 338 38 34 34
297 876 359 60 58 59
302 876 358 65 62 64
289 879 372 50 45 44
292 877 374 48 44 42
294 874 372 45 41 42
297 872 374 46 41 40
297 877 379 51 45 43
294 878 378 52 47 44
300 870 376 49 44 43
299 879 382 49 43 41
291 887 375 60 53 51
290 893 371 60 53 51
289 890 372 60 53 50
292 892 373 60 53 51
296 893 375 60 54 52
377 837 424 86 68 53
299 896 377 61 54 52
301 892 380 64 58 55
302 897 379 63 56 53
307 868 369 50 47 48
312 868 369 41 38 39
306 875 357 58 55 58
395 842 275 62 50 51
309 874 356 52 49 53
317 871 359 39 37 40
317 870 363 40 38 40
317 869 365 40 38 39
316 875 352 40 37 40
312 867 384 45 39 35
317 865 374 41 38 38
316 865 377 44 40 39
314 864 382 45 40 38
321 827 284 134 101 77
321 832 285 133 100 75
323 832 288 133 101 77
323 817 304 75 61 56
321 812 314 66 54 52
341 901 384 62 56 54
263 923 334 42 38 39
324 816 314 72 59 56
320 819 290 136 94 73
322 822 294 118 82 65
325 824 295 109 79 64
325 827 290 125 92 70
324 825 292 120 87 68
327 827 294 120 88 70
326 832 290 127 95 72
328 832 293 121 88 68
332 827 304 47 39 41
329 830 298 118 86 66
332 832 299 116 85 67
325 819 319 52 45 46
328 821 319 53 46 46
385 862 259 64 55 52
330 824 319 52 43 43
330 824 309 56 46 44
335 829 306 47 37 39
333 826 319 51 40 41
341 833 310 53 42 41
353 952 279 81 74 75
339 830 313 57 44 41
342 832 314 52 39 39
347 832 319 42 34 35
367 828 319 38 33 34
364 833 315 34 30 30
372 831 314 36 33 32
372 829 316 35 33 32
376 829 316 37 34 32
379 831 317 36 33 32
380 828 320 39 35 34
322 772 364 167 118 92
322 777 364 171 121 95
326 772 366 163 115 87
328 772 367 162 113 86
327 777 366 164 114 88
320 783 361 170 121 97
322 782 363 170 120 95
327 782 366 166 116 89
337 772 367 170 122 98
330 779 366 162 113 87
332 782 366 166 119 93
333 780 367 168 122 97
337 783 366 170 123 99
323 792 362 165 117 94
332 792 365 167 119 95
337 787 366 168 122 97
277 938 335 56 53 53
337 792 365 168 122 97
342 772 367 166 118 89
347 777 365 163 112 83
352 777 363 159 107 79
347 782 365 160 109 80
352 782 363 156 104 76
342 797 363 157 110 83
347 787 364 156 104 78
347 792 363 154 104 78
351 786 362 154 103 76
399 788 277 54 47 48
353 788 361 153 102 77
332 882 399 63 58 57
350 790 362 151 101 71
352 797 358 154 103 75
346 796 362 154 105 76
320 809 326 153 115 91
322 812 329 153 111 86
323 816 324 91 65 59
326 818 334 146 100 78
392 883 355 65 56 51
402 866 349 68 59 54
321 808 339 161 114 90
321 808 344 164 115 91
321 807 349 165 115 91
324 815 339 150 102 79
324 811 349 155 105 81
326 818 324 100 75 64
331 823 324 73 48 46
332 823 329 143 99 78
336 824 335 130 83 62
333 825 324 52 34 36
335 824 330 135 90 68
331 819 345 141 90 69
331 862 303 63 51 40
332 818 349 142 92 69
349 814 351 154 97 75
353 813 350 158 102 79
340 829 321 48 40 37
289 935 342 62 57 57
343 830 324 46 36 37
338 825 334 122 78 56
347 828 329 78 49 46
346 830 327 60 38 42
352 833 319 39 36 39
352 827 329 71 48 46
347 825 333 108 74 58
342 823 339 123 77 59
342 821 344 133 82 62
339 825 337 120 74 53
347 821 344 129 79 61
352 818 344 134 81 62
352 821 339 114 72 53
348 819 345 136 82 63
262 942 299 67 62 63
345 820 347 139 86 69
320 803 355 166 119 92
369 823 326 34 30 35
323 802 358 164 119 94
322 807 354 163 115 91
327 802 360 163 115 92
406 775 275 55 46 43
327 812 354 151 101 78
332 807 359 158 107 84
337 807 359 158 107 84
332 801 362 165 118 96
329 815 352 145 93 70
337 816 353 151 101 80
342 803 360 155 105 80
341 800 362 157 108 83
342 816 353 152 102 83
347 806 358 154 102 76
352 802 358 155 102 76
344 809 356 151 100 74
480 837 355 105 83 65
346 815 352 152 97 76
352 811 353 159 102 78
364 782 350 156 106 79
368 777 345 154 105 76
362 792 349 158 107 80
362 797 349 160 107 81
372 772 344 149 97 72
317 975 297 54 52 53
371 777 343 149 99 73
374 773 341 143 93 69
377 772 340 128 83 62
374 777 341 143 93 70
369 774 346 155 105 75
371 782 342 151 102 76
373 782 341 147 98 72
372 787 339 149 100 75
370 786 342 153 103 79
372 792 338 154 104 78
349 868 402 46 38 35
369 788 341 155 105 80
369 792 341 157 106 80
371 797 338 158 106 81
380 789 336 58 42 33
383 790 337 48 33 27
357 777 359 156 106 79
357 782 359 154 104 79
359 782 356 155 105 81
362 772 355 159 110 83
362 777 354 158 108 82
365 775 352 159 108 79
361 782 354 156 106 81
356 792 358 154 104 78
361 787 353 156 106 80
360 792 353 157 107 80
367 812 334 143 94 69
358 807 350 164 107 84
357 816 344 141 89 68
357 812 349 160 102 78
367 807 339 161 107 83
365 806 342 163 109 85
363 807 345 164 110 84
364 802 345 162 109 82
361 802 349 162 107 82
322 956 324 68 66 68
362 812 344 158 102 80
363 813 340 151 98 76
417 827 309 64 54 49
357 832 323 48 38 37
362 827 324 44 37 37
361 831 322 51 42 38
366 825 327 45 38 38
377 802 330 75 52 42
374 803 330 130 86 65
375 800 332 127 86 65
377 807 329 47 35 31
372 817 328 45 35 33
381 803 331 47 36 31
382 812 330 48 39 34
370 801 337 159 107 83
371 820 327 38 33 32
372 822 325 37 33 32
374 819 326 35 32 32
372 826 323 37 33 33
342 890 397 71 64 59
382 822 325 41 35 32
382 827 323 41 36 34
383 832 323 38 35 35
356 806 353 162 105 80
322 844 292 98 72 52
326 841 291 132 97 74
336 834 301 122 90 69
362 848 411 74 57 47
337 837 299 120 86 66
332 842 293 119 86 67
451 841 310 86 68 59
337 847 295 97 68 53
327 851 296 87 66 48
320 849 297 91 69 49
322 852 299 88 67 49
327 853 298 83 63 46
327 857 303 81 63 48
332 852 295 95 72 56
272 933 340 66 61 60
336 854 297 77 58 47
327 862 305 70 56 43
322 862 309 78 62 47
324 860 306 80 63 48
320 863 312 78 63 50
340 838 300 113 82 61
342 837 304 58 48 44
342 843 295 110 77 58
338 840 297 119 84 63
352 847 294 42 30 28
327 897 392 83 76 74
352 843 299 63 42 36
349 845 297 77 52 45
352 845 297 53 38 32
343 836 309 42 35 35
347 833 315 41 32 33
344 835 312 44 36 34
342 852 293 63 43 37
342 857 294 47 38 32
342 861 295 43 36 32
348 852 291 50 37 32
346 852 292 67 47 39
352 857 290 33 30 30
350 860 291 37 33 33
352 862 294 38 35 35
337 867 304 42 37 33
328 870 306 53 44 38
322 867 314 70 58 46
382 887 294 58 51 50
323 871 315 62 52 42
322 876 320 55 47 40
337 869 308 37 33 32
337 870 310 37 33 32
330 875 316 43 39 36
337 873 319 33 31 30
347 866 295 34 30 30
346 868 298 31 29 29
347 870 304 32 29 29
352 868 298 31 29 29
352 872 304 30 28 30
416 850 393 93 77 63
341 869 307 39 33 32
342 870 309 39 34 32
347 871 319 33 30 30
361 840 302 34 31 29
366 842 300 33 30 28
368 842 303 34 31 30
357 839 305 33 28 27
355 931 260 71 63 65
358 928 264 67 59 61
357 837 309 32 28 27
357 837 319 40 35 34
355 840 316 35 28 30
355 840 318 37 30 31
367 836 308 34 29 29
360 836 318 36 32 32
365 835 312 34 30 29
354 857 292 32 29 30
357 862 295 34 32 32
360 855 296 34 32 32
365 855 301 38 34 34
366 857 304 37 34 35
361 862 299 34 32 32
367 862 309 31 28 32
372 836 308 36 32 32
371 838 306 34 32 32
375 834 310 40 37 35
372 842 305 36 33 33
372 847 305 40 36 36
374 841 307 36 32 34
376 847 309 43 40 40
381 837 319 34 30 30
376 847 314 39 36 37
378 847 319 38 35 34
372 852 309 38 35 35
371 856 310 35 30 32
373 858 313 35 31 33
374 854 312 36 33 34
377 857 314 37 34 34
370 860 311 33 30 33
323 924 351 56 51 49
384 872 262 61 52 52
383 877 263 63 53 52
375 885 256 64 57 56
383 883 355 49 43 38
325 877 396 54 48 46
374 888 257 67 59 60
372 897 259 65 57 57
373 893 258 63 54 54
378 893 264 68 57 55
376 897 264 72 61 59
380 880 261 61 52 52
381 887 265 67 57 55
275 915 262 65 61 62
383 887 269 71 61 58
380 891 265 71 60 58
379 898 268 69 60 59
380 896 270 64 55 54
380 896 279 51 45 43
376 897 289 55 49 47
378 893 289 58 51 51
378 897 284 50 45 43
384 889 280 53 46 47
381 890 289 57 51 50
380 895 283 44 38 36
357 875 302 30 28 30
362 872 304 31 29 32
274 955 288 63 60 60
365 875 300 32 30 32
357 871 309 30 29 30
357 870 314 33 30 31
394 837 280 50 39 42
361 870 308 30 28 32
365 865 305 31 29 33
362 870 315 32 30 32
362 872 319 32 30 32
371 872 319 32 31 32
371 875 314 32 30 33
384 884 295 59 51 52
333 848 394 54 45 40
379 888 297 59 51 50
384 884 298 61 52 53
379 893 294 57 51 50
377 897 294 56 50 48
381 891 294 58 52 50
378 897 304 55 49 47
380 891 299 58 51 50
382 891 304 62 56 55
372 837 419 85 68 53
379 894 309 56 49 47
378 897 309 55 48 46
379 894 314 56 50 49
377 897 314 55 49 47
355 950 280 74 66 65
379 894 319 57 50 49
327 864 374 44 40 40
322 863 379 45 40 38
387 836 419 97 77 60
327 861 379 47 42 41
326 860 383 45 39 37
332 863 374 50 45 46
333 864 370 49 44 45
432 847 359 59 50 42
337 862 374 64 58 56
329 859 381 49 43 44
332 857 384 53 47 45
332 861 378 54 47 46
352 863 369 65 59 55
342 855 383 84 75 72
342 861 374 74 68 65
342 860 377 79 72 69
347 856 384 83 73 69
347 861 374 77 71 67
347 860 377 82 74 70
352 860 377 75 67 63
322 878 324 53 45 39
327 876 324 47 40 37
331 875 325 39 35 33
333 874 324 38 34 32
335 875 328 36 33 32
334 874 331 37 34 32
367 837 433 85 68 53
333 874 334 36 33 31
322 876 344 31 29 31
327 876 339 32 30 30
332 871 349 31 29 30
337 871 349 33 30 31
332 874 339 34 31 31
330 875 337 35 32 31
332 873 344 32 30 30
320 880 325 54 46 39
320 880 332 46 40 36
342 872 329 32 30 29
342 872 334 33 31 30
347 872 329 31 30 30
304 920 362 66 61 61
337 910 362 63 58 57
347 872 334 32 30 30
342 871 344 34 31 31
342 872 339 34 31 31
343 869 351 34 31 31
347 871 344 35 32 31
352 871 344 35 32 31
352 870 348 34 31 31
352 869 350 34 31 31
322 872 354 34 32 34
327 871 354 32 30 32
327 869 360 35 33 34
320 870 362 36 34 37
323 869 361 35 33 36
332 868 359 35 32 34
333 869 356 33 31 32
337 869 355 33 30 32
332 867 364 39 36 37
332 865 368 43 39 40
329 864 371 44 39 40
342 867 359 37 33 33
342 864 366 51 46 44
347 868 354 35 32 32
352 867 359 43 39 38
347 865 363 49 44 42
347 882 379 76 67 62
344 886 377 68 62 58
347 887 379 68 60 58
350 884 376 70 62 56
399 795 274 53 45 47
392 807 329 34 29 27
352 882 384 66 57 55
352 887 378 60 53 50
347 897 374 61 54 52
348 893 376 62 54 50
410 796 286 61 52 47
351 896 372 57 52 52
348 893 379 69 61 58
348 893 384 71 64 61
378 853 323 39 36 35
378 857 323 36 33 33
355 857 400 67 52 43
382 852 325 36 33 33
381 858 325 36 33 33
382 862 325 37 33 34
383 857 333 37 33 32
357 863 369 61 55 50
362 862 369 53 46 41
357 859 379 69 61 56
357 857 384 70 60 55
367 860 374 52 45 39
362 859 379 62 54 48
362 857 384 64 56 51
401 840 433 96 76 61
367 860 377 54 47 42
372 862 369 49 42 37
377 861 369 51 42 37
377 864 360 51 42 37
382 861 364 54 43 37
372 860 374 48 41 37
372 859 379 50 44 40
383 859 370 54 43 37
382 859 374 52 42 37
362 873 324 31 30 31
372 871 389 65 56 50
361 874 329 31 30 31
364 875 325 30 29 30
361 874 334 31 30 30
367 877 334 31 30 31
357 872 339 32 31 30
357 869 350 34 31 31
361 869 351 34 31 31
367 872 344 32 31 32
362 873 339 32 30 30
372 869 328 31 30 33
377 866 325 34 31 33
372 876 328 30 29 31
371 878 326 30 29 31
377 877 329 31 30 32
382 867 327 34 31 32
372 871 349 34 31 31
372 877 339 33 31 31
372 875 342 33 31 32
377 878 340 34 32 33
382 869 351 49 42 38
382 875 342 37 34 34
382 878 340 37 34 34
371 883 329 30 30 32
373 885 330 31 30 33
362 853 390 76 63 56
376 885 331 31 30 32
382 882 334 35 32 34
379 894 323 63 56 55
384 894 334 68 59 58
373 880 337 33 31 32
377 881 338 34 32 33
372 897 349 53 49 47
376 895 349 54 48 46
378 893 350 52 46 44
382 881 338 35 32 34
381 896 339 63 55 54
379 894 346 47 41 41
362 868 354 35 32 31
367 870 352 34 31 31
493 822 339 91 71 54
362 865 362 48 41 38
354 879 383 70 59 59
259 940 300 66 61 61
366 877 383 68 57 50
360 896 368 57 51 48
363 893 365 54 48 45
365 890 367 56 51 48
367 892 364 52 46 45
366 896 362 50 45 44
357 891 373 55 49 48
358 893 370 60 54 52
362 887 374 56 50 48
367 883 374 54 47 45
363 888 370 56 51 50
470 807 314 91 69 56
368 884 370 53 47 46
366 885 373 53 47 47
275 902 267 157 117 93
364 884 376 52 44 41
360 886 377 50 43 41
365 880 382 62 51 47
372 868 354 37 33 31
377 865 358 47 40 35
382 865 357 52 43 38
377 872 384 61 51 44
376 875 382 57 49 46
382 878 374 57 50 49
382 876 379 61 52 48
382 872 384 65 53 48
376 887 359 58 52 51
372 888 364 52 46 45
374 888 360 59 54 53
371 896 354 56 50 49
370 895 358 61 56 53
269 914 271 77 67 59
378 889 356 47 42 41
369 889 366 55 48 44
380 886 357 52 46 42
456 802 308 113 84 56
378 882 364 51 47 47
453 828 339 53 44 38
380 880 369 50 44 41
372 881 374 51 45 43
319 864 387 45 38 33
310 871 386 48 41 36
304 879 387 47 43 40
310 875 386 45 39 35
316 866 385 42 36 33
316 871 390 49 42 38
307 882 388 52 47 44
305 883 386 52 46 44
322 922 354 53 47 45
305 887 386 63 57 56
351 866 400 51 42 37
308 887 388 64 58 56
308 892 389 66 59 57
265 930 272 53 51 53
306 897 384 65 57 54
312 897 390 65 58 54
314 888 392 59 52 49
336 846 393 62 53 49
337 847 399 76 61 49
324 859 386 46 39 35
325 860 391 49 42 37
328 857 393 49 42 37
327 862 394 51 43 38
332 852 389 58 50 45
328 853 389 47 39 34
359 944 278 67 60 58
329 853 392 49 40 34
337 852 398 74 59 47
336 857 396 60 48 39
332 862 395 54 44 37
342 839 401 64 51 42
338 843 395 62 54 50
347 843 395 66 55 51
347 841 399 67 54 45
352 847 394 78 63 56
339 839 401 63 50 41
342 837 404 65 51 40
343 837 409 66 52 39
342 842 405 76 60 48
343 841 408 74 58 45
342 846 403 74 60 48
341 849 401 77 62 51
347 838 404 61 49 38
347 836 409 64 50 39
347 837 414 71 55 41
347 841 408 78 60 48
352 840 408 75 58 46
338 856 397 65 52 43
341 862 396 56 46 38
274 908 266 105 88 75
342 862 397 57 46 38
352 852 399 83 63 53
437 846 364 66 53 41
347 861 396 56 45 37
348 863 397 55 45 39
349 850 402 70 57 46
352 837 424 78 61 47
349 837 422 79 62 47
355 950 284 64 58 57
353 840 424 91 71 56
326 872 396 47 41 37
328 877 397 57 51 48
332 866 396 51 42 35
377 839 411 89 69 52
332 868 397 52 44 37
337 865 396 53 44 37
337 877 400 54 49 46
322 882 395 62 55 53
322 892 394 62 55 53
327 892 395 69 63 61
337 887 399 82 77 76
329 890 397 70 63 60
332 892 395 82 75 72
332 897 393 82 75 72
340 865 396 53 44 37
342 877 401 68 62 61
346 871 401 52 45 40
347 877 402 66 59 56
352 877 403 65 58 54
342 892 395 68 60 56
349 894 388 72 66 63
353 888 395 72 64 60
342 882 401 79 73 71
352 880 402 66 60 58
361 844 400 97 76 63
362 848 395 86 70 59
262 942 289 70 65 64
358 839 411 80 63 49
357 839 414 83 65 50
356 848 405 83 63 52
358 847 409 80 61 50
357 842 414 93 71 55
362 838 414 81 63 49
368 845 402 93 74 60
362 843 414 84 64 50
367 844 415 91 67 53
411 792 285 57 50 46
357 850 392 82 67 57
368 873 394 77 64 59
367 854 390 69 59 54
366 849 396 86 70 61
355 852 401 79 64 55
368 873 399 68 58 54
356 857 404 62 51 43
412 792 329 44 35 29
359 852 407 77 59 47
362 857 409 70 56 47
367 852 410 76 59 47
367 857 410 72 58 47
367 862 408 67 55 48
372 848 399 94 75 62
377 837 414 85 67 51
377 842 408 100 77 56
376 844 406 101 78 59
371 844 416 87 65 47
371 854 391 66 57 51
381 843 410 106 82 59
382 847 414 88 67 53
332 962 264 79 74 76
372 852 394 75 61 54
376 849 400 96 76 60
378 855 393 68 56 49
382 857 394 67 57 50
382 857 399 64 53 44
379 864 398 81 67 59
370 848 411 77 59 44
377 852 414 86 68 56
376 855 412 83 67 58
378 857 404 80 66 55
382 861 403 75 61 54
357 837 419 83 66 50
357 841 424 101 78 61
354 840 427 83 65 52
357 841 428 90 70 55
367 836 424 80 64 50
362 836 429 82 65 51
367 834 428 84 67 52
366 835 430 85 69 55
367 842 419 90 67 51
367 842 424 90 68 51
362 841 429 90 69 54
364 840 432 85 66 53
367 840 433 89 69 52
377 837 419 89 72 57
372 834 429 76 59 45
375 834 430 79 59 43
377 846 419 89 68 51
376 844 420 89 67 50
377 841 429 94 70 50
382 836 429 90 72 56
382 846 419 93 72 56
382 843 424 84 64 48
402 807 329 48 39 36
382 836 435 89 69 52
364 874 385 61 50 47
362 877 389 67 58 58
363 878 393 65 56 56
366 876 394 66 55 55
358 870 407 68 58 56
357 877 403 65 56 53
362 867 408 69 59 54
362 872 405 63 55 50
360 870 407 69 61 55
364 869 406 64 56 52
366 866 407 66 56 51
368 868 406 68 58 53
362 876 403 69 60 56
365 875 402 71 62 58
412 863 344 53 45 41
354 888 388 71 64 64
356 886 390 70 63 63
365 880 395 62 53 51
376 870 389 68 56 46
373 868 399 72 61 55
371 871 399 70 59 55
377 867 399 74 62 56
378 869 386 65 51 41
382 866 389 66 51 43
382 869 386 65 52 44
381 866 394 76 64 53
377 865 402 71 61 55
271 912 269 94 79 68
289 965 303 62 58 57
263 902 284 152 125 105
327 937 339 56 52 50
261 912 289 167 129 104
269 902 275 156 120 93
271 902 273 158 119 93
264 902 281 158 128 104
266 907 278 160 124 97
268 907 275 157 122 95
269 918 269 64 60 60
269 928 261 65 61 63
270 926 262 63 57 62
262 917 284 146 116 93
262 922 284 88 72 64
261 927 284 62 56 56
260 927 288 74 64 60
324 974 284 77 72 76
265 917 278 100 84 73
265 921 277 66 60 59
264 928 275 54 51 53
277 912 259 71 63 64
282 902 259 113 89 69
280 911 258 67 60 58
433 773 316 90 72 57
276 917 258 69 63 64
275 921 257 66 61 61
274 924 256 68 61 64
260 902 294 113 98 90
261 902 304 154 125 103
260 912 294 168 128 105
261 907 299 173 133 111
261 907 304 170 130 106
261 912 304 166 126 102
262 907 309 169 129 104
261 912 309 166 125 99
263 912 314 163 124 101
266 902 315 161 125 102
265 906 316 159 123 98
264 912 317 160 123 100
260 917 299 167 128 105
259 928 290 66 59 57
259 923 299 112 89 78
259 923 303 129 102 86
260 921 299 139 105 90
260 927 305 95 80 72
407 881 339 60 53 51
264 927 314 106 80 70
267 917 319 167 125 106
266 922 319 156 114 96
265 926 316 126 94 81
267 937 264 76 71 72
269 937 260 80 75 76
270 938 258 79 73 75
264 933 271 57 54 55
272 943 264 72 67 69
262 932 279 57 53 55
261 937 279 62 58 59
259 936 285 62 59 60
259 937 289 70 64 63
260 932 283 58 54 56
264 941 275 68 63 64
263 942 279 67 63 64
265 938 272 65 61 62
258 937 304 54 51 52
265 943 273 72 67 68
270 944 267 71 67 69
267 947 274 78 74 74
268 951 279 80 76 77
272 952 274 80 76 78
471 769 296 89 67 42
271 953 279 78 73 74
268 951 284 71 67 68
272 953 289 65 60 61
274 945 265 75 72 74
278 945 260 73 68 69
274 951 271 75 70 71
277 952 269 76 71 72
280 944 257 75 68 69
281 949 262 71 67 69
282 952 264 73 69 72
287 953 262 75 70 72
287 956 265 76 72 74
280 954 268 75 71 73
282 957 269 78 74 77
284 956 266 75 70 72
276 958 284 72 68 69
258 932 294 74 67 65
259 936 293 72 66 64
260 938 294 70 65 64
259 932 299 73 65 61
259 932 302 67 58 55
261 932 304 60 52 50
259 934 310 45 42 44
262 932 309 55 47 46
260 935 305 46 42 41
260 935 308 45 41 42
257 937 314 51 49 50
259 934 314 45 43 44
364 914 328 59 53 52
257 937 319 53 51 52
262 932 314 46 40 42
261 931 319 44 40 42
443 844 307 86 68 59
258 941 319 68 64 64
262 943 314 72 67 65
451 822 319 90 79 70
267 946 304 64 59 61
267 946 309 65 61 61
265 944 315 74 68 67
276 954 298 78 73 73
277 952 314 52 49 49
278 951 318 48 44 44
447 847 369 92 75 59
279 955 312 55 52 53
282 952 319 55 52 52
282 958 309 57 53 54
281 954 315 53 49 50
287 953 320 66 63 64
284 955 317 63 59 58
287 958 314 58 53 54
288 956 318 69 65 66
291 948 259 74 69 71
289 949 262 74 68 68
292 952 264 78 72 75
296 953 258 75 70 72
293 956 265 76 73 76
296 958 264 80 77 80
292 957 269 78 75 78
295 959 268 87 84 88
299 955 256 83 80 83
302 957 259 89 85 88
300 959 262 85 80 84
292 957 274 72 68 72
292 957 279 68 65 68
398 867 293 61 53 51
292 954 272 68 65 69
341 926 342 43 39 40
295 958 275 77 75 78
295 958 278 69 67 69
307 958 258 94 90 93
425 796 301 49 44 41
317 958 258 96 91 96
297 958 319 59 55 56
302 958 320 55 52 52
271 907 325 153 118 99
271 912 325 159 121 102
269 903 350 49 45 44
267 912 344 46 43 44
272 912 339 50 47 48
268 908 345 45 42 43
267 912 349 58 52 51
262 927 329 46 42 44
262 928 324 45 42 44
259 928 330 46 43 44
273 917 329 127 92 79
272 917 334 49 43 44
268 922 324 128 91 79
427 855 372 80 63 48
266 925 328 45 42 43
270 920 326 135 98 83
267 922 334 49 46 48
264 918 340 45 40 42
263 922 343 54 50 50
264 925 342 66 60 59
268 914 340 49 47 47
266 920 337 45 43 44
428 859 365 72 55 45
266 928 341 74 69 67
277 902 329 142 107 88
274 903 327 150 115 95
279 904 332 120 90 74
273 907 328 149 112 94
276 907 330 137 103 85
281 901 331 128 99 81
282 902 334 73 61 54
280 907 335 46 40 38
277 902 343 49 46 46
276 906 342 49 47 47
280 900 342 48 45 46
282 907 339 44 42 42
337 923 345 57 53 53
449 849 360 91 69 52
274 914 336 48 44 44
278 926 348 70 64 63
281 924 351 70 64 62
287 927 349 65 59 57
269 903 352 56 50 47
271 902 354 60 53 50
273 907 358 58 51 50
269 912 353 67 60 56
272 912 355 57 50 49
269 915 352 60 52 51
273 911 357 53 47 46
282 902 363 58 52 51
282 912 360 63 57 55
283 906 362 61 55 54
284 910 362 65 58 57
275 914 356 59 53 53
277 920 352 68 63 61
282 916 358 66 59 58
286 919 356 64 57 56
258 937 324 56 52 53
261 933 335 67 61 60
259 940 324 68 62 61
262 940 328 68 63 61
267 941 329 62 58 57
272 943 324 54 50 50
272 941 329 56 52 52
272 938 334 62 57 57
263 931 338 71 65 64
272 936 338 64 59 59
270 944 321 54 49 49
274 940 332 57 53 53
282 943 330 50 47 48
282 941 333 53 50 50
286 944 331 52 49 49
277 931 343 68 62 61
277 936 339 58 54 53
286 934 341 64 59 57
280 929 346 66 60 59
273 945 323 53 49 49
277 946 324 52 48 48
276 944 325 52 50 50
282 948 324 50 47 48
283 946 328 47 45 45
287 951 324 63 60 60
286 949 326 61 57 58
292 928 350 66 59 57
318 929 351 60 55 54
290 903 366 62 57 56
291 907 366 61 56 54
293 906 367 59 53 52
442 847 319 79 64 58
297 907 369 62 55 54
294 910 367 62 57 55
296 903 371 56 51 50
299 905 372 64 57 54
302 912 368 63 57 55
297 918 360 65 59 58
292 925 352 68 60 58
297 921 358 68 62 60
348 899 371 59 53 50
302 927 354 70 64 62
307 902 379 58 51 49
308 901 384 60 53 50
307 912 370 61 55 54
311 908 375 57 52 51
317 908 380 63 57 55
314 905 382 58 52 50
317 904 385 60 53 50
318 906 383 64 57 55
312 918 365 73 69 69
312 922 359 71 67 66
312 927 354 62 58 56
317 919 365 71 67 67
317 921 359 60 57 56
292 938 340 58 53 53
296 939 341 62 56 56
297 942 339 65 61 61
302 937 344 74 69 67
300 939 341 75 70 68
297 951 328 64 60 59
292 946 333 62 59 59
296 944 336 62 58 59
297 946 334 63 59 59
296 949 331 63 58 58
290 954 321 73 70 70
297 956 323 59 56 56
297 953 325 63 59 58
302 947 334 66 61 59
302 949 331 65 59 56
302 956 323 52 48 48
302 945 337 67 62 59
312 957 324 86 82 84
312 932 349 63 59 57
310 935 347 61 57 56
304 940 342 72 67 66
312 940 342 70 64 63
317 932 348 64 60 59
307 947 334 67 60 58
307 952 329 68 64 64
312 949 331 72 68 69
307 956 324 72 68 67
310 954 326 89 84 83
317 947 334 70 67 69
287 962 269 82 78 81
279 960 274 83 79 82
282 962 279 82 78 80
287 965 279 83 79 80
282 962 284 70 67 68
282 961 288 65 62 61
287 961 309 57 53 54
290 961 270 78 75 78
298 961 265 82 78 81
303 960 261 89 85 88
303 970 271 93 90 93
288 965 276 78 74 76
291 966 279 75 72 73
296 962 274 86 84 87
397 841 424 92 73 59
292 963 289 73 67 67
296 968 289 75 70 71
299 970 276 96 93 96
298 971 279 101 96 98
298 971 284 89 86 89
298 971 289 72 70 74
301 974 289 75 71 74
307 963 264 93 89 93
312 960 261 97 93 97
307 967 269 96 92 97
308 965 266 94 91 96
312 967 269 99 97 102
317 965 266 99 96 99
317 971 270 74 70 73
308 975 279 63 58 59
312 974 273 69 64 64
312 975 275 55 51 51
305 974 282 81 76 78
307 975 284 58 53 55
304 975 285 78 74 77
307 976 289 57 55 56
317 974 273 63 59 60
317 975 275 68 65 66
312 976 284 57 52 54
312 977 289 61 59 60
292 963 294 78 73 73
295 967 294 79 75 79
292 964 298 70 65 66
297 967 304 64 61 62
301 973 294 65 64 66
304 975 294 62 59 60
299 970 302 65 61 61
292 963 309 63 58 59
296 964 310 66 64 65
298 960 317 60 58 59
302 963 314 57 54 54
302 969 305 72 68 68
307 971 304 67 63 62
307 973 299 51 47 47
312 971 304 64 59 59
312 974 300 51 47 46
317 976 294 55 52 52
317 974 300 53 50 50
312 961 319 79 74 73
312 965 313 66 60 58
347 952 304 60 56 55
356 921 338 65 59 57
312 969 306 65 61 61
317 968 309 76 72 73
317 966 313 84 80 79
312 976 294 57 55 55
336 961 309 56 52 50
322 958 257 96 91 95
330 955 256 84 78 80
332 957 259 76 71 74
337 952 258 76 71 73
337 957 264 80 74 76
351 942 259 75 68 69
341 951 260 76 70 71
339 954 262 74 68 69
345 945 256 72 65 68
347 947 259 75 68 70
345 950 261 74 68 70
346 951 264 80 72 73
347 952 269 85 77 77
404 797 261 75 61 56
352 947 269 85 76 76
462 795 310 90 76 63
349 949 267 85 78 79
344 954 267 81 74 74
346 955 270 85 79 78
344 959 278 89 82 84
347 958 279 87 81 83
351 956 288 51 47 47
333 954 320 53 48 46
337 952 319 56 52 52
337 957 314 51 48 49
353 942 309 56 52 50
348 937 320 52 47 45
388 837 268 49 44 48
343 943 320 61 58 59
346 942 318 57 54 54
351 951 294 57 53 52
351 947 304 59 54 51
327 932 344 61 57 57
352 947 299 54 48 45
347 957 294 66 63 62
353 952 289 50 46 45
349 953 295 58 55 55
350 955 292 61 57 55
338 948 320 58 56 57
342 951 314 57 54 55
344 949 315 61 58 59
341 956 308 61 58 59
344 954 305 61 58 59
343 953 310 60 58 59
340 955 312 55 52 53
346 951 309 61 58 59
349 949 306 59 53 54
367 907 259 68 60 59
365 911 260 68 60 59
367 912 264 73 64 63
357 927 259 77 69 70
362 917 259 69 61 61
362 922 264 69 60 59
360 926 265 70 61 61
365 921 270 64 56 52
366 922 274 59 52 49
365 925 275 56 50 49
365 926 279 57 50 47
367 922 284 53 48 47
368 922 289 51 45 44
369 899 257 59 51 52
371 901 260 70 61 61
373 898 262 69 60 58
376 901 266 76 66 64
377 902 269 68 60 58
369 908 263 76 66 64
371 907 264 75 65 63
372 907 269 69 60 57
377 902 274 65 55 52
375 902 289 55 49 47
374 904 284 52 48 47
374 904 274 63 55 50
373 907 279 55 48 46
374 904 280 48 41 41
372 912 289 53 46 44
379 898 280 49 43 41
380 900 272 64 56 54
369 918 284 53 47 47
365 911 319 51 45 42
392 888 324 65 56 56
366 927 294 45 40 39
367 927 299 59 52 49
367 927 304 65 58 56
359 923 320 52 45 42
358 928 315 48 42 39
357 927 319 48 41 40
364 913 319 53 47 44
364 917 315 47 40 38
366 917 313 47 41 38
367 922 309 55 51 49
360 926 313 49 43 41
376 902 294 55 50 48
375 906 294 55 48 45
371 912 304 52 48 46
375 905 302 58 54 53
371 901 319 56 48 47
373 898 319 59 51 50
371 906 313 47 41 39
370 910 312 48 42 39
370 917 294 55 49 46
371 917 299 58 52 49
370 920 296 55 49 46
369 923 299 62 54 51
370 915 308 49 45 44
369 914 310 48 42 40
369 918 306 54 50 49
354 928 257 80 72 73
356 937 265 77 70 70
354 938 263 76 70 71
354 943 268 85 77 76
361 932 269 78 68 67
358 943 289 50 45 44
364 932 289 52 47 46
364 929 285 54 49 47
464 819 324 96 75 61
360 941 288 51 46 44
355 945 271 83 73 73
356 946 274 81 72 72
354 948 273 87 78 78
357 947 279 69 62 60
424 859 366 62 47 43
353 953 284 66 61 60
358 947 284 61 56 53
356 947 289 48 43 42
354 944 304 58 51 50
365 930 290 52 48 46
365 930 294 45 39 37
363 932 299 56 49 48
363 932 304 62 55 53
365 930 303 64 57 54
357 932 314 48 42 40
355 931 317 45 39 39
354 949 291 54 49 45
354 944 300 57 50 47
337 927 343 54 51 51
332 922 349 56 52 52
331 926 347 60 56 56
348 913 350 59 55 55
352 912 348 50 45 43
340 920 347 59 57 57
347 921 343 39 36 36
348 923 341 45 42 41
352 922 340 56 51 50
351 926 338 66 60 56
333 909 369 64 60 60
337 908 365 59 52 49
327 909 381 76 70 68
337 906 374 68 63 62
333 909 380 71 66 64
322 918 359 53 50 50
326 915 369 65 60 59
328 914 369 67 62 61
327 921 353 55 50 49
337 916 354 59 55 55
327 913 374 66 62 62
341 905 368 58 51 47
342 907 364 67 61 59
342 910 362 66 61 60
347 902 369 62 56 54
351 901 368 62 56 56
352 903 365 65 59 57
347 912 354 55 50 50
347 908 359 55 50 49
352 906 359 54 49 47
349 909 356 50 46 47
350 910 353 55 50 49
347 906 364 67 61 60
347 904 366 68 63 61
351 905 363 61 56 54
387 892 334 68 60 57
343 898 384 64 57 54
341 901 379 69 62 60
339 914 356 65 60 60
341 915 353 55 52 53
327 942 335 56 50 48
407 857 390 90 70 64
333 939 336 55 48 45
337 937 334 54 48 46
333 944 331 50 46 45
336 940 333 52 46 44
328 929 346 62 57 58
332 937 338 51 46 43
329 934 341 53 48 48
332 933 340 52 48 47
337 932 339 51 45 43
336 936 337 53 47 45
327 948 330 51 46 45
323 954 326 60 57 57
327 956 323 56 52 51
327 953 325 53 47 46
335 950 322 56 51 51
342 938 329 59 56 57
341 936 333 55 50 49
342 942 324 61 58 58
341 941 328 62 58 58
339 939 331 56 51 50
349 934 324 60 54 53
347 932 334 59 53 52
353 928 329 50 44 43
338 929 341 46 42 40
345 930 337 65 58 54
369 908 328 64 56 56
366 911 329 62 55 54
356 911 347 43 39 36
368 903 344 53 48 48
368 908 334 66 59 57
364 904 346 45 39 37
416 792 290 48 42 41
354 928 324 58 52 50
357 922 334 62 55 53
363 913 324 55 49 47
357 917 340 50 45 46
372 902 324 63 55 56
378 898 328 62 56 57
373 903 328 62 56 57
376 901 329 62 55 56
370 905 326 62 55 55
378 898 334 67 61 58
372 902 339 57 51 51
369 904 340 57 52 52
371 901 343 53 49 50
373 898 345 55 50 50
374 899 341 57 52 51
370 900 347 47 43 44
370 905 337 55 50 49
356 905 358 54 49 45
362 901 359 47 42 42
364 899 360 49 44 42
366 900 353 59 52 50
322 961 260 93 89 93
322 963 263 91 88 92
327 961 260 83 78 80
327 965 265 79 75 78
327 968 269 83 79 81
322 971 270 84 82 85
330 960 261 75 71 74
330 965 266 79 74 75
333 963 268 85 79 80
323 974 279 81 77 78
327 971 274 89 83 85
391 860 362 53 43 38
407 787 333 47 39 32
322 975 284 72 69 73
327 973 289 65 61 63
337 967 279 88 80 83
330 970 275 89 82 85
331 970 279 86 79 81
334 969 278 89 80 83
332 971 284 78 70 75
335 970 286 84 77 78
335 970 288 74 66 68
340 965 281 85 77 80
345 960 280 90 83 86
346 961 284 80 73 73
321 975 293 51 48 48
323 974 294 58 54 55
327 973 294 62 58 60
473 842 357 97 75 60
322 973 299 60 55 55
327 971 299 63 61 61
327 968 305 65 62 63
336 966 299 60 55 54
332 967 304 58 54 54
332 971 294 60 56 58
331 970 298 62 59 61
322 963 315 77 75 78
322 961 318 76 75 78
322 965 312 76 73 73
327 962 314 59 56 56
326 960 317 61 59 60
427 848 329 54 45 38
325 965 312 59 55 54
323 969 306 77 74 75
334 964 306 60 54 52
405 800 258 76 61 57
332 961 313 51 48 47
335 960 312 53 50 49
342 962 294 68 64 63
339 963 300 62 58 57
328 905 387 84 77 75
332 899 391 85 78 76
398 792 269 51 43 44
399 795 270 50 43 44
398 792 274 56 47 48
399 792 277 51 44 46
406 777 264 58 45 42
408 772 264 63 48 44
405 775 269 55 46 42
403 778 269 54 43 42
403 778 265 51 39 40
402 782 264 52 41 41
404 783 261 53 41 38
409 773 259 61 48 45
404 779 277 61 51 45
423 787 298 50 44 41
403 782 278 57 47 47
406 781 280 58 48 45
412 777 284 75 59 49
414 772 287 77 63 49
416 772 289 62 52 44
414 777 287 55 45 40
416 777 289 43 38 37
406 792 259 57 45 44
406 797 259 71 57 54
405 796 262 76 61 55
401 797 269 53 44 45
400 785 276 59 49 47
408 787 283 66 55 48
405 792 281 61 51 45
402 797 279 59 49 46
407 797 284 62 51 47
411 787 285 65 54 44
414 787 287 55 48 45
414 792 288 46 42 40
413 797 288 51 45 45
416 782 289 45 40 39
416 787 290 47 43 42
415 797 291 54 49 46
399 813 264 63 52 51
397 817 264 58 48 48
399 813 268 54 46 46
388 823 265 47 42 45
393 827 259 58 49 50
393 832 259 53 44 47
390 833 262 42 33 43
387 827 269 48 43 47
384 830 266 50 43 47
384 830 267 49 41 46
387 832 269 51 46 49
395 821 259 63 52 51
394 823 259 62 52 52
396 820 270 50 42 46
397 822 274 59 50 50
397 821 279 60 48 48
394 824 279 59 49 50
394 824 283 58 47 49
399 819 282 61 49 51
394 831 272 57 50 49
397 832 289 44 41 44
395 833 285 43 39 44
403 802 259 76 62 57
402 807 259 72 58 55
402 807 264 68 54 51
401 807 269 51 43 44
400 812 270 51 44 43
402 802 279 54 45 44
403 807 279 56 45 46
404 802 283 59 47 46
406 802 285 64 51 46
389 878 279 54 46 43
406 807 285 61 50 46
402 812 274 55 47 44
401 817 279 63 51 47
404 812 279 66 54 48
407 812 285 62 51 46
410 800 286 58 49 44
412 802 288 59 49 45
409 807 287 62 51 45
412 807 288 59 51 46
409 812 287 65 53 45
408 818 287 56 47 45
400 820 275 61 48 50
400 820 277 64 49 48
402 821 285 57 49 49
403 823 288 54 47 47
405 820 286 56 46 46
407 822 288 56 49 48
402 827 289 52 46 46
415 802 291 61 51 50
415 811 291 56 49 46
416 812 314 62 51 43
415 816 314 65 54 47
416 812 319 71 55 46
415 817 319 70 57 46
407 827 290 58 50 50
412 822 290 58 51 48
414 818 292 57 49 45
414 823 292 61 54 52
416 822 294 68 59 55
416 817 299 74 61 52
416 817 304 67 55 48
411 826 291 58 51 50
410 830 291 56 47 48
413 827 293 66 58 56
416 832 295 62 53 51
414 818 310 56 48 48
414 820 310 59 51 47
414 818 314 68 55 52
416 827 319 69 57 51
417 827 314 72 62 55
415 832 319 70 59 53
418 777 293 46 43 42
480 838 357 105 84 65
420 777 296 45 42 42
420 772 296 71 63 56
424 772 303 53 46 43
422 777 299 47 42 40
424 776 302 56 49 43
419 782 293 51 45 42
423 782 299 78 59 46
426 777 305 57 48 40
424 781 302 97 73 45
426 782 304 74 60 45
425 784 301 69 56 49
426 772 309 79 65 51
427 777 309 76 60 45
424 772 316 67 53 41
427 777 318 74 59 43
432 772 319 99 78 55
431 776 318 99 79 57
427 781 318 74 59 44
433 777 316 86 69 53
433 783 318 66 52 42
421 792 295 54 46 40
423 792 298 49 44 43
418 797 294 55 47 45
420 796 296 54 46 43
419 798 297 54 45 41
422 849 328 52 44 37
422 797 299 55 47 43
425 792 300 50 43 42
426 792 304 52 46 42
407 847 294 54 47 46
426 796 304 50 43 41
419 799 309 59 50 44
422 797 309 54 45 41
424 794 310 50 42 37
424 798 318 62 52 43
426 792 309 60 50 41
430 786 314 71 56 43
432 787 319 59 47 37
428 793 318 62 51 43
430 791 320 63 50 42
425 796 307 54 44 39
424 794 313 60 50 42
426 796 319 63 53 44
436 773 316 65 51 44
436 777 315 74 59 48
437 777 319 65 50 43
435 780 316 77 58 47
440 772 320 70 56 43
418 802 294 56 47 45
418 807 294 55 49 46
419 802 299 56 48 43
419 803 304 65 53 47
419 806 299 63 53 46
420 801 300 56 47 43
418 812 299 71 59 51
417 812 304 67 54 47
420 810 302 76 63 51
419 802 308 64 53 47
418 807 309 71 57 47
420 802 309 63 52 46
413 879 329 72 64 62
418 808 314 69 53 46
421 802 314 66 52 46
422 802 319 67 53 44
420 806 314 69 52 44
416 812 309 67 54 45
427 818 315 75 61 51
429 813 316 74 59 48
431 813 314 72 58 47
422 830 303 72 62 56
428 816 317 77 61 49
430 814 317 77 62 51
416 822 299 73 63 57
417 827 299 60 52 50
418 831 304 70 61 55
422 832 300 71 61 54
427 831 304 80 70 63
417 822 319 71 59 50
418 832 309 73 63 58
421 827 309 71 61 56
423 824 306 62 50 48
422 832 310 80 71 64
425 819 311 66 54 45
431 817 314 76 63 53
430 820 313 78 64 55
426 824 306 68 59 54
461 797 293 97 73 53
427 827 309 80 68 60
427 832 309 86 76 68
448 818 300 98 79 68
447 818 304 96 81 71
448 822 295 109 89 75
447 821 304 97 79 66
448 827 295 105 85 73
442 832 304 95 80 70
398 849 326 36 32 30
437 833 304 89 76 67
443 829 305 97 81 70
447 829 306 94 77 64
447 832 304 98 80 68
443 829 312 100 85 74
446 831 315 94 80 69
387 772 339 60 43 33
387 777 339 60 42 33
392 772 340 56 43 34
392 777 340 67 48 37
387 782 340 64 44 35
394 771 342 59 44 36
397 772 343 63 47 38
397 777 341 66 49 37
398 775 342 70 54 42
392 797 333 51 40 33
397 788 336 50 39 32
387 791 337 43 32 27
392 787 338 51 39 33
394 789 336 45 34 27
407 783 336 55 45 39
412 783 335 45 35 29
417 782 335 48 38 32
400 775 342 70 55 48
403 774 341 59 47 35
407 772 343 56 42 37
407 777 340 51 42 35
402 781 338 51 40 35
412 771 343 61 45 39
407 817 328 59 49 42
412 777 339 57 45 36
417 771 342 65 51 45
417 773 341 58 44 39
411 781 337 49 40 32
402 792 333 46 38 32
407 792 329 43 37 32
408 789 331 43 36 29
406 790 332 43 35 28
406 796 326 42 36 32
400 795 332 41 35 29
412 786 333 42 32 28
417 786 333 49 40 34
417 789 331 47 39 33
417 792 330 55 44 36
412 797 329 51 42 39
392 877 294 58 50 49
417 797 329 63 54 48
387 804 331 45 36 33
387 807 331 47 37 36
393 803 330 38 31 28
392 801 332 47 37 31
387 812 330 53 44 40
392 812 328 37 33 30
392 817 328 48 39 35
397 802 329 34 28 26
395 800 332 43 35 32
387 822 325 51 43 39
388 821 327 52 44 39
386 827 325 47 42 39
388 828 327 48 42 39
388 831 327 45 39 37
390 824 326 51 43 39
392 827 328 51 44 42
392 832 327 44 38 35
397 822 328 66 55 47
397 827 328 61 52 47
402 802 328 40 33 30
407 802 329 49 42 37
407 807 330 59 48 41
402 812 329 57 47 39
407 812 329 58 47 42
412 802 329 56 46 40
412 807 328 55 43 36
416 816 327 62 50 43
402 822 328 61 51 45
407 822 328 56 47 42
402 832 327 50 42 38
407 832 327 50 41 36
411 822 327 54 43 39
416 817 324 68 53 45
414 819 326 63 52 40
416 822 323 72 59 51
412 827 325 58 47 39
410 832 327 54 42 37
415 827 323 67 56 47
415 832 322 73 63 56
422 782 335 48 39 33
424 770 322 80 66 59
427 782 335 57 44 35
428 779 336 57 42 33
432 777 335 65 51 40
422 772 340 55 42 35
420 770 342 58 43 33
424 769 341 58 47 36
422 780 337 48 37 31
427 772 340 61 48 38
422 786 333 55 44 36
422 789 331 61 50 41
422 792 330 61 48 42
422 797 328 66 55 49
431 792 324 63 51 40
432 787 329 64 49 39
428 788 331 63 49 41
430 785 332 68 53 42
426 796 327 68 53 47
429 794 325 64 52 43
437 772 334 73 58 48
439 774 331 67 51 39
435 780 332 68 55 43
440 769 321 75 58 46
440 775 325 59 45 36
440 771 332 76 62 51
435 771 337 72 58 48
434 774 336 69 54 43
433 787 324 60 47 37
435 785 327 61 47 34
420 800 327 62 45 43
420 805 322 71 56 46
393 837 259 50 44 46
390 837 263 44 38 44
388 837 265 44 39 43
392 837 270 53 47 49
391 842 259 51 45 48
388 842 264 49 43 46
390 842 262 52 46 49
392 847 259 56 49 50
389 842 268 57 49 53
392 842 270 64 55 58
389 845 268 82 73 73
391 847 269 61 52 54
395 835 256 54 47 46
395 834 271 61 53 50
395 836 271 61 50 48
396 837 274 66 53 53
395 837 278 59 47 48
394 839 273 67 53 52
394 837 283 48 40 43
395 837 284 45 39 43
397 837 288 46 41 43
395 842 279 56 46 46
394 841 280 55 44 45
396 847 275 56 47 48
394 841 284 46 39 42
395 843 284 46 39 42
394 842 288 42 39 44
396 847 283 49 41 42
391 852 259 63 54 51
390 856 260 65 56 51
391 857 264 60 51 49
384 864 258 67 58 56
387 862 264 60 51 50
393 857 268 59 49 47
395 856 271 57 48 46
392 857 289 54 46 49
392 862 289 58 49 50
397 852 274 56 48 46
399 852 279 55 46 47
443 854 359 97 74 58
397 857 274 60 50 48
398 857 279 60 50 48
397 852 283 52 44 44
394 852 289 50 42 46
394 857 286 56 47 49
397 857 284 58 49 49
394 859 272 59 49 46
395 861 275 61 50 47
396 861 279 59 49 47
396 862 284 58 49 48
394 863 285 57 48 48
402 857 284 59 49 49
405 856 285 59 49 49
397 842 290 48 43 45
397 847 290 47 41 44
389 859 290 56 48 50
389 861 290 57 49 51
393 861 292 57 49 52
396 851 291 49 41 46
398 853 293 54 47 50
397 857 294 58 51 54
393 858 292 55 47 50
398 861 294 61 53 53
399 858 298 64 56 56
399 861 298 66 57 57
404 837 292 52 48 48
407 837 292 55 49 50
402 847 290 50 45 45
412 837 293 53 47 49
416 837 295 59 50 48
411 846 296 55 46 44
412 847 298 55 46 45
418 843 297 61 51 49
417 847 299 63 54 51
415 836 318 70 60 55
413 838 320 69 60 56
412 842 320 69 61 56
402 852 294 53 47 48
401 857 299 58 51 51
