ply
format ascii 1.0
comment Created by Open3D
element vertex 2209
property double x
property double y
property double z
property uchar red
property uchar green
property uchar blue
end_header
402 835 227 78 62 55
400 598 219 71 24 36
394 602 215 78 29 38
396 604 218 150 29 46
393 606 216 73 29 37
392 844 228 74 57 52
395 608 219 101 29 41
431 818 258 106 77 53
397 600 217 121 34 41
335 778 199 53 45 44
323 783 186 67 55 48
399 602 220 86 27 38
397 609 223 130 33 50
403 577 211 160 16 40
409 945 318 64 56 49
300 588 299 167 13 52
402 584 212 180 18 47
260 923 250 138 111 83
404 583 214 184 20 49
404 587 215 184 20 48
370 623 300 126 22 45
401 594 218 139 16 39
404 592 220 174 20 45
407 589 222 180 20 44
416 808 296 176 129 97
259 663 280 46 29 32
408 577 216 183 19 47
409 583 220 180 20 46
415 578 224 170 18 41
412 579 222 183 20 46
392 924 254 62 51 54
437 723 281 171 114 85
355 593 307 142 33 49
414 583 225 170 18 42
408 587 221 180 20 46
257 972 274 73 69 72
410 588 224 181 20 46
402 600 222 65 16 31
416 584 228 166 19 42
408 592 226 183 20 46
413 586 226 169 19 47
266 673 293 68 27 35
416 589 234 197 19 51
395 743 294 104 28 43
406 599 228 181 19 46
403 602 225 163 20 45
501 844 284 91 81 72
405 603 229 166 22 45
403 607 230 147 30 46
405 608 234 57 32 36
406 609 239 123 31 46
412 595 233 183 18 44
412 599 238 49 30 38
362 950 289 91 81 78
413 597 240 82 24 38
396 872 251 67 59 53
257 778 226 69 57 49
408 602 235 48 31 38
410 603 239 39 35 39
438 645 256 97 81 62
408 606 236 39 37 39
408 607 240 96 32 45
275 888 315 175 138 110
416 594 244 155 17 44
416 598 254 192 18 52
409 608 244 118 33 46
412 604 244 52 33 37
320 978 284 83 78 77
410 608 249 60 33 39
413 601 241 79 25 29
413 602 245 118 36 47
412 604 249 45 38 36
273 922 232 65 60 64
412 604 254 38 32 37
410 608 254 64 31 37
458 840 270 89 74 62
390 613 219 62 29 35
392 609 218 50 31 36
345 563 314 180 133 109
389 617 220 126 37 49
390 618 224 104 31 43
415 648 253 98 75 51
389 622 225 119 27 47
390 623 229 95 33 43
398 611 226 53 31 26
399 612 230 73 34 41
394 617 225 177 26 49
392 620 227 48 28 34
395 618 229 152 22 48
384 797 297 123 89 72
400 693 244 73 59 54
393 621 230 109 23 35
398 616 231 52 23 39
396 619 233 144 20 46
396 623 239 98 29 38
362 887 228 63 56 57
399 617 235 147 38 56
400 618 239 96 32 39
397 620 237 128 24 43
295 848 289 148 116 93
398 621 240 124 40 52
387 625 227 97 16 29
389 628 230 92 32 39
391 628 234 61 32 37
389 632 235 109 33 46
392 629 238 58 33 38
386 638 239 81 26 37
410 859 248 71 61 51
388 637 240 53 26 31
387 640 242 73 33 35
410 948 324 62 52 44
404 796 211 78 60 52
391 633 244 65 29 37
395 628 244 53 31 36
430 898 274 63 51 38
392 630 242 83 29 34
394 633 249 79 29 36
401 623 249 39 32 37
398 627 250 47 33 33
400 628 254 94 47 42
280 577 307 177 126 103
396 633 254 49 32 35
398 631 254 65 42 34
439 532 292 95 30 41
394 638 254 57 31 34
290 838 233 58 47 47
402 610 232 114 42 51
430 892 255 91 80 70
403 612 235 76 39 38
404 613 239 78 33 41
415 920 297 48 43 41
315 973 240 91 85 89
406 613 244 114 28 46
406 614 249 134 25 44
403 616 240 131 47 54
360 943 321 43 38 36
403 617 244 144 30 46
402 620 247 91 40 37
403 621 250 58 34 31
315 913 309 143 93 78
403 622 255 74 44 36
397 773 296 170 124 91
408 611 246 113 24 43
408 612 249 128 38 50
411 633 256 111 85 57
404 912 265 46 40 36
410 638 255 106 81 55
415 633 255 109 84 57
415 638 253 109 86 59
432 943 319 81 68 58
420 578 229 159 18 39
419 582 230 164 19 41
420 583 234 182 19 46
422 579 233 165 19 40
423 581 235 184 19 50
422 584 238 202 17 53
418 587 235 197 18 53
418 591 240 203 17 57
331 553 308 181 127 108
426 579 239 187 17 51
429 577 240 116 14 41
421 588 244 206 18 55
422 585 242 206 18 55
425 583 244 203 17 53
364 629 302 60 25 30
423 586 245 205 18 54
419 593 249 196 18 53
424 588 254 195 18 55
472 925 312 102 84 67
422 590 254 183 19 49
427 580 242 204 17 56
426 584 249 202 18 54
426 584 254 199 19 57
275 598 299 158 102 83
431 578 254 151 20 48
417 595 248 167 16 43
417 595 252 197 16 51
300 853 294 148 122 99
420 634 255 107 85 59
420 640 251 110 88 61
425 638 254 106 86 64
444 728 269 165 108 79
450 523 237 84 27 36
455 523 239 83 28 37
458 527 241 104 31 43
461 528 243 54 32 34
461 523 242 46 33 31
465 523 245 127 25 40
464 527 245 48 32 32
450 533 238 45 36 39
453 537 241 55 34 41
444 818 273 82 67 54
453 541 241 60 27 35
320 873 196 72 61 59
454 542 245 78 31 36
455 543 249 88 33 41
461 534 248 57 34 35
458 537 246 108 29 42
459 538 249 120 23 43
360 836 282 49 42 43
461 538 254 132 21 45
458 541 251 82 15 39
459 542 254 152 32 48
469 518 246 161 18 39
471 518 248 164 19 38
467 524 247 70 31 34
469 523 249 106 16 34
471 524 253 189 17 45
468 526 250 156 19 45
310 869 297 184 147 120
469 528 254 176 16 46
474 517 250 168 19 41
475 518 254 151 21 45
477 514 252 63 23 27
478 516 255 48 31 31
448 547 240 86 27 42
448 552 245 112 36 51
449 553 249 75 33 39
451 549 249 43 33 38
388 689 288 64 25 32
296 754 315 80 64 59
453 547 250 99 28 35
452 550 254 44 31 40
386 643 243 43 31 33
388 642 245 66 30 33
390 643 249 81 29 35
330 963 309 63 55 52
390 648 249 69 35 34
444 753 249 93 71 59
392 643 253 100 25 30
388 653 246 58 32 31
431 699 242 136 104 72
391 653 248 68 32 33
396 949 288 95 77 68
392 646 252 99 32 40
394 648 254 92 26 33
446 792 264 117 82 59
355 853 269 114 81 61
393 649 251 78 33 31
387 664 247 52 37 39
460 975 328 93 82 72
390 658 248 70 35 32
315 775 306 75 63 57
390 663 249 58 36 33
386 671 243 66 38 43
374 948 275 77 68 67
390 670 245 57 40 40
393 663 251 74 37 41
424 633 288 148 105 69
395 663 254 74 30 39
389 882 268 49 44 40
375 883 219 73 62 59
395 673 249 63 35 36
395 668 254 84 29 36
463 861 270 68 55 39
410 643 254 103 77 55
410 648 255 97 69 48
400 928 301 55 48 44
445 888 264 89 71 61
415 643 252 106 83 59
379 908 263 59 52 48
411 652 255 86 58 41
415 653 253 89 66 45
416 658 254 89 64 44
415 668 254 104 74 60
441 559 269 139 21 46
415 673 249 92 65 51
388 718 308 92 26 39
413 673 252 108 80 68
412 670 255 131 101 92
387 689 212 71 51 41
300 857 296 159 131 107
388 684 211 81 52 42
389 683 214 87 57 46
388 686 211 81 56 44
388 680 216 85 60 45
388 680 219 84 53 41
390 683 219 84 46 39
391 682 224 81 45 41
393 685 220 75 37 32
386 693 213 63 47 38
390 693 218 76 55 44
387 699 218 63 50 43
387 702 218 59 43 38
340 543 316 170 126 98
389 698 220 65 47 43
350 800 187 114 86 58
389 703 219 61 43 39
397 691 223 59 46 38
295 897 233 84 64 46
399 692 224 58 47 40
400 693 219 67 55 47
344 713 326 86 22 37
395 698 220 75 58 52
420 888 254 75 62 53
394 700 222 61 44 39
468 927 296 93 80 67
311 853 214 44 41 42
395 703 224 86 65 55
441 868 250 86 68 59
396 701 221 94 75 68
343 961 292 60 52 50
400 698 218 81 70 67
351 775 202 64 49 44
401 703 219 87 74 68
400 703 224 86 73 69
416 888 253 78 67 56
405 685 224 82 61 44
404 686 225 83 62 47
407 687 216 84 59 46
446 925 300 91 79 68
410 688 215 92 67 46
410 685 224 89 63 46
395 908 246 100 84 76
414 689 215 98 72 51
413 685 225 95 68 52
405 694 215 70 53 41
404 692 218 74 57 43
405 703 214 71 54 44
402 698 216 88 73 61
286 774 199 65 50 45
402 702 216 91 73 59
285 688 314 135 11 42
414 693 214 87 66 47
413 697 216 85 66 50
412 704 217 79 60 44
435 673 242 150 114 80
390 679 229 67 45 42
390 675 236 70 38 31
390 677 234 67 44 41
348 790 187 77 59 60
392 681 228 62 50 37
393 680 231 57 41 44
393 674 240 50 38 37
298 773 209 49 38 38
394 678 234 59 40 37
394 683 229 64 49 40
396 688 229 61 49 42
323 853 192 56 49 48
275 783 204 70 55 47
397 687 234 62 48 44
392 688 280 47 29 31
397 687 239 60 44 40
395 678 244 82 39 35
445 653 259 136 101 73
396 678 254 54 41 39
397 683 244 69 42 38
397 686 244 64 45 40
336 948 227 68 64 66
420 569 286 118 31 46
398 689 244 68 51 47
398 688 249 70 52 48
398 688 254 69 49 47
368 802 200 56 49 48
384 691 231 88 44 42
401 689 229 72 56 45
399 690 234 67 52 45
400 692 234 72 54 47
400 693 239 75 61 57
400 693 249 71 56 52
399 693 254 71 55 51
489 872 284 98 80 64
405 687 229 79 59 45
410 685 229 83 61 46
408 686 229 81 61 46
414 685 229 89 65 50
416 687 229 92 69 45
414 685 239 88 63 45
411 678 254 110 80 64
410 683 249 96 66 51
400 756 211 60 48 41
409 687 244 93 65 56
359 947 259 68 62 64
285 872 304 114 92 68
384 827 216 56 45 42
411 685 244 95 66 52
408 687 249 92 68 59
413 685 244 94 64 48
416 686 239 91 69 49
409 683 254 101 74 59
479 517 264 216 22 60
408 688 254 93 72 61
396 889 255 60 52 45
404 692 239 74 58 53
404 693 244 71 53 50
407 690 249 89 66 60
275 838 238 93 70 62
447 712 255 132 94 65
407 693 254 86 71 63
407 690 256 92 75 65
285 866 295 111 90 69
431 568 274 111 27 48
404 696 250 63 47 43
405 698 254 71 59 53
417 640 251 110 88 62
420 643 250 110 87 61
420 648 250 109 87 62
425 643 250 108 87 62
425 647 247 112 90 64
423 653 247 117 92 66
431 642 253 105 89 72
426 650 246 115 91 64
430 650 246 113 91 66
423 658 247 120 93 67
420 658 249 109 84 59
261 870 270 124 104 85
423 663 247 125 94 66
418 658 252 97 75 52
417 663 254 101 71 50
425 668 245 130 95 67
423 668 247 130 94 70
284 775 306 82 68 62
418 664 252 105 73 50
420 672 248 117 81 56
430 658 244 126 100 72
425 673 245 121 87 59
436 647 253 99 85 71
440 648 254 94 78 61
363 781 307 93 73 65
436 652 247 113 93 72
307 858 229 51 44 45
440 653 248 97 81 62
439 650 250 95 82 68
445 653 254 121 93 68
443 650 255 107 86 62
435 663 243 122 96 67
440 658 245 123 99 71
440 663 244 131 100 72
390 637 288 129 46 49
435 669 241 148 114 80
436 671 241 156 120 86
440 668 244 148 111 79
455 829 273 83 70 58
440 673 244 152 112 80
455 893 286 84 65 48
442 656 247 110 89 66
445 658 249 135 100 75
445 663 249 158 110 87
446 663 254 172 120 94
445 668 249 154 110 79
446 668 254 166 117 89
418 692 220 87 57 44
420 687 239 94 72 49
489 877 286 91 78 69
309 833 209 55 50 49
425 688 240 92 70 51
490 917 299 94 80 66
401 708 269 71 53 46
417 675 246 85 63 40
417 678 246 86 64 42
418 683 247 89 70 48
440 944 308 93 80 68
416 686 247 86 65 49
425 683 242 103 77 52
424 685 241 96 74 49
296 813 214 56 48 45
430 678 242 125 93 65
427 686 242 111 85 60
300 937 215 78 71 72
428 688 241 115 88 61
426 723 234 75 55 44
430 688 242 125 96 66
421 693 229 73 46 43
338 932 221 64 60 62
422 692 233 63 46 40
425 693 239 85 63 48
417 700 227 68 55 43
418 697 225 67 55 43
419 698 229 67 53 41
417 704 228 63 50 41
405 833 289 180 119 92
422 698 233 71 53 38
429 698 240 121 94 65
429 694 241 119 93 65
430 703 242 132 101 72
435 678 242 146 109 77
435 688 242 143 108 74
440 683 244 155 113 82
442 676 247 152 110 79
430 708 284 167 112 81
444 678 249 156 112 81
442 683 247 158 114 83
442 688 247 153 109 80
328 918 211 78 71 74
330 533 314 177 124 108
260 533 278 39 26 26
444 688 249 152 108 78
446 688 254 156 110 80
435 693 242 139 105 72
295 738 321 136 22 49
435 698 242 132 98 66
476 977 326 97 84 72
305 936 216 73 67 68
440 698 244 122 88 60
444 693 250 143 102 73
442 696 247 136 100 69
443 700 246 138 100 72
446 703 249 130 94 67
396 720 205 64 50 42
320 972 308 78 68 63
400 718 209 76 57 49
281 533 294 138 103 88
388 704 216 61 45 38
267 870 266 105 79 40
388 708 216 61 43 37
391 708 223 66 45 36
391 716 212 65 47 43
392 711 222 69 48 36
435 915 274 108 82 68
395 712 224 75 48 34
395 715 216 67 50 35
395 716 213 69 49 37
399 716 213 74 51 43
400 713 224 73 52 49
287 778 190 70 53 45
390 723 204 59 46 40
398 719 283 132 7 39
388 720 206 61 50 48
385 918 264 80 67 61
388 730 201 63 47 42
391 732 203 59 47 41
393 721 207 60 48 41
266 953 303 186 143 125
400 728 205 71 56 48
393 735 201 64 52 38
405 718 209 76 51 43
409 719 209 82 61 48
406 708 215 74 54 37
405 917 294 40 38 38
404 708 218 84 67 54
402 707 220 87 72 59
402 708 224 85 69 58
405 713 219 79 59 48
403 710 222 82 63 47
340 930 313 33 32 34
410 708 215 76 56 40
408 710 211 72 55 39
408 713 211 73 52 42
410 713 214 77 57 43
414 713 216 75 57 44
414 708 219 73 56 45
416 708 224 66 50 41
416 712 219 74 56 43
410 718 214 81 60 49
414 716 216 79 58 47
405 723 205 68 52 39
405 728 206 64 49 40
409 723 206 78 60 44
411 722 208 77 58 44
411 728 208 78 60 44
414 733 209 74 58 45
413 735 206 80 60 43
412 721 214 72 54 46
416 723 218 76 57 45
448 708 241 125 86 54
415 733 214 60 48 42
298 676 311 150 15 47
396 711 228 79 49 34
397 705 227 97 65 55
399 705 227 77 60 59
294 965 237 80 76 80
358 560 317 161 121 90
399 712 227 63 47 47
416 713 229 77 55 44
416 717 230 85 59 48
387 740 202 61 49 41
365 948 322 56 51 48
380 888 249 69 61 58
273 552 298 105 68 54
390 738 201 75 57 47
390 740 202 63 50 44
389 752 206 64 49 39
390 754 207 64 50 41
396 738 202 73 56 42
399 926 302 49 45 44
400 738 202 76 58 42
271 782 302 72 62 58
319 808 193 78 60 48
394 747 206 59 47 40
446 693 264 163 111 80
396 749 207 57 44 39
257 663 278 41 24 26
400 746 206 65 50 40
400 749 208 62 48 39
390 763 210 52 42 39
310 688 316 39 29 29
394 762 211 54 44 39
395 763 212 55 45 38
393 768 211 56 43 39
442 652 270 143 103 71
399 768 215 56 46 43
405 738 204 71 53 42
380 813 294 58 47 43
404 746 206 73 55 41
410 738 205 68 51 40
412 744 208 67 52 41
413 738 206 75 55 43
269 597 302 172 115 93
414 738 209 71 55 44
275 743 318 64 24 33
405 753 209 73 54 41
414 743 214 60 48 40
411 748 214 65 50 39
408 753 211 68 51 41
390 919 299 40 38 39
410 753 214 67 51 40
412 745 213 60 48 39
412 748 217 58 47 41
323 870 297 171 132 110
414 748 220 60 46 41
415 753 224 58 45 43
386 911 255 86 74 68
405 758 210 68 51 38
405 763 213 65 50 39
405 768 214 67 51 38
401 765 217 56 42 34
401 768 217 52 40 38
457 870 268 61 49 37
261 827 235 78 61 53
408 757 211 67 51 37
410 758 213 69 52 40
414 758 215 78 59 48
366 885 232 66 58 57
410 768 214 76 56 41
418 714 219 77 56 44
419 714 224 76 56 45
420 710 231 83 62 46
419 723 220 72 52 41
421 724 223 72 50 38
423 723 225 80 61 46
417 730 222 72 53 42
417 731 222 72 51 38
420 733 224 65 47 39
416 708 229 62 46 40
420 713 229 85 62 47
424 710 231 76 54 36
424 713 230 71 52 42
509 845 291 86 80 76
271 923 234 62 57 60
417 708 232 74 57 47
420 708 233 78 58 46
406 698 264 76 65 57
422 716 227 76 60 44
429 708 241 118 89 62
430 713 239 93 68 48
264 954 301 197 152 133
427 719 237 85 63 48
430 718 239 84 62 44
344 858 278 151 116 93
431 707 242 110 79 55
423 727 226 79 61 44
338 971 250 88 83 86
422 730 227 74 54 42
405 943 304 85 70 59
422 734 227 72 53 41
423 733 229 78 58 43
410 733 285 126 87 64
425 733 234 79 58 44
429 733 240 89 64 44
431 734 242 100 71 45
295 877 305 133 106 78
435 708 242 108 75 50
435 713 242 127 93 63
440 713 243 138 101 67
445 847 263 73 62 52
433 714 241 121 91 63
435 718 241 124 92 62
436 718 242 126 93 61
441 714 241 139 103 72
325 623 313 71 27 34
355 563 317 165 122 92
446 709 241 131 92 61
447 708 254 125 91 63
328 967 303 67 60 57
320 593 301 119 23 44
444 717 241 113 78 49
446 718 243 124 88 60
447 719 254 123 87 61
436 723 242 121 82 49
440 723 242 117 81 52
440 728 241 102 70 44
439 727 242 116 81 54
514 462 277 86 30 40
440 733 241 99 66 44
445 728 244 126 88 63
443 729 241 118 85 58
442 733 242 112 79 57
444 733 249 130 89 65
445 733 254 134 92 65
418 736 216 62 45 39
418 738 219 60 43 39
385 938 319 43 40 39
420 738 224 63 47 41
365 886 281 44 40 39
266 683 298 46 28 32
269 616 293 130 81 66
418 742 220 60 46 39
305 778 190 82 60 47
420 743 224 65 49 42
419 759 225 70 54 46
420 769 214 81 60 44
421 763 224 78 60 48
422 766 222 82 61 53
425 767 224 73 55 44
330 809 296 201 144 119
422 743 229 67 51 43
425 743 234 77 55 44
418 752 226 66 50 45
422 748 229 70 52 45
330 583 301 159 11 49
422 751 232 69 52 42
307 873 236 50 46 46
277 654 297 142 11 44
424 753 234 69 53 46
385 938 284 64 48 45
427 737 237 75 55 42
428 740 236 70 51 33
428 742 236 72 50 41
427 744 237 75 51 44
430 748 239 117 85 61
417 756 227 63 47 48
260 708 304 142 10 44
421 758 228 66 51 44
374 787 302 78 63 57
423 759 230 71 56 46
424 763 229 72 56 45
430 758 239 97 69 48
426 767 230 72 54 47
410 914 279 37 34 33
478 855 282 89 73 58
430 767 229 83 61 46
315 843 294 177 140 116
431 765 231 79 58 47
329 976 274 80 75 74
426 768 233 76 58 49
430 763 233 84 61 47
431 761 237 71 51 43
348 877 197 87 79 81
429 769 233 75 56 47
435 737 241 109 77 48
432 743 242 124 88 61
439 737 241 95 67 40
415 883 252 83 73 63
441 738 243 107 77 52
440 743 243 103 74 51
446 967 324 94 79 65
454 892 260 95 76 65
432 746 242 123 87 64
440 748 243 99 72 49
437 753 242 90 64 40
444 743 245 112 78 56
444 754 246 105 79 62
347 863 271 62 42 36
444 748 249 101 72 51
444 753 254 93 67 48
433 765 231 82 64 49
434 764 234 69 53 44
434 758 241 87 61 46
434 768 234 70 55 46
321 965 315 61 52 48
434 768 239 74 57 45
436 758 242 102 76 53
441 858 257 70 59 49
300 578 298 150 13 46
440 758 243 102 74 54
436 768 243 70 53 45
440 763 244 86 63 49
439 768 245 81 60 50
446 758 254 95 69 52
442 764 247 103 77 61
447 762 254 123 87 64
446 768 254 140 98 72
448 705 244 124 88 56
305 965 232 87 85 89
448 708 249 124 94 72
448 712 241 125 87 60
485 843 271 92 77 65
368 554 308 139 85 70
449 713 244 131 95 63
448 713 249 125 93 72
284 648 301 148 14 46
448 717 245 132 94 65
292 940 217 87 81 83
448 717 253 114 82 59
260 518 284 153 19 50
265 518 283 143 18 47
260 523 282 79 21 34
261 525 281 65 22 26
258 526 282 63 29 33
270 523 279 84 10 30
270 528 279 104 6 32
265 533 277 74 14 29
261 538 276 49 21 26
260 543 275 86 15 34
415 618 264 102 74 41
355 528 313 150 110 84
264 538 276 95 9 33
263 542 276 111 2 35
265 543 279 114 4 35
267 538 278 116 3 35
267 544 283 115 5 36
355 588 309 147 67 63
269 543 284 122 6 38
275 803 296 70 58 53
439 718 278 170 115 87
278 514 281 50 23 30
278 518 281 57 26 30
280 518 284 66 27 33
275 523 279 66 22 30
277 524 283 59 29 33
279 522 284 70 26 33
278 528 286 114 15 39
290 973 308 68 61 59
270 848 269 46 37 37
260 688 289 49 26 31
279 528 289 119 16 38
273 531 281 89 21 32
275 533 284 93 20 35
411 714 282 111 73 51
276 534 288 125 8 38
279 533 290 117 11 36
275 538 289 131 9 41
284 518 290 117 45 49
287 514 292 124 91 77
310 867 296 186 149 122
286 518 293 130 101 83
282 529 293 130 95 81
286 529 298 137 110 86
278 543 290 128 39 46
279 543 294 139 97 82
283 532 296 143 118 97
281 538 299 134 108 87
282 540 302 127 106 84
303 849 233 72 56 52
260 548 275 123 9 40
259 552 275 123 2 36
262 549 278 117 3 37
264 547 280 115 2 35
257 555 277 118 1 36
270 558 284 122 9 39
407 905 259 67 56 46
359 938 250 69 62 63
260 568 281 92 17 35
263 563 281 35 27 29
264 567 284 42 26 27
259 573 280 70 23 30
260 573 284 53 31 27
257 574 289 99 79 58
300 768 309 76 64 56
262 570 284 53 27 28
261 570 289 90 70 49
264 567 289 77 56 38
266 563 283 48 25 30
441 798 260 106 75 57
375 928 309 45 42 42
272 559 289 78 33 32
325 977 244 89 84 86
272 546 287 141 8 43
274 549 286 148 11 47
345 757 318 74 61 57
276 548 288 138 18 45
267 865 276 122 89 48
276 553 289 96 25 37
395 848 263 51 38 33
273 556 285 95 8 31
270 558 294 97 70 48
415 849 246 174 164 166
368 818 201 56 50 51
271 553 299 106 72 54
270 558 304 143 111 88
361 939 253 67 60 61
261 569 294 117 94 70
261 569 299 133 105 77
440 823 274 82 70 59
263 567 299 133 105 79
258 923 252 140 112 84
257 574 294 120 96 71
260 573 299 135 105 78
257 575 298 129 101 73
395 919 299 41 39 40
442 775 257 104 65 46
262 570 302 142 109 83
268 561 293 98 75 51
269 563 305 154 117 94
277 549 295 131 92 78
275 548 304 124 99 77
277 545 296 141 105 88
277 545 299 124 94 75
277 545 303 114 85 64
273 556 293 90 55 39
257 718 298 155 11 47
279 546 306 124 103 82
280 553 310 156 121 96
280 558 310 174 129 108
314 981 246 76 73 73
355 773 202 62 49 44
282 545 307 131 108 85
290 843 284 156 116 94
285 548 309 140 113 87
285 553 311 149 115 89
290 773 213 74 52 48
275 563 308 169 124 102
275 568 308 166 122 99
280 563 309 174 127 105
280 568 309 171 124 100
275 573 308 168 122 98
280 573 308 173 124 100
292 519 297 135 103 81
294 516 296 138 106 87
375 877 274 39 36 35
291 523 298 135 107 83
380 871 226 66 58 55
300 515 297 131 100 77
305 514 297 130 98 75
325 848 293 164 129 105
305 518 298 137 103 77
300 527 301 133 103 75
357 805 192 58 50 49
305 523 300 141 105 78
305 528 301 144 107 78
370 943 322 45 39 37
294 531 301 125 100 73
280 854 259 162 110 84
295 533 303 131 104 76
296 530 302 130 103 75
290 538 304 129 104 78
300 529 302 136 104 76
300 533 303 142 107 79
305 533 302 147 107 80
290 544 307 138 110 82
295 544 307 148 112 84
383 602 307 178 124 96
300 538 305 148 110 80
305 538 303 154 111 84
310 514 297 133 97 75
310 528 300 139 102 77
313 514 297 116 81 62
327 922 306 122 82 72
316 517 296 96 68 47
356 928 233 69 63 63
321 518 298 99 65 55
302 817 209 61 53 50
315 523 298 120 87 65
315 528 299 126 87 67
320 528 299 111 73 59
307 532 301 148 109 82
308 534 302 156 111 87
308 538 302 154 108 85
342 562 312 186 137 112
320 533 299 114 76 61
315 538 299 140 99 80
305 548 303 165 113 89
301 553 305 168 114 91
306 553 300 165 107 91
300 558 304 171 112 93
455 878 274 48 38 33
290 548 309 142 112 84
290 553 310 153 117 89
385 793 208 53 44 41
314 843 199 60 53 49
295 553 308 163 118 92
290 558 311 171 125 99
385 893 264 54 47 42
295 558 308 169 118 93
258 963 258 67 62 63
298 553 307 163 113 88
301 564 295 71 25 32
360 763 314 89 71 65
305 563 293 65 27 32
437 835 270 68 58 44
305 568 294 90 26 36
301 563 299 142 87 74
298 567 298 97 46 45
298 566 302 161 104 89
306 558 294 128 83 73
331 762 312 75 63 57
303 561 298 159 109 91
300 573 297 133 17 42
301 572 296 127 16 41
290 568 308 181 126 104
480 834 274 93 81 70
375 922 284 35 33 32
294 563 308 179 123 103
291 569 306 177 117 98
293 566 307 182 122 102
305 833 289 176 134 108
307 549 301 170 114 93
310 548 299 167 112 92
435 777 229 64 50 43
311 554 295 165 114 100
311 558 290 61 38 36
309 557 293 130 88 79
314 552 293 152 104 92
320 548 294 113 65 60
340 958 234 77 72 74
320 550 291 103 60 55
312 550 296 165 112 95
320 545 296 124 74 65
315 558 289 54 27 31
307 560 291 36 27 27
496 849 284 88 75 63
345 743 323 186 17 60
307 562 291 45 30 30
310 564 292 76 26 34
425 937 295 103 90 82
310 573 296 56 30 33
425 939 299 98 84 75
310 575 297 39 30 31
315 568 294 75 29 35
320 563 293 36 29 31
320 568 295 61 30 35
473 878 276 111 90 74
258 577 301 140 108 81
261 578 303 145 112 84
257 584 302 143 110 83
258 581 301 142 109 82
260 583 304 149 112 86
329 764 310 77 63 57
265 578 305 154 116 91
270 593 303 174 120 98
265 583 305 160 118 93
260 593 304 161 118 91
265 593 304 170 123 98
269 578 306 163 120 95
500 857 282 92 78 64
271 582 307 169 123 98
265 598 303 173 122 98
260 603 303 171 122 95
304 868 244 111 86 64
260 608 303 171 118 93
264 603 302 171 118 93
265 608 300 167 111 88
475 868 285 93 84 76
263 606 302 169 114 92
270 603 299 163 107 85
271 609 295 139 91 71
275 588 303 173 118 97
476 978 339 97 83 71
274 592 302 169 112 92
405 948 324 52 44 40
280 583 304 174 119 97
350 758 318 74 62 59
281 589 300 158 100 84
280 593 299 150 94 78
471 524 269 129 20 46
284 582 303 166 108 89
260 813 233 78 60 54
285 578 305 172 114 94
285 588 298 101 63 54
285 592 297 64 37 37
274 582 307 171 123 100
275 584 306 175 124 101
277 580 306 176 125 101
283 576 307 180 128 105
280 598 295 102 46 45
425 934 293 106 92 85
280 628 295 71 26 33
278 596 298 149 93 77
409 926 281 83 67 60
276 603 295 116 71 58
274 602 298 155 101 81
281 594 296 102 55 49
444 851 250 77 64 52
284 594 296 67 32 35
286 598 297 131 22 44
382 826 292 119 93 80
284 603 296 70 28 35
284 608 296 43 28 29
286 603 297 38 27 31
286 608 297 44 30 31
264 628 288 98 48 43
271 865 275 111 82 49
260 633 289 133 76 61
266 632 287 112 21 38
264 634 285 103 17 32
431 559 285 38 29 34
265 638 284 110 15 35
265 628 286 81 24 32
270 633 289 67 25 31
380 617 298 154 79 70
267 638 287 137 16 41
305 967 234 87 85 89
262 609 301 169 114 90
456 939 313 77 74 71
265 613 298 163 108 87
260 618 299 165 110 87
258 616 302 169 115 90
264 617 297 160 105 85
272 615 291 50 34 31
268 611 297 158 103 81
270 623 289 53 26 29
259 632 293 154 97 77
296 814 296 147 106 88
262 629 290 134 78 63
456 975 329 91 81 72
418 911 280 42 35 35
263 626 292 147 92 72
258 627 297 160 106 81
257 630 296 160 104 83
275 612 292 46 28 29
275 614 291 40 28 29
274 623 290 70 27 35
280 618 294 52 28 31
402 656 276 118 80 65
283 612 296 41 28 31
283 617 296 46 25 29
282 620 297 104 36 46
282 623 297 73 26 36
276 628 293 37 27 27
273 633 291 50 25 28
276 633 293 66 27 32
279 638 296 98 17 35
355 778 309 76 62 58
281 638 297 112 18 39
282 628 297 136 20 46
285 628 299 97 23 39
285 633 299 73 28 36
289 577 303 163 103 86
290 583 298 63 39 37
295 578 298 113 24 40
420 518 297 52 31 33
290 588 298 68 31 36
375 934 319 36 34 34
295 593 299 157 18 50
300 583 298 159 13 49
305 588 299 166 14 51
290 598 298 147 20 47
335 752 318 76 63 58
295 598 299 164 17 51
290 603 299 40 28 31
290 608 299 35 29 31
295 603 299 75 23 35
295 608 299 36 29 31
300 598 299 169 15 53
365 768 310 90 73 64
305 598 300 163 14 51
429 638 283 146 105 68
300 603 300 144 22 49
300 608 300 49 27 30
310 578 297 39 30 32
310 583 298 80 22 35
275 978 294 62 55 52
310 593 300 156 15 49
320 583 300 153 14 47
320 588 301 156 15 48
488 922 304 100 81 61
319 981 273 67 63 62
311 599 302 149 16 45
360 861 180 86 73 64
340 773 198 50 43 42
310 603 302 126 19 43
310 608 303 60 26 33
313 596 301 146 18 45
312 848 209 49 45 46
315 598 302 107 23 39
318 595 302 79 19 30
315 603 302 84 24 36
321 607 301 101 22 37
426 780 223 65 52 43
320 609 302 57 24 31
399 883 258 51 43 37
290 613 299 74 28 35
295 613 300 123 21 43
290 618 299 119 20 42
290 623 300 134 17 44
271 840 280 62 50 47
295 618 300 134 16 42
294 622 301 138 15 41
296 623 302 141 17 45
302 610 302 44 24 26
289 775 191 76 57 46
305 613 303 114 22 41
362 882 217 63 61 64
298 616 301 107 12 38
270 798 215 75 58 51
305 623 303 115 23 43
290 628 301 36 28 30
289 633 301 44 28 29
292 629 302 39 28 30
291 633 302 43 29 31
295 628 303 64 24 32
308 834 218 53 48 47
295 633 304 48 29 31
288 637 301 83 20 33
300 633 305 58 27 30
304 632 306 37 28 31
310 613 303 112 28 43
310 618 303 67 28 34
315 613 302 100 25 39
315 618 303 66 24 31
319 622 306 42 26 30
307 630 307 49 28 29
337 905 212 61 55 57
457 540 270 74 22 35
310 633 310 56 26 31
310 638 310 123 27 47
315 628 309 62 25 32
319 627 311 52 27 32
316 633 312 94 37 45
317 629 312 48 30 29
320 633 312 51 29 33
319 640 311 122 25 47
325 518 295 103 70 62
324 518 299 109 77 72
324 523 299 113 81 72
420 653 290 182 124 93
323 523 304 121 78 67
323 526 304 119 78 65
324 521 296 121 94 83
434 896 275 41 31 31
475 858 283 77 62 49
325 523 309 145 105 87
320 653 311 88 29 38
324 528 309 150 108 92
335 518 312 150 113 88
329 522 311 135 101 77
330 523 312 132 98 73
330 528 314 144 104 80
275 798 297 73 60 54
322 537 303 131 90 76
385 898 249 73 63 58
324 543 304 140 98 79
270 928 313 129 101 87
323 535 306 137 94 79
398 940 309 68 58 49
325 538 309 160 115 98
328 540 311 174 132 111
290 969 310 63 57 54
329 544 311 173 129 109
330 538 313 173 125 106
258 673 280 59 28 31
335 543 314 169 125 101
345 519 312 135 102 75
340 523 314 141 106 79
340 528 315 164 119 96
345 528 315 153 110 82
345 533 316 164 118 89
340 538 316 164 122 91
345 543 316 159 115 87
288 975 306 68 62 60
365 718 329 172 2 55
350 533 315 162 114 86
422 905 272 93 78 62
323 549 295 96 45 43
306 978 246 75 71 72
398 738 287 92 30 39
322 546 297 128 79 70
270 832 235 84 66 57
325 548 304 162 111 93
406 918 263 73 62 60
323 554 291 93 11 32
323 558 291 108 14 37
345 785 306 69 59 56
328 555 300 159 106 96
329 554 305 172 115 99
335 782 307 76 64 57
330 558 299 143 87 80
440 958 319 86 75 66
331 557 304 176 120 106
332 546 312 178 130 110
332 556 307 178 120 104
335 558 309 177 122 104
326 570 297 60 20 29
329 563 296 107 5 31
335 718 323 63 30 36
329 567 296 121 8 36
330 568 297 121 8 37
280 839 279 61 47 42
335 568 299 111 12 35
330 573 298 136 13 41
335 573 299 122 7 37
340 548 315 171 126 100
340 879 282 65 50 43
340 553 314 171 128 102
344 558 316 171 129 102
346 549 317 166 122 94
355 903 229 59 53 53
350 558 317 172 128 98
337 562 308 177 123 105
466 533 264 208 17 61
340 563 309 182 129 108
403 774 217 61 51 46
341 567 308 181 126 107
347 562 317 179 134 107
310 888 300 145 114 87
350 563 317 169 126 98
348 564 316 175 130 104
404 912 250 87 66 58
349 568 315 180 132 109
351 568 317 172 127 102
270 979 279 72 65 63
350 573 314 188 135 112
352 572 317 181 131 108
365 518 299 57 24 26
365 523 304 68 41 37
366 521 301 60 25 28
355 518 309 130 97 76
358 514 307 144 108 83
360 523 309 144 110 84
361 528 311 149 112 85
293 737 322 147 18 51
354 524 312 133 102 73
387 786 212 50 41 35
362 521 306 126 96 79
363 524 308 133 103 84
364 528 308 144 110 90
355 533 314 160 114 88
355 543 315 158 116 84
337 965 276 67 62 63
360 543 313 167 124 95
362 533 311 170 126 101
443 708 273 167 113 85
364 533 308 151 113 94
367 533 306 91 66 57
362 538 311 168 124 98
285 843 274 141 103 84
364 538 309 159 121 99
365 543 309 161 122 101
375 858 220 63 55 54
367 537 306 108 78 67
367 543 306 131 85 72
450 858 254 106 91 82
369 516 295 60 26 27
446 808 269 97 77 60
370 524 303 52 23 24
465 977 329 96 83 70
371 957 319 89 78 68
370 528 304 52 24 24
378 516 301 50 19 26
280 978 299 69 64 62
380 523 303 107 25 42
325 799 301 197 143 119
300 788 303 73 58 54
385 523 303 168 17 55
384 527 302 124 18 44
375 533 303 128 28 48
370 538 304 88 35 39
328 865 192 87 71 65
375 538 303 159 24 53
379 533 302 141 19 49
383 531 302 79 19 26
457 885 282 94 82 70
380 538 301 120 19 44
456 884 278 89 76 64
378 538 302 172 21 57
293 856 291 133 108 85
378 541 302 152 15 48
385 538 299 131 22 48
355 548 315 156 115 81
360 548 313 159 119 89
360 553 314 157 117 87
355 558 317 168 124 92
360 558 316 152 115 83
353 956 279 80 74 74
365 548 309 164 123 100
366 553 310 151 111 86
367 551 306 149 87 73
363 549 312 165 123 96
270 978 289 63 57 55
367 556 311 141 110 78
365 558 314 147 116 83
360 568 317 163 120 88
353 575 316 183 132 108
360 573 318 178 129 100
361 562 316 154 118 83
364 568 317 163 120 89
366 568 316 162 118 89
365 573 317 178 128 99
374 547 302 150 29 50
375 548 301 152 22 48
372 550 301 141 34 47
375 553 300 109 24 40
349 844 189 83 74 70
372 558 300 87 43 42
371 558 304 124 77 64
380 548 299 164 20 54
385 558 295 57 29 33
381 558 296 72 27 34
369 560 312 147 118 87
376 564 296 117 24 41
374 563 304 95 61 47
376 567 299 68 35 34
376 567 304 102 73 53
380 563 295 71 25 32
380 568 295 54 31 33
385 563 294 61 29 34
305 971 312 77 73 73
382 572 295 71 32 34
433 925 297 83 72 63
378 569 304 119 89 66
434 733 283 172 114 84
383 575 299 120 93 69
372 562 310 146 114 86
373 560 308 116 79 57
325 578 299 144 15 46
325 583 300 158 12 48
325 588 301 157 13 49
325 593 301 137 16 45
330 578 299 151 14 47
335 583 301 154 12 49
330 588 301 157 13 49
329 593 301 150 16 48
331 593 302 145 15 46
390 958 304 91 76 67
438 673 277 170 118 88
335 593 302 132 11 42
325 598 301 122 19 42
325 608 303 30 26 27
329 598 301 134 12 43
379 699 309 135 12 42
331 598 302 123 8 38
335 598 304 112 7 35
328 602 301 117 8 34
330 603 302 97 13 33
334 603 305 99 14 34
345 858 195 69 58 54
333 607 305 64 24 33
335 608 309 56 26 29
340 578 301 122 8 37
342 576 302 103 9 32
342 581 302 116 7 35
344 584 301 116 4 37
340 589 302 123 8 37
340 593 304 112 6 34
343 586 301 119 3 38
345 592 305 100 7 32
424 833 254 97 69 61
348 580 306 126 44 43
375 858 267 45 40 37
348 583 306 109 11 33
350 583 309 154 84 75
351 578 313 194 136 116
352 581 312 194 133 114
351 588 307 127 19 41
348 591 306 123 12 37
350 593 308 141 21 47
342 595 307 98 5 34
346 594 308 89 15 32
339 603 310 71 19 30
338 606 311 71 21 32
345 602 311 64 30 34
340 608 313 42 30 31
396 950 304 73 60 53
345 604 312 103 31 44
350 603 310 107 26 42
305 983 264 58 54 53
275 788 301 74 62 57
322 620 307 54 27 26
285 972 254 79 75 77
323 621 310 54 25 30
326 619 313 46 28 31
328 611 306 31 25 28
331 614 313 56 28 31
367 945 297 84 65 58
335 613 313 36 29 29
330 618 314 79 30 37
335 618 315 40 31 32
419 868 244 100 87 76
284 672 306 136 12 42
335 623 314 66 32 36
325 628 314 90 33 42
325 633 313 70 31 38
330 628 314 145 31 53
335 633 313 58 29 33
315 943 220 78 72 74
330 638 312 74 31 37
368 815 201 56 50 52
340 613 314 38 31 32
345 613 313 59 32 36
340 623 314 49 32 32
345 623 312 107 25 42
388 699 293 146 10 43
347 610 311 111 43 50
348 620 312 154 22 51
438 865 241 124 104 92
348 623 312 152 22 52
271 972 298 61 56 55
340 628 313 88 29 38
420 828 244 78 60 54
340 633 312 120 27 45
345 633 312 116 31 46
430 543 290 181 14 56
345 638 311 51 32 34
340 638 312 46 31 33
350 633 311 97 32 43
348 632 312 130 44 61
347 634 311 70 27 32
350 638 311 100 32 43
355 583 313 198 138 117
360 577 317 186 134 106
360 583 315 196 140 116
364 577 317 182 128 99
360 913 240 57 48 48
365 579 316 180 128 98
365 594 310 172 109 93
365 588 313 193 137 111
460 973 324 95 81 67
365 591 312 188 132 109
356 595 306 140 27 46
360 595 306 130 41 49
360 598 305 135 32 46
356 603 305 148 17 48
404 852 246 75 65 56
430 798 249 121 82 63
356 608 305 132 22 46
365 599 305 144 63 60
445 668 269 162 110 79
385 578 299 133 100 74
265 903 250 129 101 72
384 578 304 149 109 78
370 583 313 174 122 93
450 887 250 92 79 70
430 773 220 65 53 46
360 889 218 60 56 57
376 588 311 171 119 88
263 642 281 102 18 31
375 593 310 178 123 97
370 592 312 189 133 109
375 713 323 95 25 38
373 591 312 178 123 93
380 583 309 163 116 87
375 874 272 41 38 37
382 577 306 156 115 84
386 583 304 152 111 79
380 593 308 169 117 87
384 588 307 160 115 84
384 593 307 164 116 84
370 603 304 144 79 70
370 609 301 107 47 48
370 594 311 190 135 111
270 800 296 64 54 49
370 598 309 175 114 96
375 598 309 191 134 110
384 598 307 172 121 89
462 844 264 89 76 65
380 602 307 188 131 107
380 604 306 190 132 108
358 613 302 116 18 41
356 613 305 114 23 43
436 905 287 56 46 38
361 613 301 90 13 32
355 793 185 83 65 55
361 618 301 60 26 30
359 618 303 42 25 28
361 622 301 66 19 32
427 808 249 106 73 58
354 618 308 64 27 33
379 693 303 140 9 42
356 623 306 98 28 40
365 638 304 121 26 45
355 628 308 112 21 41
361 633 305 85 25 36
307 955 322 47 44 44
290 692 316 140 11 44
355 638 309 59 30 33
362 637 306 125 24 48
370 613 300 117 33 42
375 613 299 125 58 56
374 609 301 140 75 65
454 543 274 198 18 64
375 618 297 142 36 49
426 925 283 89 69 62
374 623 297 157 26 51
384 614 301 176 113 90
396 868 259 44 38 36
380 619 296 147 60 58
385 623 295 154 76 67
275 876 258 103 80 51
377 623 296 153 30 50
370 628 300 117 22 43
370 633 300 166 16 54
374 628 297 162 17 51
350 686 316 70 27 33
374 633 298 167 10 53
260 974 279 63 59 61
368 635 302 109 14 32
295 931 211 87 77 74
368 638 302 79 24 39
374 638 298 160 14 51
380 628 294 154 20 49
336 878 284 141 109 87
384 632 292 145 22 47
377 628 296 162 14 51
385 633 290 139 26 46
382 634 291 160 14 50
385 638 289 151 16 48
260 643 279 94 15 30
280 793 300 79 64 56
260 648 280 63 23 29
315 848 295 179 144 116
262 641 282 90 7 29
262 648 282 39 26 27
264 648 284 65 24 33
264 653 285 40 27 29
392 961 307 96 79 67
355 803 189 61 52 50
443 698 273 165 113 84
267 643 287 141 12 42
397 603 301 155 111 75
267 648 287 101 16 37
266 653 287 37 26 28
262 658 282 73 33 40
261 663 283 35 28 31
263 663 286 33 27 29
365 838 205 63 56 55
257 668 277 64 27 35
259 668 280 50 28 29
261 668 284 40 28 30
265 668 289 113 19 39
264 673 289 97 25 39
362 950 293 86 74 71
371 913 252 68 61 61
266 658 288 32 27 29
324 828 292 181 132 109
266 663 289 72 20 34
269 653 290 117 18 41
272 653 292 127 9 40
281 678 308 89 25 37
271 658 293 137 13 44
268 662 291 134 16 48
270 663 294 118 16 40
269 673 295 43 24 28
435 954 321 87 71 62
260 778 224 73 58 50
271 673 298 43 29 32
273 643 291 146 15 46
323 981 267 66 61 60
275 648 294 145 13 45
415 883 250 85 75 66
278 643 296 147 14 46
281 643 298 149 14 46
410 552 292 51 32 36
272 650 292 143 11 42
278 652 296 145 12 45
280 653 299 145 13 45
285 643 300 149 14 46
273 662 296 92 20 41
415 943 306 94 80 69
280 658 300 129 15 42
280 723 324 171 17 55
279 663 300 36 28 31
422 793 227 67 52 44
274 673 300 41 30 30
278 667 301 32 28 31
435 913 269 113 85 67
398 805 228 59 44 37
280 668 303 65 26 34
277 670 302 39 33 31
417 799 222 68 55 50
276 674 303 41 29 31
280 673 304 74 22 33
282 659 302 92 17 35
395 638 259 60 33 40
285 663 304 112 17 40
285 668 305 137 15 43
260 678 284 66 26 34
258 692 286 49 24 30
257 695 287 64 23 33
265 678 294 54 25 30
263 682 291 37 28 28
262 684 292 40 31 32
263 687 296 49 21 29
290 818 296 81 62 57
267 679 297 86 28 42
270 678 299 82 30 39
272 679 302 51 27 31
265 688 299 97 23 39
340 689 317 60 30 32
267 689 302 67 26 32
267 957 302 122 90 82
271 683 303 40 28 30
388 863 231 66 55 53
270 688 305 47 29 31
260 693 294 114 17 39
430 958 324 86 70 58
262 694 298 125 15 43
259 698 294 64 26 34
257 704 293 91 24 39
258 702 295 87 21 35
261 698 299 65 25 33
259 703 299 124 10 41
330 818 193 80 63 53
263 696 301 30 28 31
264 698 304 65 27 34
310 947 221 79 73 75
262 699 302 78 17 34
263 702 305 140 11 43
271 689 307 37 29 31
269 697 310 54 30 31
270 703 314 49 27 32
334 878 288 150 118 95
275 678 304 50 30 33
274 682 305 53 29 32
276 684 308 69 27 35
377 681 301 145 16 49
277 680 307 87 27 30
280 683 310 102 18 36
279 687 311 105 19 37
420 923 297 67 55 49
265 974 269 84 78 78
280 688 313 106 13 34
284 682 311 122 17 42
285 684 312 136 12 42
370 698 319 128 4 41
280 693 315 99 16 35
275 698 315 90 24 38
274 702 316 34 29 30
279 696 316 78 16 30
285 693 315 136 11 42
430 963 329 78 63 49
268 938 233 64 61 63
286 695 317 138 12 42
285 698 318 138 12 43
285 703 320 138 12 43
290 643 303 157 16 49
290 648 303 157 16 50
376 913 270 58 52 48
295 643 305 161 16 51
294 653 306 156 17 49
400 803 298 175 132 99
296 654 307 157 17 50
476 974 339 96 83 71
369 747 322 88 21 36
298 643 306 162 17 52
300 643 308 163 17 52
300 648 308 165 16 52
300 653 308 160 17 51
305 653 309 151 20 51
290 658 305 152 16 48
444 793 260 117 81 59
290 741 322 38 30 31
289 663 306 151 16 48
293 656 306 154 17 49
300 658 309 155 17 50
300 663 310 159 15 51
280 944 311 175 137 112
305 658 310 82 24 37
305 668 311 163 14 51
371 918 275 46 41 38
305 672 311 161 13 51
259 829 238 80 62 54
310 643 310 111 25 44
310 653 310 70 25 34
315 648 310 111 27 43
320 643 311 93 29 42
425 548 291 127 21 46
383 737 312 181 15 58
320 648 311 107 28 43
315 653 310 50 29 32
310 658 310 33 28 32
310 663 311 140 20 48
268 902 316 161 120 98
310 668 311 162 13 51
308 671 311 163 13 51
312 670 312 161 11 52
315 663 311 166 17 54
320 658 311 83 25 38
315 667 311 165 11 52
376 916 271 61 55 52
320 667 311 160 14 50
310 883 300 153 118 91
396 693 269 86 30 39
320 669 312 159 13 51
294 677 311 148 15 46
279 819 227 81 63 55
291 680 312 144 14 46
399 860 258 52 47 46
290 688 314 140 11 43
295 683 313 145 14 45
300 683 314 109 19 40
300 688 315 145 15 46
290 695 317 142 10 45
295 692 316 145 11 45
295 695 317 145 11 45
440 933 304 85 72 59
295 703 320 144 14 45
300 692 316 146 15 46
305 691 316 129 17 40
264 804 223 78 62 52
305 698 319 76 23 35
305 703 320 149 19 48
310 683 314 57 26 33
320 678 313 144 18 47
315 683 314 95 23 37
320 683 314 103 20 38
320 688 316 97 28 41
309 691 316 36 27 30
310 693 317 67 29 35
310 698 319 44 26 31
428 653 287 165 114 81
315 690 317 79 31 37
315 693 318 73 28 34
320 693 318 90 25 36
315 698 319 32 29 32
320 698 320 36 29 32
315 703 320 93 24 40
257 709 298 72 20 34
258 708 300 135 11 44
334 971 283 64 59 58
259 713 304 149 11 45
258 718 300 155 10 48
262 709 308 138 11 42
264 708 310 104 17 39
263 713 311 138 13 42
261 718 309 157 13 49
263 718 311 156 14 49
269 708 315 69 28 34
271 708 317 77 27 36
445 803 268 99 78 63
305 855 297 174 140 114
268 712 316 75 29 40
355 888 283 41 38 37
267 714 317 125 25 48
460 883 284 93 82 71
267 718 317 153 18 50
258 723 300 158 11 48
259 728 304 162 11 51
257 729 302 161 11 49
426 843 257 63 54 44
257 733 302 162 11 50
259 733 305 162 12 50
261 723 309 166 13 52
263 722 311 165 14 52
264 723 314 166 15 52
265 728 314 172 15 55
300 888 239 67 59 53
261 733 309 174 13 55
263 734 311 178 15 55
285 941 216 88 79 80
262 729 312 176 14 53
265 733 314 132 18 48
267 723 317 167 16 53
270 728 319 171 17 55
274 712 320 129 12 40
275 733 320 153 18 51
257 743 299 165 15 52
257 741 302 165 14 50
259 743 304 166 15 53
258 744 301 166 14 52
259 753 304 171 17 54
441 837 269 75 63 50
261 743 308 171 15 55
261 748 307 176 17 57
353 818 197 59 50 48
269 738 315 64 26 35
268 754 311 49 28 31
267 747 312 97 34 46
270 753 313 94 31 43
257 758 298 138 23 47
261 763 303 70 57 52
265 763 305 83 68 61
265 758 308 86 53 55
270 758 310 84 65 61
396 668 259 64 31 39
271 757 312 131 47 62
266 762 307 86 69 64
270 763 308 84 70 64
272 742 317 132 22 50
276 748 317 49 26 31
275 753 315 111 31 46
346 861 175 85 70 63
280 748 319 156 22 53
305 953 319 42 40 42
277 751 317 63 27 33
280 753 318 83 25 39
285 748 320 185 18 59
285 753 318 155 28 56
275 758 313 82 55 54
275 763 309 80 66 62
275 767 307 74 64 60
280 768 308 79 67 62
281 761 312 85 70 64
285 756 317 90 52 55
285 761 312 88 73 65
428 630 277 134 100 63
305 728 319 180 10 56
305 733 318 163 17 53
471 824 266 94 80 65
429 783 288 168 119 86
310 723 319 163 16 54
394 643 284 119 60 52
310 733 318 169 18 55
315 728 318 82 23 37
320 728 318 127 23 48
315 733 317 154 18 53
320 733 317 168 18 54
290 748 320 125 28 49
340 888 288 50 44 40
290 753 318 103 45 52
294 752 318 76 61 56
425 858 249 125 116 108
300 738 319 148 23 52
300 743 318 56 30 33
325 873 194 70 60 59
305 743 317 42 31 34
298 751 317 81 64 57
303 746 317 73 58 53
305 748 315 78 64 56
329 719 321 43 29 29
290 758 315 85 70 64
295 764 311 83 68 59
300 758 312 81 66 58
305 768 308 73 61 55
310 738 317 64 28 35
310 742 317 41 37 36
306 745 316 66 57 51
310 748 315 75 62 55
413 837 245 80 62 54
310 753 313 75 62 55
315 738 317 106 29 43
436 703 280 169 115 80
313 741 317 48 32 35
447 550 275 168 21 57
320 744 316 67 55 50
406 623 258 97 58 43
321 742 317 67 54 51
315 748 314 69 58 53
320 748 314 70 58 54
310 763 310 73 61 56
435 950 322 89 74 62
404 823 297 191 138 110
320 754 311 70 59 54
320 758 310 69 58 55
428 964 316 100 79 61
410 893 249 101 89 79
315 768 308 73 61 56
320 763 309 72 60 55
320 768 308 74 61 56
279 707 321 130 11 41
276 713 322 141 13 43
280 709 322 142 13 45
280 713 323 151 17 48
273 718 321 117 16 40
270 869 308 148 123 99
280 718 324 161 18 52
300 863 298 170 135 110
285 706 321 141 11 43
275 788 200 66 52 45
273 723 321 117 17 43
275 723 322 95 19 37
280 728 324 179 17 58
285 728 324 190 10 61
285 733 323 189 13 61
277 736 322 170 18 61
420 623 264 103 82 57
279 739 321 181 18 60
411 678 269 91 69 56
280 738 322 184 18 58
285 738 323 150 20 51
389 848 224 63 51 49
285 742 322 136 19 48
410 538 295 73 30 36
291 708 321 146 8 46
289 708 322 147 7 46
308 841 222 53 45 44
290 713 322 156 5 50
295 708 320 150 15 47
295 713 321 155 6 49
290 718 322 167 3 53
390 932 260 64 53 46
294 714 322 157 1 49
295 718 322 164 1 52
305 708 320 130 23 46
305 713 320 164 20 56
300 718 320 167 8 53
290 728 323 195 3 63
440 913 289 87 69 56
296 733 321 187 11 59
340 803 192 80 65 53
416 650 291 185 125 96
300 723 321 174 2 55
298 722 322 172 0 54
297 728 321 187 1 60
270 834 238 88 69 60
310 708 321 49 26 31
315 708 321 92 22 36
470 969 329 92 81 70
320 708 322 71 26 36
419 577 283 74 29 35
316 712 322 94 25 38
320 712 322 125 25 47
320 718 320 111 25 42
485 918 295 94 80 66
290 743 321 50 28 33
325 644 311 68 30 35
290 802 197 68 55 47
330 648 311 44 29 31
335 643 311 99 33 47
443 723 272 170 115 84
335 648 311 83 31 38
435 538 290 169 17 55
335 641 312 148 47 66
325 658 311 75 32 40
345 878 189 83 72 68
330 848 190 54 48 46
324 663 311 94 18 37
410 954 333 72 59 48
326 660 312 60 31 36
438 644 269 135 105 70
326 663 312 78 23 37
325 673 312 127 16 43
330 657 311 44 26 32
335 658 311 124 23 44
330 668 312 154 17 50
330 673 313 145 17 45
335 668 312 150 20 50
335 673 313 83 22 34
340 643 311 43 32 34
340 648 311 34 30 32
368 791 186 60 49 47
345 643 311 39 30 32
340 653 311 70 25 37
475 848 274 83 67 52
345 653 310 78 30 39
350 643 310 65 31 35
350 653 310 72 29 36
340 658 311 68 24 35
373 699 317 128 6 40
341 662 311 41 29 32
360 683 313 134 14 41
345 658 310 63 23 33
359 928 239 67 61 62
340 668 312 162 19 53
344 668 312 167 16 53
346 668 311 168 14 52
350 672 311 157 13 52
325 683 314 88 27 37
325 687 316 88 27 39
330 678 314 139 22 48
420 573 284 121 32 49
335 678 314 51 26 30
330 683 315 49 27 31
330 687 316 83 27 35
335 683 315 51 30 32
335 687 316 67 29 35
330 689 317 78 24 31
405 568 288 67 30 36
330 693 319 63 30 33
335 689 317 42 29 29
335 693 319 46 30 31
340 678 314 81 27 37
345 678 314 63 26 33
340 683 315 63 29 34
340 686 316 91 25 34
404 942 289 91 74 64
345 683 315 65 27 33
358 951 265 70 66 68
345 686 316 137 22 47
345 688 317 110 21 38
349 674 312 140 14 46
359 866 190 79 63 55
350 678 313 40 28 32
350 683 315 39 29 32
350 689 317 108 26 41
340 693 319 37 31 31
352 954 254 72 66 68
350 693 320 59 29 33
288 949 311 56 51 50
380 643 289 157 13 47
384 642 287 156 12 47
382 648 286 159 14 50
426 744 286 173 115 84
382 653 286 101 24 42
383 663 287 86 22 37
384 668 288 131 23 46
365 648 304 145 17 47
364 823 194 62 53 51
355 643 309 59 33 36
355 648 309 45 29 31
360 648 307 94 30 40
359 653 307 95 27 41
362 643 306 117 30 46
370 947 283 78 69 68
362 648 306 98 25 39
345 862 184 70 60 59
362 653 306 69 23 34
365 658 305 151 17 48
460 976 325 94 82 71
275 883 313 170 138 110
355 658 309 46 27 31
355 663 309 84 27 37
360 663 308 85 25 36
355 668 310 158 16 50
360 668 309 146 16 47
360 673 310 150 8 47
363 664 307 44 26 33
366 668 305 143 11 45
363 669 307 143 13 46
367 672 306 143 7 44
376 643 294 155 17 48
371 643 300 94 22 36
368 648 302 160 15 51
373 643 297 131 19 46
374 648 298 162 13 51
376 678 300 138 13 43
376 653 294 127 17 45
418 698 281 129 89 64
374 653 298 159 16 49
409 609 293 139 102 67
378 643 292 162 14 51
378 648 292 150 13 46
378 653 292 88 18 38
369 663 302 150 15 48
372 663 301 101 18 37
374 658 298 127 19 43
376 658 295 97 23 40
369 668 303 147 13 46
370 673 304 142 9 43
448 804 274 115 84 64
375 673 299 148 16 46
372 671 301 145 13 44
378 658 292 86 24 38
381 663 290 53 27 31
377 668 296 100 20 37
451 888 260 87 69 60
380 673 294 117 17 39
366 945 294 87 71 62
382 672 291 137 19 46
384 673 288 97 23 37
353 675 312 119 18 44
355 678 312 82 17 33
355 683 314 92 25 38
429 823 273 92 65 49
366 682 310 134 10 40
355 689 317 58 29 30
286 856 246 174 117 87
437 565 266 80 25 38
355 693 320 49 30 33
360 693 319 84 23 35
405 944 319 60 51 44
335 878 194 73 63 59
366 691 316 121 11 35
418 521 297 63 30 35
365 693 318 131 9 41
318 976 302 73 65 61
365 697 320 132 7 40
271 823 291 58 51 50
373 674 302 144 12 46
374 678 303 142 12 44
278 870 307 127 103 78
375 683 304 140 9 42
405 942 299 84 71 64
381 678 294 55 27 31
383 679 292 103 23 41
378 674 297 132 24 47
310 928 209 72 66 67
382 682 295 52 29 33
380 683 299 88 20 34
378 684 302 141 12 44
381 688 299 117 15 39
378 688 303 142 9 43
368 679 307 138 8 43
371 688 310 134 6 40
374 688 308 137 5 41
376 688 305 139 5 44
350 707 326 150 13 48
368 685 312 131 10 41
369 689 313 130 8 39
427 798 291 177 124 96
307 832 219 53 47 47
383 690 297 144 20 48
383 694 298 144 11 44
430 678 282 171 115 85
381 697 305 139 11 43
420 862 249 98 85 75
385 698 299 143 7 44
383 699 303 132 10 41
373 694 313 132 8 41
377 697 310 134 9 41
375 703 319 129 11 40
392 738 301 175 15 53
377 692 306 138 7 43
381 702 310 88 17 34
321 704 322 49 19 26
325 703 322 44 27 31
330 698 321 107 23 38
335 700 322 74 25 33
340 699 322 70 27 31
523 452 273 140 16 51
340 703 324 91 27 38
345 696 321 85 31 40
345 699 322 100 23 38
350 696 321 62 21 24
354 920 297 33 31 31
309 806 297 196 142 122
350 698 322 130 15 43
350 703 324 145 10 46
355 696 321 86 24 32
360 703 325 142 8 44
370 704 323 117 9 38
325 728 319 106 24 43
325 743 318 71 57 52
327 746 317 77 62 55
329 743 321 77 57 53
301 884 240 66 57 51
328 749 316 79 63 56
330 753 315 78 64 57
331 752 317 76 63 57
324 758 311 72 61 56
327 761 312 75 62 57
335 758 314 75 63 58
281 946 221 80 73 75
461 518 286 176 0 54
330 768 309 79 64 57
333 765 311 75 63 56
421 828 284 173 114 88
335 768 311 76 63 57
335 763 312 74 62 57
425 914 293 42 38 36
