ply
format ascii 1.0
comment Created by Open3D
element vertex 2232
property double x
property double y
property double z
property uchar red
property uchar green
property uchar blue
end_header
296 389 215 76 64 52
245 459 90 181 7 40
297 619 292 111 23 42
237 475 154 70 17 28
324 793 278 59 51 50
275 673 302 37 29 31
220 444 189 111 2 34
320 109 235 122 89 69
211 469 122 115 18 35
220 469 115 138 3 36
274 63 249 130 91 77
218 470 118 138 1 38
285 965 234 90 86 90
346 659 198 105 24 31
381 599 220 93 28 34
233 493 173 45 29 30
254 392 218 95 83 69
223 470 113 137 0 38
222 478 117 140 3 35
182 449 223 142 1 41
317 270 263 109 88 65
350 439 146 115 21 36
226 824 255 76 62 58
202 489 127 143 0 34
229 289 271 118 94 68
358 669 259 147 10 46
346 174 252 118 95 67
327 921 238 79 69 68
205 489 126 145 0 35
210 529 136 112 23 36
250 423 185 93 78 63
202 494 127 148 0 30
325 664 284 138 22 50
255 499 300 138 14 44
255 264 281 118 95 68
203 569 205 65 25 33
240 389 301 132 99 74
379 853 220 84 68 62
195 499 205 152 0 36
205 494 126 148 0 34
258 852 268 71 51 55
359 669 206 58 34 36
228 309 272 127 98 72
390 427 210 49 28 23
206 503 127 100 32 34
298 379 255 74 57 43
181 444 215 66 27 32
364 464 259 46 27 31
379 649 213 115 92 69
205 764 295 177 121 94
215 494 124 154 0 34
245 509 120 85 36 44
218 826 279 202 136 106
254 412 203 96 82 69
390 474 248 66 26 32
324 922 315 68 54 47
260 353 235 95 82 69
222 482 117 142 3 33
265 479 99 130 24 43
225 484 116 135 11 36
324 848 281 41 34 31
304 719 308 155 0 49
234 654 260 110 23 42
225 499 179 41 31 28
220 598 195 215 8 56
223 758 244 94 32 44
270 967 300 66 61 59
223 485 118 146 10 33
231 416 212 97 84 70
392 515 237 170 13 54
218 491 123 160 0 26
213 519 292 110 20 42
242 280 283 119 94 68
224 749 245 115 13 36
219 495 123 147 6 37
210 504 127 138 8 37
233 713 239 109 22 39
213 606 251 103 22 38
240 414 304 94 70 54
405 769 200 103 76 53
310 719 185 112 20 33
220 499 124 148 8 40
256 841 276 50 41 39
220 504 125 158 1 33
228 324 271 131 101 74
198 434 242 118 8 37
270 814 290 62 50 44
280 779 204 80 63 52
224 500 123 128 21 43
342 410 272 131 91 66
255 604 322 161 122 92
225 504 124 111 25 39
190 417 215 57 34 39
238 455 93 162 7 39
239 459 94 172 7 41
349 604 181 83 35 42
284 34 250 116 33 47
183 499 230 36 30 32
353 278 227 132 97 64
205 574 210 77 25 35
300 824 206 87 67 57
207 779 300 172 117 89
246 453 87 170 9 42
220 515 128 136 11 36
190 417 220 55 32 34
227 625 304 150 118 90
244 455 89 171 9 39
278 319 279 109 75 52
255 458 87 187 7 34
272 248 261 115 91 63
351 64 220 113 65 59
410 765 160 89 69 53
205 479 139 130 0 41
265 434 302 36 27 27
382 799 257 69 51 40
325 738 183 117 19 32
225 334 260 121 95 66
265 977 260 70 65 65
255 474 96 134 20 40
361 464 262 46 29 32
319 36 267 117 34 44
189 504 214 157 2 38
232 450 97 172 10 39
310 479 325 102 27 42
229 460 103 69 33 36
375 534 194 90 23 32
262 249 228 88 75 60
241 714 225 90 34 44
229 464 104 58 31 36
332 377 203 93 81 70
368 857 245 67 56 54
187 458 207 145 0 36
317 74 221 118 36 42
427 746 121 104 79 64
356 234 250 123 98 69
309 449 291 75 22 28
232 463 102 120 17 32
233 456 98 146 7 38
239 464 179 67 18 36
210 443 130 66 28 40
235 464 100 160 6 38
324 844 159 63 55 53
260 284 231 85 70 55
340 234 265 128 102 72
240 505 119 185 14 46
334 42 218 121 85 55
361 469 170 83 11 34
230 469 105 126 16 38
305 334 231 80 69 57
229 475 108 151 7 39
332 108 197 118 37 33
235 469 101 162 4 40
320 419 276 131 14 43
325 609 281 35 27 27
282 339 249 118 86 70
347 79 231 101 66 52
215 479 140 119 0 35
315 834 180 55 50 51
283 334 251 103 76 61
350 15 260 101 53 52
240 469 99 170 7 44
302 486 113 175 5 35
234 474 104 115 19 42
347 319 262 138 100 69
270 899 210 51 48 50
330 839 155 71 58 53
205 413 240 116 37 47
236 473 102 171 5 42
280 530 318 152 120 93
239 480 103 125 23 40
260 264 231 86 72 57
245 474 99 141 15 39
413 489 210 50 31 33
216 539 160 113 2 37
389 781 253 70 53 37
293 858 223 94 69 59
245 479 101 129 23 41
341 464 275 75 21 31
399 694 206 112 90 63
198 556 223 37 34 31
201 504 196 130 0 35
320 339 219 91 81 70
246 454 165 46 25 31
369 490 169 88 8 34
396 435 229 54 23 19
250 479 100 120 24 40
365 419 200 92 75 59
335 194 213 123 96 63
255 479 99 80 35 41
231 484 111 119 21 43
273 295 284 113 88 56
234 484 109 93 29 39
331 249 268 123 99 71
335 179 213 126 98 62
275 549 319 173 127 104
190 420 205 67 44 39
311 54 250 105 35 44
235 489 111 135 16 42
315 529 139 96 31 40
240 484 105 111 31 45
344 369 273 141 102 75
241 488 107 161 23 49
318 456 273 35 28 26
243 538 301 108 10 35
326 611 283 33 25 27
240 490 109 143 23 43
237 492 112 146 17 48
240 494 111 78 33 39
232 487 112 128 15 39
318 17 248 115 40 27
332 906 234 79 69 67
231 493 117 153 11 41
220 604 283 67 24 31
317 500 128 161 1 34
208 563 180 103 15 38
349 854 172 81 67 62
234 490 113 174 7 42
255 430 302 45 26 30
383 484 151 156 16 38
345 475 266 141 10 45
251 769 216 82 53 49
315 869 290 40 36 35
230 503 122 103 32 41
230 505 123 92 32 42
399 827 205 153 102 78
240 499 115 121 26 43
274 304 290 114 85 58
195 418 210 56 36 45
250 593 171 201 11 45
241 503 116 129 26 45
223 363 267 124 98 69
368 445 168 93 8 37
273 802 293 76 61 54
353 194 248 123 98 71
265 299 294 113 89 62
394 823 191 95 72 60
365 514 253 98 17 37
308 219 230 107 87 65
235 509 124 157 13 42
344 892 269 59 49 51
339 803 154 53 47 47
237 507 122 183 18 47
211 474 196 56 31 29
239 459 179 35 32 30
290 504 120 108 24 39
413 488 220 117 23 40
333 928 264 56 50 50
353 186 226 122 99 74
204 439 275 72 26 34
388 709 248 140 94 64
347 178 252 120 97 71
324 119 245 110 87 65
238 510 123 81 27 37
396 835 215 178 122 99
244 481 103 69 22 30
210 484 139 125 0 38
417 798 242 108 81 62
398 645 221 110 89 66
244 491 108 105 36 42
250 483 102 125 30 46
270 319 235 85 74 62
370 464 144 131 14 31
233 614 294 133 97 79
220 421 216 97 83 69
207 589 245 177 1 49
255 483 102 123 28 41
316 949 280 55 49 46
260 159 250 108 87 62
250 489 106 77 35 40
339 18 283 136 97 86
217 466 192 32 35 37
276 314 290 127 87 64
275 454 86 155 16 40
264 639 314 168 117 91
406 719 235 168 114 84
371 422 160 63 23 32
255 489 105 84 33 42
242 674 231 90 34 42
402 664 235 145 98 67
248 491 108 100 44 50
252 492 107 183 20 55
245 497 112 63 37 43
345 269 219 133 97 60
347 203 257 124 100 73
250 498 112 65 37 41
242 497 112 51 34 35
318 292 272 104 83 59
255 504 115 96 34 44
260 234 224 96 80 62
250 507 117 100 35 45
265 849 235 169 115 89
355 514 158 114 18 33
339 54 195 98 48 18
224 830 270 189 132 99
250 509 119 72 35 39
187 421 206 95 41 43
375 799 259 69 54 43
296 520 285 170 113 94
348 288 227 113 89 62
275 54 255 124 38 52
185 464 211 142 0 35
202 573 235 85 31 40
190 429 200 71 32 39
385 819 170 96 73 60
187 428 202 93 22 37
221 513 127 166 0 36
210 509 128 151 5 37
181 424 215 55 34 38
181 439 215 48 33 34
304 315 227 86 74 61
273 604 298 52 30 33
185 419 215 56 34 36
235 514 297 138 20 47
362 455 173 59 23 31
207 589 230 71 23 36
182 424 223 53 27 32
418 459 205 157 19 46
409 783 171 88 68 55
315 544 146 53 33 39
184 424 225 43 27 33
245 939 220 80 71 70
183 429 208 44 38 37
410 474 235 127 21 45
300 514 270 125 67 63
248 744 313 174 118 94
217 474 298 129 17 46
329 400 191 99 85 72
261 919 207 64 59 59
293 596 173 165 24 42
181 429 220 44 28 33
291 514 311 177 128 110
400 709 241 170 117 86
311 234 249 112 90 66
310 854 200 45 43 46
275 409 235 88 72 57
224 620 276 46 30 33
184 429 225 76 25 35
316 842 266 55 46 38
347 153 247 119 95 68
190 419 210 57 38 40
229 729 240 145 8 43
283 11 269 119 47 51
269 419 215 89 74 59
390 703 163 81 71 60
188 434 203 141 1 32
299 354 240 72 59 45
273 89 230 97 67 52
186 444 206 93 22 37
357 239 224 125 98 65
191 444 201 145 0 36
380 444 137 94 34 39
267 214 229 108 86 57
267 362 229 89 77 66
230 314 275 126 99 72
211 599 220 178 13 53
189 449 203 150 0 36
190 484 210 123 3 30
256 46 192 125 61 40
283 359 260 92 71 50
265 27 270 153 67 74
191 449 202 153 0 36
385 489 181 108 8 32
227 962 267 77 71 72
183 434 208 65 35 36
236 384 298 129 99 72
348 594 274 168 12 54
272 686 202 125 5 27
184 439 209 59 34 36
181 434 220 59 27 33
346 194 256 119 96 70
310 407 183 98 84 70
190 464 209 139 0 32
203 560 262 158 3 43
226 909 260 142 114 87
182 439 220 78 23 36
348 140 243 117 94 68
422 787 209 134 95 70
360 514 156 55 32 35
240 394 301 134 101 76
367 775 142 58 49 45
335 94 251 115 53 54
182 438 223 112 12 34
325 779 281 79 60 52
347 90 199 147 22 48
212 603 230 196 3 52
309 214 230 106 86 64
229 404 296 118 93 68
281 44 245 99 60 52
296 444 94 146 7 34
182 444 211 40 32 34
400 499 235 66 24 35
181 449 215 144 6 42
365 729 286 187 8 59
352 34 245 102 58 50
385 769 123 92 69 55
202 573 254 167 1 45
183 441 222 116 13 44
183 443 222 146 10 49
264 35 221 105 90 74
398 497 238 169 17 50
189 429 231 119 13 40
187 424 229 48 30 32
197 423 238 114 17 40
284 34 255 119 79 69
271 604 310 161 112 83
187 429 228 130 17 45
300 314 260 90 71 55
296 869 195 51 48 50
317 89 248 108 85 68
256 268 282 117 94 68
187 437 228 144 0 41
192 542 230 156 2 45
187 450 228 135 0 41
341 248 267 128 100 67
406 895 291 107 93 79
188 443 227 139 0 41
190 454 204 151 0 34
212 505 143 86 12 27
419 789 185 102 75 58
340 12 270 111 48 52
345 484 154 47 30 35
255 549 309 73 38 37
184 454 209 142 0 38
337 111 206 123 90 72
182 454 211 144 0 37
331 12 264 112 48 48
365 779 264 85 68 60
240 704 321 169 117 89
182 454 220 142 1 42
270 30 266 131 72 67
317 224 253 112 90 67
325 769 284 80 60 54
182 454 223 135 1 39
184 454 226 134 0 40
182 459 212 145 0 37
308 243 242 107 86 63
185 459 209 144 0 36
338 778 178 53 46 44
181 464 215 149 1 37
238 472 178 34 25 29
182 462 212 145 0 35
226 909 300 159 123 102
182 459 224 109 10 37
347 109 230 121 97 70
330 84 254 120 23 45
181 464 220 83 22 34
322 114 225 109 82 55
331 189 258 117 95 71
400 784 156 82 61 45
182 464 224 39 25 28
310 359 275 126 88 71
322 73 192 133 13 37
189 460 208 142 0 33
181 469 216 149 1 39
253 563 312 134 108 86
183 465 213 142 0 35
250 754 310 168 113 88
253 401 218 90 78 65
336 850 293 48 39 34
220 499 146 83 21 36
385 705 181 90 70 49
270 749 201 101 28 36
280 29 240 103 43 34
184 469 213 137 0 34
317 460 118 75 22 28
182 469 225 44 27 29
364 900 305 73 61 53
346 770 277 79 61 56
285 962 232 92 87 91
385 659 210 126 100 73
204 508 142 42 27 28
182 474 216 147 0 36
184 479 214 83 16 34
181 474 225 82 23 35
361 539 273 167 114 88
418 762 112 104 80 63
417 474 215 109 24 41
181 479 220 123 14 38
329 853 291 41 36 34
181 479 225 99 22 37
398 649 243 158 107 75
186 469 212 134 0 32
245 379 301 134 101 75
190 469 211 132 0 33
186 474 212 131 1 35
294 869 205 47 45 49
186 479 212 120 6 33
382 432 246 115 32 40
335 419 175 97 83 65
275 479 101 161 12 40
323 33 234 57 40 30
190 474 210 123 0 30
240 394 220 93 82 71
209 594 260 69 27 36
255 719 209 147 3 39
343 114 221 113 87 59
300 749 189 62 35 39
183 464 226 64 19 28
363 685 264 133 2 41
425 734 147 97 72 49
257 189 262 114 92 69
201 459 274 104 15 35
186 454 229 132 0 40
315 489 310 167 114 102
360 865 220 61 52 49
193 506 208 143 0 37
198 458 266 102 18 36
325 789 184 75 60 51
189 454 231 131 0 40
191 454 235 131 0 39
211 495 187 43 35 28
213 586 183 221 11 57
420 779 175 102 76 57
292 416 288 51 40 29
368 519 253 130 25 44
315 89 245 99 49 48
186 459 230 130 1 39
260 500 113 71 35 41
351 274 224 131 97 62
238 304 282 128 96 70
185 464 230 117 10 38
220 939 270 88 75 70
327 196 258 114 92 68
410 743 146 91 71 54
196 439 240 129 0 39
425 419 239 110 24 41
207 539 153 91 20 39
395 420 180 88 37 46
363 546 272 175 118 96
204 474 280 72 20 33
188 458 231 129 2 38
276 418 291 83 62 47
187 461 233 128 3 39
322 16 292 157 98 85
319 449 315 133 18 42
187 464 234 117 11 36
251 552 308 77 29 35
190 459 235 125 1 37
192 459 240 128 2 38
376 429 255 108 45 45
225 729 250 95 22 38
263 240 269 114 91 65
325 554 155 94 36 41
245 759 220 93 25 38
199 419 241 133 5 42
188 463 236 74 12 30
192 460 245 129 1 37
349 20 241 110 70 59
266 914 201 71 65 65
315 439 340 102 16 38
192 464 250 121 5 36
183 468 227 37 29 32
324 63 194 88 40 23
184 469 230 44 25 29
269 184 245 109 86 60
326 417 133 125 57 43
182 471 228 42 27 30
182 474 229 59 24 29
224 408 229 98 86 74
242 365 298 129 99 70
299 459 101 150 0 35
290 498 116 126 22 42
420 743 150 75 58 46
213 509 183 79 16 30
237 689 240 55 35 37
184 479 235 52 26 31
335 304 222 96 80 63
336 444 144 101 26 34
186 469 235 77 25 34
187 470 238 28 29 32
384 578 207 59 28 34
188 467 237 44 33 27
211 410 270 108 29 38
185 474 235 37 29 30
247 671 222 106 20 30
295 864 215 53 48 50
223 359 266 122 97 69
222 778 242 51 44 47
316 264 221 104 83 59
340 419 165 86 65 52
369 643 217 81 50 46
186 479 240 52 23 30
190 479 250 134 2 37
191 479 255 134 4 39
192 484 207 116 5 29
357 256 228 132 99 64
195 484 265 96 18 35
254 634 209 50 34 39
306 935 310 57 48 45
181 484 220 75 26 37
223 387 282 126 99 68
182 484 217 59 19 36
279 559 314 171 123 99
280 379 280 133 90 70
347 625 272 95 0 33
409 754 155 72 56 44
325 314 221 84 74 64
181 484 225 88 27 37
235 644 240 189 9 52
275 951 223 95 90 92
270 404 209 91 76 61
182 487 217 133 13 42
275 10 270 121 56 56
185 489 215 89 22 35
349 209 216 125 99 66
403 724 239 174 117 89
357 502 275 101 80 62
344 283 222 121 92 60
182 489 220 112 24 40
262 194 223 112 89 60
305 422 120 104 77 54
270 639 200 126 24 43
346 284 224 119 91 60
264 88 191 154 16 46
182 489 225 52 30 33
183 494 219 60 29 33
349 339 260 130 100 66
194 509 265 121 15 41
359 729 288 182 14 59
182 494 225 57 31 35
187 483 212 129 7 32
231 576 297 41 23 25
397 826 199 113 78 65
350 619 265 63 28 34
208 428 276 56 26 30
231 490 177 60 26 31
187 489 212 70 25 34
332 482 292 132 88 76
239 284 281 117 92 66
268 73 187 139 20 39
385 468 177 69 30 32
189 489 210 84 17 34
299 869 185 54 50 53
349 309 260 137 101 69
187 492 212 105 28 47
322 190 217 117 92 60
219 830 290 216 145 113
318 69 205 125 16 38
190 494 210 127 7 37
243 669 283 52 32 31
367 499 172 103 3 36
370 499 170 95 4 35
188 496 213 131 4 33
306 895 303 42 36 33
400 484 184 165 14 39
229 577 298 33 26 26
182 497 225 73 32 35
315 89 225 115 19 37
275 924 316 42 39 39
257 91 188 146 21 41
202 499 278 133 14 43
232 490 154 108 12 39
310 859 281 52 43 37
282 872 302 142 114 85
183 496 223 114 33 47
239 418 205 96 82 68
318 912 212 80 72 72
313 49 239 100 28 37
300 519 270 95 16 35
183 499 225 100 28 41
269 832 279 44 37 36
186 499 216 96 22 37
225 689 316 150 105 81
325 568 161 99 34 40
352 349 230 109 90 68
266 169 245 106 83 57
187 504 217 152 6 41
358 488 258 147 20 52
389 701 187 105 82 57
335 31 271 145 32 58
268 579 318 165 118 92
356 224 225 122 98 70
260 435 145 83 62 49
189 509 215 149 4 39
385 509 191 119 12 36
340 109 199 135 36 42
350 459 150 80 32 37
186 509 220 53 29 33
185 509 225 98 21 38
340 349 275 139 98 72
199 494 200 134 1 33
267 174 245 107 85 60
188 511 218 116 12 36
207 754 308 174 118 93
240 566 153 136 23 41
213 459 295 117 21 42
182 484 230 54 27 30
237 669 246 125 11 39
283 318 251 97 78 57
262 169 223 123 95 60
183 484 232 63 29 35
353 748 183 58 34 35
183 490 232 34 28 29
338 664 278 81 23 39
238 294 282 125 95 70
265 199 225 116 91 60
183 489 235 68 31 35
197 429 238 123 16 40
418 812 196 123 86 64
182 494 229 37 30 33
417 436 183 126 17 34
275 324 290 124 83 61
184 494 240 44 30 31
187 484 243 119 6 37
365 414 235 104 84 60
211 454 290 76 20 29
213 424 300 102 18 37
293 507 313 182 132 112
262 27 273 155 27 64
319 723 298 146 21 47
215 474 141 121 0 37
373 464 249 135 13 42
342 478 291 142 98 82
299 354 230 72 61 51
275 444 81 125 39 44
188 489 246 137 6 41
300 459 325 147 16 47
390 759 247 158 113 79
413 488 206 47 33 33
404 789 165 89 68 57
189 484 250 135 3 37
381 593 229 80 56 41
313 50 257 110 1 37
214 499 142 72 19 30
216 582 176 177 18 48
191 484 255 132 11 41
351 503 260 64 23 30
198 560 240 108 25 37
383 848 283 71 57 45
216 499 144 77 19 31
346 644 198 58 35 38
346 109 225 115 88 61
347 124 230 119 95 70
188 489 250 118 10 36
234 645 245 193 7 54
388 759 248 149 107 75
386 454 145 49 35 37
348 857 172 79 64 59
299 354 220 77 67 58
311 284 226 90 74 57
190 489 255 88 21 34
378 792 142 87 65 52
200 446 139 54 22 31
365 484 149 142 11 32
372 847 171 78 64 58
186 494 245 78 24 35
188 492 247 107 9 31
187 495 248 66 19 31
349 664 269 107 19 40
260 440 95 85 71 54
282 349 255 91 69 51
202 489 196 105 14 28
295 569 291 120 18 40
374 604 205 135 16 38
188 494 250 72 24 32
345 904 305 56 49 46
190 494 255 61 26 31
405 439 171 60 34 36
375 470 143 124 23 37
379 849 230 84 65 60
184 504 235 71 27 36
280 334 280 114 78 55
196 464 131 110 21 35
185 504 240 91 21 35
300 759 301 91 70 59
235 416 211 96 83 69
245 354 296 122 95 67
185 509 230 96 21 38
335 189 214 125 97 61
385 469 150 148 16 41
203 520 138 107 24 38
226 294 260 128 97 69
299 379 260 77 57 43
230 659 286 143 102 81
185 509 235 42 28 32
410 775 180 82 61 44
186 499 245 72 23 32
207 544 154 101 19 38
335 594 174 115 22 36
186 504 245 75 24 33
363 867 242 74 64 65
365 739 283 188 5 60
305 610 178 124 29 44
187 504 249 52 29 32
390 684 247 163 110 82
190 499 255 63 24 31
355 364 240 117 93 67
310 284 260 93 74 55
327 108 202 136 17 41
370 832 166 82 66 60
311 304 270 98 72 51
188 504 251 44 30 30
301 773 191 77 57 52
235 619 314 155 117 88
404 811 192 137 89 70
193 439 236 136 0 41
207 534 279 155 16 48
319 824 180 48 45 46
227 480 182 45 30 24
187 509 245 78 25 34
390 470 178 105 25 38
355 854 288 52 41 31
271 609 300 97 61 49
187 509 249 83 24 35
297 379 250 73 57 44
209 464 199 53 28 31
289 439 316 155 11 49
255 966 306 62 57 57
256 435 165 85 65 50
317 274 222 99 80 58
188 509 251 71 26 33
195 449 135 76 27 36
196 449 131 73 33 41
349 169 249 120 97 71
352 606 262 155 14 49
192 519 212 152 2 42
323 174 218 120 92 54
394 808 171 84 64 53
197 446 132 87 26 36
200 445 135 63 25 35
200 449 141 66 26 34
362 781 142 50 44 40
240 425 186 91 77 62
399 715 172 70 57 45
198 449 260 60 28 32
205 444 130 76 25 36
221 422 205 91 74 60
244 519 297 127 10 38
209 774 270 154 111 77
234 489 175 36 25 29
342 487 274 38 25 22
295 644 192 87 33 40
205 444 135 66 26 32
355 409 265 139 103 74
210 443 135 64 22 32
380 599 260 172 118 87
210 445 139 67 25 34
382 449 242 136 10 44
210 449 142 89 15 33
309 419 290 143 16 44
414 766 160 95 75 59
229 329 275 129 101 73
325 724 295 105 23 42
297 369 235 75 61 46
215 444 139 103 14 36
305 872 287 57 47 41
399 674 212 114 89 59
311 15 290 131 95 70
202 444 270 40 30 32
292 406 264 61 48 36
307 17 278 119 23 46
327 74 187 137 14 35
220 441 130 59 24 33
197 558 245 160 2 44
225 440 130 55 24 29
350 379 215 100 86 71
305 509 270 108 78 62
310 714 185 108 21 31
225 449 140 61 24 32
369 792 137 84 63 53
235 789 321 179 129 99
206 564 175 44 27 32
260 25 275 138 86 74
308 927 323 55 48 44
237 360 293 119 95 68
255 459 302 40 27 28
359 464 148 141 11 32
381 765 131 50 40 37
205 429 191 126 9 26
205 434 191 120 5 30
208 534 281 96 16 35
215 544 160 120 0 37
247 314 293 128 93 68
384 424 135 68 41 38
210 429 190 111 18 27
343 214 212 126 98 63
267 95 204 121 24 38
216 426 192 73 54 49
245 284 285 111 89 65
298 325 239 73 61 47
367 418 240 106 84 59
368 862 215 88 68 60
220 426 192 86 62 46
425 418 215 121 27 46
239 863 265 125 102 79
225 430 186 109 27 25
232 400 298 122 96 70
322 114 244 113 86 64
322 250 263 116 93 69
406 754 200 111 82 58
210 434 191 121 3 28
234 359 291 118 94 67
415 759 120 103 79 58
310 498 122 144 11 36
370 739 280 140 15 47
217 434 187 112 11 32
308 29 260 114 77 66
253 437 135 73 37 36
331 119 212 140 96 64
321 64 195 93 35 27
220 434 186 115 10 26
218 436 188 118 0 41
200 504 275 147 14 46
350 234 260 125 99 69
228 389 292 128 100 72
375 454 250 150 7 47
326 214 212 122 96 62
225 434 184 119 11 27
411 420 238 56 17 30
283 24 246 115 39 36
219 394 240 105 86 66
335 504 291 177 120 100
226 444 187 106 1 33
355 439 144 63 34 36
298 359 230 73 62 50
224 445 188 109 1 35
345 789 160 50 44 44
312 16 293 126 100 70
224 449 188 106 1 32
230 439 130 51 26 27
375 729 275 43 31 33
304 570 288 80 24 33
230 444 140 65 20 34
275 939 326 66 62 61
205 439 193 116 2 29
278 294 246 99 82 63
420 755 124 84 67 47
231 441 138 46 24 21
230 449 141 46 25 30
315 458 275 73 8 28
202 449 273 35 29 29
313 31 267 116 65 55
356 760 170 50 44 39
235 439 135 47 24 27
194 434 236 137 1 40
250 639 215 102 19 37
262 179 223 129 98 61
245 409 219 97 82 67
265 436 115 79 65 50
279 349 240 106 82 59
205 415 230 84 45 40
240 438 130 47 24 26
219 455 302 50 27 29
235 444 141 56 27 28
357 880 249 66 57 56
235 449 144 38 26 27
388 488 248 91 22 36
282 966 297 84 77 75
239 443 142 69 23 30
237 446 143 56 26 31
340 474 290 125 78 68
197 474 269 138 6 40
307 259 245 102 81 59
392 836 204 95 67 58
295 431 97 89 71 53
332 589 277 147 5 45
340 179 257 119 96 70
240 445 144 76 23 30
245 438 130 55 25 28
349 784 160 57 49 45
245 438 135 65 24 30
296 664 297 159 4 49
246 440 144 77 29 31
244 444 146 91 27 37
201 444 265 96 24 36
197 460 264 74 21 32
197 557 249 176 2 47
282 858 227 128 94 70
250 437 130 67 30 33
282 946 317 71 66 65
250 437 135 72 29 33
253 437 130 72 41 38
290 940 214 98 91 93
256 436 130 74 47 41
233 454 183 52 29 30
256 436 135 74 44 39
250 437 140 74 33 32
211 459 196 53 28 29
361 639 251 112 20 42
250 438 145 78 39 32
300 879 291 110 90 72
226 454 302 82 25 36
198 539 205 48 30 32
337 841 288 42 35 31
195 469 260 82 23 34
235 554 146 194 9 43
194 439 198 118 15 38
243 448 147 98 19 37
330 755 287 75 59 52
244 449 150 111 8 31
199 474 204 117 5 32
228 684 317 149 105 78
247 441 148 72 32 26
305 574 289 66 25 32
250 440 149 82 44 31
355 284 240 126 95 63
219 504 147 77 21 31
282 627 187 120 24 38
255 438 155 82 59 43
235 874 260 128 104 79
255 438 160 79 51 39
249 443 151 93 33 29
265 433 140 81 68 55
262 915 207 65 60 61
360 759 275 94 74 66
384 595 230 102 80 58
250 444 155 91 22 29
197 472 138 144 0 43
226 314 260 119 94 65
310 479 315 118 70 67
365 563 268 185 127 103
305 338 229 81 70 58
252 441 160 76 37 29
284 888 210 45 43 47
321 527 268 148 107 87
248 447 156 85 19 34
245 669 225 86 20 33
331 875 185 78 70 70
249 449 160 84 20 33
403 523 219 140 25 50
352 412 204 116 99 81
200 417 219 62 45 44
353 508 283 187 128 111
243 459 173 81 20 32
224 399 290 119 94 67
323 877 176 76 65 65
230 425 191 86 68 54
235 424 190 90 75 60
300 422 155 96 80 64
322 119 243 111 85 64
291 780 297 86 65 56
267 391 229 93 78 64
380 421 176 63 35 36
337 794 167 53 47 46
212 424 295 57 24 29
389 569 215 93 28 39
331 65 257 121 41 52
280 554 151 96 33 41
272 270 238 103 84 62
300 584 165 165 9 40
235 429 185 89 74 58
236 431 182 90 77 60
339 124 216 120 94 63
241 430 181 89 75 60
322 429 123 65 26 35
250 904 317 139 100 86
234 427 188 86 68 52
230 432 183 128 12 22
195 454 250 128 4 37
345 865 185 66 58 58
230 434 181 134 7 22
352 876 220 70 59 56
307 19 260 117 28 43
229 440 183 106 3 35
272 219 245 111 87 59
255 516 123 46 37 40
264 129 240 110 81 56
232 443 182 105 1 36
226 448 187 102 9 31
410 499 220 175 18 54
225 324 260 119 94 67
306 349 274 111 78 59
230 449 185 90 18 29
384 484 155 134 20 41
264 538 137 187 7 39
224 497 147 52 29 28
235 434 181 121 23 20
348 64 238 109 6 37
396 803 251 78 55 41
234 432 183 98 48 34
404 504 196 171 18 44
240 434 180 102 49 37
302 334 268 86 63 47
207 592 254 41 28 30
240 439 179 94 16 26
313 943 294 57 50 47
236 386 222 92 81 71
344 108 201 133 25 40
326 154 249 108 87 65
235 444 181 100 4 36
274 411 202 91 77 61
370 698 190 87 70 60
313 60 251 115 86 68
233 446 183 101 5 36
240 444 179 94 14 34
258 733 208 137 1 31
262 192 257 107 85 59
380 499 186 97 9 31
205 579 220 71 31 36
250 430 176 92 77 60
295 404 265 58 46 35
331 36 267 126 20 45
255 429 175 92 77 60
346 309 265 132 94 63
405 760 120 113 83 56
208 799 285 175 122 91
298 359 225 74 64 54
344 853 293 49 40 33
245 424 185 92 78 63
355 429 275 143 17 46
226 934 304 183 138 118
280 379 245 142 102 91
245 420 190 93 79 65
246 421 187 93 79 65
270 569 156 161 16 41
260 114 215 129 92 63
217 607 221 211 6 56
285 909 190 89 79 79
244 427 183 91 77 62
305 418 295 58 35 28
335 523 279 177 118 95
246 426 182 91 77 62
392 781 154 72 55 44
350 594 270 169 5 53
247 431 177 90 76 60
318 169 224 111 86 53
213 403 250 110 88 64
380 609 259 171 116 84
250 421 187 94 79 64
323 877 164 96 82 70
236 434 302 53 30 33
335 189 259 118 96 72
219 493 183 52 29 24
244 459 165 34 27 29
306 324 268 87 65 45
255 419 190 95 80 64
265 429 165 89 74 58
293 882 183 56 54 56
208 767 278 137 101 71
256 421 187 92 78 64
222 622 269 123 27 46
311 365 212 92 81 70
288 413 250 62 50 36
368 757 273 70 47 49
260 94 248 115 81 65
330 554 266 140 7 42
345 199 214 127 99 65
306 855 190 47 45 48
250 426 181 92 78 62
206 424 255 61 26 30
259 134 216 121 91 56
246 434 176 90 68 48
349 574 264 96 23 39
221 458 303 53 23 28
282 343 270 104 71 50
307 244 240 104 83 60
247 444 171 85 19 31
294 422 302 57 25 26
247 440 172 85 5 34
206 454 280 74 26 34
374 695 250 111 13 36
342 62 193 94 45 26
335 14 240 96 78 63
251 440 165 78 33 28
302 462 279 91 9 29
257 669 310 147 105 81
245 384 301 136 104 76
217 448 303 41 26 28
228 327 272 131 103 75
250 433 174 90 76 58
202 484 138 138 0 42
251 435 171 89 73 57
232 704 250 122 13 40
264 46 206 115 98 79
253 432 173 91 76 59
253 437 168 85 64 49
224 464 188 96 7 30
249 449 165 87 15 33
423 797 207 153 108 84
397 717 185 70 63 56
249 444 169 82 16 30
242 439 177 85 15 25
356 404 215 133 109 83
242 444 177 91 10 38
331 840 280 41 34 31
301 329 232 74 64 53
306 279 250 96 79 61
242 449 177 76 15 33
235 464 146 113 1 34
275 739 314 64 27 33
223 413 224 98 85 72
225 414 220 97 84 71
315 254 220 108 86 59
295 590 169 145 20 40
312 73 244 107 85 69
195 416 225 54 30 32
243 867 258 115 93 67
353 349 240 123 99 72
275 538 141 191 9 39
195 416 230 58 26 31
270 819 290 63 50 43
240 889 251 127 100 71
251 628 206 187 17 53
200 415 230 78 35 35
200 415 235 94 29 35
355 417 166 53 34 29
310 764 186 119 14 35
205 414 245 92 40 42
206 415 249 96 22 35
220 394 280 124 98 70
374 421 199 66 44 36
322 940 276 59 50 46
344 154 217 121 97 67
207 416 255 126 4 37
327 129 248 110 88 65
375 812 262 57 45 37
332 181 258 115 93 69
362 875 255 72 62 60
225 539 293 32 28 28
224 389 234 92 78 64
365 464 146 125 14 30
403 740 189 66 51 41
222 386 237 101 83 64
222 389 236 98 81 64
318 370 277 142 100 81
308 947 226 80 72 73
212 479 294 146 15 44
294 649 193 107 27 37
224 399 230 92 81 70
381 578 240 101 83 61
317 68 206 122 15 38
352 591 178 176 13 41
223 393 233 89 78 67
245 739 316 175 118 89
313 69 229 96 71 56
286 419 215 88 74 61
225 394 230 87 77 67
332 487 296 126 88 66
265 854 240 175 118 90
273 84 235 115 18 40
242 411 217 100 85 71
310 299 266 95 73 53
260 850 270 69 55 49
352 324 234 111 90 67
358 229 230 121 97 69
315 778 187 73 57 50
223 399 233 97 85 72
280 399 235 117 88 69
295 424 305 58 21 24
216 394 250 114 90 64
309 798 283 165 120 100
255 689 310 141 96 72
216 454 300 75 22 32
278 397 218 93 75 57
215 394 255 116 92 65
342 377 208 93 83 72
240 434 302 51 26 30
214 399 255 115 92 67
235 319 280 125 97 70
379 709 255 79 34 38
219 389 245 113 90 66
270 403 216 90 76 61
357 393 229 96 80 64
217 389 251 119 95 67
340 40 221 120 103 86
360 884 285 94 76 70
218 389 249 119 94 67
217 396 242 106 87 65
192 538 249 168 3 48
303 872 174 52 49 50
221 410 231 98 85 73
309 234 225 107 84 57
229 693 283 94 73 53
218 392 248 117 94 67
332 896 318 57 48 43
336 800 166 51 46 45
313 209 246 108 87 65
213 408 238 107 75 65
216 405 236 102 87 72
329 529 146 103 25 38
351 199 220 120 96 69
216 411 299 55 47 40
312 383 273 134 94 79
336 860 132 82 73 65
211 577 171 198 15 57
290 869 291 145 115 88
209 416 226 87 68 57
265 214 260 114 90 64
315 484 310 148 104 90
240 794 230 75 60 52
210 410 240 117 51 47
208 424 275 103 19 35
317 164 231 106 85 60
252 294 293 119 92 66
354 229 254 123 98 68
219 586 179 108 24 42
222 264 259 127 98 69
216 394 265 122 97 69
348 149 225 118 96 72
280 914 310 70 60 54
243 724 318 173 114 86
210 414 235 82 51 41
272 340 244 82 65 43
202 439 269 90 29 39
379 479 146 146 18 33
219 564 291 133 9 41
240 779 230 73 58 50
247 412 218 97 83 67
321 517 279 137 86 76
225 404 230 98 85 73
353 189 240 117 94 69
303 512 290 172 108 89
219 408 234 105 90 77
410 809 245 83 61 46
287 486 318 133 32 50
325 899 316 49 43 40
341 533 269 153 98 79
273 45 221 57 40 28
245 809 315 171 126 97
222 394 284 124 97 69
270 854 295 119 96 70
225 409 225 98 85 72
405 421 200 118 30 39
249 679 318 173 118 90
218 413 233 96 84 72
200 494 130 153 0 39
370 819 265 43 35 29
313 202 223 112 89 62
258 437 156 83 63 47
353 758 179 45 38 40
368 525 187 63 27 35
246 809 227 82 63 53
274 244 240 103 82 57
211 409 245 101 66 55
208 422 271 89 7 29
309 903 311 39 36 36
233 618 312 152 114 87
212 406 246 98 80 60
213 403 255 115 92 66
278 290 259 107 84 57
315 379 200 95 84 73
211 409 250 98 79 61
237 694 236 51 30 35
209 413 255 105 25 34
375 792 257 55 44 35
203 504 194 123 1 32
365 564 170 168 16 35
195 424 195 100 32 38
195 422 198 70 26 39
350 69 200 128 41 48
350 24 240 96 53 40
240 459 150 122 2 39
200 420 200 79 33 39
314 464 116 139 7 37
344 339 270 133 96 65
198 459 128 75 36 40
198 422 198 71 46 38
245 274 284 115 91 66
237 754 227 87 23 37
195 419 205 53 39 43
331 214 263 118 96 72
200 419 205 67 42 45
365 774 265 90 73 63
230 454 301 57 26 30
193 431 198 56 33 37
401 799 246 101 70 54
385 524 240 162 1 49
305 635 188 76 30 39
313 194 240 106 85 62
200 429 192 114 12 34
203 579 250 173 0 46
198 429 193 117 22 36
270 619 295 60 30 33
354 669 202 47 35 37
352 313 257 136 102 72
205 464 280 73 22 32
315 239 220 111 87 58
295 894 179 88 75 72
202 421 197 108 19 27
260 314 300 124 91 67
280 329 270 103 72 51
195 417 215 56 36 41
430 789 220 108 78 55
260 384 300 142 101 74
426 800 191 117 85 65
200 418 210 65 44 47
324 877 132 84 78 72
195 416 220 52 33 35
280 394 235 142 103 85
300 364 265 85 59 44
221 729 318 159 110 85
230 699 265 141 12 45
295 389 250 68 55 43
343 324 270 128 92 59
240 534 136 123 24 39
200 416 221 62 43 41
398 803 170 82 61 50
388 726 173 80 62 46
375 669 244 76 35 31
325 459 130 69 38 38
197 449 250 122 3 35
205 418 210 77 55 50
255 563 152 111 27 40
213 804 312 182 128 98
330 249 213 124 94 58
219 524 156 125 0 35
207 740 291 153 111 82
198 499 272 130 8 40
335 279 273 114 90 64
205 417 219 78 62 54
237 798 232 77 61 53
205 416 221 77 59 51
308 397 193 99 86 72
278 285 247 111 87 62
291 825 276 164 112 86
195 434 196 53 35 37
228 809 244 77 62 58
193 434 198 57 37 39
295 913 192 87 77 76
347 132 235 116 94 70
199 434 194 114 13 32
419 821 225 105 73 59
352 347 233 117 94 68
346 30 266 141 32 56
340 579 270 134 6 42
374 554 196 92 13 29
320 596 173 99 32 41
195 444 199 149 0 36
197 442 197 144 1 41
308 444 107 135 0 35
263 422 183 93 78 62
304 319 228 83 72 60
228 419 308 66 22 31
250 424 304 34 30 30
325 414 274 84 32 36
336 489 292 91 50 48
200 444 196 127 1 32
198 445 198 141 0 32
260 430 170 91 75 59
200 449 199 132 0 32
332 567 272 141 2 42
325 334 284 137 95 74
201 433 192 123 2 31
271 423 207 89 74 58
205 444 194 116 1 30
339 899 266 67 60 62
215 494 185 60 31 27
347 124 235 117 94 69
255 519 125 50 37 40
260 477 97 43 39 42
202 448 197 119 1 30
324 753 288 79 63 53
255 557 147 107 40 44
353 204 245 121 98 71
229 620 282 44 26 33
206 489 285 140 14 43
339 613 182 102 30 40
233 688 265 50 29 33
205 449 196 115 1 29
265 400 215 93 79 64
323 449 321 140 19 44
331 909 285 73 65 68
225 344 265 123 96 69
283 861 293 133 107 78
210 420 200 86 54 41
219 674 300 143 104 74
215 423 195 84 59 44
330 849 154 108 86 76
215 421 200 88 65 50
271 951 317 63 57 57
245 518 126 192 18 50
212 422 198 85 60 46
215 422 198 87 63 48
207 779 275 169 120 86
240 659 280 51 37 37
329 443 334 108 24 40
299 874 180 52 49 51
222 954 267 64 61 63
304 294 255 89 75 60
215 420 205 91 71 56
260 499 302 139 13 43
280 11 280 115 50 49
210 426 192 79 34 31
388 778 131 115 84 64
372 540 193 51 25 34
227 379 288 124 97 69
234 909 250 98 83 71
220 423 195 85 64 50
195 524 205 83 21 35
225 384 285 125 97 68
338 907 292 88 78 77
231 279 274 121 95 68
336 664 193 89 25 32
219 421 201 89 69 53
265 423 180 92 77 61
219 421 205 91 73 58
225 424 205 92 75 62
210 418 215 90 74 62
203 564 206 126 15 42
333 474 142 45 37 37
234 434 303 70 27 36
215 420 210 94 77 62
410 764 215 165 115 83
218 687 298 151 113 81
340 149 215 124 97 64
210 417 220 90 75 63
215 419 220 95 81 67
201 469 275 79 18 33
218 421 210 94 79 64
221 422 210 95 81 66
220 422 214 97 83 68
353 874 215 76 64 59
261 184 256 107 85 59
250 369 301 136 102 76
255 594 322 152 115 87
416 779 185 82 59 46
249 689 219 87 26 36
295 804 286 125 92 77
200 474 275 133 13 42
269 522 127 199 11 44
225 423 210 95 81 67
348 42 254 122 52 51
227 354 275 122 95 66
286 674 197 65 33 35
226 694 318 153 107 82
236 489 165 69 21 32
220 419 220 96 83 70
270 427 165 89 74 57
217 406 288 101 76 58
198 444 250 112 10 37
360 539 272 170 118 91
219 417 224 96 83 71
336 352 213 94 84 74
376 427 245 70 58 46
234 609 290 116 36 48
329 464 135 73 33 36
365 474 146 115 15 33
211 814 300 189 132 106
223 418 219 96 82 69
208 440 193 113 3 34
345 844 293 57 46 37
232 592 177 213 16 55
353 70 208 128 32 48
222 623 265 51 31 34
355 827 280 49 41 32
385 774 250 133 99 70
366 755 161 46 42 42
308 567 157 42 33 41
194 418 235 66 24 33
245 581 163 150 26 44
349 69 225 128 39 52
196 419 238 125 11 41
375 504 187 115 6 31
221 659 295 171 122 97
353 648 202 62 30 34
194 424 236 43 25 30
230 516 128 180 5 41
199 424 241 116 12 38
340 404 273 145 100 75
385 844 225 146 96 78
315 29 270 130 81 74
260 389 300 143 102 74
194 429 236 76 17 32
371 438 137 141 15 35
366 800 257 54 43 38
272 590 311 167 113 87
255 845 270 71 59 55
201 429 244 78 27 35
348 103 220 123 31 44
203 418 246 74 28 35
203 424 247 94 23 38
411 728 170 74 60 47
205 419 250 52 25 33
239 591 173 204 13 46
260 369 223 93 81 68
234 689 283 77 61 48
305 478 328 121 26 45
276 659 202 117 14 36
255 349 300 138 99 74
363 409 235 105 85 62
335 208 262 120 97 72
217 756 262 145 109 75
348 103 229 127 70 64
206 419 255 106 16 37
205 429 255 42 31 32
193 514 262 64 26 32
193 444 236 133 0 41
350 484 155 143 6 34
193 449 237 130 1 38
255 292 292 112 89 64
232 405 298 122 96 70
244 339 292 117 92 64
230 824 314 200 143 118
271 229 255 116 91 61
282 354 276 121 80 60
408 502 223 179 16 53
327 891 198 73 69 69
196 444 245 127 1 38
226 629 300 145 117 88
354 354 245 124 100 71
200 439 250 92 14 35
370 849 185 73 58 54
199 444 255 69 23 32
345 704 291 57 24 30
327 51 201 116 83 47
355 794 141 77 60 51
315 804 191 86 67 56
227 958 298 49 45 46
197 445 249 124 6 39
428 803 193 119 83 61
198 448 252 107 7 30
407 495 227 179 17 56
198 448 255 103 18 37
306 269 245 104 85 64
315 44 235 88 36 29
207 448 283 90 20 32
277 700 197 117 18 34
202 435 255 36 32 32
275 430 140 80 67 52
311 423 305 111 23 37
310 390 196 99 86 73
215 416 231 96 82 69
392 613 229 131 106 79
251 828 232 86 66 57
230 399 296 120 95 69
218 417 228 97 84 71
348 27 269 141 26 52
230 394 225 89 79 70
268 267 232 90 73 54
213 424 297 81 17 35
349 369 269 137 101 73
228 586 292 53 22 28
275 33 264 140 66 71
375 848 250 67 51 47
276 714 197 122 18 35
232 395 222 92 81 70
376 564 245 85 67 49
335 12 265 111 47 50
229 399 224 90 79 69
231 399 222 91 80 67
203 434 265 88 25 34
330 134 250 115 92 65
233 388 223 92 82 71
220 744 260 138 106 75
271 39 224 73 40 27
396 639 246 160 110 74
231 389 226 90 79 69
229 404 224 94 81 68
236 679 275 97 29 40
231 403 222 91 80 69
290 904 304 110 86 69
230 410 220 99 84 67
314 902 312 40 37 37
228 412 218 96 84 72
407 786 173 75 54 41
285 559 291 60 23 30
340 84 189 149 24 46
235 405 223 97 82 66
360 589 260 104 51 45
375 689 205 77 66 56
208 462 282 48 21 24
240 415 210 97 82 67
240 413 215 98 84 68
240 679 320 166 120 94
210 489 190 38 32 31
261 474 303 110 19 39
358 396 225 94 80 65
235 412 218 98 84 69
311 449 295 72 23 29
403 744 200 111 82 57
239 412 218 97 84 72
342 581 173 175 13 40
245 389 220 96 84 71
237 630 318 148 112 82
342 836 288 47 37 27
246 385 223 95 82 70
224 344 260 122 96 67
245 394 220 98 85 72
270 966 238 92 88 91
241 400 223 94 80 66
250 389 219 94 82 70
336 96 193 139 71 65
359 514 278 185 135 114
295 413 180 96 80 64
295 890 299 109 85 66
255 389 220 96 83 70
342 329 223 99 84 69
223 353 261 122 96 67
335 164 214 125 96 61
235 489 160 94 14 33
406 689 220 146 105 71
255 387 223 95 83 70
251 952 227 76 71 72
234 634 284 114 47 47
255 399 216 92 80 68
368 509 173 30 24 28
295 684 304 141 7 45
327 134 248 110 88 64
235 489 298 63 32 37
250 399 219 91 80 68
217 780 318 168 121 93
250 289 290 110 87 64
347 299 228 108 89 69
255 394 216 96 83 70
369 473 177 40 32 32
252 398 217 90 79 68
228 713 265 143 2 40
245 416 200 95 80 65
275 949 221 93 88 91
310 704 304 139 18 45
245 414 205 95 81 67
196 469 265 96 16 34
304 654 293 132 16 44
377 569 235 55 29 32
250 415 200 94 80 65
323 183 252 106 86 63
250 399 302 146 107 78
330 204 212 120 95 65
250 413 205 97 82 65
305 329 231 80 69 58
255 410 205 95 81 67
335 249 268 127 101 72
242 471 159 74 12 34
235 577 162 107 34 44
267 270 234 89 73 55
304 408 271 58 44 30
244 649 224 162 7 40
252 411 206 98 82 65
275 439 304 138 12 43
234 384 296 127 98 71
402 426 228 68 33 24
241 403 223 98 83 67
245 403 223 92 80 69
318 922 222 71 63 64
206 452 197 112 1 33
298 468 102 159 1 33
235 509 297 163 18 52
245 405 222 95 81 67
334 903 230 79 68 65
410 419 235 59 23 27
238 694 234 76 32 40
301 309 231 83 71 58
245 413 215 95 82 69
404 483 239 97 22 41
212 419 295 112 20 38
250 404 221 92 79 65
237 270 278 120 94 68
321 209 254 110 88 65
271 74 195 142 23 41
250 409 220 96 82 66
263 296 293 109 88 64
410 824 205 122 86 66
250 413 210 96 82 67
363 868 245 69 61 60
353 204 250 121 97 69
252 560 308 108 68 59
255 410 210 96 81 66
306 814 201 86 67 57
361 659 250 102 20 39
345 254 215 134 99 60
256 409 215 96 81 65
273 40 226 73 40 27
253 412 212 96 82 68
254 412 215 97 83 69
215 479 296 158 17 50
340 774 279 80 63 55
265 942 216 88 80 83
334 405 191 99 85 70
250 413 219 97 83 67
226 389 231 88 77 66
395 489 184 164 13 38
335 739 182 106 22 31
229 389 229 87 77 68
355 469 264 89 23 36
276 891 216 48 46 51
201 504 135 66 33 32
228 393 228 86 76 67
230 423 195 87 70 56
355 885 280 89 71 64
236 421 196 93 79 65
220 474 190 68 26 29
265 500 114 55 35 40
417 455 237 134 29 44
308 952 237 84 77 78
325 564 275 140 8 43
234 422 200 94 80 65
298 314 250 82 69 56
340 24 281 127 81 69
236 420 200 95 81 67
337 246 213 126 94 56
240 420 195 95 80 65
425 799 210 151 105 79
320 104 220 125 37 45
335 104 250 125 100 71
276 318 238 83 71 59
311 544 276 60 26 32
236 420 205 96 82 67
358 259 240 123 95 61
264 159 245 108 85 58
243 660 229 166 5 45
226 420 212 97 83 69
269 374 226 93 79 63
206 424 260 104 17 34
315 395 192 100 86 72
230 419 211 98 83 67
228 417 213 98 83 67
204 484 280 141 11 42
313 342 223 90 79 68
230 424 210 96 82 67
207 565 180 122 6 37
235 419 210 97 83 68
265 574 320 160 118 88
328 192 257 115 93 68
338 345 217 96 85 74
424 784 230 111 79 54
235 424 210 96 82 68
297 365 240 74 61 46
285 492 112 184 9 40
238 417 208 97 83 68
213 512 147 113 9 37
260 12 238 82 70 60
245 418 195 95 80 66
232 370 293 124 98 69
216 439 304 78 24 34
244 417 198 96 81 65
369 459 255 126 14 42
203 525 277 41 27 31
226 555 294 50 26 28
364 703 199 65 40 41
230 304 275 127 99 72
349 274 222 131 96 61
212 589 275 168 2 48
250 418 194 95 80 65
235 269 276 121 95 70
312 485 118 143 7 37
296 865 210 47 45 47
273 244 245 103 81 55
320 799 276 173 123 101
251 416 196 94 80 65
346 488 279 45 29 25
196 454 130 56 35 38
256 515 303 137 13 43
304 813 274 165 108 90
325 519 280 157 100 89
237 664 246 157 5 43
196 454 139 118 10 41
224 379 280 125 97 68
243 304 287 128 95 67
200 454 140 122 12 39
301 431 328 56 30 28
351 164 240 119 96 70
245 947 226 71 66 68
211 410 280 84 26 33
330 23 283 141 100 81
262 166 223 121 94 60
211 568 162 123 17 44
275 494 111 113 32 41
354 239 255 125 98 66
222 370 269 124 97 68
197 459 138 137 3 38
200 459 139 137 2 41
235 565 153 127 26 44
193 474 257 124 13 41
197 464 138 141 0 42
298 556 288 42 26 30
202 450 143 63 26 32
266 239 265 115 92 65
202 452 143 84 21 30
204 452 143 55 22 28
275 369 231 137 100 82
205 464 140 126 0 40
216 510 148 42 22 26
403 427 231 71 17 26
274 74 210 118 54 55
197 468 131 140 0 33
232 349 284 119 94 66
428 432 229 193 15 61
252 580 318 146 115 87
324 913 221 75 66 66
199 469 130 135 7 36
374 548 243 93 28 42
315 502 303 184 126 110
198 470 133 143 0 39
246 454 155 106 0 36
352 354 261 121 96 66
275 825 286 63 51 48
200 469 140 137 0 43
199 474 130 133 7 36
283 341 260 97 71 50
226 484 181 42 31 29
197 474 135 146 0 40
197 476 132 142 0 32
269 55 201 87 66 38
292 902 302 122 94 75
251 644 216 98 24 38
232 638 270 100 24 40
377 851 230 76 59 53
198 474 135 144 0 40
197 477 134 146 0 40
198 479 135 145 0 41
259 464 302 37 27 28
195 455 204 149 0 37
283 369 274 122 81 65
362 711 182 67 50 37
277 416 187 93 78 62
329 898 317 53 46 41
201 479 138 140 0 44
403 744 238 175 118 90
350 394 213 122 103 83
285 19 250 104 30 37
205 469 140 128 0 40
353 359 231 109 89 66
344 848 166 85 67 60
205 474 140 131 0 41
305 864 180 57 53 56
210 454 141 122 5 39
319 882 181 65 58 60
231 364 290 121 96 68
314 431 324 53 30 25
237 320 283 126 98 71
285 24 250 103 31 39
210 459 141 122 0 39
362 522 157 45 35 35
373 426 240 74 63 52
230 754 235 129 11 38
220 454 140 107 9 37
196 474 207 124 0 31
268 97 207 112 78 59
273 592 308 160 104 80
225 454 140 70 22 32
213 560 282 33 30 30
220 459 139 123 1 38
296 504 311 180 126 110
202 489 278 146 11 44
220 464 139 119 0 36
316 829 266 129 100 82
290 884 210 45 43 47
215 469 141 121 0 39
210 474 141 124 0 38
299 354 225 72 63 54
400 818 185 93 70 59
349 764 278 82 63 56
245 639 321 163 117 89
330 169 215 126 97 60
290 599 295 86 20 36
256 909 221 55 46 46
220 469 141 118 0 36
225 469 140 117 0 36
202 532 146 82 9 40
423 443 210 182 12 56
220 474 141 117 0 37
320 169 245 106 86 63
208 473 198 55 33 29
265 69 251 120 63 59
349 319 231 100 84 66
220 479 141 116 0 36
410 439 242 114 8 34
380 489 250 57 24 29
225 474 142 110 3 35
192 470 254 112 13 35
216 453 192 112 0 34
256 870 308 153 123 96
315 429 114 138 11 31
416 479 215 46 31 34
225 454 189 105 3 31
280 744 314 89 31 40
337 22 233 96 83 70
221 459 192 94 12 30
390 838 245 115 79 64
230 724 321 165 115 89
264 54 195 112 90 62
407 777 201 96 71 51
257 860 252 102 71 49
224 459 189 101 7 33
315 344 280 126 89 70
220 464 191 66 25 28
245 314 290 127 93 68
290 422 160 93 78 61
300 499 310 176 117 104
265 479 303 66 20 29
271 204 230 111 88 61
278 364 288 139 96 75
341 845 293 67 52 38
220 469 191 51 30 31
418 433 181 174 17 45
205 489 138 91 7 32
395 664 211 121 95 66
264 437 109 80 66 50
264 374 298 144 101 75
224 473 188 62 22 32
355 229 250 122 97 67
215 394 260 118 94 67
422 436 198 170 29 54
263 97 248 121 98 73
272 219 233 106 84 58
226 474 186 41 31 32
275 503 117 124 29 43
226 504 176 40 28 27
390 824 265 71 53 42
225 479 185 62 25 32
320 20 286 159 114 93
223 477 188 87 25 28
281 354 250 101 76 58
384 793 151 80 61 49
265 313 233 90 78 65
200 484 130 141 0 36
412 485 226 45 31 34
313 849 195 45 44 46
263 55 191 98 65 35
207 466 283 70 17 26
234 536 138 169 19 54
199 484 135 144 0 43
282 417 234 77 65 52
274 249 255 114 89 58
202 490 138 117 0 39
303 444 102 138 2 31
205 494 139 74 13 28
240 424 304 89 25 36
199 499 135 116 15 40
204 500 128 76 26 40
228 764 233 53 44 46
330 44 215 115 90 62
362 766 156 49 45 43
289 409 210 89 75 61
202 503 131 66 39 37
295 894 301 135 106 82
350 864 190 73 61 57
205 504 129 81 36 40
297 411 182 95 80 63
244 469 160 80 23 36
227 339 274 128 98 70
323 907 212 77 68 69
317 322 222 87 77 66
323 114 246 113 89 67
205 499 139 89 19 36
264 280 284 106 84 60
299 509 304 172 116 95
325 839 160 61 54 55
202 504 139 63 23 32
236 658 318 145 98 75
235 654 318 161 110 86
205 504 140 56 24 29
203 510 133 70 37 35
297 319 236 73 62 51
201 509 140 53 26 32
289 409 230 77 63 49
278 62 243 122 39 48
206 510 143 70 23 28
232 309 278 125 98 71
227 349 274 125 97 68
339 104 196 138 32 41
405 434 169 89 31 34
305 524 270 63 22 29
215 484 141 121 0 36
370 654 215 79 57 49
382 569 250 145 117 88
215 489 141 120 1 36
280 609 295 37 28 28
302 290 245 88 75 63
337 899 264 69 62 62
220 384 275 125 97 68
358 839 288 54 44 36
210 494 140 96 7 35
279 369 235 145 105 92
219 488 142 117 0 36
393 478 248 66 27 33
399 810 190 107 76 61
339 250 268 129 101 68
310 600 173 64 38 41
230 629 290 119 85 63
235 419 305 94 24 36
220 490 143 113 6 35
223 484 142 116 2 38
365 499 251 69 22 31
370 499 250 45 23 26
225 484 144 114 3 36
290 417 174 95 80 63
312 210 222 112 89 60
241 895 247 105 85 65
222 486 143 114 0 32
318 59 215 89 28 32
240 929 314 182 140 119
225 489 145 84 15 32
207 560 162 146 1 35
217 491 143 117 0 43
296 825 272 154 105 83
433 750 112 113 84 66
220 494 144 77 18 34
359 509 255 142 16 47
265 194 225 114 90 62
323 948 260 61 55 52
215 589 185 218 11 58
250 664 320 173 122 93
273 69 200 130 26 39
225 494 146 58 24 31
360 819 145 102 82 63
320 304 224 85 74 63
210 504 141 63 21 32
298 373 251 76 60 44
215 504 145 90 18 32
309 289 261 92 73 55
310 494 310 178 124 115
380 694 189 106 84 59
214 511 128 159 4 40
210 509 144 73 18 29
305 520 133 149 13 38
214 508 146 88 13 31
413 782 172 93 71 53
225 499 149 71 23 34
329 375 202 92 82 72
224 504 151 68 23 31
351 74 200 139 31 49
309 560 283 88 26 36
202 494 278 149 13 45
383 442 137 52 41 42
240 939 225 76 68 67
218 507 147 84 27 45
224 509 151 48 25 30
345 294 270 127 96 61
351 289 230 113 89 62
207 490 192 42 33 33
306 274 245 101 83 64
325 11 294 153 29 67
369 429 265 111 23 41
255 854 304 169 135 110
206 494 191 59 27 31
211 485 192 39 33 31
354 204 240 119 95 68
313 44 239 81 43 36
230 619 284 97 27 38
355 524 160 49 34 36
282 338 257 96 70 52
383 513 192 121 6 32
217 704 313 157 111 88
215 484 190 37 32 27
214 488 188 40 32 30
312 319 275 104 74 53
217 395 270 123 96 68
293 972 252 84 80 83
216 490 186 39 32 28
366 654 214 64 35 36
230 469 144 110 3 35
284 850 223 150 107 82
248 748 313 176 120 97
224 483 184 43 31 27
220 489 184 36 32 31
225 489 181 42 30 28
223 488 183 33 28 28
265 840 270 101 71 57
362 474 173 46 23 29
276 700 313 85 27 36
366 674 213 41 35 39
220 484 186 35 31 30
290 544 146 185 6 37
258 60 252 105 83 62
218 610 224 208 5 53
333 696 293 97 9 29
218 483 188 39 34 29
217 486 187 36 33 33
225 494 180 43 31 27
330 114 210 137 91 67
340 219 264 124 99 71
215 499 184 46 31 30
290 425 150 88 72 56
317 59 210 81 39 29
321 579 282 154 12 48
214 504 184 37 32 30
262 406 207 94 79 63
208 499 188 69 24 30
311 896 169 89 77 74
297 319 240 74 62 49
211 504 186 51 27 30
285 504 119 72 34 41
208 503 188 99 16 29
263 284 232 85 71 56
297 456 98 131 7 34
360 889 305 60 49 42
258 124 248 117 92 65
348 887 226 63 54 54
334 859 135 84 75 67
266 269 276 115 90 60
375 779 255 94 71 56
340 744 182 85 29 33
216 504 182 52 29 30
405 773 170 97 74 55
296 479 324 70 24 35
334 694 187 44 34 34
343 63 249 128 28 51
236 790 232 75 60 54
301 434 99 142 40 43
255 974 270 70 65 63
208 509 188 108 5 31
217 500 182 47 28 30
275 649 201 143 7 34
229 836 275 165 106 81
347 159 219 114 92 66
220 499 181 54 30 29
270 884 314 162 125 98
220 504 180 49 28 29
367 859 250 57 48 47
223 503 178 38 30 30
403 715 202 82 67 52
225 509 176 67 19 28
294 399 210 89 75 59
374 472 177 32 33 39
222 510 177 76 16 31
300 564 156 109 29 41
230 459 142 108 6 36
377 584 233 56 37 31
319 64 210 103 35 41
285 469 310 94 21 36
232 459 143 117 3 33
355 415 200 113 95 76
232 465 144 116 0 37
265 474 96 125 23 38
285 414 265 63 48 33
241 958 309 63 59 58
335 99 250 127 102 73
239 454 146 66 20 31
358 258 231 126 96 63
320 510 291 183 121 107
306 330 233 79 68 57
284 23 270 143 29 58
228 636 248 93 18 38
266 58 194 91 43 26
238 458 147 107 4 34
352 299 234 106 85 63
270 429 160 88 72 55
357 866 206 76 63 60
258 236 273 113 90 65
237 465 149 98 8 39
362 422 266 108 84 61
224 624 270 95 32 42
212 515 148 107 13 35
239 464 151 118 5 42
333 444 142 81 30 36
227 475 143 88 17 30
325 629 187 111 28 41
226 479 144 106 9 34
280 954 225 94 89 93
318 208 218 119 93 59
346 89 235 112 91 71
