ply
format ascii 1.0
comment Created by Open3D
element vertex 2221
property double x
property double y
property double z
property uchar red
property uchar green
property uchar blue
end_header
283 478 133 61 32 39
405 738 252 165 11 50
288 478 133 154 15 43
318 528 321 155 125 98
261 502 176 46 31 28
252 718 277 154 3 45
246 757 287 146 108 77
368 588 173 178 5 38
268 453 191 64 34 29
271 451 190 55 41 46
273 453 187 57 48 44
273 458 182 69 34 33
441 442 236 133 18 43
272 462 180 74 26 28
270 460 184 79 31 30
250 728 335 158 111 84
272 457 186 68 41 36
258 533 177 104 21 31
269 473 172 70 30 27
268 473 177 70 27 28
423 553 172 36 31 36
267 478 162 85 22 30
355 708 132 81 66 51
267 478 172 71 28 30
264 468 183 73 27 32
318 503 317 146 115 94
413 458 248 30 26 27
356 668 290 166 17 53
263 473 182 61 31 30
390 677 230 62 29 34
260 469 188 57 33 32
261 472 186 60 34 26
260 478 184 57 33 33
303 590 180 189 7 42
307 972 302 72 66 64
374 630 201 89 31 34
267 468 181 74 27 30
351 762 145 85 66 53
270 465 179 77 28 34
327 858 177 54 49 49
398 583 232 80 29 36
265 475 179 61 34 30
280 460 167 63 28 28
419 733 233 162 108 77
279 459 172 49 35 30
273 888 321 141 105 83
278 458 177 46 36 28
289 455 161 64 37 34
283 454 178 47 33 30
285 455 174 61 43 35
297 638 312 106 30 41
391 684 218 76 49 47
288 454 177 59 47 38
283 458 162 65 28 31
402 906 242 78 63 49
392 743 154 81 60 46
378 425 162 105 88 72
283 858 262 124 78 60
274 449 189 68 55 53
378 422 177 110 93 77
238 533 196 154 3 35
282 456 176 46 36 34
342 292 264 80 66 50
244 783 267 155 114 83
390 615 201 179 14 43
277 452 186 59 49 43
356 583 285 155 1 49
274 460 178 58 31 29
236 778 291 131 99 64
416 822 240 178 132 103
328 368 316 149 104 79
284 450 183 58 47 40
281 451 185 60 52 45
271 484 146 52 34 34
256 507 180 51 35 28
415 430 196 76 30 33
301 323 265 94 78 60
408 838 232 179 118 93
269 483 152 71 32 36
271 489 151 47 33 36
270 400 300 122 97 70
334 863 168 69 58 56
265 484 159 119 14 32
234 768 312 176 121 95
265 486 159 123 11 34
313 578 172 193 8 41
272 493 152 50 34 36
323 273 308 110 87 62
274 483 138 108 24 41
380 681 274 135 15 39
283 482 134 59 39 37
413 933 232 89 70 57
287 491 139 63 35 35
273 493 147 59 35 36
275 497 144 129 37 48
378 683 277 69 25 34
278 498 142 62 37 39
366 398 199 103 88 72
329 563 293 64 26 30
410 579 197 125 20 43
279 502 144 50 33 38
283 502 143 72 35 43
275 501 148 38 35 41
271 432 314 54 21 27
284 976 277 68 64 63
253 938 307 185 137 115
276 500 145 43 29 41
283 505 145 80 36 34
287 512 149 185 5 40
419 538 217 172 16 55
263 493 167 82 17 34
265 484 167 73 28 31
311 801 204 53 46 44
322 437 176 96 82 67
404 466 244 37 29 22
310 830 289 79 51 41
293 929 211 87 79 80
266 482 167 73 29 30
288 853 302 81 67 52
264 483 177 70 31 23
273 798 236 77 60 51
265 484 172 71 29 25
333 598 300 162 10 51
266 483 175 72 30 22
330 533 307 168 113 89
266 488 176 68 29 27
345 689 194 66 40 29
262 483 181 68 31 26
260 483 184 56 31 30
448 430 168 116 29 43
227 553 267 118 20 41
258 483 186 60 33 33
261 492 180 65 30 26
288 503 316 49 26 29
413 839 227 185 122 96
263 503 167 97 19 32
253 538 183 67 27 29
261 507 171 97 19 31
428 427 192 82 34 36
263 513 168 112 21 34
268 498 162 69 26 35
284 622 209 52 30 36
266 508 165 125 8 31
323 463 312 150 26 52
342 318 282 104 80 54
274 473 325 42 28 29
254 545 179 162 9 35
266 513 166 95 11 31
408 643 202 110 88 61
271 508 160 118 18 43
276 634 226 47 34 38
345 742 139 80 62 47
257 503 181 55 33 27
249 738 287 62 31 35
256 496 185 63 28 30
268 673 337 151 109 82
427 527 215 35 29 31
270 434 315 102 30 39
303 833 292 48 38 38
317 803 181 56 48 46
288 492 177 71 22 31
388 578 273 181 124 97
444 443 222 168 9 50
298 464 130 184 4 38
303 461 129 198 8 46
289 450 155 79 50 46
298 451 159 66 56 51
302 451 159 65 56 50
398 428 127 96 53 41
293 468 130 150 4 36
301 471 134 162 6 31
308 464 132 181 4 35
228 553 227 70 30 37
461 482 145 76 28 37
271 788 235 71 58 49
318 457 129 179 3 35
291 657 317 81 63 55
353 426 142 105 78 60
318 463 132 176 0 35
313 466 134 176 0 30
308 478 139 132 13 35
433 488 227 105 30 43
313 478 138 172 0 34
318 473 137 172 0 35
343 933 307 66 54 51
390 681 226 59 33 32
294 455 166 55 42 36
293 455 173 60 44 36
390 691 269 132 6 41
291 456 164 55 35 26
295 460 176 60 49 41
334 914 315 44 39 37
364 673 205 49 37 42
295 463 173 51 40 36
316 782 186 57 48 45
350 671 294 145 12 44
249 618 282 60 29 36
353 563 163 79 30 38
303 453 167 66 58 50
372 718 295 75 35 40
288 688 218 133 2 31
298 455 171 62 49 40
305 913 191 94 84 79
296 629 205 47 33 38
363 747 296 73 57 51
303 453 177 71 59 53
300 463 169 56 38 32
245 718 330 156 110 87
303 455 180 69 58 51
300 459 180 65 55 46
304 463 177 65 52 43
333 783 297 84 64 55
302 462 180 61 51 43
253 913 307 156 122 100
395 689 208 109 52 45
294 468 177 43 36 31
330 682 309 144 7 46
300 466 169 44 34 29
253 893 272 153 113 87
302 466 169 47 33 28
302 472 177 54 33 29
312 508 150 163 0 35
344 622 294 46 26 29
232 518 293 148 9 45
297 477 173 56 29 26
293 478 180 51 27 30
303 468 177 49 38 33
250 951 268 81 74 72
308 449 167 75 66 57
387 783 266 93 74 67
306 452 167 70 61 53
424 543 207 180 8 56
305 450 173 74 66 56
313 493 313 57 23 29
307 454 172 71 62 54
432 794 192 110 76 54
306 466 174 58 41 36
372 742 295 175 20 59
293 483 136 130 20 42
293 489 140 87 29 38
299 485 140 182 2 31
336 737 315 180 10 57
370 416 195 104 88 72
258 708 337 156 109 84
381 393 247 124 97 65
303 488 142 125 13 34
342 504 140 176 0 36
299 494 145 129 27 41
436 527 171 172 11 49
303 492 144 60 34 38
338 418 303 98 25 37
303 494 145 69 33 35
441 468 221 52 28 32
325 798 169 59 49 44
293 503 147 91 29 39
292 507 149 131 18 36
433 718 207 150 104 72
293 513 152 178 2 35
319 853 197 55 49 50
296 506 149 129 9 28
384 538 272 138 112 84
338 426 129 173 36 31
298 432 335 98 30 42
300 505 150 172 3 51
274 941 224 77 69 71
298 513 153 172 3 31
303 508 152 170 1 32
327 972 262 83 79 83
408 517 134 189 11 45
306 481 139 167 0 38
373 483 268 127 19 44
246 518 309 44 27 29
338 688 197 81 35 33
308 483 140 175 1 36
427 668 197 144 103 73
312 480 140 173 0 35
240 798 325 177 124 96
273 693 232 113 20 36
313 483 141 175 1 35
364 542 154 37 29 38
333 803 292 159 117 99
321 913 182 99 92 91
319 483 139 169 0 32
344 388 277 93 69 53
391 670 234 30 30 29
318 488 141 169 0 32
293 823 233 83 64 55
308 504 150 166 0 29
403 429 197 77 49 42
313 503 148 164 0 34
390 638 227 95 56 55
312 513 150 96 17 31
360 439 279 161 17 52
317 499 145 164 0 32
454 498 132 171 24 49
249 833 287 198 135 103
318 503 147 164 0 33
342 423 301 62 25 30
315 507 149 161 0 34
318 513 148 132 12 32
393 884 287 64 56 51
363 875 270 34 32 30
294 603 334 161 114 84
289 483 174 74 22 28
457 440 138 102 28 29
290 480 180 63 22 27
262 452 196 84 30 27
471 471 130 169 22 52
264 454 194 76 32 26
349 323 297 113 80 55
261 456 195 83 33 25
318 883 302 139 105 77
328 398 193 92 79 67
245 616 266 82 28 36
363 425 157 101 85 67
333 393 192 93 81 69
348 598 291 69 24 36
334 568 293 83 24 34
328 408 191 96 81 67
332 403 190 97 83 69
333 413 187 96 81 65
327 574 300 138 15 41
343 388 192 92 81 69
352 458 282 88 22 35
311 630 200 47 33 32
343 393 190 96 83 69
338 398 189 96 82 68
343 395 189 97 82 68
352 338 271 124 82 60
425 693 229 169 115 85
348 388 192 95 83 70
388 898 237 60 50 42
358 763 289 84 65 55
348 393 190 97 84 69
405 446 239 95 37 39
429 748 197 127 91 63
239 773 326 177 121 94
353 388 192 95 83 70
363 913 297 66 55 50
348 398 188 97 83 69
261 406 261 94 78 63
358 534 151 47 32 40
353 398 188 99 84 69
308 418 322 137 100 72
421 823 235 188 134 106
353 396 190 99 84 68
404 718 262 109 25 42
343 403 188 96 82 68
442 419 241 86 28 37
344 414 184 95 81 66
408 572 172 101 24 38
338 413 186 97 82 65
289 818 317 155 120 89
348 408 186 96 81 66
403 434 227 79 51 41
353 408 186 98 83 67
399 743 267 110 28 43
240 797 278 179 124 91
321 833 190 60 53 51
353 413 184 98 82 66
423 429 172 103 28 34
348 411 185 97 81 65
328 427 132 179 29 38
288 962 320 86 79 77
328 428 137 173 37 41
255 720 259 121 24 46
412 837 231 187 123 98
323 429 142 165 46 44
328 429 142 157 52 47
343 363 302 143 97 77
322 431 144 154 54 46
222 528 262 155 0 41
325 430 145 146 60 50
345 460 298 103 33 48
328 430 145 136 65 51
332 431 152 100 79 59
334 430 152 100 79 59
333 431 157 98 80 60
231 574 262 113 22 39
335 430 157 98 81 61
399 426 212 66 46 38
313 623 196 91 36 42
324 435 157 95 78 61
321 436 154 99 75 59
322 437 157 93 78 62
363 541 290 184 127 100
381 538 280 156 117 88
338 427 137 153 51 44
435 441 120 100 15 25
256 917 260 99 83 69
343 426 132 157 46 37
338 428 142 133 64 52
353 426 132 132 64 46
430 758 207 150 102 67
338 430 152 99 80 61
438 438 127 113 10 24
343 428 157 100 83 64
355 939 256 65 57 56
329 718 323 152 3 48
367 699 295 78 26 35
403 552 154 138 23 40
348 427 147 100 79 61
273 971 287 66 60 57
348 427 152 99 83 64
362 912 302 80 62 58
335 430 168 98 81 61
328 434 172 97 83 66
388 603 262 123 67 57
367 618 291 35 30 31
258 633 292 110 31 46
334 429 173 96 80 63
333 427 177 96 80 63
398 427 152 85 60 50
336 921 319 40 37 37
341 613 296 100 23 37
322 416 190 96 81 66
323 422 186 96 81 66
233 583 262 115 17 41
392 630 221 64 41 34
328 418 186 95 81 66
285 803 324 167 125 94
333 298 261 80 65 50
397 713 281 143 12 44
324 424 184 98 82 66
398 699 242 135 16 43
327 421 185 96 81 65
358 418 182 98 82 63
322 431 180 97 83 68
323 268 306 115 92 65
392 767 266 94 75 69
323 433 177 97 83 67
321 426 185 97 82 66
386 648 252 159 15 49
297 453 330 80 26 36
368 424 307 85 17 31
333 419 184 96 81 63
313 713 328 98 28 41
383 558 281 170 122 92
333 423 181 97 80 63
333 417 185 96 81 64
425 637 221 138 106 68
326 436 167 96 82 65
323 438 172 97 83 67
341 734 185 44 36 38
321 441 164 93 81 66
407 909 209 78 65 57
410 817 189 141 93 63
321 441 168 95 82 67
329 434 167 96 82 64
236 788 287 169 119 85
338 429 162 99 82 62
261 402 272 113 91 66
393 892 203 77 66 60
338 429 167 98 81 61
395 696 237 141 17 44
343 427 167 98 81 63
378 633 272 63 29 35
343 428 162 99 82 64
393 708 282 135 7 42
338 427 172 97 79 60
300 323 310 134 101 77
338 424 177 96 79 61
340 425 174 97 80 62
335 283 292 110 88 63
344 328 278 91 65 46
255 836 273 83 66 60
348 424 172 98 82 65
279 758 224 88 29 40
353 423 172 98 82 65
347 426 166 98 81 63
278 273 297 143 104 81
338 422 180 96 79 62
343 418 182 96 81 64
276 600 200 150 31 56
336 416 185 96 81 65
345 420 179 97 81 65
349 420 179 96 81 65
354 395 189 100 84 68
266 698 240 76 38 42
355 410 184 97 82 67
359 412 186 99 84 69
293 848 283 68 51 39
363 733 297 132 17 45
362 403 193 99 85 71
360 407 190 100 85 69
364 412 192 102 87 71
304 338 259 88 74 60
358 426 142 100 83 65
398 483 252 82 20 33
348 738 302 129 24 48
363 425 131 104 79 53
323 838 187 58 52 51
363 426 137 101 84 63
368 425 132 107 80 58
369 425 136 106 83 63
279 423 321 107 20 37
236 565 221 118 27 46
304 748 208 71 31 37
358 426 147 99 83 64
281 366 265 100 86 71
309 918 187 70 61 58
357 426 156 99 83 65
375 677 279 79 19 34
341 584 295 154 16 49
359 425 158 100 84 67
255 667 304 151 107 83
312 761 320 86 72 66
364 425 147 102 85 67
324 965 293 64 56 52
373 425 132 115 78 60
373 426 138 108 85 67
384 398 237 108 88 65
383 426 137 110 80 67
433 422 217 90 29 32
443 453 113 80 33 36
378 426 142 106 87 73
383 426 142 104 84 70
403 493 125 130 14 37
373 426 146 104 87 71
373 425 148 103 87 71
376 425 148 104 87 71
258 873 277 137 111 83
379 426 152 104 88 72
383 426 152 104 87 72
363 421 293 56 34 25
362 704 300 40 28 31
383 426 157 105 88 72
358 424 167 100 83 65
358 423 172 100 83 65
359 681 200 74 41 32
354 425 163 100 83 65
363 424 162 101 84 66
430 484 234 67 21 35
225 516 209 158 15 43
368 424 162 102 86 69
354 709 167 49 41 38
362 420 179 101 85 67
454 448 192 159 8 50
266 626 303 119 56 54
367 420 179 101 85 68
413 808 192 132 86 59
363 497 133 97 31 39
369 418 192 103 88 72
373 421 177 105 89 73
373 419 187 105 89 74
374 421 192 107 91 74
378 419 187 112 94 76
388 413 242 114 90 62
378 419 192 113 94 75
383 419 192 111 93 74
368 482 270 146 14 47
326 971 275 54 48 46
254 628 252 178 9 48
324 393 198 91 79 67
327 393 196 91 79 66
322 388 202 92 80 68
323 398 197 90 79 67
321 397 201 88 77 66
333 387 195 92 81 69
413 783 173 97 70 50
264 679 291 92 19 35
394 427 237 92 75 55
333 278 287 111 88 62
322 403 196 92 80 67
324 404 194 93 80 67
294 308 268 92 75 56
248 738 282 43 32 36
326 401 195 95 82 68
338 388 193 91 80 69
375 682 210 70 32 34
336 386 195 92 80 69
300 819 304 64 51 46
398 728 182 77 49 40
364 388 201 96 84 72
333 638 198 77 33 36
369 388 207 98 84 70
260 512 320 149 20 54
365 392 200 100 87 74
393 603 262 164 104 81
342 741 179 58 54 53
367 393 202 101 87 73
331 279 277 100 82 60
278 972 267 83 79 80
248 608 242 195 1 51
360 393 195 101 86 73
364 398 197 101 87 73
331 721 195 93 31 35
367 408 197 103 88 73
365 412 195 103 87 70
235 786 310 185 127 97
399 628 213 107 76 52
371 394 208 106 89 71
372 398 207 113 96 78
372 393 212 109 91 73
378 884 306 46 41 39
373 398 212 121 101 79
374 396 220 116 97 79
260 827 253 77 63 58
377 393 222 101 86 70
273 858 272 91 67 57
403 858 196 97 77 62
377 398 217 113 95 76
358 478 282 92 61 58
373 403 207 119 100 81
238 543 201 162 6 41
252 594 216 204 12 54
370 402 205 109 93 76
461 448 181 66 26 32
371 405 204 107 92 76
353 828 157 88 68 54
374 408 206 118 98 79
377 408 208 129 106 83
421 810 184 130 89 63
374 402 211 131 109 85
294 839 292 55 42 37
376 400 214 129 106 80
236 553 206 58 25 31
379 402 216 114 95 75
271 850 265 62 50 57
376 404 209 132 109 85
235 753 320 169 116 93
379 408 212 127 104 81
302 458 326 53 28 32
413 938 217 93 78 64
345 724 134 82 64 54
382 408 222 100 86 71
381 410 214 117 98 79
351 703 305 66 29 37
382 413 212 115 96 77
381 415 209 124 102 78
303 643 208 118 26 41
375 386 225 108 90 72
380 387 231 99 83 67
382 393 232 100 83 66
382 388 237 106 87 65
383 393 237 106 87 65
420 776 234 164 119 86
342 282 259 87 71 51
382 388 242 113 90 63
278 598 331 138 106 80
380 388 248 125 97 64
380 392 248 128 100 67
379 388 252 130 99 66
380 401 226 102 87 72
384 403 247 126 99 67
384 413 252 133 101 71
431 435 128 67 36 37
373 418 197 107 92 76
255 759 249 136 6 39
228 548 282 169 0 50
383 419 197 114 96 77
273 548 321 153 17 51
378 417 202 122 102 81
295 643 327 169 113 86
403 428 177 97 74 62
383 420 202 115 96 77
384 417 212 106 89 73
411 446 232 43 21 23
384 417 253 131 100 71
333 353 315 150 104 76
263 858 292 160 122 98
383 418 257 125 96 69
233 523 197 132 11 36
348 498 136 118 16 36
326 463 130 166 0 35
322 470 135 171 0 36
275 557 169 102 26 39
322 473 136 169 0 34
324 472 134 168 0 36
328 478 133 121 15 35
334 472 129 149 5 37
347 333 292 108 80 54
449 448 202 166 12 52
278 412 313 113 92 69
337 479 130 45 35 40
323 483 137 165 0 31
322 489 140 169 0 35
386 868 207 74 61 54
328 488 137 155 7 38
416 608 242 140 105 69
328 493 138 86 26 33
340 296 309 108 87 62
333 487 134 70 33 39
323 498 142 168 0 34
383 849 191 68 55 51
451 502 151 141 30 51
324 502 143 168 0 34
443 433 152 116 15 20
337 752 306 94 72 62
328 498 141 167 1 37
425 899 268 87 68 57
329 507 144 170 0 36
430 693 201 141 102 68
254 778 252 76 61 54
330 496 139 124 16 43
412 713 235 137 90 63
333 497 138 157 6 40
273 558 313 130 10 41
333 499 141 174 0 36
426 435 124 67 42 27
333 508 143 176 0 37
382 822 164 80 65 60
334 513 144 125 9 34
382 847 236 41 34 33
261 652 334 151 109 85
322 504 146 166 0 32
323 513 147 163 1 33
437 435 138 109 12 24
413 429 177 85 44 44
328 513 146 166 1 34
331 510 145 169 1 35
332 513 145 142 7 39
293 973 302 66 62 61
417 788 240 165 121 88
338 488 133 70 36 38
384 595 180 191 15 41
296 908 196 84 76 75
459 474 162 38 33 36
343 482 129 100 29 37
400 570 234 172 19 62
342 484 130 130 27 40
343 488 132 113 26 40
313 528 153 122 22 41
247 953 287 50 48 49
346 485 130 83 35 38
227 548 227 125 12 39
349 486 129 89 24 35
402 738 182 67 49 44
353 487 129 114 24 36
348 493 133 129 21 38
435 467 119 66 32 34
353 493 132 81 29 36
338 498 138 177 0 37
301 461 325 29 26 27
343 633 301 76 27 33
338 503 141 174 0 34
340 501 139 176 0 33
335 288 277 104 83 60
344 502 138 179 1 36
338 508 142 177 1 37
423 798 192 139 98 65
343 508 141 179 2 37
349 496 134 78 21 32
427 763 197 132 93 65
353 499 135 135 13 35
221 518 252 149 0 40
325 423 309 145 102 81
281 678 225 137 2 35
403 448 115 118 19 34
388 478 262 168 14 52
348 503 138 168 4 35
454 498 142 45 32 34
353 503 137 175 4 37
419 434 237 69 18 24
252 614 241 194 7 51
301 834 230 65 50 50
350 506 139 179 3 37
354 506 139 182 4 40
353 509 140 179 3 37
358 487 129 74 31 35
358 490 130 98 35 40
363 487 129 89 33 37
368 488 130 142 16 39
368 493 132 61 36 38
358 500 135 135 14 44
379 886 220 70 57 49
333 688 198 66 36 36
358 503 137 163 5 38
358 509 140 179 3 35
378 703 291 119 16 38
430 738 224 173 116 85
363 500 135 105 20 30
363 503 137 147 8 38
315 868 202 44 42 43
368 498 134 116 24 40
368 503 137 170 5 35
288 534 160 167 0 34
363 510 140 178 2 36
408 428 177 89 62 55
363 513 141 178 0 38
432 743 217 163 106 73
368 513 141 172 0 34
246 813 329 182 128 98
283 773 322 159 111 81
398 754 158 88 63 49
373 483 129 112 26 39
433 813 197 113 80 61
370 485 130 155 19 41
373 493 132 55 35 38
378 483 129 79 30 36
399 578 242 68 53 41
408 529 140 182 11 36
376 485 130 67 26 36
326 259 282 111 88 63
383 483 129 109 23 35
380 486 129 109 26 32
401 430 262 71 34 34
383 486 129 138 16 34
383 488 130 149 5 33
235 754 308 159 115 84
378 493 132 117 16 36
313 976 282 64 60 59
312 430 326 61 33 25
258 793 338 175 127 98
268 793 336 173 124 92
383 493 131 178 2 38
373 500 135 179 3 42
373 503 137 171 1 39
373 509 140 166 0 35
373 513 140 166 0 32
350 558 279 141 10 42
358 358 266 133 94 67
378 500 135 174 5 29
383 498 133 147 6 35
379 512 139 156 0 36
371 504 281 135 103 79
313 293 260 87 69 48
376 510 140 163 0 31
339 288 302 102 84 65
230 547 285 167 0 49
418 834 183 102 79 65
388 432 116 170 26 25
348 432 298 47 23 25
389 430 118 185 19 15
331 911 309 118 83 72
400 743 166 73 45 42
393 432 115 160 33 34
388 426 127 87 43 33
389 638 242 134 19 45
393 428 122 79 39 23
398 433 116 150 30 28
397 430 119 134 29 21
361 626 295 116 28 46
398 429 122 106 42 32
293 788 222 80 62 53
385 440 115 84 35 35
298 533 159 156 0 31
386 437 114 147 16 42
283 928 324 180 140 117
268 488 322 157 17 50
388 438 115 131 10 30
313 783 197 54 46 43
393 435 114 149 2 24
250 928 305 181 139 119
343 833 272 158 121 100
388 443 117 125 22 38
302 916 189 92 83 80
393 448 118 95 32 35
248 618 257 107 31 43
348 588 173 50 36 44
342 593 295 149 14 48
396 435 114 138 0 15
398 439 114 147 0 24
398 438 115 148 6 32
398 443 115 145 5 32
423 438 245 123 11 39
240 579 295 160 12 49
399 441 114 152 0 29
274 383 297 123 97 69
398 448 116 82 30 35
473 463 109 109 25 38
403 433 117 137 38 33
402 430 123 106 55 41
289 358 306 123 96 69
252 813 334 185 133 106
434 508 212 169 15 54
369 422 292 56 27 29
403 431 121 112 52 40
351 436 304 56 26 21
307 528 318 137 100 88
408 432 122 106 39 23
405 431 126 95 44 37
408 431 127 86 39 34
403 438 115 139 7 34
408 434 118 140 33 27
403 443 115 139 5 30
407 443 115 122 15 32
409 444 114 85 21 28
408 448 115 93 31 35
413 434 122 99 27 32
413 433 127 84 22 28
373 828 152 112 86 70
345 726 134 84 64 52
418 439 118 100 25 34
292 569 170 125 19 38
228 548 222 136 14 41
263 580 200 117 19 41
271 862 270 98 79 56
359 700 186 67 49 43
423 439 118 124 27 22
423 435 124 68 39 21
378 663 213 71 30 32
398 427 202 76 51 43
363 926 320 81 67 57
417 445 114 106 23 33
418 448 114 75 37 36
280 365 268 103 87 70
355 328 269 129 88 65
423 443 116 77 38 34
408 788 244 159 118 86
406 721 190 116 87 57
422 447 115 54 39 44
428 435 127 67 39 36
289 421 328 73 48 38
428 437 122 59 37 37
433 436 127 96 15 32
425 445 114 67 46 42
313 363 320 136 104 74
424 448 114 56 42 40
248 603 232 174 10 48
432 440 119 85 35 28
447 444 123 118 3 15
323 358 318 143 103 73
416 892 240 61 50 43
280 713 329 165 111 84
433 443 117 75 39 38
431 445 114 65 42 44
291 630 210 72 20 33
282 818 326 171 129 99
467 448 167 100 31 41
361 869 160 87 80 76
431 448 114 75 40 38
437 439 123 113 11 22
407 693 196 106 82 56
223 533 267 136 6 39
438 444 118 102 34 20
438 448 115 119 29 33
238 593 247 109 20 39
399 891 230 67 59 58
368 763 286 84 66 57
289 318 297 122 94 67
438 442 121 112 2 34
443 444 118 127 7 18
251 881 280 128 104 79
341 469 300 113 73 65
441 440 124 116 21 14
279 748 223 85 29 38
388 451 119 104 26 41
393 453 119 57 36 35
388 453 120 119 23 33
392 454 120 76 37 35
388 458 121 57 36 37
250 880 283 136 109 83
378 518 262 140 17 46
431 752 204 145 99 68
253 613 237 203 8 53
392 458 120 53 36 39
343 503 308 145 103 83
383 853 192 72 59 54
393 463 121 98 26 36
394 458 119 72 34 35
271 804 240 80 62 51
368 618 191 131 24 40
395 461 119 93 30 33
288 558 167 123 25 40
398 458 118 91 29 32
398 462 119 75 33 35
389 472 124 106 17 34
408 918 208 73 58 48
411 854 184 92 78 68
393 468 122 100 32 38
388 478 126 148 6 39
392 478 125 167 2 32
398 468 120 60 39 38
398 478 123 157 2 37
403 453 116 105 26 34
403 458 117 106 26 35
415 925 239 78 63 51
403 463 119 65 36 38
408 458 117 98 26 33
253 628 277 39 32 35
380 696 284 44 27 29
408 463 118 63 38 39
413 453 115 115 21 36
292 738 215 139 2 33
404 466 119 84 35 42
407 469 120 149 7 38
399 868 227 88 74 70
282 358 272 102 85 67
222 533 247 162 1 42
408 473 121 158 0 33
349 864 166 104 89 78
403 478 123 148 3 37
413 468 119 84 33 38
413 471 119 135 10 31
388 483 127 152 3 31
393 483 126 147 4 32
263 548 181 147 14 40
408 913 208 75 60 50
283 643 337 160 113 81
397 484 125 113 19 33
379 795 155 74 56 47
397 488 125 141 7 35
303 868 312 142 114 83
400 488 124 108 20 31
303 843 232 163 115 90
393 493 128 158 0 38
297 923 320 146 112 86
253 658 331 150 105 83
398 498 128 162 1 37
394 497 129 157 0 35
332 422 304 56 30 24
403 483 123 94 22 36
400 900 254 76 60 49
292 303 303 136 100 77
403 488 124 59 32 36
408 483 122 122 15 33
342 883 162 98 84 76
408 488 123 145 13 39
358 488 288 108 66 59
344 308 313 115 89 61
403 491 124 90 23 29
454 458 109 156 16 36
323 603 183 45 36 40
413 483 122 125 16 35
413 491 124 131 7 31
413 493 126 134 15 38
403 498 127 153 1 35
416 949 208 104 86 71
391 752 280 196 14 64
390 422 232 101 82 60
408 503 128 145 6 32
260 919 248 56 54 56
413 503 128 164 5 34
392 798 177 87 65 46
325 764 169 59 48 43
417 454 115 51 39 42
419 452 114 54 41 42
423 453 114 57 42 39
249 793 262 63 52 50
338 653 301 145 20 50
418 458 116 71 32 38
313 323 316 135 102 74
418 463 117 103 30 40
320 975 272 75 75 78
423 458 116 49 41 39
345 830 269 153 115 94
415 923 242 80 67 57
423 736 181 136 98 66
428 452 114 55 40 36
429 454 115 60 37 36
343 563 163 76 35 38
307 788 207 67 54 49
431 452 114 76 34 34
339 833 277 159 118 97
433 453 116 120 20 38
428 463 118 73 36 36
387 879 199 88 72 61
433 463 118 87 33 34
418 468 119 64 38 41
266 723 236 150 5 41
417 471 119 52 39 35
422 467 119 62 36 36
285 343 296 122 95 68
314 467 314 66 25 31
368 448 275 126 13 41
424 469 120 71 38 37
428 468 121 82 34 34
229 563 242 73 32 39
326 548 312 168 114 90
428 473 121 64 34 36
401 676 200 86 65 46
429 465 120 124 38 47
432 465 120 128 34 48
433 473 121 112 25 36
428 478 122 86 31 33
394 889 283 67 54 46
438 468 117 54 38 38
450 913 219 72 55 45
433 478 122 98 20 34
437 453 115 142 11 37
440 453 114 130 19 39
438 463 117 84 28 36
230 518 291 147 6 42
374 634 206 87 29 34
313 853 293 147 120 94
342 363 306 148 101 82
236 590 273 88 27 34
449 452 116 84 29 44
309 439 328 87 30 39
441 459 115 150 9 37
295 389 320 129 101 73
398 663 217 82 57 38
442 463 115 119 16 33
234 562 217 55 33 35
265 642 243 164 10 42
368 568 277 108 45 46
444 463 114 136 19 36
438 473 118 72 32 34
302 975 250 79 74 76
437 474 120 99 25 34
384 668 262 151 12 47
440 477 119 135 9 38
383 548 152 138 8 36
438 478 121 151 12 38
371 709 157 54 45 36
443 468 115 65 36 37
403 483 254 48 27 28
254 942 307 181 133 111
444 467 114 81 35 31
288 628 336 164 114 83
443 473 116 88 27 36
246 753 277 153 113 80
448 468 113 83 30 33
448 473 114 119 20 37
447 474 115 124 18 38
441 480 120 159 12 37
384 521 259 79 17 29
285 428 330 82 22 32
423 483 123 98 23 36
262 868 307 151 53 78
423 487 124 108 15 31
326 397 315 151 107 84
288 828 237 84 64 55
423 489 125 146 9 33
303 599 185 181 4 39
341 891 294 32 30 30
423 493 125 143 7 33
376 628 276 143 27 48
428 483 124 87 32 36
388 882 303 47 41 36
335 729 178 49 38 34
241 594 288 56 29 34
354 788 284 81 62 54
433 483 122 61 33 34
433 488 123 131 18 32
428 489 125 133 9 33
361 921 309 74 58 52
428 493 125 145 11 32
303 623 198 95 25 37
318 912 193 83 75 74
430 491 124 143 10 45
419 838 183 103 82 67
431 495 125 162 12 33
470 464 134 118 35 48
443 908 237 91 75 66
418 498 126 140 9 30
445 510 136 144 27 38
423 498 125 156 12 35
423 503 127 101 20 35
428 503 126 146 14 36
251 620 288 67 27 38
433 503 126 176 11 33
292 357 260 94 81 68
448 483 118 161 15 33
445 487 119 164 16 35
448 487 119 174 13 39
388 426 147 98 79 65
443 483 120 153 13 31
362 713 128 80 60 45
443 488 120 162 13 36
443 493 121 153 12 35
352 357 270 122 80 59
448 489 120 174 13 31
318 798 177 61 51 48
434 497 124 159 13 33
298 975 297 60 56 55
365 691 195 67 45 37
438 503 126 180 13 36
378 653 272 84 29 38
270 738 334 175 115 87
443 498 123 66 25 32
443 503 127 112 20 38
323 762 316 91 73 65
264 618 327 146 113 87
420 715 184 135 100 66
444 500 125 57 34 34
288 728 324 133 48 50
448 497 123 147 27 43
447 502 128 160 22 45
249 818 330 187 133 107
453 444 127 106 23 23
456 476 157 59 27 36
348 863 157 113 90 79
453 448 122 120 9 21
451 445 124 124 0 14
457 445 128 102 28 27
458 449 122 104 24 22
463 447 127 105 24 28
452 458 110 151 16 35
458 458 108 158 17 30
277 817 330 172 126 98
413 848 187 97 78 64
458 463 108 165 15 34
231 564 236 59 32 34
463 456 111 151 22 20
331 300 315 129 100 69
355 476 272 55 29 30
406 578 221 62 26 34
463 463 107 169 13 35
456 491 146 101 29 43
391 685 256 141 9 43
283 348 282 112 91 68
357 783 143 88 66 52
453 453 117 177 10 11
283 972 262 88 83 85
458 452 117 124 19 15
291 811 315 165 122 93
293 683 314 34 28 28
396 699 257 133 15 41
463 453 117 97 31 33
432 733 217 165 109 78
462 455 113 117 32 24
293 596 184 184 5 41
257 818 256 78 64 60
464 451 121 106 46 17
453 468 111 120 19 34
398 697 199 72 53 38
458 466 109 134 11 33
278 933 323 178 140 118
458 473 112 161 15 40
234 763 307 165 117 87
398 648 237 90 43 35
404 432 202 71 38 34
391 538 255 129 18 43
338 738 167 46 41 38
463 466 109 164 15 39
463 469 110 141 23 42
463 473 112 128 19 35
393 808 174 65 50 46
358 753 135 82 62 49
387 425 167 107 89 72
382 668 267 128 15 41
450 476 114 151 14 35
453 477 114 167 13 37
383 803 256 81 63 54
453 479 115 167 14 33
406 582 216 74 32 37
458 477 114 176 13 32
458 479 115 179 15 27
441 492 205 144 19 50
463 478 117 196 19 39
235 770 299 151 112 78
300 265 260 99 78 52
468 459 108 102 33 33
468 457 112 130 25 27
473 457 112 104 31 35
423 698 193 129 97 63
477 459 112 172 22 36
273 913 232 70 59 54
477 462 112 174 17 44
468 454 117 88 15 30
467 455 114 90 8 33
423 923 237 74 62 51
413 429 167 87 42 43
333 485 310 143 116 98
473 450 128 79 38 25
474 451 126 95 35 30
476 455 119 108 37 29
390 782 160 62 53 46
478 453 127 133 29 45
478 458 117 180 22 45
477 463 117 183 18 49
475 464 127 41 32 32
437 730 172 127 95 59
477 462 122 113 30 45
476 462 126 42 27 34
467 466 109 174 17 42
282 703 327 151 100 76
468 468 111 145 21 43
345 426 294 34 26 22
308 702 324 77 26 35
472 467 113 144 22 41
332 610 185 86 34 39
467 472 113 126 24 39
304 837 229 71 60 57
473 468 117 119 25 40
288 638 336 160 110 80
469 474 117 140 17 43
471 472 118 120 17 39
471 472 127 114 22 43
303 658 210 95 25 35
467 477 118 203 16 51
465 480 121 205 15 47
427 768 197 131 92 62
468 478 127 193 14 51
470 474 122 201 17 54
389 422 227 94 78 60
327 783 166 64 53 47
404 602 221 76 42 35
472 472 122 177 16 50
470 474 127 147 16 47
475 465 118 154 19 49
473 468 122 135 26 47
318 293 261 89 71 50
303 783 314 71 57 50
348 648 296 99 31 43
453 487 119 184 16 38
453 489 121 187 17 33
454 494 126 149 20 45
376 684 280 36 31 32
343 678 199 91 29 34
458 483 118 191 19 38
357 703 137 69 55 40
462 482 118 199 20 44
346 936 239 77 68 66
402 763 177 86 68 51
458 487 122 198 19 44
238 788 282 166 116 84
460 484 121 201 19 48
384 779 269 80 61 54
461 486 124 202 15 57
462 487 127 122 21 37
464 484 127 198 15 53
311 855 295 143 116 90
456 491 124 160 32 33
343 648 200 84 31 34
280 359 295 123 96 68
262 403 282 116 93 68
378 848 187 77 65 59
457 492 128 135 30 48
452 497 127 80 27 37
353 763 290 82 63 55
386 425 131 114 69 55
388 426 132 107 69 55
346 348 287 115 80 55
339 738 152 48 40 33
388 426 137 101 73 59
336 388 306 154 107 83
223 518 267 57 28 32
393 427 137 91 64 51
388 426 142 97 76 62
413 768 179 116 80 54
393 427 142 89 66 53
398 428 137 84 56 46
298 643 211 141 21 43
398 428 142 82 56 46
338 937 317 64 52 48
388 426 152 100 82 68
346 749 165 57 51 48
328 629 195 85 28 35
393 427 152 95 74 61
388 426 157 104 86 71
393 427 157 100 80 66
333 293 272 96 78 58
403 429 137 79 48 40
318 258 306 116 91 63
383 488 263 86 27 40
393 888 272 62 48 44
409 431 132 78 37 34
252 698 333 150 105 80
402 962 197 107 88 70
378 533 282 151 113 82
403 429 142 77 48 40
410 431 136 74 39 35
295 374 315 122 97 70
413 431 137 71 37 35
411 430 139 73 40 37
414 431 142 70 37 37
258 409 287 77 63 51
403 428 147 76 48 41
403 428 152 77 48 43
235 566 228 94 34 44
408 429 147 73 41 38
358 673 203 69 35 34
408 429 152 73 42 40
396 557 245 94 25 38
423 493 237 174 13 54
312 828 212 61 53 51
369 562 280 158 96 83
403 428 157 81 52 46
408 429 157 77 44 43
339 843 164 77 63 58
413 430 147 70 36 39
413 430 152 73 36 38
234 532 295 155 9 47
352 717 162 45 40 36
415 431 146 67 37 42
269 758 334 170 117 84
413 429 157 78 36 40
385 426 161 105 88 72
401 895 217 84 75 70
386 425 163 106 89 72
388 425 172 107 89 72
273 493 323 170 14 54
388 424 177 107 87 71
393 426 172 106 85 70
455 479 177 97 29 40
392 425 177 106 85 69
398 427 167 101 79 66
398 427 172 103 81 67
335 525 299 167 107 90
388 423 182 108 87 70
286 680 315 75 51 43
389 422 192 109 88 70
359 443 278 148 19 48
393 424 192 106 83 66
395 426 182 107 84 68
395 426 186 107 84 67
398 427 187 103 80 65
336 873 281 129 102 81
396 425 192 103 79 63
323 288 263 91 72 51
263 798 337 182 134 104
388 643 247 156 15 49
373 668 211 55 33 35
403 428 162 86 57 51
382 626 204 104 35 42
414 617 221 107 86 63
261 428 304 126 14 41
408 428 167 86 52 49
322 971 282 67 64 64
387 758 142 75 57 47
403 428 172 97 73 62
408 428 172 90 61 55
403 428 182 97 74 61
232 568 237 84 29 40
305 626 199 67 22 28
408 428 182 84 56 52
413 429 182 81 42 43
291 362 309 122 97 70
413 429 187 75 36 40
399 793 248 166 118 86
413 430 192 74 32 36
418 432 137 69 36 35
418 431 142 69 37 35
339 915 221 76 68 68
308 813 202 64 56 54
261 632 329 145 111 81
418 431 147 73 33 34
353 818 271 175 124 101
418 430 152 80 30 34
237 763 302 144 108 75
398 488 254 52 23 27
419 431 151 82 29 31
333 543 282 69 25 32
423 432 147 85 30 32
418 430 157 88 29 35
234 542 204 156 9 41
245 597 233 56 29 35
235 792 302 187 130 99
343 952 252 73 65 66
385 411 231 102 83 62
254 842 302 205 135 106
421 430 154 94 27 32
373 403 262 131 96 67
423 430 157 102 25 31
470 445 159 174 20 63
424 431 156 103 24 29
422 488 242 165 17 53
234 553 208 100 17 34
428 430 159 110 22 29
433 431 157 117 19 27
250 743 287 119 84 66
423 434 132 67 35 37
428 434 132 76 33 35
428 433 137 74 37 39
433 435 132 94 24 31
406 704 195 116 90 60
433 433 147 103 26 27
277 603 202 77 32 38
303 587 178 190 7 42
438 432 157 113 24 27
434 436 131 111 6 21
344 878 168 86 71 64
436 435 134 104 19 25
383 568 162 160 19 44
433 723 212 157 107 75
378 523 142 148 6 34
326 857 181 55 50 51
438 436 132 112 12 28
313 778 202 62 50 46
439 436 136 106 18 26
438 435 142 108 15 23
443 438 132 111 18 26
252 614 298 139 14 45
400 688 231 65 32 21
227 518 207 164 11 41
399 871 207 77 61 53
442 503 192 179 1 56
376 738 144 73 54 44
443 437 137 109 18 25
448 440 132 110 19 25
448 438 137 109 19 26
398 778 183 86 63 44
442 435 143 111 15 23
339 388 297 142 97 75
440 436 140 109 17 25
448 437 142 111 17 24
438 434 147 110 16 23
327 683 200 54 34 37
438 433 152 112 17 23
337 907 212 72 66 64
443 435 147 114 14 21
448 435 148 114 17 21
350 949 267 54 48 45
378 478 268 167 14 53
448 434 152 114 18 21
445 436 145 113 15 22
240 597 281 146 25 49
448 436 146 113 18 22
400 864 199 89 68 53
313 263 310 126 99 69
324 538 318 151 111 84
448 433 157 115 21 28
418 429 162 93 30 36
418 429 167 96 31 36
344 373 277 99 66 49
423 429 167 105 25 33
418 429 177 88 34 37
351 648 295 67 28 38
423 428 177 95 31 35
433 431 161 116 21 30
431 791 202 128 86 56
343 373 282 114 77 58
433 429 167 112 26 36
433 428 177 97 34 38
221 518 237 65 27 34
423 428 182 83 32 34
383 562 158 55 36 39
418 429 187 80 30 36
417 888 233 74 66 62
377 828 164 74 60 54
428 428 182 85 33 33
358 918 247 69 61 58
433 426 187 81 37 36
248 903 282 96 74 67
357 447 306 174 19 55
308 693 206 117 17 32
438 430 167 111 28 39
328 922 213 73 66 67
443 431 162 113 23 36
443 430 167 110 29 42
439 513 192 187 4 58
469 441 146 93 29 34
448 432 162 116 23 36
448 431 165 117 27 42
233 538 202 135 15 36
363 689 147 82 64 53
443 427 177 89 34 42
348 868 157 107 88 81
443 428 172 106 33 43
342 838 272 154 121 100
448 427 177 88 36 43
438 426 182 82 35 37
348 576 169 174 1 47
435 425 189 86 39 39
344 402 288 101 71 50
434 425 193 91 38 40
384 896 227 68 56 48
439 425 188 82 36 37
437 426 186 79 37 36
343 338 312 147 99 78
358 703 167 46 38 32
443 424 187 79 33 36
308 562 164 147 8 36
443 426 181 76 33 38
313 508 317 133 107 91
314 848 222 58 50 48
443 425 184 72 33 36
358 788 282 83 64 55
401 430 257 75 51 39
348 793 286 58 47 46
362 897 232 57 49 46
447 425 183 69 32 38
448 424 187 75 31 37
341 309 276 105 84 60
386 415 217 100 86 71
385 409 231 102 83 63
386 408 233 104 85 63
282 678 331 172 121 92
437 448 241 76 29 35
404 910 229 74 59 47
386 405 233 105 86 65
253 878 287 128 99 74
386 404 237 109 88 65
413 933 217 79 64 52
400 784 185 104 77 45
381 451 275 57 25 27
385 412 226 100 83 66
280 353 282 112 91 69
303 978 277 65 62 62
352 897 203 78 72 71
387 413 232 102 83 62
386 414 227 99 82 64
386 415 224 96 81 65
388 413 237 107 85 60
385 403 242 116 92 65
386 405 241 114 91 64
385 406 244 121 95 65
429 538 192 189 8 59
385 408 248 128 100 67
386 409 246 124 97 65
368 616 189 84 25 29
387 413 247 124 96 65
393 423 197 99 75 61
430 534 178 61 27 30
387 420 202 109 89 71
319 903 309 149 117 88
389 421 202 102 83 66
369 910 276 69 61 56
389 421 207 94 76 62
382 478 266 169 13 52
393 423 202 88 67 54
393 422 207 81 62 52
426 891 279 85 71 60
398 427 197 85 60 50
340 826 164 66 55 51
396 425 203 79 58 48
373 878 197 74 66 64
329 539 284 96 22 36
397 425 207 72 52 44
268 703 337 169 116 89
399 427 207 70 49 41
387 419 212 89 76 64
298 608 191 54 34 37
385 416 217 99 85 72
262 457 314 71 28 33
387 418 217 95 81 67
441 497 201 168 7 53
389 421 212 75 64 55
392 424 216 70 61 54
385 416 222 95 82 68
387 418 222 92 79 66
389 422 222 83 71 59
398 428 217 66 47 41
398 432 223 71 61 52
319 858 197 51 46 48
406 430 195 75 43 39
408 431 197 73 37 35
342 373 297 141 96 74
402 430 202 73 43 37
451 435 149 111 21 21
402 429 207 68 38 32
409 431 194 74 39 37
413 431 197 75 32 33
404 433 217 79 37 34
386 558 280 167 120 93
404 723 257 41 29 34
364 634 200 65 36 39
402 430 220 74 47 41
408 433 202 71 34 33
408 435 206 71 33 32
407 723 241 139 35 48
408 437 208 73 33 32
248 923 302 184 143 123
406 435 211 73 35 33
372 618 286 52 30 34
333 590 175 43 38 40
403 844 227 152 98 78
405 436 212 76 36 34
343 528 148 108 26 37
391 760 149 68 52 44
407 438 212 78 34 32
394 907 208 72 60 53
257 708 262 132 9 39
405 436 217 86 35 34
406 439 217 87 33 33
284 845 292 48 37 35
406 439 222 98 28 33
249 733 277 82 25 39
407 441 213 81 33 32
408 938 207 106 89 75
269 763 333 169 118 85
304 683 208 72 35 38
408 443 217 84 27 30
408 444 222 84 24 32
408 447 223 77 22 31
413 438 217 69 29 28
251 933 261 58 53 53
264 423 306 93 21 35
415 435 216 67 29 29
411 442 222 57 21 26
313 679 315 51 27 30
387 418 227 97 80 62
403 898 222 82 72 69
388 418 232 102 82 59
378 798 147 93 71 55
388 418 237 106 84 58
390 422 237 105 83 58
392 424 237 101 81 58
258 408 267 84 71 57
340 778 149 83 64 53
396 430 233 83 68 54
272 618 221 66 30 35
408 568 167 116 24 42
393 493 255 59 22 31
283 613 336 154 117 89
398 432 232 73 61 50
271 406 304 116 93 67
396 429 237 81 66 50
399 432 237 72 59 48
229 553 282 169 0 48
404 593 202 143 16 45
392 424 242 102 81 56
390 422 247 112 87 61
358 813 271 178 127 106
387 419 252 128 100 70
258 753 336 175 123 96
334 388 308 154 109 86
386 420 256 118 92 68
389 422 252 111 88 63
392 424 252 87 70 53
388 422 257 92 74 55
360 444 292 166 18 53
403 608 217 88 48 35
394 426 242 90 73 53
268 873 313 143 92 99
395 426 247 86 69 50
417 848 185 88 69 62
290 308 301 132 97 74
399 432 242 63 54 44
400 431 246 59 52 44
286 683 220 132 3 35
403 887 237 72 62 58
395 426 252 75 61 45
458 433 162 108 35 40
252 579 314 94 29 39
395 426 257 66 54 41
326 259 292 115 92 66
440 510 188 190 8 58
336 818 170 62 53 50
398 427 257 66 54 42
401 430 249 64 52 41
276 922 221 64 59 58
343 373 287 124 86 64
401 430 252 68 57 43
403 433 252 72 35 33
402 435 232 64 58 51
404 438 232 80 43 36
406 439 227 110 23 37
316 911 186 101 90 83
406 440 230 109 28 35
257 788 251 77 62 56
407 444 227 84 21 33
299 935 325 35 33 35
272 814 240 82 63 53
406 443 232 89 22 34
308 673 208 57 34 36
408 448 227 64 22 29
233 583 272 175 0 48
268 613 222 159 15 44
405 441 234 77 15 30
405 442 238 99 14 34
407 448 237 50 23 27
313 952 229 91 86 89
414 438 227 49 21 24
340 313 281 112 86 59
414 438 232 49 22 23
241 776 280 151 109 76
413 443 237 50 20 23
411 447 238 46 20 24
405 438 242 127 20 43
404 438 247 136 16 45
402 438 257 151 17 48
404 443 247 122 7 38
403 448 247 120 2 38
310 837 224 50 44 46
405 443 242 115 12 37
227 548 277 168 0 47
407 449 240 65 23 29
402 443 252 134 8 42
401 443 256 144 5 44
331 859 290 161 127 100
402 448 252 129 2 40
412 448 242 38 25 25
236 747 311 159 113 85
388 698 197 54 37 37
414 444 241 33 23 26
281 279 276 126 92 64
323 948 317 63 55 51
416 431 199 79 29 32
259 580 200 131 9 39
288 976 272 67 63 63
413 483 252 108 27 43
423 428 197 83 28 35
419 430 202 83 28 32
420 430 207 83 29 33
423 429 207 84 28 34
428 426 197 86 30 36
259 531 174 143 7 36
353 929 312 70 59 57
428 426 202 87 28 35
285 399 315 124 99 73
433 424 202 92 31 40
253 893 316 185 138 120
433 423 207 90 29 37
460 474 149 175 13 54
331 407 306 137 95 72
333 628 302 95 24 37
325 760 174 45 38 34
418 432 212 76 31 32
385 739 289 193 5 62
250 725 272 145 6 40
418 433 217 64 28 30
418 433 222 53 25 26
439 483 217 49 30 32
231 569 246 44 34 33
423 428 222 61 29 29
420 430 222 54 28 28
417 837 217 143 92 71
374 615 190 88 35 42
433 422 212 90 29 34
427 426 212 83 28 34
262 944 236 70 65 66
429 425 212 86 28 33
426 426 221 72 28 30
295 889 238 71 62 58
416 436 222 52 23 26
242 803 327 179 124 96
438 423 197 98 39 44
438 423 202 96 37 43
353 638 199 89 28 31
438 421 207 94 32 40
403 700 200 91 71 48
448 423 202 104 38 45
435 420 217 97 26 35
348 298 268 99 75 52
438 420 213 100 26 36
435 420 222 94 25 33
438 420 222 106 24 37
387 898 306 78 63 49
408 513 247 172 5 54
442 420 213 102 26 37
443 420 217 113 25 39
448 423 212 72 27 36
448 423 217 100 21 38
446 420 218 118 24 41
446 420 222 135 24 45
263 524 170 106 21 36
447 433 222 169 7 52
447 448 207 166 11 50
283 778 322 155 110 78
449 433 212 156 12 47
274 623 335 149 110 82
445 435 224 177 9 55
263 563 187 67 32 39
445 439 218 170 5 54
408 898 237 74 65 58
435 438 244 151 13 47
446 436 221 171 5 53
447 443 212 163 5 52
346 353 297 134 91 69
403 788 246 155 109 76
298 628 312 76 46 41
448 443 207 148 16 47
438 419 227 100 26 37
446 443 215 165 3 52
446 448 212 164 8 52
445 449 213 164 8 51
443 448 222 166 10 52
420 430 227 55 27 26
296 521 315 126 13 42
353 453 282 139 17 45
418 433 232 58 26 24
420 430 231 61 25 24
422 427 227 62 28 27
263 773 336 168 119 86
301 612 330 168 120 92
334 504 309 135 84 71
424 428 237 63 21 24
421 431 234 69 19 19
286 625 210 42 26 33
421 432 238 76 9 26
428 423 227 73 29 30
289 303 273 104 81 57
369 869 190 73 63 61
433 419 232 72 26 30
283 763 221 87 30 39
341 415 300 70 46 38
427 423 237 59 26 28
429 419 237 59 26 28
330 272 297 121 96 67
276 751 330 174 120 92
433 418 237 64 26 29
258 778 247 72 59 52
425 425 224 70 28 28
425 425 236 59 25 26
357 773 143 88 66 53
426 426 239 52 25 27
425 429 241 71 18 27
364 368 263 130 95 67
428 423 242 68 25 30
252 538 313 46 26 28
433 418 242 58 26 30
373 578 168 185 8 39
433 423 244 58 28 32
402 919 211 85 68 56
343 882 167 100 87 81
384 829 172 65 53 48
427 428 243 76 19 32
341 936 312 70 58 51
349 412 282 48 39 32
426 432 244 119 3 36
428 433 245 135 15 41
420 435 240 79 0 23
240 596 285 68 15 27
422 437 243 104 3 29
390 544 254 89 22 37
417 442 243 54 21 25
424 818 227 180 125 95
378 613 267 129 14 42
419 444 246 67 21 31
423 448 249 64 28 32
428 438 246 133 15 42
349 838 262 155 119 99
428 443 247 96 23 38
427 683 198 139 100 68
250 943 259 60 58 59
433 443 246 155 17 51
428 448 248 84 30 37
434 420 227 86 25 32
255 627 248 190 9 49
393 888 306 62 51 45
438 419 232 91 27 36
241 813 322 186 130 103
402 718 247 106 17 41
443 419 227 121 29 44
277 378 298 123 98 70
448 423 227 136 25 48
260 690 299 81 65 49
443 419 237 95 28 39
446 420 237 113 28 44
447 428 227 160 15 48
446 432 227 175 11 54
376 613 271 129 21 44
446 427 236 177 15 54
273 263 287 145 102 74
325 256 287 112 89 63
445 429 238 173 11 55
445 430 234 176 10 55
393 894 206 78 64 58
438 419 242 60 28 31
270 909 320 87 78 77
438 428 244 108 22 40
284 957 234 84 80 83
438 433 243 156 16 48
436 429 245 119 24 47
436 432 245 146 17 47
254 632 257 66 26 38
293 723 323 150 30 51
284 566 169 65 34 37
443 423 242 84 27 39
446 422 240 83 28 40
440 444 237 118 21 42
339 544 155 47 33 38
438 448 237 73 31 39
443 438 232 174 13 53
353 443 308 104 27 40
444 438 227 175 11 54
287 668 327 170 114 88
316 408 320 153 109 79
445 434 227 182 10 57
330 887 294 139 114 92
442 438 237 173 10 53
356 469 286 132 98 84
431 743 203 141 97 66
442 448 227 160 15 49
441 447 231 171 21 55
440 440 239 173 12 55
440 445 234 59 28 29
440 448 232 143 21 48
250 623 262 113 28 45
435 435 244 149 14 48
307 313 261 92 76 59
313 798 304 84 65 55
407 884 247 65 54 48
438 438 243 163 12 52
300 450 329 88 34 43
348 638 199 82 32 36
435 444 244 155 20 54
435 449 243 93 27 40
412 908 231 84 74 65
438 443 242 160 18 53
452 425 188 72 29 36
441 437 240 175 8 56
328 607 184 71 36 37
342 802 285 179 123 101
300 899 198 58 55 57
388 487 129 146 7 35
368 463 274 150 14 48
387 489 130 161 11 43
390 492 129 151 2 33
391 495 130 151 0 37
359 880 281 34 32 31
388 503 132 106 20 37
251 656 329 132 92 72
392 499 130 154 3 33
256 412 261 66 54 50
410 580 192 46 30 38
393 503 131 161 3 34
262 960 265 83 76 76
325 738 324 177 12 55
393 508 132 97 24 38
378 823 152 96 77 66
351 717 131 88 67 53
251 944 298 163 117 98
328 903 192 84 80 80
299 569 330 146 111 87
389 512 134 73 34 35
398 502 129 164 2 34
397 504 130 160 4 37
398 513 133 57 37 38
418 842 185 104 83 67
272 513 320 52 24 30
288 878 321 156 122 92
403 503 129 123 11 35
278 848 252 174 125 97
403 506 129 67 24 32
362 442 293 171 15 53
312 913 177 82 71 64
403 508 130 58 37 38
403 513 132 68 36 37
408 507 129 151 16 40
262 918 247 59 55 58
408 509 130 58 33 38
421 625 224 130 101 67
408 513 132 72 27 38
270 592 203 172 4 40
307 603 312 111 48 48
418 507 129 175 8 39
319 576 169 188 7 44
423 508 129 177 12 39
423 513 131 171 11 37
442 512 133 131 28 42
249 778 258 74 60 54
395 648 213 80 57 40
428 513 131 96 24 37
285 349 273 102 85 68
438 509 131 124 20 33
438 513 133 47 32 36
442 506 129 161 26 44
366 782 280 85 65 58
448 508 137 149 26 48
446 511 139 52 13 31
283 902 231 88 62 50
378 823 253 77 60 53
265 588 311 81 21 35
446 512 142 136 28 50
313 298 314 135 101 72
394 558 247 65 27 34
294 313 305 134 102 77
388 448 273 60 28 32
448 498 157 98 27 42
445 503 159 133 22 47
448 503 157 93 22 37
446 512 147 139 17 47
225 541 275 108 5 36
401 737 267 81 30 40
447 508 156 89 20 33
398 893 297 69 55 44
445 509 158 122 24 38
275 898 325 191 138 124
359 793 279 74 58 52
446 511 155 163 27 47
308 333 315 133 102 74
431 678 220 159 109 78
447 493 162 89 27 38
334 773 158 61 50 46
447 493 167 156 24 50
445 495 163 114 17 45
303 793 217 79 62 53
447 493 172 193 7 59
447 493 177 190 4 59
293 573 172 93 28 38
395 647 232 73 30 20
447 493 182 186 6 57
330 945 230 79 72 71
447 493 187 183 4 58
446 492 192 175 5 54
445 494 193 174 6 55
439 508 167 172 16 53
440 509 164 172 12 56
440 513 163 166 14 52
413 857 222 77 60 55
439 508 172 149 14 45
292 358 309 121 96 69
308 683 317 55 31 35
437 513 172 111 20 39
438 513 177 86 26 39
444 498 162 152 15 45
429 798 222 175 120 86
378 713 142 79 59 43
353 498 302 140 102 80
444 498 167 179 14 50
443 503 162 168 14 51
260 653 267 176 1 49
423 715 183 130 98 65
441 503 167 143 15 44
326 946 316 62 54 49
446 497 160 108 17 37
444 498 172 192 9 58
263 888 317 128 94 74
273 953 237 70 66 69
241 589 293 154 16 48
442 503 172 179 13 53
443 503 177 191 10 58
443 508 162 168 15 52
440 505 168 132 15 39
359 889 307 36 33 32
441 507 177 193 13 56
445 499 182 187 1 60
334 723 318 162 0 51
276 377 260 101 86 71
446 496 182 186 1 59
444 498 192 176 3 56
308 593 181 172 6 39
443 503 187 186 3 59
373 893 217 64 55 51
446 496 186 186 2 60
439 513 182 109 20 41
297 328 308 132 102 75
271 774 235 69 56 49
442 508 187 189 8 58
410 825 186 122 80 59
441 511 186 191 12 57
399 458 257 145 5 46
400 463 252 133 8 43
399 468 252 125 14 39
349 929 297 55 48 47
397 468 257 148 15 47
278 482 325 170 15 54
398 473 252 132 16 42
245 533 305 156 16 49
396 473 256 148 16 47
396 477 255 145 15 45
408 453 227 55 24 27
352 275 260 103 80 53
407 453 232 47 24 26
419 554 162 63 30 40
405 460 234 42 26 24
407 458 237 43 25 24
405 463 237 42 26 25
409 453 241 52 20 24
399 453 257 143 3 43
285 448 330 110 27 43
376 742 144 73 55 44
403 458 247 115 7 36
405 458 243 60 21 29
408 458 242 44 24 24
406 462 242 37 25 27
408 463 247 37 26 27
414 778 158 90 66 51
401 457 251 127 2 39
421 905 275 99 78 66
401 462 250 129 9 41
234 558 287 156 3 46
413 453 246 38 25 26
409 458 246 36 24 26
412 462 249 34 26 27
403 468 247 59 23 30
254 884 307 124 89 73
407 467 248 50 24 30
272 553 172 82 25 37
422 886 295 83 66 58
409 468 251 67 24 31
287 648 336 162 112 81
407 477 254 46 28 29
298 648 213 124 15 34
409 479 255 56 30 34
413 473 254 95 25 38
326 393 315 151 107 82
413 478 253 80 27 36
323 718 328 156 14 50
411 479 255 92 43 48
339 383 302 150 103 80
388 493 258 141 18 46
393 483 257 154 12 49
395 480 254 136 12 43
244 588 302 135 15 43
283 813 326 169 127 96
293 673 216 108 24 34
395 484 254 140 15 45
392 488 256 143 16 46
251 900 294 136 94 84
364 343 258 127 93 62
394 488 254 114 19 40
398 493 256 44 25 27
400 489 255 42 26 28
388 498 257 79 25 36
283 883 323 140 109 80
401 486 254 50 24 26
404 484 255 61 28 31
236 794 297 187 130 99
411 481 255 92 41 41
459 473 157 69 30 36
236 783 287 159 114 79
470 459 138 63 20 33
331 817 280 175 115 96
301 876 240 94 77 59
413 488 252 147 18 50
412 493 251 169 11 53
415 510 239 56 26 34
407 848 202 90 71 63
406 497 255 168 14 51
407 503 252 172 8 54
293 793 316 136 100 74
405 500 254 170 13 53
405 504 254 170 12 53
272 533 162 53 33 36
343 738 157 53 46 40
343 298 307 113 90 65
398 508 257 155 17 49
398 513 257 135 16 46
262 610 226 194 11 51
339 873 273 135 108 85
403 513 252 174 7 55
303 418 322 129 96 69
401 512 255 173 11 56
376 498 265 103 23 38
409 508 248 172 9 54
338 886 284 45 39 36
292 644 215 124 27 45
406 512 250 170 2 53
278 573 177 92 29 37
413 498 247 174 9 55
415 500 244 172 12 55
414 503 243 159 23 56
411 497 250 173 10 54
412 513 241 154 16 50
252 948 257 73 68 68
400 898 211 77 68 64
225 547 237 175 0 45
285 292 274 123 90 68
347 859 159 125 100 87
413 508 242 97 23 39
270 698 234 65 32 36
447 453 207 163 9 51
340 384 284 116 80 61
446 458 207 169 8 52
236 518 299 153 10 46
