ply
format ascii 1.0
comment Created by Open3D
element vertex 2222
property double x
property double y
property double z
property uchar red
property uchar green
property uchar blue
end_header
152 494 188 74 56 37
311 78 244 102 11 36
187 748 243 154 108 75
375 824 256 76 60 53
333 454 323 44 31 24
232 293 263 119 90 64
248 938 273 84 74 73
273 293 253 93 78 63
309 53 248 97 19 32
151 495 192 73 58 39
393 874 307 81 68 63
347 183 257 119 96 70
275 975 318 74 70 73
241 283 295 120 94 69
363 603 243 76 33 41
324 707 213 73 37 39
288 892 378 35 34 36
154 488 179 71 50 30
158 493 179 70 51 33
369 703 273 84 67 57
173 498 173 114 78 67
153 498 167 186 122 99
488 503 288 181 121 102
302 416 207 88 73 57
147 499 171 170 114 85
273 743 221 64 36 39
230 496 164 79 30 33
323 868 393 49 41 35
234 488 144 97 33 43
148 503 173 174 117 90
298 892 368 34 34 36
309 403 292 121 84 69
150 501 170 177 119 90
149 507 174 175 116 91
210 463 225 122 4 35
258 899 366 72 62 53
318 419 198 91 76 60
154 513 174 175 115 90
154 506 170 178 118 93
480 504 272 184 124 103
257 889 361 87 71 55
373 793 311 159 121 94
306 734 202 57 46 42
300 373 253 65 59 47
158 509 171 174 118 93
402 708 259 128 92 60
225 393 293 121 96 69
202 503 238 48 30 35
321 133 228 113 88 60
403 442 308 84 19 34
222 416 203 113 30 36
204 649 241 116 88 71
268 573 193 173 22 47
456 824 428 94 75 54
355 367 285 119 94 64
268 298 251 88 76 64
153 498 193 73 55 36
196 676 245 138 107 83
147 508 177 178 120 96
290 417 263 73 56 41
368 707 279 85 58 49
267 128 248 123 93 61
145 512 184 185 125 102
327 420 203 91 76 59
273 22 301 119 87 67
278 828 303 148 114 91
333 778 208 66 52 47
318 24 279 133 51 59
334 858 428 61 48 38
152 514 176 174 114 89
345 433 198 103 24 32
341 860 411 52 41 33
224 598 234 163 7 43
159 497 180 70 51 33
301 308 253 78 67 55
208 413 273 62 57 46
366 608 308 170 15 53
314 910 281 68 61 64
256 535 166 169 16 48
313 882 258 71 63 63
204 629 201 151 106 71
233 478 138 164 7 40
281 81 255 138 12 46
155 501 190 74 56 36
157 499 187 72 54 34
263 168 279 115 92 65
305 538 341 54 27 33
264 441 116 89 76 59
401 689 291 158 114 83
318 831 301 109 81 68
243 442 321 100 29 42
302 308 263 91 79 66
388 573 278 138 13 39
328 423 305 117 88 66
166 468 165 104 76 53
157 504 192 73 52 34
183 588 218 112 87 68
350 168 248 119 96 70
287 338 268 103 75 64
319 268 272 110 88 63
333 714 208 64 49 43
184 798 258 172 122 92
243 508 309 72 26 34
351 23 253 121 30 45
210 826 245 207 135 106
178 473 160 132 95 73
403 478 378 142 26 51
392 753 297 168 118 89
231 509 176 132 21 40
352 223 224 125 98 64
233 964 333 56 53 54
177 478 160 144 100 82
268 903 243 88 76 74
166 454 169 117 83 72
163 453 173 127 84 79
358 218 243 118 95 69
233 283 258 113 87 58
330 867 300 37 35 36
176 487 163 161 103 96
287 608 337 38 29 31
335 677 325 145 9 47
221 450 136 48 39 39
212 473 218 116 5 35
348 553 204 169 6 38
201 416 268 34 31 35
166 450 172 121 85 77
253 398 316 141 105 80
300 338 254 70 60 49
324 814 310 54 46 43
312 886 405 47 40 36
348 438 313 72 53 40
199 443 273 132 0 39
299 917 380 48 42 40
428 574 274 111 84 51
312 857 223 72 59 54
173 483 160 154 101 86
261 70 210 146 22 36
379 593 278 107 18 34
167 453 172 122 84 76
253 273 300 119 94 68
215 582 235 34 29 35
225 395 296 122 96 67
248 399 224 96 83 70
395 555 281 36 30 27
197 483 253 57 30 34
163 459 165 109 89 66
273 804 226 70 56 50
163 508 169 181 121 97
163 463 164 112 92 70
424 779 239 103 75 59
193 617 195 161 111 77
284 663 235 100 20 28
378 870 370 62 53 49
200 463 281 96 18 35
183 603 191 162 112 78
166 463 165 111 89 65
314 775 199 86 66 55
234 383 307 125 98 70
223 388 258 112 91 68
232 278 258 115 88 58
268 138 258 106 83 56
269 84 228 133 35 45
418 433 303 49 25 28
269 403 309 128 94 72
312 458 358 61 24 28
243 426 158 108 63 48
163 463 172 109 70 65
203 578 263 167 0 47
445 549 296 124 88 73
375 500 354 109 8 30
226 483 177 56 32 31
259 68 272 111 47 53
165 464 170 100 59 58
298 798 204 95 72 49
326 239 221 132 101 62
373 773 308 137 101 71
379 474 333 63 19 27
166 473 164 113 75 55
287 318 263 100 77 57
438 897 338 88 74 65
263 793 223 73 59 52
210 583 244 137 11 42
242 333 299 120 94 66
141 480 196 103 69 55
169 479 163 114 77 56
272 262 250 108 85 59
228 473 173 52 34 35
163 478 172 75 49 36
270 114 264 125 92 66
280 313 305 112 83 56
206 908 323 147 120 106
325 168 220 128 99 63
270 118 258 117 85 61
287 869 322 67 58 49
396 557 284 73 27 36
357 273 234 143 100 65
329 93 194 139 30 41
313 48 233 96 36 34
340 95 196 150 22 45
178 465 162 121 89 68
351 54 224 119 26 42
193 663 211 137 95 60
351 561 210 69 22 32
212 639 236 84 53 40
229 338 273 119 94 66
211 629 210 122 90 63
178 468 163 121 88 69
178 473 163 123 86 70
280 875 220 108 93 83
176 482 160 160 102 92
228 814 231 164 115 89
230 752 316 56 30 33
333 293 230 133 101 67
254 318 307 121 90 64
333 603 337 145 16 45
349 423 222 130 41 30
163 483 164 154 110 91
395 773 247 96 72 55
163 488 164 143 108 82
313 308 238 94 81 68
168 483 168 103 74 56
264 606 220 188 12 47
333 467 391 186 18 61
206 554 242 97 28 42
393 653 258 104 79 49
168 488 163 113 81 61
237 502 311 119 21 43
226 488 176 58 34 34
343 13 278 122 50 64
163 483 173 73 51 32
285 393 290 114 78 59
165 486 175 74 51 34
273 178 253 115 91 62
378 573 294 135 20 46
224 410 238 92 80 68
174 488 168 93 61 48
338 303 231 127 98 62
172 489 171 75 54 35
200 443 253 129 0 38
417 498 278 128 14 33
172 493 173 81 56 41
487 882 318 91 81 72
199 458 263 114 7 36
263 208 287 117 94 68
234 358 298 119 94 66
288 438 293 59 46 30
163 488 177 72 53 35
278 599 212 72 34 39
362 398 288 114 91 65
407 788 256 96 78 62
334 453 172 137 0 32
243 895 366 123 104 88
345 811 311 45 39 38
167 493 177 73 51 33
207 918 328 173 132 111
398 728 293 173 117 90
417 493 291 97 16 36
204 592 263 105 32 44
400 500 257 144 18 42
256 502 310 40 24 25
163 498 165 167 114 93
268 348 247 85 74 64
209 763 288 169 128 99
418 862 412 69 54 42
230 313 281 124 98 69
345 630 330 184 16 59
162 500 166 183 120 101
228 420 317 79 48 37
243 398 315 136 103 75
168 498 164 153 100 79
164 501 165 189 127 110
258 853 338 111 91 70
349 188 222 123 96 62
424 623 261 153 109 73
500 854 322 104 87 72
235 491 145 104 34 38
168 504 167 193 126 111
287 398 268 88 62 47
293 19 303 176 127 108
243 422 173 121 57 50
352 882 414 75 65 58
168 508 169 191 127 109
375 802 310 154 118 93
258 419 188 94 80 65
293 613 332 49 29 32
328 13 289 146 51 69
444 824 423 80 63 48
323 421 193 90 75 60
168 513 172 192 130 110
158 528 199 138 103 87
384 548 237 119 23 42
173 503 168 189 126 117
321 442 154 149 3 37
175 503 173 160 112 105
237 830 241 85 68 64
172 507 169 194 131 118
398 543 291 83 21 36
217 408 258 69 60 52
314 223 257 109 87 63
468 503 288 82 65 44
401 482 360 57 27 33
302 23 288 151 31 59
405 763 268 108 76 51
299 498 161 132 17 38
186 767 254 154 113 80
173 513 173 194 135 122
278 699 336 50 26 31
234 403 234 96 81 66
331 83 251 108 43 49
285 960 345 49 46 47
217 448 143 170 5 45
202 783 279 162 124 94
336 488 348 139 15 46
279 318 251 84 73 61
303 393 228 89 71 49
250 658 321 153 16 49
474 513 303 175 122 100
398 421 278 84 29 30
233 298 263 117 91 65
346 741 336 61 22 32
163 498 179 71 56 38
411 518 283 104 23 36
480 504 300 133 81 71
210 504 220 130 4 37
356 343 249 121 96 67
161 500 181 72 57 40
323 592 214 193 10 44
371 601 255 165 40 66
163 503 183 73 58 41
490 485 266 191 136 118
211 468 300 129 22 46
168 498 177 71 55 39
333 768 329 70 58 53
221 444 164 126 8 39
283 10 302 127 52 47
280 296 293 105 81 51
263 283 303 102 82 62
424 618 261 148 107 70
163 507 188 72 56 37
408 458 248 114 22 39
160 506 190 74 53 34
251 843 283 163 115 88
365 416 288 69 59 50
305 298 267 85 70 56
221 429 192 146 0 38
392 714 233 92 71 59
384 513 227 140 5 33
258 328 249 83 73 63
306 322 284 80 61 46
138 478 196 131 92 80
168 508 187 74 60 44
263 163 243 124 94 57
326 458 310 93 69 53
320 870 251 76 65 64
200 478 278 135 6 40
313 728 199 78 60 49
294 894 402 50 42 36
313 464 333 76 20 30
166 510 191 73 57 38
168 513 192 77 58 37
364 865 380 53 48 46
175 508 178 147 102 94
201 418 278 136 3 40
235 335 260 112 92 70
268 263 249 103 82 59
175 513 183 136 89 82
235 501 155 52 39 42
171 509 186 78 58 39
226 373 283 123 97 68
173 513 188 88 62 45
284 863 233 54 48 49
323 438 304 120 89 69
225 451 179 98 34 44
210 488 296 145 10 45
220 420 194 129 18 40
176 487 166 131 82 75
139 483 197 137 96 83
215 572 230 35 31 37
234 683 253 58 31 37
240 318 296 128 98 71
229 328 278 125 97 69
263 83 273 104 82 64
441 745 240 106 88 69
142 498 200 139 103 92
263 518 319 136 11 43
303 348 288 94 65 49
199 528 273 157 0 43
265 208 285 116 93 67
214 443 218 127 3 36
142 503 199 164 118 106
146 490 196 76 52 36
304 343 239 74 64 53
214 448 218 126 2 37
382 462 314 56 22 24
147 499 201 110 87 74
318 612 225 50 37 41
259 338 312 134 97 70
188 663 211 167 114 79
258 977 313 57 54 54
293 473 343 59 27 29
150 501 200 98 77 62
167 549 181 172 115 89
291 42 260 152 41 59
322 762 200 78 59 45
145 508 201 149 117 104
350 668 261 93 27 30
310 223 243 107 87 66
360 263 255 126 96 61
351 60 214 118 26 36
376 438 220 49 36 41
350 227 221 129 100 63
148 508 202 131 105 94
343 33 229 109 94 79
397 548 278 65 28 33
200 468 244 81 26 37
153 508 202 100 77 67
206 463 232 127 3 36
345 604 231 40 35 41
380 498 372 123 18 43
338 553 329 117 23 42
368 877 358 61 55 51
153 513 202 114 87 78
285 666 235 99 23 30
338 163 259 116 94 69
158 513 199 89 61 51
318 653 332 36 29 33
215 439 144 177 5 51
263 248 244 112 89 62
323 368 231 90 78 67
224 430 153 138 27 42
387 516 371 104 26 43
357 403 234 97 83 70
408 438 389 102 26 36
266 194 281 116 92 65
265 548 331 120 20 41
220 430 159 153 16 42
252 515 151 72 39 34
338 143 217 129 100 64
340 428 182 41 41 43
418 448 302 62 23 32
348 891 283 80 68 70
407 683 264 137 96 63
316 453 300 123 92 73
218 433 153 166 11 50
492 493 292 157 111 95
225 874 295 144 110 79
215 442 143 164 7 47
303 423 285 105 75 59
220 439 134 117 37 44
233 417 314 104 77 58
220 448 204 56 26 29
333 19 284 149 104 91
323 52 261 129 100 77
296 472 149 137 23 42
236 268 290 124 96 70
337 607 340 146 17 45
347 93 233 115 29 44
250 283 301 118 93 66
350 62 208 118 37 43
260 835 301 125 97 74
223 438 133 105 29 31
287 853 228 68 57 54
409 858 264 87 79 75
225 261 266 125 96 65
418 478 277 109 13 35
444 588 283 182 123 96
212 513 299 64 28 34
353 478 204 97 19 29
323 67 256 114 36 46
224 435 139 100 28 21
223 434 143 116 26 31
276 879 341 63 54 44
277 491 306 37 24 25
253 333 308 126 94 67
172 544 201 92 69 52
295 867 310 64 55 47
219 448 208 71 19 32
225 261 264 125 96 64
333 443 348 75 20 28
328 223 269 114 92 67
208 673 214 143 96 65
204 802 230 176 117 86
294 441 131 73 58 54
306 936 351 64 58 57
315 179 242 101 81 59
230 546 195 167 2 37
231 960 345 53 48 49
222 437 138 106 22 29
220 443 134 77 33 40
363 788 314 162 119 90
268 428 309 81 64 46
222 443 132 59 38 40
300 449 136 77 35 40
431 577 290 122 84 71
223 448 133 66 35 39
300 323 249 70 60 49
220 447 135 54 36 36
333 12 243 86 72 61
221 927 364 59 49 47
216 444 142 170 4 49
238 573 208 81 30 39
219 448 138 82 30 37
359 614 247 97 30 40
343 418 218 91 71 55
215 442 147 171 7 48
226 666 271 114 35 49
313 528 175 111 17 36
216 437 147 188 6 49
203 703 216 149 102 65
200 603 196 141 101 72
395 808 294 161 110 84
484 509 294 184 121 108
279 268 263 106 84 60
308 598 330 50 30 33
258 378 315 140 104 74
216 438 153 160 5 45
218 443 153 146 8 45
347 59 204 96 50 28
244 404 224 95 81 66
403 873 303 76 63 57
227 463 178 45 33 35
331 446 310 107 80 59
387 823 302 159 113 89
219 443 158 58 23 31
373 895 321 62 54 51
346 51 246 135 16 48
222 449 158 41 30 32
233 463 131 152 0 34
318 18 293 170 114 112
346 771 326 74 61 54
309 18 254 100 31 31
372 813 244 61 48 43
162 521 175 176 120 93
328 223 219 131 100 61
223 424 173 143 13 37
220 429 163 157 6 42
265 877 270 135 104 80
216 503 304 80 25 36
348 888 418 58 47 39
349 413 305 102 82 60
226 366 275 124 98 69
402 788 278 132 87 60
368 882 388 59 49 53
219 428 168 151 5 41
208 413 278 60 57 47
483 874 322 96 80 67
258 458 312 48 24 26
352 263 267 128 99 63
223 427 163 143 20 38
202 613 199 144 102 72
227 503 183 146 11 40
305 630 336 36 30 31
224 425 168 144 16 36
241 642 315 105 29 44
220 433 173 154 0 40
200 460 245 29 31 34
223 422 178 139 10 38
226 258 269 123 96 66
268 213 283 117 93 65
332 513 184 147 1 35
338 308 288 122 89 59
350 44 240 107 48 46
347 158 251 117 93 67
218 523 308 63 25 32
258 228 293 119 95 69
222 673 228 88 63 44
228 468 153 95 24 39
243 430 144 89 68 47
311 203 243 106 86 66
243 584 212 152 19 42
219 424 183 128 7 36
192 589 217 90 67 49
224 420 183 127 23 39
198 463 263 68 21 34
223 419 188 125 19 37
333 862 397 61 51 42
206 508 227 131 5 39
220 423 193 126 9 38
349 163 248 118 95 69
219 428 183 136 8 39
280 278 278 109 84 57
300 398 238 97 75 52
380 830 271 162 102 78
209 592 291 39 27 30
403 743 243 83 63 50
248 430 144 90 72 52
224 673 269 84 24 34
220 433 178 155 0 40
360 242 236 124 98 66
219 433 183 154 0 40
203 653 242 123 94 77
221 430 190 140 0 35
324 702 241 67 30 45
343 603 343 149 17 47
273 24 300 121 52 54
329 208 267 114 92 69
346 21 276 110 59 51
207 493 293 138 10 42
221 433 193 147 0 40
313 853 228 65 56 56
229 409 233 94 81 68
221 483 191 67 32 34
373 417 263 71 64 56
220 437 168 154 1 42
318 593 213 194 9 44
220 442 162 120 8 38
321 393 300 129 94 72
238 508 158 164 15 46
226 473 182 49 35 36
270 100 270 130 100 75
228 762 221 101 73 44
223 448 163 57 24 32
321 98 217 89 62 43
412 423 243 78 29 25
348 828 242 86 68 63
222 443 173 42 33 35
303 698 203 85 50 46
228 430 149 114 50 42
495 854 305 118 95 70
258 53 218 98 62 44
248 883 362 132 98 80
222 438 183 95 19 35
331 496 351 33 25 29
382 533 349 170 14 52
221 392 274 116 93 68
221 435 184 143 0 45
220 394 272 111 90 66
278 43 283 130 99 78
383 548 358 84 23 38
351 76 207 143 34 54
468 508 262 190 129 111
223 443 183 74 27 34
415 436 383 61 23 28
318 638 334 121 31 49
243 493 139 130 23 44
428 589 268 139 104 69
163 538 200 129 98 79
312 348 235 84 74 64
217 448 213 114 10 37
224 448 183 96 23 36
350 683 315 91 28 40
337 443 173 121 16 33
223 443 193 140 3 37
234 430 144 96 60 43
200 453 253 128 1 37
388 872 375 60 49 46
258 13 288 87 41 41
414 463 233 115 27 39
238 432 138 86 65 42
308 613 331 76 26 36
283 11 266 103 77 61
238 431 141 87 65 42
300 318 258 80 68 56
222 438 198 138 1 39
253 698 233 58 31 36
316 452 353 71 17 28
354 422 226 129 36 24
231 373 298 124 97 69
446 836 410 100 83 69
261 59 275 110 86 70
251 323 305 118 90 62
242 403 227 94 81 68
400 739 289 173 115 87
315 63 219 105 39 43
238 430 144 89 65 43
271 103 235 123 31 35
392 628 273 82 58 36
227 431 147 111 50 37
263 718 338 177 11 56
283 808 307 170 123 104
273 10 278 95 70 60
230 385 301 124 96 68
304 708 208 77 54 43
228 428 153 127 44 41
228 427 158 137 33 40
345 34 260 118 59 56
382 593 283 115 20 35
353 910 343 59 50 48
316 182 231 108 86 60
342 143 219 120 96 67
286 303 268 104 85 65
233 425 159 134 45 44
263 348 313 141 101 75
319 168 248 105 84 61
423 488 283 128 21 36
228 438 133 88 46 35
285 846 310 112 91 69
346 213 220 127 99 63
241 955 360 61 56 57
309 63 248 109 28 42
233 437 132 77 56 38
343 898 293 70 62 62
227 436 136 84 49 34
206 580 295 112 29 43
423 488 288 138 20 44
319 448 157 167 6 40
324 388 301 130 95 74
220 415 306 64 49 38
439 603 283 177 121 93
233 433 138 84 60 39
295 802 210 69 56 48
203 648 240 120 93 76
243 488 312 131 16 43
276 218 268 117 92 64
328 648 328 116 30 46
226 448 131 104 38 49
357 223 253 117 93 66
318 73 253 107 51 51
200 448 278 144 0 43
383 533 298 132 3 40
401 728 291 176 117 90
406 703 286 176 119 91
280 79 252 128 37 48
341 450 345 117 6 35
243 431 142 88 69 49
253 432 138 92 74 54
385 564 267 76 28 35
406 441 260 61 25 33
266 613 325 98 16 36
258 363 242 88 78 69
270 470 131 41 36 34
258 898 263 53 49 51
228 273 278 132 98 72
400 733 290 175 117 88
253 430 144 92 74 54
301 956 332 63 59 59
248 429 148 92 71 51
348 158 228 116 95 71
382 448 224 61 39 40
424 628 262 155 109 74
260 84 216 149 17 41
308 859 223 77 63 56
171 618 208 164 113 83
283 588 332 42 28 30
248 428 153 95 69 49
489 499 283 182 121 103
253 537 169 202 13 47
200 433 278 113 10 38
261 168 240 131 100 61
288 487 303 59 19 26
405 464 357 127 30 47
208 418 233 67 34 38
313 63 253 115 83 69
353 218 224 124 98 66
197 478 258 41 26 32
378 724 224 96 72 48
248 426 158 103 66 49
330 533 186 155 1 34
228 348 278 126 98 71
344 398 227 99 83 66
212 682 215 140 95 64
240 435 130 88 66 36
279 78 269 121 27 47
248 433 133 90 72 50
217 713 268 60 28 34
268 697 335 148 19 47
253 435 129 91 74 54
273 248 249 112 88 60
343 803 232 60 49 46
338 233 218 131 99 60
474 499 298 110 80 65
253 433 133 91 74 54
186 788 264 164 123 92
228 423 168 137 30 39
249 293 302 120 92 65
228 913 288 69 60 56
233 421 173 131 42 43
198 618 229 107 79 62
232 368 298 124 97 68
193 633 233 140 108 88
268 148 253 110 87 61
278 838 239 85 63 56
281 280 268 104 84 61
358 819 310 138 107 85
420 616 261 138 101 67
298 813 309 154 109 91
305 465 359 87 20 31
233 424 163 130 47 42
327 448 369 97 8 30
297 922 269 76 69 71
238 423 168 127 53 46
350 168 228 120 97 70
343 743 338 66 28 36
204 498 233 97 23 36
232 503 168 167 12 45
370 573 323 57 28 34
303 764 330 66 56 53
321 491 170 42 37 40
282 956 290 80 74 76
211 468 222 122 5 37
268 592 209 185 7 43
333 906 408 80 73 69
238 424 163 127 55 48
395 469 352 36 24 26
228 420 178 125 37 40
316 27 242 70 39 30
233 421 176 125 45 44
382 472 333 58 22 27
233 416 192 104 54 49
358 873 408 52 43 37
210 493 296 143 10 43
336 60 190 94 38 20
288 678 237 99 26 32
321 62 197 78 31 27
415 433 240 60 29 32
238 420 178 122 52 47
308 388 233 87 74 61
210 488 220 129 7 37
222 533 198 164 17 42
413 499 290 141 14 46
238 416 193 103 63 55
229 612 240 118 19 40
168 573 208 139 103 80
208 412 253 53 44 41
299 403 238 94 73 50
391 501 376 53 29 25
263 919 395 58 52 49
275 90 241 124 54 53
340 663 320 128 18 44
221 392 262 112 91 67
224 448 193 132 2 37
295 755 220 69 48 51
275 875 244 50 46 49
342 263 277 125 96 63
243 423 168 121 58 50
257 298 250 78 67 56
248 424 168 116 60 51
220 693 245 83 63 48
323 418 203 91 76 60
310 43 243 82 45 37
233 363 298 121 96 66
302 10 275 114 38 28
343 353 234 104 88 70
248 422 173 113 62 52
264 857 339 104 85 64
383 419 258 74 63 56
187 778 263 158 117 87
348 178 223 120 96 68
242 425 160 117 59 49
338 423 203 109 48 41
243 425 163 120 58 49
363 910 348 64 56 54
351 27 257 112 39 44
266 775 315 63 52 51
224 453 163 60 29 31
322 912 382 55 48 45
284 368 248 74 64 54
358 588 349 159 19 50
253 424 168 106 65 51
281 48 249 124 23 28
319 653 241 37 33 41
268 958 358 77 75 77
209 438 293 52 28 31
212 428 223 83 20 37
253 426 162 100 68 51
241 686 320 67 28 34
400 505 231 153 16 41
248 418 188 99 74 60
391 773 301 159 117 87
341 673 250 58 30 33
296 783 203 69 58 50
477 512 274 196 131 108
248 416 193 96 77 63
442 538 278 107 72 50
408 433 248 83 23 33
348 253 222 138 101 61
342 468 183 100 18 34
253 420 183 97 74 59
302 303 258 92 82 73
351 54 226 125 32 48
231 479 153 123 21 45
190 679 241 141 107 80
338 543 193 166 5 38
217 518 203 53 37 39
253 421 178 101 69 56
439 843 402 104 81 64
273 348 249 80 70 61
343 433 188 49 33 36
252 420 180 100 71 57
371 543 319 39 28 32
353 897 403 86 74 70
214 428 308 101 21 37
253 418 188 95 78 63
335 829 241 67 57 55
266 875 351 75 64 53
207 478 293 141 9 41
253 417 193 95 80 66
224 415 204 113 29 37
223 414 208 117 31 37
198 773 273 144 113 82
287 398 263 87 64 48
243 423 319 102 78 57
396 622 278 99 67 50
287 383 278 99 68 52
215 415 219 129 35 43
452 518 278 102 78 50
242 263 294 122 96 69
338 38 262 132 17 48
223 458 153 133 12 42
214 414 223 99 38 36
403 468 303 43 24 29
223 414 213 117 37 39
343 218 218 129 99 61
318 388 299 130 94 74
336 328 291 124 90 62
273 34 250 72 44 37
208 414 238 60 36 39
341 762 210 69 55 50
288 348 268 99 73 58
205 415 244 41 37 39
203 414 253 48 34 34
352 488 318 31 22 23
258 323 249 84 74 63
271 88 235 118 34 38
201 590 203 106 71 54
342 54 204 111 88 59
351 168 238 116 93 68
211 428 299 138 12 44
223 393 253 97 81 65
342 128 247 114 92 67
192 778 269 151 118 88
224 398 248 91 78 66
220 399 254 91 78 65
247 293 300 123 93 66
201 457 246 34 31 33
293 29 288 149 35 60
368 892 377 53 46 43
213 412 233 88 42 46
310 38 244 88 28 33
210 414 233 65 40 42
393 463 228 81 30 35
278 417 208 92 78 63
339 628 242 86 37 42
233 493 313 161 15 50
283 63 273 128 92 77
406 871 308 78 67 61
411 463 241 152 17 45
213 412 238 87 46 50
217 408 253 63 57 52
392 483 338 38 28 33
346 15 248 106 71 62
218 411 233 92 61 54
218 412 228 108 52 45
386 562 263 130 24 43
350 265 226 143 101 64
201 582 277 87 23 32
354 198 228 122 97 69
431 467 287 60 19 28
278 424 178 91 76 60
223 410 235 92 79 67
264 213 241 127 97 62
314 864 237 64 56 57
213 412 243 72 47 46
266 128 271 121 94 65
358 878 288 77 63 66
313 458 298 82 51 45
215 410 252 63 55 51
173 638 218 169 120 93
278 633 332 123 28 46
418 608 264 130 98 63
359 895 414 85 70 63
278 312 253 89 76 64
194 764 267 144 110 80
224 403 244 98 80 71
324 875 379 37 33 34
393 487 301 127 0 37
308 658 332 47 29 33
211 423 223 41 35 36
219 403 249 69 58 50
193 758 223 158 106 76
248 523 316 122 22 43
311 276 246 91 74 56
203 723 217 131 93 57
354 188 238 118 95 70
218 408 248 71 60 53
224 503 311 161 16 50
221 401 251 87 74 62
254 607 321 162 20 53
219 410 244 82 67 58
220 420 198 125 15 38
316 842 230 63 56 56
258 949 369 75 66 63
314 342 235 86 75 63
288 353 273 100 73 57
234 278 288 124 95 68
347 223 267 123 98 70
364 393 268 109 89 66
286 828 226 66 54 48
219 419 203 119 20 38
272 203 245 121 93 58
287 828 223 73 58 51
218 418 208 124 21 40
218 423 203 133 9 37
327 488 357 139 19 46
217 423 208 138 7 38
327 203 264 111 89 65
198 693 217 145 97 63
218 433 208 141 2 38
258 153 277 116 94 69
208 724 261 88 55 45
336 389 225 97 82 66
225 452 167 62 32 34
215 419 214 129 23 38
228 784 300 72 61 55
338 338 235 103 85 66
311 236 255 104 83 59
199 473 248 78 26 36
258 333 248 85 75 66
381 906 337 72 64 61
285 348 299 115 77 55
212 418 223 66 35 36
268 68 276 120 29 47
498 470 281 120 91 71
464 504 273 109 90 68
213 423 218 87 27 37
311 63 233 95 35 31
388 518 229 149 9 34
384 563 248 136 21 41
388 463 333 55 24 27
363 888 303 84 68 63
395 814 289 158 104 78
215 428 214 126 12 38
227 273 268 130 96 67
241 668 315 56 23 31
393 872 394 84 67 62
396 853 306 81 67 56
214 433 218 127 1 38
248 411 208 96 81 66
236 388 241 88 78 67
407 428 221 133 22 33
238 458 319 113 25 42
311 263 238 112 88 59
216 428 212 135 2 39
220 438 204 137 3 40
282 483 333 38 29 30
288 426 172 87 72 55
247 944 276 84 75 75
219 438 208 136 1 40
408 872 406 84 66 56
373 763 304 129 94 65
342 93 243 111 47 50
498 862 308 94 81 69
317 293 236 102 85 66
379 513 222 137 4 33
221 438 202 137 6 40
235 918 275 165 115 87
198 473 263 65 21 34
219 443 208 127 3 39
339 247 275 122 97 69
263 578 321 144 19 45
273 638 332 68 27 34
176 587 215 127 97 76
220 443 204 130 2 42
221 448 202 81 20 32
188 728 248 161 112 83
348 58 233 121 62 61
334 904 298 72 65 66
214 438 218 126 1 38
227 728 323 177 15 57
280 326 305 114 79 53
216 438 216 127 0 37
284 48 252 121 35 35
217 443 213 129 4 39
346 83 232 104 27 39
209 415 292 76 39 35
400 450 340 36 22 20
263 951 366 71 64 63
216 443 216 129 0 36
406 501 235 81 35 44
320 272 230 131 100 66
205 419 239 44 38 39
342 438 362 111 19 38
206 418 238 48 37 40
416 841 389 100 80 61
314 406 216 90 76 61
363 833 247 73 58 54
200 445 250 126 1 36
262 64 214 113 36 31
207 428 233 80 26 35
208 923 323 167 131 110
206 428 236 65 34 35
216 729 278 54 29 34
409 866 381 59 48 43
250 330 306 121 92 64
207 433 233 53 33 35
352 433 214 114 16 26
206 431 236 45 37 40
292 433 288 52 41 27
348 732 204 59 46 43
374 712 233 81 57 45
200 428 253 61 29 36
201 417 253 53 36 38
215 617 264 49 28 36
300 314 250 74 62 50
322 258 226 131 101 65
314 213 229 115 92 64
201 433 247 49 32 35
250 766 221 59 52 48
269 105 243 125 85 63
200 433 249 72 29 36
356 204 229 122 97 69
303 438 138 95 57 44
248 388 234 93 82 70
266 133 245 119 91 57
298 22 298 173 117 97
323 312 295 114 88 63
354 879 412 62 53 46
200 433 253 106 17 38
204 438 238 45 31 34
376 720 231 86 68 46
204 603 218 88 53 39
303 469 338 81 18 29
205 437 235 55 32 33
207 483 293 141 8 42
323 483 378 143 23 50
349 619 242 62 29 34
206 446 236 125 3 38
225 365 264 119 95 68
430 618 266 149 105 72
378 422 247 86 63 56
201 438 248 111 16 40
238 308 294 128 99 72
308 448 143 161 5 36
334 876 411 49 41 35
323 457 333 63 30 32
200 438 253 132 4 39
383 878 398 87 66 62
233 548 193 144 14 42
397 783 293 154 111 81
345 768 226 55 42 38
281 67 272 123 48 55
201 440 252 132 0 36
361 861 391 52 45 42
201 443 248 128 2 38
258 939 384 85 78 74
330 97 195 125 65 59
468 879 332 89 78 68
310 253 243 106 84 59
258 708 337 155 16 50
201 448 247 127 2 37
390 475 351 78 25 33
363 728 308 148 6 45
299 413 223 86 71 56
234 807 291 71 60 55
367 513 209 137 8 35
254 606 225 182 4 40
280 27 256 89 21 28
388 888 433 94 77 62
229 498 173 163 13 44
415 453 228 70 30 37
368 543 353 64 23 32
200 448 249 125 1 37
210 418 228 59 34 38
254 433 319 76 26 32
228 808 228 181 124 93
281 865 250 48 46 48
234 283 288 121 94 68
209 423 228 70 26 36
215 733 283 54 32 37
209 433 228 111 16 35
224 698 233 93 71 50
324 300 291 106 84 59
211 432 226 125 6 36
288 53 258 132 32 49
309 464 302 94 13 32
317 838 233 61 53 54
209 443 228 124 4 35
465 808 383 104 82 63
210 442 225 127 5 39
343 28 273 141 43 62
366 603 313 166 18 53
489 498 294 157 111 95
288 9 288 119 49 46
310 262 239 109 86 58
249 639 321 73 28 35
211 448 226 127 3 38
346 80 231 98 66 49
338 891 346 37 36 37
254 403 315 143 106 82
308 328 241 83 72 62
278 93 253 106 76 55
341 801 230 63 52 48
278 268 273 109 85 58
302 303 248 81 69 57
233 415 198 101 58 52
224 378 258 116 93 69
236 629 310 114 23 42
300 23 271 150 34 57
238 414 203 97 73 60
300 378 278 87 57 43
318 915 379 55 48 44
261 144 240 120 91 54
323 808 312 56 48 45
216 559 221 115 29 43
253 373 314 135 101 75
218 608 248 69 29 36
228 413 213 104 55 47
230 348 286 127 97 68
370 553 317 34 28 31
233 411 222 93 78 63
310 258 238 110 87 61
358 893 403 92 78 70
206 575 251 153 7 49
238 412 213 97 78 63
478 878 324 92 76 60
233 410 224 94 80 66
455 554 277 183 126 97
238 412 218 97 81 64
352 293 268 132 100 66
362 513 204 67 27 35
383 421 273 73 56 49
258 436 126 92 75 55
378 418 258 72 65 57
248 415 198 94 80 66
248 413 203 95 81 66
313 328 238 87 75 63
184 768 243 152 108 72
238 388 238 89 78 68
298 408 268 88 62 47
253 415 199 95 81 66
311 451 150 180 9 45
395 534 255 162 18 45
384 708 296 126 92 68
242 407 223 94 79 63
225 457 316 77 26 34
327 123 218 120 91 58
402 738 233 73 55 43
246 406 221 97 82 66
221 398 283 108 87 63
233 947 367 59 55 54
337 894 332 37 36 37
304 863 223 83 69 62
248 409 213 97 82 66
337 587 215 144 29 47
246 411 212 96 81 66
333 334 235 99 82 65
407 429 328 75 20 35
334 598 336 144 16 45
333 208 218 122 97 67
245 410 214 96 81 65
254 388 316 141 105 77
242 412 217 97 81 64
258 839 242 177 133 109
328 348 234 94 81 69
393 668 288 169 124 101
253 404 218 97 83 69
493 868 308 95 79 65
231 298 278 122 93 67
238 398 233 93 80 67
313 58 228 83 50 38
352 253 224 136 102 61
205 781 220 179 121 88
377 468 218 109 22 36
240 399 230 95 82 69
221 673 233 86 58 44
428 883 352 83 72 65
235 400 235 95 78 64
371 613 268 69 32 36
237 397 237 89 78 67
276 11 300 115 71 52
318 614 226 59 37 40
281 865 252 47 45 48
407 443 333 162 17 50
229 388 248 95 81 67
198 488 268 126 7 37
286 852 232 64 55 53
227 393 248 91 79 67
338 318 234 131 100 67
243 558 193 180 9 42
333 363 300 128 96 68
308 333 239 80 69 59
234 388 244 89 78 67
280 283 278 109 85 58
215 870 343 113 90 72
233 393 243 87 77 67
226 391 251 95 80 65
227 397 246 91 80 69
262 178 281 115 93 68
344 453 348 117 8 36
353 403 232 102 85 67
229 398 244 89 77 66
329 473 172 57 33 38
230 394 245 87 77 68
404 448 353 62 17 28
379 503 328 149 20 51
320 471 386 155 24 55
249 684 326 39 24 29
214 433 308 125 19 40
360 754 221 56 42 40
363 872 314 42 37 34
228 408 238 95 81 67
229 404 239 95 81 67
278 293 254 96 80 63
263 343 247 86 76 66
383 528 348 168 13 53
232 407 233 96 80 67
411 691 274 171 115 86
214 503 302 70 21 32
339 110 209 126 84 69
232 407 236 95 80 66
227 358 278 125 98 71
385 425 286 107 25 39
227 411 228 94 78 66
229 410 228 93 80 68
274 238 278 117 93 66
229 478 168 84 30 35
398 849 303 80 66 54
230 410 225 93 79 67
298 437 137 77 59 47
238 403 229 95 81 67
338 263 223 138 101 63
215 736 216 133 97 65
343 878 312 37 34 34
356 333 250 123 97 66
313 38 238 77 37 29
258 88 218 150 19 43
238 407 227 95 80 66
300 20 300 174 130 124
200 438 278 145 0 43
344 870 379 48 37 40
337 48 257 127 89 75
352 388 234 108 89 69
228 402 242 95 79 67
213 878 308 142 110 83
313 462 343 67 22 29
353 853 293 34 31 30
345 128 244 113 91 68
269 533 328 49 28 31
225 400 245 94 77 65
273 30 290 131 42 56
331 685 331 130 6 38
226 406 241 95 81 67
277 67 276 122 41 51
323 873 408 53 43 35
302 468 154 93 29 38
243 387 236 91 80 70
242 392 236 92 81 71
374 853 282 72 58 54
346 82 195 152 28 48
220 548 209 139 16 39
247 386 236 91 80 70
234 308 263 126 97 69
297 481 304 64 17 28
248 393 233 96 84 71
242 396 232 91 79 66
271 108 253 126 88 65
328 648 244 68 34 36
239 328 296 127 98 71
360 635 305 175 9 57
245 395 230 97 84 70
248 395 229 98 85 71
467 502 273 110 91 70
283 388 298 123 83 66
274 846 315 108 88 66
372 458 214 64 32 32
205 513 229 116 13 35
409 428 220 133 18 30
234 967 304 74 70 72
306 446 140 149 11 40
248 397 227 97 84 70
348 653 313 167 19 54
267 133 268 121 93 66
343 842 292 36 32 32
253 503 142 71 37 39
333 783 323 69 57 51
240 395 235 94 81 68
298 608 331 59 30 35
237 298 257 106 85 61
368 528 213 81 35 40
361 244 252 124 97 66
376 876 390 56 43 47
323 10 278 138 45 63
418 648 263 155 105 70
342 448 183 48 37 39
254 386 236 95 83 70
253 395 229 97 85 72
316 192 250 107 85 62
253 397 227 98 85 72
196 503 258 95 24 38
388 863 392 64 53 48
241 406 226 91 79 66
268 522 155 96 32 40
319 910 408 75 68 65
219 398 263 101 83 63
300 368 244 69 60 51
245 400 225 95 83 70
248 416 196 95 79 65
352 298 239 138 101 70
355 528 201 96 29 33
253 468 313 78 25 34
342 318 282 126 92 58
224 453 134 136 16 41
333 818 307 49 42 40
251 438 321 63 21 30
220 452 139 126 17 40
235 914 279 94 73 58
215 744 216 135 98 70
222 454 138 158 5 41
416 441 353 165 18 56
328 148 217 132 100 61
215 483 208 89 21 35
221 455 142 178 3 42
328 12 243 84 70 58
365 723 217 66 51 39
406 488 246 111 16 36
273 383 243 92 79 66
226 852 312 163 125 98
209 443 293 64 29 34
268 318 249 87 76 65
387 518 353 168 15 52
222 458 143 149 11 44
273 88 238 124 32 38
398 623 283 116 80 68
399 827 284 54 42 35
224 463 143 154 15 46
155 548 197 162 115 93
238 498 148 121 30 44
363 588 349 128 27 48
221 696 290 62 35 38
220 453 148 175 0 50
404 493 263 38 32 38
384 470 333 61 22 27
219 792 220 180 121 90
220 452 152 164 4 48
222 453 154 136 15 43
278 63 277 132 26 51
287 744 230 64 32 34
273 568 322 79 24 34
221 450 155 114 26 47
298 760 208 67 54 49
387 888 330 72 64 59
343 378 299 127 97 67
204 483 288 135 8 41
223 468 193 87 25 34
220 920 295 64 59 60
311 32 246 88 44 37
253 258 298 122 95 68
222 473 193 42 32 36
319 64 199 86 29 27
298 713 213 74 54 44
293 818 214 79 61 50
337 873 413 51 42 35
224 473 188 42 31 36
308 33 253 89 41 37
206 533 290 40 27 30
293 873 212 103 84 74
223 478 188 40 34 36
183 597 190 160 111 76
313 404 219 90 77 63
224 478 183 61 33 32
293 817 306 154 111 91
221 503 310 157 17 52
221 478 192 40 32 36
220 393 263 110 89 66
305 295 245 84 72 60
283 538 167 196 10 42
323 908 393 62 55 53
223 483 183 55 32 32
387 468 338 65 22 28
207 478 228 120 10 35
438 424 278 118 26 29
313 368 297 125 90 70
293 949 353 61 56 55
374 493 347 111 7 35
377 503 219 139 1 36
223 488 183 67 34 34
248 868 357 125 100 76
357 537 205 98 34 43
333 272 225 137 102 64
221 488 188 96 30 38
338 83 188 146 28 44
325 426 161 112 50 40
220 488 193 73 31 35
361 648 297 158 22 50
337 587 335 89 22 36
276 284 292 109 84 56
248 734 225 87 30 33
221 486 191 123 17 32
406 445 327 154 19 50
223 493 183 62 33 35
220 463 203 83 33 35
185 698 237 160 109 81
387 871 366 61 52 48
220 489 190 98 31 46
220 493 193 44 32 36
406 433 221 94 26 32
313 313 238 93 80 67
221 494 191 52 32 35
258 783 309 65 54 49
329 453 371 86 12 30
342 911 353 70 61 58
258 243 295 123 97 68
288 422 193 91 76 61
243 818 292 55 43 45
486 886 310 93 78 64
225 503 189 156 8 38
345 49 249 136 21 50
390 464 342 51 25 26
225 457 135 161 2 37
277 97 262 129 48 55
228 458 133 156 2 35
296 487 155 153 9 37
280 84 258 120 37 49
234 458 130 149 2 35
282 368 244 77 66 56
232 458 131 151 1 32
203 503 288 94 18 37
225 462 139 175 6 46
226 460 136 162 5 36
243 841 317 95 76 55
347 894 288 68 59 60
233 873 353 139 106 86
226 464 137 169 7 45
264 552 331 164 20 54
308 18 268 135 38 40
310 32 267 113 48 52
394 553 277 72 29 34
235 463 130 149 0 33
238 458 129 149 0 36
242 750 325 172 25 59
303 426 168 88 71 53
223 588 228 63 31 38
276 202 253 119 94 64
310 423 291 118 84 68
238 463 129 151 0 35
309 903 411 53 47 44
330 471 371 84 17 31
225 462 152 119 21 44
343 63 243 113 23 42
270 856 255 117 80 63
226 263 263 127 96 64
203 568 283 41 28 33
298 20 303 213 158 170
401 880 371 68 57 48
233 468 132 156 1 39
286 743 335 93 39 49
265 203 285 115 91 64
363 548 348 146 17 46
218 603 307 70 28 35
373 720 232 75 58 40
398 508 253 143 18 45
226 463 153 101 26 38
280 74 270 112 40 44
358 353 263 122 97 69
343 173 219 129 100 62
226 459 158 107 23 40
235 642 255 150 10 45
174 618 221 148 110 85
411 446 344 175 13 56
228 653 298 44 30 33
320 118 243 112 82 62
312 438 294 119 89 69
334 539 335 93 25 38
230 273 281 126 96 69
226 460 155 110 21 38
374 883 432 74 57 47
366 684 290 63 32 36
373 895 329 60 53 50
227 463 158 75 27 35
167 578 192 165 111 80
322 572 199 102 32 40
420 495 282 98 21 34
367 713 213 99 71 56
230 467 135 147 9 43
385 488 328 68 28 33
225 466 143 182 8 51
241 945 375 58 53 52
226 468 143 100 22 41
186 793 264 165 122 93
215 601 245 30 32 34
360 372 263 113 91 65
221 698 220 127 93 60
329 513 343 108 25 42
233 438 320 53 27 31
403 498 293 134 18 47
229 473 143 86 36 40
231 470 136 159 4 38
288 623 229 108 27 42
313 818 309 141 109 89
422 483 279 96 25 38
229 463 168 62 30 34
213 753 215 142 102 71
343 588 339 100 19 37
228 788 219 167 112 80
232 474 137 163 9 42
229 353 263 111 90 67
198 483 268 136 0 39
248 528 163 111 32 43
230 476 140 127 24 55
343 643 322 186 15 60
349 473 202 117 6 28
375 593 258 174 20 45
231 479 143 163 12 49
238 468 130 156 1 37
336 138 215 133 101 62
266 44 280 118 98 78
253 283 302 114 91 66
383 658 283 117 81 69
338 893 418 56 48 44
308 28 268 109 54 53
235 477 135 165 2 38
238 478 133 166 1 39
390 780 236 61 49 42
477 498 264 152 82 75
473 893 314 97 80 70
211 448 300 70 29 38
221 458 201 46 32 36
288 668 235 100 25 33
225 466 147 134 18 45
356 841 250 75 60 56
325 123 220 117 90 59
230 476 148 81 34 39
318 618 229 55 35 38
226 465 150 53 33 29
215 895 343 117 90 68
229 473 148 91 30 40
263 133 243 121 91 55
315 188 229 113 90 63
301 916 403 68 62 61
208 908 338 169 133 110
276 98 244 121 31 40
328 293 289 112 89 64
247 499 141 126 32 50
318 413 298 123 89 70
336 50 198 113 63 23
291 851 221 84 67 59
230 473 153 150 15 45
364 488 206 51 35 39
203 718 217 134 94 57
232 313 288 127 98 73
169 578 189 164 110 78
229 468 158 88 25 39
230 473 158 151 7 43
454 548 295 179 125 102
231 479 148 75 32 39
355 307 265 130 101 66
228 413 309 111 88 65
263 643 240 84 26 34
342 98 243 113 36 47
216 538 212 124 16 39
385 522 351 170 18 52
231 479 157 124 20 39
408 514 291 147 9 47
299 874 232 69 60 60
317 173 233 103 82 59
239 368 307 123 97 70
313 798 317 59 49 45
242 478 131 168 2 37
221 648 278 114 21 40
245 477 130 171 4 40
206 458 232 129 1 36
499 478 278 166 114 97
226 455 164 95 24 39
326 21 236 85 72 58
249 488 310 57 25 31
226 450 170 99 35 47
395 515 295 167 15 53
343 318 235 138 104 69
226 450 173 54 34 34
291 38 260 139 25 41
175 610 221 143 109 83
322 98 213 107 52 47
283 448 298 41 29 27
222 408 298 116 91 66
269 504 146 124 24 36
225 456 162 88 20 26
238 433 322 112 25 41
385 574 272 135 17 39
418 889 338 84 69 57
274 268 252 108 86 62
227 458 168 43 33 35
257 940 271 86 77 77
282 398 297 119 82 63
285 826 225 66 53 48
210 493 220 132 5 37
248 578 316 52 29 33
378 548 362 63 28 33
228 463 173 85 29 33
226 450 176 60 26 29
334 891 346 35 34 36
252 815 231 79 63 58
248 433 322 63 27 33
418 613 262 132 99 63
238 328 258 109 90 69
209 538 228 136 12 41
174 623 222 152 112 86
338 23 233 96 83 70
330 108 250 118 95 69
267 253 292 120 95 66
243 428 322 102 42 42
310 209 243 108 88 66
312 458 353 65 24 30
493 478 283 97 75 53
318 358 299 130 96 72
272 440 120 90 74 58
438 573 273 139 107 72
225 452 184 92 18 32
268 21 256 107 92 76
226 454 182 70 27 34
331 801 220 59 49 44
278 48 281 125 95 73
303 313 268 85 70 54
224 453 188 124 10 38
348 894 393 64 53 52
389 538 237 168 16 40
224 453 193 115 14 35
226 458 183 58 35 33
225 456 185 41 30 23
318 468 163 95 31 39
238 643 312 84 23 35
287 393 283 108 72 56
268 653 239 136 2 32
225 458 188 55 30 34
351 323 271 131 100 69
224 458 193 88 28 37
263 383 239 95 82 70
338 793 218 54 45 43
285 388 290 116 77 59
218 888 303 165 120 94
205 438 286 40 30 33
185 701 230 167 112 82
278 405 224 89 75 61
429 830 378 83 69 56
226 462 186 51 35 36
356 328 250 123 97 65
224 463 193 106 25 39
244 536 316 59 24 30
233 453 318 121 19 42
312 193 238 106 86 64
405 723 266 130 92 59
226 945 365 63 57 55
438 423 293 54 29 28
229 468 163 74 30 35
355 722 325 102 18 39
382 742 225 72 53 41
371 573 344 100 28 43
228 468 173 95 27 37
230 478 163 95 23 37
465 505 287 82 65 47
366 404 254 83 71 61
228 478 173 53 32 35
227 468 178 43 32 34
273 959 292 91 86 88
225 468 184 65 29 32
283 653 333 112 31 45
343 113 223 113 87 60
353 528 333 112 23 41
226 468 182 49 32 33
352 18 258 120 39 50
262 307 250 87 76 65
227 473 178 43 33 35
385 470 337 52 22 24
225 473 184 51 35 35
190 690 246 146 109 83
395 538 253 146 21 46
225 468 188 94 24 35
467 502 278 107 87 67
358 803 313 158 121 95
225 479 180 68 25 34
221 660 236 89 52 42
229 924 372 40 38 39
294 431 237 82 69 57
226 478 178 84 27 35
338 883 313 36 34 35
358 563 218 119 29 43
221 518 197 49 34 35
253 939 272 87 77 77
226 476 181 75 31 39
332 100 196 118 70 59
302 338 243 70 61 53
293 763 207 60 48 44
219 583 229 60 30 36
239 482 134 171 4 40
278 898 368 34 33 36
353 438 318 64 31 27
330 444 166 153 3 36
234 483 139 170 9 43
236 658 310 117 22 44
330 726 185 76 56 43
233 483 143 111 25 40
360 273 248 130 98 63
236 686 315 78 31 38
321 413 300 123 90 70
391 547 244 141 16 40
238 484 137 173 5 40
322 228 265 113 91 67
284 422 295 65 49 30
210 459 301 44 29 30
323 787 321 67 55 49
237 489 142 115 27 43
231 483 148 90 32 42
348 899 374 49 43 41
231 483 153 129 18 41
383 758 303 166 118 88
278 929 262 95 85 83
215 883 343 168 123 105
398 418 258 78 31 32
360 890 401 97 83 69
318 33 269 130 32 53
379 703 292 89 57 41
325 460 325 49 34 25
400 722 257 108 81 53
394 513 263 75 28 37
253 768 219 64 53 48
316 53 222 81 35 31
258 803 303 51 42 43
231 483 157 86 27 36
343 107 213 128 70 63
230 483 159 72 35 38
237 624 242 136 11 39
266 476 130 154 6 38
231 488 157 50 37 38
262 302 250 84 73 63
232 493 158 103 30 43
323 757 337 111 27 45
372 884 429 76 58 49
202 593 203 109 75 56
400 818 280 61 45 37
227 393 298 125 97 69
288 658 333 89 29 39
232 488 148 69 35 39
234 493 148 113 32 45
314 515 350 99 28 41
233 493 153 106 34 44
412 772 256 98 68 48
261 176 240 130 99 60
257 45 229 117 101 85
320 247 225 130 101 65
361 238 243 123 98 68
258 348 312 131 96 69
339 46 212 123 102 80
236 494 147 141 35 50
239 497 144 106 26 43
365 590 343 62 30 36
290 418 278 62 47 31
236 499 152 84 31 36
276 745 220 51 37 42
423 768 258 101 76 57
333 898 278 78 67 65
266 390 235 96 83 69
196 508 258 62 29 34
348 208 263 122 99 72
273 954 359 56 50 48
258 947 373 84 76 72
238 503 153 69 35 39
233 498 158 57 34 39
343 388 229 101 84 67
235 502 159 75 35 39
218 822 239 197 134 105
384 470 328 61 26 32
273 228 278 116 91 63
273 758 323 65 55 50
306 318 283 78 58 42
238 318 258 110 88 66
346 714 337 71 22 31
370 543 313 63 25 37
237 504 157 107 29 43
202 488 238 61 33 36
268 423 308 87 68 48
453 558 278 176 123 92
316 318 236 92 79 66
381 746 225 69 50 40
240 507 154 70 30 33
239 513 158 175 13 44
244 487 135 178 6 39
308 288 268 80 65 53
452 548 270 169 121 91
319 168 224 115 90 60
217 408 268 76 64 53
364 748 308 105 34 44
246 480 131 176 4 35
248 488 134 157 10 39
197 493 253 39 31 34
308 43 253 98 67 53
310 73 234 108 57 47
376 576 250 174 20 46
342 113 243 118 95 70
241 484 136 174 5 39
242 488 137 172 6 40
315 925 362 67 61 62
228 278 273 135 98 72
406 452 300 68 26 33
355 338 270 128 101 70
240 491 140 173 6 43
219 632 268 41 30 33
253 491 135 103 31 42
246 490 136 180 8 44
310 260 261 97 78 58
248 493 137 119 25 41
294 699 213 81 46 42
273 913 248 86 76 76
264 253 294 120 95 65
281 284 263 99 81 62
218 428 314 125 19 42
338 243 219 132 100 59
249 481 130 185 8 36
457 553 288 179 121 91
403 513 243 53 32 33
248 718 338 165 19 53
374 518 318 51 27 30
253 481 130 185 7 36
345 749 216 63 49 44
215 538 214 137 19 44
309 431 146 85 69 51
253 488 134 140 16 39
230 591 225 60 25 28
249 491 135 150 10 37
360 579 351 138 14 42
386 472 303 152 13 48
233 783 220 146 100 67
311 21 251 100 26 37
278 268 268 110 86 59
366 689 277 57 35 36
376 513 324 54 25 32
315 304 235 95 82 69
243 498 143 140 20 44
245 496 140 64 40 41
268 738 332 165 21 56
316 63 217 103 37 45
248 497 139 75 32 41
348 427 218 135 37 33
226 378 256 113 91 67
283 668 237 126 14 34
273 426 167 88 73 56
271 253 287 117 92 63
253 498 139 128 32 44
382 421 270 70 58 50
346 113 229 115 93 69
253 500 141 79 32 36
287 957 347 56 53 53
356 354 245 117 94 68
368 883 383 64 55 57
317 188 227 120 94 64
269 158 253 112 90 64
343 458 333 79 11 26
243 503 147 135 20 39
244 507 149 158 19 46
209 558 233 62 32 37
243 478 314 54 28 32
242 509 152 89 31 40
277 63 238 111 33 35
248 508 147 108 29 43
276 198 254 117 93 64
262 54 219 108 90 68
244 513 154 82 34 41
360 269 248 128 97 62
231 263 284 124 95 68
249 507 145 38 37 44
253 507 145 63 37 40
253 509 146 49 37 39
230 483 163 49 35 35
404 683 262 134 96 60
228 483 168 77 32 35
363 819 310 139 105 84
253 448 318 59 25 29
229 283 278 132 99 74
263 436 126 92 76 58
344 73 238 116 42 48
351 184 225 119 96 68
243 613 317 87 27 39
423 420 298 77 29 34
229 488 163 48 38 39
186 688 239 153 109 82
381 523 344 155 21 51
215 934 300 58 53 56
338 713 218 64 44 40
333 88 189 154 29 51
393 443 298 103 20 39
323 463 388 132 17 44
263 823 299 169 123 99
344 73 233 117 91 70
228 488 168 74 32 39
306 723 345 40 26 31
410 478 266 90 17 28
227 483 173 73 34 32
228 583 318 137 26 50
311 506 361 154 28 52
227 488 173 64 35 36
303 10 283 118 38 43
230 493 163 92 32 41
231 494 162 141 27 47
350 598 346 152 18 47
328 213 218 129 100 62
298 633 334 126 30 48
225 483 179 58 34 36
343 700 228 80 48 38
225 488 178 53 33 34
306 287 253 88 75 63
382 438 304 56 19 25
297 788 202 77 62 51
258 68 210 136 22 35
225 493 179 62 34 37
298 584 202 180 8 42
191 593 190 150 106 73
226 494 177 97 35 39
277 228 258 114 89 60
212 768 293 176 129 103
348 443 203 120 9 30
325 144 251 108 84 59
333 47 208 116 79 45
410 600 270 98 64 39
319 498 358 71 20 31
321 496 356 74 20 32
232 498 163 87 32 41
231 499 167 154 22 48
362 393 283 115 92 66
238 453 319 81 26 35
249 519 316 34 25 29
305 289 257 93 82 70
230 502 170 174 11 45
350 368 236 112 93 72
316 88 221 114 39 41
268 378 243 93 81 69
220 523 199 48 38 41
267 98 233 96 54 36
225 675 296 61 27 31
385 881 346 64 57 54
417 435 378 43 28 24
247 283 299 121 94 67
389 463 313 123 13 38
230 507 175 103 21 33
327 228 269 113 91 66
279 421 192 94 79 64
235 507 164 157 12 43
338 874 374 42 36 35
345 458 330 71 11 24
483 803 383 115 91 71
237 513 163 169 11 43
301 407 227 86 70 53
235 333 292 128 99 72
333 383 228 95 81 67
225 496 180 127 35 37
266 408 311 125 91 69
429 865 284 99 87 86
226 499 182 151 15 45
367 877 299 88 68 60
406 502 270 100 9 27
229 503 178 154 8 40
409 609 264 121 90 59
405 630 260 122 92 57
347 353 287 119 94 64
338 178 262 116 94 70
360 397 290 116 93 67
358 423 223 144 18 18
226 504 187 149 8 40
216 512 305 73 35 41
202 627 200 155 108 74
305 409 215 88 74 60
227 508 183 139 8 37
232 403 309 124 97 70
200 473 244 79 25 34
229 378 293 123 97 67
228 513 183 140 10 34
298 408 258 93 68 51
231 513 176 85 27 36
268 953 363 76 72 73
357 233 258 122 97 68
263 238 293 118 94 64
470 800 375 112 90 67
226 508 187 134 11 33
225 508 189 119 19 34
225 513 189 132 16 34
399 422 267 84 35 34
238 634 247 151 2 39
368 704 253 79 64 58
222 453 198 58 34 38
226 678 299 66 29 36
323 864 398 63 51 40
319 24 239 75 45 28
251 791 220 74 58 54
255 846 330 108 87 63
423 653 284 188 129 102
257 17 263 95 77 66
221 453 202 35 35 36
371 430 296 59 50 40
205 503 230 128 14 38
222 463 198 70 35 38
318 924 363 66 59 57
218 458 208 53 33 37
218 463 208 69 34 37
221 463 201 89 31 40
212 453 223 111 12 35
323 766 331 71 59 55
293 608 219 170 13 44
226 407 304 118 94 67
215 459 215 39 35 39
202 418 283 119 8 39
288 753 224 67 35 37
338 108 247 118 95 70
215 463 214 50 27 31
347 729 204 59 46 40
196 498 258 91 26 39
277 753 220 64 35 38
407 718 273 150 100 68
211 463 222 118 9 36
338 573 208 173 8 42
343 443 348 118 10 39
214 458 218 37 33 36
216 463 212 51 33 35
189 763 229 163 112 79
273 707 231 102 24 29
290 965 318 77 69 69
276 101 252 144 82 73
343 368 232 102 86 69
390 530 262 164 16 46
384 493 300 140 4 41
341 335 235 114 91 67
221 468 198 55 36 35
220 469 200 68 38 42
268 88 228 100 53 40
333 358 233 94 82 69
313 908 278 68 61 62
421 447 301 114 14 42
220 474 198 50 36 37
217 468 208 81 29 37
297 413 253 90 69 50
258 453 117 100 30 40
168 583 193 163 109 78
263 412 208 96 81 67
218 473 203 54 34 35
271 113 263 125 92 67
423 448 275 134 12 28
217 473 208 62 32 36
346 213 266 122 98 69
221 466 201 48 42 40
434 439 276 130 15 37
354 288 237 144 101 69
194 773 224 163 109 77
338 419 214 97 68 56
219 478 198 48 37 38
316 812 219 66 55 53
220 479 194 46 34 38
216 478 207 86 28 39
209 948 343 62 59 60
428 628 287 172 122 96
438 830 410 75 61 48
381 502 330 111 16 42
210 468 224 121 5 35
392 887 339 68 59 54
328 508 348 86 26 36
368 513 343 62 23 30
222 668 283 94 24 40
210 473 224 123 5 36
225 738 221 130 91 63
215 474 210 44 32 35
214 478 213 87 18 34
335 372 231 96 82 68
405 478 249 137 20 43
344 884 271 74 61 58
212 478 218 120 6 36
443 588 287 185 124 101
211 478 221 121 6 36
368 793 312 159 122 94
201 473 283 90 22 37
483 483 273 107 85 66
287 814 305 164 120 100
198 503 248 60 30 36
210 478 223 118 7 34
328 258 223 133 102 65
206 731 216 130 94 58
278 678 237 83 26 30
216 468 211 83 22 34
431 572 290 112 78 63
216 471 211 104 17 39
160 566 201 161 113 90
264 346 246 87 77 66
332 457 170 147 4 37
267 78 219 150 19 42
277 889 347 62 53 44
338 728 193 70 55 43
204 453 238 125 1 36
374 548 362 65 27 34
275 520 156 178 8 48
369 523 212 58 32 36
266 946 371 73 64 60
216 523 207 59 37 38
302 362 241 73 62 52
203 458 238 126 4 37
203 463 238 129 7 38
370 568 318 60 29 34
363 863 309 37 34 32
248 413 315 137 103 79
463 518 267 199 138 114
224 483 312 153 15 48
313 518 172 125 21 38
269 930 261 97 86 84
228 938 373 54 51 52
303 587 205 131 25 45
199 458 253 117 8 38
200 458 248 47 26 30
408 423 273 98 23 31
200 463 248 34 30 32
339 49 255 126 76 69
362 674 273 73 33 35
278 468 299 54 21 26
312 774 186 89 61 39
199 463 253 53 25 31
246 308 300 128 95 68
268 902 383 38 37 38
330 458 371 71 11 27
200 453 249 106 10 36
328 442 368 109 14 34
201 458 243 91 18 35
228 433 319 74 26 33
346 102 232 124 73 62
298 428 158 84 69 52
201 463 243 104 22 38
457 517 294 101 76 63
341 118 220 108 86 61
253 463 314 99 18 35
368 886 398 87 69 66
411 430 336 97 21 34
206 468 232 128 6 38
186 713 238 162 109 80
203 468 238 129 7 37
380 490 351 98 16 33
295 875 217 104 87 88
492 871 329 87 73 58
238 949 369 57 53 53
205 468 234 128 5 36
237 614 236 55 25 34
204 478 233 115 20 38
