ply
format ascii 1.0
comment Created by Open3D
element vertex 2213
property double x
property double y
property double z
property uchar red
property uchar green
property uchar blue
end_header
221 300 278 126 93 67
276 573 215 186 3 40
362 470 294 135 96 71
389 75 256 115 31 44
335 585 348 31 25 26
409 745 158 82 62 50
190 520 248 158 11 43
193 448 286 117 7 30
325 535 209 80 34 38
313 420 220 64 37 39
221 305 278 121 94 66
226 615 336 112 19 41
292 503 391 83 0 30
222 300 288 122 93 66
440 505 264 162 16 40
285 725 359 182 17 58
390 473 271 69 13 28
221 305 283 122 93 65
398 426 260 79 16 30
408 634 233 189 125 97
234 450 353 82 25 35
270 417 173 87 46 43
357 425 298 128 98 65
290 425 183 122 16 38
333 876 337 136 102 76
223 310 267 135 98 68
313 258 325 111 91 69
270 235 268 111 88 61
361 601 319 138 16 44
268 623 365 159 98 82
240 295 307 120 90 64
235 555 223 89 33 40
222 310 269 134 98 68
320 335 349 139 95 69
388 98 243 154 14 57
319 764 331 85 66 54
389 855 244 63 54 50
285 846 323 96 69 56
257 469 185 41 35 47
254 535 343 150 37 66
378 592 411 125 3 42
224 315 267 139 100 70
222 315 270 139 100 71
222 315 273 134 98 71
393 77 245 116 42 47
299 410 203 152 13 33
282 706 356 141 17 44
224 320 268 137 100 70
374 605 273 124 16 45
495 859 274 94 71 55
441 868 322 79 62 49
188 495 318 33 29 30
320 490 208 125 8 28
211 741 305 135 98 68
327 538 305 113 90 67
274 300 278 91 77 64
222 320 273 131 98 69
221 310 278 123 95 67
198 425 288 115 14 35
221 310 288 123 95 66
309 357 345 148 106 84
221 315 278 121 94 65
221 315 283 121 94 64
221 315 288 123 96 66
243 536 211 119 21 41
221 320 288 124 96 66
223 288 290 118 94 67
225 295 293 119 94 68
335 745 216 67 30 34
204 670 354 173 123 98
237 502 381 130 13 37
255 470 383 65 22 30
260 17 260 99 84 71
431 740 190 55 43 33
275 660 343 158 20 51
222 300 291 122 95 67
181 500 288 147 0 39
372 781 290 83 66 59
259 350 260 88 76 63
352 18 261 111 98 85
190 485 318 92 23 36
285 510 378 75 5 30
372 915 360 58 51 47
342 935 365 66 59 56
333 551 306 87 69 54
270 200 273 114 92 67
224 300 293 121 96 68
305 547 343 76 61 44
286 360 288 74 61 50
349 436 230 91 35 35
390 815 194 111 80 61
366 910 365 49 43 39
223 310 294 123 96 70
330 770 322 85 65 55
280 417 203 77 49 38
222 315 292 127 98 70
225 310 297 119 95 69
308 608 405 177 117 106
267 533 394 82 26 36
380 556 318 59 46 35
445 620 342 95 21 34
225 315 298 121 96 70
325 285 344 118 92 62
240 465 363 98 20 34
355 551 363 60 47 34
218 545 340 92 13 34
228 272 256 131 97 60
306 505 201 62 31 32
225 509 353 174 0 52
422 585 370 155 7 49
226 280 259 131 96 61
228 275 256 131 97 61
229 280 257 129 97 62
263 558 369 82 21 31
330 255 279 133 101 64
256 286 256 128 99 68
395 850 248 82 69 59
226 260 292 116 92 66
229 260 294 115 91 65
260 690 338 108 27 43
390 599 324 65 31 36
191 651 324 99 78 55
360 735 323 152 20 53
393 430 259 92 34 42
367 553 250 68 22 28
355 40 287 121 18 45
238 259 300 115 91 66
400 430 267 105 10 30
398 648 231 182 122 94
232 260 296 115 91 65
240 715 278 98 20 38
226 270 292 120 92 66
365 100 283 109 44 47
238 398 335 123 95 67
415 426 267 86 14 27
229 270 295 118 92 65
352 37 255 92 38 32
360 515 288 143 99 82
401 546 277 66 13 27
455 535 288 125 15 40
359 450 234 130 20 35
315 547 348 70 56 41
227 347 265 118 94 65
257 427 220 64 44 40
455 866 283 85 70 60
260 235 247 135 105 68
231 270 297 118 92 66
293 857 281 183 124 91
239 630 375 170 120 95
180 500 278 142 0 39
355 450 308 144 104 76
202 476 331 118 19 40
330 225 325 109 90 70
427 619 354 75 18 35
265 35 284 128 30 50
421 629 369 131 23 43
240 265 302 116 91 66
237 266 301 117 92 66
295 420 198 157 0 38
350 35 288 108 42 46
455 560 308 98 6 32
327 863 339 131 104 75
280 385 308 103 69 60
237 270 301 118 92 67
285 520 368 80 12 33
188 500 319 32 29 30
290 11 308 140 36 53
303 699 231 78 21 27
221 645 366 159 114 88
330 598 400 128 64 69
245 640 273 169 5 43
335 245 276 135 101 64
362 89 235 144 13 45
228 279 295 118 92 65
342 140 270 118 94 64
395 610 398 143 14 46
231 275 297 119 93 67
295 680 347 81 24 35
356 736 325 185 21 59
228 285 295 118 93 67
324 300 347 119 89 57
285 610 352 46 26 29
242 486 376 70 26 31
234 275 299 118 91 66
340 415 253 72 47 41
386 520 246 74 6 26
204 502 339 141 20 50
375 500 248 68 24 33
399 539 263 59 19 25
420 565 343 110 17 34
234 280 299 115 90 65
240 275 303 116 91 65
273 553 346 93 68 52
360 855 221 110 84 67
236 280 301 115 90 64
275 785 253 73 57 52
359 435 288 125 96 67
400 560 363 86 29 32
269 61 224 113 43 25
380 104 234 170 25 52
360 440 288 127 97 67
499 878 226 86 77 69
240 280 304 113 89 63
200 460 323 128 2 38
395 555 253 50 31 35
295 495 199 129 3 29
410 707 191 64 50 35
356 245 282 143 102 67
233 284 300 116 91 66
207 410 293 121 97 69
315 530 204 110 30 41
267 38 246 114 98 82
333 174 299 106 86 64
289 325 303 92 72 56
236 285 302 116 90 65
375 805 178 87 68 58
466 623 334 143 17 40
389 609 228 101 86 69
240 285 304 109 86 61
325 470 319 112 77 56
269 225 258 121 96 67
278 493 312 141 83 73
255 440 339 125 91 63
439 729 202 93 71 49
343 107 261 126 31 33
293 16 265 97 39 25
285 540 414 128 22 44
245 270 304 114 89 64
250 260 302 112 88 62
199 730 313 163 112 85
395 740 168 60 48 39
204 530 334 148 8 46
250 265 303 112 88 62
329 185 298 104 84 62
200 490 333 78 22 33
315 962 345 74 69 67
242 393 256 100 83 64
254 260 301 108 85 60
238 716 336 127 79 66
210 585 328 164 1 51
415 590 249 101 85 68
225 435 342 57 24 32
256 260 299 103 82 58
255 275 304 94 75 54
245 275 304 110 87 62
340 888 335 107 81 60
392 85 238 139 33 51
280 550 203 131 16 38
220 345 293 121 94 66
344 744 326 77 61 54
310 775 332 82 62 53
461 504 276 60 25 31
244 279 305 110 88 63
386 65 233 104 35 34
365 874 303 30 27 26
247 277 306 107 86 63
221 609 273 200 11 52
335 30 283 119 74 62
240 615 358 101 80 57
225 440 343 67 24 32
250 274 305 104 83 60
250 276 306 104 84 61
268 316 312 75 58 39
254 280 306 90 72 53
229 315 262 133 99 66
326 815 305 153 109 90
256 279 305 85 68 50
270 230 273 112 90 65
212 543 220 164 16 48
373 113 267 121 66 60
438 592 321 53 19 30
250 285 309 101 82 61
217 380 269 115 91 64
397 551 252 44 32 38
361 460 237 122 24 39
249 455 364 106 15 36
366 67 235 86 61 40
186 470 303 126 1 36
340 280 333 128 97 64
380 445 253 80 20 31
227 290 260 130 96 60
383 100 256 116 39 49
238 478 365 65 28 30
226 305 264 124 94 60
378 103 261 119 47 55
231 300 259 129 97 62
487 887 216 97 80 64
234 424 340 126 97 69
439 555 297 96 14 29
345 170 307 110 90 70
330 480 213 134 7 33
429 568 292 91 49 34
312 255 290 120 93 62
279 395 308 121 76 61
278 418 232 85 70 56
294 415 193 150 13 38
372 612 258 59 23 29
228 300 261 125 95 61
228 305 261 125 94 61
233 291 256 136 99 67
217 362 275 112 91 67
251 561 352 44 28 30
225 335 268 124 96 64
256 606 382 146 109 85
235 295 256 133 99 67
232 539 346 98 23 38
240 296 256 133 98 66
406 623 398 158 28 60
229 484 359 77 22 33
235 300 257 128 97 65
222 371 311 121 95 66
240 300 256 124 94 63
225 495 363 87 20 32
353 597 439 80 11 33
231 310 259 132 99 65
228 310 261 133 98 66
249 490 384 103 18 36
226 315 264 135 99 67
264 505 332 143 97 83
198 429 299 48 29 32
231 315 260 132 99 67
269 597 231 50 36 33
363 609 307 116 25 44
228 369 261 116 93 67
232 319 260 130 98 66
265 35 248 114 98 81
235 310 258 129 98 65
187 505 318 33 28 31
187 670 336 167 114 88
362 449 273 108 76 53
240 310 258 116 90 61
340 551 368 63 51 37
400 619 408 103 14 38
235 320 260 125 95 64
268 479 331 133 95 74
240 315 258 116 90 61
240 320 259 114 90 62
245 295 256 126 93 65
245 305 257 104 83 59
483 575 311 172 4 54
345 95 258 120 41 40
250 295 256 116 91 64
354 270 318 136 100 69
465 495 288 139 3 44
360 635 203 123 94 64
435 605 343 82 21 30
255 290 257 120 94 67
265 556 373 38 28 28
273 488 190 101 37 48
407 571 272 52 31 33
255 295 257 110 89 66
333 165 288 103 84 63
382 694 298 116 19 43
414 476 285 120 114 111
250 300 257 108 86 62
182 480 288 103 15 34
254 494 390 77 27 34
439 856 326 50 39 30
232 514 361 171 11 51
250 305 257 103 85 65
265 510 402 62 28 34
288 435 188 151 2 37
340 598 400 113 26 41
281 490 388 80 4 29
276 375 273 76 63 50
235 325 307 115 90 63
255 305 257 101 86 70
285 538 200 158 1 33
220 700 348 156 106 78
216 555 337 162 0 49
245 310 258 104 84 62
270 280 278 99 80 60
191 545 263 176 1 45
367 190 283 128 100 66
337 825 210 62 54 55
245 315 258 107 86 63
180 490 273 83 29 37
366 76 230 115 29 30
330 20 294 141 99 77
255 310 257 99 84 70
445 870 318 79 63 49
253 402 336 133 102 68
250 320 257 100 83 65
325 825 307 153 115 91
338 158 295 103 83 62
408 576 351 125 22 39
260 655 338 46 27 30
255 315 258 97 82 67
368 509 263 119 69 58
301 280 313 98 81 62
400 595 319 70 29 39
227 291 296 118 94 68
304 399 246 105 88 70
230 295 298 118 94 68
288 434 179 103 23 43
274 300 288 81 68 54
230 300 299 118 92 66
183 522 283 148 9 42
229 305 299 119 94 68
290 415 208 146 40 39
308 542 359 60 45 31
235 290 302 118 93 66
235 300 302 121 92 65
352 88 285 115 96 75
391 470 271 77 4 26
239 290 305 112 88 62
391 90 243 142 16 52
238 295 305 118 90 64
228 686 324 114 81 66
280 395 288 71 56 44
417 772 178 94 72 56
238 300 305 124 91 66
240 300 307 126 92 67
260 20 258 106 91 76
229 310 300 117 94 68
233 642 313 87 22 33
231 310 302 118 94 68
271 360 267 78 68 58
268 245 258 124 97 65
201 560 258 52 33 35
270 54 233 82 50 33
230 320 303 121 95 69
336 438 226 65 30 34
448 562 280 108 85 56
380 840 208 81 67 61
235 310 304 117 91 63
234 315 304 116 91 64
265 490 334 138 98 77
256 548 205 47 36 39
238 308 305 117 90 62
444 571 275 109 83 51
291 724 361 185 15 59
265 26 255 106 92 78
374 123 251 130 40 54
443 575 347 150 11 48
290 401 253 91 77 63
240 310 307 118 89 61
205 760 338 177 120 93
215 365 283 117 93 66
237 315 306 113 88 61
196 422 267 112 15 35
397 731 170 78 62 49
292 785 240 75 60 52
240 315 308 116 88 60
378 906 356 54 46 42
283 79 258 143 21 47
245 290 309 109 87 62
355 235 278 141 104 64
336 394 266 107 90 72
352 229 320 121 96 68
275 490 198 117 19 35
369 485 244 128 15 34
244 295 309 119 91 64
309 410 214 95 27 35
300 550 324 83 67 50
304 810 322 126 93 75
420 445 273 117 11 36
300 25 273 134 50 51
340 435 228 43 36 38
220 440 338 35 28 29
254 509 342 130 88 75
225 735 303 85 62 49
330 190 308 107 87 66
275 510 407 54 28 31
278 360 278 70 61 52
279 350 288 68 57 47
336 962 335 55 48 48
246 296 311 119 92 64
240 655 288 159 4 42
361 725 213 129 93 70
244 305 310 124 90 64
243 339 315 114 90 63
321 617 338 86 27 37
246 305 311 125 91 66
359 160 264 140 102 65
198 433 275 124 3 37
385 630 244 131 83 70
250 289 310 104 83 61
216 564 230 178 19 49
258 428 218 59 39 35
385 580 293 86 29 40
250 295 312 113 88 62
295 410 323 132 90 76
275 840 308 54 41 39
255 289 310 94 75 54
260 355 323 124 89 64
375 605 448 160 15 56
345 65 253 128 25 36
332 612 432 113 52 42
400 556 288 55 19 24
235 560 347 62 23 30
255 295 312 103 81 57
430 555 294 68 20 34
255 300 313 108 83 58
293 39 277 123 16 44
250 450 368 110 16 37
255 305 315 109 84 58
205 644 326 99 81 61
353 80 246 134 26 39
350 885 213 97 82 74
366 39 256 109 95 79
360 412 244 81 25 34
244 310 310 119 87 61
245 315 312 117 88 62
250 310 314 109 84 57
478 567 271 157 110 81
221 676 349 155 104 82
390 785 169 73 57 50
485 880 244 101 88 77
254 381 331 128 97 65
293 747 236 152 3 37
265 418 173 96 39 40
238 704 293 104 12 32
259 170 244 132 103 69
253 308 315 108 84 57
237 653 304 168 10 49
333 242 276 135 102 65
369 73 231 83 35 24
312 242 306 107 87 65
462 887 255 89 73 61
255 310 316 108 84 57
249 320 315 118 88 62
334 835 218 63 58 58
270 515 201 128 1 27
200 420 268 84 37 37
440 490 273 45 29 31
251 320 317 121 88 64
385 559 328 60 47 36
183 521 273 43 30 35
230 385 327 120 96 69
255 320 318 122 86 65
345 35 287 106 33 42
201 535 233 169 16 46
223 322 271 137 102 72
222 325 274 124 96 65
368 763 176 67 54 45
196 435 288 117 6 33
221 325 278 118 93 64
269 410 323 130 88 66
220 325 283 120 94 64
368 101 236 147 16 43
390 440 259 80 23 31
222 335 274 120 94 63
355 100 248 133 28 38
220 335 278 114 91 64
235 439 349 92 25 33
293 428 200 159 0 39
219 335 283 117 92 63
241 820 289 67 54 54
296 590 423 176 119 107
220 330 283 118 93 64
346 365 308 119 95 66
339 105 273 118 88 66
259 680 257 98 20 32
220 330 288 123 94 65
203 418 283 94 79 62
219 335 288 120 93 64
309 520 398 88 25 35
214 370 283 118 94 66
201 555 253 177 13 47
225 345 268 117 93 65
209 400 293 125 98 69
341 245 330 120 96 66
221 350 273 115 92 66
271 90 233 115 36 39
225 675 328 112 73 57
217 522 215 50 33 31
217 376 270 114 91 65
388 720 278 167 16 50
260 150 277 111 88 62
223 350 271 115 92 66
348 401 278 98 82 65
360 859 218 108 86 79
358 264 312 135 99 70
335 600 341 90 4 27
370 596 322 160 14 51
220 340 278 113 90 64
340 90 263 122 31 40
336 805 219 56 47 47
392 741 170 60 49 41
332 850 219 70 59 59
410 480 282 105 82 81
369 25 287 110 29 44
260 795 263 75 60 51
219 345 278 115 92 65
373 35 264 108 94 79
450 869 268 85 67 54
221 340 274 116 92 63
394 654 227 168 114 88
237 496 377 73 27 34
249 571 222 182 8 43
219 340 288 120 93 64
279 365 288 69 58 46
479 562 297 116 11 39
455 837 184 103 91 80
470 559 298 105 11 34
290 420 178 118 22 36
355 583 346 143 11 50
413 623 407 126 19 38
207 583 270 110 31 45
218 350 278 115 92 66
343 538 215 141 21 42
285 414 233 92 75 56
202 694 346 174 119 96
230 335 264 124 96 64
426 571 283 106 74 39
242 377 331 120 94 67
275 540 331 101 78 61
346 780 309 81 62 55
191 550 303 87 31 41
217 347 284 119 94 66
378 57 250 122 108 90
214 570 333 158 1 49
261 529 398 53 28 32
217 347 286 120 94 65
217 350 283 118 94 65
261 545 346 121 67 64
219 370 303 122 96 66
260 16 263 96 78 66
340 895 339 97 78 59
435 465 273 102 26 32
223 394 325 121 96 69
396 582 280 105 13 35
260 400 332 130 95 66
245 835 333 203 139 114
360 610 423 104 16 40
355 877 312 30 28 29
217 350 287 120 93 64
217 360 278 115 92 67
281 846 328 131 99 79
221 330 293 125 96 67
255 522 369 154 7 49
285 503 310 151 15 52
364 630 253 123 14 41
314 970 292 79 73 75
415 525 267 85 0 31
222 330 296 126 97 69
325 715 223 108 20 29
224 330 298 125 98 71
216 360 283 118 94 68
305 880 258 47 43 45
275 27 294 142 34 56
221 340 298 123 96 67
196 646 337 114 90 63
361 675 242 45 26 31
225 340 303 122 96 68
215 800 333 195 133 105
375 605 423 117 11 38
270 95 273 116 92 68
218 350 289 120 93 64
349 445 317 146 103 81
440 879 288 84 67 55
224 350 304 120 95 66
222 356 270 115 92 66
358 200 307 122 97 67
249 795 272 75 60 54
226 608 264 205 14 53
223 665 324 155 105 89
250 520 373 171 2 52
219 360 273 113 91 67
390 685 208 113 87 55
223 364 266 115 93 67
293 308 311 90 72 53
384 720 308 43 31 33
188 541 283 171 5 47
216 365 278 114 92 66
364 670 303 138 5 44
252 637 369 184 122 98
354 848 210 93 72 64
294 317 290 95 77 61
205 421 258 80 62 52
336 50 281 108 85 63
403 544 254 74 33 36
434 592 280 157 112 101
358 550 225 130 15 36
215 365 288 120 94 66
218 355 278 115 91 65
218 359 277 114 92 67
290 412 188 131 54 41
362 460 293 134 95 69
215 380 273 115 92 65
395 550 248 68 32 38
216 385 269 114 91 65
460 892 248 86 71 63
388 808 189 93 67 52
214 385 273 114 91 65
271 940 343 104 78 68
260 427 223 73 55 48
232 412 336 125 98 69
435 510 262 175 16 42
335 620 234 101 24 36
225 370 263 115 93 66
187 657 331 144 103 77
197 569 279 94 37 43
370 90 229 149 15 43
338 400 331 143 101 74
213 384 295 122 96 67
424 606 351 117 19 33
326 231 326 110 91 71
354 269 294 161 110 79
225 375 262 117 93 66
320 740 219 104 23 32
188 480 313 116 11 38
340 594 394 121 5 47
327 884 350 149 114 90
204 418 273 78 65 51
261 119 275 115 93 69
376 580 242 111 18 30
478 506 275 118 24 38
216 370 274 114 91 66
218 617 308 77 33 38
218 369 271 113 91 66
315 490 206 120 11 26
212 445 331 119 15 40
394 680 232 148 100 71
216 375 273 115 92 66
349 400 283 104 86 66
366 751 309 93 71 62
216 405 264 101 83 65
222 370 265 114 92 66
292 603 396 174 114 96
406 881 340 80 62 48
300 375 337 131 95 77
295 910 248 82 73 72
328 332 285 97 84 70
222 375 264 116 92 66
401 510 251 91 1 30
201 420 298 73 39 38
221 380 264 116 93 65
365 16 288 97 40 40
209 601 308 50 30 34
305 515 307 153 16 58
221 385 263 116 92 65
235 480 363 35 28 29
271 422 223 79 60 51
301 430 212 49 38 41
475 615 325 151 17 44
229 415 256 105 84 61
375 876 328 33 29 32
219 380 267 115 91 65
384 905 338 63 55 50
254 567 216 79 31 38
204 419 278 87 74 59
200 500 338 160 11 51
215 370 278 116 93 67
214 375 278 116 93 66
279 850 323 134 102 79
340 607 416 99 26 39
212 376 283 121 96 67
224 390 324 121 95 68
348 220 321 119 95 68
360 604 329 55 32 33
360 36 255 117 96 73
213 607 310 163 29 56
185 445 258 63 27 32
213 375 288 122 96 66
338 546 301 90 73 55
212 385 278 118 93 65
322 217 311 109 89 66
250 800 272 76 61 56
342 484 221 123 14 28
213 384 276 114 91 64
350 545 289 94 72 54
364 60 282 106 49 50
300 765 233 76 59 52
425 516 263 135 10 36
354 405 308 132 100 64
211 385 283 121 96 66
214 385 298 122 96 68
212 377 280 119 94 66
410 720 162 89 66 47
266 235 252 129 100 65
327 788 220 74 58 52
230 410 334 125 98 69
217 356 291 123 95 65
275 480 402 76 25 34
250 465 344 126 83 64
366 110 240 137 17 36
277 380 278 76 60 41
218 355 293 123 96 67
366 563 385 87 14 22
315 851 333 109 85 59
218 580 335 57 28 34
217 360 292 123 95 66
220 355 298 122 96 67
366 510 253 107 51 48
386 815 192 97 73 60
219 360 298 121 95 67
435 580 264 110 88 61
264 56 224 90 54 27
411 586 253 102 82 58
274 51 239 93 37 26
296 500 398 84 11 30
276 509 371 76 4 28
222 355 302 120 94 65
404 640 233 188 126 97
221 360 303 120 94 66
218 363 295 122 94 67
420 605 243 136 98 65
434 625 358 148 16 48
270 105 238 137 68 59
345 245 328 122 95 63
292 431 202 156 0 35
416 880 333 80 63 52
391 605 248 94 50 45
263 491 370 81 0 30
223 355 305 119 93 65
300 465 312 98 65 46
300 860 349 154 119 96
468 506 291 140 1 44
245 385 333 123 95 68
222 361 306 120 95 66
388 804 271 142 109 86
286 933 265 81 71 69
240 405 337 126 98 69
384 845 233 68 59 56
296 489 301 107 41 47
307 562 211 163 17 50
285 705 238 124 17 34
409 795 208 74 57 48
346 90 286 106 30 42
362 627 295 182 13 57
286 582 394 114 84 66
345 365 298 120 95 68
224 360 308 120 95 66
370 20 283 97 44 45
259 260 250 138 106 71
254 460 369 101 3 30
214 375 293 123 96 67
241 356 321 112 90 65
270 106 243 143 95 74
394 825 194 103 78 63
216 375 298 123 96 67
394 535 255 75 11 28
213 378 290 120 95 67
233 711 342 142 94 72
350 230 322 120 95 67
276 587 389 116 86 67
240 700 293 112 5 34
182 510 292 152 0 40
444 514 269 174 16 39
212 385 293 124 98 69
260 460 182 75 33 39
495 871 248 132 108 83
337 99 269 119 19 42
383 583 296 130 24 51
335 405 332 142 99 74
215 380 298 123 97 68
390 845 243 68 55 49
321 12 298 144 47 65
259 456 383 107 18 39
201 430 308 95 21 37
217 380 302 122 96 66
351 118 290 111 90 67
203 418 299 81 66 53
286 385 269 69 59 49
217 370 297 124 97 68
336 330 333 138 102 72
208 567 251 189 11 49
253 456 369 91 17 32
269 105 233 128 37 44
215 605 323 94 33 42
217 376 302 123 96 66
218 375 303 122 96 66
363 866 215 88 74 68
304 481 205 114 14 25
321 505 206 116 22 33
218 379 304 122 96 67
368 27 264 115 99 82
255 525 198 174 9 41
221 370 308 121 95 65
219 380 308 122 96 67
415 568 325 68 20 26
355 414 242 102 27 29
395 525 252 62 10 23
471 880 254 92 80 71
246 560 218 141 8 37
221 380 313 121 95 66
321 556 211 54 32 34
343 909 250 72 64 64
335 965 288 85 79 82
222 504 362 175 11 56
220 385 313 122 96 67
280 573 369 136 11 44
370 586 382 135 12 43
221 385 318 123 97 68
227 325 265 130 98 64
358 166 301 118 95 69
291 839 264 179 123 98
358 431 268 90 65 40
327 589 434 129 92 82
228 330 266 127 98 65
228 373 320 119 95 68
181 485 283 126 8 36
280 845 278 188 128 99
228 336 266 123 96 63
209 601 288 191 2 51
385 722 251 125 79 66
280 70 274 112 31 46
192 451 273 113 7 33
443 745 182 86 65 49
254 690 262 110 22 38
275 310 293 74 62 48
260 490 187 68 37 40
371 680 258 132 21 45
442 592 273 188 126 102
233 322 261 127 95 64
358 505 234 102 25 31
257 55 271 105 39 43
282 916 270 63 58 59
242 477 356 74 18 28
352 633 246 126 39 50
407 827 221 70 59 55
333 189 310 107 88 69
234 325 261 124 95 63
285 479 302 125 74 65
203 643 345 123 96 64
236 325 260 121 93 62
336 60 263 119 27 35
192 675 315 148 106 77
320 675 338 158 14 52
235 330 261 121 93 62
340 586 387 132 16 42
285 505 199 43 35 39
233 484 365 37 29 30
339 635 240 47 33 36
202 579 278 76 32 39
316 570 403 81 6 27
289 420 173 95 35 38
235 335 262 119 93 63
384 790 172 67 53 46
237 330 260 117 91 62
310 614 418 182 112 100
250 495 363 82 12 29
304 670 236 54 34 35
182 510 264 122 17 40
265 580 222 184 8 44
300 890 253 51 48 49
419 507 260 79 2 25
240 330 260 110 87 62
246 619 259 69 31 39
222 440 341 32 29 29
275 505 373 78 2 28
240 335 259 108 87 62
387 862 247 66 56 53
321 210 298 104 85 64
300 535 412 154 7 49
245 390 256 98 82 64
380 586 312 153 16 50
406 475 281 91 71 63
237 335 260 115 91 62
364 549 239 65 18 28
310 949 368 87 81 79
225 585 243 204 13 50
366 640 268 99 24 42
230 345 264 118 93 65
308 467 210 85 38 39
467 513 276 76 20 30
240 560 223 58 32 37
226 340 268 119 94 64
365 60 243 113 97 79
268 185 254 119 94 66
326 368 271 97 85 72
227 350 265 118 94 66
295 810 324 59 49 45
330 437 225 63 34 31
280 650 343 184 12 58
316 799 230 82 64 55
217 603 332 180 3 57
340 110 278 111 87 61
309 720 357 165 7 53
435 470 272 130 19 34
235 345 262 114 91 65
240 340 260 106 86 62
332 205 275 123 95 61
275 605 357 56 31 34
251 695 263 53 34 37
285 416 203 108 53 42
238 341 261 110 88 63
351 553 370 61 49 33
343 376 284 112 92 68
255 435 339 123 91 61
324 406 245 138 36 18
418 502 265 88 0 31
239 345 261 107 87 64
281 65 247 128 72 64
286 814 255 81 63 55
234 350 261 113 91 66
303 455 315 94 65 45
240 350 259 104 86 65
355 411 252 100 14 32
225 545 217 113 28 41
243 474 369 57 25 31
222 636 366 146 107 81
240 515 206 82 30 37
322 420 226 88 38 37
238 348 261 108 88 66
351 491 300 148 108 89
245 325 258 103 84 63
239 621 266 190 11 49
180 480 258 54 32 35
419 585 343 134 18 37
293 310 324 117 90 66
282 82 264 120 85 66
399 591 367 86 28 39
245 335 259 101 83 63
250 325 258 99 82 64
348 412 265 69 56 42
250 335 319 122 93 65
255 325 258 95 80 64
273 693 246 127 4 27
332 50 273 106 38 44
196 710 314 157 110 80
266 33 251 112 96 79
250 330 258 98 81 63
270 240 263 118 93 63
265 115 274 119 93 68
380 685 242 105 64 54
340 600 403 128 60 66
255 335 259 93 78 62
186 430 258 133 8 42
421 588 332 97 24 38
245 345 259 99 82 63
336 556 216 153 1 35
421 499 257 74 31 26
292 335 333 118 87 64
241 481 372 45 28 28
241 345 260 104 85 64
249 340 260 97 81 63
251 340 261 95 79 63
271 59 227 116 45 29
355 35 289 119 28 47
320 790 227 82 63 55
251 337 261 96 80 63
250 344 261 94 79 63
339 226 326 117 95 70
390 564 378 106 9 34
231 824 342 201 139 112
255 340 260 92 78 62
265 215 283 111 89 65
295 685 237 117 17 31
378 93 266 118 78 71
385 560 239 73 28 36
253 336 261 94 79 63
375 95 229 153 18 42
265 280 298 70 59 47
395 546 268 69 20 24
445 562 317 69 14 30
240 510 383 84 24 38
399 474 269 54 30 31
386 96 232 143 30 49
253 339 261 94 78 62
393 553 245 121 27 41
355 150 298 112 91 68
345 25 257 123 21 30
255 345 260 91 77 63
212 503 347 69 24 33
369 604 302 165 19 53
255 350 259 90 77 64
225 625 288 62 32 36
202 583 311 176 9 49
230 325 304 122 97 70
275 415 243 76 64 52
187 543 290 181 0 48
227 330 302 122 97 70
241 529 351 60 26 31
378 444 249 66 30 35
230 330 304 120 95 69
277 479 391 82 13 34
367 190 288 124 99 70
231 335 307 117 94 67
265 535 349 137 55 65
233 324 305 121 95 67
232 327 306 120 95 68
455 515 271 65 31 32
342 58 255 127 25 37
253 833 336 186 127 101
295 495 403 85 10 27
367 145 273 121 95 65
326 195 303 104 84 62
328 495 210 128 7 29
254 452 377 84 14 30
352 664 315 150 14 47
239 325 309 113 87 59
388 603 332 91 28 45
280 45 282 126 96 74
235 330 308 113 90 63
300 330 287 86 72 57
235 335 309 111 88 63
374 539 245 61 14 23
234 340 309 112 90 65
325 905 358 78 61 49
325 548 338 74 61 46
315 890 362 158 113 89
239 330 310 113 89 62
303 436 320 88 65 42
241 330 312 116 90 63
305 395 248 105 89 72
370 575 348 147 5 47
240 380 257 98 82 66
238 334 310 111 88 63
290 565 398 76 27 37
385 735 188 63 48 41
344 182 311 112 92 72
230 340 307 118 94 67
353 395 308 127 100 66
230 345 308 115 92 65
337 335 330 139 103 72
229 765 283 127 89 63
261 832 329 180 130 105
363 431 252 96 4 29
229 349 310 117 93 66
212 387 296 122 96 69
453 570 336 159 6 52
246 710 269 57 33 40
330 250 278 135 101 64
384 495 250 65 25 29
324 401 249 125 54 27
211 555 332 167 0 51
342 504 216 44 34 37
358 670 240 57 26 32
239 700 298 91 16 34
231 350 312 112 90 65
332 515 211 125 23 32
197 498 336 154 9 47
233 343 310 111 89 64
267 248 285 95 78 59
235 345 312 109 88 64
255 838 321 192 139 112
414 874 251 80 68 64
330 515 209 83 27 35
374 623 212 103 87 69
234 350 314 109 88 65
280 350 313 80 63 48
382 61 229 120 33 31
266 195 279 110 88 63
440 860 327 71 55 40
365 882 327 39 35 34
236 351 316 108 87 64
242 325 311 117 91 62
272 548 335 93 68 51
365 595 239 56 28 31
245 325 313 116 90 62
208 502 344 48 27 29
475 535 289 73 7 24
200 495 338 114 10 34
363 36 255 112 96 78
296 13 311 139 43 53
269 710 246 120 15 35
368 493 271 124 80 60
244 335 315 120 93 65
305 545 322 91 73 54
247 330 316 118 91 64
288 572 371 122 15 40
361 926 348 57 50 51
333 165 283 105 86 65
296 325 343 124 90 66
248 324 315 115 88 61
215 695 350 164 112 86
359 255 313 130 99 69
250 325 317 116 87 62
255 325 319 116 84 62
250 330 318 117 89 63
320 495 207 126 10 27
271 300 268 102 85 68
255 330 320 114 86 61
285 510 198 67 31 37
360 526 225 40 36 41
245 340 317 116 90 63
260 65 213 119 32 31
244 349 320 111 88 62
339 180 272 127 96 56
405 595 383 161 10 51
250 340 319 123 93 67
481 869 245 181 174 168
343 275 331 129 95 64
230 360 262 116 93 66
320 245 328 112 92 71
286 375 278 67 59 50
256 510 396 58 28 32
234 355 261 113 91 67
356 65 244 103 33 27
335 907 368 40 37 38
250 380 331 126 98 67
286 375 283 66 58 49
236 355 260 109 89 67
415 820 243 61 50 41
389 95 238 156 22 54
345 675 234 52 32 34
264 323 260 92 78 64
233 360 261 113 91 67
183 517 268 73 30 34
245 405 256 98 82 64
289 527 365 82 24 33
240 360 258 100 84 67
226 500 367 89 26 36
325 465 322 112 77 54
275 305 283 84 73 61
235 365 259 107 88 67
289 510 312 156 17 58
330 435 227 79 32 33
230 370 260 114 92 66
335 11 298 158 74 95
270 36 249 98 80 62
351 114 254 136 63 55
230 375 259 115 92 66
327 535 305 118 90 71
231 505 373 138 12 43
375 60 243 126 108 91
317 872 235 57 52 50
400 712 196 56 39 32
430 525 277 62 22 30
331 464 216 80 32 33
342 626 320 144 22 51
225 385 323 120 95 68
336 800 219 64 52 50
226 381 260 119 94 66
250 576 358 127 7 40
325 550 333 78 64 48
230 380 258 116 93 66
362 698 205 162 116 89
202 735 310 154 108 78
219 429 334 45 29 28
335 730 334 167 21 55
235 370 259 105 87 66
250 370 328 123 95 67
245 365 258 96 81 65
221 575 342 34 27 30
216 485 347 49 28 30
250 355 259 92 79 65
412 617 255 195 131 108
196 470 323 31 28 28
418 618 252 198 130 103
444 594 346 167 11 52
203 541 330 163 0 48
348 651 316 95 20 37
255 355 259 90 77 65
255 360 260 90 78 66
233 618 363 121 94 66
354 765 207 104 75 49
197 427 293 113 16 35
413 808 241 116 76 58
321 13 301 146 33 60
390 596 321 56 36 37
250 365 259 94 81 66
293 608 386 174 110 93
273 689 345 49 20 29
380 885 353 55 47 41
302 503 401 84 10 31
253 365 260 93 80 66
256 365 261 92 79 67
270 485 378 88 0 29
250 375 259 95 81 66
299 300 301 112 92 70
260 325 319 114 82 60
255 375 259 94 81 66
332 836 220 61 56 56
386 510 246 105 7 35
188 460 278 45 31 34
310 550 206 115 26 39
266 175 253 118 94 66
284 65 273 118 84 70
206 684 351 175 118 93
354 685 223 70 51 43
342 145 270 119 93 63
467 503 290 141 0 47
391 565 258 45 28 29
295 11 308 128 33 44
250 380 259 96 81 66
255 380 259 95 81 67
255 385 259 95 80 65
340 469 316 134 94 71
345 865 216 90 73 60
255 415 337 130 96 66
227 356 312 117 94 67
416 818 239 60 47 36
226 360 313 117 93 66
478 587 302 79 21 22
217 618 295 128 22 43
230 355 314 113 91 66
450 460 278 136 17 44
299 365 339 132 96 78
230 360 317 115 93 67
370 600 448 64 22 23
244 735 267 134 4 35
230 365 319 118 94 68
278 502 311 144 18 43
386 545 236 148 12 38
250 600 349 87 22 35
235 355 318 110 89 65
213 607 286 198 6 53
234 359 319 112 90 66
250 735 334 33 25 25
354 465 307 145 105 81
256 331 321 115 87 61
356 592 446 53 17 31
401 827 213 73 57 53
310 360 345 149 105 83
363 219 280 135 103 62
255 335 321 122 92 64
303 582 370 93 24 38
271 843 284 185 135 105
213 454 335 126 8 38
232 828 315 210 140 109
251 345 321 119 91 64
365 40 255 108 94 78
350 409 248 100 22 31
252 336 321 124 93 65
280 840 308 104 74 61
255 340 322 127 94 67
244 451 358 108 13 37
315 905 242 82 72 72
243 641 276 173 7 43
363 175 296 123 98 69
255 345 323 126 93 66
393 80 247 125 40 51
385 765 172 78 59 49
357 785 188 58 47 43
240 360 323 115 92 66
289 560 403 80 18 32
220 710 350 168 116 89
285 549 342 80 62 43
311 285 294 101 79 54
253 498 390 57 31 30
191 490 323 45 29 30
336 186 311 106 88 70
233 363 320 115 93 69
267 145 263 123 95 68
367 602 310 155 18 51
405 726 162 92 68 49
374 50 254 118 103 88
402 462 276 96 6 32
266 215 253 123 97 68
264 470 394 91 26 37
315 561 418 87 17 33
239 364 324 116 92 66
259 50 274 117 16 43
301 604 418 177 116 100
232 629 280 190 13 50
359 485 298 143 103 81
231 370 322 119 95 69
256 475 387 97 20 34
339 340 328 137 104 72
340 690 229 103 16 26
230 375 323 119 95 69
474 560 271 127 89 56
347 375 323 132 101 68
295 23 296 149 105 85
255 635 368 181 116 94
394 606 382 105 26 40
226 380 322 119 95 68
235 588 346 45 26 29
195 435 293 97 16 32
340 212 271 132 101 65
228 384 325 120 96 69
284 413 186 119 52 40
235 370 324 118 95 68
350 680 234 42 32 33
225 405 258 111 89 63
350 185 268 136 104 64
212 569 244 184 9 47
235 375 327 119 95 69
255 455 378 89 22 34
354 546 287 94 71 53
355 587 340 114 0 35
250 639 343 89 45 45
238 368 325 118 95 69
424 477 275 51 34 32
335 16 299 155 99 103
437 872 260 108 94 90
229 630 288 133 23 48
342 957 286 82 76 77
268 423 218 68 50 45
240 370 327 119 95 67
258 165 281 112 89 64
387 872 308 41 37 34
270 15 263 100 86 73
427 572 269 111 83 38
489 819 182 84 84 84
240 375 329 120 95 67
232 377 326 120 96 70
235 380 328 119 94 68
348 476 225 73 32 33
241 380 331 120 94 68
215 575 333 153 5 49
244 359 325 117 93 65
246 361 326 120 95 66
254 831 288 84 66 62
282 401 263 72 61 50
250 359 325 121 93 65
310 339 281 90 78 64
250 361 326 121 94 65
370 740 204 121 93 65
355 13 288 102 50 54
250 365 328 122 94 66
410 545 284 69 7 26
380 495 249 66 25 26
292 302 315 97 79 60
290 480 200 128 4 29
254 361 326 123 94 65
310 420 218 57 37 40
255 365 326 124 94 65
329 330 342 137 97 70
275 36 285 132 17 48
361 230 282 139 104 63
291 320 308 87 68 51
310 245 298 105 85 63
389 611 392 120 16 40
245 376 331 122 95 67
440 594 278 176 123 106
298 482 305 103 56 49
245 380 332 123 96 68
344 90 285 109 19 43
250 375 330 124 96 67
215 690 349 161 108 84
250 377 331 125 97 68
250 385 333 126 96 66
280 585 223 192 6 44
278 480 316 139 95 76
275 475 183 142 19 42
491 524 277 60 23 32
264 435 332 130 93 66
255 385 332 129 97 66
509 883 217 102 84 68
390 720 188 83 64 44
186 425 257 126 6 40
404 814 252 135 85 64
187 422 256 123 0 39
350 140 263 126 97 62
397 685 223 135 95 61
265 427 166 57 41 46
190 421 258 105 12 36
270 347 321 112 77 57
189 424 260 128 4 40
410 560 358 100 23 30
404 578 332 57 25 29
298 465 205 50 37 39
191 425 262 130 6 40
297 357 280 80 69 58
190 430 263 136 2 41
185 440 258 84 23 36
358 450 302 138 100 72
182 447 256 83 26 34
419 855 217 145 121 125
250 535 352 87 22 35
257 427 223 71 51 46
301 849 265 174 119 95
375 635 202 108 87 63
359 889 249 70 65 66
198 424 293 107 17 37
188 435 260 133 6 42
320 576 408 87 8 29
461 558 304 125 11 40
319 575 413 78 14 26
190 435 263 134 1 40
187 446 261 92 21 33
190 445 263 104 18 36
221 550 341 143 6 45
345 455 223 117 21 34
182 450 256 93 25 38
326 911 246 75 67 68
273 95 239 110 78 58
182 455 256 82 24 33
334 165 278 112 91 67
184 455 258 92 24 36
287 341 308 87 67 49
250 410 337 131 99 68
189 490 318 68 28 35
234 645 313 52 27 33
187 673 336 169 116 92
182 460 257 58 29 34
507 553 290 121 96 72
390 540 254 63 19 29
350 125 263 122 92 56
227 795 351 178 129 101
182 465 257 76 27 35
421 567 327 71 19 26
187 451 261 117 12 37
418 879 331 78 60 51
198 430 287 120 9 35
211 400 303 122 96 68
353 172 306 116 95 71
460 545 283 93 27 28
430 819 208 92 75 61
310 933 260 97 87 88
301 370 264 94 81 66
356 490 227 48 35 37
440 590 267 144 101 71
267 135 258 128 97 69
191 450 268 117 4 35
489 575 306 168 7 52
414 779 188 74 56 48
189 455 268 98 16 32
395 591 316 69 34 38
329 968 289 88 82 83
186 460 263 80 25 33
362 635 288 158 16 48
413 772 230 126 87 53
187 461 268 67 27 32
186 465 268 69 27 33
186 465 273 68 29 36
188 459 269 62 27 32
211 400 273 112 90 65
265 54 228 113 93 72
192 451 278 101 15 31
279 68 276 109 31 42
260 500 189 134 14 37
234 750 278 118 15 38
190 455 278 44 29 33
285 11 283 114 71 57
262 140 275 114 89 61
191 450 288 111 9 32
268 418 188 41 26 28
190 455 283 85 23 35
214 465 339 127 7 37
197 656 347 140 101 73
190 455 288 112 12 33
330 415 243 103 29 22
187 462 283 37 31 34
440 460 282 81 23 32
337 156 292 105 85 63
397 462 271 61 22 32
186 465 283 46 32 34
252 501 391 62 29 33
264 240 288 103 83 61
414 780 243 142 102 66
319 451 325 106 77 56
368 657 264 126 34 55
255 500 342 135 93 77
187 461 288 48 32 34
181 470 258 79 27 34
359 210 275 133 102 63
320 967 334 87 83 83
183 470 264 86 25 34
233 827 312 209 140 108
239 620 349 87 69 49
260 55 274 98 43 42
423 864 252 82 72 64
399 465 268 66 30 33
278 597 375 103 67 57
443 607 336 123 15 35
181 475 263 46 30 33
180 480 263 44 30 33
181 476 268 53 31 34
335 525 211 104 25 34
350 625 243 114 27 40
346 585 226 114 20 36
366 505 278 133 88 71
183 473 265 54 29 34
280 365 298 72 59 48
498 610 311 99 13 36
342 175 270 129 98 59
430 594 277 156 110 98
184 470 268 67 29 34
183 474 268 72 32 38
465 545 292 140 8 45
225 445 343 89 23 36
184 470 273 52 31 32
218 414 325 130 103 76
391 670 229 154 101 74
361 694 325 133 13 42
182 476 273 64 30 35
184 470 278 66 31 35
274 810 336 47 40 39
328 382 265 96 83 70
183 474 278 82 29 35
182 476 278 71 29 32
353 455 311 147 105 80
292 842 341 100 83 65
290 500 198 116 16 31
181 480 278 59 29 35
184 470 283 69 29 34
299 621 236 35 31 37
361 897 261 78 68 67
183 474 283 101 20 34
183 474 288 124 7 34
410 712 165 92 64 36
322 579 418 70 17 27
365 680 313 86 20 35
454 461 274 96 24 36
181 480 283 53 29 32
349 484 307 144 104 83
182 476 283 88 23 34
260 275 254 140 107 72
315 465 213 61 35 34
285 555 408 87 27 38
405 589 314 83 18 33
182 477 288 124 8 37
297 687 235 122 12 27
362 119 245 146 23 39
189 455 293 116 7 33
215 455 337 125 9 38
364 185 274 135 103 64
419 610 372 161 11 51
353 396 298 116 94 68
219 390 313 122 97 68
265 495 333 138 98 77
365 165 293 120 95 66
192 451 302 120 1 35
502 597 302 96 0 29
203 536 231 164 9 48
305 946 370 72 69 70
387 97 249 151 22 58
294 567 389 45 26 33
191 455 303 120 1 36
256 460 373 101 10 34
271 485 401 52 29 32
345 115 289 106 87 65
186 465 293 50 26 32
202 760 314 178 120 93
376 820 187 68 54 49
420 862 252 86 75 67
385 871 293 32 30 30
414 785 213 68 52 42
280 582 221 195 7 45
188 458 293 118 7 35
206 465 332 129 4 39
189 460 303 121 0 35
393 738 171 59 47 38
402 597 330 94 26 37
188 463 300 120 14 35
351 220 319 123 98 70
188 465 303 123 0 36
267 246 257 127 98 66
183 475 293 127 3 35
284 70 253 135 36 47
390 525 248 60 10 25
456 510 271 101 28 35
251 491 386 77 24 33
217 799 342 186 127 97
183 479 294 131 1 37
211 687 350 169 116 91
243 672 305 80 27 30
184 475 298 129 1 37
434 727 212 76 61 46
204 525 232 78 25 30
183 480 298 133 1 39
231 475 357 86 23 33
187 466 302 124 2 36
360 125 288 116 94 71
260 660 258 136 0 34
269 200 277 112 90 67
197 738 331 182 124 101
217 680 316 112 72 49
337 350 334 129 99 66
185 470 298 125 2 36
335 604 409 174 106 101
237 690 309 36 30 30
311 540 388 79 28 32
185 480 303 131 1 38
266 440 329 129 92 67
214 450 334 126 10 38
295 460 310 92 60 42
363 645 255 37 28 37
187 471 306 128 1 37
326 399 252 110 77 51
192 466 312 126 2 37
334 940 372 57 51 49
192 471 316 126 12 38
187 475 307 131 1 37
315 265 289 127 95 59
260 150 244 125 97 64
340 420 234 60 34 34
186 480 308 78 18 32
315 320 354 143 95 76
188 474 309 131 0 38
280 645 344 183 14 58
377 61 270 109 85 73
357 495 227 47 34 35
355 412 245 107 21 31
189 475 313 131 1 39
364 940 298 66 59 58
255 510 363 111 39 44
188 478 310 127 3 38
325 800 313 155 108 87
191 475 318 110 14 37
243 470 353 89 41 39
195 490 328 40 27 30
180 485 258 95 29 38
265 190 249 128 102 72
340 11 293 158 96 114
218 602 335 183 0 57
414 587 250 102 85 67
245 630 268 173 5 43
263 501 336 138 95 77
180 490 263 67 28 35
430 490 269 50 32 28
357 611 314 106 31 46
181 495 258 79 29 39
305 685 347 147 12 46
352 394 309 127 100 67
284 455 193 150 0 37
255 495 364 81 5 29
345 225 271 136 102 62
265 745 249 55 33 38
340 840 212 72 60 57
291 395 322 128 86 72
345 520 293 130 80 71
180 495 273 143 8 41
307 291 295 92 75 55
295 695 354 60 25 31
267 467 396 127 16 49
180 485 278 96 25 38
181 485 288 130 3 37
270 380 323 128 87 65
268 295 265 105 87 68
410 886 328 70 56 48
193 515 325 79 34 40
235 425 341 129 99 71
180 490 283 125 8 37
408 598 381 162 8 50
181 490 288 137 1 38
203 494 339 105 9 32
282 452 182 154 0 39
445 590 278 187 124 101
301 435 212 65 35 39
370 685 199 130 95 59
293 330 334 117 87 62
262 175 246 130 102 67
309 408 237 131 51 29
330 385 264 98 84 71
182 500 258 153 9 44
219 500 359 158 5 48
289 851 278 182 122 93
198 515 330 83 30 37
270 195 258 117 93 66
183 506 257 130 11 38
385 40 227 105 24 39
182 505 263 145 5 39
230 615 339 70 28 36
427 588 281 122 82 78
181 505 268 146 1 39
181 505 273 145 0 38
367 655 273 65 25 34
183 510 258 104 21 36
241 446 357 115 17 38
340 559 383 81 19 29
182 510 273 150 0 39
338 75 280 100 76 59
181 505 278 146 0 39
260 450 178 50 34 39
450 540 296 106 16 38
181 500 283 144 0 39
221 671 354 173 114 89
182 505 282 147 0 39
312 716 225 118 22 31
372 585 335 94 2 28
360 609 341 171 18 55
182 510 278 149 0 40
194 494 329 57 29 34
357 179 305 117 94 68
230 431 341 94 64 45
407 749 228 124 87 52
183 507 288 150 0 41
242 444 348 99 65 49
220 810 318 197 133 102
353 624 245 106 33 37
373 100 276 113 72 61
243 674 286 38 27 33
419 815 228 62 48 39
320 435 223 96 31 34
300 595 224 86 32 40
400 510 244 70 33 33
182 510 283 150 0 40
387 734 263 129 93 70
367 155 283 120 94 63
213 404 309 123 97 67
440 520 278 124 10 36
486 614 319 117 25 41
361 110 244 131 30 41
183 508 284 150 0 40
328 189 299 104 84 62
206 525 337 61 24 33
420 830 228 86 68 53
470 535 288 79 8 27
349 39 256 88 45 28
182 510 288 151 0 40
273 504 405 79 27 36
315 375 341 145 102 80
336 370 277 100 86 72
341 110 268 130 95 71
240 550 347 56 26 31
183 508 286 150 0 41
412 813 218 71 55 49
337 626 325 127 28 51
357 797 295 42 29 31
364 145 288 117 94 67
371 685 253 71 24 37
384 879 253 72 64 61
440 852 310 50 41 35
207 530 224 130 19 39
244 470 358 84 5 29
382 544 251 72 9 26
344 355 323 129 101 69
375 835 258 27 25 25
182 482 296 134 0 34
265 460 179 134 18 37
425 604 267 187 127 110
184 485 303 134 4 39
268 626 251 44 30 37
249 660 272 134 1 35
285 556 206 180 0 36
363 105 241 132 19 33
384 61 253 105 90 72
454 889 263 87 73 62
234 475 359 70 26 32
228 399 330 123 98 70
326 780 219 71 56 51
435 501 264 87 29 27
282 480 308 138 88 73
182 495 293 145 1 40
242 471 351 97 51 45
440 726 202 92 69 46
370 879 323 44 39 37
279 490 313 141 87 75
182 490 297 136 4 38
346 285 298 153 103 75
376 49 257 108 96 83
360 865 214 104 85 75
265 365 262 82 72 61
183 490 299 91 18 33
187 540 298 176 0 47
329 300 342 121 90 56
224 511 350 165 1 49
281 12 306 131 77 63
184 490 303 61 24 31
183 494 299 138 9 41
514 584 275 167 18 33
247 564 220 144 10 40
183 495 303 109 23 39
384 60 233 111 38 36
388 715 288 114 26 46
187 485 312 54 26 32
355 145 297 113 91 68
365 774 174 83 63 50
349 105 256 111 56 41
188 485 314 83 24 35
187 492 316 61 32 38
280 500 308 141 21 47
411 480 271 50 29 31
187 495 316 37 27 29
416 740 149 105 72 51
265 360 263 82 72 61
280 11 278 108 81 69
350 30 257 107 34 31
270 690 248 125 6 30
365 600 339 100 1 30
417 488 271 65 32 40
425 624 364 137 19 37
188 489 315 44 24 29
366 573 375 105 19 36
412 794 224 59 43 36
182 504 291 151 0 40
257 155 280 113 90 66
358 498 296 150 108 90
290 499 304 147 16 50
378 90 266 114 37 45
183 502 294 150 0 41
352 688 325 38 26 30
376 674 240 87 59 50
183 505 293 151 0 40
355 614 442 183 26 61
330 750 327 91 70 61
306 295 347 106 86 63
220 504 358 179 3 54
364 205 279 136 102 62
220 680 318 116 71 52
183 501 299 148 5 43
225 690 318 117 73 55
320 485 209 125 7 28
318 552 381 66 35 30
305 280 298 114 93 71
296 822 320 128 88 70
183 500 303 126 11 40
361 582 345 143 11 45
405 585 358 136 23 44
330 492 310 120 81 65
319 263 335 106 87 66
183 505 298 152 0 41
331 12 268 132 59 55
278 99 258 140 31 48
382 571 241 130 26 46
200 665 312 120 90 57
183 505 303 146 6 41
183 510 294 153 0 40
232 662 353 162 105 81
184 510 303 118 14 37
345 28 292 141 29 57
387 583 370 91 28 37
267 925 303 53 50 51
184 500 308 106 22 40
184 505 308 53 25 33
300 350 344 137 98 80
305 545 412 130 17 43
185 505 313 115 19 41
292 775 240 74 59 51
299 305 343 111 88 60
187 500 317 36 29 31
217 808 329 202 139 108
300 635 343 116 23 44
200 755 328 185 124 99
345 904 249 67 60 60
242 444 345 110 79 55
221 395 322 121 97 69
405 596 243 104 87 68
184 510 308 38 29 34
404 809 257 151 102 77
197 427 271 119 12 39
196 440 303 122 4 36
199 430 303 41 30 32
391 740 273 135 29 46
186 510 313 126 16 43
325 650 333 73 27 37
281 842 304 132 91 68
302 429 321 100 73 52
271 610 367 110 66 64
187 510 317 96 21 40
345 907 371 44 40 40
190 495 323 43 31 33
373 501 245 44 33 30
192 496 327 50 31 33
193 532 320 41 32 31
384 686 241 129 78 64
189 505 323 38 30 32
357 200 309 123 98 69
400 775 158 94 70 52
207 402 287 124 98 68
377 122 248 141 47 61
207 405 288 123 97 68
302 528 381 86 19 33
371 100 279 114 34 45
359 665 243 81 24 36
206 410 278 111 88 63
244 755 266 139 2 36
219 424 330 111 89 66
310 324 286 89 75 61
214 390 303 124 97 68
206 416 274 96 78 59
325 195 298 105 84 62
354 121 291 113 92 70
245 574 363 131 5 40
465 515 273 59 31 29
205 415 278 104 84 62
204 415 283 110 89 66
313 278 340 103 85 67
216 390 268 113 91 65
213 395 271 112 90 65
310 675 342 157 13 50
222 775 294 152 104 75
210 470 338 129 6 39
263 249 250 132 103 70
388 666 231 154 100 78
266 12 268 96 77 65
472 563 305 129 14 42
240 675 323 77 21 30
325 270 283 138 102 67
211 395 273 114 91 65
375 760 297 96 76 69
330 540 211 99 26 35
248 450 364 108 13 30
409 596 362 101 26 39
355 555 373 60 46 31
218 390 266 114 91 65
247 675 274 47 33 36
280 580 219 195 7 44
220 395 263 111 89 64
219 400 262 108 87 64
362 698 325 142 13 46
300 500 403 83 13 29
229 725 347 164 112 85
273 98 271 124 96 71
219 810 328 202 138 108
385 596 336 40 29 28
275 846 293 185 134 108
225 395 259 112 89 63
236 765 274 69 55 51
277 543 400 107 18 41
319 354 346 148 103 77
222 392 260 114 91 63
212 588 265 181 13 53
385 535 234 102 28 39
222 400 260 108 87 63
373 814 276 86 67 60
224 660 324 142 94 78
235 620 353 101 80 57
379 51 259 106 95 82
194 700 339 171 118 93
245 555 218 141 16 41
225 400 258 109 88 64
217 396 265 112 90 66
212 387 275 115 92 66
490 600 304 101 26 37
325 598 445 119 94 74
269 467 396 95 20 38
210 390 283 122 96 67
329 395 336 146 102 75
373 918 309 50 43 42
238 796 281 45 41 48
348 270 326 131 98 67
210 390 288 123 96 68
268 125 268 121 90 67
209 400 278 120 95 67
208 400 283 122 97 68
473 567 316 118 7 37
208 400 288 124 97 67
284 847 277 186 128 97
373 604 293 65 27 35
210 405 273 109 87 64
360 810 187 72 57 50
370 470 243 119 19 33
277 417 208 74 40 34
410 586 258 96 75 52
430 584 308 48 31 31
212 406 269 103 84 63
373 616 426 149 17 47
379 61 244 118 80 62
281 70 248 126 96 75
361 245 288 149 109 73
335 155 283 104 85 65
204 691 310 131 98 65
262 115 242 133 97 67
274 895 348 162 114 98
289 335 318 98 75 55
214 405 267 101 83 65
511 584 275 146 23 43
354 610 239 38 32 36
335 270 283 149 107 71
244 455 358 101 8 33
426 760 173 69 53 45
270 190 273 115 92 67
228 479 355 88 30 38
274 590 355 76 19 34
212 402 270 107 87 67
248 695 267 96 31 39
215 410 263 97 82 66
209 410 273 105 85 63
295 556 206 155 16 41
211 410 269 99 83 65
258 513 195 177 4 34
337 92 273 100 80 56
275 465 179 95 30 39
429 858 306 73 54 42
208 414 272 98 78 59
226 804 299 189 128 97
411 624 383 175 19 53
222 405 260 107 86 62
335 200 317 107 89 70
216 590 258 192 11 50
219 410 261 101 83 63
226 410 332 123 98 70
260 550 355 31 26 29
425 885 268 97 84 75
225 415 258 106 85 60
266 340 320 119 80 61
367 145 278 119 94 65
317 12 290 148 82 85
277 54 242 103 49 32
238 781 276 69 56 51
216 390 308 122 95 67
208 403 281 120 96 68
363 914 366 51 45 41
360 35 289 113 51 53
207 406 292 123 96 67
204 415 293 110 89 67
241 675 303 50 29 33
206 416 302 104 83 63
240 525 353 59 28 33
212 780 341 178 122 94
310 977 313 56 53 52
187 530 263 54 32 37
286 65 258 126 53 52
473 538 276 44 30 31
382 694 303 137 15 43
211 390 293 125 98 69
220 540 214 184 7 40
260 543 340 120 73 68
315 480 314 113 75 55
325 940 373 65 59 57
212 390 297 123 96 68
325 320 348 138 96 70
346 720 330 136 32 51
210 395 293 126 98 68
210 400 298 122 97 68
245 445 344 113 81 57
212 396 302 121 96 67
213 395 303 122 96 68
310 615 230 62 37 39
213 398 305 121 96 67
235 650 318 109 47 51
285 370 293 74 59 50
216 400 313 121 95 66
221 390 318 121 96 68
217 395 312 121 95 67
393 602 396 157 12 51
230 595 344 53 24 29
218 394 314 122 96 68
312 236 293 107 86 64
319 570 423 80 13 30
287 396 316 120 82 65
262 333 320 115 83 58
193 445 288 118 5 32
219 395 318 122 97 69
217 401 317 121 95 66
265 125 248 130 100 68
202 738 310 155 108 79
219 400 319 122 96 68
390 850 267 33 29 28
275 36 250 75 40 29
208 404 294 124 98 69
390 620 218 103 87 71
251 820 279 80 63 58
254 725 257 146 1 37
280 520 199 90 23 35
209 405 298 123 98 69
321 205 288 110 90 70
265 440 172 197 9 38
208 408 295 125 100 72
337 843 305 137 107 83
208 410 298 122 98 70
209 410 303 122 98 70
333 346 284 105 89 72
275 935 278 77 70 70
265 420 242 84 71 58
216 586 343 46 28 32
364 869 214 81 70 66
310 475 314 110 73 56
208 415 303 113 91 67
212 405 307 123 97 68
435 550 298 71 18 26
340 120 283 107 85 61
330 951 353 61 54 52
339 320 298 119 95 68
212 401 306 123 96 67
364 640 278 162 19 51
214 405 313 124 97 67
216 405 318 124 97 69
185 530 298 134 11 40
210 410 308 123 97 67
292 508 386 84 0 30
209 415 308 118 95 68
211 415 313 123 97 68
305 785 234 77 61 55
213 409 314 125 98 69
265 424 213 57 38 35
359 205 274 137 104 64
460 480 279 139 6 44
213 413 315 125 98 68
327 328 286 97 83 68
365 556 278 72 51 38
212 416 317 124 98 69
270 520 324 167 20 70
214 415 318 125 98 69
305 520 200 69 36 38
387 750 170 58 47 38
466 857 294 71 55 40
218 404 320 123 97 69
240 425 341 132 101 73
359 690 208 159 114 86
195 420 258 88 26 31
380 77 225 127 34 30
195 421 263 99 22 34
332 576 373 63 25 31
260 95 274 108 69 59
230 620 273 197 12 51
385 594 379 65 28 35
200 420 258 75 39 38
355 553 369 62 48 32
196 425 268 125 8 39
198 424 270 120 9 36
201 421 273 83 40 37
375 449 253 85 13 28
275 11 278 104 79 69
413 780 228 116 80 50
280 12 268 114 88 77
310 410 332 139 99 81
195 430 268 132 5 40
205 419 263 97 80 74
206 423 256 84 66 54
268 175 272 117 93 67
252 466 376 83 22 33
280 490 303 131 61 62
375 435 252 78 22 30
330 400 335 146 102 76
323 670 336 163 8 51
206 417 268 111 88 77
298 578 419 85 71 59
381 806 274 62 50 44
351 415 273 94 77 57
201 420 288 94 55 45
385 840 213 72 66 64
200 425 278 106 22 36
199 430 283 121 7 35
193 435 265 133 0 41
289 451 310 94 60 43
248 490 346 127 84 71
194 435 268 130 1 39
255 550 352 31 27 28
422 498 281 89 0 23
342 379 281 109 89 68
408 585 381 151 5 46
209 425 318 61 29 33
420 770 188 65 48 40
333 935 371 53 49 48
358 126 291 113 91 68
429 475 276 76 25 28
196 435 273 124 3 36
424 574 273 110 81 39
357 936 282 80 69 68
248 486 351 116 72 61
380 830 202 120 91 68
416 790 243 138 99 64
193 439 265 120 4 35
270 614 386 186 131 110
