ply
format ascii 1.0
comment Created by Open3D
element vertex 2219
property double x
property double y
property double z
property uchar red
property uchar green
property uchar blue
end_header
296 507 316 67 53 48
313 418 251 84 71 56
317 418 251 84 70 56
315 421 252 84 70 54
337 673 234 48 36 34
229 548 252 167 8 42
302 513 172 118 26 41
317 421 256 83 68 52
286 453 156 109 25 38
248 562 450 160 110 106
313 559 199 130 24 43
448 712 251 83 64 42
284 452 162 93 19 34
254 521 382 105 28 41
288 458 156 101 19 34
272 453 175 122 11 36
332 563 356 171 7 52
272 458 175 143 0 33
232 588 281 179 0 48
272 463 176 148 0 35
313 594 353 151 20 51
302 913 351 152 122 102
262 453 181 93 25 37
262 458 182 111 17 35
266 458 180 128 8 34
266 463 180 146 0 33
382 490 461 142 24 52
258 468 187 142 0 37
423 804 236 78 62 54
412 538 366 181 124 112
507 797 262 109 82 64
261 473 185 146 1 34
259 477 188 97 20 37
267 468 180 153 0 35
314 966 306 81 76 76
376 343 276 119 96 68
372 598 226 87 32 41
347 478 315 65 49 31
267 473 181 155 0 35
443 521 420 62 31 29
270 468 179 152 0 36
282 543 201 114 23 37
397 703 192 68 52 43
270 546 443 110 4 35
342 797 319 140 104 87
399 498 234 76 26 31
273 473 178 157 0 37
264 476 183 143 0 32
271 478 179 157 0 35
274 453 173 137 2 36
274 460 173 144 0 35
359 854 222 62 54 53
282 453 166 149 1 37
283 458 166 148 0 35
314 408 266 82 69 54
482 843 346 103 84 63
283 463 167 149 0 35
285 460 164 151 0 38
333 514 441 172 17 55
279 472 173 152 0 37
277 478 176 138 7 37
271 347 318 117 93 65
279 476 173 151 2 42
256 619 260 65 30 38
442 504 391 60 16 26
231 673 306 156 107 79
288 468 161 108 21 37
284 473 168 129 7 38
393 568 306 47 25 26
332 913 367 44 37 35
251 619 265 144 25 48
281 468 170 147 1 35
365 443 162 56 35 33
282 478 171 125 14 37
285 479 169 103 18 34
274 478 178 159 0 39
402 524 361 61 18 30
260 489 189 73 35 37
318 323 301 90 59 42
258 493 192 90 29 38
417 773 211 90 65 48
262 493 189 128 14 36
264 492 188 136 9 36
266 483 184 99 29 38
267 493 186 150 5 38
357 399 226 98 84 69
270 489 184 160 0 39
420 704 215 101 73 52
271 493 184 120 12 34
258 498 192 125 17 36
262 503 191 132 14 39
377 428 206 108 26 41
267 503 190 148 13 40
272 498 185 46 36 40
372 893 242 75 66 64
262 508 193 76 30 33
273 507 188 169 7 44
283 483 172 119 23 38
282 488 175 94 26 38
499 871 338 106 86 68
284 487 173 96 30 39
314 423 296 73 54 45
286 483 170 94 26 36
444 825 359 76 62 49
315 533 415 117 20 44
288 483 167 143 8 40
370 466 173 41 35 41
282 493 177 153 6 40
285 490 174 59 36 45
220 528 296 107 16 38
382 858 217 78 63 57
253 602 247 195 14 55
288 492 172 117 14 34
382 863 221 77 63 61
425 509 278 103 33 39
274 481 178 156 0 41
414 890 289 69 60 59
275 484 179 158 0 37
237 588 316 62 27 35
414 466 254 77 28 30
369 955 343 54 52 53
277 493 180 164 0 38
335 816 314 170 118 97
413 473 250 45 32 35
280 494 179 163 2 34
277 498 391 36 29 29
274 496 183 71 19 35
306 543 436 81 24 37
321 333 271 65 57 48
276 499 184 89 15 30
288 503 177 159 6 39
452 783 232 87 69 62
273 478 366 41 28 31
317 493 416 71 15 28
457 743 231 96 72 55
284 511 183 170 4 39
288 512 182 134 14 40
294 452 143 162 6 42
397 490 386 75 29 29
392 488 361 61 42 30
297 453 141 167 4 39
415 886 340 60 51 49
257 523 366 107 20 40
298 458 142 170 6 41
293 574 491 186 18 60
302 453 137 176 3 39
300 455 139 175 3 41
298 462 143 159 11 38
334 412 314 130 89 75
414 825 283 31 31 31
302 458 140 181 5 40
414 561 302 42 25 29
303 456 138 180 5 39
292 453 146 153 6 38
342 484 376 55 38 27
289 453 152 114 15 33
402 883 256 76 63 60
432 772 211 94 71 52
384 264 292 133 98 68
290 453 150 136 8 36
361 728 190 74 61 55
295 455 144 169 7 46
292 463 151 112 23 39
294 463 147 114 23 41
371 971 311 63 58 58
290 463 155 56 34 33
412 543 306 34 29 32
297 468 147 114 25 39
397 758 201 52 42 40
294 466 148 74 31 39
387 403 251 86 71 58
463 523 380 128 85 65
257 568 225 182 9 41
296 473 150 83 31 40
349 332 318 129 92 65
291 468 156 64 31 35
263 599 341 44 24 26
417 547 355 192 122 99
368 486 357 59 44 31
289 467 158 48 25 34
413 518 336 70 18 33
260 535 353 110 22 38
292 473 156 119 20 39
272 542 203 119 27 40
297 478 152 93 33 40
396 408 236 48 41 42
254 576 446 188 127 113
295 479 154 100 29 38
243 758 320 170 121 94
427 833 366 71 56 44
370 308 268 117 94 67
262 798 265 169 112 79
300 465 144 178 10 50
426 443 332 49 29 33
302 468 145 120 24 40
368 934 368 56 48 45
302 373 325 129 93 67
301 475 149 67 29 38
465 792 251 94 69 56
441 508 321 199 16 58
272 363 262 96 83 69
312 453 135 187 7 39
282 323 321 123 93 65
290 653 328 170 16 54
307 459 139 180 4 38
287 393 333 134 100 71
313 788 242 78 61 52
312 463 140 61 33 39
332 419 166 93 76 58
264 344 273 106 87 66
312 467 142 46 37 41
287 573 501 76 19 29
307 469 144 95 34 41
289 473 162 130 15 40
297 478 321 75 57 41
337 658 333 133 21 47
297 483 156 67 36 38
294 482 158 52 35 37
375 293 273 124 97 67
341 507 466 193 16 59
302 482 153 145 16 39
302 488 157 61 35 37
322 431 129 89 72 53
330 276 293 90 71 49
297 493 161 57 35 37
387 752 193 57 46 39
302 493 160 80 32 37
341 516 395 186 13 59
302 491 158 54 37 40
318 783 238 78 61 53
443 514 417 135 21 44
251 569 348 163 0 49
307 483 152 147 19 41
307 485 154 159 9 37
337 568 204 189 7 39
379 418 210 93 29 36
356 299 264 91 78 63
312 486 153 48 31 34
342 484 371 57 41 28
307 798 244 77 61 53
312 488 155 85 34 40
307 491 158 76 39 41
478 804 268 100 77 64
421 887 320 54 46 42
417 438 313 111 7 36
307 494 160 108 34 43
307 495 420 68 16 29
412 633 255 88 71 52
312 494 159 51 35 40
317 486 153 135 42 56
317 488 155 85 34 40
248 617 267 123 25 46
397 413 236 44 40 40
398 463 321 68 18 26
302 938 350 173 129 111
298 878 306 161 122 94
400 561 238 157 16 40
291 488 166 138 14 40
219 528 276 120 18 40
310 833 259 87 67 59
379 858 217 77 61 56
289 486 168 147 14 39
414 496 454 169 22 54
294 492 163 96 26 38
295 495 164 127 33 48
347 484 356 59 45 30
393 488 224 46 37 37
297 503 167 63 36 41
415 459 257 111 14 30
317 393 301 119 75 61
297 508 170 138 14 39
263 429 334 124 96 70
293 512 177 143 12 38
269 354 319 116 92 66
423 448 281 78 32 35
294 511 173 166 7 34
344 874 228 79 68 64
298 428 326 129 92 72
302 497 162 95 35 42
302 503 166 50 37 41
327 482 351 58 41 28
302 507 168 47 37 41
309 501 163 48 39 41
310 501 163 51 34 45
297 283 271 86 75 63
395 578 238 157 14 41
382 498 416 153 20 51
312 503 165 80 32 39
426 718 217 73 54 42
307 507 167 50 35 41
323 313 267 77 67 56
312 507 167 178 18 47
332 768 332 76 61 53
362 328 262 106 88 69
438 849 351 64 49 41
392 448 311 68 46 34
307 510 169 50 34 43
332 323 322 128 89 70
239 542 319 156 10 49
312 513 171 193 12 43
317 497 162 81 38 42
318 500 164 46 34 43
293 573 367 75 30 38
422 868 356 67 55 48
377 493 206 137 12 35
317 509 169 202 12 41
407 494 446 142 13 49
317 513 172 202 11 42
397 893 261 76 64 63
264 512 193 69 33 40
324 415 183 90 75 58
221 518 256 120 11 36
266 303 270 113 89 63
327 415 182 91 75 59
321 303 281 79 69 60
322 415 186 90 75 58
328 338 320 126 89 69
332 422 156 93 77 58
327 414 186 90 75 59
338 349 258 88 77 67
327 413 191 92 77 62
333 415 177 92 76 59
263 574 382 112 78 56
337 415 176 94 77 59
373 638 244 68 28 28
259 374 314 124 97 67
337 414 181 94 78 60
387 484 341 64 43 32
367 969 326 62 57 56
346 917 248 83 74 74
337 411 190 95 79 62
337 412 186 94 78 60
334 510 455 158 14 50
406 533 361 140 93 86
347 413 176 96 79 60
458 530 388 211 136 130
266 348 270 102 85 68
342 413 181 95 78 60
297 308 325 117 91 63
338 410 192 96 80 64
421 807 236 73 58 51
343 410 188 97 79 61
397 863 226 65 58 57
375 468 196 99 28 38
324 294 301 67 55 42
342 410 191 97 80 63
340 411 189 96 79 61
353 410 182 107 76 59
424 533 349 135 88 59
339 865 263 75 63 54
244 617 296 175 4 49
352 408 191 117 75 60
407 583 321 170 110 100
322 428 141 90 72 52
332 431 129 94 76 55
378 363 271 115 93 68
332 478 151 57 35 40
273 293 314 125 97 70
332 430 132 93 76 56
341 263 307 106 84 60
436 513 425 147 23 54
442 465 369 89 9 34
337 428 136 95 77 58
332 427 141 93 77 58
302 473 381 60 25 30
327 423 156 91 75 57
287 778 332 92 74 64
318 769 233 77 59 50
460 491 365 183 136 116
322 427 146 90 72 51
322 425 151 90 73 53
321 426 149 89 72 51
407 558 341 168 111 100
327 425 148 92 75 57
337 423 151 94 77 59
337 421 156 94 77 59
337 424 146 94 77 58
335 426 144 93 75 56
322 445 129 63 36 40
322 448 131 167 14 43
404 408 250 71 34 32
243 528 330 54 26 34
373 924 368 54 49 47
328 446 128 186 9 47
235 554 236 59 30 33
342 429 131 94 76 57
338 425 142 94 77 58
300 946 342 76 51 48
347 427 136 92 75 55
347 428 131 93 74 54
302 348 325 133 92 65
352 429 131 137 60 46
352 426 136 99 73 53
347 683 336 101 27 42
352 433 131 179 21 44
307 678 241 128 7 30
300 905 343 145 105 83
351 425 138 89 68 49
370 458 173 101 25 36
261 814 274 189 126 95
257 633 361 191 130 107
236 558 236 109 30 43
352 426 139 90 69 47
338 420 158 94 77 59
357 508 176 169 14 39
246 632 315 75 60 44
342 420 157 95 78 59
277 298 266 91 74 54
347 423 146 95 77 57
259 424 329 127 99 71
317 378 266 66 56 49
239 712 324 170 117 92
327 823 312 165 114 93
347 422 151 96 77 56
417 658 288 151 100 83
352 423 146 94 74 50
396 928 326 56 50 47
352 421 150 94 75 52
347 417 161 96 78 57
336 511 476 199 17 53
348 420 153 95 76 54
352 420 152 95 76 54
342 448 131 93 34 40
349 439 129 65 29 36
337 488 305 56 41 28
352 473 157 185 16 40
351 448 137 121 27 42
307 963 316 76 71 73
327 420 166 91 75 57
326 421 164 91 75 57
342 402 216 96 82 68
322 418 176 89 74 56
327 418 171 91 75 57
327 417 176 91 75 57
328 420 163 92 76 58
417 598 317 193 130 108
315 309 297 84 64 43
332 416 176 92 76 58
337 416 171 94 77 58
346 467 147 189 16 41
372 663 241 68 34 33
376 922 262 74 66 68
330 416 179 92 76 59
342 417 166 95 78 59
242 573 236 105 35 44
352 416 164 97 78 57
258 592 456 165 108 98
372 958 281 80 74 74
274 556 208 46 31 42
361 415 167 100 72 55
362 414 171 109 68 51
307 578 211 178 10 43
362 412 176 106 71 55
365 415 172 152 44 41
337 967 341 63 59 59
375 389 309 121 94 63
332 393 256 94 80 66
265 651 330 163 104 90
347 500 434 76 20 28
352 519 179 93 30 40
338 971 334 77 72 71
366 414 176 140 37 40
357 407 191 126 69 57
235 754 313 173 119 92
257 293 276 138 99 71
358 574 209 110 17 38
380 408 309 125 94 66
357 408 186 119 69 57
247 596 324 113 32 46
367 318 306 137 100 73
357 410 177 111 73 57
354 410 178 105 76 58
437 493 376 60 15 24
380 405 309 125 94 64
357 409 181 115 70 57
235 520 323 33 28 32
361 405 192 128 66 56
330 301 318 104 79 55
376 389 253 107 91 74
444 835 318 70 65 61
362 406 190 123 66 56
309 293 286 83 73 63
357 268 311 124 95 61
367 409 186 130 47 39
414 708 206 68 53 44
380 568 339 178 11 57
360 410 178 111 72 56
442 768 226 69 50 43
365 410 183 126 55 40
369 412 185 101 34 30
395 490 434 105 24 36
431 432 327 86 28 30
370 409 191 131 30 28
426 493 321 59 16 23
372 413 191 95 29 32
356 428 136 171 40 44
426 622 304 189 128 97
322 407 216 95 82 68
320 913 363 120 103 92
356 433 136 161 19 40
491 834 347 111 84 66
358 433 141 156 18 41
357 424 146 116 62 46
375 757 193 60 48 43
406 853 366 46 41 40
357 417 161 93 76 57
522 844 337 92 75 66
359 433 145 146 16 38
361 424 152 156 33 40
276 758 249 135 6 36
397 613 301 135 20 45
358 308 313 128 93 62
362 418 161 123 56 46
333 279 273 91 76 59
381 490 416 69 24 27
332 453 132 83 33 39
361 419 157 122 59 43
378 673 245 84 37 30
352 498 170 169 12 34
359 396 234 99 85 72
364 423 159 147 24 38
361 433 151 142 15 39
388 508 220 51 33 39
352 393 231 100 85 70
427 533 281 47 28 33
388 503 219 63 29 36
363 428 156 146 16 38
302 658 333 162 15 49
427 499 366 57 19 23
322 403 256 85 71 57
332 553 361 175 14 57
314 884 354 132 101 85
354 434 134 162 16 43
302 793 245 76 61 53
355 438 137 159 17 38
235 719 318 170 115 90
355 442 138 116 12 33
290 318 323 119 88 63
354 445 139 179 19 51
356 448 142 161 17 37
374 274 264 131 101 68
358 448 146 156 16 40
278 453 349 69 18 29
361 438 151 141 14 38
262 527 416 55 27 30
363 438 156 120 20 33
364 438 160 51 33 35
360 442 148 148 16 41
421 813 242 69 55 51
361 443 151 145 17 39
363 448 156 100 29 38
442 743 235 95 69 47
314 318 318 115 76 57
364 446 159 61 34 28
267 323 271 110 87 62
410 649 258 90 75 60
365 423 162 118 22 37
496 797 266 95 74 57
252 728 282 105 69 46
334 270 299 107 86 63
366 423 166 53 31 31
493 871 340 123 94 75
423 558 341 181 120 96
364 416 170 137 52 41
366 418 171 148 26 40
471 831 357 104 87 69
364 323 308 136 100 72
399 413 240 69 34 36
354 895 360 39 34 33
367 428 171 40 35 35
402 494 420 102 17 39
265 269 259 136 98 66
366 438 166 54 32 35
366 443 166 42 35 38
437 499 380 52 21 22
292 273 266 87 74 61
246 523 215 142 3 29
368 448 171 70 35 35
273 510 400 104 16 36
369 418 184 67 28 31
330 359 318 135 95 74
369 421 184 89 24 32
307 663 242 118 12 29
418 458 306 58 21 32
413 878 265 71 60 58
373 423 191 74 33 37
369 428 180 72 33 35
309 893 293 143 110 78
371 433 181 73 34 34
432 513 396 147 16 48
372 428 186 58 35 35
451 479 375 90 9 31
396 828 221 66 55 54
376 423 314 135 98 74
372 433 186 52 35 35
282 840 303 160 114 91
369 438 175 41 38 38
370 438 177 37 37 39
369 446 174 73 36 35
370 448 176 58 37 37
370 434 178 67 34 34
368 854 211 98 79 65
452 488 376 89 13 30
298 549 475 135 13 43
371 438 181 45 35 35
329 400 253 93 79 66
373 448 186 56 34 37
327 411 196 95 80 65
323 410 202 96 81 67
287 563 210 106 34 43
292 368 330 131 98 68
386 448 222 118 21 34
307 843 296 122 91 69
248 568 341 87 20 33
474 835 306 89 69 60
331 411 194 95 80 65
347 633 236 119 15 35
363 877 326 59 52 45
337 409 196 96 81 67
246 788 275 173 115 83
438 848 322 67 54 42
326 406 215 96 82 68
361 453 151 154 17 38
298 821 253 83 65 57
327 403 221 96 82 69
296 263 305 113 90 62
332 406 210 96 82 68
332 404 216 96 82 68
344 492 310 57 42 27
337 402 216 96 82 68
384 656 254 65 38 33
339 395 222 97 83 68
340 395 222 97 83 69
347 399 221 97 83 68
352 537 370 119 20 43
275 336 318 119 94 68
454 794 273 104 77 55
380 483 212 126 12 35
342 408 196 96 81 67
347 407 196 100 80 66
347 406 200 96 81 67
323 962 286 77 73 76
371 870 320 47 41 37
352 406 196 108 78 64
285 286 263 92 76 58
347 405 202 96 82 67
332 683 235 118 13 28
265 288 308 119 94 68
352 405 202 97 81 67
337 283 271 90 77 63
262 543 371 119 3 37
347 403 211 96 82 67
347 401 216 96 82 67
432 504 396 63 21 26
316 398 296 118 77 65
324 299 272 82 71 60
352 402 216 97 82 67
267 589 436 197 123 109
344 400 218 97 82 68
346 400 218 97 82 67
322 531 476 78 33 35
264 578 469 127 88 77
323 400 237 95 81 68
307 673 241 130 8 31
295 464 361 62 21 27
328 394 237 98 84 70
390 413 227 63 36 37
331 393 241 98 84 69
332 393 236 99 85 70
277 308 317 124 95 67
333 389 241 99 85 70
327 522 486 157 16 47
314 426 293 61 48 41
337 388 241 101 86 71
332 399 226 97 83 70
307 703 237 97 20 31
247 543 221 142 6 35
333 395 232 99 85 72
337 394 231 99 85 71
314 400 301 121 76 63
332 928 255 88 79 80
335 386 250 98 84 70
333 388 256 96 82 67
234 763 283 161 112 83
354 975 323 62 56 56
331 398 251 94 80 66
322 403 231 94 81 69
393 739 191 65 50 41
321 408 255 84 70 56
324 405 253 86 73 60
416 701 208 85 65 46
327 403 251 90 77 64
302 443 321 120 85 68
325 407 250 88 74 60
262 629 362 185 125 101
323 412 243 89 75 62
322 413 251 85 72 58
392 493 411 118 22 42
390 866 339 32 30 30
386 519 357 44 24 26
330 401 251 93 79 66
316 428 301 45 32 30
312 698 236 122 12 29
347 388 236 99 85 72
359 500 174 177 18 45
270 780 329 163 123 89
282 564 485 73 20 28
424 496 289 41 24 24
346 390 233 97 84 72
352 391 235 99 85 70
307 520 444 94 20 29
386 413 305 124 93 66
370 463 173 100 26 41
352 387 241 100 86 72
346 385 243 100 86 72
300 418 325 130 92 72
437 827 345 53 46 40
320 418 254 83 69 54
363 685 206 62 50 43
234 782 301 182 124 97
440 488 378 58 15 23
356 400 222 97 83 67
333 324 262 82 73 63
357 405 201 112 77 63
356 406 199 111 78 64
304 555 489 145 12 44
358 405 196 131 70 58
393 418 230 45 36 37
317 383 266 69 58 48
280 736 249 132 14 31
362 404 201 131 70 57
375 468 192 52 32 33
312 533 446 181 14 55
310 836 304 72 48 44
367 405 197 130 61 47
264 390 258 100 86 70
368 406 195 134 50 40
362 403 206 111 75 60
238 603 281 86 28 39
367 403 206 126 63 49
357 403 211 96 81 67
388 408 226 74 35 33
362 404 211 100 78 62
292 418 332 134 98 75
373 407 200 135 28 36
337 663 333 161 16 52
443 728 282 163 111 78
372 404 206 138 46 36
317 353 271 64 56 51
377 413 206 132 17 38
352 933 370 58 52 49
382 673 321 136 8 42
367 973 301 84 77 80
372 403 216 125 50 41
282 598 371 99 58 55
377 403 216 141 28 32
267 439 346 88 45 37
283 365 258 90 79 68
257 338 301 129 98 71
375 405 208 154 31 27
372 403 221 128 54 46
323 927 253 91 79 75
338 468 309 66 50 30
378 408 211 130 21 35
380 409 213 126 15 36
386 434 310 113 82 61
357 392 236 99 85 71
361 400 232 98 84 69
362 503 406 168 18 53
364 396 239 100 85 70
357 386 244 100 87 73
284 498 410 93 19 36
363 387 245 99 86 72
426 851 283 40 35 32
306 293 276 87 75 63
426 509 397 136 14 44
366 389 247 100 86 72
395 837 223 61 53 53
362 506 390 57 24 30
345 781 228 45 41 41
312 853 311 107 80 62
327 479 150 95 32 41
417 478 301 109 18 35
444 825 284 46 38 33
368 393 245 100 86 72
365 384 248 98 85 72
368 387 249 97 84 71
320 313 291 72 63 55
310 537 448 184 12 56
362 402 226 97 82 67
363 401 231 98 83 67
372 388 251 99 85 72
377 383 257 101 86 70
406 588 257 53 30 36
378 388 255 111 94 77
412 823 236 75 59 55
327 453 132 181 9 40
307 923 357 180 140 121
377 393 252 112 94 74
372 398 246 100 85 70
307 954 356 57 54 55
277 358 326 119 94 66
374 396 249 104 88 71
219 523 266 153 1 39
379 392 254 122 101 78
270 627 355 183 121 103
364 318 308 134 98 70
383 398 256 117 97 76
377 403 226 119 45 41
382 403 226 96 36 37
423 501 450 66 45 45
456 518 401 95 55 51
388 418 225 127 21 37
372 303 301 135 101 71
382 402 231 85 41 39
312 852 281 191 130 100
433 628 297 185 126 97
261 348 275 107 88 67
374 402 245 98 83 67
382 403 251 101 86 68
341 472 148 190 13 44
384 402 254 104 89 72
374 418 196 51 34 35
374 423 195 93 30 35
370 473 177 83 35 41
440 496 378 65 22 25
392 623 256 69 31 35
375 423 198 88 33 37
318 323 291 67 53 44
376 423 201 50 32 33
257 523 202 156 11 39
374 428 195 135 18 37
374 433 194 121 20 39
436 710 229 92 76 60
351 500 434 121 30 41
377 418 206 98 27 36
351 263 260 102 83 62
378 433 206 49 33 34
327 663 335 147 19 49
317 873 347 130 101 98
392 448 227 103 24 30
431 843 282 40 34 31
264 538 370 148 0 44
290 464 352 62 22 28
240 773 318 164 116 87
352 880 230 77 67 66
382 418 216 89 29 36
380 423 212 57 36 36
381 428 216 78 32 36
437 768 296 158 115 84
381 433 216 73 34 38
384 433 220 51 36 38
376 438 201 58 30 33
253 623 266 113 29 42
347 808 221 57 48 46
375 448 192 46 34 34
378 438 206 38 32 36
415 438 263 122 14 38
300 265 299 108 83 57
404 760 214 69 53 51
376 443 201 74 30 35
342 484 160 192 14 42
439 850 354 57 46 41
378 448 206 81 31 36
312 543 495 114 13 38
424 444 339 108 0 32
383 438 220 53 36 40
379 443 210 64 34 38
323 452 133 189 8 39
274 841 300 192 133 107
294 366 328 131 98 68
272 663 316 51 25 30
320 338 270 65 57 50
327 455 134 187 10 45
322 458 136 183 5 37
397 573 301 45 24 26
327 458 135 189 9 40
392 424 300 93 70 47
322 462 138 186 7 35
415 500 430 30 29 28
287 518 186 156 11 39
338 455 134 69 38 40
402 493 451 174 17 55
332 458 135 143 19 40
332 464 139 192 11 41
385 267 286 134 98 67
336 383 318 135 96 77
417 509 393 64 19 31
337 464 140 181 13 42
253 555 441 38 30 27
323 471 143 181 6 36
392 778 312 72 57 51
370 463 319 115 83 65
326 471 143 175 9 41
347 532 375 61 26 32
320 470 144 190 8 38
362 498 176 175 19 44
322 478 147 115 25 39
473 833 318 76 61 49
322 480 149 147 30 48
322 960 352 68 63 61
474 847 351 92 77 66
338 475 149 134 25 38
408 658 284 79 44 36
282 708 331 117 16 40
343 460 139 70 35 43
235 564 250 109 31 39
340 461 138 79 37 35
349 455 139 177 17 38
362 485 346 59 45 30
295 706 343 53 23 25
351 457 142 171 15 40
344 470 149 189 14 41
346 472 152 190 15 43
241 788 281 187 124 95
429 705 214 89 67 47
322 557 376 171 15 55
378 658 317 91 16 35
349 465 149 193 17 43
363 680 233 48 40 43
353 464 150 194 18 45
267 388 327 126 98 71
413 573 261 123 18 37
347 474 155 191 16 44
232 713 311 164 112 86
276 831 319 193 138 110
350 476 158 189 16 42
307 423 316 126 86 68
327 482 152 107 34 43
364 525 189 44 33 40
443 688 276 151 103 70
327 484 155 162 29 48
281 269 314 120 95 68
428 523 385 56 29 30
327 488 157 106 30 39
437 513 352 146 94 71
322 491 158 70 38 39
342 348 321 135 96 68
332 487 157 171 17 46
337 483 156 156 15 41
341 482 157 188 13 45
377 848 296 60 51 42
387 783 312 70 55 48
445 461 358 107 22 36
344 480 159 193 14 45
333 495 164 104 36 45
267 606 384 193 130 111
342 808 315 167 116 96
352 268 260 101 83 61
294 516 313 43 23 24
336 491 163 63 33 38
437 703 216 84 61 41
382 568 331 171 6 54
322 497 163 63 31 37
304 850 323 138 109 88
322 513 176 194 11 42
327 507 172 198 11 44
428 483 346 64 3 26
337 504 175 186 8 36
325 361 264 78 67 57
425 558 322 142 107 70
331 506 173 195 11 39
261 673 290 89 40 39
333 505 175 195 11 42
231 758 301 177 119 90
272 678 316 54 27 30
337 508 177 181 5 37
419 824 249 80 65 57
337 511 178 174 4 30
547 771 244 93 83 79
405 405 253 48 39 35
342 492 167 188 15 45
347 483 162 189 14 41
352 498 431 96 19 35
345 486 163 192 14 43
315 912 270 157 108 82
352 483 163 177 13 37
287 378 331 132 100 70
428 513 286 74 26 34
473 825 327 90 74 64
426 563 331 153 105 74
352 485 164 175 12 37
239 516 335 58 33 36
352 488 165 175 13 34
383 633 251 50 32 35
352 493 167 173 12 36
342 498 172 179 10 35
342 501 173 178 8 34
362 623 327 153 21 52
347 502 172 170 9 34
237 718 287 130 98 63
346 504 174 169 8 35
347 508 174 146 12 35
387 509 376 140 16 48
352 506 173 171 11 36
395 621 299 175 13 56
352 509 174 171 11 36
354 455 144 165 15 40
390 680 319 136 6 42
395 866 324 31 27 29
270 795 259 163 111 78
239 591 324 156 29 58
456 838 370 91 69 54
359 454 149 157 17 41
267 738 327 170 111 94
291 779 244 73 59 52
359 459 150 170 17 42
358 464 154 170 17 43
365 450 158 103 40 56
365 452 158 116 28 42
427 508 406 164 16 52
325 860 279 183 123 88
276 713 255 124 13 35
363 458 156 159 18 40
328 961 283 82 79 81
361 463 156 169 18 44
352 912 241 86 77 76
356 466 153 180 18 41
357 468 156 174 17 39
345 871 229 62 55 52
357 473 158 176 16 37
354 475 159 179 14 35
421 882 331 58 50 46
357 478 160 171 15 40
318 378 261 68 58 50
360 472 158 172 17 37
365 468 163 137 20 38
366 468 166 56 30 36
365 472 163 30 36 35
352 573 346 173 7 54
361 478 162 132 17 37
431 512 325 82 36 41
377 485 331 62 45 30
365 478 167 61 31 38
366 478 171 68 37 39
530 777 304 113 92 72
301 903 347 176 133 116
371 458 176 48 32 35
361 713 220 55 41 35
262 663 286 77 29 36
440 861 282 85 67 58
369 463 171 102 24 36
455 808 251 62 50 47
371 463 176 120 21 39
382 888 240 70 60 60
312 958 292 74 70 73
357 492 422 59 22 25
372 453 181 75 34 36
249 516 376 121 29 47
374 453 190 51 31 34
426 504 433 97 24 39
444 734 235 100 79 55
316 372 266 64 56 50
372 458 181 77 29 37
372 463 181 135 24 41
386 263 281 134 96 65
373 463 186 54 33 35
375 463 192 40 32 34
367 598 332 176 17 57
370 468 176 58 36 39
322 538 191 114 24 36
421 474 330 76 15 27
437 698 286 161 109 78
416 468 256 44 34 35
372 468 181 70 32 37
422 663 251 111 87 57
332 658 334 96 26 42
413 503 256 63 28 33
374 468 190 45 33 33
373 473 186 71 34 35
369 479 179 102 28 40
370 476 178 119 38 53
377 488 206 139 13 37
371 478 181 96 32 37
425 576 329 192 126 103
373 478 186 61 32 35
433 488 366 59 10 23
374 478 190 73 37 43
408 588 261 52 29 36
359 290 264 93 77 58
357 258 310 123 96 65
250 819 323 189 134 107
256 524 386 96 23 40
366 483 171 43 36 39
433 518 291 144 16 39
363 493 176 174 20 41
358 503 175 173 16 40
269 573 476 93 24 38
356 506 173 171 13 39
359 510 179 151 13 39
243 548 224 59 27 34
322 738 346 144 17 50
264 350 314 124 97 69
363 503 180 162 16 41
250 628 311 47 30 32
297 483 401 59 24 25
327 453 307 70 51 30
365 503 183 166 17 43
299 258 270 97 79 60
362 508 181 87 22 35
366 508 186 120 19 36
407 522 366 77 25 35
364 509 184 138 17 43
407 494 396 94 25 32
366 513 187 122 21 38
369 484 180 141 23 40
369 489 184 158 20 48
295 566 424 172 23 56
289 516 183 142 2 40
369 508 189 37 32 37
294 304 324 112 89 61
280 586 468 80 18 34
371 508 192 101 24 35
307 538 461 157 16 49
385 482 318 63 45 29
376 458 196 77 34 35
377 453 201 72 32 38
467 838 346 94 75 61
378 453 206 56 33 37
357 504 421 80 27 38
352 293 263 95 79 63
449 840 341 81 62 47
335 494 303 59 47 39
422 623 262 97 82 66
416 848 247 71 57 53
384 453 220 118 17 35
380 463 213 112 13 37
381 463 216 117 15 35
384 458 220 118 14 32
376 478 196 57 34 36
376 478 201 90 25 37
389 486 348 65 43 31
422 698 292 128 83 63
380 468 213 132 13 34
375 329 278 118 95 68
384 468 219 110 17 28
409 673 284 65 25 23
307 803 321 64 54 50
379 478 210 116 19 37
312 962 346 71 67 66
375 482 193 67 27 29
277 533 446 55 26 29
375 492 197 156 17 43
301 943 346 134 95 82
378 483 206 145 15 38
474 810 304 69 55 43
246 588 246 112 27 42
352 602 222 73 31 39
379 488 210 129 13 36
412 511 394 149 15 48
380 488 212 129 12 32
373 498 196 153 17 40
375 498 201 154 16 39
342 643 331 71 29 37
374 503 199 155 18 43
435 496 361 57 12 25
434 805 293 139 98 78
375 503 201 152 16 39
375 508 201 149 16 40
392 489 371 61 40 29
373 513 196 111 23 37
374 513 199 138 18 39
376 533 211 51 33 38
373 538 206 88 33 41
368 842 218 75 62 54
379 503 210 134 11 37
282 593 376 127 60 59
392 490 391 68 28 29
381 378 271 115 92 67
382 503 216 99 19 34
378 513 211 133 12 37
400 528 233 39 34 38
350 768 223 48 41 42
375 876 223 77 67 64
282 348 262 93 80 67
316 318 316 112 71 54
380 508 213 133 13 33
382 508 216 89 19 34
435 428 326 59 31 29
380 513 213 132 14 39
386 408 222 85 30 33
386 413 221 82 30 37
382 486 356 63 45 32
386 404 226 67 37 34
267 838 296 218 142 113
294 885 329 128 90 73
392 408 231 63 40 37
336 264 275 93 77 59
296 550 199 57 31 29
437 537 367 189 124 102
426 619 267 106 88 69
387 403 241 59 44 39
475 836 312 91 70 62
388 413 225 64 33 37
383 462 312 77 56 39
393 413 230 48 38 39
317 547 406 160 17 46
394 407 234 48 41 45
244 612 310 155 7 47
396 404 241 46 36 37
395 405 238 47 42 42
296 718 348 115 23 43
439 673 260 126 95 60
240 581 316 41 30 33
342 298 320 126 95 65
398 408 241 50 38 37
240 578 313 59 27 33
395 410 233 47 40 43
395 413 233 47 40 41
337 263 272 91 75 58
387 403 246 66 54 46
392 404 256 72 44 39
397 402 251 81 24 33
344 505 474 198 15 55
400 405 247 103 25 34
276 728 327 143 17 46
407 698 306 133 12 43
342 788 216 64 54 49
242 608 306 172 0 47
325 745 234 59 31 35
384 406 297 120 93 63
420 471 276 144 21 47
401 408 246 111 26 35
402 404 251 84 27 34
265 278 308 121 94 68
402 403 256 69 30 33
317 853 276 189 127 98
242 538 221 137 4 36
405 408 252 45 36 37
286 590 224 184 4 38
400 413 243 119 27 42
408 413 256 95 23 35
342 957 355 85 82 83
399 463 234 125 16 33
384 418 220 96 29 37
386 418 222 98 27 38
261 486 357 40 28 29
385 423 222 79 32 35
376 428 315 133 96 76
397 687 201 96 63 39
322 488 406 73 12 27
437 514 431 106 19 41
386 443 222 90 24 32
391 418 227 77 31 37
391 423 227 106 24 34
388 428 225 58 38 38
391 514 372 32 26 25
391 433 227 77 29 37
313 408 261 84 70 54
405 906 331 58 51 48
393 423 230 109 28 37
395 418 232 43 37 39
393 428 230 73 35 37
248 607 257 185 13 50
399 428 239 54 34 36
388 438 225 130 18 35
394 438 229 129 13 34
252 753 326 177 126 101
398 438 236 91 26 35
362 486 336 61 47 31
332 491 324 58 43 27
396 443 232 125 17 35
394 447 229 99 30 35
362 488 321 68 52 36
383 685 218 69 54 41
398 443 235 122 15 34
398 448 235 119 18 36
252 591 329 90 31 42
401 428 242 63 34 34
295 882 310 149 111 84
310 493 307 57 42 30
401 433 241 43 37 36
445 693 271 145 101 65
400 418 243 62 35 37
402 418 246 73 33 35
232 688 316 174 119 91
400 423 242 79 38 41
304 277 280 88 74 60
366 882 332 57 50 45
402 423 246 62 35 38
257 588 376 148 110 83
299 846 278 61 53 54
242 528 220 131 6 33
406 418 252 85 29 31
418 405 285 87 20 31
413 492 331 58 17 27
406 423 251 44 38 39
394 925 332 59 54 53
243 545 224 88 21 28
441 513 352 154 103 82
408 423 255 51 37 36
379 446 319 127 90 71
322 969 306 85 80 80
403 428 246 65 33 35
405 433 248 104 29 38
406 428 251 53 34 35
406 433 251 117 22 36
434 526 389 157 102 98
408 428 256 79 28 33
307 763 337 83 68 63
400 438 238 63 30 35
413 473 306 88 24 37
401 438 241 51 35 36
400 443 238 126 18 39
400 448 238 134 17 38
273 499 385 83 26 33
401 448 241 97 25 36
234 587 296 179 0 50
404 438 246 69 33 37
405 438 248 53 28 34
367 498 426 88 20 37
406 438 251 93 23 35
263 359 268 101 86 70
403 443 246 72 32 36
405 442 248 43 33 37
325 312 318 108 77 58
252 518 206 73 29 36
406 443 251 75 26 33
417 502 411 119 23 44
265 453 347 108 20 38
317 933 366 49 40 40
406 448 251 114 18 31
424 548 274 45 34 36
263 510 394 32 29 30
408 438 255 134 14 36
297 308 265 91 80 70
379 725 186 60 48 40
409 443 255 113 13 30
387 458 222 120 14 30
387 463 222 129 12 32
387 468 221 125 13 32
425 558 336 151 103 71
384 473 219 58 27 36
308 414 269 86 72 58
390 468 223 129 8 32
390 473 223 132 11 32
387 478 220 86 28 33
437 508 352 92 44 36
390 478 223 84 27 32
327 485 395 65 22 25
392 453 226 52 33 37
356 728 216 45 38 37
389 458 224 126 19 37
392 458 226 85 27 33
392 463 226 125 14 33
233 643 321 131 100 65
327 868 350 153 121 93
394 452 229 96 29 37
235 748 284 138 98 70
396 453 231 119 22 38
395 458 228 99 25 37
451 513 362 127 96 68
357 373 320 133 98 68
252 638 357 190 131 107
397 458 231 111 19 35
441 754 231 75 56 45
395 463 228 97 20 28
416 433 266 116 10 30
397 463 231 116 17 34
399 458 235 112 23 35
235 575 259 37 37 36
317 357 270 64 58 54
316 578 354 172 10 53
392 468 225 131 11 31
381 497 437 181 15 59
393 473 225 123 18 37
443 476 356 75 15 29
337 577 208 186 6 39
373 278 302 127 95 63
395 468 228 127 15 35
332 743 341 50 28 32
395 474 228 81 29 30
397 473 231 56 33 36
391 822 211 81 63 53
399 468 234 118 18 30
322 318 316 113 78 59
327 520 487 129 11 40
483 830 326 96 76 64
398 478 231 50 37 38
243 518 218 125 6 32
399 478 234 41 34 39
316 680 339 159 9 49
241 573 317 52 26 32
427 748 217 55 45 39
400 453 238 119 18 35
309 890 293 147 112 78
401 453 241 132 15 37
287 573 456 111 18 40
362 958 276 85 79 83
386 482 321 61 40 29
378 668 245 74 34 31
397 403 261 69 45 38
400 458 237 122 20 37
342 893 357 111 84 66
367 882 231 74 65 66
400 463 237 119 15 30
368 500 406 134 16 45
367 673 240 84 39 28
403 453 246 110 16 29
407 453 251 113 18 31
307 487 406 66 13 26
332 823 250 78 60 53
404 463 244 90 31 37
408 458 250 100 22 32
309 550 392 57 26 33
408 463 250 117 23 39
409 452 254 111 14 27
372 848 305 58 50 42
482 803 311 77 64 53
412 453 256 99 21 28
357 951 354 60 56 56
396 432 308 80 57 36
286 459 375 73 37 33
410 454 253 110 16 25
411 458 252 117 14 33
452 724 243 95 78 60
313 491 315 66 47 34
258 343 305 127 97 71
413 458 255 110 12 30
255 630 269 43 37 38
416 463 256 106 19 32
401 468 236 130 16 34
403 468 241 131 14 35
297 558 486 125 10 39
401 478 236 50 30 35
403 478 240 107 18 34
317 948 276 72 67 69
249 555 443 66 55 44
407 468 246 123 18 34
405 473 243 133 12 33
293 573 406 152 86 80
405 478 243 123 10 29
277 693 321 84 26 37
422 804 231 71 56 49
408 478 245 111 15 29
305 426 319 127 89 69
410 474 248 73 25 30
455 516 368 178 123 104
415 470 253 36 35 42
437 509 427 116 27 46
415 474 252 36 35 37
248 633 306 57 34 35
417 473 256 43 31 35
322 333 316 109 71 55
411 478 247 65 24 29
413 478 250 94 25 31
351 909 236 87 77 75
385 483 218 103 21 37
373 969 311 61 55 54
282 278 315 119 94 67
307 516 173 193 10 41
322 613 342 151 26 53
387 483 220 68 34 37
331 964 285 83 80 83
391 483 222 49 36 38
385 493 218 95 19 31
377 603 231 104 31 41
422 498 356 73 15 26
382 487 366 61 44 31
388 493 220 71 30 34
461 827 315 67 54 42
391 493 222 55 35 37
385 498 218 133 12 33
367 708 339 91 29 42
357 643 237 143 10 37
426 433 321 127 20 37
386 503 218 62 29 35
385 508 218 56 31 34
252 588 331 64 26 34
391 508 222 47 35 37
393 483 225 43 37 38
395 626 262 43 31 31
242 808 316 186 133 103
395 483 227 43 35 39
264 590 353 67 21 27
396 488 227 48 36 37
394 493 224 51 37 40
411 827 285 30 28 27
398 493 231 56 33 34
412 533 371 146 100 97
415 523 262 43 34 37
399 493 234 92 25 35
394 498 224 54 37 38
395 503 227 48 35 37
417 463 321 94 24 36
255 830 318 206 147 121
393 508 225 49 34 39
240 600 308 195 0 57
395 508 228 60 31 37
393 513 226 111 21 37
264 652 273 137 3 36
304 961 303 85 79 79
397 513 231 140 12 35
401 483 236 144 17 38
263 577 422 179 120 101
474 818 332 84 69 57
401 488 236 138 13 38
401 493 236 133 15 37
392 827 290 54 45 38
427 825 278 41 33 31
404 493 239 127 14 34
405 811 218 53 43 41
408 482 244 109 15 31
423 714 215 94 69 51
396 453 312 73 46 37
407 488 242 107 17 29
412 483 246 107 17 29
420 851 253 66 55 52
409 486 244 82 18 25
378 868 222 72 61 58
267 263 256 135 100 65
412 488 246 107 23 34
410 718 315 122 20 44
414 483 250 129 12 34
399 687 229 83 43 44
302 543 461 162 17 51
415 483 252 143 19 42
441 506 325 200 16 57
262 538 356 83 23 38
414 488 250 133 22 43
415 488 256 36 29 31
410 489 243 92 25 35
411 888 351 58 50 46
410 493 243 59 32 33
412 493 246 72 32 36
352 703 341 34 29 31
417 408 286 66 16 26
403 558 316 117 68 66
401 861 237 60 53 54
317 361 264 70 61 53
265 347 313 124 97 69
322 763 234 88 51 48
414 493 251 43 29 32
415 491 256 49 31 35
414 493 256 43 29 33
401 498 237 127 15 33
445 744 284 156 111 75
422 468 346 102 0 31
402 503 237 125 13 33
282 578 496 184 20 61
420 873 272 67 56 57
420 551 349 193 126 103
402 508 236 124 12 31
402 513 236 124 12 31
405 508 238 124 11 30
260 289 269 143 104 76
406 513 238 128 12 32
410 498 243 41 33 34
412 498 246 76 32 37
424 506 440 72 16 33
309 291 296 85 68 48
422 829 360 46 38 32
247 703 330 170 118 93
410 503 242 105 27 40
413 498 251 148 24 48
350 794 214 62 51 43
298 378 328 131 95 67
232 758 306 178 121 96
413 498 256 142 22 46
412 508 246 115 26 42
404 563 245 164 17 42
410 513 242 150 18 40
413 508 251 44 30 34
280 733 249 114 17 33
270 477 358 59 25 30
413 508 256 42 32 36
276 688 322 73 28 36
432 830 364 69 55 44
368 273 307 128 95 62
412 513 256 64 30 35
320 851 303 130 88 71
417 478 256 142 17 41
259 256 258 138 98 65
263 263 258 138 99 67
242 638 311 88 72 54
258 268 262 140 101 68
264 267 258 137 98 65
303 302 270 90 79 68
262 273 262 138 98 67
267 268 258 135 99 65
371 852 210 100 82 69
449 784 230 90 69 58
444 845 350 84 65 53
267 273 259 137 99 67
256 820 285 195 132 102
312 522 447 103 1 30
241 583 251 53 33 37
393 864 359 44 39 37
368 634 240 43 34 37
272 272 258 134 98 65
377 499 411 175 18 57
263 278 262 140 100 70
438 638 281 156 109 75
417 537 371 194 134 120
261 278 264 143 102 70
264 281 263 142 101 70
304 287 312 103 82 58
258 288 271 144 102 75
276 733 327 149 17 48
352 499 479 171 18 54
374 433 318 136 99 78
262 283 266 142 102 72
267 278 261 139 101 70
272 278 260 134 98 68
299 736 238 50 37 42
267 283 262 138 101 70
272 283 262 132 98 67
418 558 265 41 33 36
272 286 263 125 95 66
398 859 360 40 36 35
383 485 321 65 48 32
266 284 264 141 101 71
292 753 340 147 19 49
373 677 328 46 29 32
427 522 315 95 26 43
267 288 265 136 99 70
328 768 333 78 61 53
342 358 321 138 99 73
357 313 263 97 82 66
272 289 264 118 90 64
277 268 257 132 98 66
276 272 258 133 99 67
398 677 260 47 39 48
248 628 296 102 33 43
277 273 259 131 98 67
352 490 416 55 24 25
287 578 496 180 19 60
286 258 258 128 99 67
288 258 260 124 97 66
285 263 258 128 99 66
288 263 260 119 94 65
424 510 345 49 26 33
282 273 260 124 95 65
399 835 278 26 25 26
291 358 263 88 77 67
450 851 368 71 53 44
378 418 312 131 96 71
295 378 329 132 96 67
287 268 261 113 90 64
292 554 406 99 20 40
367 313 265 116 93 66
277 278 260 130 97 67
260 378 264 105 87 69
277 287 263 109 85 59
287 278 263 98 79 58
482 818 356 76 59 47
282 288 263 99 79 58
287 283 263 93 77 58
287 288 265 90 75 59
230 516 219 140 10 39
392 427 302 95 72 46
394 682 312 138 4 42
288 284 264 90 75 59
260 258 303 117 92 67
334 274 273 85 72 58
260 263 303 120 94 68
337 566 354 177 10 56
271 693 266 47 32 36
262 258 305 118 93 67
224 552 291 177 0 49
317 693 342 151 8 46
397 853 286 31 29 29
262 273 305 122 94 68
277 258 312 119 95 69
268 258 309 117 92 66
268 263 309 119 94 67
266 268 308 121 94 68
322 524 490 134 12 43
282 328 265 98 81 63
413 533 326 81 24 30
265 273 308 122 94 69
268 273 310 121 95 69
272 268 312 120 94 68
342 493 421 66 14 27
272 273 312 120 94 68
288 758 243 132 13 34
260 278 303 122 94 69
326 524 183 191 8 37
260 282 303 120 94 69
324 416 314 112 75 62
429 849 264 63 52 51
262 283 305 119 94 69
272 413 335 133 102 73
262 288 306 119 95 70
347 863 242 50 46 45
268 278 310 121 94 68
265 283 308 121 95 69
231 708 306 161 111 82
316 950 363 60 55 54
461 513 394 116 76 67
268 283 310 120 94 68
272 592 446 181 121 112
268 288 310 120 95 69
277 263 312 119 94 68
277 268 313 120 95 69
428 498 320 57 19 22
436 463 347 135 3 39
257 748 275 82 60 41
276 272 313 120 94 68
278 273 314 119 94 67
268 348 267 100 84 68
299 908 303 163 122 97
362 497 441 51 24 30
279 270 314 119 94 68
282 258 311 118 93 65
282 263 312 121 96 67
423 507 431 92 18 37
287 258 310 114 90 61
442 493 326 51 29 27
288 564 466 162 17 52
326 506 442 84 13 26
287 263 310 118 93 63
332 493 301 59 47 39
398 653 286 52 30 32
282 268 313 120 95 68
390 665 253 43 40 41
277 278 314 119 93 67
432 497 341 60 15 25
381 568 336 172 9 54
274 280 314 118 94 68
287 818 322 168 130 103
388 598 311 96 26 39
304 388 323 132 94 70
274 283 314 117 91 66
432 858 342 59 49 40
277 283 315 118 92 66
274 288 314 123 95 69
259 702 328 159 110 86
277 288 316 120 94 67
273 514 405 111 12 35
282 288 317 115 91 63
293 562 208 72 36 36
304 429 318 126 88 69
259 292 272 140 100 73
261 293 270 137 100 72
264 292 268 134 97 70
372 743 191 67 51 43
413 805 220 53 43 41
262 298 271 127 96 67
262 303 272 118 91 63
423 515 328 72 26 36
265 298 269 121 92 65
392 494 423 146 23 51
342 328 260 88 77 66
307 528 180 154 12 39
268 303 268 106 85 62
333 343 263 81 72 63
432 879 321 64 54 50
272 298 267 102 82 59
316 427 296 56 45 39
256 298 281 134 98 72
290 697 244 55 33 36
382 867 226 67 59 56
257 303 281 127 96 69
265 293 308 119 95 70
235 594 286 70 29 35
442 748 235 95 68 44
256 298 286 137 99 76
322 593 347 176 15 56
263 308 272 119 92 63
266 308 270 112 89 65
432 453 337 81 19 33
408 487 331 65 19 27
268 308 268 105 86 64
423 602 279 102 84 65
263 313 272 118 92 63
288 563 471 132 16 42
272 313 268 97 80 61
270 314 269 100 81 61
258 308 277 133 99 71
421 478 326 71 16 28
259 312 278 138 102 75
274 466 344 62 34 28
257 308 286 133 98 74
362 278 311 127 95 62
257 313 286 135 99 76
409 425 309 94 36 39
293 913 336 86 74 69
259 316 278 137 101 73
396 501 411 177 17 56
352 258 258 104 85 63
261 318 276 124 96 69
292 373 257 88 77 65
260 663 289 62 36 35
432 509 327 127 25 46
264 317 273 115 91 63
373 589 333 195 1 62
436 633 272 109 86 58
336 576 349 180 5 55
260 319 279 134 101 76
347 698 230 109 14 28
258 318 286 130 98 73
277 293 265 96 76 56
443 503 354 59 36 30
367 893 241 71 63 63
292 343 326 127 96 67
277 303 266 88 72 56
288 728 341 172 15 55
283 290 264 94 77 58
287 293 265 90 76 61
262 698 326 152 105 84
282 303 265 92 76 60
387 489 401 58 28 26
287 298 265 91 77 63
382 628 246 101 25 38
277 308 267 88 74 59
277 313 267 92 76 60
419 454 326 108 26 41
326 528 487 161 17 54
357 978 301 56 53 53
282 308 266 93 78 63
282 313 265 96 81 64
417 624 302 184 120 99
287 308 265 94 81 68
282 318 265 99 83 65
287 318 265 95 80 65
380 384 262 102 85 67
258 293 301 129 98 74
256 298 291 137 99 76
344 510 402 157 14 49
257 298 296 134 98 75
391 858 231 64 55 56
257 303 291 128 95 72
523 783 243 109 81 65
442 449 350 96 24 37
246 623 286 94 31 43
258 303 301 131 98 74
382 497 421 129 20 47
259 293 304 124 98 73
392 822 295 47 38 33
347 493 311 58 44 29
342 943 265 90 82 84
262 293 306 120 96 71
403 703 326 103 22 40
259 298 304 129 98 74
259 303 304 132 100 74
262 298 306 126 98 72
257 588 381 163 118 94
263 393 325 126 98 71
262 303 306 129 100 74
288 443 333 112 83 63
271 293 313 123 97 70
330 896 259 47 43 45
267 298 310 122 95 70
264 303 309 126 98 73
267 303 311 126 99 72
287 333 324 126 94 67
273 298 315 126 95 70
270 303 313 127 97 71
469 816 345 94 83 73
273 303 315 128 97 71
345 808 224 61 52 49
257 308 291 127 98 72
258 308 296 128 96 70
257 313 291 125 97 70
258 313 296 127 96 68
426 579 301 116 92 62
258 308 301 130 97 72
258 313 301 130 100 74
376 533 346 77 27 37
356 903 239 81 71 71
258 318 296 127 98 69
364 314 264 113 91 66
258 318 301 131 100 73
256 652 345 180 121 96
267 373 262 97 84 70
264 308 309 126 99 74
379 960 322 58 53 54
307 733 236 96 27 35
261 313 307 129 100 75
369 970 318 53 49 49
264 313 309 125 98 73
377 918 371 61 55 53
362 313 262 107 87 65
259 318 304 133 101 73
382 623 312 174 17 56
264 318 309 127 98 73
347 683 233 41 33 35
267 308 311 126 98 72
387 489 391 57 29 27
367 688 227 58 45 42
267 313 311 125 98 72
270 312 313 126 100 72
272 313 315 123 96 69
509 790 261 108 80 62
269 314 314 126 99 72
394 474 325 66 35 28
269 318 314 127 98 72
283 703 330 70 24 34
437 453 351 112 16 35
404 491 356 70 36 30
279 733 330 171 15 54
363 718 192 68 54 45
272 318 316 125 97 70
277 293 316 123 94 67
277 298 317 126 94 69
415 454 258 82 30 24
307 619 343 151 24 53
277 303 317 128 94 69
231 703 306 160 109 83
283 294 319 121 93 64
224 556 284 172 0 44
285 291 318 114 90 62
287 293 319 118 92 64
272 563 212 65 33 38
371 794 209 69 53 49
387 828 292 75 61 48
288 289 319 113 90 65
281 298 318 126 92 67
283 298 319 125 93 67
277 403 334 134 103 74
436 489 351 49 8 26
281 303 318 128 94 67
405 485 335 64 28 27
412 685 246 85 67 49
287 298 320 123 92 66
367 871 213 100 82 76
277 313 318 121 92 65
352 273 261 101 82 60
276 318 318 123 94 66
265 472 348 96 17 37
408 686 235 84 62 44
378 874 355 39 34 37
283 308 319 121 91 63
317 964 341 66 61 61
320 480 347 61 40 29
291 258 262 113 90 64
403 692 306 124 11 40
293 258 265 103 84 63
297 258 267 97 79 60
512 783 294 121 90 63
265 535 395 131 13 38
299 351 264 80 70 60
293 263 264 95 79 62
296 263 267 93 78 61
249 808 324 179 129 102
290 268 263 98 81 62
292 268 265 90 76 61
419 491 284 74 15 27
302 472 356 59 26 26
375 313 281 121 94 65
296 267 267 89 75 61
294 273 270 84 73 62
332 583 212 190 7 42
282 604 363 63 43 40
269 468 355 124 12 39
264 570 387 111 66 50
322 868 286 158 115 85
297 273 271 85 73 61
408 558 251 155 20 44
287 583 396 165 104 89
320 313 306 78 54 34
287 359 329 127 97 69
297 748 240 125 22 39
321 556 379 170 15 53
299 263 269 90 76 60
300 258 272 103 83 61
306 504 309 65 52 47
300 268 272 89 74 58
337 378 319 135 97 74
300 258 281 109 87 63
301 263 276 105 85 62
322 438 311 77 52 34
321 882 358 140 103 82
448 799 231 90 68 56
301 263 281 109 87 63
299 257 286 113 90 63
302 268 276 96 78 58
420 553 268 59 30 36
300 273 273 85 72 59
303 273 281 97 80 62
415 881 350 61 53 50
257 528 356 161 6 48
336 438 313 84 62 43
297 468 376 62 32 29
289 274 264 94 77 60
294 276 270 87 74 62
238 672 335 190 133 108
297 278 271 86 74 62
292 283 266 87 74 61
243 608 266 122 20 40
447 484 380 79 13 28
292 288 266 88 76 63
260 639 270 112 17 39
295 282 268 85 74 62
241 608 271 113 27 44
420 456 304 119 11 40
294 286 269 88 76 64
252 553 371 59 30 33
297 288 271 88 77 66
436 493 361 53 10 27
314 334 318 110 70 57
440 511 320 196 17 67
327 568 356 179 8 55
295 289 268 88 77 66
299 280 274 88 75 61
404 584 254 122 22 38
300 277 273 88 75 61
417 477 306 101 18 34
302 278 276 86 73 60
299 284 274 87 75 62
332 504 441 83 12 26
381 848 291 59 49 39
302 283 276 87 75 62
266 368 265 98 84 70
327 818 315 161 110 91
302 288 277 90 78 64
305 275 288 110 90 66
378 363 291 125 98 67
304 276 286 106 87 65
308 928 271 67 63 66
305 278 286 103 85 65
304 282 279 85 74 62
306 283 281 85 73 62
305 284 278 84 72 61
412 498 441 101 18 41
307 288 281 84 72 60
255 558 336 55 26 32
400 631 270 65 51 45
391 923 276 74 63 61
327 307 268 84 72 61
347 498 431 78 14 29
373 303 271 120 96 69
307 283 286 93 78 64
308 288 286 87 74 61
272 468 361 105 22 39
297 258 301 112 88 61
317 602 223 106 25 42
328 505 308 62 50 46
299 258 291 109 86 58
241 697 289 128 96 59
298 258 296 108 85 58
316 480 342 66 44 33
299 261 293 108 84 56
282 574 500 67 14 24
451 803 286 124 90 75
299 262 297 108 85 57
300 263 291 109 87 60
337 545 363 90 28 40
300 264 295 108 84 56
232 543 311 159 1 48
385 258 272 141 104 69
303 273 291 104 83 58
299 267 302 112 87 59
227 538 306 163 2 49
224 548 296 178 0 50
300 269 300 112 86 57
437 843 301 57 50 45
289 257 308 112 88 60
423 843 255 65 51 50
238 583 256 81 29 40
295 259 304 114 90 63
292 268 310 113 90 63
292 273 312 108 86 62
442 822 257 80 60 54
294 267 308 113 90 63
418 444 334 104 1 34
295 269 309 112 88 61
296 274 310 109 86 60
298 273 307 114 89 60
324 446 314 76 54 35
300 274 305 114 89 57
304 277 296 105 80 57
270 641 329 132 77 67
279 465 379 98 24 36
303 278 301 106 81 55
298 277 312 101 80 56
262 548 436 59 27 31
292 283 317 107 87 66
292 289 319 111 88 65
298 287 318 103 83 61
400 901 351 52 48 47
448 836 368 85 67 51
372 486 371 59 44 31
302 278 306 107 83 55
387 598 236 53 33 37
397 548 311 43 21 26
280 473 383 73 30 35
437 693 246 87 71 53
386 530 342 122 15 45
300 279 310 101 80 56
304 282 306 101 80 55
302 283 311 101 81 57
451 525 406 162 19 56
299 282 313 99 79 57
260 585 446 193 128 112
352 539 367 132 27 49
302 288 316 102 81 58
305 278 291 103 83 61
375 956 283 76 68 68
326 854 270 171 114 87
305 280 295 102 79 55
431 608 281 117 94 66
308 288 296 88 70 50
437 683 285 160 109 76
308 288 291 91 76 60
240 564 317 147 9 45
240 621 341 135 103 69
304 282 302 103 79 54
305 284 306 100 79 54
418 496 366 64 23 26
306 288 306 98 78 54
307 504 430 79 37 34
347 489 406 58 25 25
408 904 300 60 53 53
296 293 268 89 78 67
292 298 266 89 78 66
221 533 296 166 2 47
291 303 267 92 80 68
254 582 456 182 127 116
416 447 333 105 1 31
252 568 226 153 0 32
371 573 217 100 19 37
383 653 311 139 14 45
293 300 270 90 79 68
293 303 270 92 81 69
297 298 270 91 80 68
427 603 281 105 86 66
310 293 296 83 66 46
296 302 269 92 81 70
397 603 251 106 27 40
300 294 272 89 78 67
301 304 268 91 80 69
302 298 276 92 80 67
457 493 366 159 106 98
303 301 274 92 80 69
445 693 261 129 97 60
415 508 263 65 25 28
290 310 263 93 81 70
321 527 472 49 28 32
292 308 265 93 81 70
291 313 264 92 80 67
298 313 264 89 79 68
301 313 266 87 77 67
408 893 285 69 59 59
298 319 269 87 76 66
342 873 236 51 47 48
376 378 257 103 87 70
304 313 269 86 76 66
301 316 267 86 75 65
413 779 303 54 45 41
303 318 270 84 74 64
307 303 272 87 76 66
306 299 273 90 78 66
399 610 260 88 35 37
374 539 209 92 36 39
376 693 225 64 53 44
418 492 317 56 17 24
308 293 281 83 73 63
310 295 287 84 73 62
307 298 276 89 77 65
304 298 279 92 78 65
283 663 252 138 3 33
309 302 275 85 73 62
328 289 306 96 76 54
310 300 278 85 74 63
310 299 282 85 75 66
420 480 303 96 14 31
282 638 251 164 1 40
311 303 281 82 73 64
309 296 284 85 75 64
306 841 299 85 66 55
307 313 271 82 72 62
357 293 314 128 93 62
307 318 271 79 70 60
372 492 461 120 27 44
307 314 276 82 71 60
369 490 473 172 19 59
449 712 255 115 87 53
312 308 276 76 67 58
311 310 273 78 68 59
447 463 360 51 28 33
371 932 263 76 69 70
308 317 276 81 70 59
378 363 286 124 97 66
313 318 276 66 57 50
426 508 281 129 22 41
313 308 281 76 67 58
266 555 401 47 31 34
234 527 319 75 19 28
435 725 223 104 75 46
314 313 286 69 60 51
362 495 461 96 28 37
334 259 277 100 82 62
314 317 281 63 54 46
236 598 281 55 31 36
315 319 277 61 52 44
315 319 281 60 52 45
425 625 263 107 88 67
314 316 284 63 55 48
316 318 286 62 53 46
332 673 336 164 9 52
409 538 246 67 31 36
317 442 308 79 54 41
297 293 320 115 92 66
235 690 323 179 123 97
300 290 319 103 82 58
417 503 406 141 17 47
303 292 317 105 83 57
267 383 326 124 97 69
301 294 320 105 83 58
321 897 274 147 105 77
302 298 321 108 85 58
461 487 370 168 107 102
309 292 301 92 73 53
311 298 291 83 70 57
455 719 246 87 69 48
312 298 301 83 63 39
332 268 281 98 82 64
292 522 442 77 30 28
313 303 291 81 68 54
372 313 301 138 104 75
437 628 291 170 117 87
313 303 296 82 65 44
357 507 396 64 25 32
287 342 264 90 77 64
310 294 306 95 76 53
296 584 219 179 8 46
310 295 309 101 79 53
