ply
format ascii 1.0
comment Created by Open3D
element vertex 2204
property double x
property double y
property double z
property uchar red
property uchar green
property uchar blue
end_header
280 268 289 159 109 83
285 268 288 156 104 78
285 273 284 153 102 78
362 848 346 34 30 29
275 278 284 160 110 87
281 275 285 155 103 78
280 278 283 153 102 78
258 629 283 144 7 45
275 288 278 155 104 81
280 288 277 149 99 75
315 783 339 56 44 39
335 418 326 141 14 44
275 282 282 158 108 85
268 724 331 136 104 71
284 313 262 133 94 68
286 279 280 145 100 76
323 809 232 185 134 109
345 753 319 61 21 24
285 277 282 149 100 76
425 548 158 158 109 79
285 283 278 146 99 76
284 287 276 146 98 76
255 822 318 209 140 112
409 808 282 69 53 45
286 289 274 146 99 75
267 256 291 138 102 76
270 258 292 142 104 79
268 260 290 141 104 77
419 517 154 167 12 37
322 877 310 42 39 36
275 258 292 149 109 81
244 576 250 82 29 33
275 262 291 154 111 83
275 264 290 155 110 84
280 258 293 157 111 82
302 269 263 131 94 68
275 268 289 159 113 87
277 448 321 137 20 45
257 292 272 142 101 78
259 299 270 143 101 79
262 301 271 142 101 80
265 304 270 140 101 79
343 911 240 70 62 61
266 302 271 144 102 81
340 773 198 85 68 61
265 293 274 148 102 81
335 433 327 145 14 46
221 668 288 163 116 89
275 853 298 125 90 72
270 292 276 157 109 87
358 897 254 65 57 56
300 618 202 91 31 41
270 298 273 153 106 85
260 313 268 126 93 70
265 313 268 133 98 73
270 304 270 143 102 78
385 438 256 130 8 40
345 848 358 43 36 33
270 308 269 140 101 76
360 628 187 94 30 38
355 878 372 53 46 42
280 297 272 144 98 72
286 294 269 142 100 76
394 638 178 146 107 77
379 813 329 53 43 45
285 298 268 140 99 74
274 292 276 154 103 81
373 693 282 77 17 28
279 313 267 134 93 66
249 634 286 123 75 65
371 883 348 70 61 60
279 318 266 130 92 63
287 305 260 132 96 70
287 313 260 130 94 67
282 309 265 135 94 71
281 313 265 134 93 69
285 318 262 126 91 63
303 266 260 129 93 67
367 575 166 179 6 36
287 892 333 47 43 42
301 273 263 134 96 70
304 263 268 131 96 68
380 773 363 54 44 37
298 765 236 79 63 58
300 273 268 138 100 74
356 823 380 73 57 47
299 272 272 142 104 76
294 262 286 154 108 85
205 573 259 124 97 71
296 269 279 145 103 81
291 269 284 151 104 81
255 613 268 112 23 40
346 818 214 79 65 60
300 623 317 134 28 50
287 831 300 53 46 45
142 536 209 204 133 117
290 272 282 150 103 79
309 692 201 118 10 28
293 271 281 148 103 79
225 578 257 70 31 36
425 743 396 89 71 54
305 258 273 137 99 70
379 868 298 58 49 46
303 257 277 141 101 74
210 542 213 62 34 38
300 263 278 145 103 78
299 258 283 151 108 84
299 267 277 144 105 79
295 278 273 144 104 79
295 288 258 134 91 69
291 288 269 142 99 78
242 516 296 41 27 31
145 528 228 157 109 89
289 287 272 144 100 78
293 282 272 145 102 80
308 775 231 83 67 60
305 939 242 80 72 73
298 282 258 132 92 68
388 812 297 55 44 44
298 281 262 136 96 71
298 916 237 70 60 57
292 279 275 144 103 78
293 277 276 147 105 81
195 533 238 70 18 28
288 276 281 147 101 79
289 282 276 144 100 76
305 258 263 128 94 66
370 408 308 58 48 39
305 258 268 132 97 67
362 448 346 122 23 43
265 733 238 180 10 50
291 259 289 153 105 81
291 293 263 139 96 75
292 294 258 134 91 69
293 292 258 134 91 70
367 598 285 73 25 35
289 292 267 141 99 77
292 290 265 140 97 76
291 298 258 131 89 67
289 298 263 136 95 72
412 762 228 132 88 62
288 302 261 133 96 72
288 296 266 138 98 74
288 308 258 128 90 65
363 572 306 160 21 55
289 318 257 121 88 61
348 689 306 102 12 34
260 323 268 123 94 67
260 328 269 125 96 68
265 323 269 120 92 65
415 593 203 124 74 65
374 758 324 44 36 32
350 463 338 136 18 44
270 323 268 126 95 67
340 433 329 144 13 44
270 332 270 119 94 64
269 334 271 118 93 64
261 338 271 124 97 69
260 343 272 123 96 69
223 577 255 50 27 34
258 472 315 81 15 32
230 613 253 139 93 73
263 770 271 82 68 63
257 344 271 123 96 70
295 923 233 61 56 58
346 914 343 55 49 52
197 521 251 167 0 53
257 348 271 123 96 70
260 348 273 123 96 69
265 348 275 122 96 67
235 523 198 65 31 40
263 352 275 123 96 68
383 861 322 59 50 51
265 353 276 123 96 67
260 453 313 69 25 32
381 454 345 124 30 48
270 347 275 119 95 66
270 353 277 121 95 67
197 570 231 163 110 87
385 738 328 48 38 29
275 323 267 126 94 64
275 328 268 120 92 63
420 753 277 51 42 38
275 333 269 118 93 63
285 323 263 123 90 61
287 322 260 124 91 63
205 533 247 101 10 36
285 328 263 121 91 60
351 563 170 142 1 32
283 330 266 120 91 60
276 337 270 117 92 63
278 340 271 115 90 60
378 686 196 86 66 50
284 338 267 114 89 60
286 337 265 115 90 60
229 683 299 143 101 73
284 520 141 44 30 35
310 399 283 68 60 51
286 347 270 112 89 62
275 348 274 119 94 66
276 352 275 119 94 66
273 350 276 119 94 66
259 358 274 124 97 69
318 804 236 191 132 111
339 792 326 34 30 29
262 355 276 124 97 68
261 358 276 122 95 68
260 363 277 122 96 68
201 608 248 193 130 99
285 750 336 129 95 67
257 365 276 123 98 70
270 883 257 161 125 94
264 367 280 121 95 69
391 741 276 79 56 49
266 368 281 120 95 68
198 600 246 198 133 101
332 955 257 87 80 79
270 368 282 120 95 66
354 458 340 39 27 28
262 370 281 119 93 67
261 374 281 120 94 68
258 378 280 121 96 69
257 384 281 121 96 69
367 892 353 89 74 71
270 373 284 121 95 67
268 381 285 116 92 65
270 383 286 114 91 66
280 358 277 115 92 64
275 368 282 119 94 65
278 365 281 117 92 64
246 694 316 134 100 69
285 363 278 113 90 63
280 373 283 117 92 64
275 377 285 120 94 65
252 817 332 190 127 102
300 693 321 75 24 35
275 383 287 114 91 64
282 566 175 192 10 40
377 565 285 143 16 42
281 377 285 117 92 64
299 624 206 138 30 48
142 520 185 201 3 49
280 383 288 111 88 62
285 378 284 112 89 62
406 648 210 148 101 74
373 638 262 149 20 49
336 944 252 85 77 79
257 538 178 95 19 36
285 383 287 108 86 62
320 400 288 66 58 49
288 329 261 121 91 60
325 463 330 89 23 36
291 333 258 120 90 61
289 333 262 119 91 61
293 334 256 122 94 63
294 343 258 117 91 61
288 344 266 114 90 61
296 348 258 116 91 61
292 347 264 113 90 62
295 353 263 114 90 62
289 354 272 111 89 64
290 358 273 111 88 63
370 853 378 76 67 60
276 503 331 31 28 29
315 837 317 39 32 31
295 358 268 111 88 62
280 533 153 194 10 40
295 946 249 73 68 69
404 818 228 171 111 83
292 356 270 111 89 64
403 831 252 112 82 59
421 783 218 183 123 91
372 875 339 68 61 63
295 363 272 109 87 63
301 362 259 106 83 57
268 513 325 112 16 40
216 524 181 199 8 37
303 364 257 98 76 50
305 373 258 91 72 50
304 368 263 102 81 58
299 364 267 109 87 62
361 673 289 110 16 38
300 368 268 105 84 61
261 543 174 64 30 38
296 617 204 118 32 44
288 360 276 111 88 62
291 362 275 109 88 63
296 392 285 75 64 53
305 373 263 98 79 57
302 373 269 100 81 59
300 373 273 100 81 60
305 398 293 69 61 53
304 378 268 92 75 57
303 379 272 90 75 58
291 372 280 107 87 63
295 373 279 102 83 61
370 428 351 158 17 49
290 374 282 107 86 62
375 406 338 78 54 48
294 378 282 98 79 60
300 383 278 85 72 57
304 383 273 83 69 55
302 383 275 85 71 57
308 375 256 77 60 41
307 378 259 81 64 46
305 383 268 82 69 54
295 593 193 167 6 40
384 823 372 56 47 38
314 384 256 55 44 32
260 388 283 118 94 68
259 393 284 118 94 68
401 814 182 168 112 81
263 387 285 116 92 66
262 394 286 116 93 67
265 393 287 113 90 66
273 456 320 121 12 38
259 398 285 117 93 67
261 398 287 114 92 67
265 398 289 111 89 66
260 402 289 107 86 65
270 393 289 108 87 64
259 408 294 68 40 36
402 538 269 109 26 40
335 834 237 163 127 102
263 412 300 74 28 35
410 798 278 71 55 47
265 413 302 62 28 34
359 873 223 82 67 58
269 401 294 91 76 60
223 564 265 108 18 31
365 820 380 58 47 39
270 402 298 76 51 42
272 400 297 77 66 52
344 825 221 63 53 54
330 678 195 41 37 40
405 817 277 67 53 46
268 406 300 68 22 28
270 408 303 92 21 34
291 844 268 82 68 52
266 409 301 85 28 35
358 596 296 132 15 41
275 388 289 108 87 63
280 388 289 104 83 61
275 397 294 94 77 58
385 753 363 68 56 44
344 820 385 74 56 48
285 388 289 99 80 59
286 395 296 82 69 56
278 453 324 128 23 43
258 553 310 94 14 34
285 399 318 113 22 35
388 807 301 51 39 42
276 400 301 80 59 44
292 602 200 80 28 37
273 740 236 169 19 52
274 408 308 128 13 41
276 408 313 128 13 41
234 578 263 68 28 37
213 628 280 152 110 83
279 401 308 104 41 47
285 683 314 70 29 35
278 406 315 139 14 46
256 933 318 64 49 49
278 408 318 127 14 40
240 638 263 139 96 73
320 573 176 92 29 34
264 599 217 133 22 43
275 413 313 114 19 39
318 609 191 80 35 42
278 413 319 107 20 40
350 728 186 139 2 36
260 423 302 54 25 31
195 553 248 122 97 73
320 883 242 64 56 52
353 423 340 54 26 30
265 418 303 82 24 34
265 423 304 111 17 38
430 819 348 77 60 49
380 848 283 54 45 44
260 428 303 108 23 40
264 427 305 97 19 35
266 428 307 64 29 33
334 872 238 58 54 54
261 434 306 51 27 29
265 433 308 49 27 29
267 424 306 75 19 33
293 835 320 39 32 31
270 423 308 77 28 35
258 894 298 134 99 86
272 429 311 70 34 36
260 438 307 115 14 39
260 443 308 123 9 37
335 808 327 34 30 29
316 539 156 117 28 41
266 444 312 117 13 38
420 578 164 147 101 64
265 448 313 111 11 35
270 438 312 74 25 33
271 449 316 120 15 38
335 843 239 151 119 92
276 418 313 83 24 35
389 423 333 137 14 39
275 423 313 73 27 33
293 846 261 100 83 66
277 418 316 79 24 34
277 717 225 68 36 39
322 700 190 56 32 30
277 423 316 71 27 37
274 433 314 53 28 30
400 832 213 212 141 112
300 742 335 100 25 39
276 433 317 71 25 32
395 568 258 160 19 52
237 544 212 148 11 35
278 433 320 69 27 34
273 438 315 50 31 32
276 438 318 72 28 34
273 442 315 67 28 32
257 628 283 141 9 43
275 443 318 98 20 38
380 498 323 151 20 45
303 385 276 79 66 54
360 668 288 75 22 32
303 393 277 71 62 53
299 388 282 77 66 55
325 543 331 92 26 39
300 393 283 72 62 53
292 736 225 122 23 46
305 393 273 71 62 53
306 397 274 70 61 51
363 901 317 58 52 52
305 398 278 70 61 52
255 673 303 127 94 66
260 533 168 161 8 40
298 395 287 71 61 52
301 398 283 70 61 53
305 400 283 69 61 53
185 531 180 201 5 51
305 399 288 69 62 54
253 603 273 59 30 35
178 550 235 168 117 90
375 848 377 57 50 48
425 613 173 160 107 76
311 387 259 58 48 36
311 392 264 66 56 45
335 538 162 128 27 44
360 633 189 156 17 43
279 779 257 84 66 60
310 398 273 68 59 49
139 522 188 158 51 62
312 396 269 66 56 45
315 388 258 52 42 32
355 528 162 170 0 31
269 893 338 42 39 39
314 390 261 56 46 36
320 393 258 51 42 32
320 398 263 56 47 38
245 588 268 88 29 37
433 790 345 68 53 43
278 648 237 40 34 41
431 528 188 107 22 41
371 859 227 103 82 66
300 793 343 151 105 79
315 398 268 61 51 42
320 400 268 61 52 42
370 893 283 62 54 52
320 400 278 64 55 46
353 407 340 99 28 40
320 400 283 66 57 48
290 396 295 78 67 53
382 648 228 154 13 49
295 394 293 74 64 53
288 395 296 81 68 54
290 397 298 77 63 52
410 738 392 66 50 37
382 752 180 142 102 63
451 921 379 94 84 76
290 398 303 73 61 51
300 397 293 70 62 53
300 397 303 71 60 50
295 397 308 73 58 46
290 398 318 107 30 30
220 628 252 171 118 87
402 503 265 97 15 33
295 398 318 100 36 38
408 518 257 132 17 43
300 397 308 72 57 46
305 397 318 81 50 40
310 398 298 68 60 52
315 399 293 67 60 51
320 399 293 66 58 50
331 838 373 58 48 42
315 399 298 67 60 51
320 399 298 65 58 49
391 798 294 48 38 39
310 398 308 65 57 47
346 794 325 32 29 30
142 521 226 169 119 103
331 683 315 53 27 30
310 398 313 68 54 44
315 398 313 60 53 44
320 399 308 55 50 42
417 710 330 62 43 33
320 398 313 54 48 39
315 398 318 62 53 41
280 408 323 109 20 39
160 542 208 214 145 119
283 401 320 138 14 36
420 578 194 140 97 78
283 401 324 130 19 41
459 516 177 212 149 131
405 678 177 162 107 75
282 404 326 86 20 30
282 409 326 71 28 33
418 557 167 134 90 64
410 748 393 77 58 44
433 781 371 61 48 39
379 488 318 136 15 41
285 408 329 64 26 31
285 413 329 68 25 32
287 413 331 92 23 34
280 418 323 67 25 33
378 693 192 102 79 57
325 399 308 54 46 37
280 428 323 59 25 30
407 693 316 90 72 54
279 433 323 38 28 29
282 423 327 121 20 43
255 573 223 62 30 38
287 418 331 117 19 40
287 423 331 136 18 42
284 428 329 108 21 38
286 433 332 101 24 37
255 698 268 90 24 35
290 448 335 90 27 37
278 438 320 74 24 33
278 441 320 88 30 44
355 818 333 48 42 41
355 888 376 54 47 43
277 444 321 112 19 36
280 448 328 58 28 32
401 745 181 141 98 56
257 583 218 140 6 39
243 580 290 109 36 52
283 438 330 85 26 39
324 872 304 51 45 42
355 923 308 61 54 55
273 472 325 51 22 27
320 823 241 152 113 86
294 842 268 78 65 49
405 858 343 86 73 66
281 443 328 95 25 38
285 443 333 95 24 37
308 826 251 144 113 87
285 448 333 73 26 34
375 593 278 87 26 39
290 399 328 124 13 39
295 398 323 109 31 33
380 858 268 54 47 45
291 400 331 130 12 43
367 584 290 109 23 37
305 398 328 100 37 31
300 398 333 122 13 35
395 743 343 76 65 57
260 726 335 142 107 77
433 803 342 95 83 74
305 428 334 50 27 30
375 418 352 40 29 32
320 853 243 136 112 89
305 398 333 118 24 37
288 403 330 119 19 40
368 732 305 55 42 33
359 923 298 61 54 55
291 403 332 121 18 41
290 413 332 82 25 34
295 413 335 86 25 36
305 408 337 137 20 44
297 413 336 99 22 38
300 413 336 93 22 35
310 398 323 82 51 38
437 794 357 74 58 49
270 938 253 77 70 70
315 399 328 101 36 35
320 399 323 75 45 31
319 400 327 107 31 35
330 519 335 36 27 30
314 400 333 128 20 39
311 413 335 50 25 30
320 402 328 135 16 40
290 498 335 156 16 48
316 403 334 142 17 45
317 401 330 135 14 39
318 408 331 127 17 42
395 753 383 58 45 33
321 408 329 135 15 43
355 513 335 181 10 55
320 413 329 147 14 46
309 413 336 39 28 29
232 718 298 183 123 97
252 884 279 175 125 107
313 403 336 147 17 48
290 423 334 115 24 41
389 632 218 35 28 30
374 846 225 104 82 65
379 498 318 85 21 32
293 423 335 58 26 30
301 434 335 98 25 39
379 498 313 100 21 38
295 423 336 59 28 32
292 429 336 89 32 42
292 433 336 71 32 38
300 418 337 87 26 36
300 428 336 51 27 32
255 883 303 176 131 112
299 432 336 118 24 42
290 443 335 97 28 41
245 524 207 156 14 43
300 438 334 57 28 32
292 438 336 58 30 31
292 442 336 44 27 27
298 436 336 104 20 37
310 423 333 85 28 37
424 798 401 93 77 66
309 433 331 94 26 39
311 433 330 96 25 38
235 568 238 203 4 43
315 418 332 122 18 41
295 854 307 103 82 62
314 423 331 69 26 32
316 423 330 62 24 31
317 419 330 107 18 37
315 917 223 84 75 73
320 418 328 123 14 40
320 423 327 99 22 37
320 433 326 83 28 36
313 426 331 42 26 30
312 430 330 65 26 35
386 634 218 71 24 34
305 448 330 112 23 42
308 441 331 56 23 31
340 401 313 58 48 35
216 648 282 149 107 78
325 718 183 107 19 33
296 928 229 93 82 80
255 618 299 57 29 34
310 448 328 111 22 42
284 595 201 203 10 47
439 759 373 93 72 56
315 438 328 140 20 47
257 454 311 122 21 44
367 894 348 99 87 88
260 458 314 77 22 34
259 463 314 97 16 35
355 698 303 67 21 26
269 774 267 82 69 69
259 468 315 126 13 41
264 468 319 136 12 43
345 563 317 184 13 59
257 474 316 36 28 30
260 478 318 54 31 33
263 477 320 70 21 29
375 869 363 45 40 38
434 568 178 157 111 84
257 503 316 119 13 41
257 508 316 148 11 45
374 583 282 110 29 43
230 542 203 108 30 41
271 459 321 116 8 35
447 770 412 101 85 69
268 462 320 133 13 42
224 618 250 163 111 86
281 658 234 81 26 38
271 463 322 128 13 40
264 693 248 102 20 35
368 835 211 65 62 65
270 478 324 86 25 35
360 768 188 150 114 76
272 479 326 97 24 37
390 733 179 141 98 59
276 453 322 136 16 43
412 554 180 69 32 37
275 458 322 123 16 41
362 609 285 31 29 30
275 463 324 134 17 44
278 457 325 113 21 41
395 683 216 114 76 55
377 868 282 60 51 52
285 453 333 68 26 34
285 463 334 66 25 34
275 473 327 91 16 30
243 619 268 110 49 43
279 473 329 141 18 45
251 552 223 104 23 34
282 478 331 155 20 49
350 402 318 63 45 31
285 478 333 157 20 50
263 481 320 35 28 31
277 736 230 45 33 41
423 546 191 74 34 33
262 488 321 48 29 31
269 483 325 64 27 34
329 412 325 144 15 45
268 492 325 44 23 24
262 498 321 45 30 30
289 703 320 128 19 44
241 788 318 187 133 104
265 513 323 150 17 45
249 763 292 158 110 80
275 698 312 75 28 34
268 504 325 56 33 33
268 508 325 42 24 30
270 513 327 77 23 35
330 478 333 157 16 50
275 488 328 79 19 32
279 483 330 140 17 44
275 493 329 131 18 43
232 722 303 180 121 94
281 493 332 150 19 47
337 798 325 43 38 36
281 483 331 148 18 47
285 493 334 159 20 51
250 533 208 69 25 37
427 573 190 159 115 91
371 653 268 144 13 45
275 498 330 128 18 41
408 750 319 56 42 37
337 909 232 72 66 67
274 503 330 32 27 29
401 708 308 60 46 35
277 499 331 106 21 36
280 498 332 143 18 46
280 503 332 79 19 34
276 508 331 103 25 40
274 513 330 58 23 33
390 768 179 131 99 60
223 542 265 121 2 37
280 508 332 140 20 47
374 448 293 142 6 44
277 513 331 116 17 41
285 498 334 160 21 51
290 453 335 54 28 32
300 463 331 60 28 31
257 582 214 153 0 38
305 458 329 66 28 33
249 544 222 65 29 36
290 478 334 155 19 49
285 598 203 162 15 45
407 825 259 112 83 61
355 488 338 134 21 47
300 468 331 66 29 35
300 473 331 122 21 43
302 468 330 53 26 32
378 638 248 165 14 50
305 468 330 77 26 35
302 471 330 104 26 42
320 643 197 151 5 39
380 833 378 55 48 43
300 478 331 146 17 47
386 688 179 127 98 65
305 478 331 120 17 41
417 649 178 174 122 90
310 463 329 85 28 38
290 693 318 41 29 30
320 463 329 46 29 31
310 473 330 129 19 42
365 461 346 83 27 36
310 476 330 133 16 43
310 478 331 145 17 47
331 401 320 56 43 24
320 473 331 116 21 42
290 483 334 158 17 48
295 483 333 160 14 50
295 488 334 159 12 50
295 493 335 161 10 52
262 557 184 94 24 36
305 488 333 150 17 46
266 543 322 90 28 38
300 493 334 156 13 49
290 508 335 150 20 48
290 513 335 135 22 46
293 513 335 74 25 35
300 498 335 148 16 46
305 501 335 45 20 27
369 778 343 51 42 34
296 504 336 157 19 48
326 849 364 45 37 39
296 508 336 91 21 38
409 778 243 135 96 75
300 504 336 155 21 49
240 613 268 120 59 53
300 513 336 55 24 31
380 688 188 112 89 63
305 508 336 93 25 39
298 836 321 44 34 32
310 483 332 149 16 47
315 488 334 155 14 48
285 841 288 87 65 50
368 659 277 141 11 43
315 493 334 150 18 48
310 498 335 52 27 31
330 493 334 157 12 50
311 502 335 45 28 29
315 502 335 122 23 44
310 508 336 89 28 37
282 626 225 46 30 38
413 806 200 179 119 87
372 824 373 51 43 40
315 513 336 32 29 30
386 748 373 60 47 39
320 513 336 44 29 32
325 397 263 57 48 38
325 400 273 61 52 43
330 398 258 56 47 39
237 728 322 157 109 83
335 398 257 60 51 42
423 766 385 101 84 68
330 399 268 59 49 39
330 400 273 60 51 41
334 400 267 55 46 38
295 917 238 72 55 51
335 403 258 56 48 42
335 402 263 53 46 40
295 949 252 80 74 76
336 401 268 52 44 37
336 401 273 57 48 39
390 733 323 62 47 36
250 638 288 127 82 67
302 581 180 189 10 43
325 400 278 62 53 44
386 684 180 125 97 65
400 738 179 143 97 58
325 400 288 64 55 46
253 614 282 101 18 33
220 593 272 113 85 65
389 508 288 135 6 42
330 400 278 61 52 43
405 633 209 146 104 79
333 400 278 60 51 42
335 401 278 59 50 41
382 662 243 144 17 44
340 400 258 64 56 48
261 777 279 76 60 54
440 533 158 193 124 100
340 403 263 55 47 41
344 400 258 63 56 48
346 401 258 64 56 48
270 822 337 186 126 103
204 582 235 168 111 87
345 402 263 58 50 42
345 403 268 56 49 42
345 403 273 55 47 40
350 402 263 64 56 49
212 518 261 130 6 40
325 399 303 57 50 41
350 402 268 60 53 45
364 698 194 79 31 34
340 402 283 59 50 42
285 748 334 128 95 67
340 401 288 59 51 42
345 402 283 57 49 41
350 403 278 55 48 41
227 591 263 88 66 62
350 403 283 56 47 40
350 403 288 60 48 41
248 545 226 32 34 39
325 399 298 62 54 46
290 883 252 138 111 83
325 399 318 52 41 30
419 553 198 73 23 37
330 400 303 57 49 40
330 400 308 55 46 37
330 400 293 61 53 44
370 838 382 54 45 39
305 723 331 71 30 36
333 400 289 60 52 43
333 400 293 60 51 43
385 643 193 113 86 61
335 401 293 60 51 42
335 400 313 57 46 35
215 628 251 183 125 94
335 400 317 56 46 34
335 401 319 57 47 32
340 401 293 60 51 42
286 815 340 147 103 81
254 528 183 93 19 36
340 401 303 59 51 41
283 540 156 200 11 50
345 402 303 59 51 42
246 729 331 145 104 76
350 403 298 59 51 42
350 403 303 58 51 42
337 401 306 59 50 40
345 402 308 58 50 39
345 401 313 58 48 35
424 750 370 62 46 40
355 402 258 68 58 48
372 423 273 130 10 40
261 578 312 159 15 50
355 403 273 59 51 43
414 588 203 100 48 46
360 403 273 64 53 45
355 404 278 58 47 41
434 531 217 153 16 51
360 404 283 63 43 40
367 406 278 72 47 40
364 405 283 62 44 40
364 405 288 52 41 37
395 593 228 166 19 52
366 406 283 68 46 41
368 404 263 77 63 50
368 408 263 59 40 37
400 633 211 121 88 68
369 408 268 49 37 36
406 849 349 56 47 41
205 588 238 172 114 87
194 573 254 154 114 86
370 413 268 74 25 34
294 712 325 129 14 41
410 738 373 60 49 38
371 413 273 80 25 35
261 568 312 160 15 51
373 415 284 40 29 33
366 406 293 45 38 37
381 648 238 153 6 46
363 405 298 53 45 38
448 738 316 78 54 42
365 406 298 51 43 36
273 610 221 69 35 41
363 405 303 60 52 44
291 783 345 161 112 84
355 403 308 61 53 45
373 512 331 177 13 55
360 404 313 64 54 45
270 759 252 94 72 64
409 653 208 152 105 77
264 719 331 138 106 74
360 404 318 67 53 43
299 833 273 131 99 74
338 830 231 185 136 115
364 405 313 64 54 45
431 734 297 74 54 42
366 406 308 60 52 43
366 406 313 63 53 44
261 658 278 90 67 65
366 406 318 66 54 45
372 412 294 73 29 34
315 663 316 60 26 33
230 549 212 126 25 46
373 414 292 52 29 34
411 754 309 52 41 36
174 516 160 147 5 27
372 413 298 84 28 37
372 412 302 66 30 35
290 734 331 136 22 46
370 407 313 61 51 42
370 407 318 67 53 44
373 410 309 55 45 37
440 748 403 98 86 76
376 412 312 53 38 35
377 411 317 67 45 38
348 803 206 82 68 62
380 413 318 83 39 40
430 768 362 110 83 60
310 898 238 57 54 55
371 418 263 121 15 39
261 603 307 157 17 52
375 423 258 131 9 40
390 712 293 83 68 60
372 418 268 124 12 38
180 542 209 218 148 130
372 423 268 129 9 40
427 599 171 156 109 77
373 420 271 124 8 34
375 428 263 134 6 41
372 426 273 131 8 40
373 428 273 133 7 41
380 423 352 136 17 46
375 433 268 133 5 40
379 433 257 131 8 41
372 418 277 86 20 34
373 418 279 83 25 36
373 424 274 131 10 40
326 583 320 57 29 34
452 766 436 100 81 62
406 818 193 150 98 73
372 421 276 127 13 37
375 423 288 41 30 33
375 433 278 139 7 43
400 833 328 76 64 57
375 428 283 125 17 42
376 438 273 137 2 42
377 774 361 44 36 31
380 438 258 131 8 40
348 748 316 54 21 23
351 589 305 156 26 55
364 867 223 92 73 61
289 939 340 62 57 56
377 436 260 134 8 42
264 769 267 81 68 65
354 842 391 57 46 39
377 438 263 135 5 40
379 439 262 133 6 40
376 438 268 135 2 43
315 608 318 145 24 51
358 816 394 103 78 57
381 447 264 131 5 38
375 438 288 105 21 40
375 443 283 139 12 42
375 448 283 134 9 41
374 448 288 138 10 42
377 446 274 137 8 45
374 423 293 47 30 34
374 423 298 59 27 32
374 423 303 125 18 41
375 428 293 53 29 33
371 663 202 47 34 35
375 433 293 62 26 32
426 751 371 76 58 44
324 961 316 51 47 46
409 528 223 61 21 30
413 784 255 58 48 45
374 428 298 96 27 40
429 727 369 95 73 54
374 428 303 133 16 43
437 741 311 71 47 36
374 433 298 94 26 41
372 424 305 142 15 44
380 823 313 41 34 39
374 428 308 140 11 44
376 428 313 136 13 41
397 523 279 56 20 30
254 928 308 179 131 110
377 423 312 139 13 40
378 422 314 138 14 41
347 838 318 40 35 35
380 423 318 121 18 40
378 427 315 130 15 40
269 903 262 169 124 100
374 438 298 149 16 46
387 411 336 105 45 43
373 443 293 140 13 45
208 579 239 139 85 70
375 443 308 139 11 43
386 539 154 79 22 27
376 443 313 139 12 41
378 443 319 126 15 38
377 448 317 135 16 42
400 703 177 146 99 62
324 400 322 69 36 21
322 401 325 107 18 32
324 404 326 138 16 43
245 514 197 115 23 37
330 402 323 111 24 35
415 723 198 139 99 65
335 403 323 94 32 33
221 573 266 82 22 35
272 877 255 146 115 84
336 405 326 126 25 39
394 724 262 106 11 36
343 407 330 130 17 41
240 653 298 147 108 82
340 413 329 137 15 43
305 963 318 70 65 65
342 410 331 131 15 44
305 923 228 92 81 79
342 412 331 134 15 42
343 414 330 131 20 44
350 402 323 70 40 28
285 553 330 182 17 59
348 408 335 104 22 38
351 405 337 125 21 37
252 734 336 147 106 78
351 413 337 55 27 32
430 738 313 57 41 33
324 418 326 141 13 45
326 418 325 145 14 45
326 428 325 123 21 42
330 423 325 147 17 46
456 520 163 209 139 120
385 593 263 174 8 55
438 796 365 62 44 34
335 423 326 144 15 45
418 750 190 139 98 67
331 428 326 147 17 47
335 428 327 145 14 46
325 438 326 141 18 45
335 438 328 144 14 45
335 443 329 147 14 46
254 553 203 62 28 33
365 408 349 109 31 44
335 448 329 148 15 46
348 446 335 142 14 47
343 418 330 103 19 37
336 637 190 72 32 39
191 573 252 160 117 88
346 418 332 79 22 34
343 423 330 137 18 46
340 428 329 142 13 45
423 768 199 163 113 83
342 433 331 144 12 44
345 433 333 145 13 45
346 423 332 107 22 40
340 858 388 56 50 46
351 418 337 82 26 36
315 608 192 115 26 39
339 438 330 146 14 46
338 448 330 149 13 47
345 448 334 145 12 46
349 438 335 142 15 45
263 955 277 79 74 75
445 758 393 77 63 53
350 448 337 139 15 44
355 403 323 72 45 34
264 938 263 70 65 67
355 403 333 73 43 36
360 404 333 65 52 42
404 828 218 193 129 102
365 405 323 72 55 46
367 406 323 72 55 46
355 408 342 50 30 33
305 543 157 89 28 38
356 413 342 50 29 31
361 408 347 69 30 35
380 818 378 57 47 38
253 712 273 60 31 36
372 825 377 43 37 32
365 404 338 64 53 44
365 404 343 68 42 36
386 816 180 176 125 94
365 413 349 56 29 32
367 410 351 100 33 41
368 405 329 74 56 48
375 407 328 85 52 47
325 478 332 154 17 48
261 703 243 112 9 34
369 405 333 74 56 49
380 408 333 95 49 46
383 410 325 89 46 40
370 405 338 69 56 49
373 405 340 70 56 50
252 608 278 126 10 30
416 588 165 143 102 61
305 518 336 61 21 32
373 405 343 69 56 49
200 533 193 147 20 43
379 753 344 59 45 36
375 406 343 70 52 47
266 752 245 31 32 38
393 758 333 55 42 36
370 405 347 74 40 39
375 406 348 71 46 43
424 730 290 70 54 40
224 584 262 71 39 41
370 413 352 51 30 33
380 407 338 89 49 46
380 407 348 79 47 43
245 783 303 173 123 90
385 408 348 95 47 45
356 418 342 47 29 31
359 418 345 48 29 31
409 698 184 146 99 68
145 522 173 230 2 60
356 433 342 60 27 31
359 428 344 54 28 30
360 433 344 101 21 38
449 774 397 98 80 62
384 458 328 73 28 33
324 941 336 55 50 48
361 428 346 79 24 32
362 433 346 131 18 45
382 738 180 145 102 64
330 938 243 89 80 80
382 663 248 116 22 41
437 519 185 159 34 58
365 433 348 153 17 50
274 848 295 151 111 91
354 438 339 115 19 41
370 443 349 162 16 51
356 438 341 127 17 45
360 438 344 147 18 48
356 448 342 111 18 39
398 568 248 98 29 42
360 443 344 142 16 44
360 448 344 107 20 38
362 438 346 150 17 47
365 443 347 153 17 48
365 448 347 138 20 45
382 418 321 54 32 36
382 423 322 89 29 37
385 423 328 99 21 34
350 478 337 61 23 32
384 428 328 97 14 30
342 918 242 74 66 65
384 433 328 118 14 35
370 423 351 150 20 49
400 703 219 138 95 69
369 429 350 158 16 50
372 431 351 162 16 53
381 438 323 107 18 36
416 737 215 160 112 85
382 438 326 46 25 32
380 448 323 82 28 37
384 448 328 69 25 32
370 448 348 164 20 53
385 843 298 54 45 46
380 438 349 99 21 38
380 443 348 42 27 30
350 617 180 63 34 38
265 826 332 182 119 95
383 446 346 59 26 31
245 583 293 97 21 40
310 848 244 134 109 83
315 967 312 79 77 79
205 603 242 187 124 91
375 423 352 118 21 44
384 818 376 64 53 45
385 418 352 163 18 53
418 643 188 167 113 83
350 849 236 107 82 62
350 868 373 50 42 37
384 453 263 132 9 40
381 453 268 112 11 35
382 452 265 133 8 43
361 678 196 46 36 39
383 454 266 129 12 33
387 438 332 125 17 37
448 914 384 90 73 57
382 457 273 74 23 31
376 453 283 129 6 39
377 452 279 129 6 40
388 841 253 69 51 45
401 824 238 65 53 50
379 453 278 118 7 36
378 455 282 127 6 40
406 694 310 90 73 58
381 458 278 92 17 33
244 608 293 143 11 46
382 462 279 104 22 39
379 493 318 128 14 37
383 463 278 76 24 34
378 458 288 123 9 38
381 463 283 59 24 28
384 468 283 59 29 30
371 773 184 129 101 66
382 473 289 80 19 33
374 453 303 145 13 45
260 693 313 130 101 70
375 458 298 143 11 43
210 582 265 123 97 71
425 708 374 92 77 61
183 564 227 198 130 103
409 818 253 84 64 53
376 463 303 135 16 40
314 905 365 75 69 67
375 453 308 144 14 43
335 548 168 127 25 41
392 738 270 77 24 40
376 458 308 131 15 40
265 608 228 134 19 44
377 453 313 136 15 41
377 453 317 100 18 36
377 462 313 99 20 33
438 755 375 85 63 51
378 458 319 106 11 30
378 463 318 89 25 34
255 558 203 67 26 32
185 518 244 145 6 47
379 468 293 93 19 35
395 568 182 83 27 36
380 473 293 133 13 41
377 468 298 137 10 42
377 471 301 138 11 41
378 473 303 140 13 42
381 478 293 118 16 40
382 658 190 120 94 68
382 478 290 142 16 43
380 478 298 91 16 36
379 478 303 139 15 43
342 949 309 58 56 56
285 783 346 162 114 86
377 467 307 101 14 33
409 613 206 134 98 75
260 703 322 132 102 70
378 465 310 111 26 46
378 468 313 78 29 36
224 554 238 104 18 35
379 478 308 144 12 44
330 868 313 29 28 30
378 478 313 149 18 44
378 498 332 79 26 41
365 852 358 41 35 34
297 801 255 181 125 104
385 483 288 111 17 38
235 543 208 105 27 40
382 483 293 46 25 30
330 648 309 99 23 39
383 484 292 61 17 30
381 483 298 39 27 31
381 728 180 146 102 66
258 902 314 145 115 92
380 483 303 124 15 38
325 623 188 101 24 39
410 803 233 187 125 94
382 488 298 77 22 33
340 863 241 78 64 54
170 545 212 217 139 113
320 658 314 89 21 35
383 490 297 115 16 45
383 493 298 132 17 39
383 494 302 135 13 40
343 918 244 75 66 65
209 533 250 117 7 38
379 488 313 155 17 47
400 778 373 72 59 49
325 453 328 71 22 33
315 863 303 60 50 41
378 483 318 74 21 32
381 493 308 148 13 46
379 493 313 120 18 42
383 498 303 112 12 37
366 888 309 54 46 47
384 508 303 124 15 42
331 663 195 71 28 37
260 933 273 63 57 58
384 513 302 161 12 51
381 503 308 141 20 47
381 498 308 158 19 50
232 616 258 130 83 68
382 604 259 179 17 55
383 499 306 134 20 46
378 508 313 62 25 30
378 513 313 53 26 32
411 738 318 55 37 32
329 934 242 89 80 80
382 513 305 159 15 49
377 509 313 60 28 28
325 458 329 107 27 43
330 453 329 137 19 45
335 453 330 148 17 46
335 678 312 54 27 30
290 658 223 41 33 39
310 823 329 44 37 33
330 463 331 148 17 45
261 702 320 131 101 69
332 460 331 138 17 45
340 613 178 81 35 41
324 467 330 43 27 30
330 473 332 113 17 39
335 468 332 156 13 49
335 473 333 162 12 50
257 598 240 157 1 43
417 772 225 146 93 67
394 648 178 150 110 83
335 478 333 163 10 50
340 453 332 150 13 47
374 598 277 119 24 44
345 453 334 146 13 46
340 458 332 151 13 46
395 834 218 211 142 112
269 633 304 72 21 33
354 658 292 80 25 35
340 463 333 151 13 47
358 922 275 68 62 64
345 458 334 147 14 45
285 593 324 66 27 34
344 463 335 151 14 47
365 718 193 74 31 35
438 533 181 156 109 96
347 454 336 135 14 44
289 526 145 195 8 36
347 458 336 138 16 44
346 463 336 148 15 46
444 830 355 88 72 60
348 479 335 131 15 44
246 528 298 68 29 37
326 849 372 45 39 35
347 468 336 150 16 46
325 853 358 36 32 33
347 473 336 155 17 49
285 723 224 88 33 40
350 468 338 137 20 45
325 488 334 160 10 50
246 632 284 121 77 67
415 718 208 141 101 68
325 493 334 149 15 47
264 698 243 89 24 36
330 483 333 162 10 50
378 684 272 83 21 32
335 488 333 160 11 50
450 738 406 103 84 69
383 861 320 63 54 52
330 498 335 140 19 46
258 707 246 113 12 34
389 448 257 126 9 38
274 813 293 50 43 44
330 503 335 83 28 34
325 504 336 103 23 41
325 508 336 74 27 34
329 504 336 109 26 44
330 513 336 82 25 36
334 508 336 75 28 35
243 583 290 141 21 48
410 643 168 162 111 75
340 488 333 162 13 50
345 493 334 144 15 44
348 483 335 140 17 46
271 653 249 71 29 35
350 493 335 163 16 52
351 483 336 93 23 38
352 492 336 165 16 53
345 498 334 135 17 44
340 513 335 70 31 38
345 513 334 80 18 35
367 870 236 74 63 58
265 738 339 149 114 79
350 503 334 167 13 52
350 508 334 168 16 52
336 598 309 43 27 30
408 668 207 150 101 72
409 703 212 154 107 79
420 773 193 157 109 78
350 513 334 162 17 51
304 918 227 81 73 73
281 648 234 40 34 39
356 453 342 83 25 35
407 530 255 24 26 37
356 458 342 37 27 29
360 458 344 37 27 29
362 458 346 56 25 30
354 468 340 103 19 36
356 468 341 122 17 41
441 766 403 95 79 64
330 553 327 167 24 55
360 468 343 129 24 46
357 478 341 129 42 54
413 736 325 76 58 48
260 873 308 103 78 61
360 478 342 69 29 35
365 468 344 58 29 33
367 878 259 50 42 42
365 478 342 108 29 44
268 666 295 90 35 43
382 453 326 73 21 31
384 453 329 100 24 33
380 458 323 119 13 35
359 804 340 46 41 37
380 463 323 113 12 36
262 678 276 44 39 39
384 736 323 49 39 29
382 458 326 78 13 35
382 463 326 67 24 31
375 453 347 77 28 38
370 464 345 50 31 33
265 753 344 156 117 85
382 449 345 58 24 30
380 458 344 47 25 31
293 664 221 47 22 32
304 687 320 52 26 32
384 457 342 106 32 46
225 534 192 48 31 38
385 458 338 71 29 36
377 459 345 34 27 32
380 468 323 97 13 32
328 700 321 132 15 43
381 473 323 115 18 37
383 468 328 44 30 32
325 953 253 93 85 88
382 473 326 90 22 33
383 473 328 51 28 30
384 468 333 41 31 32
382 474 335 67 29 28
375 473 342 43 25 29
375 468 344 76 28 38
278 629 231 130 23 42
376 723 188 117 83 56
298 654 216 76 33 39
177 551 232 182 125 98
370 468 344 59 29 33
378 472 341 77 28 34
279 908 350 52 47 47
383 468 337 75 25 35
381 468 339 109 21 39
376 479 340 41 28 31
362 738 191 131 10 33
359 728 189 132 8 33
353 495 335 166 15 53
345 894 222 72 62 58
355 483 339 49 27 30
232 528 197 115 12 33
358 483 340 39 28 29
366 893 363 57 48 44
365 490 340 129 30 51
353 498 335 168 15 52
375 555 161 147 3 31
354 503 335 170 13 53
354 508 335 179 9 56
360 513 335 184 4 58
356 503 336 178 11 57
365 553 164 122 3 27
305 952 332 64 60 61
356 508 336 182 7 57
377 494 335 52 27 35
208 557 250 111 13 36
381 483 323 44 31 33
381 858 298 52 43 42
381 493 323 146 19 43
380 493 328 56 24 33
375 483 339 40 28 31
379 483 337 40 28 30
310 888 372 66 60 57
378 487 336 44 30 32
375 503 333 177 16 57
406 708 182 146 99 64
370 508 334 184 3 59
370 513 332 183 5 57
380 498 328 123 21 43
378 502 331 178 22 56
403 740 247 136 20 46
379 508 323 87 25 39
419 795 255 71 59 51
390 783 349 59 48 41
378 508 327 94 26 42
378 513 323 107 24 41
392 711 331 66 50 36
378 512 326 178 26 55
370 498 337 180 10 57
400 558 253 82 32 40
369 503 336 183 4 56
252 621 293 63 22 31
368 506 336 184 1 57
388 410 339 108 47 45
384 815 181 175 127 97
398 832 238 83 62 52
425 788 263 62 51 45
397 599 185 97 66 47
388 410 351 107 41 40
388 413 351 167 21 53
312 688 200 115 10 28
387 418 331 119 14 33
387 423 331 125 10 37
378 900 360 71 59 55
389 418 333 123 15 36
320 868 323 30 29 30
387 428 331 131 13 37
388 433 333 149 19 44
391 418 338 137 19 39
391 418 343 145 19 45
180 539 203 176 73 78
386 423 349 161 14 51
262 671 283 69 56 50
390 418 348 159 20 50
390 428 338 155 17 43
389 428 343 154 10 47
248 523 304 72 29 39
388 428 347 156 7 47
388 432 346 157 3 48
254 554 223 91 21 36
387 443 333 87 27 34
386 448 333 68 29 35
400 693 177 147 101 64
256 878 293 131 96 76
400 623 209 96 68 56
389 438 338 131 16 42
388 438 342 159 9 50
440 758 378 95 75 55
387 448 338 109 20 39
388 446 338 124 27 48
254 549 212 100 13 34
410 778 182 143 101 64
390 458 258 76 23 30
391 463 259 87 23 35
388 464 262 81 24 34
337 610 305 94 33 40
385 463 268 50 25 32
399 783 373 72 61 51
393 459 256 46 24 28
150 537 205 192 128 110
313 733 191 176 10 49
386 468 273 50 28 31
390 473 268 77 20 33
388 470 273 39 29 29
338 655 306 137 17 47
395 468 258 88 23 35
393 474 262 44 24 28
366 568 304 165 17 54
392 476 264 97 14 28
396 478 259 52 22 27
256 643 278 120 63 50
258 788 345 168 116 90
393 480 267 93 26 37
388 474 277 46 29 33
305 961 260 96 92 96
366 846 366 60 52 45
385 473 283 50 29 31
396 483 263 73 25 34
232 671 270 165 124 98
364 598 288 133 26 48
319 812 331 53 43 37
293 703 211 59 29 38
400 483 258 131 12 40
397 487 264 52 23 30
263 702 241 114 13 30
392 482 274 38 28 29
393 484 272 44 29 30
378 674 266 52 26 28
400 493 263 127 13 38
258 871 298 103 75 58
398 490 266 125 19 43
385 488 288 114 16 37
378 868 285 59 51 52
315 743 193 131 16 45
387 487 285 63 21 24
389 483 282 72 23 32
350 832 377 80 62 50
373 887 284 62 53 52
389 488 283 69 23 30
444 527 154 206 132 108
386 493 288 73 20 32
386 633 223 117 26 47
390 493 283 56 25 29
393 489 277 68 28 34
237 640 261 153 109 84
268 847 289 159 118 99
394 493 278 75 25 33
199 608 258 171 118 91
393 495 281 102 5 36
397 497 274 65 26 30
398 499 272 79 25 33
386 498 289 59 22 29
391 503 284 132 12 42
291 678 316 54 27 29
389 503 288 118 11 39
405 706 336 76 60 46
391 508 284 139 5 42
434 563 178 159 112 85
172 546 231 185 126 98
390 513 288 136 5 42
274 588 319 39 24 29
395 503 278 92 20 36
375 678 273 109 19 38
397 503 275 35 25 29
393 498 281 128 14 38
385 738 179 144 101 63
200 537 199 110 23 39
393 503 281 154 16 47
396 508 278 125 15 41
351 893 363 53 46 43
402 740 358 54 40 37
399 508 273 123 21 43
394 563 267 111 22 43
446 515 146 194 129 105
394 513 282 139 9 40
447 775 362 87 67 50
404 488 257 130 12 40
345 678 193 59 36 37
406 498 258 117 18 40
406 503 259 123 12 40
317 596 185 186 2 34
420 758 303 56 42 35
407 508 259 150 15 45
200 559 252 113 84 63
405 508 263 147 14 45
369 572 164 190 10 41
407 513 260 122 14 41
403 509 267 144 15 44
403 513 267 150 18 47
344 833 389 69 56 47
350 593 303 57 29 36
402 513 270 152 18 45
408 498 256 129 19 40
408 508 257 154 16 46
352 945 282 79 72 71
385 503 298 132 16 42
387 508 294 138 9 42
245 653 298 142 104 77
388 509 292 137 7 41
264 653 273 79 49 52
378 527 307 168 19 52
386 513 298 153 11 46
235 733 308 180 121 96
257 875 279 120 96 74
384 463 333 53 31 33
136 514 173 92 22 34
393 618 186 125 91 68
136 518 173 174 2 47
255 743 283 87 23 38
142 514 165 158 8 49
137 521 175 199 3 47
225 678 293 159 110 84
136 514 183 74 24 26
133 518 182 107 22 39
131 518 193 79 33 34
391 840 248 89 64 52
379 693 188 112 88 62
133 516 193 80 21 30
385 628 198 52 34 38
233 700 281 175 119 88
132 522 188 84 34 39
132 521 185 102 35 38
145 520 188 191 0 48
140 522 178 218 0 52
328 872 309 30 28 29
140 522 183 180 9 44
145 521 183 208 4 52
296 683 214 98 20 32
140 524 192 217 142 142
389 698 258 49 28 33
150 518 164 124 17 38
253 763 287 127 87 65
410 588 217 128 11 40
150 522 168 215 6 53
155 518 163 186 14 47
155 522 168 226 15 51
155 525 173 234 13 60
270 543 163 144 12 41
210 558 252 97 16 35
160 525 172 234 17 53
382 740 353 52 42 35
160 526 174 207 15 42
150 523 178 202 6 52
252 561 230 154 0 44
147 521 188 187 0 39
343 838 310 36 32 31
154 525 178 111 21 42
160 527 178 123 27 44
160 529 188 81 36 44
170 514 157 163 13 43
170 516 160 205 11 46
162 516 160 172 29 52
166 537 237 195 139 116
165 518 163 199 12 45
332 828 378 64 51 41
161 521 165 203 3 54
165 527 174 236 17 57
205 527 183 235 14 50
170 519 163 228 16 49
429 754 369 97 74 51
388 582 262 175 11 55
175 518 163 213 14 49
176 520 166 222 15 43
387 609 192 62 34 36
170 525 172 231 16 49
175 525 172 234 15 47
175 527 174 230 15 47
288 697 216 55 35 40
170 529 178 202 18 48
166 531 184 75 27 42
270 763 258 92 71 64
164 530 187 67 31 43
375 848 363 52 45 39
383 592 185 126 27 41
345 558 319 187 11 60
166 531 188 94 26 39
367 630 191 41 35 41
175 529 178 228 18 55
405 890 378 62 50 42
172 531 180 187 47 53
175 531 180 185 14 44
380 895 355 64 54 53
170 533 188 107 29 40
400 757 272 101 81 67
252 597 274 56 30 34
378 673 201 81 54 37
170 533 193 130 30 44
174 535 192 88 33 40
180 515 161 164 12 41
330 568 174 92 29 36
185 520 167 211 10 54
410 768 183 137 100 63
459 923 377 91 81 74
185 524 172 231 16 48
417 718 371 78 63 50
225 545 206 80 32 32
185 529 178 233 13 50
274 720 321 118 67 58
310 722 330 77 28 34
409 758 373 87 71 55
190 529 178 194 14 47
180 532 183 75 33 37
180 534 188 53 41 45
231 713 303 173 117 90
366 693 289 71 21 27
185 535 188 49 38 45
261 598 223 166 4 42
180 537 193 102 40 47
411 678 203 146 97 65
185 537 193 113 33 47
190 532 183 158 13 42
190 534 188 52 33 41
263 640 290 128 15 40
132 515 203 98 82 66
135 526 194 181 101 106
136 526 198 145 70 72
132 522 203 173 120 105
132 521 207 179 125 114
136 528 208 195 133 116
433 562 165 170 114 87
140 527 198 200 127 120
411 523 228 82 20 36
443 730 310 74 50 40
133 518 210 150 108 93
399 638 172 148 109 75
135 523 213 168 115 100
427 761 286 67 47 40
138 518 220 153 113 94
140 518 223 159 110 93
137 527 212 170 118 102
210 568 244 102 60 49
255 938 327 65 60 60
262 566 190 171 11 43
138 523 219 168 120 100
137 526 216 161 104 84
232 718 308 170 115 90
139 528 218 168 117 97
140 529 202 195 124 112
140 533 208 200 134 117
141 533 218 176 121 99
142 532 222 170 118 97
144 534 224 191 134 114
142 536 213 192 124 107
311 515 141 33 30 42
145 539 213 215 143 125
150 526 194 162 97 88
287 617 215 138 26 45
385 523 159 83 27 32
247 811 315 190 134 104
155 528 198 174 112 99
160 529 197 139 84 75
419 796 255 69 57 50
149 530 201 192 120 104
146 536 205 201 133 116
265 638 298 153 16 48
264 954 288 69 64 64
151 541 209 218 144 125
160 532 200 194 128 108
398 746 352 47 35 33
155 534 202 191 119 98
155 542 208 215 147 122
160 538 203 198 129 102
160 541 205 205 132 107
330 949 251 88 80 83
305 578 178 117 25 40
148 540 213 218 145 129
150 541 213 219 147 128
160 544 213 221 149 121
257 646 281 108 67 58
144 523 228 162 116 98
345 773 329 28 25 25
143 524 225 153 107 87
147 528 232 164 117 98
269 928 258 65 60 61
150 523 238 166 117 100
410 558 212 46 24 26
419 691 335 73 57 40
149 528 234 173 122 103
357 682 295 110 8 36
316 865 339 30 28 28
155 518 239 121 94 76
267 622 239 78 33 37
398 729 257 112 12 37
160 518 238 84 60 48
396 583 238 96 23 40
155 529 239 199 143 126
161 522 240 136 107 89
400 748 333 54 39 38
160 524 241 151 114 99
414 715 299 61 46 34
151 532 232 202 141 122
313 728 191 165 5 47
414 798 193 179 120 91
151 536 227 199 137 117
154 535 230 200 140 116
157 536 231 195 136 114
335 708 319 114 15 38
160 537 232 195 139 114
163 530 197 123 57 59
165 532 199 153 98 86
165 535 201 207 140 120
165 538 203 211 138 114
170 534 198 117 63 62
423 715 314 66 50 38
170 543 208 219 140 119
368 531 326 43 22 23
175 542 208 231 154 134
376 901 372 68 58 52
185 539 198 149 31 53
186 541 204 127 27 48
165 516 234 46 22 29
165 519 237 58 27 28
227 518 186 53 32 41
165 523 240 126 102 84
169 516 235 113 7 34
207 546 251 33 30 29
170 518 237 113 9 36
164 525 241 148 118 100
170 528 240 149 122 102
390 753 180 136 99 60
268 922 262 72 64 65
165 533 239 195 143 122
165 539 233 191 134 111
164 545 223 205 140 111
165 543 228 198 135 109
414 760 270 48 43 41
369 828 348 39 35 34
169 544 229 194 131 105
170 538 237 192 138 116
172 541 236 184 128 107
179 518 240 116 11 40
180 528 238 100 79 63
185 524 238 46 29 29
185 528 236 72 47 41
190 528 236 79 19 30
181 518 242 130 7 42
397 520 155 107 9 23
392 658 180 132 103 72
429 532 193 124 27 46
181 515 241 123 8 38
285 873 323 118 87 72
329 914 360 41 37 37
182 521 241 74 24 30
185 522 242 90 22 35
432 518 195 38 32 32
376 588 279 120 21 45
187 518 246 152 0 49
190 518 247 149 0 47
191 522 246 168 3 55
180 533 239 132 107 87
185 537 240 122 99 78
182 543 241 147 113 88
185 543 243 131 105 78
165 545 213 221 149 119
236 602 283 101 22 37
166 546 223 207 142 110
267 694 240 44 37 37
170 546 214 221 148 115
234 653 295 152 110 83
170 548 223 209 142 109
175 549 218 223 150 116
280 952 259 74 69 70
176 552 223 214 141 109
180 544 212 227 152 130
185 550 216 209 141 117
335 588 177 54 35 38
380 683 268 109 21 39
381 849 248 79 60 50
181 557 223 202 129 100
185 559 222 197 130 99
189 547 215 151 98 78
190 549 217 149 95 79
190 557 220 201 137 111
190 559 221 198 133 108
185 563 224 199 132 102
174 549 228 197 132 106
310 833 244 139 111 83
176 552 228 199 134 103
416 731 396 58 43 28
179 548 238 164 115 89
407 753 238 128 71 58
180 553 238 172 119 92
395 892 373 56 45 37
178 554 228 191 128 99
182 548 242 161 118 93
195 558 223 159 106 88
184 558 243 172 122 96
187 553 246 156 118 94
190 558 248 147 113 87
344 633 296 88 27 39
365 763 319 47 36 31
182 562 228 191 125 96
182 562 237 168 116 88
397 740 340 82 75 69
186 573 233 202 135 107
270 583 198 195 12 46
186 568 243 167 117 91
187 568 246 166 119 92
189 563 249 158 117 91
187 573 243 169 118 92
420 763 193 150 105 74
189 573 248 165 118 90
450 766 363 98 77 56
355 813 398 91 73 55
187 576 238 191 130 102
189 578 238 195 132 106
192 582 235 199 132 105
191 583 238 201 134 107
189 578 243 175 122 94
310 956 255 94 89 94
300 798 342 147 102 78
189 578 248 166 118 90
265 893 262 168 121 97
308 871 330 45 40 37
191 583 248 171 122 92
192 583 252 165 120 91
196 593 258 164 117 89
325 898 219 82 68 62
192 587 248 177 124 95
390 738 278 81 53 48
200 516 165 189 7 37
363 856 226 77 59 57
440 834 350 82 73 67
195 523 173 208 13 46
200 522 173 214 13 42
433 571 170 171 117 91
205 517 169 213 13 46
201 520 171 217 13 53
273 653 305 41 27 30
297 870 250 139 114 89
201 524 176 221 13 51
276 521 145 173 6 44
200 527 178 169 8 36
205 524 178 235 16 49
200 529 183 180 16 41
207 525 181 236 17 43
432 775 386 113 95 76
195 535 192 168 22 48
205 532 193 102 25 40
303 784 241 87 68 62
370 778 353 44 38 33
208 521 175 220 15 49
221 519 181 153 7 35
346 733 315 35 24 23
220 523 183 174 4 37
298 711 325 52 19 26
225 528 188 176 3 38
210 530 187 227 13 54
210 533 193 117 25 42
215 530 186 233 13 50
215 551 234 191 4 43
220 532 188 91 24 40
228 518 189 52 34 39
225 523 267 142 3 45
231 518 192 50 35 38
408 536 233 103 10 34
228 523 189 43 30 39
228 526 190 149 1 41
375 773 358 47 39 33
229 528 193 158 5 38
255 518 173 135 1 37
240 708 278 167 115 86
256 523 168 156 5 38
252 518 188 65 27 32
258 560 226 68 31 37
299 854 306 86 68 51
252 518 185 101 9 29
253 523 183 94 16 34
405 740 389 62 49 38
430 588 183 158 111 80
255 528 178 85 17 34
252 522 185 103 33 50
345 728 185 145 2 36
253 528 188 85 22 33
252 526 190 33 38 43
259 694 316 131 102 70
253 529 191 44 32 30
256 533 178 129 11 38
253 533 192 94 19 39
340 872 228 56 50 53
254 538 188 63 27 37
256 543 183 69 28 36
390 583 258 176 6 55
256 548 188 100 20 36
332 812 220 47 42 50
201 535 197 128 22 38
195 540 202 111 24 37
205 540 207 207 5 46
204 541 209 159 18 44
195 544 213 95 36 44
365 843 347 37 33 32
200 544 213 65 32 36
410 818 372 69 58 49
206 545 217 76 33 37
375 593 182 137 22 41
210 535 197 208 27 55
213 535 196 199 4 53
216 536 194 68 26 38
210 540 208 160 18 43
215 539 203 204 10 50
295 553 163 143 18 42
220 537 194 48 33 40
225 539 198 65 35 40
402 753 259 114 15 40
216 541 209 106 21 38
225 543 203 82 33 41
210 541 210 65 28 40
210 544 218 61 35 36
193 525 240 111 10 34
339 522 155 156 5 41
360 835 379 68 55 47
345 638 189 82 35 39
403 748 256 115 22 42
195 528 238 116 3 37
401 728 233 76 25 37
200 528 243 137 1 40
205 528 248 148 6 45
287 700 215 39 35 43
206 526 252 165 7 51
405 753 313 54 41 36
195 538 239 54 25 26
195 541 240 44 31 26
195 544 242 70 52 41
225 618 283 141 107 77
200 538 243 43 28 27
200 543 243 37 25 24
205 538 248 42 27 29
204 544 245 50 25 28
271 874 312 131 97 77
371 874 273 54 48 49
429 528 203 117 13 38
389 523 292 145 18 46
207 543 251 41 27 30
210 528 253 160 4 49
209 543 254 109 19 42
415 771 296 52 40 34
213 537 255 119 7 37
295 933 344 68 63 61
360 888 238 76 66 62
260 803 298 163 117 86
196 546 215 96 39 42
408 754 233 140 98 65
195 548 218 131 64 60
200 547 223 89 33 39
197 549 223 117 61 52
371 878 248 65 56 53
193 556 220 163 109 87
414 796 341 100 80 57
202 545 216 95 34 39
205 547 223 126 31 47
365 733 192 69 31 39
235 668 299 135 97 69
306 668 209 140 2 34
210 547 223 153 13 41
211 545 221 79 25 21
357 663 290 78 19 31
214 545 221 144 15 49
392 788 304 50 38 40
222 546 213 110 18 38
375 843 378 54 45 39
342 742 320 47 24 24
222 546 209 157 39 61
221 547 218 105 28 36
400 809 284 61 46 43
217 546 220 167 10 49
220 548 223 128 19 42
223 549 218 90 24 36
226 552 218 109 28 43
269 663 253 101 15 35
315 733 332 94 28 39
200 549 227 76 35 40
395 613 228 77 25 34
198 554 225 131 75 66
201 554 232 94 63 52
203 556 235 97 70 66
364 868 218 94 75 63
195 549 246 110 88 67
200 548 244 43 30 28
378 748 348 52 41 36
195 557 250 133 106 79
326 798 220 81 65 61
196 559 251 133 105 79
202 551 245 62 36 32
203 551 245 67 33 35
205 557 250 81 30 30
205 559 251 76 37 32
196 564 226 162 110 85
199 563 228 150 101 80
198 567 229 158 106 83
200 573 233 161 106 82
201 563 232 129 76 63
205 563 238 115 56 48
364 788 354 61 53 47
205 568 238 128 74 60
202 570 237 143 93 73
204 573 239 139 86 70
206 560 241 120 69 52
350 583 168 49 35 38
207 568 241 119 63 49
276 752 340 140 104 73
205 566 255 88 65 46
207 573 241 132 79 61
210 549 228 178 12 41
406 730 371 61 50 39
215 553 238 174 1 35
222 551 225 119 22 20
421 773 219 177 119 90
358 817 397 107 83 64
220 553 238 168 8 36
224 554 233 53 30 35
410 764 378 88 75 63
395 729 285 79 69 65
211 553 253 110 7 35
214 558 244 103 14 33
213 554 255 120 2 35
220 554 243 173 2 38
220 558 247 72 30 38
224 554 242 177 4 43
406 748 228 126 84 59
414 723 348 94 80 71
210 563 243 100 49 42
267 636 255 93 24 36
230 547 209 72 31 36
214 563 244 57 32 38
212 569 246 88 68 61
216 563 246 52 31 35
265 588 312 113 27 45
