ply
format ascii 1.0
comment Created by Open3D
element vertex 2227
property double x
property double y
property double z
property uchar red
property uchar green
property uchar blue
end_header
401 678 345 155 103 70
403 568 221 180 18 46
421 738 236 52 42 41
405 562 218 147 30 50
337 742 329 90 23 37
405 567 222 181 19 46
401 573 221 180 18 45
315 763 282 79 61 55
417 548 226 115 22 38
415 553 227 89 27 39
412 558 226 103 29 43
415 556 228 59 29 33
414 559 230 98 24 37
416 558 236 186 19 49
405 571 228 184 20 48
406 573 231 185 20 48
408 574 235 186 19 48
409 560 224 127 37 45
430 807 263 59 48 44
412 563 231 125 20 43
435 689 267 70 55 40
409 565 229 174 20 60
356 548 356 36 27 30
372 516 395 203 141 114
414 564 235 188 17 50
322 892 331 48 42 39
416 563 241 186 14 50
414 569 241 187 17 50
409 570 234 186 19 47
362 663 317 61 26 31
297 958 256 72 68 71
412 573 241 186 17 49
415 568 246 186 16 50
414 570 245 189 17 50
413 573 246 151 22 48
415 572 248 171 17 49
416 568 251 187 16 51
424 540 292 41 30 30
416 573 256 108 31 44
419 518 220 153 15 41
418 528 221 78 26 35
422 523 226 152 14 37
421 528 226 144 17 38
423 528 230 131 15 40
291 528 257 105 19 38
294 782 235 78 63 57
424 518 229 150 14 41
410 684 322 126 97 63
426 518 232 147 14 37
428 518 236 143 14 38
429 520 239 140 17 47
425 528 232 136 12 33
428 523 236 158 17 40
427 528 236 160 16 42
285 683 262 142 1 43
429 524 240 163 16 41
430 523 242 139 19 42
428 528 241 167 15 44
334 528 304 67 24 32
432 523 246 62 26 36
305 556 288 103 10 35
430 527 242 167 16 44
431 528 246 170 17 47
305 911 240 87 72 60
419 529 224 94 16 30
423 533 231 61 31 36
468 842 303 106 82 59
418 543 226 86 27 36
382 688 350 170 121 94
420 541 228 139 32 51
421 543 231 98 25 38
423 544 241 149 19 42
357 812 183 76 61 51
426 533 236 132 17 41
424 534 234 39 22 32
424 540 239 106 10 37
430 531 248 182 16 45
430 532 251 185 16 50
430 532 256 155 18 48
429 534 251 187 16 51
369 598 356 168 121 96
482 843 316 95 79 66
429 534 256 184 18 51
280 809 186 178 129 101
426 538 246 178 15 48
425 542 242 125 12 37
428 538 256 149 20 44
435 774 310 104 69 48
426 543 256 93 32 40
433 518 246 46 33 37
434 518 251 63 28 36
435 516 252 111 33 41
362 868 356 41 34 33
433 523 251 39 29 34
419 545 229 157 28 44
411 733 216 58 47 42
420 547 232 159 20 47
342 673 315 149 11 45
422 548 241 172 17 48
419 554 240 182 18 46
418 558 241 181 18 47
437 718 261 70 52 42
378 914 332 59 55 53
423 548 246 94 25 36
424 549 251 81 32 36
433 763 311 109 77 54
398 588 230 182 17 47
419 559 245 174 16 47
393 663 311 63 49 38
419 786 239 59 46 47
420 556 243 182 16 45
330 926 344 60 55 55
420 557 247 167 18 46
480 846 322 89 77 66
423 553 256 73 29 37
422 558 256 88 28 39
425 547 251 86 33 41
418 763 347 164 113 82
419 564 255 186 16 51
420 562 252 183 16 48
353 964 266 87 80 81
332 713 332 104 23 39
386 578 207 131 20 43
418 708 331 144 102 68
387 583 211 77 32 37
381 856 355 44 38 35
391 577 212 104 32 43
388 588 215 106 29 41
385 591 213 176 22 52
389 585 214 53 34 37
426 753 242 64 47 41
390 587 217 100 35 44
398 578 221 177 17 45
395 581 218 157 14 44
364 817 304 65 53 49
394 584 220 174 18 50
312 966 310 66 62 62
385 597 217 164 19 47
464 850 333 59 45 36
472 849 332 67 54 47
390 596 223 170 18 47
386 602 222 104 28 41
347 533 350 87 19 32
396 588 226 165 19 46
334 880 366 39 37 36
393 593 226 65 32 38
397 593 231 85 29 40
398 593 235 63 28 36
389 599 224 147 16 47
388 603 225 102 22 38
387 608 226 163 18 45
380 936 291 65 57 54
390 602 228 165 16 48
392 603 231 157 20 46
389 563 361 166 120 88
392 834 306 37 32 31
390 607 232 134 18 41
394 595 230 44 31 36
393 598 230 100 25 39
395 597 232 37 33 40
285 896 313 131 108 84
401 577 320 159 7 51
397 598 236 40 34 38
395 602 237 45 35 36
337 803 172 166 113 79
395 606 238 48 33 37
398 642 320 100 78 53
399 604 245 52 31 37
364 701 323 101 0 29
399 609 250 63 31 37
401 578 226 183 18 47
403 578 231 185 19 47
400 582 227 182 17 46
405 577 233 190 20 45
355 726 334 184 17 56
391 877 360 66 58 55
407 578 236 185 19 49
427 738 301 68 40 37
405 582 237 182 19 46
400 587 232 181 18 49
402 588 236 179 19 47
389 914 275 61 54 52
400 592 237 129 20 42
402 593 241 156 22 46
399 890 250 84 69 64
407 588 246 41 31 37
409 589 250 48 34 39
407 593 251 52 29 36
418 703 321 119 92 63
340 886 368 62 53 45
412 578 246 55 32 37
286 613 271 147 18 51
410 582 247 58 33 35
411 583 251 105 39 49
413 578 251 44 33 37
415 576 253 73 36 40
414 579 256 72 36 42
409 585 249 97 35 45
414 788 348 167 114 86
411 588 256 51 35 38
303 798 241 74 60 55
400 597 242 62 25 37
287 898 266 162 119 97
402 598 246 151 26 48
402 603 251 109 31 42
386 678 227 95 24 33
400 606 248 71 28 36
402 768 211 59 47 42
401 608 251 46 32 36
384 609 224 100 22 33
388 613 231 104 26 41
390 612 233 158 31 50
391 613 236 102 32 44
389 614 234 116 32 45
386 618 231 98 32 43
337 538 336 73 23 36
387 884 295 34 32 34
385 623 232 84 34 40
390 617 237 84 38 41
393 623 246 92 34 42
395 612 243 116 42 51
377 818 196 74 57 49
328 856 303 96 78 61
396 613 246 69 34 39
398 613 251 49 35 38
395 617 247 100 39 50
292 863 286 100 58 57
394 624 250 35 34 36
395 623 252 92 27 37
398 618 256 110 30 44
433 748 249 59 46 38
385 626 233 42 33 37
384 629 234 73 29 31
439 798 269 64 50 43
386 633 237 104 31 41
446 758 299 55 44 31
360 866 359 38 33 33
388 628 240 56 34 37
386 638 237 86 29 37
388 638 241 109 29 40
390 628 243 58 34 35
391 628 246 63 35 40
409 768 220 63 51 45
366 628 323 158 8 48
391 633 246 97 29 38
389 634 244 72 26 35
390 639 243 103 27 40
389 636 244 58 29 31
391 638 246 44 32 36
395 627 253 47 27 34
302 693 291 73 26 33
395 633 256 140 21 41
393 638 251 45 32 35
418 828 321 87 53 41
395 638 256 72 30 38
401 613 256 53 33 35
384 643 234 102 24 37
388 643 240 71 28 35
384 647 234 88 32 39
386 648 236 80 32 40
385 650 233 51 32 37
385 654 233 94 29 35
391 643 246 45 33 37
377 869 336 37 33 32
390 653 242 121 21 38
392 653 246 130 17 38
322 951 243 93 86 89
395 643 256 81 29 36
394 648 250 87 28 41
305 608 298 77 23 34
395 645 253 36 35 36
394 653 250 139 18 39
395 653 252 141 18 42
307 868 252 121 95 65
408 883 261 67 55 52
384 662 229 80 34 37
386 663 231 65 35 38
392 568 351 149 111 79
429 530 268 35 28 39
388 663 235 53 37 36
389 658 239 78 31 38
420 556 309 189 8 59
392 882 305 35 32 33
391 663 241 42 32 35
385 668 228 47 34 37
387 668 231 46 34 37
385 673 228 59 33 35
391 583 336 112 76 57
387 673 231 56 34 35
391 673 236 46 34 36
393 673 241 40 33 36
393 663 246 57 30 33
394 658 249 120 15 36
396 663 251 122 19 38
398 663 256 107 20 35
431 768 330 164 109 79
396 673 246 45 33 35
397 668 251 71 29 34
397 673 251 42 32 34
399 672 255 40 31 33
387 688 222 91 31 33
391 688 221 84 34 33
391 685 220 97 30 32
387 693 221 68 39 36
386 698 217 84 36 37
310 794 159 168 115 80
324 930 224 83 75 75
386 703 211 61 45 38
385 704 208 58 48 40
385 700 213 74 43 34
386 703 216 76 38 35
392 698 221 81 38 36
392 703 221 84 41 35
407 863 352 58 48 39
396 702 211 76 51 42
393 704 212 78 51 44
397 699 216 81 45 38
398 702 217 73 43 40
398 699 211 82 52 41
355 772 178 63 55 51
373 944 291 59 51 48
393 700 218 85 39 35
397 704 219 71 42 36
314 855 258 101 79 54
407 578 311 179 5 57
402 704 202 82 61 45
401 703 216 73 49 40
390 679 232 99 27 31
320 835 227 110 79 69
389 681 229 103 21 30
391 684 228 99 24 28
392 689 226 87 33 33
394 678 240 50 34 34
393 688 231 89 31 31
394 682 236 87 26 32
396 684 236 91 31 31
396 689 232 87 34 32
359 865 370 58 49 41
397 688 236 87 37 34
398 688 241 78 37 32
395 674 242 47 32 34
399 676 254 64 42 36
398 683 246 48 34 35
399 687 245 69 40 37
397 633 291 95 29 40
331 687 318 126 6 37
313 798 256 55 46 45
399 682 250 37 34 36
361 947 310 53 49 48
389 692 224 64 38 35
396 693 226 71 33 34
397 693 231 89 36 35
399 691 235 87 40 37
394 703 224 74 39 35
397 698 226 71 33 34
422 888 311 75 64 62
397 703 227 68 41 37
398 697 229 87 40 36
400 674 257 47 36 33
402 692 236 85 47 40
400 690 238 90 43 29
402 690 241 86 51 39
403 691 240 94 54 46
391 648 300 111 18 41
407 692 241 80 52 37
406 695 233 78 55 39
346 818 286 139 100 80
402 698 230 74 50 41
407 698 232 70 51 39
407 703 231 64 49 39
372 788 187 71 55 43
417 692 241 97 69 56
412 703 232 64 50 40
409 696 236 78 57 42
409 696 239 74 52 40
357 893 216 76 67 66
287 878 310 151 112 96
412 697 240 98 74 55
288 895 314 105 87 70
417 703 236 68 53 41
354 801 304 65 53 49
408 691 245 79 53 40
406 690 255 57 40 30
412 690 247 93 72 60
412 690 251 100 65 50
412 692 257 71 55 46
417 689 256 79 57 43
422 688 251 95 69 40
427 688 251 95 63 41
426 685 257 87 64 43
301 902 328 104 89 79
431 688 256 80 61 44
296 911 328 119 91 73
419 703 239 78 55 42
420 698 238 87 63 49
421 703 241 80 54 41
419 691 244 84 53 34
422 690 247 94 69 44
293 913 251 68 61 61
423 704 245 70 51 38
427 698 247 74 54 40
446 827 286 81 64 55
427 703 246 64 47 35
322 903 365 73 67 65
431 698 251 84 54 40
432 703 251 78 51 40
297 583 291 140 0 42
433 693 256 83 61 45
338 632 315 174 7 55
371 678 321 65 36 33
434 702 255 67 43 32
337 793 170 156 106 73
437 703 256 74 50 40
387 748 190 66 53 47
387 753 186 61 47 43
386 750 187 63 50 43
389 753 190 58 46 42
391 753 191 62 49 43
386 756 187 58 45 42
333 920 348 64 61 61
387 758 190 58 45 41
387 763 191 64 50 42
287 943 251 75 69 70
392 764 192 77 59 48
392 768 190 82 63 49
396 764 192 79 61 48
396 768 192 71 55 46
417 842 362 68 54 45
386 708 206 61 46 39
387 718 207 61 45 39
402 897 276 69 59 55
392 714 207 69 50 41
395 713 205 74 54 44
392 698 350 172 118 87
356 639 318 158 6 50
419 862 309 40 37 35
398 708 202 81 56 43
398 713 202 76 55 44
397 718 202 72 53 43
389 711 209 62 47 37
399 658 266 83 21 34
388 707 220 81 50 36
387 723 207 60 46 41
347 877 366 41 37 35
387 729 201 55 43 41
392 727 206 60 48 42
355 871 188 110 93 88
392 734 197 65 51 45
392 732 200 63 48 42
392 729 202 59 46 41
348 923 226 75 67 68
397 733 200 63 48 43
396 735 198 65 49 44
360 869 289 44 37 30
447 867 311 84 70 63
386 724 210 59 44 42
370 668 321 66 44 37
322 980 286 48 45 45
388 726 209 60 45 44
425 730 334 157 111 77
390 727 209 61 48 42
488 824 310 98 75 56
303 808 231 72 59 55
402 708 201 79 59 44
405 704 203 78 60 45
426 851 324 63 53 45
405 713 203 74 52 41
397 841 289 40 36 35
406 713 206 71 51 41
324 835 260 155 120 94
405 717 203 70 49 39
425 538 291 49 29 35
404 707 212 73 56 46
429 778 331 166 110 81
406 709 211 76 57 48
293 827 201 186 135 109
400 705 219 68 45 34
402 707 221 72 45 36
426 847 271 60 50 49
407 709 221 68 48 40
412 713 221 55 45 40
409 718 211 74 55 43
410 715 218 59 47 40
286 588 276 145 1 44
297 963 281 88 83 83
415 714 223 61 49 39
351 568 332 103 16 36
302 972 271 98 93 94
402 728 206 72 52 45
406 721 207 71 51 40
339 533 309 51 23 29
405 730 208 76 56 46
407 723 211 73 54 43
288 951 262 73 70 70
404 727 209 75 54 44
406 728 211 77 56 44
408 733 211 74 54 42
411 728 217 52 42 39
412 723 221 46 40 37
410 851 378 63 48 43
409 731 214 68 53 42
410 734 212 61 48 41
416 734 222 50 41 38
306 733 296 144 18 48
397 706 225 72 42 38
402 706 225 71 47 37
411 709 226 58 47 41
398 838 230 63 52 50
408 705 228 64 47 36
416 714 227 59 47 39
416 708 236 65 51 40
413 723 226 44 39 37
412 722 241 47 39 38
417 719 236 48 37 36
414 720 237 45 37 35
363 864 195 82 69 64
414 720 240 46 36 35
417 720 240 53 36 35
409 725 244 56 41 40
417 722 242 53 39 38
418 724 244 52 41 37
387 742 195 61 49 43
392 738 196 63 49 44
390 744 193 65 53 45
396 743 197 71 53 46
414 805 239 60 51 46
398 743 200 79 58 48
355 917 227 70 62 64
396 748 198 75 54 44
393 753 195 71 55 43
398 753 200 83 61 47
396 759 197 80 60 49
398 758 200 76 57 45
398 763 201 63 49 44
434 753 312 117 82 60
421 738 231 51 43 39
358 879 342 34 30 31
398 768 196 60 49 45
338 778 306 72 57 52
397 768 206 63 50 46
399 765 206 62 50 43
398 768 209 60 48 44
289 603 280 39 30 33
404 738 204 76 58 46
401 743 202 79 58 50
299 699 289 54 26 30
404 743 204 70 53 48
406 738 207 70 54 45
406 743 207 63 51 44
403 748 205 67 53 47
408 744 210 64 49 42
332 777 300 72 57 52
407 748 211 67 51 43
407 753 211 68 52 44
377 769 187 56 47 44
411 738 212 62 48 42
410 743 212 69 51 42
416 738 221 54 45 39
415 740 218 60 49 39
347 963 256 79 73 74
415 742 218 61 49 44
416 743 221 57 47 42
410 746 213 73 54 43
412 748 216 61 47 41
409 753 214 61 47 44
411 753 216 61 47 42
414 748 220 62 49 43
416 748 222 59 48 41
414 753 220 67 52 46
401 758 206 63 51 44
436 762 252 69 50 45
435 725 283 37 31 26
401 763 206 62 49 44
403 759 210 68 54 46
405 756 208 63 48 43
408 758 215 61 46 43
437 768 256 74 55 46
405 761 213 60 49 44
407 763 216 60 48 43
390 632 305 115 18 42
404 763 214 62 50 47
287 957 291 73 69 71
404 768 214 64 50 44
408 894 296 67 57 54
407 768 216 64 51 45
413 758 221 68 54 48
415 757 223 76 60 53
410 768 222 69 54 46
417 758 226 69 54 47
412 768 226 75 59 49
419 569 266 123 21 41
413 764 225 85 63 51
414 760 224 81 61 51
416 766 228 73 57 50
419 708 239 72 48 39
420 714 238 58 42 35
420 717 238 52 37 33
367 528 382 179 121 96
421 708 242 71 49 40
426 710 243 62 49 40
428 713 245 63 46 37
432 708 246 77 56 41
426 718 246 62 46 38
428 719 250 64 49 44
416 728 231 44 38 37
418 732 231 44 38 37
420 734 232 48 41 36
404 598 308 118 25 48
419 731 235 47 39 36
419 732 241 51 37 37
421 733 236 50 42 39
308 913 232 92 66 56
421 721 243 57 38 37
297 952 321 53 51 52
422 728 246 58 43 36
422 733 245 59 43 39
426 723 247 61 47 42
425 728 248 64 51 45
428 723 251 62 46 40
362 953 261 86 77 77
433 778 316 123 84 54
430 723 253 66 49 42
433 723 256 70 52 44
430 728 253 63 50 41
425 733 248 60 48 42
428 733 250 61 49 42
437 708 256 86 54 45
434 718 255 74 54 43
419 738 225 51 43 39
420 743 227 56 45 40
422 738 241 51 42 40
396 598 336 136 101 70
423 743 236 55 44 42
424 742 241 52 43 42
287 803 166 168 115 78
418 748 226 61 49 43
420 747 228 60 48 41
421 748 231 67 53 44
422 753 236 79 61 53
436 744 252 58 45 37
383 543 372 168 119 90
425 744 242 55 44 40
426 748 241 59 44 42
337 897 369 72 64 60
424 750 239 68 48 43
339 670 314 153 10 46
424 754 239 74 52 43
291 824 175 210 147 116
318 841 292 96 76 53
423 738 245 56 43 41
426 738 247 57 46 40
424 741 244 52 44 37
428 738 250 59 48 41
431 738 252 58 45 41
433 737 254 58 42 40
431 749 248 60 47 42
419 758 230 73 58 50
420 758 232 67 53 49
288 663 265 135 4 43
424 758 240 72 47 46
419 764 229 74 56 49
420 763 231 71 56 50
420 767 232 72 55 48
422 763 236 67 51 46
432 848 352 55 44 35
421 768 236 63 50 47
300 582 293 140 1 44
424 768 240 57 48 44
352 848 288 114 88 68
425 764 242 60 45 43
432 763 246 79 59 48
442 743 261 65 46 37
433 690 275 74 60 45
452 853 306 92 68 56
433 768 251 79 59 50
426 528 291 60 28 34
436 748 252 63 49 39
439 748 255 59 46 38
439 753 255 58 45 39
438 758 256 64 51 41
438 763 256 69 52 45
434 769 254 73 53 44
289 539 260 58 19 30
283 553 260 131 2 39
322 924 347 66 61 59
287 548 261 128 2 39
410 708 286 64 24 32
286 552 262 130 1 39
283 558 261 130 3 40
285 557 263 131 2 40
309 931 223 94 81 78
286 558 266 130 2 38
279 574 259 125 7 33
280 568 257 65 31 38
457 803 286 86 66 52
284 560 264 132 3 40
284 563 264 135 6 42
355 534 363 158 12 53
289 559 270 129 3 39
422 703 271 54 42 34
285 568 267 133 2 39
287 568 271 132 1 40
286 573 271 134 2 41
294 518 259 135 1 40
296 518 262 134 0 40
293 523 260 133 4 41
296 523 262 132 1 40
293 528 261 119 14 38
295 527 263 122 6 37
301 518 267 132 1 39
297 728 281 130 23 48
303 518 270 131 0 39
298 523 265 130 1 39
297 528 266 125 4 37
300 523 267 129 2 37
300 526 268 127 1 38
302 528 271 113 8 35
290 532 258 70 23 28
289 534 259 35 30 29
362 653 316 66 22 32
296 533 266 125 5 36
293 538 266 128 4 38
292 543 266 129 1 39
295 537 267 127 5 37
299 529 269 127 4 38
300 532 272 124 8 37
304 529 274 114 18 37
299 539 274 46 21 27
318 588 316 126 0 37
298 543 275 83 17 34
301 538 276 41 26 28
437 873 311 80 68 61
373 938 261 76 67 66
309 733 305 53 28 33
304 539 280 37 26 31
305 517 272 131 1 39
308 518 275 128 6 39
342 823 281 140 105 83
310 517 278 128 3 38
417 748 346 166 112 79
305 522 273 116 13 38
307 523 276 70 19 33
306 528 277 87 24 36
322 975 297 68 64 64
310 522 278 95 20 41
309 524 279 29 27 33
308 528 280 44 27 29
311 528 282 35 29 28
315 517 283 128 1 39
317 518 286 127 2 37
315 521 283 95 9 37
342 949 244 91 83 85
317 523 286 81 17 34
417 563 306 183 0 57
313 529 285 42 28 28
370 619 343 167 114 96
388 523 351 103 6 34
307 533 281 57 26 31
304 535 279 42 27 32
362 618 327 174 0 53
292 827 177 218 152 122
310 532 283 92 26 37
312 533 286 84 23 33
306 538 282 55 27 30
296 623 281 119 16 43
305 542 283 98 16 36
307 543 286 108 12 36
347 713 332 54 28 31
315 532 288 80 28 37
319 524 289 115 18 40
338 783 301 72 57 51
318 528 290 67 23 31
302 748 276 73 59 53
322 618 315 90 20 36
316 542 293 54 24 27
319 539 294 78 18 31
290 552 267 128 2 39
293 548 270 128 3 38
295 552 273 128 1 39
298 548 276 127 2 36
296 553 276 127 1 39
295 557 278 127 3 39
297 558 281 127 0 39
418 874 271 74 62 59
300 547 278 128 3 37
327 913 357 66 59 56
300 553 282 126 1 38
342 913 215 81 70 70
303 553 285 123 2 38
289 564 274 133 1 40
289 569 274 131 1 39
321 748 311 154 18 53
294 564 279 130 2 40
339 761 319 82 65 61
322 798 162 171 117 82
294 568 279 128 1 38
293 573 281 131 0 40
352 893 370 64 57 54
294 575 284 131 1 39
299 563 285 128 2 39
457 839 346 61 51 42
301 563 287 127 1 38
304 545 284 126 0 39
306 548 287 114 10 35
302 568 291 125 3 38
299 574 289 127 0 38
303 573 294 128 1 40
309 549 290 43 24 27
311 548 292 34 28 29
307 793 251 73 59 53
310 552 293 70 27 35
441 712 258 76 55 37
382 859 346 50 39 38
309 559 294 67 22 30
312 558 296 48 26 30
313 549 294 32 29 30
314 545 294 27 27 27
316 835 217 74 60 57
317 548 296 32 29 29
403 618 271 139 28 49
442 768 261 66 52 45
324 900 208 90 79 79
316 553 297 65 26 32
318 553 299 94 21 35
436 839 309 50 43 39
363 904 351 59 55 55
319 550 299 33 27 26
344 794 174 146 102 70
317 558 300 72 23 31
306 563 292 122 9 37
380 936 294 64 57 55
307 568 296 58 22 28
312 832 177 217 146 120
312 568 300 104 11 35
304 570 294 110 8 35
309 570 299 118 9 43
312 573 301 124 1 36
313 563 300 48 26 27
316 567 302 120 7 37
318 568 305 118 4 35
317 573 306 122 2 37
394 634 297 109 25 43
314 574 304 127 0 39
279 584 264 139 3 41
291 950 259 71 67 69
432 847 287 67 54 50
278 588 261 147 2 44
278 593 261 159 4 47
282 578 266 137 2 40
280 588 267 140 8 43
282 588 271 137 3 42
425 547 261 91 27 39
280 593 267 78 23 34
285 583 273 139 2 40
457 803 300 56 45 35
287 583 276 139 0 42
460 748 273 92 71 59
389 583 363 161 112 82
284 593 275 150 5 47
288 588 280 147 0 44
288 593 280 155 0 47
419 860 289 54 46 48
278 598 261 164 2 49
279 603 261 141 9 45
280 598 267 68 26 35
280 608 261 55 28 33
282 608 266 111 25 43
286 598 277 132 15 44
287 603 276 43 27 32
280 614 257 131 14 45
284 612 269 156 22 50
407 798 221 58 48 42
283 618 261 88 24 37
285 624 263 139 18 48
288 618 271 69 31 34
288 623 270 85 24 37
288 613 275 132 22 48
285 628 262 122 18 43
284 632 259 102 33 43
286 633 261 78 27 36
287 628 266 120 23 44
288 633 266 56 28 32
285 635 258 80 19 30
288 638 266 119 19 42
291 578 281 133 0 39
358 788 320 67 54 48
291 583 282 138 0 41
293 578 285 133 0 40
296 578 287 133 0 41
295 582 288 140 0 43
293 588 286 150 0 45
456 733 291 52 42 31
346 518 336 53 30 32
290 593 283 156 4 48
293 593 286 155 4 49
412 849 371 86 69 62
291 598 282 82 27 38
295 598 288 97 29 41
306 723 301 87 24 36
291 603 282 41 30 32
293 602 284 39 30 31
294 607 284 30 30 30
297 588 291 151 3 47
297 593 291 101 18 39
302 583 296 135 5 41
404 884 250 79 63 58
430 531 265 40 27 32
299 592 294 100 12 36
302 588 296 116 15 43
300 595 293 47 26 32
300 599 292 44 29 31
302 598 296 44 30 32
298 603 290 67 28 35
303 603 295 109 21 42
311 578 302 130 0 40
304 584 299 109 9 33
358 955 302 57 54 53
304 588 299 35 30 29
304 592 299 50 28 32
313 578 305 129 0 39
440 788 271 59 47 41
309 585 304 120 13 33
309 592 304 64 24 32
320 517 288 124 4 37
337 911 359 61 56 56
317 578 307 127 1 39
316 582 308 125 2 35
318 579 309 122 4 38
318 583 310 126 3 38
314 589 309 146 0 47
314 593 310 139 0 41
319 590 319 130 0 39
319 593 319 151 0 46
305 598 298 59 32 34
424 845 353 57 45 34
310 598 303 70 30 36
312 598 306 100 12 35
397 633 261 125 28 44
384 764 344 166 121 96
309 604 304 45 27 33
309 608 305 95 22 36
312 783 155 168 114 80
310 608 307 96 27 38
327 889 346 35 33 35
313 603 311 130 5 41
309 766 274 77 61 56
322 886 356 44 40 41
314 598 310 135 2 41
324 714 329 141 12 44
315 597 312 135 0 41
317 598 316 153 0 47
314 606 314 158 12 52
397 779 191 64 52 45
291 613 277 105 23 41
392 819 338 140 94 72
293 613 280 99 26 41
295 614 283 63 29 36
289 617 274 56 23 30
439 706 262 61 48 38
290 624 273 114 16 40
292 623 276 117 24 44
294 618 280 94 21 38
294 623 279 150 16 50
296 618 282 128 17 46
299 623 285 82 28 37
291 628 272 144 25 52
289 632 269 92 27 35
291 633 271 74 27 34
290 638 268 139 17 47
293 628 276 98 24 40
294 626 279 111 36 46
297 628 281 59 28 32
295 629 278 48 30 32
294 638 274 79 26 37
350 834 190 60 48 47
295 638 277 54 28 32
298 633 281 69 28 36
301 628 287 108 22 40
302 633 286 91 28 39
300 638 283 71 27 38
385 862 223 65 55 55
302 618 291 63 28 34
303 623 291 75 29 36
304 621 294 31 29 31
312 623 301 131 21 46
313 613 310 89 27 37
445 717 267 70 59 49
309 616 304 44 28 33
312 618 306 84 27 37
318 613 315 168 18 54
315 619 307 83 24 35
317 623 306 125 20 48
319 616 314 137 19 41
306 628 292 101 21 39
304 633 289 88 27 38
307 633 291 72 26 33
384 543 333 121 22 43
312 633 296 121 20 45
313 627 300 165 25 58
307 638 291 75 30 37
309 638 294 47 26 29
337 923 220 92 82 81
312 638 296 47 30 32
315 625 303 183 17 62
316 628 302 159 15 54
314 631 299 133 28 52
317 633 301 97 27 39
317 638 300 67 27 34
323 518 290 61 23 31
321 528 292 67 26 32
323 528 295 45 27 29
327 523 296 73 24 34
326 528 297 68 22 31
330 517 298 84 19 33
405 602 305 63 30 37
322 553 301 60 25 31
332 518 301 52 27 30
335 518 303 82 28 40
383 919 306 52 45 43
399 671 259 31 30 28
332 962 252 96 91 96
332 523 301 44 25 29
502 834 321 95 77 64
329 528 299 108 20 38
337 518 306 76 23 34
334 524 304 94 19 31
336 528 307 42 27 31
369 796 324 92 65 53
321 543 297 74 25 33
324 539 299 105 20 36
323 543 300 59 25 29
327 538 301 69 23 31
326 543 302 39 26 27
322 658 305 60 24 31
331 533 302 88 25 35
330 537 303 75 23 34
337 543 311 58 23 31
370 856 198 71 59 56
340 518 308 91 25 37
474 795 258 79 63 52
342 518 311 54 25 32
344 518 315 77 22 34
339 529 310 37 29 28
300 891 318 117 102 91
344 523 315 115 13 38
343 528 315 123 9 38
346 518 317 86 27 40
343 533 316 98 19 37
343 534 321 46 30 32
340 538 312 95 21 38
340 542 316 49 30 34
418 718 336 152 106 72
340 541 320 38 29 28
345 532 321 50 27 32
320 547 298 42 25 28
326 548 302 58 25 30
404 855 333 50 44 40
323 558 304 79 19 31
327 558 306 63 24 31
331 553 307 110 14 37
336 553 311 88 18 33
330 557 308 80 20 32
332 558 310 57 25 31
327 938 231 94 85 86
335 557 312 66 22 32
336 558 316 70 23 35
322 563 305 95 16 34
326 563 308 57 23 30
324 569 309 40 26 31
323 573 310 79 20 32
424 819 259 65 51 45
306 834 207 101 67 65
323 841 197 74 62 59
326 572 312 63 26 35
331 563 312 50 26 30
399 610 308 77 11 37
322 915 206 93 79 79
330 566 313 94 29 44
331 568 316 42 27 30
335 562 317 57 23 33
333 568 321 95 9 32
390 856 223 69 56 51
334 565 320 109 5 34
335 874 314 65 55 46
352 878 300 46 40 35
329 570 314 40 29 31
329 574 321 93 11 29
426 523 296 147 14 45
338 558 321 119 11 39
300 883 254 148 111 78
343 528 331 40 29 30
341 527 335 52 29 32
344 525 332 37 32 32
349 519 326 75 18 33
348 514 336 35 28 34
349 515 333 41 23 25
442 728 296 58 46 38
346 528 326 40 29 32
442 778 271 54 45 41
345 522 334 53 30 31
487 828 338 80 63 48
342 958 250 84 78 81
339 520 343 57 35 38
344 515 342 33 31 31
346 808 178 57 53 55
339 514 351 77 19 32
338 519 346 69 30 35
341 517 345 47 28 28
440 838 292 78 64 58
337 528 341 51 31 33
337 523 346 72 29 33
337 523 351 116 21 40
324 848 243 165 124 95
331 868 239 129 99 75
347 708 330 38 29 29
337 528 346 57 29 31
338 528 351 91 22 37
345 516 340 39 22 26
342 533 326 50 28 29
339 534 332 83 25 32
341 533 331 85 21 34
270 944 306 67 65 68
376 846 284 93 67 56
340 531 334 82 30 35
339 539 327 44 25 31
286 908 322 151 118 97
339 540 323 39 28 31
285 678 261 146 1 44
332 929 225 92 83 82
337 543 326 70 25 33
435 690 277 74 59 43
341 537 325 55 29 31
364 894 225 69 61 62
338 538 331 65 26 32
374 845 204 73 59 52
337 543 331 136 9 44
340 536 329 84 29 36
345 531 324 37 31 33
389 822 331 139 95 73
338 533 346 71 26 34
277 943 266 70 66 66
342 528 352 82 21 34
342 533 350 115 21 44
337 538 341 79 23 35
339 542 341 175 6 54
338 538 345 88 27 37
342 536 349 90 16 34
310 650 293 57 26 32
342 543 345 132 19 47
347 528 352 92 14 33
289 938 242 77 70 68
351 533 352 100 9 32
347 539 347 58 24 29
347 537 349 70 24 31
353 867 293 61 51 41
352 538 351 82 18 33
383 859 219 61 52 52
352 543 346 87 20 33
412 877 350 76 59 47
342 518 355 45 25 29
304 895 351 40 37 38
343 525 353 101 20 40
342 526 354 118 30 49
347 514 357 66 24 30
347 517 354 88 10 33
347 520 353 100 9 34
350 515 358 96 20 36
351 518 356 118 9 39
352 518 361 79 16 33
345 522 354 79 15 32
350 520 353 109 12 38
350 523 353 98 14 34
294 693 280 63 29 34
350 528 353 102 9 33
336 563 326 110 1 32
337 568 331 142 7 45
331 573 326 115 3 37
329 575 325 106 4 31
287 924 342 59 53 52
402 738 348 172 120 91
337 573 330 138 5 43
337 548 326 45 26 31
349 807 299 39 33 39
339 546 335 176 3 57
339 551 329 41 25 27
341 548 336 163 4 51
341 553 331 124 12 40
342 553 336 140 3 41
339 558 326 134 6 39
342 548 341 141 11 44
343 552 340 145 2 44
347 552 340 115 2 38
380 674 348 166 120 94
462 808 286 71 56 50
351 548 343 57 23 27
352 553 341 82 18 33
346 547 344 68 21 29
347 555 338 114 2 37
371 888 227 66 58 59
351 555 338 113 5 35
338 563 331 120 2 36
342 563 334 132 8 42
396 843 227 62 52 48
322 863 246 144 112 80
342 568 331 96 6 30
342 573 327 101 8 33
340 571 329 103 2 31
376 922 326 62 55 53
352 563 336 76 24 34
345 574 328 65 23 32
305 713 302 84 24 37
298 752 269 77 61 54
402 793 350 174 126 101
350 573 332 90 22 38
428 808 260 63 50 43
352 573 336 46 28 30
383 528 341 65 18 30
383 528 345 84 13 32
383 533 337 45 25 31
382 538 336 129 13 45
485 838 302 107 83 62
286 794 164 162 110 72
381 533 341 105 9 37
302 803 160 173 118 82
397 852 376 70 56 50
383 533 345 92 2 33
355 519 368 47 23 31
337 977 291 67 64 64
353 523 361 96 11 34
353 528 361 130 12 43
359 526 374 169 126 102
360 519 382 187 133 110
360 520 378 181 130 105
360 524 377 174 124 102
366 525 383 184 127 100
354 533 361 146 11 45
358 533 365 128 32 48
460 846 344 80 61 47
357 538 362 88 23 34
389 639 303 146 26 51
355 544 357 52 28 30
323 898 216 59 53 52
359 536 364 105 26 43
360 539 363 65 39 34
362 538 366 132 89 74
349 860 204 50 44 43
338 886 368 54 46 42
361 543 362 73 50 41
363 533 376 177 127 102
365 534 378 174 121 97
363 538 371 172 123 100
337 887 341 33 31 32
366 538 377 175 122 99
367 543 376 175 122 99
324 843 246 166 124 97
372 525 383 187 125 99
376 528 380 176 116 88
314 704 314 131 8 38
383 518 376 182 127 100
437 783 311 76 53 38
384 515 377 193 136 111
381 518 381 188 126 99
426 813 310 79 54 43
418 879 281 83 69 65
382 528 375 175 119 90
379 524 378 179 122 94
378 529 377 172 115 88
380 522 380 179 121 90
372 538 379 171 117 91
377 543 376 170 117 90
378 533 377 170 115 86
310 692 303 37 27 31
384 529 373 183 126 98
383 533 372 177 122 95
383 538 372 171 120 91
321 873 245 149 117 86
380 538 374 169 116 88
368 808 316 66 53 49
380 543 374 169 119 91
354 548 351 38 30 33
354 553 346 74 23 33
317 903 226 57 51 49
354 553 349 92 19 39
353 558 341 93 16 39
355 559 347 72 21 33
354 556 349 77 14 34
354 563 341 68 25 33
355 563 346 92 21 35
354 566 344 92 18 34
355 568 346 92 23 38
357 568 351 77 26 35
355 573 342 105 24 40
356 573 346 71 25 35
435 690 270 70 54 39
358 547 359 49 27 28
310 896 340 41 38 37
362 548 361 93 63 52
363 553 360 103 74 60
364 547 365 152 110 87
348 809 180 75 61 57
372 778 186 73 57 46
361 558 357 59 34 33
327 858 241 150 113 82
363 558 360 116 85 68
450 720 289 51 37 29
366 558 366 171 123 99
365 545 368 169 121 98
366 548 371 175 125 101
368 548 375 175 123 99
367 553 371 174 123 99
368 558 371 172 121 97
359 566 354 35 30 29
362 563 356 74 45 41
387 844 286 38 29 28
361 569 353 75 29 33
363 567 354 75 44 40
366 563 361 156 113 91
365 565 358 133 93 77
364 571 354 96 68 55
368 573 361 171 122 98
365 574 353 122 82 70
304 718 300 64 31 36
397 873 320 41 36 35
372 548 377 175 121 96
372 553 375 174 121 97
377 548 375 172 118 92
370 555 373 173 120 99
373 557 374 176 122 98
399 677 292 44 30 28
376 557 374 175 121 95
374 698 340 171 123 99
369 567 369 171 119 95
370 570 368 169 118 93
377 573 370 177 123 94
381 573 369 175 122 87
384 568 368 167 116 86
320 582 312 98 18 35
323 579 315 52 25 30
323 583 321 93 10 34
387 848 281 37 33 32
326 577 317 55 27 33
360 515 387 190 133 111
320 587 317 118 0 35
322 588 321 148 1 45
377 653 351 175 131 108
322 593 320 171 0 53
327 598 320 160 1 48
327 603 319 153 0 46
326 604 318 161 2 51
328 607 319 147 0 43
326 613 318 154 9 47
320 619 313 117 30 45
324 622 314 48 26 31
327 618 317 113 22 43
327 623 316 95 20 40
329 613 319 147 9 44
341 625 318 152 6 46
342 872 211 45 40 41
332 613 320 160 5 50
329 616 319 82 13 32
342 974 291 66 63 64
332 618 319 107 11 36
330 619 318 73 21 29
337 618 320 161 3 50
337 622 319 160 1 49
337 624 318 144 7 46
320 637 303 87 23 33
337 773 170 122 89 52
321 628 307 143 22 52
334 799 169 163 111 76
322 633 306 62 28 34
387 543 332 42 26 30
365 819 303 65 54 50
327 628 312 82 26 37
325 634 308 69 30 34
328 633 310 113 28 43
326 625 313 179 24 63
326 638 308 91 25 37
400 689 300 41 29 30
328 638 309 114 25 42
331 630 313 98 35 45
337 628 316 97 15 38
367 823 301 54 44 42
336 634 313 155 10 48
414 525 333 181 15 53
332 638 311 120 21 41
342 628 318 163 7 52
339 636 314 165 10 52
347 623 321 162 3 50
346 629 318 158 6 50
349 631 319 160 5 51
353 632 319 162 5 50
347 638 316 156 7 49
352 638 317 156 6 49
328 578 325 126 7 38
325 581 322 58 29 29
324 584 324 137 9 48
313 832 221 73 58 56
327 588 322 164 4 50
337 583 325 141 3 42
325 814 262 177 123 104
333 576 329 161 3 53
335 576 329 147 3 46
332 585 323 147 3 45
477 848 326 74 61 53
330 586 324 156 3 50
336 585 323 145 3 43
332 598 321 137 4 43
338 598 325 78 23 33
336 609 323 176 8 57
391 857 281 38 34 35
338 608 325 108 16 40
342 578 326 107 6 33
342 583 327 112 10 38
345 578 328 55 25 30
401 780 189 63 52 46
402 839 347 54 45 36
345 583 328 57 20 28
347 588 331 99 18 38
351 593 337 74 24 34
340 598 328 96 24 36
343 603 330 41 30 29
343 607 329 64 30 35
348 598 335 52 27 31
346 603 332 49 30 30
347 608 330 65 26 32
352 603 336 109 16 41
303 849 295 123 93 71
352 606 334 121 5 39
351 598 337 82 25 36
341 614 323 77 19 32
342 618 321 157 4 48
387 738 346 170 121 94
352 613 327 162 3 50
348 616 324 165 3 49
368 860 357 43 35 30
352 618 324 166 0 51
352 623 322 164 2 51
354 578 340 99 27 42
356 578 346 50 29 30
317 889 351 45 43 43
357 583 346 57 28 33
355 588 343 100 24 39
358 592 344 99 28 40
362 578 351 113 33 41
362 582 349 107 36 42
362 584 348 102 29 40
362 592 344 86 27 34
366 593 346 130 87 72
368 593 351 160 114 93
281 793 206 168 124 95
357 606 334 171 6 54
354 598 339 101 11 34
358 601 339 159 7 45
362 595 343 58 25 28
362 602 340 162 21 53
362 604 337 170 8 53
406 532 334 46 26 31
366 603 341 151 82 75
374 648 346 174 132 110
365 605 338 152 45 57
366 608 337 148 57 64
368 608 341 161 102 88
368 603 346 161 108 90
368 598 351 162 116 93
368 578 361 171 121 97
308 883 320 137 96 83
368 583 361 169 120 96
369 577 365 169 119 94
372 578 367 171 118 94
370 584 363 169 120 94
362 712 327 121 7 37
372 583 366 171 119 94
377 583 368 173 121 93
369 588 360 167 118 93
369 593 359 167 120 94
370 589 363 165 116 92
373 588 365 168 118 94
425 541 286 131 28 53
371 593 362 165 118 92
377 588 367 171 119 93
373 593 364 166 118 92
328 888 206 68 60 56
377 593 366 170 120 92
447 733 271 80 60 43
382 583 367 171 119 87
374 576 369 175 120 95
381 577 369 175 123 87
309 763 275 76 60 54
455 728 276 72 57 40
369 602 355 167 121 97
289 903 262 151 114 90
371 603 361 167 121 94
370 609 352 168 121 98
279 941 258 77 73 75
370 608 356 169 122 98
412 803 346 163 111 86
331 921 218 90 80 79
372 608 361 168 121 94
374 603 364 169 120 94
374 606 364 171 120 94
320 734 322 187 15 60
357 612 330 171 0 52
357 624 323 159 0 49
362 613 331 143 8 48
360 614 328 173 0 53
364 611 334 140 3 44
362 624 323 159 0 47
362 622 324 168 0 50
363 616 329 175 2 58
372 918 241 68 60 60
369 623 331 154 87 80
368 628 326 150 57 63
369 618 336 158 103 88
369 611 349 165 116 93
304 733 290 74 22 35
370 614 347 166 116 94
370 623 341 170 118 98
420 842 262 46 39 41
369 616 344 164 112 94
370 618 346 167 116 96
370 618 351 171 124 99
370 623 346 170 120 99
347 863 196 57 49 42
369 633 326 153 86 79
369 628 331 162 101 89
369 633 331 166 109 95
370 633 336 172 122 104
342 692 323 145 10 45
369 638 326 157 99 88
369 638 330 168 115 97
304 895 348 46 43 42
370 629 337 172 120 102
370 633 341 175 124 104
371 633 346 175 125 103
371 638 341 177 126 107
371 638 346 176 127 106
371 613 356 169 124 98
376 609 363 172 122 95
377 613 363 172 122 95
297 903 346 42 39 41
371 618 356 170 125 97
386 538 366 173 124 95
372 623 356 170 124 96
374 623 359 167 121 94
377 618 362 169 120 93
391 658 301 59 27 30
377 623 361 169 120 93
347 919 342 55 51 49
382 618 362 174 122 93
382 623 362 171 120 92
373 628 356 172 125 98
373 633 356 174 126 100
373 638 355 176 127 102
376 638 357 179 129 103
382 628 362 171 122 93
382 633 361 175 125 96
378 638 359 181 130 103
359 516 384 194 138 114
323 704 325 124 4 38
425 724 330 149 108 73
361 514 391 186 127 107
363 517 390 187 129 104
366 520 388 192 134 106
367 515 397 196 139 113
436 833 282 73 57 52
367 514 401 195 137 114
367 516 395 197 138 113
377 517 391 201 136 108
377 519 386 197 130 101
372 515 397 203 140 115
296 907 352 52 47 46
470 856 321 79 64 58
372 514 401 203 141 116
377 515 397 200 135 110
377 513 401 203 136 112
376 516 395 202 137 110
383 514 386 192 127 104
382 514 391 195 129 103
410 777 223 52 42 42
381 517 386 194 128 102
380 516 390 198 131 105
287 653 261 154 0 47
285 657 257 152 0 46
356 824 292 114 81 64
286 658 261 150 0 46
297 864 305 123 91 77
285 663 258 152 0 47
289 684 269 57 23 34
288 658 265 145 3 45
285 668 258 151 0 47
298 688 285 95 24 37
285 673 258 148 1 45
286 673 261 151 0 46
288 678 266 147 2 46
284 683 260 141 1 42
283 688 261 138 1 42
287 683 266 116 8 38
387 758 345 167 122 94
286 688 266 138 5 43
279 704 259 134 0 42
283 693 261 137 0 42
288 693 271 139 5 43
283 947 261 72 68 70
280 697 258 134 1 41
282 698 261 136 0 42
452 742 299 57 46 33
283 703 266 138 0 42
287 698 271 128 8 41
285 702 268 140 0 44
286 703 271 136 9 44
288 643 265 116 13 41
364 829 189 80 61 51
292 643 271 78 22 34
289 648 265 156 3 47
290 648 268 155 3 49
290 653 268 152 2 46
292 653 271 117 15 43
410 598 266 58 33 34
398 613 346 157 111 78
294 642 274 91 26 37
296 643 276 110 23 42
446 709 265 74 54 42
294 648 274 102 19 37
294 653 274 65 29 35
300 643 283 91 26 41
423 553 286 102 16 38
300 648 282 85 21 34
303 648 286 69 27 37
332 979 286 50 46 46
301 653 282 108 21 40
408 604 271 108 35 43
290 658 268 108 14 37
292 658 271 48 24 32
290 668 268 151 2 45
292 668 271 150 1 46
352 893 307 61 51 42
441 829 360 69 55 41
290 672 268 154 0 48
294 658 274 36 28 30
392 673 311 51 39 35
296 658 276 45 29 31
294 663 274 108 15 38
296 663 276 133 12 44
296 668 277 147 0 45
299 658 280 58 24 31
299 663 280 147 4 48
303 663 285 66 20 33
298 673 281 144 1 44
303 668 285 141 8 44
417 788 236 57 45 44
300 672 283 140 1 42
302 673 286 131 4 40
305 667 288 148 5 46
305 644 288 151 19 52
305 648 288 64 26 33
307 648 291 76 26 35
309 642 294 87 40 48
312 648 296 35 29 31
305 653 288 42 30 30
307 653 291 85 22 36
315 643 298 42 29 31
318 648 300 35 30 32
309 659 294 100 17 33
309 662 294 38 20 28
483 829 310 103 80 58
308 668 291 137 9 45
307 673 291 119 9 38
310 668 293 139 12 45
312 668 296 139 11 45
309 674 294 50 21 25
314 663 299 79 20 33
304 821 224 75 61 57
317 663 301 127 14 43
317 668 301 154 9 48
401 856 334 49 41 38
313 673 300 134 8 41
319 674 304 135 8 41
291 678 271 148 1 45
297 678 281 146 0 45
402 868 300 38 35 34
382 848 376 65 51 39
327 980 271 76 73 75
293 683 275 107 13 40
293 688 276 38 29 31
451 844 317 85 66 51
295 683 278 121 4 39
297 683 281 130 8 43
447 763 299 60 48 35
295 686 278 40 29 29
347 868 180 114 93 81
296 688 281 80 22 34
299 679 284 141 4 49
301 678 286 71 17 31
301 683 287 96 21 37
300 688 287 89 20 36
290 692 273 103 19 40
292 693 276 54 24 29
322 818 172 189 128 98
365 956 286 58 53 52
289 695 274 132 8 44
296 693 282 87 24 36
469 830 330 47 38 31
289 703 275 96 16 37
293 698 280 42 28 31
295 702 283 34 31 33
303 683 290 59 24 30
303 688 291 90 23 36
304 694 295 74 26 34
296 803 222 63 52 48
298 703 290 71 26 34
300 703 292 62 26 30
302 703 296 61 26 33
308 678 295 50 24 28
310 677 298 98 28 41
305 683 293 84 27 41
305 687 293 68 32 36
407 673 331 141 100 66
306 688 296 63 27 34
312 683 301 63 25 32
373 933 311 54 46 43
318 678 305 41 27 30
317 683 306 41 27 29
314 684 304 74 24 36
429 698 275 55 43 31
316 688 307 114 21 41
308 693 301 44 29 30
304 704 299 42 26 32
306 703 301 61 25 32
312 693 306 46 27 30
309 695 304 41 29 32
308 703 305 102 21 36
288 913 325 144 110 91
311 698 307 79 25 35
314 694 309 61 30 33
319 694 314 33 27 28
316 698 312 100 17 37
317 703 316 129 8 41
343 838 284 131 101 79
319 700 319 127 8 41
276 713 261 134 0 41
375 866 344 45 38 34
279 710 264 135 0 41
279 713 264 135 0 40
274 714 259 136 0 42
276 718 262 141 0 44
276 913 311 158 122 97
279 718 265 141 0 43
281 713 267 138 0 43
467 833 326 41 35 30
286 708 272 133 7 42
285 718 272 151 0 46
288 708 275 134 7 42
341 818 281 150 108 87
276 723 262 153 0 47
274 728 259 165 0 52
279 723 264 151 0 48
277 733 262 175 0 56
281 728 267 162 0 52
281 733 266 171 0 55
286 728 272 160 0 51
384 854 219 60 51 51
385 916 261 67 58 54
286 723 273 156 0 49
288 723 274 159 0 51
274 736 259 178 0 56
275 739 257 178 0 56
278 743 260 132 11 45
280 813 186 182 132 105
279 746 259 142 15 46
280 739 263 176 6 57
320 739 317 187 13 60
399 855 234 72 62 60
281 743 262 59 22 34
284 736 269 169 0 50
286 739 268 169 1 52
299 796 234 73 60 55
286 743 267 108 20 43
386 608 364 173 119 90
284 752 259 167 9 55
285 749 263 42 27 30
325 886 235 72 61 57
287 748 266 47 28 31
285 755 258 152 5 45
372 928 321 53 46 43
288 757 260 72 52 52
290 708 278 89 14 35
292 708 281 111 16 38
367 808 186 84 64 49
425 696 267 62 52 42
442 719 301 69 51 38
290 713 278 78 24 34
294 704 284 45 21 35
294 708 284 135 19 47
296 708 286 98 19 39
294 713 284 85 18 34
290 718 277 154 7 50
426 868 312 57 49 42
293 718 281 123 16 45
295 720 283 171 20 58
294 717 284 48 22 28
371 643 336 178 130 110
291 723 277 166 0 52
292 728 276 164 0 52
294 727 279 154 9 49
289 731 274 163 0 52
396 782 196 58 47 41
297 909 336 39 35 37
292 733 276 165 0 52
290 734 273 165 0 52
295 734 278 166 1 51
417 793 345 165 115 86
300 724 288 110 24 43
298 708 291 33 28 31
385 887 349 47 41 37
285 917 323 154 118 99
298 713 291 40 29 32
300 708 293 37 30 31
301 708 296 41 30 33
300 713 293 36 31 32
301 713 296 34 29 32
304 708 300 43 30 33
299 718 290 73 24 33
302 718 296 41 29 34
301 723 291 111 29 45
303 728 291 103 23 42
307 708 306 72 20 34
307 713 306 104 21 40
312 708 311 138 8 44
392 773 349 160 118 89
309 709 309 130 11 45
309 714 310 91 18 36
307 718 306 54 30 34
417 853 261 51 44 45
309 718 310 37 31 34
379 855 358 48 41 38
406 688 266 56 35 35
415 768 349 163 112 84
390 877 292 38 35 37
316 708 317 134 9 42
315 712 317 141 10 44
317 713 321 142 11 45
314 718 319 155 13 52
441 723 311 73 55 45
304 726 294 90 20 31
306 728 296 124 20 43
367 883 216 74 65 65
367 938 251 63 56 58
304 721 299 95 26 43
307 728 301 106 22 40
305 729 293 101 30 46
305 733 292 84 17 35
308 723 306 122 29 48
374 894 234 72 63 63
308 728 306 84 24 36
312 947 330 82 77 76
309 723 310 57 28 32
310 723 312 41 29 34
382 778 187 79 61 47
311 728 311 73 26 35
402 598 311 130 25 47
310 734 307 40 30 31
312 733 311 109 21 43
314 732 315 184 14 58
315 730 318 153 19 60
297 834 186 215 140 107
288 928 246 64 60 62
315 735 313 187 13 56
291 749 268 76 36 40
297 753 266 78 62 55
407 823 236 65 51 50
295 750 268 72 57 53
302 753 271 76 60 54
293 738 275 121 15 45
416 724 296 94 12 32
296 738 277 120 15 45
295 744 273 35 29 32
298 738 280 147 6 48
303 738 286 134 17 47
298 746 275 59 49 46
300 745 278 65 54 49
292 960 276 75 72 73
304 747 280 73 58 51
300 749 273 75 60 53
304 751 275 76 61 53
291 760 258 78 63 56
297 763 261 77 62 54
298 758 265 77 62 54
300 755 268 76 60 54
350 779 317 70 57 52
301 758 267 77 61 54
298 767 260 77 61 54
300 765 263 76 61 53
299 762 264 76 61 54
307 753 276 77 61 54
309 752 280 80 64 57
392 878 356 54 46 42
310 753 281 81 64 58
306 758 272 76 60 54
304 761 269 77 61 54
306 763 271 76 61 54
305 764 268 76 60 54
446 871 321 76 64 60
337 857 297 71 57 42
437 798 308 45 36 28
308 768 271 77 61 55
305 754 273 77 60 54
314 768 279 79 62 55
316 768 282 79 62 55
319 768 285 80 62 55
412 688 326 134 100 66
304 738 290 134 24 51
305 738 292 160 10 51
392 539 333 94 17 36
337 683 318 141 11 43
307 738 296 165 7 52
307 743 296 134 27 51
310 740 303 135 10 52
311 744 302 175 12 57
309 747 295 72 53 53
335 868 309 68 57 46
311 749 296 73 57 53
309 737 305 60 25 32
311 738 306 43 26 31
321 884 324 96 74 59
313 737 310 117 15 42
313 743 305 129 14 45
307 923 350 75 68 65
319 736 320 187 13 59
319 741 314 187 12 61
429 783 250 68 52 45
314 746 304 176 10 57
403 514 343 45 26 28
317 748 306 147 27 54
315 755 291 80 63 55
316 754 297 81 62 56
404 824 234 75 61 53
318 757 296 81 62 55
319 756 300 80 63 56
319 763 291 80 63 55
319 766 289 80 62 55
415 571 304 176 0 53
322 963 316 81 77 76
319 714 324 144 11 45
316 723 322 167 13 54
386 820 327 137 95 73
318 723 325 171 14 54
319 731 324 185 15 60
320 648 303 36 29 32
353 792 310 65 53 49
323 648 305 41 27 30
326 643 308 56 24 30
328 648 309 98 24 38
297 823 211 155 119 99
390 786 188 63 52 44
323 653 305 83 27 34
372 703 331 126 74 64
328 653 309 76 20 33
390 857 376 81 64 53
332 643 311 133 14 45
332 648 311 133 12 43
332 653 311 128 16 44
320 657 303 116 25 45
322 663 305 96 17 35
326 658 308 61 24 31
327 668 310 147 12 47
325 672 308 145 11 47
402 563 322 150 12 47
327 673 310 140 10 44
332 658 311 141 11 45
332 663 312 113 14 38
337 658 313 159 10 49
332 668 312 149 12 47
367 913 337 47 42 41
336 671 313 149 12 47
427 743 336 165 117 84
342 643 314 123 12 42
341 653 313 167 7 52
438 698 276 88 69 49
343 653 314 162 7 49
347 648 315 155 7 49
352 653 316 87 22 34
343 658 314 97 16 37
340 663 313 128 8 42
337 673 314 147 12 45
340 666 313 157 10 50
347 658 315 67 22 33
297 918 241 69 60 55
352 658 316 55 25 33
352 663 316 57 23 29
352 668 316 135 11 42
352 673 317 65 16 28
323 679 309 99 10 35
324 675 309 135 11 44
320 681 308 42 27 27
322 683 311 98 19 38
326 682 312 127 10 39
403 708 348 164 109 79
328 684 315 119 10 36
387 558 366 166 121 90
327 688 317 105 10 35
333 674 314 142 11 43
330 677 313 136 11 43
398 833 230 63 50 45
332 678 315 137 11 42
337 678 316 142 12 44
332 683 317 133 10 40
332 688 320 133 11 41
400 628 340 163 116 82
334 685 319 136 11 42
337 685 319 141 10 43
337 688 320 141 11 43
322 693 316 62 21 30
366 901 355 54 51 51
324 695 319 112 5 38
339 718 334 68 25 32
326 692 318 113 10 38
327 693 320 122 2 39
322 698 320 120 5 36
347 678 317 124 13 41
346 681 318 145 10 46
347 683 319 130 9 40
418 813 336 157 103 76
352 683 319 44 21 26
352 680 319 42 28 28
357 648 316 137 10 44
362 641 319 146 9 47
417 758 347 165 112 81
362 648 317 123 11 41
367 643 321 116 40 49
365 644 318 116 17 38
368 648 321 89 53 49
366 653 317 50 28 31
393 854 376 80 64 56
357 663 316 92 20 35
357 673 317 72 22 32
325 897 209 75 67 68
366 663 318 56 27 30
362 673 318 65 23 29
369 653 321 70 45 43
424 548 281 83 26 37
369 663 319 56 29 32
388 818 336 142 97 76
370 663 321 82 54 47
369 673 319 61 25 29
357 683 319 43 25 26
294 811 163 178 121 82
362 680 319 43 25 27
366 677 318 78 21 32
311 799 252 67 54 51
396 668 350 174 116 88
368 678 319 57 25 31
367 683 319 53 25 30
371 673 321 62 34 35
328 699 325 124 4 37
327 703 326 120 5 37
332 693 322 133 11 40
333 695 324 134 11 41
337 692 322 140 11 43
337 694 324 139 11 43
332 698 326 132 11 41
332 702 328 131 10 40
332 704 329 131 11 39
342 688 321 147 10 45
306 778 262 75 59 52
429 726 278 32 26 21
343 702 328 104 10 32
342 704 329 101 19 37
347 692 323 146 10 46
347 694 324 146 10 44
347 702 328 34 26 28
352 696 323 139 10 42
347 704 329 31 28 29
370 644 327 162 111 95
369 646 324 146 96 85
369 641 329 170 118 101
372 648 336 179 127 109
370 650 323 136 94 81
362 753 333 103 23 41
290 790 223 40 38 42
370 653 323 126 89 74
370 653 326 152 104 90
371 653 331 173 122 106
387 834 301 44 35 34
372 643 341 180 130 109
373 648 341 176 129 108
487 839 311 104 84 69
372 643 346 177 130 108
290 927 244 63 58 59
448 788 286 72 55 39
374 653 341 172 126 106
370 658 323 108 74 63
370 658 326 151 103 89
372 658 331 172 121 104
373 663 336 172 124 104
371 668 326 139 95 81
372 668 331 165 117 99
373 668 336 170 123 102
373 673 336 168 123 100
375 658 343 168 126 104
401 777 212 58 48 44
375 668 343 167 124 100
374 673 341 165 122 97
375 673 343 163 120 95
377 668 346 166 123 98
382 663 352 178 128 103
304 840 289 116 96 76
379 668 349 169 124 97
382 673 350 170 121 94
374 641 354 178 129 103
295 920 348 62 56 54
377 643 356 181 130 105
375 644 353 179 130 106
379 641 359 183 130 105
382 653 355 187 134 109
415 891 307 83 69 64
284 812 172 179 123 89
380 654 353 182 133 109
357 688 320 91 13 33
357 693 321 123 6 36
357 697 323 125 7 37
357 699 324 130 10 41
455 730 273 73 53 36
362 693 320 110 1 33
367 693 320 115 1 36
362 698 322 109 0 33
367 698 322 115 0 36
374 678 340 165 123 98
375 678 342 161 120 94
323 839 271 80 65 48
377 678 345 160 118 92
374 682 340 169 122 99
374 688 339 172 124 103
383 678 349 168 118 92
377 683 345 162 118 92
380 683 348 167 119 93
441 808 276 69 53 48
383 683 349 169 120 93
380 688 348 169 121 94
370 693 322 121 6 37
312 878 322 133 97 82
373 693 336 167 119 98
372 852 366 54 45 40
370 696 323 120 0 38
369 699 324 117 0 36
370 698 326 111 31 41
370 703 327 104 19 36
322 939 338 64 60 59
372 698 331 130 80 68
373 698 336 162 113 92
374 703 336 160 111 92
381 922 306 50 43 40
374 693 340 173 125 102
375 693 342 170 123 99
383 693 349 172 122 94
383 698 349 172 122 96
382 703 347 170 121 95
321 743 316 186 15 59
320 744 312 186 14 60
322 753 311 78 54 52
342 863 301 66 54 41
324 746 320 170 15 55
325 749 318 94 14 33
445 796 304 49 40 35
327 753 316 69 35 40
320 755 303 81 62 56
321 758 301 79 63 55
320 764 292 80 62 55
327 723 331 71 19 31
321 763 296 79 62 55
407 848 296 35 32 32
332 893 369 68 59 54
277 943 321 63 57 56
324 890 343 33 31 35
321 768 291 79 62 53
324 766 299 79 62 54
326 759 307 76 60 53
328 756 315 82 64 58
327 763 306 75 59 54
332 753 322 138 24 50
327 948 240 93 86 90
444 733 269 85 68 49
330 755 318 112 39 49
332 758 316 81 64 59
331 759 313 80 64 57
336 759 317 83 66 62
329 762 309 76 60 54
327 898 207 88 77 75
332 763 311 78 61 56
330 765 308 74 59 53
332 768 307 73 58 52
333 767 309 76 60 54
337 768 311 78 62 56
334 761 314 82 65 59
337 763 316 81 65 60
342 768 316 77 63 58
437 808 306 52 40 34
344 766 319 76 63 59
347 768 321 75 62 58
306 878 317 160 118 103
320 708 323 132 9 42
322 708 326 132 10 42
325 711 328 136 14 42
323 718 329 152 13 48
327 718 331 100 21 38
405 612 286 101 21 40
332 708 330 107 12 37
389 523 361 136 43 53
337 708 331 112 11 36
337 713 333 107 19 38
322 728 327 180 16 58
323 723 329 166 15 53
324 727 329 175 15 58
322 733 326 184 16 59
326 734 328 182 16 59
332 723 332 38 28 30
332 728 332 37 29 29
332 733 330 46 29 31
377 863 346 47 38 34
391 588 360 162 113 83
337 733 331 47 30 31
342 713 333 82 20 34
336 788 167 151 104 70
342 718 334 118 27 46
279 807 181 182 130 100
345 715 334 114 19 33
412 834 306 38 33 30
