ply
format ascii 1.0
comment Created by Open3D
element vertex 2214
property double x
property double y
property double z
property uchar red
property uchar green
property uchar blue
end_header
342 41 219 119 100 81
357 508 397 144 11 49
345 40 222 118 101 84
375 243 251 120 94 64
322 308 266 86 68 47
346 48 211 124 105 87
411 553 236 48 32 36
307 874 221 56 49 49
345 44 217 119 101 84
193 753 245 159 106 83
346 258 272 119 93 65
408 697 340 138 83 62
347 47 215 119 100 83
266 628 206 40 31 36
429 777 262 65 51 42
348 46 219 102 82 67
436 463 276 115 14 41
322 414 275 89 64 53
342 888 195 66 61 62
351 48 221 85 52 40
341 168 216 132 101 63
506 893 241 96 80 68
269 705 179 86 68 53
415 798 301 139 91 64
381 373 271 117 92 63
339 50 193 109 31 22
301 408 277 63 48 30
343 52 200 109 85 51
276 496 274 64 26 31
351 406 190 92 77 62
346 53 201 107 83 53
351 828 166 109 89 76
363 191 253 119 96 70
361 339 228 91 78 65
316 868 284 176 135 110
344 50 203 123 102 79
276 473 167 132 5 31
280 922 215 78 63 53
347 52 206 123 104 83
386 808 196 71 57 55
408 559 264 176 11 50
349 55 202 96 53 29
289 512 149 58 33 35
337 208 217 128 100 65
401 678 325 101 49 39
364 463 389 79 17 29
270 178 279 114 92 66
201 728 221 192 122 100
350 54 206 100 64 47
286 343 307 127 89 69
292 12 314 131 38 53
348 56 200 95 48 27
389 436 379 97 2 35
261 972 266 78 72 72
370 443 410 175 9 55
298 435 123 111 24 39
350 58 201 90 42 26
225 646 155 118 98 78
349 59 197 87 45 22
259 313 254 124 96 68
234 725 164 189 125 94
352 58 206 99 38 35
298 434 126 111 11 30
318 864 178 59 51 48
191 743 257 148 113 93
253 552 183 152 3 37
348 51 210 122 103 86
324 37 230 61 45 32
300 898 216 55 50 51
289 833 251 173 131 105
325 42 225 77 45 27
404 745 278 88 46 47
387 458 382 175 3 57
431 668 350 151 107 72
356 413 303 104 82 57
306 908 180 99 88 88
292 238 251 107 81 50
331 34 227 109 91 71
336 36 224 116 86 57
301 18 270 126 35 34
301 837 207 111 84 68
349 68 239 103 36 41
242 758 231 180 135 108
319 363 261 78 57 43
331 63 255 116 49 52
355 377 225 91 79 68
336 58 255 129 102 77
239 524 243 86 25 39
295 38 281 127 18 46
342 36 225 118 100 80
302 318 286 126 90 67
348 36 229 98 73 54
346 453 146 147 0 31
328 268 237 101 81 59
327 113 246 113 86 66
351 38 231 94 52 39
359 325 279 121 85 55
308 586 344 146 20 52
365 183 246 115 94 70
290 268 285 115 91 62
374 636 258 49 31 36
404 798 218 74 57 47
353 38 236 105 34 34
348 945 288 72 66 68
286 10 310 134 35 51
351 43 226 101 50 40
332 208 222 125 98 66
258 513 173 62 26 35
265 633 286 106 13 36
383 431 298 74 46 34
313 14 294 131 85 72
283 192 273 116 93 66
348 674 218 73 42 29
353 43 231 85 37 33
353 47 225 104 40 37
386 388 241 95 80 66
391 603 276 77 31 38
276 958 305 52 49 51
342 44 257 134 106 85
421 434 291 126 21 45
167 804 247 176 119 109
261 263 242 136 97 63
347 38 257 124 12 44
256 674 149 125 94 59
255 614 204 83 26 34
429 435 258 89 26 33
280 913 226 88 71 57
397 443 317 121 27 45
329 80 194 143 4 44
352 43 246 113 73 63
325 68 195 119 19 39
276 203 282 117 93 67
291 673 205 89 23 29
346 503 152 121 30 43
350 48 246 120 51 57
353 113 236 116 94 69
290 57 275 120 80 67
408 700 223 76 57 42
287 59 277 125 88 73
311 412 161 97 81 65
293 950 314 40 39 40
392 738 326 139 92 73
344 47 254 129 107 89
350 43 250 116 13 40
380 393 276 100 81 60
326 808 302 54 44 47
355 128 231 111 91 68
479 824 288 95 67 37
352 53 236 111 21 38
351 58 236 115 17 41
406 444 139 102 28 37
374 631 294 95 32 43
349 58 239 115 67 64
291 633 202 135 6 33
351 63 236 105 21 39
400 443 361 88 1 30
295 708 386 145 104 89
336 53 257 116 54 55
373 672 286 54 27 32
320 475 288 37 27 29
376 298 246 110 87 60
304 764 313 87 69 62
242 573 197 151 5 38
266 498 272 105 18 38
343 50 253 122 3 45
386 563 197 168 20 47
264 344 308 152 105 85
339 57 254 127 103 79
346 273 221 125 96 65
351 443 145 160 0 31
286 9 286 115 71 58
402 438 361 99 1 31
338 60 253 126 102 77
377 683 271 64 27 35
248 688 242 104 31 46
325 293 266 78 66 55
348 54 242 139 112 94
391 428 391 89 27 38
271 223 237 126 96 62
230 563 226 99 27 39
349 51 244 118 17 41
395 429 390 59 29 32
361 278 223 127 97 62
346 58 246 111 45 51
261 713 296 145 8 46
324 844 190 60 53 51
411 864 261 91 81 78
352 33 241 92 43 39
191 773 246 168 116 93
254 881 264 163 126 97
227 688 196 81 58 44
351 148 252 114 91 67
266 493 170 122 22 34
438 450 278 60 23 32
307 398 277 68 50 31
321 648 211 106 16 27
351 834 291 58 49 45
352 23 251 110 29 41
352 33 246 99 46 44
240 763 191 148 106 79
307 468 292 90 6 29
355 63 206 113 37 41
261 508 267 123 9 40
354 54 217 94 31 36
195 723 241 118 91 75
353 57 210 107 36 40
379 364 242 104 86 67
329 222 229 117 93 64
383 393 272 98 80 61
340 287 278 102 80 57
491 873 266 112 93 74
267 324 248 99 82 65
332 148 222 119 92 60
311 409 176 100 85 69
287 435 283 88 64 44
354 59 212 107 35 39
355 63 221 109 59 54
353 38 241 112 25 38
263 703 202 93 20 30
344 698 329 119 6 36
353 43 241 110 69 56
266 368 230 97 84 72
411 409 241 71 57 47
353 38 246 118 20 42
353 58 232 118 71 67
343 448 304 42 24 25
451 891 286 93 76 60
346 557 346 47 25 27
301 409 176 103 88 72
406 698 241 89 64 50
424 493 211 148 9 41
352 64 231 115 54 58
369 718 319 125 11 38
271 158 237 124 94 58
418 488 247 51 32 33
356 788 176 52 45 43
354 62 230 113 9 37
391 441 303 93 26 33
363 676 205 67 48 39
356 133 231 111 91 69
258 47 269 126 13 46
327 68 192 122 23 35
373 248 224 125 97 62
278 123 261 115 86 61
335 557 366 41 25 24
286 203 246 110 85 53
510 888 246 90 76 65
281 33 287 125 32 50
332 68 188 114 33 28
332 73 187 139 19 36
341 383 225 94 81 68
405 753 277 91 49 46
396 488 351 169 2 53
327 73 192 136 7 39
346 458 306 45 25 27
330 73 190 138 9 37
331 415 152 85 71 57
256 723 150 166 108 75
415 887 281 73 60 56
328 77 192 137 4 39
367 610 224 50 35 36
286 404 192 104 89 74
415 452 143 182 12 37
330 78 190 138 11 39
336 78 187 137 28 42
327 387 236 92 78 65
336 88 191 149 19 45
440 443 186 93 29 40
358 930 240 72 61 59
326 663 215 111 17 25
341 68 187 100 39 23
316 597 339 190 10 60
341 73 186 125 28 35
331 738 337 131 23 47
341 78 187 131 29 41
420 503 231 153 5 43
190 763 260 157 116 107
344 65 188 98 40 26
389 415 188 95 78 60
326 29 272 135 95 76
345 73 187 130 23 30
336 733 176 60 48 44
398 463 340 77 23 34
351 948 241 73 65 66
296 498 281 90 12 30
331 258 261 101 82 61
452 423 256 153 11 35
350 78 192 136 21 40
343 85 189 142 39 53
291 818 266 183 129 110
404 852 230 64 56 53
321 508 141 116 18 36
341 92 192 146 32 45
344 82 188 137 20 36
377 447 308 83 10 30
294 508 144 112 22 32
331 478 141 97 28 37
336 223 261 111 88 64
265 903 303 186 135 120
347 83 190 146 21 41
380 348 256 117 93 65
286 903 310 172 125 102
336 399 206 93 79 65
368 276 263 127 96 61
346 88 192 146 17 43
293 463 300 82 22 34
376 628 251 74 33 38
375 243 226 124 98 65
335 292 277 106 82 59
212 683 161 149 103 70
350 83 192 147 23 47
264 923 239 109 90 74
376 323 261 125 96 63
279 261 243 118 89 57
323 65 198 96 24 30
420 498 231 151 5 40
321 667 206 69 36 35
375 696 355 190 123 102
323 859 190 45 42 43
367 498 164 115 18 36
354 811 164 88 66 54
251 688 226 39 33 36
235 584 222 118 19 43
323 72 198 134 8 42
184 730 254 132 109 92
281 413 176 105 36 46
295 754 312 86 67 61
323 73 201 134 8 43
151 803 246 183 125 115
335 37 264 129 13 46
408 778 225 65 52 43
247 688 266 44 31 34
319 632 208 54 38 38
372 840 273 30 27 27
411 437 292 143 20 48
325 73 196 136 8 42
265 402 215 102 89 76
323 76 203 140 4 42
320 556 163 190 8 39
380 683 222 70 52 42
271 967 246 92 86 86
325 78 206 141 1 43
322 73 216 136 22 40
309 380 242 81 65 41
356 358 228 91 80 69
307 694 372 119 91 67
323 76 210 126 9 33
296 463 126 61 34 36
284 232 243 112 86 54
221 663 186 91 76 61
325 78 211 125 40 54
391 913 281 79 66 59
386 803 333 189 141 112
354 78 225 104 30 40
258 226 238 130 99 60
421 658 326 102 76 37
331 838 282 180 139 114
324 78 219 124 29 44
346 708 332 133 6 40
331 83 196 144 4 42
218 672 148 128 95 57
332 87 197 140 4 41
360 333 280 120 91 56
416 743 336 193 129 100
351 278 277 116 92 66
278 113 263 122 93 68
249 604 253 34 28 28
272 83 274 115 21 42
298 338 293 116 84 60
331 88 201 140 3 43
378 489 382 45 29 30
394 511 173 43 29 28
291 428 286 74 54 37
334 89 195 140 5 41
332 93 201 132 4 40
261 158 236 128 99 63
415 707 300 103 75 64
334 94 199 133 4 40
239 553 200 155 10 39
331 93 206 127 7 40
237 603 232 47 31 31
324 413 277 97 67 55
291 678 310 76 26 36
325 83 216 128 26 41
293 858 237 153 114 83
365 912 318 35 32 30
265 34 282 117 41 50
322 93 222 132 61 56
362 538 366 169 14 54
324 208 241 108 89 68
286 428 161 118 8 34
325 94 220 139 61 56
329 138 231 113 88 60
286 977 281 62 58 58
424 423 225 117 14 37
396 891 296 41 36 35
368 505 382 157 16 53
367 193 226 114 93 68
399 431 326 116 1 33
352 78 196 138 22 43
404 516 178 192 14 43
317 403 251 59 52 46
261 698 150 139 99 64
444 871 314 83 61 50
400 473 361 172 13 53
441 654 340 118 92 63
342 94 194 133 68 63
320 695 159 69 54 40
396 718 251 46 34 36
490 874 279 113 93 74
288 479 148 62 34 36
396 503 170 47 36 41
352 83 196 145 17 47
371 463 401 94 14 35
259 336 249 100 85 70
346 93 195 142 19 42
289 446 283 102 10 30
366 897 283 35 33 33
348 89 194 147 15 46
386 932 331 84 71 59
350 93 197 136 13 40
293 434 147 135 2 34
286 418 162 117 19 36
322 67 254 109 14 41
366 698 356 187 120 97
326 68 254 112 62 56
328 901 183 69 61 60
326 70 253 121 93 73
332 108 211 131 26 43
326 63 257 119 12 43
258 869 263 132 108 85
346 643 225 105 21 32
236 568 236 98 19 37
331 73 252 116 89 69
336 68 252 113 32 46
334 66 254 111 33 42
276 498 162 128 7 30
426 773 271 61 46 38
311 388 236 81 66 45
326 88 251 103 26 41
340 330 229 81 72 63
249 734 283 186 0 59
329 703 155 62 51 39
331 863 277 155 114 92
277 188 240 115 89 58
322 93 249 104 19 39
424 457 299 176 7 58
326 93 250 106 41 46
284 659 209 110 15 27
318 723 162 61 47 38
331 83 251 111 21 41
374 298 237 112 88 59
258 503 173 120 24 33
323 706 158 74 55 39
335 118 216 122 88 57
366 443 311 89 10 32
331 88 251 114 17 42
233 528 213 37 32 36
269 11 275 86 54 50
331 93 250 108 72 58
298 392 231 100 85 69
204 693 189 167 115 85
349 73 236 102 72 57
268 303 248 117 90 62
382 463 372 76 14 32
351 78 231 99 49 43
388 524 337 150 11 46
419 496 173 54 28 34
406 420 182 90 54 43
348 74 237 98 53 44
346 78 241 111 13 40
314 728 181 59 44 40
306 507 133 166 0 36
313 863 221 61 52 51
330 109 220 129 88 65
260 347 245 102 87 70
342 73 247 113 33 48
333 238 223 124 97 65
381 398 276 81 69 56
361 523 366 43 23 26
282 728 403 147 117 94
405 748 277 83 45 44
414 853 251 66 56 54
340 68 250 117 13 42
341 883 195 68 62 64
381 824 322 199 144 121
339 72 249 114 9 42
398 500 169 46 31 38
371 923 281 69 63 63
291 9 281 119 75 58
298 595 330 121 2 36
281 617 306 41 25 28
343 64 248 129 16 50
360 830 302 58 48 45
361 423 140 112 40 39
341 78 246 101 44 45
284 422 289 98 73 53
339 76 249 100 34 38
306 868 285 155 119 89
406 718 291 106 67 63
326 413 281 94 66 52
375 238 251 121 96 66
331 682 210 57 38 38
345 68 245 111 90 72
248 733 218 70 41 42
213 660 171 106 86 65
332 388 290 130 91 73
344 73 244 105 60 54
344 78 244 106 21 40
280 143 256 108 84 57
354 88 216 114 38 45
352 83 231 105 23 38
314 718 181 55 44 39
151 773 253 169 116 109
349 84 239 103 77 59
356 437 143 140 9 33
429 766 310 169 114 79
354 73 221 101 49 46
339 89 249 109 53 47
249 534 184 118 11 34
340 93 249 105 30 43
370 273 261 125 96 62
344 84 244 91 40 34
328 136 236 114 88 63
278 133 246 111 85 54
345 88 245 102 17 36
348 93 242 108 32 43
335 98 200 134 8 40
314 395 244 74 62 45
420 758 281 87 66 46
342 782 324 72 60 57
370 512 375 149 13 48
332 98 206 124 7 36
420 423 231 108 16 37
423 430 249 46 30 36
314 395 241 80 65 45
291 448 286 101 12 33
268 646 294 61 27 31
333 98 202 129 8 39
346 411 171 91 76 60
333 103 203 128 13 39
260 242 239 131 98 59
245 773 206 148 108 79
389 690 244 61 49 37
376 283 251 125 95 62
434 747 311 167 109 77
291 918 307 163 122 98
332 103 206 127 9 39
288 757 174 85 66 44
431 414 296 132 16 42
335 108 201 139 14 40
377 253 231 127 98 62
337 112 202 153 24 45
198 685 203 119 97 72
235 568 241 140 4 42
336 112 206 147 65 62
376 468 155 170 1 34
322 682 201 77 42 39
327 400 207 91 77 64
326 113 236 125 91 69
380 691 359 200 133 110
367 183 236 117 95 71
261 153 235 130 101 65
322 98 223 112 74 52
271 743 400 184 134 120
278 129 249 107 83 55
325 103 220 131 23 40
331 103 250 116 93 67
420 498 226 153 5 42
187 703 221 125 102 78
328 106 217 130 26 42
330 98 211 119 30 41
369 404 299 75 62 48
329 98 215 107 68 53
331 103 211 110 31 37
266 348 240 97 85 72
245 518 251 76 22 32
278 212 283 118 94 67
355 78 211 113 51 52
331 113 221 119 86 57
284 208 243 114 86 53
372 784 205 71 58 54
334 118 219 117 88 56
311 883 196 37 34 36
428 468 283 166 9 51
332 128 221 120 91 60
356 158 251 114 92 68
336 123 216 127 94 60
247 693 271 51 28 32
234 538 215 152 5 40
433 428 298 130 13 40
374 410 193 93 78 62
341 98 195 116 78 68
281 273 247 116 86 56
381 458 313 91 19 35
341 103 196 105 86 74
373 352 234 100 85 69
443 706 309 153 108 79
348 806 179 60 51 47
349 98 198 134 22 40
338 108 198 135 25 40
281 763 287 83 66 61
341 108 197 102 89 82
331 584 185 195 9 44
223 687 148 184 123 92
346 98 196 142 26 43
364 215 218 123 98 67
351 98 201 129 22 39
263 584 274 51 30 33
450 428 280 58 30 32
321 873 206 42 38 42
350 103 201 128 27 40
347 109 200 131 33 43
340 458 302 73 23 34
377 928 296 76 65 63
281 978 286 56 52 51
312 408 277 68 51 32
272 404 202 103 88 73
345 111 202 161 58 68
236 648 146 106 88 68
430 723 253 91 67 48
350 108 202 126 27 36
247 709 227 104 28 40
261 783 162 173 114 78
345 111 205 132 71 64
347 110 207 119 76 65
321 404 201 95 80 66
291 9 286 135 86 83
281 977 281 59 55 53
343 453 304 38 26 27
347 108 216 113 82 60
351 107 211 114 66 60
441 665 313 115 90 61
148 768 250 167 119 109
349 106 215 119 86 64
457 863 301 77 62 54
386 892 311 37 32 31
316 428 304 75 22 32
291 318 248 83 71 60
313 505 134 141 18 35
350 108 222 101 76 53
351 378 225 93 82 70
348 112 219 98 78 54
418 510 259 146 7 39
350 113 221 98 78 55
423 488 217 37 29 32
341 113 206 141 89 68
342 114 210 144 96 70
377 498 377 152 15 51
341 118 211 144 99 69
403 483 327 114 17 41
366 842 281 37 33 32
351 203 215 119 96 68
338 123 213 137 98 61
303 401 219 100 86 70
387 538 326 91 21 36
290 31 289 138 21 52
243 802 183 193 131 104
373 298 262 124 96 61
341 123 212 143 102 66
300 309 257 93 77 60
321 17 291 171 118 103
436 718 296 125 94 67
341 128 213 140 101 65
421 427 276 90 35 38
386 816 329 199 143 112
305 348 251 75 63 50
326 713 340 100 19 37
349 118 218 103 83 60
166 788 253 171 111 107
294 536 278 102 17 35
347 123 215 118 92 61
258 213 238 127 98 62
344 128 213 136 100 62
329 110 248 114 89 68
448 694 332 181 121 92
244 693 256 95 29 43
366 488 396 40 26 31
347 128 215 127 98 62
274 163 238 125 95 57
401 443 377 159 8 51
362 163 241 113 92 69
304 629 318 134 17 46
349 123 217 109 87 63
324 319 239 76 66 56
306 974 301 62 58 57
351 123 221 107 87 66
350 128 217 112 89 63
363 852 198 54 48 52
384 373 261 117 92 63
324 105 224 141 81 66
339 881 187 66 58 59
268 312 248 107 86 61
345 557 173 45 34 38
236 664 180 70 57 43
325 108 226 138 93 72
327 113 226 134 95 70
426 429 161 108 22 30
366 183 226 114 93 68
220 679 199 76 61 44
333 184 254 104 83 59
226 669 190 77 63 49
251 648 241 85 24 40
367 183 231 119 97 74
301 738 187 65 30 34
259 683 148 133 98 62
296 668 205 52 31 35
381 688 341 129 76 61
426 493 186 97 20 37
320 358 251 68 56 44
292 718 381 124 95 75
326 113 231 132 94 72
296 415 156 120 57 44
323 106 240 126 88 70
340 952 228 76 69 69
421 458 150 171 12 38
306 663 205 90 33 34
430 858 313 59 47 38
341 133 214 136 101 62
282 183 272 115 93 67
324 109 236 129 93 73
364 441 394 53 28 30
393 741 284 86 63 48
329 113 224 125 90 62
279 163 243 114 87 53
323 96 249 109 65 58
323 399 274 107 71 60
326 98 249 115 90 68
422 428 297 133 26 50
262 244 238 131 98 58
328 103 249 116 92 69
331 448 126 137 5 35
369 310 269 124 96 62
336 98 249 121 97 71
426 673 316 101 69 39
328 106 249 114 89 67
278 80 273 111 90 65
357 143 226 112 92 71
327 643 214 122 15 30
320 458 116 115 20 39
331 108 250 114 91 67
424 421 242 74 11 32
319 756 179 52 42 42
435 722 334 188 124 96
329 114 248 113 88 66
306 405 187 104 88 72
331 113 250 114 89 65
383 503 336 117 6 39
336 113 250 117 93 66
191 724 221 198 135 110
316 468 290 84 13 33
246 798 176 187 127 93
460 849 287 90 70 56
335 193 219 122 96 64
327 118 231 125 90 68
373 440 388 49 19 27
366 358 286 116 91 63
275 153 270 115 91 65
326 118 241 116 84 64
261 653 217 92 33 33
422 683 316 105 59 39
328 123 231 122 90 65
501 846 291 98 81 66
293 453 291 67 22 30
355 498 157 127 20 37
332 228 222 124 97 65
327 123 236 118 87 64
334 140 248 109 83 59
326 468 131 100 31 41
377 403 292 69 58 48
366 678 311 40 28 29
335 368 230 88 76 64
324 981 248 82 75 77
456 853 291 106 82 58
359 158 223 107 88 67
413 825 273 57 45 39
250 643 256 118 14 40
260 788 242 71 59 54
409 547 211 193 14 49
284 180 269 115 92 67
327 123 241 114 83 63
328 128 241 114 84 64
243 747 163 171 114 78
332 118 249 111 86 62
314 398 251 60 51 43
212 664 186 99 83 67
321 13 296 137 34 56
282 832 211 60 54 54
411 433 311 159 7 48
329 203 224 124 99 71
372 238 256 120 94 64
305 696 328 46 26 30
355 833 176 57 48 46
328 123 244 110 82 62
361 538 310 109 4 34
346 603 342 77 31 38
367 328 234 99 82 63
330 128 246 108 82 61
244 743 160 175 116 81
362 503 377 34 26 28
425 468 291 171 9 52
332 218 222 125 98 65
375 674 251 50 34 32
328 228 228 116 92 63
333 128 249 109 84 60
367 648 302 85 20 35
437 483 271 167 9 45
336 128 251 113 89 63
371 438 391 41 28 29
271 278 245 132 97 63
243 713 279 136 5 42
333 246 223 125 97 64
346 653 315 71 26 34
310 33 261 93 13 31
401 659 336 112 80 49
196 718 212 201 136 111
271 123 270 120 95 68
406 431 150 121 15 28
245 654 166 83 69 53
288 831 244 183 136 110
349 103 240 116 94 70
352 108 226 104 82 58
364 340 279 114 90 60
276 448 171 128 3 32
271 403 206 103 89 75
289 203 256 108 86 61
351 108 236 117 94 69
350 113 241 115 93 68
340 103 249 122 98 71
381 739 208 65 50 45
257 864 290 142 116 93
325 972 233 80 76 79
292 453 141 76 26 29
342 108 248 115 92 68
416 798 306 155 101 72
238 728 243 158 0 45
435 728 331 192 126 102
259 531 258 92 3 28
331 803 307 75 63 59
340 108 249 116 92 65
341 113 250 116 92 64
416 412 231 76 53 40
272 683 295 143 9 47
318 880 199 39 35 37
347 98 242 109 70 57
337 860 168 66 56 53
345 103 245 116 94 70
348 112 243 114 93 69
385 444 144 168 0 35
341 118 250 116 92 65
346 118 247 113 91 67
349 114 244 115 93 70
409 557 284 170 14 54
335 238 262 111 89 64
320 383 256 84 63 48
352 118 241 115 93 69
346 353 293 131 97 66
302 330 248 78 66 54
256 411 199 73 52 42
350 118 245 113 92 69
300 303 286 117 92 65
431 662 348 136 103 69
344 119 249 116 94 69
347 123 248 114 91 66
279 281 248 118 89 59
263 427 289 134 97 76
271 318 316 132 95 72
271 333 244 93 80 68
228 688 192 81 57 44
345 123 250 115 92 66
281 283 250 108 82 53
244 777 202 151 112 83
262 638 286 73 28 34
406 723 336 169 117 92
353 474 393 56 19 24
281 178 271 115 93 67
208 696 218 78 63 46
346 128 250 113 90 65
348 127 248 113 91 65
315 428 102 161 27 34
353 67 199 119 39 45
326 643 320 70 24 33
355 68 201 122 39 45
284 294 304 116 91 62
422 513 283 68 15 27
407 463 316 88 16 33
354 73 198 132 25 45
355 78 201 136 25 46
354 820 308 65 54 52
355 78 206 129 23 44
261 163 277 112 92 70
424 474 219 32 32 33
291 23 262 99 31 26
272 952 222 76 70 71
356 68 211 112 33 44
356 68 216 114 38 47
390 463 351 53 24 29
401 443 356 91 1 28
426 703 247 92 67 50
321 383 246 90 73 56
431 885 290 79 63 49
364 170 239 114 92 67
370 703 203 63 48 40
355 78 221 118 28 45
326 14 291 143 32 61
332 403 290 126 89 69
353 80 199 142 25 47
322 404 216 90 77 65
372 721 209 63 48 40
354 73 224 106 28 39
353 84 200 145 25 50
301 428 121 115 9 33
391 773 212 69 53 44
276 223 287 119 95 68
355 83 206 130 27 47
354 87 202 140 26 46
353 94 205 134 30 47
347 674 221 64 37 31
326 580 309 95 11 32
355 83 211 116 41 52
387 468 378 172 5 53
373 274 229 127 95 58
355 83 216 106 56 54
382 683 246 66 51 43
354 88 211 97 57 49
304 383 281 95 66 49
355 83 221 98 49 46
311 723 190 89 23 28
384 419 294 69 58 47
361 398 211 92 78 63
352 93 216 116 58 54
313 855 284 175 138 111
331 413 161 88 73 57
316 833 205 85 63 52
353 94 212 119 35 49
201 731 223 185 114 94
378 268 241 123 95 60
353 90 221 114 38 39
287 328 307 114 81 57
354 68 225 126 28 48
424 473 216 55 24 34
353 78 227 102 21 37
414 543 284 63 28 33
346 348 227 84 74 65
353 82 228 107 21 38
259 927 298 90 79 73
414 536 207 29 32 34
283 678 304 71 19 35
326 178 231 107 85 61
347 788 156 93 67 43
353 90 226 112 70 59
260 742 395 126 85 70
381 498 356 94 8 33
353 98 206 127 24 43
336 308 285 109 82 57
292 243 271 113 88 59
354 97 208 129 28 47
353 98 212 101 52 47
435 427 285 103 15 36
353 98 221 110 38 43
282 953 309 44 43 44
354 99 222 113 15 39
424 415 242 116 5 27
352 108 231 115 93 70
343 529 382 33 28 30
436 448 161 118 24 42
291 596 183 175 2 37
318 435 104 173 0 26
415 413 310 78 25 34
352 113 226 103 83 60
346 178 260 114 92 69
363 540 363 137 33 55
279 446 284 50 26 28
353 118 231 110 90 67
353 121 229 109 89 67
277 593 290 107 12 38
320 373 256 76 59 46
354 123 231 113 92 69
409 438 316 150 6 44
354 128 227 110 90 70
253 693 217 72 34 38
380 502 168 165 7 39
299 601 310 74 10 29
360 587 345 134 25 49
334 452 132 150 0 35
441 738 252 94 71 46
343 790 147 73 56 46
354 123 236 113 92 69
376 419 151 90 74 59
232 548 226 64 28 34
354 124 240 112 90 67
366 463 405 125 14 42
306 554 159 58 34 36
321 343 246 69 59 48
363 167 230 118 97 74
355 128 241 112 91 68
261 293 252 132 97 64
436 758 256 71 53 43
281 298 251 81 67 51
295 371 228 97 83 68
363 594 337 83 19 33
273 807 245 74 59 56
280 938 205 76 68 68
341 958 236 81 74 75
347 513 396 81 21 33
408 899 289 79 69 69
325 218 236 110 89 65
353 127 243 111 90 67
270 392 219 95 84 73
290 208 251 108 84 56
261 138 236 127 99 63
321 404 196 94 80 66
340 148 253 109 87 61
243 771 220 184 132 102
258 143 238 124 99 68
377 388 231 91 79 67
268 134 234 134 99 62
336 398 221 93 79 64
339 338 230 80 70 62
181 724 250 121 102 83
361 333 231 93 79 65
289 828 251 179 133 109
269 131 233 130 95 58
325 218 246 99 80 58
291 10 272 97 69 47
271 133 236 120 88 51
337 178 218 133 102 64
266 139 234 131 98 59
266 877 250 123 97 67
257 153 237 125 99 67
266 153 235 132 101 64
286 514 277 106 5 34
296 359 237 89 76 62
276 133 241 113 85 51
266 268 242 133 96 62
338 965 239 84 77 78
280 502 280 46 23 30
377 273 246 127 96 61
334 262 263 106 85 61
276 143 241 112 85 51
279 134 247 109 85 56
379 689 279 46 31 33
296 843 275 145 113 91
279 133 251 107 83 54
373 535 337 49 26 31
356 627 320 174 3 55
279 138 247 110 86 58
279 143 247 109 86 57
279 138 251 107 84 56
259 318 254 111 89 63
273 148 239 119 89 52
384 704 217 57 43 38
405 424 325 45 25 30
297 493 132 93 29 39
244 730 154 182 119 84
276 148 241 113 86 52
335 163 252 103 80 59
311 932 198 99 90 91
415 893 297 78 64 53
291 278 255 99 78 55
378 342 262 124 97 66
495 871 262 114 93 71
238 732 266 162 12 54
378 535 323 55 18 37
272 798 251 75 60 54
336 143 250 109 85 60
356 945 316 64 51 47
376 468 313 88 11 32
340 349 229 82 73 65
252 662 156 95 76 56
361 674 206 71 50 40
276 153 241 114 86 50
281 973 251 85 79 81
274 158 238 121 91 53
386 493 326 90 17 35
372 388 291 112 89 62
278 148 244 109 83 51
367 671 236 61 46 46
353 522 309 119 4 39
330 253 231 115 90 61
416 863 306 48 38 32
424 788 257 73 59 48
279 158 243 111 85 52
311 668 320 134 12 43
441 453 275 124 13 42
441 753 261 76 56 45
396 412 226 94 79 64
377 408 292 66 56 45
281 158 246 110 86 54
396 412 221 94 79 65
360 483 405 120 17 42
269 881 244 129 101 70
280 148 256 106 83 57
311 402 211 100 85 70
285 493 281 49 23 27
331 193 222 124 98 66
367 353 282 117 93 64
356 313 281 121 87 56
281 153 256 107 84 58
261 163 236 129 99 62
395 827 204 59 51 49
376 228 241 118 94 67
351 420 142 61 49 47
292 757 305 86 67 60
450 673 336 181 124 96
375 931 317 94 76 68
301 400 197 105 90 74
279 502 159 130 10 29
349 483 396 33 29 30
261 168 236 131 100 62
364 173 227 115 94 71
292 343 302 123 87 65
301 338 246 81 68 55
369 405 211 94 80 65
269 689 157 97 77 55
386 738 311 57 40 26
506 878 256 101 84 68
310 388 232 83 69 51
377 538 321 43 27 30
271 163 237 126 96 60
331 622 329 178 13 56
441 652 337 120 93 67
329 162 224 114 89 58
336 383 231 92 79 66
259 374 298 144 103 83
286 313 250 83 71 59
346 389 213 93 80 66
271 168 237 127 97 61
340 398 216 95 80 66
269 678 293 161 1 50
266 173 237 129 98 61
417 763 250 75 57 48
331 388 231 90 76 62
322 398 241 92 79 67
405 442 309 145 15 45
371 693 361 199 135 106
448 439 272 91 21 36
271 173 237 128 98 61
279 180 274 116 93 67
510 887 232 107 88 71
291 398 290 90 69 49
261 188 237 129 98 62
419 526 212 45 32 36
420 493 172 54 33 37
266 183 237 129 99 61
336 258 222 127 99 66
301 413 291 66 51 33
271 178 238 128 98 62
353 812 162 86 66 54
282 505 288 104 4 33
238 732 163 188 124 92
328 874 157 106 87 75
320 871 187 39 35 35
426 658 321 107 77 28
271 183 238 126 97 61
285 573 292 61 26 32
342 178 259 112 90 66
380 453 395 171 0 55
266 188 237 127 98 61
271 193 237 123 96 63
278 524 273 76 20 28
401 917 291 89 75 67
338 236 218 133 103 65
252 918 281 131 97 82
294 248 255 107 83 54
276 163 241 119 90 51
267 534 272 102 3 31
331 613 335 99 22 40
432 498 271 54 28 32
274 168 238 126 97 59
371 513 361 88 1 31
341 528 160 168 2 37
277 168 240 123 93 55
370 749 193 61 49 43
334 556 303 37 25 25
288 202 251 109 85 57
368 798 205 79 61 59
255 664 156 100 80 56
393 737 278 88 63 51
294 263 261 100 80 55
326 648 319 148 11 48
439 728 306 159 108 77
312 393 251 62 52 42
276 173 240 122 93 57
280 278 248 119 88 57
258 78 264 113 14 39
341 706 352 124 66 60
384 477 364 95 2 33
279 168 243 117 90 53
283 163 251 108 86 60
297 288 266 89 74 58
283 167 255 106 84 59
318 10 290 125 47 54
244 768 216 171 122 93
448 698 321 169 111 82
399 486 334 142 15 41
318 743 176 57 45 37
283 171 249 108 85 58
441 863 265 98 79 68
367 362 287 115 91 62
326 233 241 111 90 67
381 419 161 92 75 57
340 858 271 131 95 73
441 649 331 114 91 65
440 456 258 77 23 29
284 170 252 107 85 60
395 578 291 167 2 53
338 634 219 58 26 30
323 289 251 85 73 62
263 545 268 112 5 35
275 386 219 98 86 74
284 168 256 106 84 59
269 482 273 36 25 28
274 183 238 120 92 57
403 704 321 115 80 66
411 410 312 121 15 38
277 183 240 117 90 56
274 188 238 119 93 60
358 152 225 109 90 68
281 933 206 70 63 65
421 518 221 132 15 40
463 852 292 87 68 50
376 293 251 121 94 60
278 193 239 115 90 58
356 413 166 92 76 59
318 580 179 191 8 38
279 178 243 118 90 54
280 183 242 114 88 54
282 178 245 113 87 53
389 607 251 64 31 36
391 448 371 82 6 27
381 423 297 67 54 40
284 178 248 110 86 56
294 712 385 136 97 82
413 738 276 70 44 40
243 715 232 76 28 38
286 183 251 109 87 61
287 183 256 107 85 60
282 193 246 109 85 53
375 338 266 127 100 67
421 428 231 78 22 34
394 582 227 167 18 48
343 353 228 83 74 65
327 228 231 114 90 63
276 509 267 76 24 33
271 763 277 81 65 59
287 188 256 109 87 61
358 534 169 172 3 37
300 409 286 63 48 31
261 203 237 124 97 63
377 528 336 53 23 30
261 128 270 111 91 69
277 548 168 153 6 36
314 961 314 65 60 59
271 208 237 122 96 63
346 793 191 50 46 47
258 219 238 129 98 61
366 728 201 68 51 46
261 218 238 127 97 61
431 876 313 76 60 47
428 464 159 56 33 38
271 213 236 124 97 64
382 358 256 117 93 65
203 674 177 115 90 61
391 453 146 111 20 37
346 138 252 115 92 66
366 863 191 52 44 46
266 218 237 124 96 61
314 721 367 175 115 88
406 558 286 165 9 52
271 218 236 124 97 63
346 348 292 131 96 66
379 556 334 183 11 59
356 888 206 59 54 56
281 203 241 117 90 56
227 708 180 107 57 51
282 197 245 112 86 52
331 513 292 34 27 28
288 198 251 109 87 60
262 952 295 179 134 116
266 208 287 118 95 71
278 213 239 122 94 60
381 868 275 40 35 34
275 218 238 123 95 62
252 603 261 80 30 40
250 529 258 51 22 26
426 443 301 160 6 51
281 218 241 117 90 57
368 208 252 117 95 70
439 673 349 156 107 78
245 523 251 66 25 32
324 452 118 161 2 38
266 148 274 115 92 68
278 223 239 121 93 60
250 938 271 189 144 123
391 907 321 59 48 41
281 223 241 117 90 56
370 493 390 68 29 35
287 213 245 113 86 52
304 945 209 92 88 90
292 233 271 115 90 61
287 218 245 112 85 52
284 223 243 113 86 51
259 928 245 137 109 85
306 898 181 78 69 69
291 483 141 96 26 37
286 223 245 111 84 51
422 860 298 77 60 49
333 428 129 114 12 35
280 529 159 59 32 38
261 233 239 128 96 59
392 825 296 123 77 56
289 472 149 43 26 30
341 293 281 109 85 60
261 238 240 129 97 58
326 873 161 99 82 69
406 463 326 34 27 29
329 258 235 108 86 59
266 228 237 127 97 61
238 747 168 173 115 82
419 781 284 68 52 41
419 745 254 87 63 50
299 897 221 58 52 50
271 228 238 126 96 61
285 753 296 86 69 62
412 548 261 45 29 34
418 825 261 64 52 43
266 238 238 127 96 58
365 918 241 66 57 58
339 888 193 66 61 61
335 443 131 129 0 32
424 491 173 45 34 35
271 238 238 125 95 59
378 393 230 97 83 69
422 528 276 147 13 43
394 582 290 167 5 52
263 240 238 130 97 59
387 903 270 78 67 69
390 827 291 111 70 53
386 874 236 59 53 52
235 704 190 109 76 59
261 253 240 134 97 62
366 478 312 61 20 29
266 253 239 131 96 60
306 953 216 92 87 89
275 228 238 124 95 59
300 611 193 152 4 33
401 416 196 69 56 45
278 228 239 122 94 59
277 233 239 120 92 58
309 416 149 97 81 65
273 239 239 123 93 57
311 413 281 63 47 30
327 163 236 104 83 60
276 238 240 120 92 57
336 713 190 57 45 43
348 29 263 134 105 87
284 228 243 112 85 52
238 774 189 154 114 84
370 853 207 61 57 58
286 233 245 109 83 51
336 653 221 79 26 29
311 443 302 88 13 32
329 148 226 114 88 59
436 669 313 110 87 58
283 234 244 112 85 53
351 168 257 116 94 70
311 968 311 74 67 64
314 415 284 63 48 33
378 625 287 130 35 47
426 732 262 62 47 35
322 383 236 101 84 67
283 238 244 111 85 53
306 438 305 78 17 30
264 478 174 97 31 36
286 238 246 108 82 50
274 243 238 123 94 58
347 630 323 180 1 56
266 263 241 133 97 63
266 113 271 115 92 69
180 717 236 130 108 87
280 243 242 114 88 55
283 243 244 110 84 52
286 243 246 107 81 51
351 747 181 58 46 45
431 748 265 67 50 36
262 383 228 98 85 71
322 632 324 83 31 38
442 718 326 187 126 98
407 563 236 140 30 49
438 894 292 92 76 64
288 202 254 108 87 61
328 173 245 106 84 61
248 894 261 153 115 91
330 582 312 36 25 26
291 213 256 104 83 58
421 693 347 203 131 103
289 218 248 108 83 51
368 196 243 115 93 68
287 303 301 118 87 60
292 223 256 104 81 55
311 753 327 81 35 45
162 749 242 108 88 66
377 233 236 119 95 67
290 228 247 106 82 51
292 228 251 106 82 52
396 838 275 44 37 34
398 483 351 173 6 54
337 218 218 130 100 64
267 826 197 200 131 97
292 228 256 104 81 54
242 738 231 144 13 46
289 223 274 119 94 65
370 903 241 68 62 63
257 728 206 115 36 41
293 238 256 103 81 54
274 752 158 146 100 63
378 554 337 98 24 42
289 243 248 108 83 52
295 273 256 102 79 53
434 482 263 131 6 31
336 313 286 113 84 60
294 243 255 107 82 53
399 463 343 92 19 37
291 253 251 105 81 52
402 847 236 59 52 53
419 668 320 90 67 39
336 138 217 131 100 62
396 447 311 108 31 40
252 753 158 163 108 71
337 143 217 131 101 65
282 688 304 98 26 40
250 623 251 143 20 47
326 188 231 110 88 62
464 842 298 84 64 47
332 158 221 120 93 59
343 430 139 162 0 38
381 453 377 72 15 33
278 118 261 117 88 63
291 223 266 114 90 61
337 153 217 133 102 63
343 833 173 65 55 50
270 809 237 71 59 55
333 484 144 126 24 35
320 411 226 89 77 66
352 539 361 31 28 28
334 158 219 128 98 61
361 670 231 60 42 43
342 131 213 137 100 62
341 138 214 136 102 62
350 133 217 117 93 64
368 191 229 118 97 72
323 289 248 85 73 61
316 714 376 188 125 97
224 690 149 163 94 64
352 133 221 108 88 66
302 884 226 53 48 47
417 533 221 71 31 39
346 138 214 130 98 60
306 363 276 110 75 59
433 689 236 86 60 44
268 385 223 94 83 71
252 678 266 41 28 32
346 143 214 129 98 60
351 143 217 123 97 65
341 158 216 133 101 63
390 665 354 121 94 65
346 148 215 129 98 60
351 153 216 127 97 60
244 526 253 45 25 31
339 244 219 133 103 66
260 697 288 126 2 39
406 473 316 118 14 39
347 228 269 119 96 71
346 158 215 128 97 60
363 167 238 114 93 68
221 703 186 155 100 78
371 508 310 32 28 28
232 518 240 139 10 47
269 593 283 144 1 44
378 687 277 44 29 32
321 303 251 86 76 65
351 158 216 127 97 60
338 158 254 107 84 60
286 13 311 131 43 55
328 132 239 116 88 66
329 138 226 118 91 61
321 421 116 80 65 49
329 143 226 116 90 60
326 268 251 97 82 65
329 142 231 111 87 60
366 415 161 92 76 58
329 138 236 113 88 62
247 528 186 149 4 36
329 293 234 94 80 66
201 728 231 119 77 61
370 837 151 134 102 80
329 138 241 109 84 60
296 298 261 103 84 64
281 453 281 38 26 27
329 143 236 110 86 61
385 728 205 65 51 42
336 133 251 111 87 61
431 749 254 97 71 56
311 19 286 160 108 97
224 695 155 157 78 56
321 373 276 110 72 58
283 252 288 121 96 67
331 138 246 108 82 60
303 700 329 120 2 35
436 433 266 97 25 32
291 878 237 130 104 77
328 158 227 111 87 58
344 758 181 53 45 42
276 538 272 58 24 31
286 618 317 36 28 31
353 850 263 47 33 28
368 253 263 124 97 65
330 420 127 97 59 49
327 158 231 109 87 60
351 513 157 82 31 37
361 599 210 99 33 42
326 10 281 151 85 97
296 412 171 102 87 71
408 695 328 141 92 81
421 661 348 122 95 62
328 154 235 106 85 60
366 453 310 97 13 30
330 153 225 113 88 57
328 149 228 112 88 60
324 307 239 81 71 60
216 693 161 203 131 102
355 483 390 29 28 28
491 874 276 102 84 67
356 943 246 78 69 68
287 273 291 120 94 65
329 146 233 108 85 60
287 537 158 165 10 43
328 148 234 106 84 60
294 494 140 45 29 35
314 410 275 74 54 39
329 152 237 108 86 62
296 32 285 135 95 82
484 831 257 96 81 70
351 508 400 151 10 48
286 23 301 144 99 78
336 698 201 62 47 41
329 153 241 105 83 60
203 693 192 162 113 81
328 159 239 105 84 61
336 404 191 92 78 65
301 729 361 174 113 96
428 463 206 154 4 45
360 168 222 111 91 67
270 396 214 100 87 73
290 826 193 74 61 57
334 146 248 108 85 61
254 576 258 35 32 33
387 483 326 77 21 34
333 154 249 105 82 58
331 158 246 104 82 59
338 538 381 46 26 33
340 843 175 53 46 45
335 158 252 101 78 57
329 169 224 113 89 59
258 129 269 111 92 72
291 358 300 128 92 73
341 133 252 113 91 65
310 451 299 107 12 35
346 133 251 113 91 66
439 688 241 107 76 57
350 138 250 113 90 65
316 603 192 183 6 40
351 143 251 113 91 65
339 152 253 106 83 58
308 955 219 92 87 90
267 42 279 110 88 69
240 568 201 167 9 46
341 158 255 111 89 65
386 706 234 51 36 33
296 934 186 90 76 71
281 923 309 161 130 108
348 146 253 113 91 66
346 153 256 114 92 66
398 846 230 59 50 51
349 149 254 114 92 68
255 678 220 79 43 41
266 513 267 102 12 34
327 318 237 81 71 60
429 486 191 170 12 47
352 153 252 114 92 67
273 966 238 85 80 81
430 423 290 120 19 43
262 328 310 140 96 78
351 158 255 113 90 65
371 213 226 115 93 68
350 552 379 185 9 58
281 518 276 97 7 31
402 429 371 91 8 28
336 193 257 109 87 62
377 793 329 177 135 107
331 163 221 120 93 59
314 799 175 49 43 42
248 738 218 102 62 53
266 738 292 148 15 52
331 168 221 120 93 59
369 343 233 97 83 69
231 644 156 105 88 71
409 542 202 196 17 48
420 438 247 46 29 30
287 258 250 107 82 52
440 429 181 115 25 39
346 563 177 61 32 36
328 166 223 114 90 60
402 833 241 57 50 50
334 162 219 128 98 60
371 718 206 64 48 40
290 408 289 88 67 47
331 173 221 121 94 60
438 429 255 105 18 34
387 910 329 45 39 37
341 373 225 97 84 70
334 173 219 130 100 63
337 173 218 131 100 63
410 881 280 61 51 46
328 188 223 121 95 66
311 548 156 186 8 38
375 492 385 77 29 37
341 173 216 130 100 62
355 794 179 52 43 42
321 398 246 78 67 59
272 678 295 160 0 50
394 772 333 176 127 99
351 168 216 128 99 62
316 737 339 72 22 36
240 703 251 101 24 40
316 538 291 43 23 27
351 173 216 129 100 62
417 508 251 154 5 42
341 178 216 132 101 63
426 435 147 114 14 26
286 976 299 58 54 54
401 432 292 112 43 45
338 183 218 132 102 64
371 406 211 94 80 65
321 420 121 87 66 43
336 410 172 90 76 60
271 323 315 145 99 82
341 183 217 132 101 63
400 887 286 52 44 42
336 508 296 54 28 31
502 889 251 93 79 67
291 25 297 125 70 62
337 189 218 125 98 64
334 253 263 112 89 65
337 193 218 121 96 65
295 43 266 113 42 50
350 612 212 118 25 39
346 183 216 130 100 62
419 463 241 87 26 36
351 183 216 129 100 62
266 553 266 141 1 41
237 598 232 70 28 32
346 188 216 127 99 63
331 59 257 119 86 66
429 761 298 146 104 74
376 713 205 63 48 39
428 424 292 124 21 46
351 193 216 124 97 64
388 711 226 58 43 39
328 168 241 106 84 61
374 268 255 126 95 62
238 768 184 155 113 83
293 478 136 46 32 34
327 173 241 105 84 61
341 28 276 144 15 55
328 164 240 105 84 60
315 914 299 115 89 72
329 167 242 106 84 61
290 330 248 84 73 62
414 424 371 162 20 56
372 584 205 191 13 47
330 168 246 106 84 61
446 418 286 116 17 42
181 732 232 192 129 106
311 934 200 98 89 91
328 170 244 105 83 61
367 848 204 55 51 54
337 173 255 109 87 62
384 902 283 58 49 42
376 273 251 125 96 61
327 183 226 113 90 63
305 818 277 188 136 117
326 183 231 108 86 61
336 878 171 74 65 62
326 178 236 104 84 62
326 183 241 104 83 61
325 188 241 102 82 59
390 602 242 61 29 35
259 497 174 83 23 30
292 701 199 87 22 28
399 572 289 169 0 54
262 333 247 100 85 69
325 193 241 103 84 62
209 678 165 133 97 61
386 731 214 64 50 44
386 388 246 97 81 63
364 188 222 114 92 66
386 473 157 155 7 38
286 866 292 115 90 62
329 183 224 118 93 63
332 178 251 107 85 61
301 613 195 170 5 38
271 723 401 134 100 86
314 787 174 48 42 42
334 178 253 107 85 62
232 563 221 70 29 33
301 593 305 121 1 37
336 178 255 108 86 62
206 713 201 204 131 103
336 183 256 108 86 63
382 464 314 89 16 33
276 323 245 88 76 63
274 709 175 88 68 56
331 188 251 106 84 61
234 681 138 146 103 66
330 193 251 107 84 61
316 548 295 79 19 32
333 188 254 105 83 59
338 163 254 107 85 61
355 143 221 108 89 68
336 580 363 63 25 34
356 148 221 109 89 67
385 689 250 74 62 55
392 473 372 172 2 55
389 463 325 76 14 31
321 328 266 82 65 47
306 833 277 165 127 107
323 324 238 72 63 54
338 198 259 110 88 63
310 883 181 50 44 44
354 148 218 116 93 65
354 153 218 121 96 64
356 473 310 56 24 29
368 233 220 125 96 62
414 797 320 185 121 94
234 542 242 99 30 43
418 478 241 56 25 30
355 133 226 111 91 70
421 417 206 63 22 30
357 138 231 114 93 71
368 188 236 117 95 71
266 693 152 130 98 62
342 689 353 91 59 42
276 378 302 143 102 83
358 143 231 113 93 70
357 138 241 111 91 68
354 130 244 110 89 66
291 388 216 105 90 76
352 604 209 139 24 44
391 413 206 95 80 64
268 691 168 83 67 52
356 143 246 114 92 68
411 667 334 108 77 43
298 35 272 119 26 46
520 886 238 82 65 60
353 142 248 113 91 67
326 388 231 91 76 63
358 146 229 114 94 72
359 149 228 115 95 72
426 488 282 47 26 31
292 458 136 80 19 36
359 153 226 112 92 70
367 468 402 88 20 35
366 406 201 92 78 63
342 964 246 81 75 76
360 153 231 115 94 72
359 145 236 111 90 66
361 158 231 117 96 74
354 395 208 94 79 64
259 54 267 111 50 54
256 688 180 79 62 48
358 147 242 113 92 69
358 153 247 115 93 68
171 773 253 157 110 100
443 714 310 164 113 85
291 396 205 104 89 74
416 458 147 175 10 37
359 150 244 112 90 64
281 578 291 64 26 33
244 748 224 150 114 86
358 157 248 115 92 67
322 303 241 81 69 58
371 328 236 105 85 62
353 157 253 112 90 66
249 712 220 120 24 45
356 168 217 127 99 63
335 478 297 102 11 36
325 809 180 57 46 40
358 167 219 119 95 66
356 173 217 128 100 63
296 415 161 113 62 47
371 573 196 146 21 42
341 533 386 98 12 35
362 698 318 132 19 42
359 175 218 127 100 67
308 590 318 52 21 25
356 178 217 130 101 63
351 789 323 99 71 62
318 488 130 102 34 43
422 876 284 68 54 44
370 198 241 117 94 69
356 183 217 130 100 61
248 694 144 146 99 66
356 188 217 130 99 60
296 903 306 164 119 95
277 404 197 103 89 74
361 168 246 116 94 69
259 22 260 89 59 47
360 687 198 65 47 37
294 268 266 100 80 56
296 708 196 85 20 29
356 663 236 50 37 40
360 193 217 128 100 65
362 183 220 117 93 64
364 183 223 112 91 66
362 188 220 122 96 65
363 163 231 119 97 74
399 518 320 97 25 40
364 168 231 120 99 75
363 163 236 114 93 69
363 168 241 114 92 67
364 165 233 120 98 75
410 845 254 77 66 59
266 133 272 115 92 67
366 533 172 170 2 36
364 165 235 116 95 71
306 537 148 189 7 35
364 168 236 117 96 72
266 11 276 88 47 46
399 581 280 170 6 52
278 865 258 109 85 55
372 203 236 118 95 70
363 172 225 112 92 69
281 503 157 128 11 29
364 170 228 116 95 72
358 791 194 56 52 51
326 878 161 95 80 73
365 173 236 117 96 71
364 173 241 114 92 68
357 163 252 115 93 69
343 25 278 136 7 48
355 164 254 115 93 69
256 798 170 187 126 93
355 168 255 115 93 68
421 513 201 173 11 46
234 710 154 178 116 84
386 458 371 49 19 29
296 942 207 89 83 85
384 498 341 98 10 35
361 163 246 116 94 69
331 703 336 87 22 33
346 808 311 77 63 59
357 168 252 115 93 69
311 463 115 95 27 38
356 173 255 115 93 68
241 718 151 179 117 82
300 482 290 81 10 28
296 403 287 69 54 35
406 908 285 68 58 54
373 286 258 124 96 63
360 173 251 116 94 70
358 172 253 115 93 69
375 410 197 94 79 63
393 504 337 96 17 38
353 346 288 118 91 58
363 172 242 112 91 67
256 633 215 86 28 37
361 453 411 159 7 50
397 793 219 75 59 51
286 347 240 94 82 69
364 175 244 114 92 69
436 713 336 190 122 94
274 138 269 121 95 65
365 178 226 115 93 69
366 178 231 120 98 75
373 672 256 53 30 28
332 11 276 148 96 106
367 188 226 114 93 69
286 353 236 95 82 69
342 276 223 120 94 65
356 178 256 116 94 69
306 965 224 95 90 95
361 178 251 117 95 71
422 443 250 80 27 32
349 15 266 97 38 43
360 183 255 116 94 69
376 473 313 88 9 30
363 177 247 118 96 72
364 178 245 115 94 71
384 410 208 97 81 64
231 654 175 84 70 56
360 400 207 91 77 64
247 732 153 181 116 83
362 183 252 119 96 71
364 184 250 118 95 71
368 192 242 116 94 69
367 822 158 95 76 66
372 695 358 198 131 105
361 188 256 117 95 70
299 10 301 129 58 67
290 835 210 63 53 54
423 493 217 61 25 33
363 187 253 119 96 70
361 193 256 118 96 70
366 758 326 162 117 88
365 188 251 117 94 69
356 243 215 132 100 59
286 710 399 116 88 71
365 193 251 116 94 69
305 697 199 37 30 34
369 189 232 118 96 72
257 622 207 56 35 35
369 189 235 118 96 71
258 816 214 181 137 110
355 582 193 189 9 42
410 887 271 108 94 93
368 191 238 117 95 71
335 203 219 126 100 67
392 578 296 164 4 52
363 348 229 92 81 69
233 732 168 194 131 98
361 668 311 47 27 29
334 250 224 125 98 65
311 471 118 154 21 49
287 753 301 87 69 62
337 203 218 125 99 66
384 586 309 158 5 48
334 208 219 128 101 68
386 911 278 65 58 57
335 213 219 129 100 66
186 768 241 150 93 71
249 672 239 57 29 35
346 208 214 126 99 66
293 459 299 63 24 30
341 213 215 131 101 65
510 885 217 105 84 68
389 699 251 58 32 32
421 443 305 157 0 50
332 488 144 112 26 37
341 223 216 133 101 63
274 30 288 127 38 50
325 308 276 87 66 47
265 741 394 106 69 50
346 213 214 128 99 62
420 473 296 166 9 52
346 768 330 57 50 47
351 213 214 126 98 63
429 752 325 190 125 94
378 253 236 123 96 62
337 294 279 105 81 58
346 218 214 130 99 61
323 868 196 45 42 43
351 218 214 128 98 61
366 671 241 59 41 41
351 223 214 129 98 59
403 448 333 81 21 31
330 833 184 62 51 46
376 428 141 106 36 41
326 198 231 113 90 63
320 363 241 69 61 52
340 420 137 126 44 31
326 203 231 114 91 65
237 646 162 94 78 62
331 633 215 93 26 34
324 208 236 111 90 67
329 199 224 124 99 70
340 538 387 87 18 35
361 468 156 159 0 33
237 753 186 159 111 82
327 198 246 105 84 61
434 719 258 82 64 50
240 713 241 63 31 39
327 638 214 107 22 34
333 198 254 107 85 62
246 628 226 113 22 39
331 12 261 107 70 67
356 923 231 60 53 55
417 783 276 59 46 38
424 451 148 179 14 43
332 208 255 109 87 63
335 198 257 108 86 62
276 368 228 97 86 74
360 203 260 119 96 70
325 213 241 111 91 70
331 405 191 91 78 64
425 763 325 190 127 98
398 480 357 178 8 55
327 223 231 114 90 63
327 443 116 153 0 36
249 891 264 136 107 81
326 223 236 110 87 61
376 416 171 93 76 58
374 846 208 60 54 56
325 223 241 111 91 69
181 758 238 145 94 68
326 213 246 100 80 58
315 677 323 123 4 38
295 10 310 129 35 52
321 32 270 128 26 51
219 652 161 116 94 72
311 678 322 124 5 39
412 748 272 55 41 34
328 213 249 106 85 63
327 223 251 104 83 60
330 218 252 110 87 65
266 450 283 44 29 31
332 218 256 111 88 65
354 474 308 39 28 26
262 170 279 113 93 70
434 446 289 149 22 60
175 742 239 160 109 87
153 755 246 114 96 79
335 228 220 128 100 66
259 171 278 111 91 69
336 238 220 130 101 65
367 817 320 190 143 119
395 588 236 48 34 38
266 468 175 120 18 31
311 438 105 134 7 37
218 654 157 117 95 71
368 303 268 125 97 63
333 243 223 125 97 64
434 736 329 193 126 101
361 838 181 59 55 57
419 498 251 153 7 41
336 243 221 129 101 66
341 233 216 134 102 63
391 723 273 58 30 34
337 228 218 133 103 66
393 583 292 167 8 52
399 420 280 70 59 49
351 685 369 152 115 88
351 228 214 130 99 60
341 324 289 122 88 64
366 423 140 120 40 36
431 422 191 57 29 29
351 238 214 131 100 60
261 388 227 99 85 71
340 253 219 131 102 66
233 586 212 146 21 52
373 610 229 58 32 35
346 523 306 119 4 36
346 243 216 133 101 63
346 248 216 132 101 64
266 753 389 136 92 80
311 823 200 60 47 43
346 587 355 109 34 46
351 253 217 131 100 62
445 683 340 176 119 91
327 233 231 113 90 62
266 262 298 122 98 71
341 410 173 91 76 60
282 713 315 36 29 32
232 528 236 99 27 41
333 310 284 107 81 58
277 334 313 139 92 74
326 228 236 110 88 62
240 788 191 173 127 98
253 952 276 198 147 124
383 500 335 98 17 37
288 196 263 109 86 60
292 627 314 49 26 30
399 508 325 104 17 39
327 238 231 113 88 60
335 403 292 124 89 68
306 576 173 82 33 44
326 238 236 109 87 61
267 583 182 157 4 37
301 501 279 35 25 27
330 233 226 119 94 64
306 758 182 54 43 44
389 736 313 56 36 24
328 233 228 116 92 63
351 888 277 37 35 35
284 10 268 80 67 57
450 678 317 162 117 90
245 628 231 65 29 34
325 233 246 109 89 66
326 233 251 102 81 59
326 238 246 109 89 66
328 233 254 108 86 65
440 878 315 79 60 46
311 713 360 157 102 85
447 448 266 64 30 34
343 525 386 44 26 28
326 243 241 110 89 66
320 363 246 67 58 49
328 253 236 106 84 58
387 478 320 83 15 31
266 358 236 98 86 74
358 308 278 122 90 58
327 243 251 98 79 57
274 292 248 126 95 64
243 733 231 100 20 38
419 473 241 53 27 33
321 398 261 94 65 51
328 243 254 103 82 60
336 943 220 68 61 63
242 568 197 145 2 35
376 418 156 92 75 57
291 693 203 89 19 28
433 494 271 92 26 37
293 382 224 105 90 75
326 253 251 106 87 66
330 243 257 107 86 64
358 904 215 57 52 54
381 518 307 43 25 30
409 861 248 67 57 57
311 513 136 151 11 37
356 198 215 123 97 65
361 198 217 125 98 66
336 393 220 93 79 65
344 571 329 45 24 26
360 498 380 36 25 29
355 262 218 128 98 61
356 208 215 120 96 66
361 203 217 122 97 66
304 918 304 113 88 70
427 443 211 145 6 42
261 18 261 95 67 59
363 198 219 125 98 64
505 883 256 93 78 66
369 318 269 126 99 65
366 198 221 117 94 67
285 178 261 110 87 60
365 891 227 62 57 58
363 204 219 123 98 68
401 883 256 70 61 59
315 44 263 105 11 36
329 460 293 113 8 36
366 208 221 118 95 67
351 238 271 121 98 71
361 437 143 66 31 36
406 803 226 65 53 48
356 213 215 123 97 64
361 213 217 123 97 65
336 968 241 83 76 79
356 218 214 126 97 61
271 738 402 169 119 107
321 918 196 80 72 73
361 218 216 126 99 64
314 697 333 112 3 32
361 223 215 128 99 62
293 488 138 92 24 39
360 308 275 121 90 57
364 219 218 124 98 65
367 218 220 121 96 65
323 333 238 74 64 55
367 223 220 122 96 65
381 897 301 33 31 32
410 848 242 63 54 53
369 205 223 112 90 65
420 657 336 102 78 47
309 496 128 160 0 33
367 589 205 191 15 46
393 580 293 166 5 53
206 688 212 95 78 61
369 208 223 113 91 67
415 828 266 67 52 41
419 745 283 71 42 38
306 358 251 75 62 50
369 218 222 117 93 66
431 429 267 87 32 33
370 223 222 117 94 65
368 198 225 114 92 67
368 198 246 115 94 69
176 768 256 170 117 111
377 808 155 81 65 53
261 212 288 114 93 70
284 785 278 82 65 59
362 198 257 119 95 69
254 740 283 112 18 42
364 194 254 119 96 71
176 742 259 179 129 120
280 754 292 85 67 62
257 248 294 119 95 70
416 538 246 76 30 39
366 198 251 117 95 70
254 697 214 58 35 37
281 483 280 45 26 28
311 563 166 159 19 41
348 575 363 48 28 33
365 198 255 117 95 69
373 743 205 68 52 42
352 544 357 42 25 27
366 208 256 119 96 69
292 58 266 108 42 49
266 398 216 100 87 74
323 855 203 44 42 46
278 722 309 115 35 50
366 213 256 120 97 71
370 378 227 89 78 67
380 753 197 67 53 45
301 414 161 99 84 66
323 896 288 148 120 98
369 388 223 93 80 67
368 662 302 37 28 27
423 520 269 49 34 34
369 194 227 117 95 70
200 678 196 112 91 69
283 369 303 140 99 81
406 518 296 118 21 42
414 730 269 48 40 34
