ply
format ascii 1.0
comment Created by Open3D
element vertex 2232
property double x
property double y
property double z
property uchar red
property uchar green
property uchar blue
end_header
274 383 249 101 89 76
281 702 330 135 3 40
275 456 191 97 80 63
279 381 252 101 88 76
449 801 312 73 57 44
340 400 227 95 36 30
282 377 254 101 89 76
283 656 227 40 35 38
284 381 253 102 89 77
376 715 318 118 15 40
259 441 192 92 78 64
398 466 348 104 6 29
361 885 215 76 63 53
263 447 188 110 92 72
352 919 335 66 60 58
268 332 278 93 80 67
349 926 322 65 58 57
265 446 192 84 69 58
267 501 208 67 20 32
374 461 394 111 16 39
258 407 198 93 38 36
390 456 317 60 25 33
388 461 327 137 11 38
314 926 242 88 81 81
259 403 203 73 36 44
488 786 311 92 72 51
259 406 207 111 10 39
278 716 329 38 30 32
257 410 194 82 31 38
341 432 214 84 37 38
258 416 197 104 31 37
340 371 348 121 96 67
274 946 272 76 72 74
375 436 189 130 22 27
299 655 180 109 80 46
259 416 208 86 21 34
383 736 297 80 22 32
261 416 201 88 34 40
265 411 207 80 37 35
399 841 383 73 58 45
263 403 211 88 36 47
261 406 211 120 6 39
261 410 210 126 6 40
329 880 314 71 57 45
314 851 312 95 72 52
261 414 210 92 20 35
363 914 201 104 87 76
369 541 371 98 20 40
402 401 294 121 13 36
359 581 226 142 9 37
310 439 215 61 38 36
375 691 312 131 14 44
374 400 237 65 39 38
387 466 274 137 7 36
403 868 391 78 62 49
267 407 209 81 42 43
355 851 208 128 118 112
282 721 206 103 27 38
265 406 217 115 21 40
268 407 222 85 38 38
267 411 212 78 34 31
352 914 385 64 60 58
300 912 376 54 50 50
265 411 217 93 17 34
382 776 302 56 44 38
268 416 212 118 23 33
267 313 315 67 54 39
227 542 342 180 123 95
274 941 342 54 50 48
383 526 257 90 20 35
269 411 222 79 30 32
271 398 234 101 90 79
352 433 394 60 31 35
367 621 257 61 26 33
261 388 249 101 88 74
383 421 409 162 19 52
376 873 342 38 35 35
398 511 357 71 21 32
259 395 246 99 86 71
259 397 243 93 82 70
269 896 332 125 104 85
258 400 241 91 38 39
294 556 192 60 29 33
306 855 249 156 123 94
264 396 242 102 89 75
277 350 333 119 87 60
262 399 240 96 68 42
266 393 244 105 91 77
288 616 212 95 43 46
256 408 239 104 22 36
380 847 369 52 43 36
378 876 287 64 57 58
259 411 237 91 18 31
284 561 178 131 101 67
339 741 377 167 118 85
262 410 235 81 21 33
261 412 234 72 26 30
384 416 227 80 31 22
260 416 233 67 27 31
266 406 228 103 21 40
266 411 228 87 13 36
369 911 197 107 93 85
265 416 227 54 27 33
274 401 232 102 89 76
387 844 374 57 47 38
272 398 234 102 90 79
275 399 235 108 94 80
330 893 370 37 34 34
327 732 173 130 101 71
388 441 206 166 14 53
344 921 362 60 53 57
279 401 232 102 87 73
385 741 292 98 20 36
284 396 237 108 94 80
275 636 257 167 3 49
289 396 237 109 94 78
319 581 374 111 25 43
274 392 243 107 93 79
279 390 246 105 92 78
319 482 204 79 30 29
299 361 286 83 72 61
309 751 158 141 103 64
274 395 241 108 93 79
261 476 219 116 0 41
449 766 282 88 70 55
260 501 222 136 2 38
381 883 311 61 54 52
284 390 247 107 93 78
393 403 202 128 20 20
299 716 166 114 86 52
284 385 250 102 89 77
284 393 243 107 93 78
263 522 212 139 10 43
279 406 230 77 40 30
337 331 322 121 98 72
309 816 282 151 114 89
272 408 229 79 38 32
412 417 389 122 15 40
465 801 323 87 69 54
279 411 229 56 34 34
285 406 228 40 35 38
273 430 384 58 21 28
373 457 394 144 17 48
289 402 228 62 42 35
396 526 337 75 21 33
393 451 352 102 7 25
344 811 367 162 108 80
289 406 226 44 37 39
290 506 200 100 17 29
288 410 225 39 36 36
264 271 307 72 60 47
260 421 201 99 25 32
494 839 328 89 85 83
388 721 213 57 45 38
257 566 257 163 10 48
346 731 367 157 115 83
259 421 208 70 25 33
256 426 205 65 23 30
259 426 208 43 28 30
269 596 242 51 29 34
250 521 267 106 26 43
257 551 193 163 110 90
263 426 203 72 33 30
339 421 397 134 22 48
359 466 230 71 21 31
269 421 212 102 26 27
264 431 202 79 68 59
404 466 387 52 28 31
269 431 207 55 37 32
270 396 342 128 96 68
261 426 210 48 28 34
358 712 340 127 0 39
261 430 210 46 28 28
296 688 330 116 0 31
273 621 282 88 34 41
367 590 234 161 18 41
307 438 214 48 40 39
267 504 209 144 0 42
264 431 212 63 27 32
292 807 209 170 130 104
278 481 178 140 100 78
267 422 209 98 21 29
292 666 319 152 1 46
266 421 223 97 16 32
265 426 217 39 28 29
289 521 201 128 6 32
294 606 176 136 101 63
270 426 211 84 30 29
270 429 210 74 35 28
258 441 203 107 21 40
359 816 192 107 81 60
263 441 208 73 25 33
374 461 187 150 12 33
258 446 204 129 11 40
260 446 206 87 19 35
230 550 337 192 130 102
269 441 197 52 41 39
357 405 215 69 41 29
389 461 332 140 10 40
305 370 286 88 76 64
270 434 205 48 36 39
508 778 298 110 92 74
355 891 251 61 57 61
249 526 262 85 32 39
394 876 372 70 57 47
270 440 201 61 49 40
256 476 224 116 2 41
446 778 300 54 45 36
267 694 254 138 0 33
269 446 196 68 55 50
271 444 200 80 68 59
248 582 341 181 118 90
266 436 217 44 24 30
386 812 250 54 46 49
265 441 212 60 24 33
408 821 273 67 57 53
401 793 266 59 47 45
266 441 217 101 13 34
327 539 195 41 31 26
274 421 217 74 33 28
279 861 326 131 102 82
275 419 221 74 36 28
280 418 224 54 33 33
279 421 221 66 33 32
312 896 225 59 55 56
277 423 218 69 32 31
274 426 213 73 32 30
269 576 222 42 34 36
459 789 324 86 73 61
275 431 212 66 34 27
401 726 230 68 53 47
384 511 262 162 16 49
263 591 252 167 2 44
280 671 197 154 112 89
276 432 217 61 34 28
364 397 237 75 36 34
334 421 396 124 17 42
279 426 218 69 29 32
366 502 192 113 24 43
349 791 187 108 76 55
389 541 347 94 26 38
285 422 219 61 34 34
444 786 293 77 58 44
363 811 193 111 84 62
290 736 336 163 7 51
389 496 236 111 8 32
289 421 219 49 34 35
289 430 216 41 37 36
339 806 178 126 87 61
284 426 218 72 35 30
304 938 363 71 65 62
289 426 218 77 35 29
304 511 198 52 35 36
342 771 168 136 97 63
275 436 207 63 42 41
273 437 204 70 60 53
394 667 252 92 65 43
375 409 392 59 46 40
336 834 327 35 30 28
319 921 227 90 79 76
280 531 366 156 14 47
273 441 203 77 65 57
259 431 347 60 50 39
275 441 207 57 47 43
272 447 198 93 82 72
275 445 206 66 57 53
378 398 341 62 49 44
369 716 332 42 26 29
276 436 212 59 33 29
278 436 217 46 31 38
345 817 364 154 100 74
372 595 257 111 28 43
276 439 212 49 33 32
278 439 216 41 35 40
277 442 209 44 34 35
338 929 364 87 82 87
280 444 210 57 34 34
292 277 349 128 98 68
301 735 361 182 124 99
284 441 211 47 32 34
334 786 172 153 107 73
289 432 213 36 34 42
289 446 208 66 38 32
287 444 210 46 33 36
314 387 263 91 78 65
259 421 232 76 26 32
400 506 357 73 24 33
390 862 378 64 53 48
264 421 227 88 16 34
304 391 361 120 95 69
257 420 235 102 17 35
352 924 268 76 68 67
259 431 232 68 29 29
262 427 230 82 19 35
384 516 257 103 20 38
263 431 227 68 25 32
262 430 230 69 33 33
404 401 307 140 15 44
257 424 235 86 31 36
401 399 295 77 28 30
394 881 397 82 67 54
256 428 234 49 26 22
452 759 268 108 83 47
274 626 257 107 22 39
266 418 224 84 24 44
374 836 236 76 60 56
258 436 231 85 18 34
257 439 230 101 18 30
274 326 292 78 68 59
260 436 228 69 21 31
396 829 292 78 69 65
263 441 225 66 24 30
392 509 370 183 13 54
288 806 202 180 133 108
353 706 341 132 0 42
371 421 198 49 29 33
309 661 368 146 105 75
260 494 351 44 28 29
404 745 295 48 37 30
262 444 225 59 30 33
319 836 300 125 94 72
368 870 254 64 60 63
294 412 224 44 38 37
299 412 224 51 41 36
341 577 206 82 24 28
305 596 191 108 79 58
299 416 222 42 38 39
293 266 353 126 97 67
314 416 223 45 37 36
396 496 242 112 15 37
352 891 248 61 55 60
294 397 237 109 95 80
349 816 176 86 66 54
299 400 231 48 47 48
295 385 256 112 97 83
295 390 251 109 94 80
345 941 297 58 52 50
296 394 245 112 95 77
286 388 355 119 93 65
299 386 256 112 97 82
258 557 311 70 29 34
398 466 302 64 30 36
367 706 219 110 24 29
299 390 252 111 95 79
303 392 253 110 95 80
401 451 297 86 26 34
394 716 281 39 29 24
299 394 246 110 95 79
302 393 249 108 94 80
294 406 227 46 40 40
299 402 228 41 38 43
345 456 222 29 27 28
359 877 322 33 30 33
283 681 202 161 115 96
304 406 227 65 35 35
290 731 168 141 100 63
309 396 237 108 96 84
333 291 327 126 99 71
324 761 161 153 109 72
309 400 232 77 41 36
313 400 231 80 41 41
314 401 228 70 35 34
404 831 288 54 43 44
320 392 227 95 83 72
302 845 255 137 110 83
316 398 229 70 38 30
319 395 237 103 90 77
254 528 330 94 3 28
358 491 223 37 33 34
294 401 360 104 84 61
275 745 222 85 50 53
309 395 247 111 97 82
309 391 257 112 98 84
268 531 212 149 0 43
294 421 389 51 27 31
308 631 183 125 97 66
309 394 255 110 96 83
395 441 254 140 1 43
316 778 160 171 118 83
314 395 247 108 92 76
266 729 228 146 33 49
314 394 251 107 92 78
306 822 254 158 123 97
294 431 216 50 38 35
354 817 191 93 70 55
294 426 218 76 38 29
270 586 217 65 32 38
412 790 269 71 56 51
299 421 219 43 35 37
356 531 220 62 26 36
294 761 317 86 68 62
274 456 389 44 27 30
304 420 220 47 39 36
257 906 319 182 139 117
329 761 380 184 134 104
299 426 218 69 38 30
352 742 355 116 77 56
299 431 217 44 36 36
396 424 249 140 5 44
290 441 209 41 37 39
263 551 198 142 77 72
294 436 212 45 38 37
339 666 208 66 35 35
294 446 208 50 37 37
300 434 215 43 38 38
304 437 214 42 39 40
304 441 212 59 38 38
269 566 176 136 99 62
303 448 209 64 41 39
286 316 341 127 94 67
399 846 282 80 68 63
308 423 219 39 37 39
257 922 314 174 132 111
276 620 305 182 17 56
309 426 219 43 38 38
309 431 217 67 37 36
314 421 222 68 38 34
319 426 218 73 33 31
309 436 216 42 39 43
341 715 358 138 98 75
309 446 212 56 35 35
314 440 215 69 36 31
361 749 349 141 103 69
319 441 215 50 37 38
376 731 323 87 22 34
319 436 216 55 38 38
313 442 214 102 34 30
314 561 197 105 20 31
259 452 184 111 90 67
374 886 292 66 59 57
257 454 185 109 87 63
274 566 176 130 99 62
284 746 297 77 62 57
263 451 187 107 88 70
262 452 184 122 98 73
262 456 184 123 101 77
262 890 317 119 91 73
295 781 262 68 57 56
263 462 183 102 87 71
265 460 186 75 60 47
444 801 302 85 65 55
265 451 191 60 47 40
261 464 180 107 91 76
282 748 314 123 50 61
266 697 228 75 37 44
264 471 177 101 85 67
259 481 176 146 107 74
343 551 189 168 20 39
268 468 179 96 84 73
347 894 399 59 47 42
387 772 214 53 44 44
271 470 180 112 95 77
464 801 335 75 58 45
309 556 380 81 24 35
271 464 185 117 97 75
269 481 177 154 110 85
276 460 191 64 53 43
279 461 192 67 55 47
258 267 310 87 72 56
277 463 189 39 34 41
274 466 187 88 73 61
275 471 186 84 72 59
272 561 216 80 22 34
321 831 300 122 92 69
277 636 292 73 32 40
279 471 186 114 93 70
373 691 317 141 7 44
274 481 177 152 109 86
404 471 382 60 27 31
370 867 255 65 58 61
268 557 209 141 0 42
278 473 184 116 93 67
283 466 188 117 90 66
283 471 188 130 94 73
283 476 187 93 60 51
281 481 185 122 86 72
259 486 177 143 105 72
370 806 207 71 57 51
259 491 177 140 103 73
396 833 268 54 45 44
259 496 177 139 104 69
367 835 228 63 55 57
269 486 177 146 106 77
259 501 177 144 107 71
264 506 177 136 106 73
394 886 373 66 55 52
283 781 203 166 124 92
268 506 179 142 111 77
324 796 168 167 116 81
285 746 202 135 90 69
271 510 180 117 96 74
368 466 233 56 26 30
353 526 196 47 24 31
279 486 182 155 111 95
273 491 178 158 115 89
271 639 192 176 124 101
347 896 244 63 59 62
275 491 181 163 117 96
340 389 276 98 85 72
274 496 182 161 117 98
276 488 180 165 117 97
269 576 358 133 97 72
277 490 183 153 115 95
242 528 320 141 15 46
299 326 301 84 73 61
279 491 187 116 77 67
277 500 189 124 93 78
276 507 190 58 43 42
269 337 320 77 52 34
279 511 192 50 37 35
259 451 203 134 3 41
261 456 205 143 0 45
362 904 366 61 54 53
350 596 220 61 32 37
263 456 207 142 0 43
359 426 206 70 37 34
328 960 278 91 84 87
301 809 236 112 80 70
264 461 207 146 0 44
296 833 288 76 62 48
266 451 217 88 10 32
374 881 192 124 101 83
266 456 212 140 1 42
332 556 190 68 27 27
313 836 242 156 118 89
265 461 212 140 0 42
487 840 342 94 86 81
264 471 203 67 18 31
335 701 352 119 67 57
259 481 202 67 24 33
299 410 377 91 36 35
394 446 236 110 12 29
423 676 254 76 55 39
322 748 159 143 106 68
264 481 203 62 19 30
266 471 206 118 9 41
382 414 190 66 15 22
332 929 354 64 61 62
242 542 330 152 59 53
294 766 161 143 102 60
267 471 208 138 5 46
334 881 213 71 64 64
266 481 205 74 18 34
282 702 203 141 91 77
262 466 220 113 0 38
261 468 219 114 0 40
261 471 219 112 1 36
277 448 204 67 54 45
267 468 209 115 6 38
399 401 317 156 16 48
384 741 202 59 47 38
267 471 211 137 0 41
271 361 330 102 68 49
288 641 208 163 114 101
429 691 281 60 47 36
382 707 291 125 14 41
274 452 193 97 82 67
355 872 203 117 95 81
269 321 316 65 50 34
277 453 194 78 67 54
284 451 207 73 51 43
284 456 202 92 81 69
284 454 205 87 77 68
289 457 203 48 44 45
283 458 199 98 86 75
386 487 239 117 4 34
309 409 372 65 51 44
288 462 198 72 56 49
328 706 188 82 56 47
348 596 219 54 28 35
289 461 201 50 40 39
416 766 277 53 44 41
411 691 245 54 41 37
286 472 195 61 33 33
271 406 346 125 96 70
360 832 307 26 25 25
286 478 195 89 15 29
286 481 195 105 7 35
343 920 357 65 59 61
262 572 322 158 12 46
357 697 209 105 31 28
356 576 225 135 11 39
258 456 226 112 4 35
267 602 251 123 19 45
256 467 224 114 6 35
289 541 192 88 21 27
304 919 228 88 80 78
259 486 203 78 21 33
385 697 222 60 48 44
263 486 203 103 9 36
376 566 271 88 24 39
264 491 203 66 21 32
278 616 203 157 110 93
264 496 204 36 25 29
266 486 207 138 1 42
267 484 208 142 0 39
399 416 207 53 27 31
258 486 222 113 5 37
272 840 309 167 125 106
263 491 217 116 0 38
366 578 349 178 18 55
344 536 380 57 29 33
259 491 222 125 3 38
202 513 339 189 129 108
261 306 281 82 70 56
295 919 223 90 80 76
264 496 217 118 1 39
385 556 332 59 28 34
262 496 220 125 2 41
354 896 217 65 51 44
312 821 241 172 127 103
277 660 241 136 3 40
265 491 212 126 1 39
372 769 199 98 74 55
267 493 210 134 10 36
266 495 213 111 4 37
267 496 211 110 14 38
342 591 214 109 24 37
265 501 205 94 12 35
309 826 247 164 127 100
263 511 208 130 3 37
263 506 217 115 13 38
258 501 227 155 0 44
285 751 252 78 62 56
248 516 182 147 106 73
260 506 222 71 23 35
261 507 218 103 16 30
327 297 309 114 97 80
267 504 210 139 1 46
285 491 196 138 3 31
284 496 196 122 14 35
314 551 197 53 32 34
384 397 272 52 25 30
461 712 280 90 78 68
289 491 199 144 4 32
314 385 267 89 77 64
289 496 199 145 5 31
368 696 326 100 13 37
282 500 194 45 39 33
400 684 264 43 36 29
262 578 250 156 0 43
319 930 376 80 74 73
281 508 195 55 41 33
372 874 268 65 56 58
282 504 194 46 32 38
285 292 308 88 73 56
284 506 197 58 36 35
287 510 199 28 33 42
309 656 181 121 90 55
289 511 201 87 16 29
349 841 193 99 92 86
411 701 242 46 39 34
257 501 230 164 0 43
264 451 382 80 28 36
381 843 255 66 58 58
283 671 221 51 37 39
257 508 230 168 10 46
394 457 399 131 20 46
241 525 317 125 14 42
259 511 227 45 31 35
383 456 202 98 24 39
389 406 256 64 27 34
364 491 390 42 30 29
344 870 303 31 28 29
295 455 205 70 34 34
294 457 204 70 36 35
359 486 185 86 27 31
264 541 237 39 31 34
300 459 205 74 35 34
344 481 389 171 19 55
304 461 205 74 37 34
290 466 201 85 29 32
346 933 265 82 74 73
294 466 202 71 32 32
231 551 346 177 123 97
294 471 201 88 29 34
289 361 272 107 92 77
268 621 192 168 121 97
292 478 199 139 0 29
294 476 201 135 9 32
390 461 317 66 23 31
333 833 312 34 28 30
299 466 203 99 29 34
391 466 313 102 23 39
474 806 331 94 73 58
304 471 203 43 37 39
335 942 261 76 69 70
304 476 203 56 30 33
424 676 272 58 47 35
379 396 262 49 30 29
304 481 201 117 13 30
279 556 352 50 28 30
309 456 208 65 34 32
314 461 208 92 28 26
306 449 210 60 31 36
310 450 210 48 39 40
308 452 209 53 38 36
314 451 211 85 33 32
313 457 209 110 28 23
267 637 358 183 128 103
280 308 304 82 66 50
314 456 210 114 24 25
319 451 211 99 23 27
333 775 169 146 103 69
319 461 209 111 19 28
467 700 287 90 84 79
306 466 205 43 37 38
272 618 277 53 31 32
306 470 205 45 36 39
476 789 309 92 67 49
309 476 203 96 24 31
329 385 277 97 84 71
262 926 270 59 56 57
314 466 207 59 38 38
402 499 347 101 20 34
334 771 167 136 97 66
395 511 317 134 7 36
319 466 208 105 23 32
394 406 238 133 5 33
319 471 207 108 21 30
313 476 204 112 22 29
315 476 205 110 22 27
388 431 357 96 6 26
234 521 322 175 41 50
314 481 203 65 32 30
296 274 355 127 97 68
292 494 199 138 2 26
290 489 200 145 5 35
294 491 200 132 3 29
294 496 200 127 1 27
299 486 201 124 3 26
344 874 308 28 27 29
304 496 199 44 36 35
250 531 252 86 31 37
411 426 392 75 26 32
299 491 201 122 7 27
299 496 200 102 14 25
265 546 238 53 31 34
304 491 200 108 14 29
304 494 200 65 33 35
292 914 349 37 34 37
291 497 200 140 3 33
364 408 397 56 42 37
290 501 200 137 6 33
286 516 200 135 7 39
278 676 192 157 110 82
294 501 200 121 5 27
384 451 207 96 22 38
419 811 312 81 72 64
294 511 200 93 18 29
266 396 330 115 77 56
392 477 334 115 4 32
300 501 199 75 28 33
284 351 282 94 81 67
298 500 200 106 16 29
299 506 199 64 33 32
279 576 352 43 30 29
297 504 200 78 17 27
299 676 371 148 105 78
304 736 161 129 95 57
398 476 386 143 26 51
407 860 322 79 62 54
309 491 201 84 29 32
374 861 182 136 110 91
310 495 200 54 38 39
311 811 286 163 118 90
314 486 202 48 38 38
319 486 203 69 33 34
283 711 210 122 7 37
238 521 312 61 26 33
314 496 201 71 36 35
284 890 251 118 76 43
309 501 198 38 38 42
315 501 200 82 32 33
319 501 201 79 32 32
279 636 337 141 91 74
313 506 199 39 37 39
283 616 221 59 30 38
316 506 200 50 35 32
319 506 201 88 31 33
319 511 200 63 34 37
329 901 391 48 42 39
384 406 191 63 39 38
276 908 340 142 109 91
383 410 190 96 34 33
374 431 192 79 31 32
393 501 282 51 26 31
302 916 379 53 49 49
384 421 188 122 18 31
374 571 262 127 23 44
268 601 302 78 33 40
382 422 190 139 9 30
280 741 297 102 48 52
375 426 193 57 34 33
377 430 190 108 31 31
359 466 213 88 9 32
379 431 189 133 15 30
380 428 189 138 17 29
384 426 190 146 13 31
388 421 233 90 25 27
383 431 189 150 11 29
279 641 178 152 105 67
373 436 191 90 25 26
388 551 302 134 23 46
369 441 192 57 34 32
377 875 361 40 34 33
265 490 381 171 18 54
404 820 327 50 45 41
285 682 320 125 1 38
371 443 189 75 35 26
368 446 191 54 35 34
309 331 301 87 76 65
371 447 189 61 34 32
390 531 247 73 22 32
379 436 187 138 11 29
394 411 397 66 38 37
388 456 337 112 15 37
369 896 292 60 53 49
379 441 187 146 12 33
289 611 366 150 109 77
384 436 188 153 11 33
383 441 188 160 17 37
342 929 370 62 57 57
379 446 187 150 11 35
385 446 192 169 21 43
334 401 222 63 37 35
307 366 289 89 77 66
325 402 224 64 36 34
292 658 319 163 11 52
280 417 360 64 55 45
324 406 223 40 37 40
399 732 213 89 65 53
329 406 222 56 38 36
324 415 220 63 37 34
297 772 302 80 64 58
371 457 235 64 29 31
329 411 220 70 36 35
329 416 219 60 36 34
354 460 215 79 16 30
384 451 267 139 11 43
254 871 292 153 117 91
334 406 222 50 36 34
328 413 219 45 39 33
334 411 221 96 29 33
335 415 220 57 31 32
339 406 222 87 33 33
289 696 352 176 123 95
344 402 223 107 29 30
383 556 274 157 14 42
344 406 222 66 32 31
327 678 356 133 99 69
339 416 220 114 20 31
344 411 220 72 36 33
344 416 218 114 27 28
349 402 222 102 26 29
292 894 250 97 78 61
352 762 184 134 98 65
351 408 219 78 39 40
368 900 342 47 41 40
229 517 354 182 137 114
348 416 216 93 33 28
405 430 375 35 35 33
349 411 217 75 33 30
350 417 214 83 35 26
345 412 219 86 32 28
387 446 202 179 17 52
324 392 227 92 80 69
324 396 226 78 61 48
329 393 228 90 79 69
362 667 325 146 9 47
298 363 284 80 70 59
323 828 347 130 84 65
329 392 232 92 81 70
314 336 302 88 78 68
500 778 302 100 86 72
284 661 368 173 123 97
327 399 225 79 31 33
372 756 340 145 103 72
380 551 272 164 20 41
325 393 237 97 84 72
434 817 321 70 57 51
281 721 196 176 122 97
334 392 232 93 81 70
266 610 365 158 115 88
333 393 228 95 82 70
393 471 307 61 28 34
334 395 226 96 79 65
395 461 307 47 26 31
286 805 200 178 133 107
295 661 322 163 3 50
324 391 257 96 83 71
329 391 257 96 82 70
324 394 242 99 86 72
442 814 323 79 61 53
323 394 246 98 85 72
326 393 242 98 85 72
404 696 278 52 43 35
329 393 242 97 84 71
324 392 252 97 85 72
379 551 257 70 25 32
334 392 242 91 76 65
334 391 257 92 76 66
294 696 342 124 83 63
384 561 282 167 21 48
322 405 225 40 36 40
306 776 366 175 126 98
281 656 300 122 19 44
314 626 358 125 42 51
321 408 224 51 33 44
348 383 303 107 91 77
341 431 231 75 24 30
349 466 222 49 21 29
344 392 237 73 46 38
236 514 319 105 44 47
339 396 231 85 41 39
322 939 358 71 65 64
338 398 224 122 26 22
398 461 302 70 29 34
401 868 327 74 60 51
263 596 335 133 84 64
333 281 322 126 102 76
459 747 286 85 71 59
367 610 248 124 21 47
344 396 231 68 40 41
341 401 232 86 37 39
275 726 322 158 5 50
344 401 232 82 36 35
309 506 390 141 22 49
297 685 329 139 0 44
344 393 233 69 47 36
344 401 227 84 34 31
284 516 197 84 25 32
349 396 227 79 37 34
384 483 240 97 7 28
348 400 226 87 38 36
334 281 347 140 103 76
346 397 229 66 33 46
352 751 189 120 93 62
351 396 224 140 20 17
403 830 277 68 58 53
349 393 237 72 40 38
339 391 242 85 63 53
339 392 247 84 56 50
339 392 252 85 57 52
452 780 297 87 64 55
251 535 338 87 19 33
308 578 374 33 23 26
344 392 252 81 43 43
344 391 257 80 50 50
299 656 336 85 44 40
349 393 242 78 36 36
294 411 362 66 56 45
407 456 368 96 19 30
349 392 247 80 32 36
302 788 281 182 130 107
349 392 257 74 43 45
343 406 228 79 30 31
340 406 232 87 31 36
365 902 337 47 42 40
340 411 232 77 28 34
344 411 232 75 28 33
380 771 205 77 61 52
345 416 229 94 22 28
304 401 362 99 81 61
343 416 230 93 23 31
414 856 347 92 69 55
355 756 191 129 99 65
349 417 227 92 22 27
330 364 315 104 90 77
347 413 228 85 24 28
314 891 332 57 49 42
324 421 218 47 36 38
329 421 217 80 36 35
324 431 216 78 34 35
386 445 345 131 7 38
293 757 327 75 61 56
329 426 216 78 33 31
334 431 216 85 32 32
282 666 180 162 108 76
323 435 215 69 36 37
338 924 347 60 54 55
321 441 214 44 37 38
269 591 176 145 102 63
438 810 332 67 55 43
344 405 372 61 52 44
328 433 214 46 40 40
422 739 280 66 55 45
329 441 214 43 39 39
335 536 188 140 7 36
331 434 215 42 38 30
304 531 386 116 22 44
335 435 215 82 29 31
273 621 252 93 31 41
372 851 238 66 57 59
334 441 214 62 32 32
334 446 213 86 28 30
264 371 326 93 60 44
264 531 207 137 0 41
344 421 216 98 26 27
404 766 293 50 43 38
339 421 218 119 22 27
339 431 216 97 31 28
261 314 319 98 76 56
339 426 217 112 26 25
268 696 272 149 22 50
321 375 310 97 84 72
345 426 214 68 35 33
344 431 213 77 36 32
386 543 248 131 26 45
344 432 218 66 30 34
344 431 222 71 26 32
266 599 249 49 32 33
348 420 215 58 34 31
292 577 178 123 96 65
377 800 307 68 53 44
346 423 214 47 33 33
362 712 209 98 29 38
349 421 213 51 36 39
349 426 211 63 37 38
348 430 210 72 35 27
345 427 223 75 28 30
377 854 372 60 51 42
348 431 222 73 24 32
390 466 258 112 10 35
400 419 380 90 29 20
349 446 207 75 33 30
494 781 303 97 82 66
338 435 215 109 30 30
361 736 344 76 19 31
340 436 213 82 27 30
339 441 213 111 26 30
321 825 322 54 43 43
307 787 312 81 64 58
348 621 346 60 29 31
344 436 211 58 36 36
464 833 346 97 84 74
313 378 278 89 76 63
343 441 211 82 33 32
319 896 357 39 37 37
343 436 222 67 26 28
373 509 385 128 22 47
344 441 218 66 23 28
345 437 219 68 25 29
339 446 212 126 17 29
268 581 237 110 22 42
280 367 346 120 93 66
390 461 258 146 10 42
368 676 232 58 39 36
266 598 195 155 111 87
343 446 210 110 23 30
340 446 218 66 23 30
261 401 325 85 54 42
340 446 222 68 24 29
271 571 217 36 33 36
371 883 186 110 92 76
341 442 218 66 24 28
304 276 310 104 84 61
361 503 199 89 30 36
344 446 218 63 22 29
346 441 209 80 31 33
224 536 342 191 131 105
304 306 356 129 98 72
347 435 219 68 25 29
266 600 281 38 30 35
348 436 222 68 24 28
402 410 311 151 6 45
263 561 292 153 0 42
345 446 209 77 29 32
401 501 347 81 20 33
377 786 317 74 57 48
348 611 351 100 20 37
390 471 277 108 6 29
279 876 265 136 109 81
341 421 230 82 28 31
463 707 278 89 79 71
341 422 229 82 29 31
344 421 228 82 28 30
285 697 330 131 2 40
344 426 231 82 26 30
341 432 228 75 26 30
341 428 230 79 26 32
344 431 232 74 22 30
338 525 190 132 18 32
349 421 227 84 26 28
356 424 400 52 31 33
348 422 230 83 27 28
350 418 224 86 22 27
350 426 227 81 25 29
362 914 315 54 46 41
290 375 261 108 94 81
348 426 230 85 25 28
349 431 227 79 22 29
256 433 349 57 47 35
342 436 225 69 27 28
341 441 230 72 21 28
359 490 205 90 9 35
341 445 226 58 27 26
344 446 231 40 26 27
301 828 280 110 88 64
389 426 232 80 20 28
348 436 230 70 24 30
391 437 202 182 19 50
461 718 285 86 75 64
347 446 230 39 26 28
342 485 195 98 25 26
350 446 227 47 24 28
359 396 222 105 30 32
305 854 324 128 98 72
364 401 212 103 23 32
404 417 383 100 27 27
363 399 215 108 33 17
370 398 208 153 19 13
294 361 282 80 69 57
344 616 351 35 29 32
368 401 207 116 24 21
341 632 344 171 37 62
409 726 242 67 53 46
365 398 213 142 21 14
314 791 163 167 116 79
364 397 222 107 36 25
291 320 350 130 101 76
393 398 321 71 31 29
332 758 169 124 95 63
272 264 264 155 105 77
396 492 249 146 10 44
368 406 207 88 34 27
364 411 207 114 28 27
360 412 209 77 30 31
372 516 234 82 23 28
367 410 206 117 35 24
373 586 267 127 22 42
369 411 202 111 26 28
369 416 201 112 26 29
365 416 204 112 26 32
331 316 310 109 91 72
388 880 327 67 56 51
267 290 283 95 73 51
366 412 204 134 25 30
258 451 372 97 23 37
296 654 325 134 6 44
359 406 213 87 31 27
309 803 165 169 119 83
352 404 220 46 37 37
349 631 338 81 31 39
399 446 237 94 16 32
355 412 213 65 33 34
329 935 367 74 69 68
276 677 301 129 23 48
354 416 212 74 38 30
325 746 167 128 98 66
359 411 211 55 39 36
356 408 214 78 41 39
364 406 211 94 33 28
358 565 365 190 10 61
365 408 209 87 30 24
300 955 268 89 86 89
367 404 210 73 33 28
362 409 210 105 32 25
388 456 327 50 26 31
333 316 342 127 97 68
346 928 260 75 67 68
371 401 204 122 22 18
339 911 391 65 56 52
374 398 207 115 27 24
349 526 383 146 17 48
279 521 367 81 19 35
374 399 205 117 32 18
353 437 394 49 27 28
379 400 202 128 14 15
379 399 207 98 29 18
384 400 202 95 36 31
384 399 207 93 29 23
327 875 220 53 51 53
374 398 212 116 27 21
272 323 289 76 66 56
324 371 359 126 100 70
379 866 267 67 58 58
373 398 216 117 30 21
352 484 190 34 36 39
228 541 347 172 120 93
389 877 373 69 57 49
350 931 272 75 67 65
374 399 217 109 30 22
259 941 292 70 65 65
374 400 222 100 34 26
352 801 365 156 109 79
309 586 198 57 35 36
306 781 366 177 128 100
379 399 217 89 27 23
384 399 212 71 24 24
384 400 217 61 24 27
379 402 222 86 31 27
361 876 199 93 82 70
375 406 198 103 33 24
391 508 280 79 25 38
370 406 203 116 26 25
373 405 201 118 34 25
277 593 365 146 108 76
371 416 199 82 31 35
374 411 197 61 33 32
374 416 197 51 35 37
372 410 200 110 20 31
376 709 314 141 10 45
378 405 195 99 31 26
324 826 357 156 99 76
380 407 193 55 32 35
384 696 237 62 41 33
384 403 193 101 14 26
266 886 274 152 112 87
384 401 197 89 33 33
274 952 307 64 59 60
383 402 220 71 29 30
437 795 296 84 63 49
371 877 267 67 58 60
316 664 185 116 91 61
383 406 222 58 30 33
384 411 222 61 33 33
261 456 376 62 24 29
354 395 227 79 37 33
359 396 227 88 35 32
359 397 232 78 37 33
304 801 257 190 132 112
354 394 237 73 36 37
389 506 236 124 4 30
359 396 237 76 35 35
281 667 300 129 7 41
365 399 228 93 38 27
363 398 233 83 38 31
389 461 397 67 24 31
375 670 262 98 29 34
364 399 232 84 39 30
339 416 398 45 27 29
366 399 224 104 36 25
437 840 365 88 68 52
369 400 227 95 37 27
255 556 322 79 24 35
424 816 292 93 76 68
369 400 232 83 40 32
304 846 317 122 93 70
368 398 238 71 36 37
293 551 373 112 21 42
370 399 236 72 39 35
355 394 242 77 32 34
354 393 247 78 30 34
323 865 232 53 47 49
429 676 262 84 62 47
363 616 242 146 18 46
354 393 252 74 32 36
419 676 272 72 63 55
382 670 268 51 35 28
354 392 257 66 37 40
312 862 325 98 77 58
359 393 252 68 33 35
360 394 251 68 32 34
374 861 191 86 76 68
364 396 242 75 31 33
267 905 334 166 130 110
260 936 277 68 63 64
258 424 372 91 24 33
369 396 247 64 32 33
276 266 292 96 75 53
275 661 247 143 1 40
364 394 252 61 34 34
329 846 300 94 69 53
362 393 254 61 34 35
366 547 369 110 13 39
364 393 257 55 36 33
379 496 386 134 12 44
367 500 192 93 18 33
412 416 397 159 16 48
297 839 270 123 101 79
387 534 356 62 30 35
369 394 256 51 34 30
372 398 239 66 38 37
299 271 357 128 98 70
314 407 387 59 40 31
375 399 240 58 35 39
374 396 247 60 32 32
309 911 223 87 77 74
374 394 257 48 33 29
379 396 247 49 33 37
384 396 247 76 23 33
401 438 404 165 19 54
279 326 296 70 58 49
324 946 258 83 77 78
379 395 252 51 32 34
379 395 257 47 31 29
384 394 252 63 28 33
365 546 230 49 33 35
355 606 226 152 13 40
345 366 332 107 88 67
377 403 225 83 37 31
339 834 331 29 25 26
357 611 229 162 18 44
395 404 213 38 22 22
395 512 363 162 22 55
376 404 228 80 40 34
257 435 336 53 42 32
337 864 220 57 51 49
379 406 227 76 39 34
376 404 230 79 42 36
384 796 297 33 29 28
379 406 232 75 48 40
394 461 397 84 30 38
381 404 235 69 46 35
384 406 236 54 33 30
314 306 303 89 77 64
381 409 228 74 42 37
359 511 222 141 5 35
249 528 296 64 30 31
382 408 225 70 35 34
275 406 351 122 95 69
383 411 227 76 38 36
293 323 299 77 67 56
387 694 235 60 44 38
384 411 232 81 27 27
383 536 234 143 9 31
359 421 207 81 36 32
282 513 384 166 20 50
354 426 208 54 36 37
402 431 297 85 24 34
351 807 364 153 105 75
307 801 267 182 127 107
358 430 205 48 35 31
365 421 203 75 25 29
314 907 367 37 34 37
418 746 281 49 38 31
389 395 252 80 24 35
313 686 174 112 88 57
368 421 201 65 30 32
259 616 347 188 130 101
369 431 197 89 33 30
278 616 232 76 35 41
362 424 205 51 38 33
415 786 272 66 54 48
349 878 316 30 28 30
374 405 367 60 48 41
314 946 332 75 69 68
341 835 191 167 151 154
364 431 201 55 36 37
316 821 295 128 97 72
281 661 297 160 6 49
368 426 201 68 32 33
375 537 368 68 27 36
367 430 200 100 38 32
405 451 393 90 25 37
353 421 211 46 36 37
356 418 209 68 45 43
352 424 223 79 28 33
355 441 203 74 33 30
364 404 367 52 29 26
356 437 204 41 37 37
408 435 400 73 21 32
359 436 202 45 35 36
357 434 205 40 33 39
276 661 277 138 1 40
354 446 202 106 23 29
267 394 329 115 78 56
274 601 202 155 110 91
357 809 355 141 95 69
352 445 205 123 18 26
280 692 321 124 1 37
259 571 267 163 0 46
354 766 187 144 105 72
365 436 198 54 34 32
240 521 317 142 10 43
364 441 198 85 29 30
366 433 199 93 39 35
396 470 345 114 4 33
300 859 329 126 97 71
368 436 196 61 34 31
367 440 196 92 34 29
363 435 200 40 35 37
454 826 338 87 70 58
423 736 282 60 48 38
362 439 200 65 24 26
392 487 323 123 1 29
361 442 199 115 33 32
364 446 196 71 31 28
367 878 385 56 49 46
366 447 194 65 34 33
278 552 353 62 28 33
330 361 315 98 86 74
375 422 194 38 36 33
371 432 194 66 32 29
282 953 270 82 79 81
386 425 356 112 13 40
372 426 195 63 35 33
385 421 217 75 18 32
313 383 269 86 74 62
296 555 195 52 34 32
377 885 302 60 53 52
383 426 217 63 18 28
382 431 217 80 13 28
283 680 216 105 22 39
382 426 222 55 28 33
287 792 209 168 126 99
287 786 209 166 121 91
381 428 222 37 21 39
381 431 222 34 32 33
269 416 347 115 90 66
397 524 324 183 19 51
382 430 220 74 24 29
357 925 287 57 51 47
370 437 193 37 33 35
376 442 222 43 29 30
379 410 397 58 41 36
374 446 222 62 28 26
314 941 347 85 77 77
314 371 360 130 101 73
384 436 211 145 7 43
381 437 213 132 6 38
383 440 210 150 9 43
376 793 205 52 43 41
379 436 222 47 33 28
381 432 219 76 20 32
379 446 212 91 15 33
408 831 292 60 47 44
377 446 216 81 21 29
385 442 209 151 11 48
324 406 382 58 47 39
342 804 370 164 109 80
312 823 218 80 65 61
384 446 208 140 18 46
274 546 352 38 26 29
385 431 347 136 16 39
357 834 310 28 25 24
376 443 219 57 30 34
394 781 295 34 29 26
234 536 328 157 95 79
352 418 226 86 21 26
352 418 224 86 21 26
344 441 393 105 22 39
287 761 239 83 66 58
353 421 226 82 23 28
379 884 400 77 63 55
352 424 226 81 27 30
384 421 227 74 26 27
292 661 319 163 5 50
383 426 227 52 28 30
279 330 295 70 58 49
274 846 316 130 52 68
381 432 226 38 32 30
383 431 228 52 30 23
379 506 239 72 18 28
374 446 227 52 31 29
374 446 232 52 33 27
344 621 217 84 23 36
375 446 237 65 27 27
377 440 227 50 37 30
334 791 376 181 127 99
378 440 232 41 30 30
348 919 346 59 51 52
382 434 229 67 36 37
379 441 237 80 23 29
358 736 197 109 26 36
384 440 238 77 22 34
299 466 393 40 26 30
376 443 235 65 38 34
384 446 242 58 27 31
381 447 245 44 29 29
333 564 375 185 16 59
350 476 193 123 20 24
349 486 191 90 23 29
279 561 176 130 99 62
351 487 189 45 32 28
304 346 357 129 100 73
348 799 180 104 77 61
344 491 192 84 28 30
348 491 190 128 19 27
344 496 192 101 25 29
294 616 176 146 106 65
347 496 190 127 18 26
398 735 289 41 31 25
344 501 191 124 20 26
272 723 304 198 8 57
338 511 191 53 28 34
343 505 190 103 30 27
407 833 374 68 55 44
340 511 189 42 32 33
295 266 318 102 83 59
409 867 389 73 59 48
347 500 190 130 15 33
342 556 189 172 20 40
346 502 189 133 20 22
454 741 282 83 67 53
284 761 207 142 100 68
314 591 198 66 29 33
360 462 193 106 22 23
367 450 191 54 35 33
365 451 192 77 30 31
309 958 270 96 92 96
262 582 274 156 0 44
363 456 192 65 33 29
366 453 189 84 34 41
305 701 375 159 112 86
366 457 189 55 33 28
319 382 292 92 80 68
366 903 387 61 53 51
397 521 327 148 21 49
369 456 187 99 25 32
363 460 191 101 30 36
299 651 332 82 30 39
369 461 186 128 14 32
360 471 188 55 34 31
352 481 190 82 25 28
289 286 312 91 76 59
355 481 189 49 34 34
314 900 347 33 33 35
380 796 217 74 61 58
383 546 352 95 28 42
359 476 188 61 34 30
274 626 177 150 104 66
310 907 224 80 70 67
359 481 187 82 28 32
269 601 177 147 101 65
362 464 190 126 22 32
369 586 337 73 26 34
364 471 186 62 28 33
373 806 212 70 56 50
294 311 352 129 100 74
257 434 343 57 45 34
364 481 185 92 28 31
415 846 317 83 62 53
397 491 242 118 22 43
379 451 188 156 15 37
341 510 206 97 1 36
378 456 188 160 17 34
281 338 335 124 91 64
382 449 189 162 19 37
272 679 274 78 17 33
372 585 238 180 21 48
384 451 192 168 21 45
397 471 301 37 30 30
381 457 190 168 20 40
260 427 356 60 50 40
377 460 189 162 19 36
374 466 187 155 14 35
374 471 187 162 17 38
284 571 176 128 98 64
373 476 188 149 15 38
377 889 347 63 57 54
376 472 191 165 18 40
403 411 307 155 11 46
372 481 188 90 16 33
361 572 359 181 7 57
374 481 192 95 26 37
265 285 309 64 54 44
284 956 312 60 54 53
376 466 190 168 20 41
281 686 214 70 31 39
265 611 187 162 113 83
492 762 302 109 86 64
354 486 188 40 34 37
354 491 187 71 28 28
304 291 357 137 101 75
398 451 358 93 14 25
266 856 297 157 114 98
453 736 277 87 71 57
354 496 186 112 27 29
387 431 337 61 28 32
380 581 292 186 21 55
342 767 168 135 99 64
361 488 184 137 27 40
258 936 312 52 49 49
360 486 226 98 17 34
364 486 185 85 26 28
365 496 186 59 33 34
259 321 322 116 86 65
291 574 180 119 94 67
368 491 188 51 30 33
367 496 188 77 29 34
354 506 185 143 13 35
354 392 287 100 86 73
393 737 209 76 56 45
361 507 185 93 20 33
362 500 184 124 34 51
372 485 192 92 28 36
300 331 355 132 100 76
370 491 192 86 26 36
284 451 389 130 16 42
329 461 208 121 15 26
382 860 318 38 33 30
385 536 276 109 14 33
324 451 210 72 30 33
313 944 336 68 61 58
377 408 381 60 50 42
359 866 308 35 33 34
324 453 209 91 15 25
294 890 251 96 78 61
324 456 209 121 13 28
360 781 358 158 109 80
381 810 240 59 50 50
322 454 210 118 16 28
339 386 297 96 83 71
329 451 211 63 31 31
469 788 320 65 50 39
375 691 237 64 51 51
334 451 212 118 20 26
334 456 211 118 20 24
412 824 339 41 35 29
342 570 198 134 10 43
330 459 210 120 18 22
320 872 228 57 52 52
333 459 210 118 18 25
258 416 323 95 64 52
359 494 390 79 20 33
324 471 207 121 9 28
407 729 242 69 54 48
324 466 208 121 12 27
264 561 177 149 106 69
329 471 207 124 14 29
324 480 205 122 12 29
469 826 333 102 90 82
393 447 353 105 10 25
333 470 206 112 14 29
323 785 164 173 120 84
330 482 204 73 31 34
332 474 205 90 17 29
334 481 202 50 35 37
508 780 298 105 86 66
339 461 207 105 25 23
339 456 208 112 22 27
344 461 205 88 25 29
345 462 204 104 29 24
344 451 208 105 28 27
387 560 317 175 20 52
348 451 206 68 34 34
347 456 205 57 28 31
350 451 204 83 34 34
351 462 199 119 28 17
349 461 202 113 27 25
319 776 378 170 120 91
269 586 227 41 32 35
290 881 258 102 84 64
347 459 205 73 36 36
339 451 211 117 23 22
338 455 210 114 22 26
344 456 217 57 23 31
430 837 336 103 82 64
341 451 217 52 22 28
344 451 217 55 22 31
341 450 221 51 24 29
343 451 222 41 25 30
333 301 317 121 100 78
354 521 197 109 12 37
391 878 344 65 55 50
376 577 332 74 26 33
350 450 221 59 22 30
339 771 167 132 94 61
345 460 214 56 21 29
346 458 214 79 19 34
358 906 347 52 46 46
349 461 213 74 15 29
335 856 298 45 36 28
393 701 274 37 30 25
348 466 201 118 25 18
348 461 217 76 18 32
346 459 221 29 27 27
334 378 309 106 92 79
297 801 218 66 55 52
347 457 224 37 25 31
257 894 313 124 104 85
422 730 259 73 58 45
339 467 203 111 24 24
338 465 205 107 23 21
339 471 202 114 22 25
344 466 203 113 24 21
349 875 312 29 28 30
344 470 201 116 19 23
280 296 332 119 88 62
369 864 309 43 37 37
279 711 212 139 5 39
340 477 198 101 25 28
336 478 199 49 34 36
336 481 198 42 33 38
339 481 197 60 31 31
343 481 196 117 21 28
393 436 283 95 14 34
297 690 336 80 24 31
349 471 197 116 21 24
310 876 237 57 53 55
350 466 198 121 21 24
307 626 360 135 79 67
348 475 195 119 22 22
354 901 206 90 74 62
346 478 194 125 20 31
349 466 213 67 13 28
398 406 251 97 21 38
330 932 361 99 92 95
350 471 213 95 0 33
318 925 216 68 58 53
465 711 278 89 77 67
314 717 164 117 91 60
350 471 221 101 10 34
351 476 214 98 4 30
350 476 217 105 2 35
350 481 216 106 5 36
267 855 281 141 116 90
328 616 203 40 34 39
351 475 220 102 3 31
344 451 227 43 27 30
346 449 230 39 26 28
333 925 248 73 66 67
347 450 230 39 26 29
283 371 348 121 94 67
319 701 177 118 94 66
299 551 198 50 34 33
349 451 228 47 26 29
346 454 226 43 25 23
306 614 185 127 98 65
340 788 175 141 99 68
349 456 227 62 17 33
296 897 243 58 54 54
297 768 160 147 104 65
324 482 204 120 13 28
340 947 277 83 76 78
329 496 201 43 36 37
397 834 324 33 29 26
263 316 283 83 71 60
324 786 378 180 128 102
335 486 198 57 38 38
334 491 198 38 36 38
334 496 197 41 35 35
332 490 201 39 38 39
329 501 201 80 29 31
324 511 201 46 34 36
329 391 361 107 87 65
328 506 201 67 31 37
334 501 196 89 31 32
386 435 351 123 6 29
409 421 407 137 13 45
336 501 194 61 37 31
284 361 347 123 97 69
330 506 198 75 32 31
283 356 272 107 92 77
396 517 358 131 24 46
290 262 324 102 83 62
401 823 312 73 65 58
333 506 196 79 31 29
333 511 195 77 28 27
418 850 370 90 67 51
384 885 362 67 59 56
384 856 331 45 40 39
304 591 192 90 65 50
335 511 193 85 30 30
271 711 288 68 34 39
344 486 193 125 20 28
338 491 195 39 34 38
306 809 342 164 118 94
340 492 194 38 32 40
339 536 186 145 10 33
369 546 232 62 28 34
368 858 178 129 101 77
374 586 252 75 26 37
337 495 195 35 32 41
339 496 193 54 34 35
349 491 207 90 1 31
267 859 301 115 98 89
291 561 186 114 90 64
262 532 236 92 26 37
349 496 203 72 11 31
350 493 204 85 2 31
345 492 211 101 5 37
279 891 337 107 88 73
344 496 212 66 25 33
350 486 212 101 2 35
404 401 302 127 9 40
425 848 368 81 60 47
306 795 277 187 129 106
288 676 318 129 0 40
347 496 214 36 28 27
279 911 246 60 51 52
289 436 388 49 27 30
367 898 279 64 57 56
350 491 216 34 27 29
385 406 352 118 17 37
236 559 350 174 122 96
344 501 203 62 20 28
341 502 207 27 27 30
291 760 308 81 64 59
281 514 381 167 20 51
341 506 204 38 21 27
341 506 206 37 23 27
401 679 254 60 47 37
341 510 204 94 0 37
309 964 273 62 57 56
344 511 202 99 2 30
283 696 328 129 2 39
343 511 208 108 5 36
314 823 186 210 139 106
278 661 187 171 120 93
349 511 201 101 9 33
344 501 212 36 27 29
342 506 209 33 27 29
345 506 211 30 28 31
310 680 176 116 89 55
252 596 352 184 129 102
334 521 386 99 26 40
345 511 211 77 16 29
328 635 350 181 23 59
348 511 213 71 21 30
395 751 232 57 48 45
359 451 198 86 29 29
359 456 198 109 23 25
355 458 199 124 25 17
356 463 194 117 28 24
363 451 196 81 33 29
340 461 390 153 15 49
449 741 277 90 71 53
362 454 195 88 20 29
334 446 390 154 17 50
361 457 194 86 20 30
319 376 361 128 99 72
239 546 331 144 87 69
301 761 352 174 125 96
354 456 218 66 21 29
359 456 222 55 25 28
277 326 324 111 74 54
359 463 214 87 11 32
256 564 258 175 6 46
377 739 206 45 40 38
364 456 222 48 28 26
368 454 221 50 27 25
364 460 216 64 22 29
259 271 310 81 67 52
364 458 218 57 24 27
376 674 279 120 15 41
353 465 196 117 21 23
358 870 309 34 33 33
352 469 195 106 6 18
359 396 332 63 53 45
393 516 282 69 24 32
369 476 206 44 24 27
364 481 207 89 8 31
278 691 216 102 17 36
368 481 205 41 25 28
359 471 211 90 3 29
309 491 392 162 19 51
310 850 318 111 84 62
282 797 176 171 121 87
293 756 272 77 61 55
274 621 335 136 92 72
354 476 211 94 0 31
360 476 209 91 7 30
352 478 219 102 7 29
354 481 221 81 21 33
364 470 210 85 7 28
368 466 211 72 16 28
354 526 217 118 13 36
365 472 209 84 10 33
312 372 289 89 77 65
391 481 280 103 2 34
294 651 336 127 75 65
377 569 340 180 20 59
379 456 207 51 26 30
365 906 282 64 57 55
316 660 186 116 90 61
380 453 208 37 27 26
398 415 211 112 41 55
361 612 235 178 24 50
382 455 205 50 26 29
372 666 302 63 27 32
384 456 197 84 30 39
364 526 227 94 19 34
381 462 197 35 29 32
297 301 354 129 98 71
398 398 316 67 17 28
273 948 328 65 61 60
376 457 209 78 20 31
319 311 354 137 101 75
374 456 212 90 17 33
375 453 213 83 25 31
349 841 184 117 87 69
275 666 277 132 8 42
374 451 217 63 25 31
334 386 358 111 88 64
386 771 212 61 50 45
370 452 222 52 26 30
371 453 219 52 23 32
279 854 319 152 140 135
288 691 352 173 121 93
378 450 215 85 15 29
379 451 212 60 24 29
339 771 379 182 128 96
382 448 210 41 27 29
266 406 331 115 77 57
382 450 210 46 26 30
374 466 207 74 23 31
402 756 253 53 44 41
376 476 197 56 23 29
417 829 349 47 40 34
345 597 359 129 30 49
374 481 197 45 28 30
370 481 203 34 28 29
372 474 205 28 26 30
383 393 288 49 25 26
419 812 267 72 59 56
373 481 201 45 27 30
379 466 197 36 26 31
305 606 187 121 95 67
283 331 337 125 89 64
383 786 217 65 54 51
377 464 205 106 23 49
382 703 286 81 14 29
331 637 210 112 15 32
376 467 204 79 17 34
344 411 400 154 22 51
351 531 215 113 17 39
377 474 197 140 27 50
249 541 306 90 31 41
367 777 350 155 106 78
370 467 209 75 19 31
331 814 370 179 122 97
297 597 179 129 100 64
359 460 229 37 33 32
249 551 358 158 115 90
344 611 353 60 31 36
400 695 220 91 68 46
359 462 230 37 31 32
286 261 333 106 82 54
368 455 227 48 32 29
286 555 360 145 11 48
363 460 229 39 32 30
397 521 342 82 27 37
369 456 232 49 32 28
395 796 256 57 46 43
366 458 230 43 29 31
368 461 233 40 28 29
356 465 230 66 20 30
304 586 192 65 47 42
357 468 229 87 20 30
346 917 349 56 49 49
289 691 327 122 0 37
379 476 241 106 2 26
334 306 332 121 94 64
339 536 202 59 24 31
358 472 228 91 13 33
422 810 279 80 63 56
282 531 192 50 38 36
359 476 227 76 22 30
294 286 351 126 98 69
392 493 319 137 6 42
357 481 224 65 27 32
364 466 231 61 26 29
324 306 353 133 99 71
292 556 188 79 51 37
268 626 364 166 118 92
309 282 359 143 102 76
279 462 390 85 22 33
361 474 230 94 7 33
362 477 229 97 17 28
364 476 231 94 13 30
363 481 228 105 8 29
398 486 381 128 21 46
369 481 233 90 17 30
368 476 233 82 17 31
370 452 227 45 31 31
282 656 198 158 118 99
372 449 227 49 33 28
372 450 232 53 31 27
396 492 294 165 21 45
374 451 237 46 32 32
404 716 286 42 32 25
373 456 237 50 35 33
389 481 277 92 8 28
368 606 247 157 24 48
370 461 236 44 30 31
427 714 273 88 80 73
372 461 238 59 29 37
375 456 241 43 34 34
375 461 242 63 29 34
278 356 338 121 92 63
286 614 210 94 60 55
382 448 245 36 29 23
449 811 338 66 53 43
379 461 242 48 31 33
270 541 346 120 11 40
383 461 240 48 28 32
389 736 208 58 47 38
370 466 237 57 28 29
370 471 237 74 23 28
372 466 239 64 21 25
372 471 239 82 19 34
384 506 267 160 16 46
371 480 235 72 23 27
302 771 357 174 127 98
248 547 327 135 26 46
384 471 239 107 3 28
363 790 351 151 106 78
381 476 239 110 0 28
255 906 292 167 130 104
384 480 238 112 2 27
374 471 242 90 14 31
279 621 368 162 118 88
374 476 241 67 28 25
375 481 241 48 29 29
309 411 392 53 26 28
464 816 332 100 83 70
361 797 349 149 104 79
379 466 241 53 29 30
379 481 241 81 17 26
349 536 192 167 19 47
359 407 387 56 41 38
354 490 206 91 6 32
354 493 204 90 8 31
374 396 337 64 54 48
359 496 202 54 20 32
463 702 290 90 82 74
364 486 206 84 8 30
368 496 197 77 28 37
254 532 336 91 6 29
328 306 351 133 99 71
364 491 203 63 20 31
310 815 357 181 127 101
364 496 201 33 27 30
275 391 347 124 96 67
366 488 204 52 20 26
331 656 344 48 27 25
370 486 202 35 28 29
367 494 200 19 28 32
352 486 218 38 24 28
274 357 263 101 88 74
324 546 196 52 31 32
355 486 221 50 30 28
354 886 337 35 33 33
270 606 302 58 36 39
353 491 218 35 32 30
353 496 219 37 32 32
356 496 220 39 35 34
317 853 245 137 103 81
359 496 222 40 36 34
414 736 287 54 42 32
266 720 251 181 0 55
354 501 202 81 18 35
359 501 201 51 21 31
354 506 201 72 24 32
259 391 322 94 63 49
354 511 201 65 18 30
358 506 200 40 25 29
285 266 337 113 86 56
358 510 200 35 26 28
365 501 197 109 23 42
245 516 257 77 29 39
367 499 196 66 24 30
366 497 199 103 28 43
257 526 198 106 46 52
363 506 197 104 23 40
361 512 192 179 20 49
362 509 196 102 14 39
353 501 218 43 33 30
296 283 309 87 72 57
356 501 220 57 34 32
359 501 222 81 23 34
285 726 177 156 106 73
226 530 350 174 125 98
353 506 218 79 21 35
319 396 364 106 86 65
271 630 339 156 105 81
355 506 220 112 12 36
359 506 222 130 4 33
362 497 224 38 36 35
341 835 188 168 136 146
363 501 224 83 24 36
372 486 197 76 29 40
334 761 167 127 95 61
372 485 200 40 28 30
369 621 277 131 20 43
370 491 197 128 21 47
369 486 232 93 17 30
367 488 229 107 2 33
364 491 227 69 29 31
300 281 309 91 74 56
374 900 193 114 100 90
320 741 380 167 116 88
262 538 288 152 0 40
369 491 232 83 21 30
275 636 282 74 32 37
262 572 317 156 5 44
367 496 229 43 32 34
279 551 357 37 27 28
362 511 224 140 3 34
365 511 226 139 4 33
365 506 226 127 7 36
361 593 230 150 10 37
347 384 340 107 87 64
267 546 227 108 17 39
371 484 235 74 29 35
373 486 237 74 23 32
372 488 234 72 21 30
346 374 321 96 85 70
371 603 307 56 31 34
370 496 231 82 22 31
311 635 185 108 86 62
304 380 267 111 96 82
372 491 234 81 16 31
294 476 392 90 22 37
226 540 342 183 125 99
373 491 237 82 16 29
372 496 234 98 8 30
385 471 271 135 6 34
374 496 237 101 6 28
384 866 272 64 55 57
263 701 232 113 21 41
385 491 238 107 4 26
407 859 332 65 54 49
346 387 339 102 82 61
384 496 238 121 2 25
358 585 355 162 15 54
376 490 240 78 17 23
384 486 241 104 8 29
308 409 367 63 55 46
379 491 241 90 14 25
375 721 217 47 30 35
372 501 234 125 5 33
269 600 327 105 28 38
374 501 237 114 6 28
379 501 239 93 12 28
276 531 180 126 99 69
372 506 234 125 3 33
264 441 383 78 19 31
374 506 237 114 6 27
336 865 304 41 36 32
384 506 237 98 7 27
265 576 242 153 1 39
406 808 290 77 70 64
386 407 189 49 30 31
297 669 324 140 0 44
389 407 189 128 18 21
284 731 207 107 14 40
389 416 188 107 24 34
394 406 192 128 25 27
392 407 189 146 19 29
314 391 363 122 96 70
392 410 189 157 23 36
395 411 191 88 26 36
392 414 189 92 26 22
399 675 241 78 62 49
388 421 189 142 8 33
391 417 190 160 26 49
294 806 212 73 59 56
393 466 256 152 11 45
398 875 357 71 59 57
390 421 190 159 17 39
287 708 175 138 96 60
387 424 189 153 9 37
389 426 192 160 16 37
389 431 193 163 18 41
391 400 328 89 29 36
388 436 193 164 19 40
385 441 191 168 21 44
389 401 202 123 26 23
389 401 207 83 26 22
314 300 305 93 80 66
329 786 378 187 136 112
344 896 209 97 80 70
283 766 172 148 108 71
392 403 197 154 21 21
394 405 197 126 24 25
269 946 277 81 76 78
385 521 253 81 15 36
397 403 207 38 27 21
394 506 247 168 16 51
399 406 202 66 30 34
399 831 262 59 50 50
349 885 372 35 33 34
272 726 258 169 9 55
396 404 207 61 20 23
310 952 265 95 91 95
293 346 288 78 67 56
313 881 230 54 51 53
397 411 194 40 35 40
371 858 310 38 34 33
281 665 353 179 126 102
399 701 216 86 63 44
398 411 197 40 35 36
346 395 343 76 64 51
368 746 341 118 79 60
286 524 381 165 20 51
397 415 194 35 34 39
403 397 242 112 21 34
398 416 197 40 32 32
283 517 377 166 19 52
399 411 207 55 31 36
271 610 247 146 15 46
268 536 343 54 21 26
314 402 365 83 69 54
389 401 212 50 21 24
388 402 216 45 22 26
392 471 310 57 26 31
389 406 217 59 25 31
240 520 293 91 24 35
386 407 219 40 26 34
323 837 232 181 131 99
347 376 322 90 79 67
402 444 294 80 26 36
366 715 215 99 32 33
386 416 219 51 24 26
315 850 308 90 67 48
385 416 222 68 31 27
394 406 215 58 23 33
246 519 190 178 120 105
241 529 299 195 0 48
398 406 212 45 27 28
402 436 247 149 9 44
260 278 265 155 103 75
340 735 185 116 92 63
248 557 335 137 82 66
394 410 215 49 29 33
262 869 280 155 117 88
294 501 392 163 15 52
398 411 212 57 29 32
409 836 297 84 69 63
399 401 238 141 12 26
275 506 367 167 14 51
402 436 242 143 9 38
337 336 322 118 96 72
381 792 299 39 33 30
389 400 241 104 18 28
348 924 375 74 70 70
286 749 325 101 24 38
389 401 256 51 25 32
338 336 332 123 98 68
368 550 366 181 17 57
409 696 227 58 47 39
391 400 254 83 34 40
394 397 243 144 16 25
394 396 247 115 25 36
399 397 242 143 21 30
259 276 263 160 106 78
341 566 190 182 20 39
399 401 251 53 26 30
