ply
format ascii 1.0
comment Created by Open3D
element vertex 2228
property double x
property double y
property double z
property uchar red
property uchar green
property uchar blue
end_header
345 64 239 125 57 58
350 59 240 132 89 78
305 804 215 81 61 53
383 706 303 37 31 34
380 339 271 124 89 67
375 55 210 91 32 28
434 737 164 104 71 54
306 374 278 121 95 68
365 749 296 84 66 59
372 219 220 115 89 59
340 54 242 121 58 56
382 129 230 105 80 57
341 52 243 129 95 75
347 119 210 125 89 63
304 689 291 39 27 29
349 53 243 120 33 47
400 199 254 126 101 72
351 55 242 122 69 65
258 488 209 66 32 32
287 548 182 58 26 35
370 304 216 89 75 59
346 234 204 123 94 59
485 476 233 115 94 74
363 922 343 64 56 53
478 880 278 78 69 62
238 515 226 121 10 40
352 28 223 65 43 25
480 609 230 147 107 72
367 39 241 122 16 24
354 15 235 73 41 35
315 354 211 92 80 67
324 604 297 100 22 41
476 840 292 64 50 41
354 16 240 72 38 33
355 14 250 72 39 35
309 254 198 137 99 60
411 904 245 64 56 54
360 11 256 79 38 28
325 406 186 89 76 63
283 654 263 119 80 58
375 328 213 85 73 60
360 15 251 73 43 35
303 339 218 106 87 65
313 344 272 118 92 64
312 195 197 125 99 68
313 736 307 181 19 56
381 444 293 66 25 33
351 764 192 75 36 39
390 964 265 63 57 55
365 15 251 100 32 24
425 776 170 68 51 41
297 360 264 114 91 66
293 348 235 122 96 67
412 254 208 132 99 58
410 749 129 83 59 45
430 894 260 81 67 63
449 445 200 57 23 27
357 58 195 59 41 23
488 574 245 165 117 82
309 204 199 121 97 70
353 19 227 63 48 39
320 179 194 126 99 65
390 244 256 122 99 73
408 129 230 117 95 71
301 254 205 128 98 61
315 719 206 129 5 32
400 851 331 69 54 44
480 842 280 76 61 45
355 19 230 70 39 36
425 413 265 110 66 48
405 449 297 88 30 39
458 493 176 97 28 37
438 459 255 72 31 34
407 54 237 124 16 44
480 549 229 136 100 72
369 398 265 71 54 40
334 834 214 65 54 49
322 72 215 99 63 52
356 18 240 72 35 32
358 20 236 74 32 32
312 229 197 129 97 59
359 20 240 76 34 31
474 751 149 114 87 61
325 239 194 133 99 59
495 819 280 99 78 65
387 166 248 115 92 73
357 22 233 75 32 32
358 26 232 68 42 24
462 499 243 90 56 50
317 16 258 112 66 60
474 431 169 89 27 33
358 29 235 68 50 30
370 609 299 52 31 34
360 29 245 113 46 41
386 361 207 90 79 68
352 366 243 105 71 58
355 28 254 112 68 59
310 439 291 33 28 28
390 89 190 150 25 46
382 214 248 118 95 71
407 35 252 118 56 54
380 705 303 36 30 32
365 25 247 118 16 23
486 509 215 123 50 51
325 546 168 121 23 37
407 306 257 140 94 68
296 304 225 122 93 64
315 415 165 86 71 54
317 900 257 123 99 75
434 577 192 160 0 37
362 22 248 124 10 17
371 15 246 91 55 27
450 784 181 86 60 48
447 438 190 120 10 37
342 490 298 36 26 26
382 65 192 93 33 22
375 14 245 88 71 51
505 445 185 60 19 25
354 22 263 112 28 45
348 230 228 122 89 64
388 204 252 119 96 70
375 11 250 76 61 48
407 52 227 101 39 40
531 904 227 97 83 71
336 364 214 84 74 66
442 614 228 66 29 32
374 12 248 77 63 49
325 169 194 125 97 63
380 14 244 75 64 53
395 115 205 132 87 65
262 447 210 97 26 39
381 16 242 75 63 51
349 234 228 122 90 64
320 973 265 88 84 86
320 580 183 182 5 41
400 149 211 123 96 61
385 15 241 74 65 55
411 309 251 135 99 68
260 819 260 198 135 107
380 10 255 77 60 49
329 244 248 120 94 64
402 520 298 57 32 34
385 11 250 72 59 51
356 54 210 67 47 26
293 474 165 56 30 34
375 24 240 78 35 24
370 964 305 52 48 48
429 848 336 92 75 64
385 18 239 83 72 61
384 23 234 92 78 64
423 239 220 124 97 66
381 30 231 68 50 36
414 284 215 127 94 57
277 411 250 74 64 56
420 890 245 61 54 55
384 28 229 94 80 65
382 229 248 119 96 73
343 210 233 118 93 64
256 714 260 143 102 69
476 629 230 149 106 71
379 28 234 62 44 31
377 26 237 68 36 22
353 45 195 85 74 63
372 224 220 114 89 59
291 364 245 115 92 64
353 11 268 91 43 45
335 839 215 79 59 50
410 294 255 128 96 62
355 49 200 73 55 38
298 521 163 165 0 37
354 34 225 88 44 37
367 46 237 65 60 52
286 619 225 111 30 42
405 144 245 118 94 67
352 37 218 58 41 30
302 229 234 117 96 72
340 789 180 44 40 39
349 194 224 116 88 64
316 262 197 136 99 61
355 49 210 66 42 29
476 469 190 90 18 33
460 799 245 167 121 95
351 424 314 81 23 35
355 49 215 70 44 29
260 431 339 53 19 20
386 259 207 129 98 61
436 499 262 85 21 35
300 244 230 118 94 67
370 844 186 56 49 49
355 44 225 99 44 41
365 324 253 93 65 45
395 117 207 136 91 62
356 54 200 64 45 22
373 377 267 122 90 71
292 381 268 113 91 65
299 249 230 118 94 67
440 424 185 98 25 36
426 855 272 46 40 35
355 10 265 73 34 34
298 239 215 121 97 68
358 60 195 67 38 27
408 63 234 118 29 47
337 815 181 57 49 46
497 802 206 98 80 59
433 429 259 68 26 33
338 729 313 189 5 60
357 58 200 69 37 23
316 144 225 114 94 74
381 244 249 116 94 70
404 470 172 47 38 37
387 961 287 60 54 51
353 354 230 63 52 43
381 795 277 45 38 38
267 455 305 72 24 32
385 798 165 62 50 45
359 64 195 83 46 36
396 45 257 136 111 85
298 659 234 143 0 38
270 444 201 69 37 33
361 359 225 63 53 43
415 514 290 62 30 35
358 64 205 84 37 24
435 489 265 165 8 51
357 54 220 77 44 30
371 59 210 108 52 48
323 897 238 66 56 49
350 504 309 145 21 48
358 60 210 78 41 24
272 450 273 57 26 30
407 98 218 109 81 64
455 624 223 113 89 61
357 58 215 77 45 27
490 524 255 156 117 84
416 309 245 135 101 70
407 861 285 32 29 28
328 113 227 118 97 75
357 58 220 82 39 28
340 74 234 124 97 72
343 190 202 116 92 63
358 64 223 93 28 27
468 742 238 166 111 81
250 559 319 174 122 100
334 858 172 102 80 69
346 129 205 119 88 59
378 79 252 116 36 46
315 809 282 63 53 47
383 917 330 53 47 45
335 359 211 84 74 66
375 44 225 63 44 31
435 549 187 86 22 33
373 48 225 95 52 47
376 45 221 71 49 27
282 405 255 79 68 58
370 664 294 82 25 38
388 464 167 120 6 27
330 239 195 135 102 62
413 189 243 123 99 72
383 37 223 92 78 62
353 956 228 79 75 81
396 749 135 85 61 41
320 289 203 136 98 67
381 40 221 76 52 39
413 812 258 56 48 44
254 664 279 125 91 56
309 239 246 119 96 72
345 799 170 55 46 41
381 45 215 83 60 47
384 43 214 102 87 70
382 46 212 102 87 72
298 257 227 121 94 63
390 894 211 74 65 65
488 790 208 78 60 46
383 89 199 142 10 41
379 44 219 75 39 28
365 610 188 55 36 39
382 402 188 88 76 63
348 254 211 118 89 55
355 54 235 103 48 48
387 66 187 101 46 33
455 809 245 154 112 90
381 99 210 112 32 37
385 39 215 102 87 72
430 884 296 41 36 33
338 234 238 119 93 64
372 60 206 106 48 39
460 564 245 51 24 27
309 729 306 177 18 57
309 639 219 157 0 36
315 411 177 88 75 62
431 738 164 108 75 65
371 64 205 111 43 40
372 65 201 129 39 36
420 765 276 80 63 56
330 884 225 44 40 41
268 488 277 68 20 30
439 753 140 89 67 55
460 448 190 55 18 24
406 279 256 132 96 63
415 214 211 119 96 69
301 674 284 45 26 29
385 862 272 39 35 31
396 374 202 106 87 65
267 574 240 144 11 45
291 640 276 110 40 43
375 64 199 112 31 26
280 499 180 114 15 31
309 199 235 116 95 73
377 56 207 64 45 31
428 623 259 184 1 58
250 644 300 178 126 102
320 214 246 119 96 72
309 919 255 57 52 51
419 359 245 126 100 70
384 49 205 107 90 73
412 343 252 127 99 65
298 304 241 124 98 69
353 94 195 110 24 40
324 893 250 110 89 71
281 583 201 130 28 46
383 52 203 107 90 73
380 59 200 87 49 35
320 499 288 150 16 46
348 224 228 124 89 65
297 380 273 114 91 66
445 439 195 94 9 31
480 879 275 79 68 61
380 64 195 87 34 23
321 84 200 96 53 46
373 209 225 106 84 59
379 58 204 76 53 33
257 528 249 171 0 46
335 976 248 85 83 87
379 829 264 133 102 84
354 406 279 57 44 34
285 514 286 51 24 29
372 51 222 119 83 83
372 50 225 98 74 71
373 52 218 118 18 26
299 425 152 42 41 43
307 934 232 65 59 60
415 214 245 124 99 71
390 289 264 111 89 67
370 64 210 96 44 42
288 417 165 100 40 42
283 444 277 66 18 23
319 734 312 100 24 43
416 514 169 66 29 36
374 57 208 107 39 30
262 538 260 166 0 44
378 174 226 100 80 57
372 64 220 90 20 35
366 314 217 81 67 51
275 569 196 102 32 40
371 64 225 95 24 38
417 482 292 148 19 45
344 112 186 143 67 59
261 424 245 60 46 45
475 594 254 169 120 87
281 598 211 191 12 47
315 744 204 118 20 33
369 742 175 48 39 36
279 644 294 172 123 101
379 53 209 78 47 36
325 574 180 150 12 38
360 764 290 80 63 54
440 435 194 108 4 35
377 214 212 121 92 58
356 34 230 79 48 41
406 488 168 113 14 26
297 294 221 135 99 70
382 576 173 181 4 40
416 394 266 132 99 66
356 34 235 77 48 38
471 734 170 79 64 52
385 614 190 73 36 42
389 48 193 120 26 17
396 339 271 135 94 67
355 49 235 105 41 46
395 474 294 111 25 42
356 34 245 79 29 29
451 752 179 55 46 42
371 729 193 70 33 35
355 34 249 109 25 43
282 401 248 94 79 63
460 830 239 57 44 38
367 36 242 132 18 32
351 89 180 137 9 42
366 39 245 123 22 37
316 139 215 110 92 73
266 794 236 168 112 80
341 894 194 72 64 67
415 229 210 122 96 63
363 35 255 113 38 45
365 39 255 123 16 44
345 104 180 134 26 38
366 44 245 103 24 39
375 199 230 109 85 62
338 66 237 118 30 45
366 44 250 116 83 68
389 739 144 72 59 48
354 54 240 112 36 49
356 59 230 87 48 39
384 84 195 144 10 40
320 412 174 89 75 60
280 784 294 178 136 104
429 539 182 128 19 38
355 59 235 96 63 50
412 254 252 131 102 68
436 438 205 54 31 26
302 299 248 124 94 67
299 394 213 91 78 65
352 61 237 124 82 70
406 849 199 79 62 58
381 801 169 64 54 50
338 275 248 114 84 58
343 214 233 120 95 66
325 105 200 115 74 57
260 519 265 152 6 43
403 942 275 60 51 49
441 444 230 93 19 32
315 269 254 118 94 67
367 54 241 111 28 42
493 485 233 136 104 71
367 54 245 120 14 42
337 854 219 57 46 44
465 699 246 178 123 95
351 194 215 125 98 64
367 53 250 124 13 44
390 104 249 127 101 72
445 795 177 84 63 51
334 164 234 115 91 64
367 52 253 122 10 40
375 39 230 70 40 24
356 84 195 121 35 40
344 244 234 124 92 63
311 899 265 140 109 83
440 836 294 50 42 34
452 875 265 71 61 56
370 34 240 88 49 34
311 847 245 143 112 95
371 39 236 105 26 26
312 156 216 113 94 73
310 379 209 88 77 66
341 816 277 165 119 99
253 799 275 182 127 99
369 38 239 127 21 24
373 33 239 72 53 33
395 595 183 106 33 43
425 499 175 139 2 32
374 38 234 78 33 25
335 980 260 93 88 90
328 640 208 53 32 31
311 582 187 189 9 42
325 334 276 128 94 70
372 36 237 92 55 40
351 389 260 117 79 65
280 469 280 35 25 25
270 799 291 178 130 102
404 750 141 73 57 46
413 723 298 180 5 56
501 499 200 173 125 107
371 49 230 96 25 29
365 764 290 80 63 55
417 254 247 129 101 66
383 855 193 69 60 60
374 44 229 61 44 37
288 606 213 193 10 50
420 849 290 44 37 31
373 47 228 92 43 36
410 524 166 50 35 39
321 618 202 45 34 37
327 89 181 136 17 40
381 474 293 150 17 48
342 207 232 117 92 63
371 925 336 62 57 57
485 749 140 92 65 30
389 129 214 120 83 49
369 44 235 92 42 31
412 388 203 101 85 69
368 43 238 93 46 37
285 774 221 59 51 48
325 449 158 129 0 29
367 295 244 102 78 58
343 219 233 122 95 67
294 464 155 118 16 34
310 879 285 152 118 89
306 239 244 118 95 71
369 49 235 89 23 33
377 35 231 66 43 27
248 580 312 169 118 96
379 37 229 64 46 33
375 889 335 48 41 37
245 524 230 152 8 47
328 96 183 138 30 47
368 32 243 96 26 28
368 51 238 107 1 41
449 737 175 67 54 41
375 11 270 124 49 57
345 26 261 150 27 58
251 779 250 179 120 92
274 420 268 45 25 26
270 539 189 161 3 38
385 669 198 71 30 29
334 944 336 54 50 49
278 795 228 157 107 72
350 99 185 128 15 39
389 111 210 116 80 67
332 689 202 73 25 30
375 424 290 105 7 33
371 509 149 150 0 35
446 433 181 93 22 36
370 64 230 99 21 39
262 812 252 190 127 98
368 59 235 97 30 40
296 269 225 127 97 66
388 120 247 126 99 72
316 623 207 178 4 41
279 519 282 44 25 28
369 64 235 105 13 39
393 628 288 170 28 61
371 259 215 114 86 54
442 504 256 104 28 40
333 938 327 77 60 52
368 49 256 117 61 60
292 420 283 67 23 24
320 324 210 116 90 61
322 119 206 116 95 73
292 818 227 81 62 54
261 514 191 134 14 37
369 54 255 120 42 50
336 293 261 111 87 59
361 419 295 135 7 42
371 74 245 116 72 63
460 769 170 95 71 54
468 734 238 167 111 81
420 828 248 38 33 32
368 60 245 113 18 39
425 594 278 127 24 46
369 59 250 121 90 71
284 610 219 196 12 49
371 59 255 133 97 79
455 585 233 58 38 35
295 324 230 122 96 65
347 214 203 121 93 60
370 64 250 120 78 66
338 494 153 128 14 36
350 84 230 121 84 69
289 412 203 87 75 62
500 814 215 93 78 66
284 624 285 106 75 62
374 60 256 138 103 84
423 464 288 112 26 41
375 64 255 130 98 79
313 324 267 119 91 64
460 835 223 98 77 67
330 204 194 121 96 64
470 599 255 169 121 89
329 69 174 126 31 39
389 114 215 120 82 59
331 69 171 127 31 31
367 294 225 84 69 52
400 594 290 162 6 50
439 638 228 72 56 41
369 873 202 57 50 54
335 69 169 124 31 34
331 74 171 140 12 40
335 249 199 135 101 64
336 553 167 169 10 39
329 74 174 137 13 45
392 190 253 124 100 74
375 364 211 81 71 61
332 78 172 143 3 39
367 290 225 86 70 52
415 418 191 98 23 32
335 74 169 136 15 33
349 279 230 116 91 63
274 439 344 73 32 38
335 79 170 144 9 39
369 963 231 76 70 73
250 779 255 174 118 89
265 420 245 69 60 53
270 654 296 169 124 103
327 66 177 119 35 40
330 139 232 121 96 69
310 269 201 137 98 61
455 756 168 112 82 54
352 339 220 65 57 49
287 389 230 113 90 66
481 510 209 178 18 45
272 425 207 100 24 33
327 69 177 127 31 44
375 704 193 61 32 33
375 234 211 121 91 53
417 545 271 60 27 35
396 746 125 96 70 54
331 290 208 127 91 63
351 379 245 107 73 60
474 519 251 135 98 82
315 659 216 132 1 33
264 417 260 68 56 48
384 314 213 93 80 66
326 69 180 124 28 40
385 969 265 67 62 61
347 736 307 184 13 59
387 434 150 69 37 39
375 84 220 120 40 47
325 69 185 120 30 43
469 769 235 159 110 76
326 74 180 133 19 43
325 74 185 120 48 53
425 729 160 72 53 42
500 800 204 100 80 62
327 79 177 138 7 43
310 769 205 66 53 46
290 649 250 97 24 38
435 654 226 58 46 38
325 214 246 122 98 71
332 179 237 116 92 65
278 412 235 83 62 53
422 791 262 68 54 44
417 329 225 114 92 66
326 79 180 133 11 39
416 199 235 116 93 67
342 810 171 69 55 46
349 923 341 51 45 43
372 220 228 108 83 58
370 834 270 138 109 87
256 684 289 178 122 97
381 293 212 95 78 59
331 859 209 32 29 29
324 79 185 115 37 43
324 74 190 114 68 64
427 500 272 72 12 30
418 351 222 111 91 70
357 868 302 90 76 62
324 79 190 113 42 45
335 429 286 102 7 31
320 949 316 138 100 84
330 84 175 144 3 43
331 89 176 140 7 42
335 84 171 148 7 41
422 649 256 171 17 55
295 344 245 121 95 65
347 134 210 125 95 61
320 794 286 63 53 52
332 82 172 146 5 41
317 874 205 56 49 45
371 420 288 120 9 37
322 154 197 117 95 69
365 374 214 82 67 53
420 454 184 43 36 39
333 85 173 145 5 43
395 714 301 100 23 41
430 779 265 50 43 41
334 89 174 140 3 37
475 459 166 57 39 39
344 309 216 108 88 65
335 849 270 160 120 96
255 689 285 171 115 91
335 94 175 143 11 38
430 826 188 83 65 59
467 745 237 164 110 79
400 15 250 101 65 61
379 11 294 159 36 64
410 860 315 82 68 54
251 664 290 183 129 103
346 955 326 58 53 52
326 84 180 134 12 39
371 74 210 97 20 35
325 84 185 125 32 45
324 84 190 114 53 54
324 89 190 102 40 41
327 93 182 134 17 46
265 799 290 177 128 100
326 94 185 130 22 41
325 94 190 132 36 47
362 329 230 66 54 41
414 558 177 101 28 40
315 424 291 62 25 31
329 89 179 139 12 43
375 909 210 53 49 51
369 473 137 66 41 45
385 389 196 92 80 69
330 94 179 136 17 43
380 27 275 148 51 63
344 66 167 116 34 32
345 409 170 85 71 55
487 483 195 41 26 27
326 364 213 85 76 66
402 727 193 66 30 42
372 505 148 148 0 37
330 359 211 85 75 66
374 199 220 119 93 61
439 484 182 56 32 36
345 69 167 115 30 31
410 879 315 51 44 40
289 479 179 77 33 36
299 254 235 119 94 65
339 68 168 116 29 27
346 194 226 115 89 62
339 834 175 91 76 65
341 77 167 131 16 35
435 844 215 78 64 58
267 488 308 29 27 30
324 94 220 112 40 48
423 415 284 152 18 48
545 803 199 105 86 67
299 274 240 123 95 66
345 77 167 126 28 30
345 80 168 137 25 41
378 169 225 103 81 56
348 70 167 124 37 37
417 684 213 40 34 37
395 97 192 93 96 91
423 381 222 122 97 68
439 739 260 118 24 44
382 169 243 115 93 70
350 69 169 120 32 31
487 482 199 43 29 26
500 864 271 91 71 53
389 149 214 119 88 47
329 105 195 123 83 61
435 524 184 121 17 33
348 77 167 122 17 21
351 74 169 129 17 29
374 214 215 119 91 56
389 849 255 55 46 37
340 839 271 153 115 90
330 129 230 117 94 68
282 749 227 101 20 33
418 220 212 114 93 69
535 898 234 95 78 64
390 484 164 105 15 25
441 831 237 98 69 55
344 144 200 114 90 60
410 794 266 72 55 48
380 327 213 91 77 64
407 119 236 119 96 70
382 103 248 130 105 81
340 84 169 145 21 43
327 926 323 130 110 94
300 239 230 118 94 68
268 417 225 77 55 43
332 791 180 45 39 37
345 84 170 147 19 46
271 819 246 190 127 99
423 391 258 128 99 65
370 403 185 89 76 63
325 209 245 121 97 71
409 767 145 76 60 51
384 632 197 84 41 41
433 474 268 137 17 43
345 89 172 154 16 47
377 179 225 102 81 58
297 694 226 85 28 37
349 199 206 109 87 61
340 93 172 128 34 34
365 354 216 69 59 49
483 613 236 163 118 81
355 554 304 157 9 48
310 409 291 136 17 42
345 94 175 140 44 50
345 27 258 137 52 60
395 284 207 131 101 65
351 84 175 138 6 40
335 634 297 50 29 31
306 219 239 115 94 71
348 87 172 142 13 41
324 484 158 134 5 30
287 381 240 115 92 67
349 89 175 139 9 40
409 364 264 126 96 63
410 149 235 115 94 70
340 554 165 105 28 38
462 512 242 83 24 31
346 90 173 149 14 46
418 339 230 124 98 68
305 800 287 60 49 45
348 93 176 142 15 41
374 479 141 107 25 37
352 85 179 136 5 38
334 841 218 98 70 55
347 96 179 144 20 45
413 500 167 123 7 25
405 499 164 119 10 27
385 735 155 62 47 44
349 94 180 133 13 38
295 309 230 121 95 65
510 864 271 88 69 52
325 154 234 117 95 71
424 714 290 83 28 38
485 804 196 105 80 67
373 397 272 89 67 50
351 94 185 120 15 34
325 679 299 50 26 31
385 319 272 121 90 66
350 219 225 122 91 66
327 103 186 122 24 38
481 465 214 78 57 46
480 473 195 58 23 28
330 99 180 135 13 41
348 295 217 109 86 60
497 814 217 89 75 64
314 585 188 190 9 40
410 604 189 83 34 41
340 444 291 122 12 39
328 100 183 134 16 41
382 862 192 78 68 66
293 363 251 114 91 64
481 506 195 161 20 44
335 133 192 132 101 63
370 354 219 76 65 54
375 419 131 95 42 40
328 104 184 128 14 37
327 120 228 117 96 74
365 754 294 83 65 57
360 909 209 60 55 57
335 99 176 144 12 37
367 789 152 94 67 45
333 99 178 139 11 37
256 579 276 87 56 43
334 104 178 136 14 33
308 193 231 115 94 71
442 449 235 75 26 31
336 104 177 139 17 34
300 679 285 96 25 38
330 264 251 120 94 63
330 108 185 140 30 46
322 894 191 78 68 68
287 420 178 94 46 50
331 108 181 142 17 40
324 894 189 81 70 66
386 144 216 118 89 53
311 214 196 126 98 63
331 108 190 127 78 63
333 110 190 128 89 64
510 809 196 122 99 79
336 112 185 144 95 72
375 21 282 149 102 84
335 114 190 127 94 60
325 884 315 136 69 73
423 254 230 124 97 64
335 119 191 131 99 62
355 99 215 115 31 35
335 124 192 134 101 63
298 398 213 90 78 66
355 564 166 77 31 39
413 169 235 116 94 68
311 879 275 154 119 93
416 374 261 129 99 66
325 264 198 136 99 63
340 104 177 122 81 72
413 396 202 97 84 70
370 745 297 76 61 55
312 169 205 114 94 73
346 99 180 140 20 42
291 754 216 127 10 32
302 244 239 119 95 68
342 11 278 119 53 52
335 309 213 112 89 64
339 107 177 106 95 85
300 469 290 124 11 39
339 209 197 130 101 65
428 695 254 137 19 46
347 173 221 113 86 60
333 942 332 44 41 41
275 444 273 83 18 28
304 894 280 158 119 96
348 99 182 135 14 41
348 102 182 134 22 41
501 494 220 144 115 86
435 754 135 99 71 55
350 104 190 119 24 39
308 194 203 116 95 72
430 718 193 80 56 44
410 454 180 63 32 32
320 204 244 118 96 73
370 754 155 59 47 40
348 108 186 125 15 33
470 589 254 165 118 90
441 454 245 87 22 36
415 739 130 86 59 45
357 89 205 101 35 27
305 354 269 114 91 66
337 112 182 166 58 70
408 807 177 64 52 49
349 109 195 132 70 59
340 112 182 156 66 59
254 719 265 134 95 62
375 79 250 117 28 46
344 113 190 130 89 62
354 69 171 122 25 35
479 579 227 139 108 73
355 74 175 130 19 39
390 59 189 114 30 22
376 15 291 145 52 64
307 842 236 68 59 58
354 99 200 104 66 49
412 596 188 53 36 39
354 79 175 134 7 39
317 18 258 105 35 38
318 899 200 84 77 73
316 914 225 51 47 48
292 674 250 108 22 39
357 69 178 117 27 39
358 69 180 112 19 37
408 440 182 41 39 40
312 948 308 177 129 109
360 69 185 110 28 36
318 133 221 111 92 72
357 74 180 129 16 40
335 888 317 157 123 100
412 235 208 125 97 63
355 79 180 134 5 38
410 859 280 33 30 28
447 836 238 61 49 44
268 571 246 158 4 42
357 75 184 130 9 39
301 309 216 132 97 68
429 414 255 122 94 65
356 407 280 56 43 34
390 539 160 162 2 34
340 524 295 41 25 27
359 74 190 126 26 40
357 80 190 129 14 40
389 634 288 130 35 53
291 544 176 100 21 36
470 479 174 161 13 34
358 78 191 129 28 43
290 409 210 92 78 64
432 605 265 57 30 33
325 179 194 127 98 62
353 82 176 134 5 40
325 769 296 81 67 61
350 174 215 119 94 66
433 508 182 133 3 29
382 160 217 113 84 47
383 101 208 128 35 49
445 639 225 97 79 59
353 87 182 136 7 37
340 279 210 130 95 64
347 115 209 127 88 61
407 865 316 89 72 56
353 89 185 131 11 38
345 489 146 63 37 40
455 694 216 108 85 56
355 84 190 132 16 41
258 433 248 71 32 26
353 89 190 123 29 45
385 159 215 118 88 48
335 960 326 70 67 67
410 399 271 128 96 66
321 159 234 115 94 73
370 754 293 82 64 57
425 414 270 116 31 39
353 94 191 105 22 36
373 204 225 106 84 60
268 657 298 167 128 105
322 84 214 103 50 48
331 214 193 128 100 65
381 69 191 123 20 30
330 514 160 120 18 37
355 99 205 110 60 48
321 907 196 75 65 63
385 124 245 123 98 73
431 519 266 103 37 46
364 20 280 163 113 94
423 852 278 48 41 34
345 179 225 114 88 62
384 69 189 122 24 29
382 74 192 134 13 35
410 789 170 65 51 46
310 573 181 144 21 43
384 114 246 128 103 78
302 354 217 107 88 68
384 79 190 137 15 37
298 353 261 113 91 65
353 98 192 105 37 45
322 69 197 114 40 48
351 389 240 90 65 51
374 204 230 110 85 62
322 69 200 116 18 39
298 338 252 120 96 68
250 544 323 175 122 100
360 632 197 60 33 34
254 530 236 45 25 31
323 68 202 121 9 39
375 614 190 101 35 42
491 513 217 172 95 85
321 119 215 112 93 74
386 144 244 119 94 69
323 69 205 108 59 55
323 74 194 103 50 50
337 208 237 117 91 61
310 674 290 93 23 37
415 254 210 130 99 60
335 834 200 50 47 49
270 524 185 105 23 36
322 74 200 100 31 36
318 606 198 184 6 46
343 224 233 123 94 66
255 534 235 109 14 37
284 412 209 89 76 64
428 628 254 181 0 58
388 834 193 64 53 53
470 465 209 38 24 26
322 79 196 117 28 41
418 736 146 84 59 36
352 312 224 86 71 55
336 834 205 49 47 49
322 74 205 101 36 38
435 619 245 152 21 51
323 73 206 87 59 47
315 724 310 170 20 55
407 174 247 119 95 68
246 584 309 167 117 92
321 79 205 108 30 39
463 812 238 159 117 95
302 959 270 72 68 69
375 524 154 112 13 31
385 169 245 115 92 68
325 419 286 61 18 26
322 69 214 94 51 41
520 893 255 83 69 57
315 224 194 129 99 61
434 534 259 46 26 26
376 411 288 104 11 32
295 444 154 136 1 32
464 843 305 61 44 36
323 69 215 102 41 40
400 299 209 120 94 64
265 789 290 174 126 98
379 84 205 134 8 41
245 619 290 161 115 83
338 154 228 114 87 61
335 824 274 154 107 90
325 69 220 109 62 55
414 184 240 121 98 74
455 674 252 175 130 100
367 418 287 133 12 43
455 799 249 170 123 96
440 454 250 77 24 34
358 84 210 100 25 30
353 300 231 97 82 64
300 416 157 112 17 43
285 669 260 94 57 44
323 74 215 101 63 55
322 79 210 105 61 53
340 634 202 96 27 36
320 89 210 108 39 44
345 964 233 85 81 85
323 78 216 109 44 48
395 879 335 58 47 43
358 464 308 154 19 47
325 79 220 118 17 42
400 459 296 62 30 34
343 464 144 98 25 33
327 74 224 120 41 51
373 234 213 120 91 57
330 899 320 168 127 108
300 534 166 136 16 38
325 324 210 108 85 60
307 184 211 116 95 73
327 439 157 136 3 29
327 78 223 114 28 43
406 549 280 88 26 40
377 451 138 141 7 36
276 604 295 144 108 86
400 214 255 128 102 71
452 521 198 61 34 34
261 644 267 126 93 61
322 84 196 95 57 50
480 459 185 65 24 30
424 804 180 54 43 39
393 11 264 108 46 53
440 849 320 72 58 47
323 89 194 123 28 41
320 84 205 109 29 38
324 94 194 118 54 56
322 94 196 111 55 52
373 529 152 126 9 27
321 94 200 100 72 55
286 419 196 91 47 44
331 109 195 109 80 53
323 84 216 106 61 56
382 560 298 141 18 46
353 362 253 114 76 61
289 565 188 165 7 40
252 668 289 182 125 102
323 89 217 111 93 73
489 559 250 168 119 87
324 89 220 101 58 49
325 84 220 98 25 37
280 592 287 40 26 26
400 64 190 96 44 28
370 623 298 77 22 35
327 85 223 86 41 33
326 89 224 105 22 39
350 553 162 58 36 41
328 849 260 169 119 94
363 348 218 65 55 46
250 569 316 174 120 99
328 70 226 109 53 53
375 589 299 148 16 46
464 774 195 107 78 56
323 92 217 111 92 70
315 509 290 160 15 49
348 112 207 130 87 61
399 397 199 96 81 66
322 95 218 113 31 42
342 154 198 125 96 59
459 814 200 123 83 63
410 189 210 122 96 64
390 829 191 71 58 56
327 67 228 135 20 49
320 865 280 128 104 82
332 68 233 120 46 51
330 74 230 125 18 45
325 284 261 107 87 67
417 344 223 112 91 68
415 179 225 122 99 75
365 704 193 103 19 29
471 569 254 142 105 83
499 494 210 104 79 60
336 74 233 116 84 67
329 89 226 105 70 57
360 369 230 62 52 45
257 719 256 137 100 69
319 899 215 52 48 48
334 84 231 107 51 48
385 109 210 124 48 53
334 89 231 113 41 48
396 355 207 100 85 69
348 156 214 111 89 64
292 394 217 98 82 65
336 79 233 106 52 47
435 714 156 75 54 42
478 436 173 85 14 33
380 313 214 93 80 67
336 84 233 123 26 46
302 921 281 156 123 100
380 259 250 115 93 69
389 855 259 38 33 30
336 88 233 124 21 45
258 554 284 87 30 35
285 574 287 113 14 36
400 674 285 152 14 48
375 399 190 92 78 64
396 221 202 121 94 59
446 518 251 68 23 31
328 94 227 114 42 50
331 94 229 115 51 54
470 749 230 157 106 72
325 149 233 117 94 70
382 149 221 116 88 54
353 357 231 64 53 44
395 854 340 63 48 37
336 17 274 155 106 95
300 944 255 67 62 62
389 254 256 124 99 72
491 549 235 184 134 102
340 69 236 123 80 67
330 980 275 73 68 68
335 408 175 87 73 57
292 395 273 112 90 65
340 79 233 110 81 62
375 867 197 68 60 61
437 504 262 33 29 32
345 74 235 115 75 60
458 725 207 102 82 58
348 724 308 169 0 54
351 79 231 115 57 55
274 594 295 135 98 79
365 444 132 119 12 30
306 394 207 88 77 66
326 861 281 107 87 68
250 779 265 172 118 89
241 524 215 145 12 40
414 234 249 126 99 69
431 855 225 72 61 59
350 74 234 121 19 43
442 449 225 49 28 30
349 78 233 118 21 44
447 555 218 133 2 39
255 639 305 176 125 100
393 670 288 168 15 54
339 124 229 122 92 67
320 394 201 90 77 64
352 76 232 123 12 45
469 843 256 76 62 48
403 180 207 127 99 64
340 84 234 117 31 46
416 224 246 125 100 71
329 104 227 117 96 75
340 88 233 128 18 47
417 856 313 62 49 40
280 779 225 130 92 61
330 129 194 122 97 68
249 599 279 135 100 67
330 814 280 50 42 42
370 808 162 84 64 53
340 94 231 118 76 63
340 91 232 123 26 48
435 424 235 101 64 49
347 85 232 118 76 63
475 469 169 96 32 38
480 439 166 49 43 42
350 89 229 113 81 63
311 164 225 115 95 73
490 459 188 63 22 28
350 94 230 117 26 45
353 529 308 48 26 31
427 610 272 58 32 33
350 379 215 75 64 54
375 579 173 185 6 41
323 99 194 99 39 39
447 574 219 117 8 38
265 709 294 173 120 97
383 129 241 122 95 73
275 763 293 179 132 102
249 744 260 151 104 76
455 614 225 112 87 59
410 394 201 95 82 68
321 99 200 114 36 43
315 970 295 63 57 56
371 84 230 101 28 41
322 99 196 104 34 38
410 854 201 72 56 53
293 354 229 119 94 65
433 574 278 77 28 32
260 428 325 56 19 30
250 744 270 162 110 82
415 854 295 44 37 32
440 444 186 108 23 33
325 103 195 128 38 47
465 544 249 44 26 29
330 269 201 139 101 67
320 249 195 134 98 60
400 39 220 109 95 81
425 565 274 76 5 26
364 904 204 57 51 52
353 310 244 96 74 54
465 574 250 99 73 56
322 102 197 135 17 36
326 109 201 116 89 61
323 105 204 118 90 64
386 15 195 127 28 13
348 267 238 125 90 66
308 357 272 116 93 66
410 84 225 102 44 43
323 109 204 121 96 68
344 484 300 80 24 35
331 204 241 117 93 65
381 89 210 99 33 38
424 844 344 91 72 57
380 164 220 114 87 52
410 839 241 29 28 28
328 106 198 114 76 58
336 164 231 112 88 59
381 84 253 124 29 48
357 852 282 111 92 73
433 589 274 154 37 58
328 270 253 119 93 61
414 633 206 141 15 37
250 744 265 159 108 77
303 314 252 118 93 64
321 99 215 114 47 51
385 399 194 89 78 68
322 98 218 110 45 49
264 559 240 97 19 37
310 264 250 122 95 69
340 529 295 70 22 31
435 749 270 99 26 41
264 484 285 44 24 30
324 99 221 112 76 62
262 464 206 50 32 32
370 484 140 85 33 39
323 103 217 116 95 72
350 650 298 171 17 54
251 789 260 174 119 90
330 119 229 118 96 72
369 351 218 73 63 53
295 469 155 105 25 38
324 104 220 116 96 75
292 391 217 108 89 69
374 269 245 113 89 64
372 210 221 111 88 59
326 104 224 117 98 78
350 825 272 161 119 97
351 204 215 123 96 64
359 419 310 85 23 35
325 12 260 138 93 82
322 109 210 118 97 74
283 625 239 98 37 45
333 116 193 117 92 60
300 764 296 111 87 72
256 644 271 164 114 86
309 209 199 121 96 65
370 674 296 135 16 44
322 109 215 117 96 75
322 109 218 112 93 72
405 484 296 154 19 48
375 304 215 90 77 63
495 829 270 94 69 50
274 474 320 50 22 30
296 484 160 48 36 35
310 953 245 77 72 73
326 114 201 115 91 63
372 264 212 117 88 53
303 232 237 117 94 70
323 114 204 118 95 70
365 444 289 122 11 39
408 204 207 120 96 68
322 114 206 120 98 75
251 619 276 140 102 67
351 689 197 119 14 29
325 124 200 112 92 71
322 160 197 120 96 67
303 334 218 107 87 65
379 887 292 42 39 38
325 129 200 113 94 74
351 680 197 59 32 38
310 294 206 132 96 61
338 290 258 107 83 53
262 444 215 40 30 32
320 800 209 76 59 51
327 129 197 118 96 71
420 514 275 122 26 45
323 123 203 113 92 69
322 126 202 112 93 73
328 114 198 111 86 55
335 129 230 121 95 68
440 444 220 64 26 30
328 860 245 172 117 87
328 119 198 112 90 64
265 449 271 57 22 29
333 119 193 123 96 64
325 225 193 131 100 61
333 122 193 126 98 62
387 169 248 116 94 70
412 464 178 93 32 34
380 644 198 59 35 37
503 880 265 88 73 61
423 379 245 122 96 65
455 514 190 67 31 34
370 559 295 162 9 49
303 688 218 53 37 40
411 204 209 121 97 68
322 114 210 116 96 74
395 234 257 126 100 73
372 315 258 105 73 52
442 749 252 114 76 61
322 114 215 113 94 74
315 144 215 112 93 73
321 119 210 116 96 75
341 924 330 47 41 41
322 114 219 112 94 75
266 429 211 100 27 25
405 729 170 61 47 43
390 40 210 113 88 60
480 826 300 80 65 50
323 113 221 112 93 74
251 739 270 157 107 78
421 422 189 130 20 30
360 573 171 186 6 40
321 119 220 110 92 73
312 729 308 177 19 58
494 848 280 67 52 39
325 119 225 113 94 74
413 504 167 86 21 30
322 120 223 112 94 75
322 124 224 113 94 75
302 269 207 135 99 61
321 129 224 112 94 75
347 111 194 130 91 63
266 669 262 128 92 60
401 905 225 83 69 65
264 416 268 54 46 38
349 109 200 131 87 67
316 679 212 55 34 39
276 588 207 117 32 44
348 179 223 114 87 63
345 411 161 83 69 55
313 183 198 118 95 69
349 109 205 122 81 61
272 539 292 55 27 31
352 106 205 135 90 69
470 659 230 110 85 54
252 638 303 171 120 97
351 104 215 131 88 70
380 209 210 119 91 54
390 43 200 120 73 48
412 770 168 70 57 50
414 289 249 132 101 66
350 104 220 133 88 73
274 570 198 60 31 33
350 99 225 126 72 64
390 644 199 85 28 35
395 294 265 123 96 69
303 616 292 61 33 36
405 15 255 107 46 50
352 105 210 128 84 67
433 643 234 95 73 73
414 714 201 64 35 41
346 104 226 125 87 69
340 189 200 119 94 64
408 879 212 70 57 57
340 964 234 85 81 86
407 67 198 118 47 45
310 564 294 156 17 48
319 874 305 142 53 74
347 110 221 125 82 68
348 108 219 130 85 69
362 334 225 62 52 42
385 284 211 127 96 63
342 120 195 128 92 61
373 387 203 90 77 64
345 114 195 127 89 63
259 424 255 47 35 31
473 664 244 189 132 103
505 839 205 96 83 72
303 233 203 121 95 64
343 118 196 123 88 61
371 867 197 60 52 54
247 538 215 182 2 50
390 54 259 120 33 49
277 749 292 183 131 104
342 120 198 124 93 64
344 970 238 84 80 83
430 844 325 102 83 66
412 164 235 116 94 69
372 224 217 122 91 56
365 304 245 87 67 47
400 729 300 148 29 54
376 955 306 57 56 58
344 124 200 120 90 60
341 129 195 129 95 59
343 129 197 118 90 57
344 129 200 117 89 58
350 754 193 111 21 31
457 447 187 75 12 26
340 368 214 82 72 62
414 359 259 124 97 65
346 341 218 72 63 53
375 609 300 85 31 39
346 114 205 120 84 58
366 960 311 61 58 57
346 119 205 119 87 58
345 124 205 120 89 59
339 469 150 120 15 34
420 835 199 71 56 52
343 119 224 122 84 65
415 884 310 52 46 42
350 434 135 144 0 32
395 405 280 75 60 45
347 270 237 123 90 67
348 922 212 72 65 67
344 119 220 118 80 62
381 119 230 110 79 60
385 339 211 91 78 66
499 504 230 152 115 82
344 124 220 116 80 59
464 464 220 86 19 31
317 184 238 116 96 75
312 680 293 95 36 45
409 144 225 117 96 73
282 628 246 43 33 38
343 124 223 119 82 63
343 129 219 114 80 59
342 129 221 117 81 62
451 454 175 64 34 34
385 574 172 178 4 37
308 922 258 60 57 58
340 484 150 100 23 35
434 838 205 77 63 59
321 224 192 129 98 61
374 199 225 106 84 59
420 474 179 47 37 38
347 114 215 123 85 65
275 489 184 118 13 30
346 119 215 120 84 62
416 571 278 121 8 37
362 310 235 78 64 50
252 794 270 180 124 96
420 838 239 34 30 31
276 809 236 177 118 87
348 113 213 123 86 65
345 604 189 131 21 37
304 615 209 178 9 44
373 224 214 119 88 52
309 929 230 59 54 56
348 118 212 122 88 62
377 171 223 111 87 57
302 220 228 116 94 70
305 269 204 136 99 61
346 114 220 122 83 66
333 911 317 127 101 89
346 314 251 115 77 56
265 604 269 115 46 44
440 747 127 97 72 52
423 249 235 124 97 64
347 124 210 126 92 64
345 124 215 118 84 61
320 614 296 48 31 31
345 274 211 124 94 61
486 809 227 82 66 54
297 274 215 136 99 67
448 430 183 117 11 37
281 619 290 138 99 82
299 402 209 90 78 66
435 841 305 80 63 47
430 424 190 101 19 35
347 129 210 126 94 62
315 434 291 66 24 31
271 420 211 106 27 37
331 104 228 118 96 73
386 19 195 127 28 13
324 878 312 159 142 137
306 842 240 75 62 63
335 104 229 119 96 71
455 664 221 105 83 57
407 32 238 110 34 41
489 475 229 121 98 72
328 109 227 118 97 76
305 774 296 56 48 46
348 260 234 125 93 68
366 299 245 95 72 51
271 460 337 123 22 44
249 574 284 118 86 58
272 794 232 160 107 73
331 109 229 119 96 72
281 593 207 64 32 36
251 749 275 167 115 88
424 593 192 41 32 38
335 109 229 121 96 71
261 424 240 78 60 61
315 580 184 191 8 40
395 43 259 122 78 68
324 124 226 114 95 75
355 986 275 53 50 49
326 124 228 115 95 72
242 516 302 132 85 70
335 139 230 122 95 66
482 467 182 31 23 24
357 667 297 164 18 53
328 117 227 117 96 74
335 114 230 121 96 71
267 574 300 137 98 79
324 412 173 87 73 59
285 389 245 111 89 65
335 794 180 51 45 41
404 773 278 79 59 52
360 400 200 79 67 55
258 719 254 129 96 65
434 853 226 96 80 80
335 124 230 121 95 68
295 369 265 115 92 67
275 574 288 99 23 38
345 99 229 128 91 72
318 879 198 82 70 64
344 104 228 127 90 69
407 138 242 115 92 65
340 109 229 126 93 70
352 359 225 61 53 45
395 669 286 168 15 53
285 489 179 86 27 33
340 114 229 128 93 71
340 119 229 125 93 69
332 428 152 77 33 30
342 119 226 123 87 65
339 129 229 120 91 66
434 848 330 73 59 44
305 389 281 122 95 69
494 879 265 90 75 62
346 283 241 119 88 64
500 824 210 100 81 66
360 69 195 81 51 32
370 579 296 163 12 50
359 69 200 87 43 29
374 99 240 123 43 51
383 235 208 122 92 53
359 69 205 99 29 32
303 945 244 84 79 80
425 419 190 106 19 33
351 770 292 79 61 53
407 106 224 110 83 59
360 74 195 110 34 40
420 413 285 141 22 46
345 779 290 78 59 51
435 754 155 61 51 43
359 79 195 100 65 49
263 433 213 72 30 30
356 886 203 71 64 66
330 20 266 143 98 78
275 594 290 96 70 57
359 79 200 91 46 37
470 669 245 187 129 100
377 82 210 101 38 44
255 584 313 171 120 94
360 74 200 108 34 38
295 364 260 114 91 66
435 469 185 55 35 34
394 863 325 66 54 44
311 224 197 128 98 61
431 855 249 43 37 36
359 74 205 113 23 34
329 257 197 138 101 65
311 669 216 101 25 35
298 274 236 123 93 64
359 69 210 94 58 43
400 509 161 96 24 33
470 513 195 189 18 44
276 599 216 185 13 51
411 244 209 128 97 58
358 69 220 107 65 54
270 683 258 122 90 54
315 459 290 86 25 36
305 629 290 54 26 34
358 68 223 107 32 30
305 405 289 88 61 44
448 554 208 59 26 33
357 71 222 98 49 35
359 74 215 101 73 53
406 730 180 66 50 47
358 74 219 90 67 46
357 74 221 90 52 42
434 854 252 39 34 32
369 344 261 112 77 57
257 480 216 53 30 32
295 519 165 85 24 35
357 79 220 91 29 28
355 79 225 104 27 40
390 534 158 122 18 36
395 379 273 136 99 69
322 416 162 81 69 57
255 589 312 171 121 96
354 89 195 97 58 46
416 349 220 107 89 69
262 807 247 175 119 85
494 819 223 92 78 67
329 205 243 118 95 69
265 454 271 47 23 28
380 164 235 105 84 61
357 81 193 106 39 24
381 285 212 117 91 61
251 649 299 180 128 102
472 836 300 63 48 38
385 134 245 120 96 71
358 82 196 115 24 43
272 461 192 79 20 25
470 856 272 93 75 55
358 83 200 119 23 36
340 405 195 86 74 62
402 936 254 58 53 51
357 85 199 112 42 48
430 894 294 51 46 43
356 89 200 99 41 39
358 84 205 102 30 34
355 94 200 113 43 46
280 409 240 78 67 56
408 209 207 118 96 69
356 94 205 104 62 50
293 368 224 113 91 65
349 254 215 124 91 59
275 584 206 141 24 44
357 89 215 98 44 37
381 134 225 112 86 59
360 514 146 161 0 33
355 959 229 82 78 82
450 554 190 108 31 41
375 939 316 47 42 40
347 249 232 122 90 65
358 87 213 94 21 24
479 473 172 72 25 33
346 849 179 92 75 68
339 279 249 114 85 59
381 159 240 110 88 65
354 89 225 101 23 37
357 90 210 96 30 25
349 279 235 115 85 62
373 269 240 112 86 62
350 584 304 169 11 53
293 679 244 54 32 35
445 739 166 76 60 46
438 579 270 104 34 45
357 94 210 97 53 40
356 94 215 110 31 34
415 314 220 123 96 67
315 369 209 88 78 68
287 420 156 85 34 37
371 69 200 127 26 30
335 274 250 116 87 56
381 159 220 115 87 53
410 699 291 127 13 41
366 976 250 68 64 67
351 915 338 44 40 38
374 69 198 131 19 25
390 219 205 122 94 59
403 36 227 102 91 80
261 529 191 100 25 40
310 814 215 78 59 52
376 74 197 134 12 36
335 169 195 132 102 65
351 810 277 170 124 101
410 159 240 118 94 68
372 78 205 118 34 41
381 289 259 104 84 61
379 69 194 127 18 31
377 65 197 104 30 23
379 74 194 135 13 36
380 959 236 78 70 71
345 924 340 49 44 43
445 869 250 70 57 54
349 199 224 115 85 61
488 516 253 139 108 73
380 79 195 137 9 37
409 99 225 120 47 49
424 842 237 46 41 38
382 124 222 119 87 59
370 69 210 89 30 35
371 69 215 72 37 35
331 977 251 89 86 90
373 71 216 98 30 44
320 789 288 65 54 52
349 384 215 81 67 54
372 69 220 94 31 40
340 760 301 89 71 63
291 464 170 120 6 34
372 69 225 81 42 41
373 71 219 112 31 46
418 817 182 78 60 50
340 889 319 128 99 74
325 20 265 159 116 98
377 380 207 96 83 69
372 78 210 111 19 37
375 403 276 58 45 32
407 664 277 141 16 49
370 335 212 77 67 57
395 739 140 76 56 45
257 689 270 143 99 68
375 74 215 114 27 47
395 754 291 72 58 53
375 79 215 100 50 51
374 74 220 118 30 48
372 74 225 96 36 45
407 861 289 36 31 31
393 364 273 139 99 72
424 855 317 68 54 46
372 79 225 109 26 40
433 598 269 45 29 31
356 420 131 144 18 31
348 159 215 112 89 64
330 254 249 122 96 64
373 79 223 123 22 44
321 220 192 126 96 59
481 579 228 144 110 74
410 229 205 125 97 63
383 85 198 144 9 43
308 904 269 158 119 95
297 467 152 132 13 35
304 329 256 117 93 64
419 294 235 128 98 63
315 239 195 132 98 58
438 464 258 63 22 32
378 81 203 138 7 41
265 659 298 179 135 111
315 389 283 131 100 72
385 434 145 47 39 38
377 82 206 131 19 42
303 279 247 121 95 69
381 89 205 135 9 41
305 429 155 70 39 40
382 94 206 125 14 40
383 94 204 128 13 39
373 84 224 124 23 41
373 89 223 122 32 51
375 89 220 125 30 43
307 319 212 128 97 65
521 894 246 91 77 65
353 324 230 71 58 45
362 314 230 72 59 46
460 484 241 105 79 62
372 89 225 113 20 43
377 83 216 125 29 49
418 869 261 39 32 33
280 484 281 58 21 26
388 856 264 39 34 29
469 430 173 108 18 36
379 89 215 96 40 37
398 691 293 102 25 42
268 594 263 151 1 43
384 110 220 118 78 56
377 87 217 78 45 32
383 871 198 65 57 57
361 359 230 64 53 43
461 854 260 78 64 55
420 833 244 33 30 31
400 860 342 80 62 51
379 94 215 131 32 43
373 218 218 120 91 55
312 967 273 75 72 72
382 114 226 120 83 62
360 364 230 63 53 44
340 347 212 77 68 60
444 848 315 77 63 49
382 94 210 112 24 39
457 654 223 118 90 61
316 189 239 115 95 74
400 759 140 72 54 41
378 94 218 131 41 47
400 826 188 76 61 56
265 418 230 77 50 39
457 821 282 86 72 59
330 329 211 102 83 63
374 978 255 87 81 83
357 560 302 151 7 45
475 834 270 87 70 55
356 69 230 102 45 47
428 479 278 149 15 45
317 906 235 88 69 54
270 469 276 27 28 28
432 698 247 93 18 34
413 166 222 120 98 74
315 224 246 118 96 73
353 339 248 106 71 56
345 544 304 132 19 44
421 884 230 69 63 65
354 69 234 117 23 45
400 13 265 110 42 51
315 649 215 141 3 35
390 284 208 132 99 65
408 34 250 122 28 44
304 694 292 51 20 26
354 74 230 112 44 49
460 839 295 66 53 42
353 79 229 115 35 48
357 567 167 56 33 36
470 589 226 128 99 66
345 244 205 125 94 59
353 73 233 118 11 41
378 174 230 102 81 57
405 49 215 93 81 69
494 473 177 149 17 35
352 84 227 105 77 60
474 888 275 74 63 59
352 88 227 91 55 41
456 825 210 148 95 75
319 971 296 57 53 52
325 144 232 116 95 71
352 96 227 121 13 42
377 810 175 63 54 52
370 324 216 81 69 57
353 92 228 115 21 45
371 69 230 87 44 42
340 409 170 87 72 56
369 69 240 111 80 66
318 385 214 84 75 66
435 794 256 156 113 86
400 774 145 81 63 51
371 74 230 88 56 51
388 169 213 118 89 51
371 79 230 80 60 50
370 74 240 110 77 65
370 44 261 115 31 47
369 69 245 121 50 57
365 299 235 93 78 62
404 134 244 117 93 67
324 214 193 125 97 63
307 194 229 116 95 71
326 304 208 115 88 57
425 434 187 80 30 35
371 69 249 118 34 47
373 65 252 129 102 81
344 144 220 113 82 59
338 257 202 135 103 67
376 69 254 122 38 51
339 244 201 134 100 64
350 294 235 119 96 73
465 439 176 74 11 28
374 74 251 120 23 44
376 73 253 118 40 50
272 490 321 69 28 33
450 513 247 38 25 26
247 570 287 124 93 60
380 69 256 121 41 52
385 69 256 123 54 59
310 739 206 76 29 35
349 329 216 81 68 56
380 74 254 119 89 70
333 853 191 53 48 43
404 754 140 72 57 43
380 79 253 114 79 61
427 841 295 54 44 35
385 74 254 128 103 78
371 84 235 114 19 44
409 159 244 119 95 68
277 612 241 78 35 39
354 744 193 71 32 35
371 84 240 117 19 44
427 654 246 69 28 35
314 154 225 114 94 74
313 228 247 118 96 73
372 89 235 97 61 51
405 24 265 123 31 49
321 944 318 162 122 103
365 524 294 123 15 40
405 249 204 131 98 58
365 339 256 102 71 52
382 465 154 110 20 33
335 649 297 176 10 55
372 89 240 113 22 45
372 94 230 95 41 42
372 94 235 97 69 55
389 844 254 58 48 39
301 249 240 120 95 68
374 84 246 122 97 74
400 368 203 113 91 66
376 84 249 120 79 68
365 388 205 87 71 54
373 95 242 122 21 44
400 859 194 57 50 51
405 244 204 129 97 58
465 470 169 139 22 39
424 857 273 42 37 33
359 940 218 76 71 75
379 84 252 121 28 50
320 234 193 128 96 57
377 89 248 124 99 77
380 89 251 116 61 57
495 814 220 90 75 64
385 90 252 127 17 48
385 87 253 133 20 47
259 534 200 75 26 34
385 94 251 119 67 60
385 634 290 140 31 52
250 574 314 174 120 98
413 194 212 117 94 68
354 103 205 124 32 44
355 99 210 100 37 33
500 440 175 76 26 33
342 141 198 121 93 60
415 389 206 101 85 70
262 548 239 172 3 48
344 194 229 114 88 60
486 479 200 65 45 38
354 103 210 135 71 59
280 419 270 40 24 25
430 509 180 132 2 32
327 622 202 69 25 24
383 99 205 127 16 36
342 338 267 115 80 56
382 98 206 124 20 38
367 301 248 104 77 55
415 199 240 120 96 69
347 502 147 43 33 36
330 179 239 117 94 68
312 644 217 137 7 34
485 839 225 97 80 67
375 99 220 94 54 40
303 300 213 129 95 64
426 468 183 40 38 40
375 104 225 112 40 47
383 194 247 114 91 67
405 59 200 78 56 31
380 99 215 94 54 40
375 784 151 96 71 51
325 234 249 121 96 68
383 104 209 118 23 37
266 579 260 159 3 43
378 99 218 92 50 31
346 184 226 115 87 62
357 504 307 122 28 47
350 239 225 124 91 64
379 474 292 140 16 45
378 105 219 127 37 44
288 379 250 114 91 66
267 464 313 67 28 29
382 107 211 127 26 46
370 484 290 99 16 35
395 74 250 123 20 46
385 109 215 126 79 65
395 134 248 125 98 67
374 219 215 118 90 55
380 108 220 121 71 58
359 479 305 70 29 35
287 391 258 107 87 65
361 971 302 69 66 66
335 254 200 136 102 65
383 111 223 117 74 54
383 114 224 116 78 54
342 159 198 129 99 60
383 118 223 117 83 57
344 495 148 45 35 42
382 119 225 111 81 57
439 589 260 120 31 46
326 214 192 126 97 62
384 124 220 118 84 54
265 474 195 82 29 34
382 124 225 108 81 56
372 99 226 102 25 38
287 617 222 53 29 38
385 879 305 34 32 33
403 486 167 100 24 34
372 99 230 117 20 42
341 857 294 95 77 56
375 104 230 121 69 63
372 98 239 122 22 48
299 669 281 36 28 27
490 884 261 69 51 42
385 344 210 91 79 67
331 832 268 158 117 95
376 103 239 127 94 76
379 109 230 124 88 70
374 884 295 46 39 35
330 814 206 59 50 47
395 339 210 96 81 65
378 105 240 128 95 73
347 164 204 113 89 59
380 109 240 128 94 74
331 654 207 130 2 31
375 564 166 184 6 40
376 98 245 125 55 56
262 568 207 89 27 41
282 429 197 102 33 36
392 945 238 75 67 68
379 100 246 128 95 76
377 97 248 122 37 43
365 587 177 186 6 40
460 829 220 103 71 58
422 228 225 119 96 70
455 734 165 74 54 36
381 99 249 125 95 74
425 389 230 119 95 68
330 264 199 139 101 66
321 884 196 80 68 63
426 850 243 53 48 43
381 114 230 118 84 66
381 114 240 126 93 72
349 184 210 114 90 59
340 985 270 63 59 58
305 944 240 83 77 78
381 119 235 115 84 65
450 453 211 55 20 25
315 249 195 135 98 60
317 452 158 120 0 24
406 919 250 55 49 47
382 124 239 120 91 70
382 114 244 128 100 76
307 704 212 77 31 33
361 364 250 101 71 53
293 372 223 113 91 65
385 119 245 126 101 75
345 594 304 168 20 54
406 830 252 34 30 30
330 594 189 65 35 37
383 121 242 122 96 72
488 471 224 118 95 71
345 403 275 68 52 37
279 409 250 75 64 55
409 445 182 62 34 36
319 139 205 113 94 74
338 229 197 134 102 64
434 793 258 150 106 82
345 254 235 125 93 65
319 144 204 113 94 74
317 131 217 108 90 71
270 674 260 121 88 52
317 135 219 109 90 71
261 429 220 112 10 33
345 324 255 107 71 49
400 174 250 123 98 69
316 144 210 113 93 72
318 138 208 112 93 73
510 885 264 87 76 66
316 139 220 109 91 72
407 19 255 106 39 45
374 804 161 76 60 51
320 149 200 113 93 71
320 154 200 113 93 71
437 724 265 126 20 43
316 154 205 112 93 73
286 754 221 114 18 32
317 155 202 109 91 73
308 295 208 130 97 61
362 379 255 106 71 57
495 844 280 63 50 37
446 464 235 106 15 35
386 753 147 74 56 42
402 182 207 127 99 63
318 152 203 110 91 72
350 569 306 102 24 40
361 374 215 70 59 47
314 149 215 113 93 72
407 114 235 120 96 70
277 491 182 121 18 37
470 863 279 63 49 39
295 419 285 70 21 25
381 955 234 82 72 74
363 21 276 147 28 57
315 494 290 161 8 49
475 503 186 131 25 41
314 149 220 113 93 73
476 524 254 142 105 84
314 154 210 113 93 73
385 219 250 118 96 72
405 732 154 61 47 44
295 549 291 151 17 49
269 417 236 72 54 47
330 274 254 119 93 61
392 956 286 55 48 44
313 158 214 112 93 72
262 798 242 178 121 89
386 332 213 91 77 64
388 218 252 121 97 72
335 868 312 162 128 103
312 156 219 113 93 73
312 159 220 112 93 72
312 160 224 114 94 74
380 13 295 163 31 64
313 159 226 113 94 73
256 779 284 165 117 88
318 144 227 113 94 74
385 204 249 117 95 71
320 144 229 114 94 74
300 499 156 78 31 35
320 149 230 114 94 73
317 150 228 113 94 74
316 159 230 113 94 75
306 674 288 92 21 36
455 527 211 70 32 34
315 169 200 114 93 70
300 794 214 78 60 52
310 489 291 158 10 49
319 154 231 114 94 73
373 294 251 106 82 56
311 174 205 115 95 74
320 164 196 122 97 67
320 169 196 124 98 66
420 739 126 106 69 50
388 485 162 110 10 24
318 167 198 121 97 70
254 709 270 141 96 67
395 264 205 131 100 62
456 827 293 80 69 60
313 164 205 112 93 72
313 168 204 113 93 71
398 842 243 66 55 45
317 170 197 122 97 68
316 894 260 131 104 77
320 174 195 125 98 65
271 504 300 115 10 38
275 578 288 54 25 29
305 244 201 128 98 60
317 174 196 124 99 69
400 224 204 124 96 62
350 504 146 46 35 39
312 175 202 114 93 71
402 546 297 88 35 42
310 169 210 114 94 73
315 184 236 115 95 75
391 278 207 130 98 62
310 169 215 113 93 72
348 773 180 52 45 42
310 169 220 115 94 72
380 49 262 131 100 76
293 646 243 160 14 51
340 254 240 121 93 64
418 239 212 124 97 64
398 542 162 165 6 33
293 649 244 128 8 34
311 169 225 116 95 74
418 717 170 80 71 65
309 174 215 114 94 72
313 162 208 112 93 73
266 449 202 47 37 37
431 900 274 68 59 57
266 574 235 97 30 43
312 179 201 115 94 72
420 554 266 128 12 40
353 339 225 60 51 43
309 184 205 114 94 73
337 845 202 44 40 40
346 593 182 122 38 49
307 186 207 116 95 72
427 652 228 71 28 37
424 474 285 147 14 44
308 189 204 115 94 72
365 489 291 136 11 42
333 819 200 47 44 44
336 850 173 105 83 68
320 184 194 126 98 64
360 985 270 69 64 64
315 189 195 126 99 67
395 644 201 64 33 35
312 191 197 123 98 68
325 778 293 81 65 60
474 514 200 106 19 34
335 549 166 84 32 40
307 181 212 116 96 74
353 400 250 68 51 33
307 184 215 115 94 71
346 379 266 124 84 66
285 509 286 60 24 30
335 229 195 134 103 65
315 299 264 125 93 67
438 431 235 109 21 35
342 574 303 45 26 31
315 719 310 148 18 49
308 179 210 117 96 74
385 314 270 115 89 63
348 379 211 75 65 56
348 239 207 120 92 56
332 317 213 112 89 62
308 179 215 114 93 72
353 339 222 61 53 46
330 299 210 123 90 60
370 899 340 59 50 45
308 183 209 116 96 74
307 181 218 113 93 72
310 194 200 118 96 71
272 797 232 161 110 73
248 624 302 166 118 93
307 184 220 114 93 71
308 179 220 115 94 72
342 402 272 89 67 51
299 615 213 149 12 39
367 801 158 95 75 57
309 179 225 116 95 74
