ply
format ascii 1.0
comment Created by Open3D
element vertex 2226
property double x
property double y
property double z
property uchar red
property uchar green
property uchar blue
end_header
442 858 246 87 69 60
404 434 265 74 60 46
338 359 225 82 72 64
392 421 142 82 76 56
294 414 135 72 30 39
279 869 236 123 96 70
128 799 236 155 120 103
368 424 130 111 52 40
299 561 303 42 27 27
343 354 221 82 73 64
238 524 255 153 1 42
341 357 224 82 73 65
240 718 288 166 12 52
340 360 222 83 74 65
454 824 260 81 60 49
339 364 226 84 74 64
353 689 179 80 56 41
321 377 248 119 91 63
245 718 298 168 16 53
238 894 275 164 117 100
340 362 222 83 74 66
395 495 163 56 33 34
263 409 216 110 24 33
344 364 221 84 75 66
277 654 218 96 29 37
342 369 224 87 77 67
344 369 220 87 77 67
338 589 196 84 34 41
353 354 215 86 76 67
398 419 185 87 21 30
438 529 305 163 17 51
353 359 214 87 77 67
360 827 198 68 58 55
348 364 215 84 74 65
353 364 213 87 77 67
352 369 213 87 77 67
407 897 242 85 70 66
353 354 280 106 76 53
343 713 145 64 50 39
344 374 220 90 79 69
341 374 224 87 78 69
337 382 223 92 78 63
272 459 194 55 38 36
338 379 225 89 77 66
373 534 295 93 8 32
345 380 216 94 82 71
240 608 245 75 28 39
267 369 270 115 93 68
341 468 303 115 12 37
354 369 212 87 77 67
251 619 277 73 30 34
320 814 162 76 64 61
349 375 212 92 81 70
345 374 217 91 80 69
470 491 305 194 20 53
303 454 301 60 23 31
343 834 392 139 89 68
302 394 323 158 108 85
338 339 270 63 51 39
333 399 270 59 46 35
344 385 211 95 82 69
318 834 160 106 85 68
348 384 210 93 81 68
346 382 213 96 83 71
223 779 186 116 87 50
115 807 216 198 139 118
348 432 287 63 49 36
353 379 209 93 81 70
397 764 255 129 94 62
153 843 217 169 118 97
358 669 306 137 15 45
330 359 236 73 65 58
453 489 350 50 25 30
330 364 237 72 64 57
363 839 260 30 27 26
366 831 285 109 72 56
330 364 240 70 62 53
331 369 234 72 64 56
348 409 155 89 75 60
358 814 290 84 63 54
263 414 310 61 24 29
322 364 255 109 83 61
374 694 296 148 14 46
324 369 250 92 72 55
231 770 247 180 133 108
323 369 255 113 86 64
329 359 245 70 60 51
240 674 250 77 26 36
329 354 255 72 61 49
356 577 344 36 26 25
329 359 250 72 61 49
318 944 231 77 70 70
330 369 245 70 60 49
282 352 264 99 86 73
407 415 215 84 41 20
330 364 255 71 60 49
248 954 300 57 52 51
405 531 366 59 28 30
391 399 217 95 81 67
148 864 224 191 131 114
330 369 255 70 59 49
271 902 223 77 60 49
237 514 250 117 12 39
322 384 230 93 73 55
326 414 293 108 79 57
381 670 261 51 29 31
323 380 236 101 77 59
321 482 299 114 7 35
398 413 210 84 73 59
324 376 237 85 67 54
233 584 255 113 17 42
377 780 303 87 68 47
324 379 240 94 73 56
388 734 199 88 65 55
119 814 216 197 139 115
245 582 222 42 29 38
386 797 403 168 113 82
408 437 256 68 57 44
334 851 407 201 137 112
342 398 282 69 44 27
323 384 235 103 79 58
338 694 164 86 57 41
323 384 240 109 82 61
335 380 226 82 72 63
105 784 225 190 138 121
333 384 230 81 71 61
332 379 240 71 62 53
332 384 235 79 67 56
318 405 170 91 68 55
265 644 227 132 0 32
242 794 241 169 128 102
324 374 245 81 65 51
333 864 200 60 55 56
329 373 246 72 61 50
390 373 256 114 91 63
373 909 260 94 75 66
100 773 215 190 137 113
326 379 246 79 64 51
248 664 280 126 13 42
326 384 245 89 70 54
387 416 161 94 74 60
239 914 295 182 139 118
303 824 269 159 119 97
90 743 207 180 125 103
326 385 241 101 77 57
449 500 304 54 26 30
463 461 375 68 19 28
326 379 255 80 66 52
329 399 255 97 72 54
327 384 255 82 67 52
331 375 245 70 60 50
289 891 346 126 93 77
363 848 262 36 32 30
167 865 222 124 89 63
294 728 308 66 25 33
331 379 245 70 60 51
331 384 245 70 61 52
347 878 216 66 57 56
340 354 226 81 72 64
388 412 204 93 68 50
368 479 151 52 36 39
336 358 228 80 71 63
411 527 377 79 18 30
337 369 228 80 70 61
347 504 287 79 20 32
339 374 226 85 75 65
271 907 218 67 62 62
337 374 228 80 70 60
355 325 218 95 80 64
358 324 217 95 80 64
358 329 216 91 78 64
359 825 398 156 98 74
425 509 224 134 9 33
398 874 309 47 37 31
358 334 216 89 77 66
364 819 305 157 111 85
363 324 217 98 81 63
278 659 306 160 16 51
156 831 229 104 71 52
98 729 205 100 88 76
305 619 328 89 28 40
300 424 154 119 5 36
350 291 268 83 67 48
364 329 218 96 81 65
408 869 250 90 76 64
368 909 324 70 58 51
393 469 296 38 26 27
459 444 230 127 20 39
368 329 218 101 83 64
361 777 389 108 88 66
364 332 218 95 80 65
253 719 304 162 15 53
384 694 270 51 32 36
261 550 194 82 31 38
368 333 218 100 83 66
358 339 216 88 77 67
358 344 216 88 79 70
457 468 267 67 29 31
462 504 310 200 14 57
363 339 216 90 79 67
369 630 229 56 30 35
303 634 214 123 13 30
363 344 215 91 80 69
368 344 215 95 82 69
362 749 313 139 23 49
363 349 216 91 81 71
373 329 219 107 87 64
373 334 219 106 88 67
379 324 224 117 94 68
379 329 224 115 93 68
330 819 137 81 67 54
377 334 221 112 92 68
402 464 175 132 10 35
298 743 194 94 32 35
380 334 223 113 92 69
332 632 318 139 28 53
306 724 195 46 38 38
143 744 195 96 79 59
344 684 170 86 62 44
371 336 217 102 85 65
416 577 245 204 17 57
298 900 336 128 92 79
377 339 221 109 90 68
241 589 233 47 32 37
380 339 223 111 91 70
178 773 197 176 116 84
382 339 226 107 89 69
133 738 227 132 106 82
351 701 164 64 51 39
284 879 195 34 32 32
380 342 223 109 90 70
353 644 225 59 35 38
348 598 340 179 8 56
358 299 272 107 84 56
396 416 197 104 32 31
438 479 268 100 17 35
378 349 220 107 89 70
244 664 245 80 25 32
381 346 222 108 90 70
262 950 239 74 69 70
381 350 222 107 90 70
381 324 227 107 86 63
356 794 364 157 115 95
326 330 297 98 77 54
288 585 199 180 4 37
383 324 230 111 89 64
273 429 316 88 30 41
312 949 305 56 50 49
382 329 226 107 87 65
382 334 226 107 88 67
291 478 165 63 26 29
379 324 256 127 97 65
381 324 253 128 100 67
379 329 256 127 98 66
102 764 204 177 124 94
289 289 334 124 93 67
275 319 319 145 109 83
382 329 254 129 101 68
384 334 250 129 102 69
397 439 145 148 17 37
358 364 215 89 78 69
283 404 211 110 29 26
326 370 275 89 69 50
387 809 207 64 53 48
331 862 262 42 37 35
392 907 270 72 61 57
359 368 214 88 78 68
363 359 213 90 80 70
353 594 340 174 13 55
368 354 215 93 82 71
363 364 214 89 79 69
364 363 212 90 79 70
468 479 390 153 22 53
369 368 213 89 79 69
358 379 209 90 79 68
365 823 304 159 113 88
323 406 165 84 67 52
236 549 254 45 26 32
358 803 438 195 142 121
363 370 212 87 78 68
368 384 209 88 77 67
329 849 262 153 110 87
400 732 230 58 47 38
273 397 233 104 91 78
373 354 215 98 84 71
346 842 413 203 138 113
373 359 215 97 84 70
239 679 250 48 31 36
148 759 196 170 112 80
340 861 203 65 56 54
401 424 185 104 18 34
373 364 214 95 83 70
432 503 291 31 27 28
404 434 170 67 29 33
379 354 219 106 89 71
382 354 221 106 89 71
236 538 247 141 0 39
331 394 235 82 67 57
364 596 332 185 19 60
384 354 224 104 87 70
463 461 385 56 19 24
321 348 328 140 98 79
282 854 235 139 103 76
378 364 215 104 88 71
381 365 217 106 89 71
283 454 190 49 35 32
415 546 266 40 24 34
327 816 171 63 55 55
380 362 218 106 89 71
244 619 260 151 7 45
421 512 212 135 10 36
383 364 220 104 88 71
158 769 198 196 129 100
382 369 216 106 89 70
235 514 236 140 0 37
464 500 335 169 23 53
462 818 256 101 71 61
279 538 172 176 7 38
372 375 212 91 80 69
307 388 323 152 103 82
372 379 212 92 80 69
410 759 213 89 78 73
408 754 220 85 74 65
373 384 210 90 78 67
373 409 190 91 78 64
378 374 214 101 85 69
382 374 216 107 89 70
378 379 214 99 84 69
313 534 292 71 23 31
318 634 214 107 16 28
378 384 212 96 82 67
376 381 212 96 83 68
379 383 213 99 84 68
283 427 318 103 22 39
383 379 215 107 89 69
273 519 291 122 20 42
298 419 125 113 21 37
298 414 125 141 19 34
303 413 125 127 26 31
154 829 230 102 71 52
361 840 257 28 24 23
303 415 122 160 19 38
308 413 125 118 39 38
123 789 236 163 125 108
235 545 260 131 14 41
308 415 122 132 26 40
471 492 316 199 15 52
270 553 186 105 35 45
364 502 162 48 38 39
312 414 126 80 39 43
138 760 226 165 115 97
298 424 126 138 9 35
303 418 122 160 8 37
303 420 123 162 1 38
333 444 154 144 0 33
278 679 306 125 16 42
299 429 126 152 1 33
436 872 236 81 68 62
483 864 192 106 85 68
303 433 127 156 0 33
393 734 265 136 17 42
393 415 185 71 40 35
307 418 122 146 14 36
308 420 123 131 16 37
446 503 239 47 29 32
313 419 125 77 31 38
388 469 150 63 32 36
313 424 126 153 2 36
299 754 299 80 65 59
241 673 255 57 33 38
308 429 126 160 0 31
306 756 302 81 65 59
316 416 127 50 37 41
293 479 141 84 36 41
286 598 302 136 3 42
319 401 191 89 74 58
247 514 205 138 2 34
328 519 166 147 4 30
256 615 228 143 17 42
280 890 357 120 81 65
405 794 300 142 104 66
316 423 127 155 3 37
401 738 204 62 47 34
307 432 127 162 0 29
378 454 140 142 15 35
391 364 235 116 94 69
285 445 192 38 37 38
433 421 240 81 20 25
388 559 335 40 29 30
363 897 317 38 32 32
284 449 191 47 36 34
288 449 189 68 28 31
363 764 190 62 49 45
403 879 309 84 66 51
294 414 140 73 27 34
298 412 135 93 28 45
484 439 279 97 27 35
448 469 227 143 14 32
303 411 131 99 41 42
302 412 129 103 36 43
292 424 135 114 20 39
104 774 229 180 133 116
456 421 238 64 29 32
304 547 172 161 21 44
299 411 140 104 28 42
340 677 208 86 56 42
283 733 303 169 16 55
394 556 320 53 25 29
275 404 318 153 113 89
297 414 145 110 18 39
373 691 195 73 61 49
303 410 145 108 35 41
263 464 199 117 19 28
292 464 175 60 30 30
299 392 224 105 90 73
302 414 151 121 7 39
248 874 255 153 114 85
255 929 222 74 65 64
308 411 130 101 54 45
308 410 135 97 52 44
107 779 231 179 132 117
266 683 302 148 14 46
312 411 131 101 56 46
314 413 129 91 57 47
294 783 283 73 58 52
443 444 246 51 26 30
417 518 375 64 23 27
308 410 140 99 43 42
362 703 179 92 54 43
342 794 430 153 122 95
308 409 145 105 44 42
317 411 136 93 65 50
375 782 422 126 99 66
328 408 150 85 64 47
273 933 216 89 79 79
354 776 420 111 90 68
352 675 216 42 37 38
317 415 130 55 48 51
318 410 140 85 64 51
275 533 172 169 7 40
318 408 145 88 65 52
275 506 172 39 31 30
282 309 284 108 86 61
395 801 365 176 115 87
393 580 320 67 29 36
308 409 150 107 43 40
465 476 397 116 26 43
305 411 154 117 7 34
308 410 155 107 39 39
288 269 331 117 93 67
208 784 190 151 103 64
141 784 224 121 77 56
279 314 286 117 95 71
173 749 196 101 81 56
305 414 159 112 5 35
391 369 235 114 92 67
313 408 160 97 56 47
331 551 298 29 25 24
270 355 276 116 94 68
318 407 150 90 66 54
317 407 155 90 67 55
423 429 245 63 33 32
303 434 160 72 28 33
325 327 298 100 79 56
319 406 155 87 68 55
333 504 165 111 9 31
319 406 152 87 68 54
407 588 299 118 27 45
268 354 300 125 98 68
435 871 262 80 63 49
148 874 226 145 110 88
310 411 164 98 35 38
308 414 170 95 18 33
308 414 175 96 17 33
310 411 170 93 14 31
313 409 170 95 48 45
278 938 335 195 138 126
333 474 159 145 0 29
338 454 313 76 26 34
373 895 267 50 42 38
310 411 175 92 26 25
253 794 184 125 89 48
319 359 326 144 102 84
448 484 230 145 13 34
313 408 175 97 46 46
400 756 218 90 76 61
118 739 231 148 113 92
448 474 228 117 14 34
303 434 170 54 30 35
318 406 165 89 67 55
426 558 245 68 31 36
342 817 127 120 97 76
381 876 255 73 61 56
396 802 360 179 116 90
320 605 315 91 2 29
288 354 260 100 87 73
388 877 255 70 60 54
293 570 189 191 8 40
312 408 180 98 45 44
301 417 151 123 0 39
311 407 184 102 45 34
383 509 296 56 25 30
331 499 162 148 0 29
318 906 305 36 32 33
313 405 185 95 70 55
307 414 185 96 21 30
304 410 191 86 25 27
263 559 195 75 32 38
374 654 291 57 29 36
323 410 140 80 62 39
379 412 195 92 77 63
306 412 188 85 26 31
376 608 308 162 16 53
239 544 275 97 19 37
393 519 174 168 11 36
457 483 276 81 28 35
388 364 255 119 94 65
314 406 180 95 71 57
293 469 165 65 25 32
455 471 362 62 23 25
308 404 316 153 104 86
303 393 225 102 86 70
318 404 180 90 72 56
247 889 255 154 111 87
278 399 220 94 69 54
432 422 241 58 19 26
273 404 214 83 36 34
431 502 378 62 18 24
317 402 190 91 75 58
292 429 135 139 3 37
442 528 299 186 12 55
444 500 299 46 29 29
391 502 162 133 33 51
292 419 135 59 32 36
267 354 285 125 99 68
294 424 130 86 27 36
298 694 206 101 21 30
404 429 200 109 12 31
292 424 140 103 14 36
277 514 165 115 18 34
337 821 153 77 65 54
373 414 165 91 75 60
308 874 285 140 100 79
328 900 300 36 31 32
322 304 330 102 79 52
292 429 140 133 3 37
294 429 144 122 3 36
296 425 128 122 19 41
296 429 128 143 1 37
297 419 146 115 7 33
427 548 315 191 16 51
300 420 153 124 0 35
257 654 234 89 31 37
390 363 246 122 96 65
290 862 302 149 112 80
128 804 236 159 123 107
333 402 184 84 72 60
434 866 226 103 81 67
304 419 160 87 18 34
303 424 160 45 28 32
383 864 245 80 73 75
298 429 150 123 2 37
301 429 157 80 26 40
300 428 158 64 23 31
261 961 261 77 71 71
291 434 135 141 3 36
389 369 230 106 88 69
363 711 184 75 52 42
154 862 242 122 93 78
293 439 145 109 16 36
295 444 132 150 0 32
400 779 254 125 89 61
285 490 165 94 16 30
293 449 135 134 10 35
263 259 280 157 105 77
290 446 143 49 27 34
183 910 250 108 77 62
306 422 166 90 26 33
290 449 141 65 32 37
284 518 157 142 16 41
338 410 147 86 73 62
330 931 317 76 65 57
246 560 213 121 17 39
374 849 225 68 60 59
303 435 128 157 0 33
291 449 146 71 29 34
287 483 161 110 11 36
398 744 199 76 60 49
338 509 166 123 17 35
290 469 142 98 35 41
295 449 154 95 20 37
248 754 275 82 69 64
298 329 339 146 104 80
299 434 155 96 19 37
478 844 221 102 82 64
282 884 195 43 39 40
118 764 235 156 121 101
194 794 197 218 147 113
270 967 266 79 75 76
301 438 157 70 12 31
302 439 160 64 28 34
251 866 277 108 57 70
401 410 230 83 71 60
419 529 265 84 25 38
298 444 160 48 24 36
314 429 130 160 0 32
317 424 130 153 2 31
320 420 133 121 20 46
332 389 235 81 68 58
316 428 132 159 0 35
402 892 285 57 49 50
251 713 213 57 32 35
440 501 362 58 24 27
314 318 278 86 72 55
438 539 330 71 30 35
414 444 219 44 36 37
313 439 131 161 0 36
382 808 405 202 132 105
393 379 230 108 88 67
148 845 218 174 121 98
383 838 275 91 62 47
308 444 131 161 0 34
312 443 132 162 0 35
298 534 296 78 24 34
322 474 150 67 39 39
313 449 135 163 0 34
373 410 180 91 77 63
315 440 133 163 0 36
130 738 198 93 82 70
318 434 135 154 0 30
273 709 308 165 17 54
318 439 135 160 0 32
319 444 139 163 0 30
404 434 160 55 35 36
237 914 280 183 139 120
303 829 270 162 120 97
303 429 170 79 23 35
272 519 170 104 18 37
304 424 175 43 29 31
264 390 251 125 106 89
281 504 160 116 18 35
383 799 410 180 122 95
363 481 153 51 37 39
320 762 308 80 65 59
302 429 175 41 29 31
163 774 198 208 138 110
253 825 210 98 54 51
299 859 390 157 125 104
236 708 265 103 19 39
294 430 192 86 21 29
304 424 180 57 29 30
430 453 267 61 27 26
302 424 185 58 31 31
299 419 191 94 19 33
373 869 265 39 34 32
298 424 190 82 27 31
319 824 170 76 64 58
236 708 251 104 27 45
478 854 225 96 80 64
258 916 351 98 68 54
338 401 186 88 75 62
258 769 190 106 82 51
461 438 238 42 30 31
304 419 185 94 20 31
302 418 189 98 17 33
178 749 196 99 80 58
454 509 360 127 30 48
354 856 208 64 54 52
299 430 186 49 29 28
301 429 180 37 32 34
263 962 260 82 77 77
297 429 189 61 27 30
304 434 165 55 29 33
297 402 208 100 86 71
298 419 316 158 110 85
301 438 170 35 30 32
300 440 171 40 29 34
258 779 187 116 86 49
433 529 230 74 28 35
371 864 217 70 61 60
325 429 143 47 37 42
303 454 132 161 0 32
300 440 175 78 28 32
446 517 368 96 28 40
300 445 165 41 27 31
305 424 170 92 19 33
298 444 175 49 31 30
168 869 241 151 115 107
409 494 190 129 15 37
383 835 230 63 52 49
338 403 180 88 75 61
326 848 161 96 86 88
298 449 170 80 28 34
208 755 196 93 78 64
319 951 287 71 66 65
297 449 175 39 30 31
301 442 168 30 30 33
289 439 191 66 29 31
288 264 274 132 92 61
315 729 323 76 29 36
292 444 188 53 34 26
133 730 220 99 83 67
258 449 300 134 17 43
299 434 181 44 30 32
328 598 315 100 1 31
133 799 235 137 106 88
428 834 290 75 61 50
298 434 185 88 25 35
304 748 309 79 63 58
261 632 292 45 26 27
299 439 180 54 31 32
449 479 370 71 20 32
248 724 300 135 18 48
301 437 178 68 30 32
297 444 180 50 34 31
314 844 163 100 79 60
305 420 164 81 19 34
305 424 165 73 24 37
305 420 172 100 19 31
407 430 244 67 55 45
264 962 250 90 86 88
433 449 230 83 27 34
306 419 175 96 17 33
163 768 197 184 120 91
362 828 415 202 135 106
308 674 314 154 19 50
388 359 230 107 88 67
457 493 389 115 30 46
305 421 181 91 26 32
258 398 224 66 42 42
460 805 259 86 69 56
268 399 220 71 38 40
270 851 257 100 79 54
234 554 255 36 29 32
411 445 212 49 36 35
273 397 225 93 79 66
283 689 308 72 26 35
260 490 192 124 10 30
403 499 180 144 14 36
258 404 219 86 33 35
408 443 270 70 57 43
278 654 307 166 16 53
362 887 295 33 30 32
258 409 218 94 33 34
323 759 169 72 54 44
263 404 218 97 33 36
424 499 220 123 9 34
261 407 218 125 21 31
264 405 217 89 33 34
385 344 229 108 89 69
258 414 216 63 33 36
128 744 230 163 124 104
263 414 215 116 21 27
268 404 216 50 40 41
410 819 275 128 86 60
282 541 173 178 7 40
272 409 213 57 34 37
252 698 218 77 32 28
298 958 300 77 71 70
270 415 212 125 21 28
239 699 230 117 18 34
404 544 199 66 33 40
155 737 217 105 87 68
278 400 215 101 38 37
304 854 195 43 39 40
482 464 295 93 30 39
278 397 225 101 89 77
464 814 245 85 66 54
283 400 215 98 68 53
288 399 215 102 88 73
248 923 336 100 66 57
213 784 187 138 97 56
283 397 225 104 91 76
288 414 205 103 26 26
388 421 141 90 77 59
273 499 180 54 31 31
407 420 229 61 43 36
388 839 275 104 73 58
239 539 270 93 24 38
278 409 211 110 22 31
282 402 213 112 36 34
312 928 216 73 66 68
253 807 187 161 107 74
330 354 264 71 61 54
138 749 229 162 123 104
283 409 210 110 26 26
284 401 212 101 43 31
459 495 309 85 15 29
287 453 188 56 34 28
398 584 220 57 30 38
286 408 208 100 29 26
268 359 275 117 94 68
365 766 193 61 48 44
258 394 230 80 50 42
263 395 230 91 56 39
283 349 329 137 103 77
263 396 226 97 40 41
412 878 300 70 53 53
343 883 221 65 57 57
258 395 235 83 65 55
402 414 240 93 77 61
339 822 428 184 132 108
258 395 240 87 73 64
263 395 235 94 76 59
483 864 229 91 78 66
406 567 316 85 37 44
263 395 240 96 84 74
330 403 250 99 74 55
268 396 230 98 78 60
424 872 247 94 72 55
337 671 185 81 59 43
268 396 227 94 56 44
392 714 195 66 44 36
448 479 229 132 11 33
303 284 283 88 70 48
393 874 295 46 37 35
324 843 150 107 86 93
272 396 226 98 86 74
479 435 280 98 18 32
268 395 235 101 85 69
393 484 157 88 28 36
273 395 235 104 91 77
272 393 239 105 90 75
260 391 256 112 69 62
220 807 192 207 141 110
263 394 245 103 93 84
378 434 293 83 40 34
331 803 167 63 51 52
269 390 245 107 93 78
337 298 261 78 65 52
381 593 314 141 34 52
272 388 244 105 91 77
274 390 240 104 90 76
267 388 249 116 98 82
392 821 223 55 46 41
258 454 205 122 13 29
467 479 330 113 2 35
275 391 237 104 90 76
269 793 264 68 54 49
130 732 203 101 87 72
278 395 231 105 90 74
276 902 204 52 48 50
278 397 229 104 91 78
473 459 290 105 11 35
325 324 326 108 83 56
298 784 285 76 60 54
327 359 305 113 83 57
278 393 234 105 90 75
288 394 225 105 90 74
281 392 233 103 89 74
258 429 213 123 8 31
386 776 374 120 94 63
259 430 212 123 10 30
263 429 211 123 14 29
384 422 138 92 80 62
267 418 213 120 20 28
277 304 289 127 96 68
326 389 235 93 71 55
268 419 212 120 16 30
340 816 120 100 88 80
405 747 223 52 39 35
272 418 213 120 16 29
247 909 306 167 132 112
342 644 313 109 29 43
273 419 212 120 17 28
273 424 210 118 21 26
313 619 329 56 30 35
375 911 263 92 71 62
303 404 200 97 66 50
268 429 209 120 18 24
251 914 234 74 68 69
264 440 207 45 33 38
309 689 200 76 40 35
375 881 303 39 32 29
269 434 207 113 23 29
273 434 204 109 26 28
270 445 202 43 36 37
475 470 305 119 0 36
477 849 230 101 85 68
258 439 210 120 16 28
260 952 242 76 71 73
399 794 345 158 105 73
318 954 290 69 63 60
330 341 263 73 64 57
258 444 208 118 18 26
426 502 267 49 25 28
314 269 295 106 85 62
261 442 208 111 29 32
260 259 305 133 99 73
266 437 208 91 28 24
408 418 225 65 26 28
383 838 285 90 61 45
275 426 207 114 24 29
144 794 220 119 74 54
459 449 235 101 28 40
279 425 207 108 24 25
362 459 144 118 28 41
240 689 270 69 32 36
279 430 202 67 33 31
386 344 249 126 99 69
282 424 204 106 26 24
263 574 286 85 25 35
348 570 303 68 16 28
284 425 202 102 29 24
328 403 180 83 70 56
286 422 203 101 26 23
286 428 198 92 27 25
278 419 209 115 21 27
278 423 208 112 22 27
173 878 219 114 87 60
278 434 201 64 35 34
173 740 202 99 85 69
314 391 229 98 80 63
333 403 180 85 72 59
464 456 278 112 1 33
278 439 199 54 36 37
188 795 205 225 155 120
359 644 228 127 24 40
368 584 340 180 4 57
275 436 202 102 29 30
274 440 202 44 37 39
288 769 286 70 57 51
368 691 198 66 51 38
412 774 220 70 55 49
263 944 320 103 63 62
246 725 214 89 68 51
386 710 255 137 20 45
321 859 268 151 110 90
274 450 197 68 37 35
381 557 353 45 28 29
370 777 198 54 45 43
258 409 300 118 23 41
277 443 198 69 37 37
309 299 284 90 75 58
353 789 301 61 49 46
263 694 213 60 32 30
383 389 280 124 98 68
330 480 158 144 2 30
280 440 197 41 37 38
327 334 310 104 81 53
288 479 160 91 16 34
284 435 197 60 30 29
347 572 187 188 7 40
253 825 205 165 104 77
283 439 196 42 36 37
263 922 334 91 65 55
402 603 250 73 29 37
282 448 193 65 36 35
242 879 300 160 117 98
270 294 300 128 92 71
147 731 211 101 86 71
286 442 193 35 36 36
449 499 345 46 25 31
293 392 224 106 91 75
389 629 265 89 33 41
292 397 218 105 90 75
384 369 271 117 92 62
295 396 217 102 89 75
278 752 293 69 55 49
326 467 152 66 26 21
313 623 325 55 29 34
298 400 210 102 87 71
394 417 180 70 38 34
128 824 216 189 131 107
298 398 214 104 89 72
473 458 370 96 17 34
298 396 216 104 89 73
303 395 215 102 86 69
417 424 225 119 21 32
118 774 236 164 128 110
243 954 285 79 75 77
258 809 190 171 115 84
314 759 168 81 60 55
273 749 294 77 44 45
303 399 210 101 86 70
303 394 220 101 86 69
194 782 192 169 113 78
413 864 255 86 70 56
278 943 325 110 76 72
401 474 165 63 29 35
287 263 272 134 93 65
293 404 206 99 41 34
370 437 132 174 0 37
293 409 204 96 30 26
456 492 301 78 21 32
421 534 221 132 17 38
293 414 201 100 23 29
291 413 203 101 24 28
318 601 203 66 34 34
303 409 195 99 28 25
298 409 200 99 27 25
249 763 269 84 69 62
378 404 210 96 81 67
364 774 194 52 44 42
335 841 179 60 56 56
304 406 196 99 51 36
298 404 205 99 66 50
300 401 207 103 88 71
191 912 227 187 144 156
396 725 226 62 50 41
318 775 140 95 74 52
296 408 203 97 26 22
98 739 225 156 121 100
466 494 345 64 27 34
299 410 196 95 23 33
311 260 314 115 92 67
301 413 193 103 20 33
293 401 211 100 87 73
353 811 287 55 44 40
321 839 268 155 117 91
318 940 310 63 57 54
293 434 314 84 28 37
361 830 197 71 58 53
441 868 251 84 67 57
292 403 209 92 69 59
258 609 224 43 32 38
308 400 205 98 84 68
313 398 205 93 79 64
304 849 195 48 44 45
249 798 244 48 41 42
391 375 258 114 91 65
318 399 200 90 75 61
403 549 330 59 25 31
402 779 275 147 107 74
356 700 318 134 11 43
318 398 205 90 76 62
298 468 137 111 24 40
310 391 224 98 82 66
339 673 190 67 54 41
308 395 215 99 84 68
281 971 258 64 61 61
308 397 209 99 84 69
348 304 271 77 61 42
418 434 225 89 33 35
313 394 215 95 81 66
404 424 245 80 66 53
318 284 295 98 81 62
448 494 235 166 17 46
363 894 315 40 36 33
308 393 220 99 84 68
333 913 232 64 58 59
368 859 266 43 37 35
308 393 225 99 83 67
202 805 200 227 156 121
317 391 222 92 77 62
241 738 218 123 101 80
293 504 150 164 7 41
485 454 315 114 15 37
403 549 200 71 32 39
318 389 225 93 77 60
331 612 328 133 33 50
352 917 262 71 63 62
318 397 208 91 77 63
311 294 287 91 76 59
383 504 295 55 20 30
307 402 199 99 83 66
254 634 284 88 24 36
306 407 193 101 36 23
312 402 194 95 79 62
329 397 225 83 71 59
309 401 201 98 82 66
395 417 190 75 30 30
244 949 255 77 72 73
318 401 195 89 75 60
432 473 260 111 10 36
297 390 226 107 91 75
270 365 267 109 90 69
300 390 234 103 88 72
300 393 230 104 89 73
469 485 290 89 27 37
293 972 274 62 59 60
312 393 230 100 82 64
471 472 296 112 0 34
309 393 234 100 82 65
313 394 235 100 81 63
99 730 201 101 89 77
276 853 244 135 104 74
337 824 160 68 63 61
319 389 235 102 79 58
313 664 315 93 25 40
235 906 272 141 111 96
313 387 243 94 77 58
318 390 242 98 78 57
481 452 281 142 19 37
293 419 199 98 23 29
293 424 195 89 24 28
400 412 213 81 73 61
418 559 225 158 18 41
270 711 202 58 28 30
291 422 198 95 25 27
249 929 330 152 102 94
338 699 160 83 59 45
254 952 308 64 61 61
285 890 182 94 81 78
292 429 194 79 29 26
415 561 323 34 29 32
328 499 295 87 11 30
297 419 195 96 20 32
437 834 294 77 61 49
283 971 275 66 64 65
315 690 185 54 41 36
244 594 278 40 28 31
296 423 193 90 20 32
353 489 159 57 34 39
255 544 288 150 17 49
349 919 265 73 66 66
291 433 193 78 26 26
326 354 280 89 71 52
287 479 155 97 23 37
218 804 193 198 134 101
273 464 190 51 36 35
286 926 208 95 85 85
473 465 390 49 18 26
272 469 189 66 35 34
264 480 192 118 12 29
154 777 201 203 130 105
268 479 189 117 13 29
274 474 186 90 27 33
325 307 303 110 87 61
293 279 280 118 83 55
273 479 185 113 16 31
279 455 192 53 35 32
278 459 190 43 36 36
278 463 188 46 37 36
236 544 254 137 3 38
389 744 198 78 63 54
360 682 224 36 33 35
288 454 186 55 32 28
300 260 278 106 82 54
287 463 183 35 34 34
362 809 335 165 112 91
288 464 180 37 33 33
418 849 300 52 41 34
282 458 189 42 36 36
281 462 188 48 36 36
383 564 365 177 18 57
369 789 325 116 88 67
288 474 175 44 32 31
284 479 176 60 28 26
275 470 187 50 35 36
338 419 148 108 18 34
281 468 183 70 36 30
280 471 182 50 33 29
333 629 215 77 31 36
360 397 203 91 78 64
285 486 152 117 14 44
286 489 149 145 3 37
451 484 235 163 18 46
389 374 224 102 85 67
242 574 275 65 26 32
287 494 149 153 1 37
438 854 270 78 65 56
92 739 204 158 113 88
242 604 265 103 24 39
285 499 152 115 23 39
288 499 149 132 14 37
272 489 183 124 8 29
398 902 250 81 71 68
348 894 230 68 60 60
338 714 174 63 50 42
295 837 202 67 55 50
322 349 276 140 107 81
394 590 219 73 31 37
420 554 278 116 16 35
283 504 155 135 12 38
283 509 155 146 7 37
102 727 222 120 98 77
328 397 220 84 73 61
303 864 376 111 84 63
414 509 200 141 13 36
281 508 159 147 4 36
289 507 152 159 5 43
263 484 191 120 12 28
287 874 225 88 75 64
255 583 212 161 5 38
259 494 191 126 13 29
412 454 210 51 34 32
262 494 189 116 19 32
337 798 420 144 117 90
420 459 277 58 32 28
267 483 188 121 14 26
250 572 212 154 10 43
328 682 202 59 44 37
325 820 418 164 126 105
266 389 311 137 103 76
269 484 186 122 13 28
372 644 294 158 12 49
143 758 228 168 121 104
266 488 188 122 14 29
268 494 185 83 24 33
405 871 287 72 57 48
271 493 183 113 23 35
265 495 187 74 23 30
294 910 356 195 132 108
117 804 231 188 139 122
272 509 175 43 32 36
258 499 191 119 21 32
372 739 193 70 48 42
258 504 190 69 33 38
264 499 186 43 34 36
262 499 188 101 26 33
264 504 186 50 36 37
261 504 188 53 34 37
258 509 190 49 36 38
263 509 186 52 35 35
261 508 188 55 34 37
397 484 160 112 23 36
267 504 184 49 36 39
268 499 184 47 35 38
404 429 160 52 34 37
293 919 200 94 85 86
270 500 182 53 35 36
327 484 156 95 16 32
379 719 296 150 10 45
363 574 310 66 26 30
396 781 304 130 102 70
369 309 265 121 88 56
333 518 287 82 14 30
272 503 179 38 34 35
269 504 181 42 34 35
274 504 175 41 33 33
482 454 340 103 21 37
312 878 164 100 89 84
286 488 165 88 14 31
287 484 170 81 21 32
313 877 172 94 81 72
286 488 169 87 16 32
283 494 165 104 13 31
313 464 140 92 24 36
437 503 272 113 4 27
281 492 173 87 22 24
275 485 182 116 11 30
274 489 181 107 17 28
173 874 221 110 84 55
280 485 177 105 16 32
276 493 178 63 34 33
405 746 223 56 41 39
279 499 170 91 19 29
360 786 356 134 103 83
371 280 258 125 95 62
358 840 204 68 58 55
278 504 170 83 23 29
338 668 214 51 38 41
151 878 223 117 90 62
178 864 235 103 83 69
273 794 185 53 46 45
280 504 166 104 17 31
403 529 297 99 3 32
277 509 169 47 32 30
281 499 165 108 16 30
282 834 260 151 113 90
280 500 167 103 16 30
392 578 334 112 36 49
256 544 198 44 33 36
353 594 201 166 12 41
368 353 276 118 91 59
281 497 168 95 19 29
383 419 145 92 76 59
295 452 132 155 0 33
291 454 138 120 19 38
298 278 281 110 80 50
290 454 145 62 30 35
329 394 245 97 75 55
346 436 148 153 0 27
293 459 136 119 19 35
289 459 145 97 27 38
407 779 239 63 49 40
268 274 285 157 105 77
292 464 139 68 35 40
348 592 348 110 31 46
290 464 141 54 35 37
242 579 265 106 21 40
298 454 132 158 0 33
328 394 285 114 81 63
352 821 277 43 36 32
297 455 133 158 0 32
335 323 268 71 64 56
287 523 290 37 25 27
328 444 150 98 20 32
302 457 132 163 0 33
303 464 135 135 11 36
290 521 295 41 24 29
288 839 215 122 81 65
413 436 254 67 55 45
256 559 287 111 6 34
292 454 150 90 20 33
278 441 312 84 20 33
290 456 148 101 22 37
290 461 153 60 23 33
293 459 155 86 19 34
294 465 160 60 29 31
330 606 337 91 22 35
297 454 160 75 25 36
296 458 157 74 17 37
308 804 280 173 120 102
297 459 160 54 23 33
353 819 429 190 131 103
312 259 305 112 89 64
439 515 381 114 29 46
296 462 160 38 24 30
278 714 200 87 23 27
278 739 194 122 14 27
366 788 197 53 43 41
241 683 238 49 34 38
292 469 139 110 30 40
358 555 178 134 23 42
312 870 372 123 83 65
295 468 137 119 35 48
333 695 323 51 22 28
457 498 330 72 18 29
289 474 145 72 36 37
357 378 282 125 89 67
290 473 142 103 32 43
291 479 143 56 37 37
391 622 283 159 52 73
298 470 138 101 28 39
268 649 300 158 13 50
303 468 137 89 33 39
303 474 139 138 17 36
429 544 284 126 25 44
303 479 141 115 21 39
290 470 158 66 26 25
249 659 280 113 14 40
343 406 166 89 75 59
313 929 220 76 69 71
294 915 350 196 134 113
305 456 133 162 0 31
454 434 242 92 25 39
406 479 186 115 7 29
403 899 320 86 69 60
312 453 136 160 1 37
326 319 315 101 79 54
310 465 138 110 26 39
317 454 141 153 0 35
319 459 144 147 1 32
421 756 220 74 58 45
347 464 299 94 12 32
316 464 142 120 13 41
393 564 355 111 28 45
268 284 300 151 104 81
381 916 314 73 57 49
369 284 261 118 92 59
323 664 315 117 22 43
307 467 137 80 32 39
308 469 139 88 31 41
312 478 142 57 38 38
368 413 165 90 75 61
455 429 242 110 23 39
313 479 144 60 37 39
322 360 260 116 87 65
318 469 145 81 29 36
288 357 258 100 87 73
332 339 265 74 66 59
320 479 148 61 38 38
366 433 298 104 17 40
329 399 235 92 71 57
414 530 356 74 17 29
265 720 202 103 19 25
294 465 165 78 23 33
295 461 172 79 27 33
298 454 165 59 27 30
278 904 369 199 147 127
297 454 170 52 31 32
297 454 175 35 32 33
298 459 165 49 30 33
403 419 250 90 74 57
110 793 228 191 140 124
296 462 165 60 24 32
404 484 180 131 10 32
297 459 170 43 27 30
289 450 187 78 31 32
390 382 266 115 91 63
292 459 180 42 31 30
308 904 200 74 68 69
159 912 244 201 140 136
444 854 255 71 56 46
290 460 182 33 34 35
352 387 208 93 80 67
289 470 176 45 32 29
291 473 173 48 34 34
387 608 226 89 34 42
473 460 375 75 19 29
291 478 169 63 29 31
393 374 240 116 93 65
359 387 208 89 78 69
298 482 142 116 34 39
348 771 307 63 53 51
253 714 210 52 33 35
467 474 339 97 7 33
298 485 143 96 30 38
376 633 236 99 40 49
303 484 143 122 24 39
241 889 263 170 120 97
413 529 360 69 19 26
425 504 265 40 27 30
389 560 325 42 29 32
289 493 147 164 0 34
333 514 167 110 17 33
298 489 145 68 33 38
373 574 359 186 15 60
300 295 343 114 89 64
303 489 145 63 35 36
296 304 342 134 98 73
303 494 147 74 34 36
343 729 174 62 51 45
291 496 148 170 1 30
293 748 190 50 44 45
396 386 240 114 92 67
156 830 221 126 87 68
449 525 330 200 19 58
393 413 205 94 64 47
361 732 318 177 15 57
293 499 148 168 3 34
292 497 147 174 0 32
298 504 150 95 25 37
303 508 152 95 28 40
313 484 145 51 37 39
333 595 330 72 14 25
378 474 150 58 32 36
308 493 147 70 34 39
338 294 260 82 70 58
243 669 245 91 28 39
313 495 148 113 26 39
338 567 302 92 7 29
402 424 190 101 16 32
388 897 242 85 73 67
317 484 146 58 35 38
368 544 175 130 28 44
489 454 305 84 28 36
253 923 354 192 134 127
358 919 295 68 56 48
316 488 147 72 34 41
235 749 259 166 83 87
400 536 370 41 26 31
315 491 148 77 36 34
399 560 204 125 31 45
357 790 302 44 39 41
444 439 246 54 26 32
250 748 284 66 27 34
267 614 291 91 30 40
320 494 154 106 20 34
313 504 152 98 21 33
475 475 336 182 12 52
316 502 152 51 36 39
265 394 309 138 105 77
314 506 153 105 23 39
491 441 292 122 21 42
320 506 158 98 21 33
375 601 317 38 26 30
371 831 292 124 84 66
264 455 202 112 23 26
182 874 226 115 90 65
263 459 200 111 23 28
257 459 204 120 14 28
133 729 210 103 89 76
457 488 394 186 16 60
268 454 200 101 28 28
312 877 388 204 143 117
336 404 277 57 45 34
388 414 200 97 65 51
188 794 210 193 138 109
315 871 174 82 71 71
322 299 295 100 81 60
276 536 173 170 6 40
271 453 198 90 36 37
322 594 307 113 0 35
313 454 299 57 26 29
363 404 190 90 77 64
178 918 240 185 130 121
273 454 196 62 35 34
383 819 220 56 47 43
394 394 265 113 90 63
267 458 199 67 30 30
303 629 214 54 31 33
265 465 197 119 20 24
374 910 321 66 54 47
323 549 296 31 27 27
254 519 195 154 10 39
268 464 195 102 28 29
344 464 301 108 9 34
378 695 210 50 40 31
271 463 193 85 29 29
261 469 198 115 17 29
256 468 203 121 14 29
258 474 200 120 13 28
328 839 160 85 75 67
263 474 195 115 18 27
261 473 198 118 12 28
407 528 370 69 22 29
302 796 282 179 126 108
137 789 229 116 83 63
267 469 194 87 26 29
435 421 243 65 20 24
321 872 186 73 67 66
270 466 192 55 32 30
276 457 193 46 34 31
128 739 195 94 81 67
133 754 229 169 119 101
403 429 180 115 14 33
396 726 208 62 48 36
256 483 198 119 9 28
257 489 194 122 11 30
261 483 193 119 12 28
468 456 279 105 9 32
260 486 192 121 12 30
246 703 297 38 27 30
256 502 193 94 35 42
390 601 223 129 25 42
273 935 341 210 147 132
322 414 136 114 36 41
449 509 284 121 23 38
385 876 291 37 33 30
323 409 145 80 64 49
327 414 141 103 35 31
139 799 231 111 80 61
378 429 291 104 81 58
404 449 180 123 7 33
396 389 235 111 90 66
388 609 300 171 14 54
329 415 144 65 36 38
178 743 216 96 79 62
409 448 285 66 54 41
322 406 152 85 68 51
294 864 301 146 110 79
254 704 304 82 20 33
304 739 185 42 37 37
293 914 355 196 134 110
325 407 155 84 65 45
453 846 230 97 79 67
328 408 155 83 65 48
314 613 333 153 18 48
420 459 224 45 35 37
325 407 158 83 66 49
333 408 155 86 71 55
283 789 274 66 54 50
260 680 298 81 12 30
332 410 146 79 63 49
303 685 206 69 40 34
444 530 315 92 27 37
333 409 150 84 68 51
360 467 147 107 25 37
393 728 199 68 51 42
338 408 160 90 76 61
398 554 200 52 34 37
338 409 150 90 77 62
175 887 233 155 99 96
342 411 147 89 76 62
328 514 166 139 4 30
343 408 155 89 75 60
306 263 282 105 83 56
403 881 268 89 74 63
343 408 160 89 75 60
302 606 208 46 32 37
380 811 395 198 128 100
236 519 235 141 0 37
348 415 145 87 73 57
137 757 192 177 115 86
344 412 148 91 73 53
364 412 164 90 75 60
353 415 145 88 73 56
328 405 170 84 68 53
383 810 390 204 132 102
333 405 170 86 71 55
333 404 175 86 71 57
281 274 327 116 91 65
328 402 185 83 70 57
321 822 403 142 115 87
323 401 190 86 72 57
306 694 203 85 30 29
135 781 203 148 88 64
322 402 188 86 72 57
343 814 400 105 73 50
283 629 217 121 8 30
328 401 187 83 70 57
333 400 190 85 72 59
267 564 287 100 21 38
338 400 190 88 75 62
343 399 190 91 78 64
142 731 206 110 95 79
337 406 161 88 74 58
386 632 256 62 29 35
338 406 165 89 74 58
340 407 163 89 74 59
343 407 165 89 75 59
246 644 255 33 30 34
333 564 181 185 7 38
327 855 154 100 85 77
456 837 244 86 66 56
338 405 170 89 74 58
310 731 165 53 45 38
459 500 365 164 28 56
358 294 270 103 82 57
338 404 175 89 74 60
343 405 170 90 75 60
381 587 333 62 28 32
372 836 270 72 48 34
403 764 240 51 39 31
384 530 173 177 7 37
348 459 154 109 10 33
343 404 175 90 76 62
368 414 287 108 82 58
348 406 170 90 76 61
350 407 168 90 75 61
477 479 320 59 31 35
343 402 183 91 78 63
349 896 313 38 34 33
363 524 291 77 23 33
324 505 292 25 24 26
395 389 255 111 89 64
243 609 270 60 29 34
253 659 235 93 27 34
293 279 335 110 86 63
343 401 186 91 78 63
353 404 180 90 76 63
333 822 398 104 79 52
362 349 278 124 92 63
353 403 185 90 77 64
383 764 200 62 49 43
352 401 187 90 77 64
398 419 165 86 42 39
324 419 140 49 40 41
324 424 140 59 35 41
409 545 371 58 28 33
328 419 145 61 40 41
321 428 137 131 1 35
377 914 319 71 56 46
320 430 138 143 9 24
308 279 286 96 77 54
143 824 213 158 109 83
333 420 148 107 26 35
368 469 293 114 3 35
270 292 297 137 97 76
330 424 148 48 37 40
333 424 149 64 32 40
343 559 300 63 21 29
304 862 198 47 44 45
333 429 149 70 31 38
148 754 229 160 121 102
320 434 138 147 0 30
392 618 246 128 30 46
401 421 157 76 28 34
324 434 144 98 18 32
322 454 146 152 0 29
243 753 204 95 82 68
98 734 224 148 117 94
248 944 245 74 69 70
369 800 203 68 53 45
321 439 140 149 0 28
218 763 195 95 79 61
323 444 145 126 8 32
321 447 142 160 0 41
329 434 149 56 35 40
320 380 316 143 100 84
328 439 149 76 32 37
412 559 265 75 30 38
325 299 305 114 92 67
325 450 148 147 3 34
471 492 320 200 13 56
333 434 151 101 21 34
143 784 215 140 82 62
400 773 270 147 105 75
333 439 152 104 20 36
377 922 286 82 66 56
335 440 153 118 5 23
273 899 369 176 142 125
333 449 155 145 0 33
343 419 145 52 34 39
401 425 151 87 34 37
250 756 197 96 78 57
318 374 320 147 104 86
387 578 206 166 19 45
400 403 225 99 84 68
344 424 146 99 24 37
347 424 143 51 33 42
478 454 350 96 18 33
239 524 265 76 26 34
353 419 140 81 64 52
303 839 273 166 125 98
351 416 142 88 75 59
459 509 335 53 32 34
317 349 271 98 80 60
405 439 200 82 21 30
156 781 210 192 132 103
298 624 214 59 34 35
347 429 144 139 7 35
319 870 180 70 66 67
353 429 139 88 29 36
184 792 213 189 133 107
340 417 147 90 29 40
293 344 259 93 80 67
252 668 234 37 36 40
337 416 148 132 23 39
338 424 149 145 6 37
303 938 222 95 90 93
341 420 148 81 26 32
123 769 191 169 111 81
341 424 148 138 14 34
242 873 280 122 94 71
240 679 260 89 26 38
344 429 146 151 2 29
332 766 307 79 62 57
342 429 148 153 0 35
314 516 158 162 1 34
248 767 193 95 78 58
348 434 145 150 2 37
240 914 298 180 137 118
292 289 336 124 93 67
463 494 365 130 31 48
366 299 268 132 94 65
350 432 142 150 0 30
394 429 139 77 33 37
385 352 257 122 97 67
353 434 141 96 22 31
246 634 255 161 1 44
352 439 144 71 33 37
368 369 281 129 95 64
237 539 265 68 30 36
338 434 150 143 2 32
484 464 310 116 29 44
339 438 152 149 1 31
378 460 143 88 31 37
343 434 149 154 0 34
332 394 210 85 74 62
344 444 152 156 0 36
368 433 131 162 1 33
283 884 220 66 63 62
341 450 153 157 0 34
194 792 218 183 131 107
349 439 146 107 11 34
353 899 250 61 55 56
365 813 330 171 115 93
466 489 365 92 24 37
348 444 149 155 0 32
313 634 214 126 12 31
378 772 375 91 75 57
293 333 269 94 80 66
348 449 150 156 0 33
350 443 147 102 8 30
428 479 283 82 15 29
352 444 144 127 10 32
334 701 157 83 60 39
398 579 305 102 28 42
356 416 146 88 74 57
354 412 154 89 74 58
265 389 309 135 101 76
358 413 155 88 74 59
363 415 150 89 74 58
306 836 273 165 122 96
419 539 270 52 27 31
303 789 286 59 46 45
368 416 150 90 74 56
403 584 302 90 31 42
319 777 136 107 82 58
373 469 294 112 3 35
363 413 160 89 74 60
368 415 155 89 74 57
318 324 280 98 80 60
233 819 196 203 131 99
363 422 133 89 71 44
373 416 155 92 75 57
252 734 205 90 68 46
378 415 160 93 76 59
313 360 261 91 76 59
373 415 288 108 83 58
357 406 176 89 76 62
358 410 165 89 75 61
368 410 175 90 76 62
461 803 259 86 68 54
409 438 260 69 57 43
358 405 180 90 76 63
360 407 178 90 77 63
336 842 181 59 55 57
293 893 344 129 95 80
358 404 185 90 76 63
373 499 160 148 18 38
468 464 350 82 10 26
363 407 180 91 77 63
400 442 282 70 57 41
367 406 190 90 77 64
372 299 260 133 93 63
369 479 293 108 8 34
182 869 230 126 104 99
373 412 170 90 76 61
383 416 160 94 75 61
168 759 193 139 94 59
182 780 198 195 130 98
383 415 165 92 73 62
338 421 294 50 39 29
305 446 302 61 17 24
378 413 175 90 74 60
378 412 180 90 74 60
336 473 308 96 23 38
383 413 185 87 70 57
377 411 190 91 77 63
279 649 308 174 13 56
358 421 136 83 71 59
370 312 262 122 90 56
358 424 134 106 40 28
354 421 137 68 34 53
402 744 201 76 57 48
375 591 332 165 36 61
406 431 250 69 58 45
354 428 136 62 40 39
339 860 263 42 37 34
358 429 135 72 30 37
309 849 404 172 131 111
356 431 138 67 32 35
433 505 293 36 27 29
363 425 131 139 38 38
185 768 227 139 111 90
368 422 133 87 75 60
360 425 132 154 34 44
368 429 129 163 6 37
188 918 240 169 113 110
359 434 137 89 26 34
148 734 205 106 90 74
358 439 139 72 26 33
354 443 142 129 13 38
358 449 141 85 23 34
363 434 135 147 7 31
289 881 204 40 37 38
118 794 235 176 134 118
253 919 355 152 114 101
365 432 132 157 0 26
360 438 137 132 11 33
434 481 268 95 24 33
324 499 159 112 21 36
110 753 192 146 102 67
368 444 135 173 2 36
319 294 330 100 79 55
227 816 216 174 126 101
441 514 232 56 32 35
373 424 130 106 59 43
373 421 136 91 76 58
231 759 245 165 128 100
456 517 330 172 25 57
237 514 225 144 5 39
373 422 134 92 78 62
263 554 289 151 16 49
323 399 300 130 87 69
378 773 380 94 77 58
368 816 390 164 108 86
422 432 251 63 47 40
373 419 140 91 75 58
293 709 314 105 24 42
238 819 220 164 121 97
373 418 145 92 76 57
385 803 213 68 54 46
378 579 339 162 14 52
438 420 231 141 15 21
355 707 322 139 17 49
378 423 134 85 73 59
383 423 135 104 65 46
378 419 145 91 75 57
492 449 310 111 30 45
359 804 299 152 108 85
423 508 292 47 28 28
281 846 233 165 119 89
378 421 137 89 72 53
283 709 311 83 25 38
364 439 296 105 12 34
378 429 129 164 16 35
373 416 151 91 75 58
396 406 269 114 88 59
321 864 163 91 77 69
383 418 150 94 78 60
313 469 299 64 21 28
379 417 154 93 76 59
236 709 270 122 15 42
379 436 133 171 9 27
382 433 132 172 9 41
383 434 134 167 10 34
383 439 136 170 10 35
276 844 250 141 105 80
377 447 137 167 7 30
392 624 275 186 15 54
427 528 330 81 15 31
380 446 138 167 9 33
383 449 140 153 13 34
323 400 195 87 73 58
323 399 200 88 74 60
253 889 249 142 106 75
250 743 288 78 24 35
328 400 195 85 72 58
354 444 301 110 9 34
328 398 200 86 73 60
402 729 204 59 45 36
323 398 205 88 75 61
294 326 272 89 76 62
335 391 207 87 75 62
333 397 200 87 74 61
331 397 204 87 74 61
330 396 207 86 74 61
322 390 226 86 70 57
414 895 245 88 74 71
298 464 299 69 26 34
368 495 158 49 37 39
244 679 236 53 31 35
323 397 210 88 75 61
481 457 348 134 32 54
168 854 235 101 76 57
325 397 214 87 75 61
368 833 280 97 68 52
302 913 196 91 83 82
178 740 205 101 87 73
328 397 215 86 74 61
462 499 350 137 29 49
327 396 225 84 71 59
306 892 366 204 137 112
438 499 245 149 16 50
335 386 216 88 76 63
243 674 270 60 29 36
334 389 215 84 74 62
431 493 267 134 10 34
333 389 220 84 74 63
330 396 210 86 74 61
329 404 275 108 76 60
270 911 207 57 53 54
332 394 225 82 71 61
372 674 295 82 22 34
421 538 271 65 32 35
213 756 197 93 79 64
332 397 220 83 73 62
333 680 170 71 52 42
348 802 293 64 52 47
343 390 205 94 81 69
377 869 264 45 39 36
339 396 197 91 78 65
393 839 250 125 87 70
416 862 271 79 65 52
336 397 198 88 75 63
385 551 364 75 26 33
380 857 244 70 61 61
409 589 250 200 17 54
343 393 200 93 80 66
443 434 225 89 24 31
343 392 203 94 80 66
326 359 285 93 72 50
353 389 206 92 79 65
313 608 207 58 35 39
348 397 194 92 79 65
391 428 137 139 16 34
428 494 287 68 22 30
353 398 195 93 78 64
352 396 197 93 78 64
313 754 165 74 57 52
482 861 192 101 82 67
348 392 203 93 79 65
374 398 209 94 79 63
467 499 325 201 14 57
283 845 280 106 83 57
338 388 210 92 80 67
405 565 214 118 26 42
298 313 278 83 70 56
308 524 160 133 15 34
343 388 209 95 82 69
348 388 208 94 80 66
312 909 206 76 70 71
423 499 289 57 25 30
267 409 311 132 102 78
326 391 232 89 68 55
381 907 319 69 55 47
327 389 240 100 77 55
409 584 274 131 16 40
325 393 229 85 68 56
327 394 230 86 67 56
232 564 240 150 5 41
474 469 390 99 30 43
329 398 230 84 67 57
328 394 235 94 72 56
332 394 230 82 67 59
386 384 217 109 90 70
387 618 236 89 29 39
252 764 193 98 79 57
331 397 230 82 67 59
334 901 304 32 28 32
144 809 231 105 76 56
491 447 297 129 28 41
331 399 240 85 69 56
279 389 323 155 113 90
237 764 256 184 142 118
327 389 245 99 77 57
353 484 289 89 15 31
327 389 250 89 71 53
291 868 223 101 82 65
283 409 320 161 116 94
338 670 211 73 43 40
313 329 340 143 94 73
315 350 332 147 99 79
331 389 245 71 61 52
391 375 226 105 87 69
261 403 302 135 104 76
331 394 245 73 62 52
255 720 207 37 33 37
331 394 255 67 57 47
249 549 284 150 13 46
393 884 310 56 45 37
331 399 255 68 56 46
333 679 207 74 49 39
314 494 304 123 14 40
331 403 236 87 69 58
279 523 287 60 14 25
277 628 301 83 16 33
331 403 240 91 73 57
330 403 255 95 69 53
331 403 255 78 60 48
239 754 265 74 41 46
332 407 252 88 66 52
357 386 207 89 78 68
415 770 225 79 61 50
358 837 197 70 59 55
386 366 222 100 85 69
358 399 195 92 77 63
394 906 275 75 61 55
356 396 201 92 78 64
280 807 263 179 125 108
480 456 295 119 3 36
358 398 200 92 78 64
268 560 287 164 17 53
282 527 291 59 24 29
285 571 298 135 13 42
358 394 204 91 78 64
272 749 193 51 46 45
351 582 339 48 27 25
118 726 210 107 94 81
363 400 200 91 77 63
398 749 200 78 63 54
150 823 232 105 75 55
363 394 205 91 78 65
288 739 192 100 21 30
359 799 345 157 114 96
364 398 203 91 77 63
459 495 315 87 9 30
368 394 206 92 78 65
298 843 206 53 47 47
247 664 275 96 22 39
368 399 204 93 79 65
334 380 273 68 53 36
363 388 209 90 78 66
253 614 279 98 24 39
369 393 208 92 78 65
260 396 298 136 103 76
416 439 222 84 32 33
364 403 195 90 77 64
438 449 265 95 10 30
365 402 199 91 78 66
459 819 252 89 60 50
403 794 230 49 41 36
368 404 200 91 77 64
343 744 324 141 26 52
366 401 202 93 78 63
458 460 385 57 23 24
452 474 240 153 23 50
371 396 207 92 79 66
417 474 210 60 32 33
373 389 210 89 78 66
378 389 212 95 81 67
353 803 438 188 139 117
381 386 212 99 84 68
370 777 422 130 105 78
381 388 212 99 84 68
445 429 263 106 8 32
379 394 213 93 80 68
213 804 221 163 124 96
332 384 270 72 59 45
432 533 281 47 33 36
308 944 226 86 78 80
245 598 232 70 30 36
378 399 211 94 79 65
279 329 324 131 101 73
383 394 214 98 83 68
472 469 325 129 8 39
422 464 225 69 33 35
370 407 194 92 78 64
419 514 210 138 11 36
432 873 225 112 89 81
355 440 302 114 10 35
373 408 195 91 78 64
371 406 197 92 79 66
371 406 200 93 79 66
245 624 265 95 19 39
378 409 205 94 80 65
283 889 355 122 85 68
462 492 379 112 30 44
376 411 195 92 78 65
172 741 218 101 84 66
383 413 200 94 74 59
380 412 204 93 77 61
457 454 240 71 29 36
388 349 235 119 95 68
383 412 204 94 75 58
278 534 170 161 11 41
373 599 320 53 26 31
433 474 281 90 11 31
375 404 208 95 81 67
325 375 306 126 89 64
379 407 208 97 81 66
383 404 210 94 78 63
324 454 149 148 0 30
327 454 151 147 0 31
321 458 146 149 0 31
378 564 310 67 21 32
350 820 184 64 55 52
151 776 203 199 125 101
240 582 263 90 22 40
279 495 293 80 15 29
321 463 147 146 3 34
337 806 287 60 50 45
323 464 149 132 5 32
168 874 220 116 89 60
475 461 332 126 5 42
328 464 154 137 1 30
303 714 317 32 28 29
333 464 156 145 0 32
399 739 206 67 51 39
348 892 290 34 30 32
328 469 155 120 11 30
344 901 318 41 35 34
250 618 237 46 34 37
325 474 153 92 27 32
321 286 302 108 88 67
420 539 256 78 29 39
259 841 289 109 90 71
328 474 155 131 6 31
184 912 253 156 132 124
328 794 174 50 45 43
405 820 311 186 124 93
330 470 158 142 3 29
343 689 205 64 48 38
333 469 159 144 1 28
260 263 304 137 102 76
331 476 157 147 0 31
298 360 332 159 112 89
386 334 240 125 98 66
333 479 159 147 0 30
343 454 154 154 0 33
405 429 255 77 64 49
315 880 374 192 132 110
408 424 230 57 39 34
254 752 284 69 32 39
483 459 320 137 15 45
338 463 157 148 0 35
408 479 190 101 19 34
348 454 151 156 3 35
385 601 218 111 36 48
333 618 212 46 33 37
351 450 148 140 1 28
271 290 294 145 98 78
404 434 180 98 18 33
352 454 149 140 7 34
366 816 365 177 123 101
350 458 152 79 26 28
353 459 150 105 24 36
268 639 300 139 13 44
434 499 247 168 10 52
338 465 158 131 4 32
322 781 297 70 56 51
338 469 159 132 12 35
309 664 213 85 23 28
343 474 159 88 29 35
343 479 160 99 22 34
178 869 241 97 78 64
352 469 154 142 8 35
368 424 291 82 64 43
267 514 180 80 26 31
385 712 231 61 37 32
349 473 157 98 25 33
353 474 155 141 12 36
322 484 151 137 8 37
321 488 152 118 11 28
353 890 295 33 29 31
405 584 268 188 14 51
328 494 160 103 16 35
469 857 218 94 81 70
333 484 160 125 7 32
438 429 254 87 12 27
321 499 156 93 27 38
385 782 392 138 99 66
322 509 161 135 11 33
348 484 161 132 12 35
284 847 286 113 85 59
271 841 289 107 83 61
428 444 264 62 49 38
352 484 159 83 22 35
322 820 162 82 68 63
303 684 313 66 27 34
332 493 162 143 7 39
413 439 239 54 32 28
328 499 161 132 6 32
293 649 214 114 14 25
296 692 312 90 24 36
396 562 356 125 35 46
329 505 163 134 6 34
253 599 280 132 18 45
333 509 166 85 25 33
405 443 199 87 21 29
446 492 292 72 23 30
143 734 220 102 85 67
338 484 161 147 0 30
383 773 355 94 77 58
402 809 220 67 53 48
343 484 161 147 2 32
353 509 288 30 26 27
338 490 163 141 0 31
463 429 235 65 30 34
343 490 163 146 2 35
348 491 163 132 3 30
483 464 300 87 30 36
350 492 162 160 7 39
353 494 162 150 11 38
351 495 163 156 0 31
338 499 164 144 0 31
343 499 164 100 20 32
284 579 299 73 27 35
284 515 286 40 22 26
473 469 320 127 7 38
343 509 166 109 23 34
153 829 216 137 94 71
353 499 164 151 2 31
358 694 190 85 53 40
323 514 288 107 2 33
353 504 165 104 15 30
283 344 329 133 101 74
348 509 166 56 32 34
275 864 241 136 105 74
302 704 317 39 27 29
