ply
format ascii 1.0
comment Created by Open3D
element vertex 2231
property double x
property double y
property double z
property uchar red
property uchar green
property uchar blue
end_header
356 655 174 83 37 35
359 648 187 85 36 26
451 901 269 93 72 60
360 647 188 75 40 33
355 652 180 82 35 35
357 655 179 83 36 39
358 654 182 84 33 33
360 655 183 86 40 32
365 647 189 62 37 33
365 656 180 95 32 30
401 717 175 68 52 46
364 649 187 88 37 26
385 627 220 85 27 33
456 752 240 78 59 50
365 652 186 100 28 26
355 659 166 85 40 25
352 659 166 83 40 24
355 663 161 87 39 33
360 658 166 85 40 27
360 657 170 87 34 32
302 925 293 71 66 64
364 659 166 79 49 36
365 662 165 74 49 34
364 664 162 71 46 30
361 737 153 57 47 43
374 654 192 97 34 37
375 656 190 95 30 28
374 664 166 84 50 42
368 659 171 87 49 33
406 721 179 54 41 38
425 712 294 167 113 80
370 661 170 86 58 42
375 663 170 88 53 39
392 650 213 55 31 37
355 697 144 57 45 38
370 668 161 70 48 34
380 662 175 102 64 41
384 662 176 78 53 36
384 693 302 189 134 110
378 669 162 61 39 31
379 673 161 63 45 34
381 671 164 57 49 43
377 665 168 85 58 43
384 668 171 70 52 36
382 665 173 77 55 39
290 632 265 123 22 45
309 566 297 118 2 33
340 820 252 127 101 74
386 672 170 66 50 37
372 660 180 95 38 39
306 926 294 69 63 61
375 660 184 94 28 39
354 619 287 148 15 44
380 658 185 93 38 25
381 659 181 108 56 45
370 782 257 47 40 40
355 737 150 60 48 42
380 660 179 104 55 40
385 658 180 94 57 42
331 768 143 73 55 43
380 657 190 89 29 35
272 542 273 146 6 43
359 674 139 73 56 45
357 675 142 64 46 37
357 676 146 63 45 39
360 677 140 70 54 43
405 806 254 38 32 31
356 683 142 65 44 37
354 686 142 64 42 36
358 680 143 63 46 41
361 686 142 61 44 36
360 687 144 62 41 34
367 681 132 83 63 53
327 836 207 142 104 79
392 631 296 129 92 59
363 682 138 66 50 41
365 687 140 62 48 38
360 675 156 71 42 38
354 680 148 72 38 35
354 691 142 59 42 39
355 692 144 59 43 38
356 702 144 57 44 37
360 692 146 64 40 36
375 841 181 66 60 61
366 697 145 58 43 39
367 696 142 56 43 37
367 701 146 52 42 36
338 583 320 180 126 107
359 702 146 57 38 37
364 698 150 62 42 36
308 528 349 167 120 103
365 702 150 62 42 37
370 677 135 71 53 40
373 677 137 59 48 40
373 677 140 56 46 39
374 677 145 60 48 37
369 681 132 74 56 44
373 682 136 62 48 39
410 732 298 179 128 95
374 687 136 62 50 39
376 682 145 55 47 40
376 677 149 56 43 35
370 675 156 64 45 36
372 675 158 64 46 35
375 676 158 68 43 36
378 674 152 69 40 40
340 737 145 43 37 37
378 674 153 67 40 40
360 863 134 76 63 50
378 683 147 56 48 43
333 734 142 51 44 39
377 681 149 50 42 35
379 687 150 54 46 40
381 682 155 65 45 44
382 681 158 63 41 43
424 846 250 75 62 58
384 682 160 57 49 42
381 687 155 56 48 43
270 812 180 214 135 107
458 766 264 73 55 43
382 688 158 58 49 42
486 845 274 99 84 71
375 692 136 69 54 44
370 697 140 67 53 42
400 852 205 73 60 57
376 691 140 53 45 39
372 696 137 68 53 41
370 703 145 58 44 37
375 702 140 69 55 43
444 732 270 94 68 47
374 704 144 65 51 39
378 697 136 75 58 48
380 697 140 59 48 41
325 737 140 66 51 42
382 700 143 57 47 42
380 697 150 49 40 36
379 697 155 62 50 43
381 692 160 59 47 42
335 905 191 87 79 80
381 697 160 58 48 43
381 701 151 43 38 34
381 702 155 56 47 39
309 872 210 167 117 95
383 704 154 60 52 46
383 691 162 65 51 41
283 691 257 151 13 48
382 697 163 54 45 40
385 697 165 60 48 44
383 703 161 56 45 43
367 640 193 48 38 40
375 652 195 69 34 35
378 643 202 45 38 36
381 642 204 45 37 38
384 643 206 48 38 37
340 944 266 87 82 81
382 646 203 39 37 38
296 771 152 147 102 66
377 650 198 56 41 42
380 651 199 42 39 42
380 655 194 75 33 46
380 654 196 70 38 44
294 902 205 66 62 63
302 884 212 81 67 54
385 656 195 63 44 42
476 688 288 101 82 63
385 653 200 40 39 43
383 649 202 41 39 41
325 707 140 63 48 41
327 718 143 76 58 49
329 708 142 59 42 37
330 707 143 55 37 33
330 712 141 60 47 42
430 825 272 51 44 40
335 707 144 56 38 36
336 709 142 59 40 40
335 712 141 54 39 38
339 950 240 68 64 63
334 716 141 52 41 41
335 717 144 53 39 36
324 722 140 57 40 34
390 818 231 44 29 24
320 772 239 51 42 40
323 723 137 57 43 36
323 726 137 61 48 37
415 667 280 117 92 63
327 725 143 68 46 44
325 732 140 56 44 38
330 720 142 75 57 50
326 735 258 79 63 57
330 722 143 73 56 49
329 728 142 64 49 45
330 732 141 55 43 38
335 722 146 58 46 42
335 727 145 60 47 44
339 706 143 65 44 36
340 711 142 62 47 37
329 713 281 41 27 32
417 883 257 76 59 55
344 710 142 62 47 34
340 713 144 59 45 38
437 737 287 171 119 87
345 717 144 61 47 39
350 707 144 62 49 43
295 857 285 181 135 116
350 717 146 64 51 42
352 717 148 67 50 42
389 627 281 83 66 46
393 885 227 68 62 60
345 722 145 60 47 37
345 732 147 66 50 40
345 737 146 63 48 38
349 731 147 61 48 41
328 824 179 57 46 43
319 814 173 80 62 56
349 737 147 66 52 41
351 733 148 61 49 41
351 737 148 60 47 39
322 742 142 60 48 43
322 746 142 53 45 41
325 746 142 56 44 39
325 748 143 50 41 37
321 753 142 60 50 41
366 587 331 148 106 72
324 752 142 50 41 38
326 752 143 51 41 35
366 647 295 186 128 112
330 742 141 59 47 41
336 742 143 45 39 36
426 689 233 89 69 53
330 752 143 48 39 36
334 746 142 58 47 41
440 722 210 82 61 47
335 747 143 56 46 41
330 567 330 185 127 106
325 757 141 54 43 38
327 757 143 62 49 42
325 762 140 64 50 41
322 765 138 72 57 40
408 882 235 48 38 31
325 767 139 71 56 43
330 757 143 49 40 37
335 757 143 52 42 39
335 758 142 53 44 39
371 641 314 193 137 116
330 767 141 67 51 41
450 707 225 75 60 48
335 762 142 50 41 38
340 747 144 45 40 39
398 566 274 42 32 33
340 752 144 53 45 40
259 803 179 210 146 117
349 752 146 61 50 46
436 705 240 71 57 52
341 762 143 53 44 40
339 767 142 57 48 45
420 688 225 76 55 41
346 758 148 51 41 38
348 755 147 58 45 44
384 678 307 192 137 111
350 763 153 69 53 50
348 766 152 67 57 53
352 709 148 51 41 30
354 709 148 61 47 34
359 707 146 58 43 38
355 717 150 65 51 43
360 717 150 60 48 41
360 719 153 58 45 37
362 707 148 53 37 38
361 715 147 63 52 44
355 722 150 69 53 45
296 662 259 176 9 56
448 894 278 78 66 55
366 642 300 189 131 113
360 727 150 57 46 44
355 732 149 60 48 42
387 543 208 63 34 40
402 766 293 193 144 115
359 871 130 96 81 69
359 736 152 57 46 43
365 727 154 50 41 38
363 729 152 51 41 37
363 730 152 51 41 39
365 732 154 52 42 39
365 737 155 52 42 40
376 706 145 68 55 45
381 711 141 83 63 51
379 712 145 75 57 47
385 712 144 83 63 53
405 682 185 68 51 43
380 717 145 75 57 49
385 717 143 85 63 52
371 705 147 59 45 37
397 539 223 141 12 37
270 814 190 209 141 111
375 707 150 61 48 40
368 712 152 64 51 44
370 712 154 75 56 49
295 642 265 48 29 32
374 708 153 62 47 39
375 717 150 73 53 45
371 715 153 79 58 52
373 715 153 82 60 52
401 844 254 32 29 29
378 709 148 67 55 49
382 705 158 47 38 31
385 707 160 47 39 37
363 634 305 183 129 109
378 718 148 64 48 39
370 722 151 67 52 48
289 877 281 148 117 94
372 727 151 64 51 45
313 919 203 82 75 76
318 851 218 125 98 75
375 727 150 63 50 44
370 727 155 54 44 44
375 731 152 59 47 42
370 736 156 55 45 40
375 737 155 54 44 42
430 712 205 62 49 43
403 668 303 157 107 75
421 742 189 53 43 43
380 727 149 66 52 44
382 882 81 113 87 72
382 721 147 75 59 50
385 722 146 85 63 54
383 724 148 73 55 43
378 734 153 59 48 38
355 752 151 63 49 43
360 746 152 52 44 41
358 752 152 62 49 41
396 637 290 129 95 62
366 742 154 53 45 43
411 703 182 49 39 37
361 748 153 53 45 42
363 745 152 53 45 39
293 867 233 155 116 91
367 748 158 50 43 42
414 747 181 73 56 51
356 758 154 66 52 50
329 518 316 89 26 38
355 762 260 72 57 53
358 755 152 62 47 42
355 762 155 65 53 51
355 767 156 69 55 53
357 766 158 62 50 49
296 888 215 62 57 58
384 617 269 139 13 46
360 767 159 57 48 48
358 768 157 62 51 52
368 743 157 56 45 40
373 738 158 50 40 36
373 747 158 58 47 43
375 747 156 53 44 41
328 547 329 115 75 64
374 753 158 55 46 45
376 752 157 55 45 44
380 742 154 58 47 41
383 738 153 67 53 46
368 752 157 50 43 42
370 757 160 53 46 45
375 757 160 53 43 43
377 755 157 57 48 43
380 755 157 56 46 43
380 757 160 59 47 45
385 752 159 66 52 45
453 688 227 80 63 50
364 767 161 54 46 43
366 768 164 49 43 40
371 763 164 56 47 45
275 772 216 174 130 99
370 767 165 57 47 47
375 760 162 57 47 45
380 762 162 61 51 48
384 907 270 68 60 54
463 705 273 101 75 53
295 882 290 159 128 106
379 763 163 65 52 49
380 767 164 69 55 53
314 798 150 73 60 52
385 761 162 64 52 47
286 912 280 58 47 44
398 565 247 119 23 41
386 763 163 69 56 52
385 767 165 64 52 51
287 915 221 85 81 82
322 736 253 76 61 55
409 532 260 187 13 51
323 733 256 77 61 56
417 854 250 60 50 52
364 788 251 165 121 100
325 737 255 77 62 57
325 742 254 78 62 57
323 744 252 77 62 56
400 697 191 65 45 44
325 746 253 77 63 56
325 751 249 76 62 56
330 747 254 79 63 57
310 840 228 106 79 52
334 748 256 80 63 57
334 752 252 79 62 57
336 751 254 79 63 57
324 753 247 76 61 56
325 757 246 76 61 56
466 914 283 82 69 57
360 867 273 159 120 95
323 763 242 72 58 53
326 767 244 53 43 42
330 757 249 78 62 57
330 762 247 77 62 57
334 768 247 62 56 53
335 762 250 79 62 58
332 766 248 56 43 42
335 767 249 49 43 43
337 756 253 80 62 57
340 757 255 78 61 57
338 758 252 80 63 57
392 889 270 47 40 32
350 767 256 57 46 46
387 518 203 139 9 22
388 516 202 150 10 34
288 709 257 200 8 65
390 517 204 104 20 36
392 527 208 148 12 37
398 517 212 119 22 42
395 527 211 120 19 39
340 632 284 143 13 45
397 524 213 32 36 38
376 893 296 59 53 48
397 528 214 38 34 38
281 892 265 171 130 108
399 527 216 47 35 38
391 537 210 148 14 39
324 782 136 85 66 47
390 542 210 90 30 39
396 532 215 114 17 39
321 677 279 43 26 29
393 536 212 162 15 42
394 537 215 160 16 42
397 533 219 164 16 45
399 532 220 153 16 44
398 536 222 171 17 43
392 539 213 124 14 23
290 787 216 51 42 37
393 541 216 86 31 39
402 519 218 154 26 52
308 865 219 99 79 63
402 522 219 88 30 39
430 837 255 76 62 56
325 896 301 42 39 38
404 522 225 48 33 34
402 528 224 134 26 44
335 608 291 112 21 42
434 719 200 57 48 43
403 526 226 100 34 44
401 537 230 185 17 49
325 807 155 50 44 44
398 541 226 175 20 51
509 957 256 105 85 67
399 542 230 116 25 43
407 518 229 36 32 37
406 522 230 113 34 44
407 524 238 61 33 22
408 520 232 44 26 34
408 526 241 154 13 43
412 517 245 180 15 47
410 527 250 183 14 52
412 523 254 185 17 53
411 527 255 187 15 51
306 818 268 155 122 102
334 537 315 118 2 38
326 600 294 61 20 28
319 809 168 82 68 58
413 520 252 178 13 46
395 577 255 124 26 45
403 530 227 107 4 37
404 532 235 185 15 50
402 538 234 171 14 50
403 536 236 181 13 49
405 532 240 181 13 45
404 537 240 164 12 44
407 529 243 177 12 45
406 532 245 177 12 47
300 841 276 119 53 62
405 537 245 186 14 50
406 537 250 188 14 52
407 537 255 181 12 51
408 530 246 178 12 48
409 532 255 187 14 51
386 547 209 44 32 39
389 547 211 48 33 35
388 551 212 33 32 38
349 827 145 75 66 61
391 552 220 41 32 37
387 554 213 52 38 45
387 558 214 56 33 40
388 556 216 57 33 36
392 553 224 101 26 38
393 546 221 36 33 37
388 601 245 122 27 43
387 563 220 74 33 38
387 564 223 45 27 33
385 567 220 82 32 39
388 561 221 70 27 31
393 633 282 89 72 52
386 572 225 95 30 40
396 547 230 61 33 37
391 771 279 178 134 104
394 552 230 122 25 41
443 729 208 75 59 43
398 545 231 43 33 37
396 552 235 120 26 44
399 546 235 42 30 34
400 547 240 151 18 46
405 537 280 178 13 53
321 863 195 45 43 44
397 553 238 137 21 45
421 875 240 62 52 49
399 552 241 159 20 43
400 552 245 117 21 37
398 557 241 107 29 42
388 566 226 54 33 37
390 567 230 74 32 38
387 574 228 88 30 35
455 716 234 85 66 47
389 577 231 40 32 38
392 562 233 92 30 41
434 690 245 92 15 31
350 703 297 105 24 40
394 562 235 60 33 35
396 562 240 57 32 35
362 565 315 94 59 46
392 567 233 84 32 39
395 567 240 42 32 34
392 578 239 64 30 37
320 627 281 37 28 31
393 576 241 82 34 37
408 835 202 79 63 57
397 568 249 56 24 31
396 572 245 101 31 41
304 806 167 93 69 59
394 577 245 95 25 37
397 572 250 58 27 33
402 552 250 137 15 43
366 870 105 94 75 60
404 547 255 170 11 46
402 553 255 168 12 44
315 617 283 98 26 40
403 550 252 162 11 37
403 551 255 168 12 45
275 811 176 216 141 109
400 557 250 66 24 34
401 557 255 164 11 46
391 582 240 94 27 34
386 587 230 106 31 41
385 592 230 51 34 36
387 587 233 84 33 37
425 908 220 85 70 59
387 592 234 45 32 36
390 587 240 113 29 42
388 592 236 80 29 41
389 592 240 92 26 37
392 583 245 101 30 41
390 592 245 93 28 38
393 581 246 88 34 40
392 584 248 43 32 35
283 908 271 123 94 82
393 586 255 83 30 37
448 814 253 77 62 53
387 598 238 80 16 27
314 866 204 63 51 47
388 597 240 108 24 40
386 602 235 71 27 37
389 597 245 144 20 43
389 597 250 67 26 34
389 597 255 74 26 33
387 607 245 47 30 33
339 824 259 122 92 67
387 603 250 59 23 31
387 603 255 122 26 44
388 601 250 81 35 39
360 632 290 157 100 90
386 622 225 124 19 38
387 626 224 110 27 32
387 631 219 59 28 31
390 632 225 52 28 31
370 855 119 89 73 60
387 636 214 82 28 32
388 638 216 68 31 31
390 637 220 74 30 31
345 949 240 72 68 71
392 636 225 100 25 36
386 612 230 110 23 38
370 833 103 92 80 74
387 612 235 137 15 41
391 751 155 70 56 46
387 620 229 130 19 41
388 624 227 116 15 36
388 622 230 102 19 33
299 532 291 58 25 31
389 622 235 103 20 36
390 622 240 69 29 34
387 610 245 47 29 35
388 612 245 71 29 37
360 737 285 80 66 60
388 612 250 106 24 37
388 612 255 47 29 31
390 617 255 66 26 31
391 622 250 65 24 31
389 627 230 112 20 34
379 877 99 113 88 72
391 632 230 87 23 33
391 627 240 94 21 34
336 522 341 110 39 45
392 631 240 94 23 33
412 523 270 182 16 53
392 635 230 101 22 36
393 637 230 107 20 33
452 739 277 115 81 58
393 638 226 104 20 30
393 634 235 122 17 41
393 633 240 77 25 32
345 606 294 141 26 46
394 637 240 62 28 33
392 627 255 87 23 38
392 637 255 94 26 37
393 632 245 75 25 34
393 632 249 70 26 33
394 637 245 54 30 32
388 673 175 72 41 32
310 844 283 132 107 86
389 659 182 82 59 42
390 658 185 87 59 38
390 662 181 83 54 38
390 657 190 82 59 47
391 668 184 77 43 33
389 672 180 71 41 33
391 673 189 80 46 38
395 658 185 93 61 37
392 662 183 86 53 38
400 659 185 106 62 39
396 660 182 111 57 35
395 658 190 99 63 43
395 672 185 71 49 35
393 672 188 76 49 39
404 547 260 168 8 49
399 667 187 82 57 48
401 671 188 69 51 39
405 662 185 69 52 38
406 663 177 72 51 38
315 783 140 83 70 60
405 662 190 71 51 38
306 940 235 99 93 95
405 667 177 63 48 37
401 668 180 73 50 35
439 772 205 72 56 51
405 666 185 63 46 37
401 672 177 71 52 39
326 777 138 73 57 43
342 863 169 57 51 56
402 668 177 68 46 27
405 667 190 63 44 34
300 936 244 67 63 63
410 663 177 71 56 43
439 842 270 91 74 60
410 662 184 66 48 34
409 667 180 65 49 40
409 666 184 63 48 37
388 679 167 65 49 38
388 674 172 70 45 33
387 682 164 59 48 41
389 687 166 52 40 38
391 687 170 53 41 38
400 682 175 67 45 38
400 687 175 69 50 45
392 680 179 62 49 38
304 517 355 128 87 70
395 677 184 61 48 37
397 682 183 61 46 37
400 682 184 65 48 38
376 597 295 103 53 42
397 686 183 63 39 38
387 696 168 57 40 45
361 939 239 85 79 81
390 692 170 51 39 37
390 697 170 56 43 41
391 697 175 59 40 41
388 698 167 52 39 44
353 796 242 163 125 98
417 876 273 70 58 52
395 697 171 56 45 39
469 722 240 79 61 44
395 697 180 58 44 40
400 697 183 68 42 39
400 689 188 70 46 43
401 698 181 68 42 37
366 872 154 83 74 68
397 698 183 64 41 37
400 700 180 65 44 40
397 700 183 64 43 40
403 684 172 65 48 40
403 686 172 62 48 42
407 675 188 74 40 31
400 752 155 71 56 46
403 682 178 57 41 29
408 673 191 78 33 38
409 677 190 75 40 34
409 682 191 77 45 39
409 688 186 80 58 47
410 687 190 75 48 39
403 698 182 68 41 39
403 704 177 62 52 45
404 702 180 66 45 37
414 688 192 62 40 34
376 568 302 68 24 30
412 690 188 65 44 38
414 697 186 67 52 48
287 920 227 79 75 76
415 702 185 60 48 42
413 702 182 53 41 37
408 704 188 57 48 43
416 702 189 62 49 46
418 703 192 63 52 42
386 655 199 44 39 43
391 657 205 48 40 38
295 929 280 64 59 58
387 640 213 77 46 40
392 645 218 92 30 29
358 838 125 109 87 69
387 646 209 59 37 36
389 647 211 48 35 35
391 646 214 67 33 30
414 855 225 63 55 54
390 652 210 45 36 35
308 880 204 135 95 69
290 805 208 50 39 41
445 787 245 59 48 42
392 640 223 98 20 27
393 643 221 97 26 31
394 647 220 78 30 30
393 648 216 68 32 33
362 864 183 57 53 52
394 652 215 48 33 34
394 657 210 52 35 35
396 657 215 44 34 35
396 652 220 40 33 34
398 652 225 47 32 33
390 658 195 77 53 45
328 855 203 53 48 48
392 660 200 62 51 44
396 660 196 72 45 36
338 840 188 37 32 34
398 659 193 97 61 40
440 707 215 86 66 46
400 662 195 75 45 37
399 664 198 42 33 32
393 658 206 46 39 35
386 621 284 92 73 51
334 702 291 88 19 37
350 802 156 55 48 50
395 667 205 70 29 32
324 807 150 54 47 44
258 779 168 169 112 77
398 672 203 56 34 33
394 727 166 58 46 43
396 662 210 46 31 32
399 662 215 94 33 36
260 572 265 157 7 47
398 659 217 46 32 31
430 707 205 60 48 42
323 808 145 72 62 53
396 667 209 90 26 35
398 667 212 95 24 37
397 671 209 81 25 31
402 665 197 51 20 33
322 832 216 142 104 79
404 668 199 70 45 36
405 672 200 60 43 35
402 666 219 93 25 35
403 668 217 96 33 28
403 664 226 109 36 37
328 538 307 158 2 51
405 672 220 75 40 37
395 642 240 50 27 30
397 646 235 118 21 37
347 944 228 90 83 84
380 872 200 60 54 54
398 648 235 91 31 38
398 649 227 100 37 45
399 652 230 39 31 32
399 652 235 54 35 34
406 672 250 133 13 43
398 649 240 56 35 32
397 647 245 47 32 31
396 647 250 51 27 31
399 652 245 72 27 33
397 650 250 74 27 30
401 657 230 103 28 38
401 657 235 56 32 32
401 657 245 36 29 32
333 524 353 170 118 90
404 662 230 118 32 41
404 662 235 86 30 36
402 660 236 51 32 31
328 846 159 51 46 45
404 663 240 34 29 31
406 667 235 106 24 37
406 672 240 113 21 41
349 857 275 145 109 83
285 632 261 169 12 54
408 673 225 66 33 35
315 926 210 82 77 79
408 673 234 66 19 28
402 660 245 36 30 31
402 661 250 42 29 32
268 522 272 143 6 42
403 663 249 86 28 36
425 902 215 91 67 44
406 672 245 124 15 40
402 665 255 81 17 26
345 597 305 154 102 88
400 677 205 58 32 29
397 675 206 65 30 28
296 852 231 152 114 85
401 694 195 61 44 44
400 697 195 60 44 42
407 681 201 65 30 33
410 677 195 71 47 39
409 677 199 65 43 41
412 685 194 62 41 33
414 688 206 55 39 36
354 832 135 88 75 66
402 676 213 76 31 32
404 677 215 75 36 33
452 739 218 75 55 46
406 677 220 64 40 33
407 677 223 72 39 37
407 681 224 64 33 29
410 684 215 54 34 30
411 685 210 61 40 35
317 868 181 48 43 43
410 853 214 65 55 55
415 687 210 57 42 38
415 686 215 52 42 34
409 684 220 44 32 29
415 686 225 49 33 30
404 697 195 59 44 41
315 922 205 81 74 76
402 697 198 60 46 41
401 701 194 58 41 39
416 692 195 51 40 34
315 607 286 161 19 53
380 752 280 71 56 49
415 691 200 59 35 32
412 690 201 59 36 32
416 691 205 61 40 36
332 610 288 51 22 29
407 677 240 129 12 40
409 677 230 62 31 32
411 666 291 138 99 64
409 677 235 87 25 36
408 679 240 126 10 37
409 682 230 101 29 38
375 803 242 154 123 98
415 687 230 43 31 30
412 685 234 120 10 37
378 598 301 118 90 59
415 687 235 101 20 34
415 686 240 124 11 40
281 877 255 134 113 95
407 676 244 130 15 41
407 680 240 129 11 42
370 862 260 37 32 29
409 678 246 128 14 42
408 674 250 132 16 40
411 676 255 128 12 40
413 683 246 125 13 39
416 686 245 128 12 41
372 923 256 58 52 49
412 680 248 128 12 46
367 650 298 187 130 112
415 682 250 126 12 40
416 685 248 125 11 40
445 672 225 89 56 43
318 516 338 94 3 27
441 672 230 83 65 51
419 688 215 62 49 39
425 688 220 92 70 48
404 662 300 147 101 67
430 686 225 105 78 62
355 797 243 164 123 98
417 697 193 59 43 39
418 697 195 60 44 39
368 842 248 130 100 82
386 902 260 64 53 55
418 694 201 58 38 35
322 824 221 156 113 89
419 697 200 54 41 39
420 702 195 68 54 41
427 704 202 71 58 45
429 699 206 62 47 32
417 690 208 60 44 40
418 689 211 59 45 35
421 691 215 80 62 46
425 693 210 59 47 39
336 890 175 78 70 68
385 877 209 72 63 61
401 757 294 189 140 112
422 690 218 98 77 53
465 747 250 75 59 45
424 703 208 72 56 45
422 703 208 74 56 47
426 696 209 57 44 39
430 692 215 74 52 44
432 695 213 63 46 36
305 837 275 157 136 128
428 689 217 85 57 49
446 676 224 93 56 40
441 682 225 96 72 44
412 750 178 66 53 49
418 866 254 45 37 43
443 680 223 80 55 32
442 684 222 69 52 30
355 552 325 92 64 48
441 688 221 78 62 46
265 547 269 153 7 47
433 693 216 92 56 47
435 697 215 76 55 45
435 692 220 100 72 61
435 687 225 92 72 50
433 689 222 109 88 74
436 697 219 65 52 47
440 692 220 76 62 50
440 697 219 60 47 39
433 698 212 72 56 46
436 702 214 70 56 47
440 702 216 67 51 41
440 700 218 58 43 34
287 892 283 169 131 110
444 703 217 94 72 48
425 687 230 89 67 49
419 688 246 129 11 43
417 680 254 128 11 39
419 682 255 125 16 40
420 688 230 75 54 38
423 690 232 81 61 43
420 692 235 85 54 41
315 547 299 89 32 41
419 692 240 117 15 39
420 697 240 124 15 39
425 697 235 68 44 35
421 702 236 58 27 28
425 701 234 57 34 26
420 702 240 102 18 38
430 692 236 56 43 37
394 809 242 36 31 33
426 703 232 55 34 26
332 834 156 46 41 39
431 704 239 55 32 29
421 692 245 129 14 43
420 697 245 131 13 43
396 796 264 45 34 35
292 930 273 66 63 62
423 692 250 129 11 43
424 692 255 126 11 42
422 697 249 129 17 43
423 697 251 127 14 42
421 702 245 120 16 39
425 702 251 107 51 47
426 700 253 108 56 50
302 631 273 59 29 38
430 703 250 97 56 47
399 760 167 48 43 41
439 677 230 90 73 57
435 683 230 99 80 59
435 684 227 91 71 46
438 685 228 99 78 55
449 718 231 66 53 42
434 688 236 52 41 32
440 683 238 60 46 30
440 687 239 54 41 30
442 673 238 56 43 28
389 622 300 152 105 74
330 817 145 82 69 59
445 677 239 72 61 49
445 682 237 67 56 45
445 686 237 62 49 38
447 682 238 84 77 72
435 683 246 71 40 35
438 683 247 101 32 41
438 685 247 98 31 40
420 902 216 112 92 72
386 852 194 60 55 57
436 686 253 80 40 39
430 802 270 67 43 34
438 687 253 85 29 33
435 692 235 45 36 29
335 912 305 62 58 56
435 697 234 42 34 28
430 697 275 132 100 63
440 689 237 54 42 31
440 692 236 52 40 30
440 697 234 54 45 36
294 633 267 132 28 52
437 698 232 43 31 23
435 702 235 49 42 37
434 704 239 55 37 37
437 700 232 48 35 30
330 631 283 57 27 30
330 657 280 57 24 32
327 672 283 69 27 34
438 700 232 54 46 40
444 702 237 64 52 39
324 857 160 57 53 54
433 696 243 55 47 41
386 707 145 68 54 45
387 706 150 53 45 40
407 838 203 82 66 59
388 708 150 57 47 41
442 802 255 59 46 33
388 712 146 71 57 46
390 712 150 60 49 42
333 537 323 68 14 29
387 710 156 41 29 28
390 712 155 49 41 36
389 712 160 42 37 37
391 717 150 65 53 42
391 717 155 60 50 43
392 722 150 67 53 44
388 726 147 75 57 47
406 661 274 92 77 60
392 722 155 64 52 44
391 722 160 58 48 42
392 727 154 61 49 42
394 732 161 62 49 43
386 823 227 35 25 22
389 707 166 52 36 34
285 637 260 176 11 56
388 709 162 47 40 41
390 712 165 46 37 35
392 706 168 67 37 36
392 718 168 44 35 35
395 707 170 67 45 44
365 857 180 56 52 54
286 907 220 66 62 63
401 707 175 66 53 45
395 717 169 52 41 41
392 726 164 55 46 42
380 542 316 173 14 58
392 721 168 44 36 36
397 726 168 60 47 43
401 722 174 62 47 44
401 727 174 58 44 40
396 732 164 62 48 43
394 737 161 61 47 40
400 732 170 57 45 42
404 707 180 59 45 40
415 827 205 69 57 53
282 878 269 77 69 66
402 708 178 71 57 48
404 712 181 61 44 40
344 818 146 69 60 57
406 707 185 47 39 37
464 854 284 97 84 71
319 799 222 183 127 111
406 712 185 53 40 35
406 706 189 55 41 39
402 716 178 73 56 51
403 718 177 65 47 45
299 827 255 169 130 104
410 707 185 46 40 40
400 562 265 39 27 35
412 705 182 46 37 37
413 705 182 47 38 37
408 706 188 54 44 41
368 579 323 141 105 67
411 711 186 47 42 39
409 713 189 46 40 36
416 712 189 57 48 43
416 716 190 63 53 43
404 727 177 60 47 39
404 732 175 63 47 45
299 782 222 74 61 56
404 722 177 56 40 42
406 727 178 63 49 42
411 720 183 54 43 40
308 539 297 97 39 51
410 727 180 54 42 39
342 880 287 96 78 63
413 723 182 54 40 36
413 728 182 63 49 43
410 737 180 69 52 48
304 862 287 168 124 106
416 732 183 60 46 42
389 748 154 72 57 46
390 753 159 63 51 44
395 743 155 59 46 43
396 741 160 60 47 41
399 743 161 58 45 41
395 747 151 65 52 45
395 751 151 76 60 49
396 746 154 61 49 40
399 748 156 59 47 40
403 547 270 166 5 51
401 747 160 56 46 43
395 753 154 72 57 47
390 757 161 65 52 46
310 577 299 171 7 54
362 615 328 190 135 109
393 754 158 62 52 46
395 756 160 60 50 44
396 755 156 71 57 49
400 755 156 71 56 48
403 748 161 54 45 42
403 752 157 72 57 50
397 740 163 58 46 43
326 887 165 111 103 100
400 742 165 54 43 40
388 760 162 72 58 51
320 857 210 93 77 61
390 767 170 62 52 48
394 765 171 55 48 46
392 768 173 56 48 48
395 767 175 56 49 48
400 762 170 46 41 39
389 637 310 148 105 73
400 764 173 45 40 38
400 766 176 49 43 42
402 740 173 49 42 36
404 742 175 59 46 47
402 746 164 44 37 37
424 878 240 70 57 52
404 748 165 47 40 39
407 750 164 52 44 43
355 667 286 125 9 38
405 747 170 52 44 42
407 750 170 58 49 45
314 703 266 131 24 48
407 750 173 72 58 56
410 752 165 59 48 42
410 752 170 58 48 43
411 751 175 67 54 47
406 741 179 66 51 48
410 742 180 78 56 53
416 742 184 72 53 48
411 747 178 73 55 50
405 760 167 48 43 39
405 761 170 48 42 39
405 764 173 52 44 41
405 766 176 54 46 42
377 913 229 86 77 75
410 757 165 66 54 47
411 758 169 61 49 42
413 754 171 58 51 49
384 794 257 72 60 55
453 678 236 74 58 43
414 753 175 59 51 47
410 760 171 54 45 39
416 763 178 72 58 51
419 707 191 64 52 44
345 900 181 79 74 77
419 711 191 64 52 46
383 910 249 65 58 54
420 727 185 57 45 40
423 723 187 59 49 43
422 720 188 61 50 42
425 722 189 59 47 41
335 926 294 79 73 70
423 730 187 68 53 43
426 727 189 66 51 41
422 733 188 64 51 44
425 737 191 53 44 40
459 904 271 89 73 61
428 722 192 60 48 40
335 792 233 181 133 111
428 727 192 61 48 40
418 742 186 69 53 50
417 751 183 67 54 49
418 747 186 67 54 49
421 747 189 56 46 43
421 752 189 51 42 42
393 865 206 76 64 62
425 757 190 50 41 41
423 758 187 49 41 40
418 766 181 73 58 53
407 714 193 50 40 35
407 715 194 54 43 38
408 714 193 49 42 37
422 706 200 77 54 51
421 713 194 65 51 44
423 709 197 71 57 45
417 714 193 62 49 41
420 717 194 61 50 44
425 716 195 61 49 42
426 710 204 77 59 46
428 714 201 56 45 45
405 792 189 74 55 49
430 717 200 62 50 42
431 716 204 71 57 39
425 706 208 83 66 53
305 902 185 88 77 74
431 722 194 55 46 41
430 727 195 57 47 40
430 737 195 49 42 41
433 711 207 85 64 46
435 718 205 82 62 47
435 712 210 81 60 36
437 705 213 58 46 41
436 717 215 93 73 56
443 706 217 97 75 50
445 707 218 86 67 49
442 708 218 110 86 58
442 711 218 109 91 74
446 718 211 86 67 47
436 721 199 60 49 44
437 720 205 77 60 50
440 721 205 75 58 45
432 735 198 50 45 44
435 737 200 53 44 39
440 737 206 59 48 40
443 723 202 67 52 40
447 782 225 80 62 54
443 725 202 66 51 39
445 727 205 73 56 43
446 731 207 70 53 42
353 877 149 89 83 79
436 722 215 107 81 66
397 879 52 110 89 69
440 722 215 108 79 67
420 847 220 67 58 57
450 715 262 80 61 43
415 853 283 62 53 46
406 853 283 41 37 35
436 725 214 107 79 66
437 721 218 119 89 73
311 781 140 82 70 63
443 720 213 88 67 48
442 732 208 67 52 41
320 877 165 73 65 63
442 729 208 64 50 40
445 732 208 67 50 43
371 837 240 126 95 79
442 735 208 64 51 40
340 812 144 71 60 54
425 705 235 65 35 31
422 705 245 99 35 40
391 858 199 74 63 62
422 705 248 104 46 42
431 704 247 91 53 44
428 705 248 91 57 46
440 707 235 72 61 55
442 710 234 65 52 41
445 712 234 78 67 56
445 709 240 68 54 41
446 717 230 73 60 53
440 707 245 69 47 40
440 707 250 64 45 36
440 707 255 81 57 44
444 709 254 73 55 46
446 710 256 77 57 45
427 747 193 51 42 41
427 768 193 50 41 40
428 766 192 50 42 39
430 767 194 54 43 41
434 742 196 54 43 37
436 742 200 58 47 41
327 844 165 42 37 35
437 740 203 57 49 44
435 752 195 57 46 38
367 821 174 54 53 58
437 752 198 64 53 46
439 752 200 56 44 39
444 738 207 59 48 42
384 582 289 146 15 49
441 752 204 53 42 37
446 742 209 78 60 48
435 757 195 58 46 40
434 767 197 67 52 46
436 768 199 76 59 48
360 827 250 144 112 86
439 762 200 66 53 43
439 767 201 76 59 49
441 757 204 48 37 36
443 757 207 50 40 37
468 704 252 129 94 60
442 762 205 48 41 39
445 757 210 64 50 42
447 754 213 88 70 61
443 767 211 53 44 40
330 660 282 40 30 31
445 762 215 64 50 43
445 767 215 60 48 40
447 762 219 60 50 44
446 767 220 56 47 42
447 768 224 57 48 43
370 816 168 48 42 46
362 845 252 143 111 89
447 767 245 65 48 42
448 669 232 69 54 44
407 854 213 65 54 52
415 852 216 68 56 56
448 672 230 80 51 44
326 547 331 141 90 77
448 669 234 65 52 41
449 672 235 67 53 41
449 673 238 74 61 48
449 692 221 77 59 42
451 692 224 77 59 45
449 697 221 75 56 39
450 702 220 78 60 44
448 674 227 93 54 45
452 676 235 71 54 42
450 677 240 73 62 51
454 678 240 61 50 39
307 894 191 55 51 52
453 683 231 84 64 51
292 656 258 171 8 54
449 682 240 79 69 59
450 687 241 77 61 45
454 682 235 81 64 49
455 682 240 65 51 37
454 687 235 68 53 42
455 677 245 77 62 46
452 678 248 91 73 60
262 517 268 137 9 42
452 686 243 83 63 41
454 682 245 87 67 49
453 692 230 82 58 47
453 695 227 86 67 55
452 694 231 85 50 42
450 692 239 76 56 41
308 517 348 104 47 45
450 697 235 77 53 42
373 584 298 127 12 43
449 697 239 81 60 45
453 690 239 76 54 38
449 701 238 79 63 50
451 718 205 100 72 47
454 718 202 88 64 51
452 718 202 95 63 44
407 660 292 138 100 64
450 712 225 83 70 60
450 717 210 110 86 61
451 714 212 122 93 54
388 895 227 70 69 72
453 714 216 83 65 46
453 713 219 76 59 44
455 718 224 61 49 39
458 718 219 74 59 47
450 722 205 87 63 47
452 720 202 93 62 44
454 720 202 89 64 53
454 722 205 85 63 51
453 725 206 85 65 52
449 731 207 77 57 47
456 722 210 81 63 48
454 727 210 80 62 47
454 732 215 79 62 49
456 732 219 82 64 51
455 721 226 64 50 39
457 727 219 68 52 41
461 732 224 76 59 45
458 735 222 80 60 52
453 704 234 86 74 63
409 851 211 66 54 51
453 707 235 85 71 58
454 712 236 79 61 45
455 711 240 90 66 45
455 719 231 81 64 47
450 716 233 71 57 42
460 717 235 93 70 46
461 715 238 99 74 50
325 951 245 58 53 53
452 710 242 83 57 37
452 710 245 99 76 55
455 710 245 119 88 58
281 897 270 176 134 111
449 709 253 89 72 60
455 711 250 109 84 62
462 709 247 163 115 62
465 709 247 129 94 56
283 604 272 129 49 64
465 711 245 108 80 49
458 710 250 150 109 74
465 707 250 140 99 58
463 705 253 171 115 65
464 714 241 94 70 47
450 722 226 61 49 40
450 725 226 61 47 39
283 852 250 154 114 91
326 706 284 89 33 43
455 720 229 77 60 45
460 721 230 83 64 47
494 923 275 109 87 67
462 720 233 85 65 44
465 721 234 91 70 49
463 735 227 67 51 44
453 825 264 94 73 55
461 737 230 75 58 46
460 737 235 78 58 43
309 877 210 108 76 64
462 734 235 76 57 42
305 821 249 121 97 75
461 733 241 72 53 39
464 726 244 71 53 36
465 723 250 87 65 47
463 725 250 86 65 47
464 727 255 84 63 48
459 732 245 65 48 34
466 728 242 74 56 36
459 732 250 83 63 45
457 738 249 73 54 41
463 732 256 74 56 45
468 719 237 71 53 32
503 840 267 101 91 81
469 712 246 88 67 46
470 707 255 90 63 49
470 712 250 84 63 46
468 714 242 74 56 42
350 752 264 77 61 57
469 716 245 85 65 47
468 717 255 78 61 46
305 882 210 92 71 57
469 722 235 76 59 44
468 724 232 76 57 41
469 727 240 84 64 46
468 730 231 81 60 49
468 730 235 78 58 42
375 637 319 206 146 119
468 730 239 78 59 39
465 722 245 76 59 42
466 723 254 86 66 48
468 721 251 86 65 45
387 578 286 164 10 50
468 721 255 80 62 45
305 687 271 111 23 45
450 742 215 83 63 51
455 742 220 75 58 47
448 747 211 90 68 57
448 751 211 93 71 60
452 748 218 70 54 45
454 747 221 67 52 43
454 751 225 81 64 53
457 738 223 77 59 47
457 743 224 76 57 49
451 757 225 69 55 47
454 752 230 76 58 48
456 747 235 81 61 47
455 752 235 78 60 49
458 740 234 80 59 46
290 682 260 140 17 49
456 747 240 81 60 50
455 742 245 83 61 52
458 742 256 73 54 43
459 748 247 96 72 58
457 752 244 84 63 51
465 747 246 95 71 56
457 746 248 88 66 54
452 757 230 76 60 51
452 754 228 85 67 55
453 756 231 72 55 46
310 523 400 203 140 128
454 757 235 73 57 49
455 757 240 72 54 45
452 759 233 72 57 49
451 762 230 74 59 48
450 767 230 73 58 48
451 763 240 60 47 38
286 926 240 83 79 80
452 762 235 74 59 47
450 762 245 63 46 39
451 764 248 79 59 44
459 757 246 94 71 59
463 755 247 94 67 56
461 758 250 94 72 59
461 757 255 79 59 46
458 760 247 98 74 61
353 562 338 156 109 78
459 762 250 89 66 54
465 712 271 93 69 51
458 765 252 83 61 48
458 766 255 83 62 47
440 797 260 61 47 39
354 865 177 66 63 66
460 762 255 78 56 46
422 909 220 82 69 60
468 744 246 77 58 42
259 517 266 133 11 42
265 517 269 144 5 42
260 527 266 130 11 42
335 847 185 40 36 36
262 522 268 140 7 42
265 522 269 145 5 43
342 825 257 127 96 69
257 536 263 157 8 49
260 532 266 151 8 46
260 537 265 155 7 47
260 542 264 156 8 48
390 897 245 71 63 63
263 542 267 154 7 47
269 542 271 147 6 44
271 532 274 120 13 41
273 517 277 94 20 37
307 940 255 64 61 62
343 874 144 143 135 130
280 517 281 86 23 35
273 522 276 47 28 31
385 772 166 63 52 53
438 791 217 73 59 53
274 527 276 42 26 29
405 782 185 69 53 49
276 527 279 65 24 33
280 527 281 96 21 37
283 526 282 100 22 39
285 527 283 108 18 38
286 522 283 83 23 36
274 532 276 134 10 43
276 532 279 152 7 47
303 900 189 82 72 71
277 542 278 155 3 47
285 537 284 71 21 34
426 848 264 72 59 54
285 542 284 120 9 40
260 547 265 154 7 47
261 552 264 144 9 45
263 547 267 155 7 49
414 796 191 82 64 54
264 552 267 154 7 46
380 577 294 133 11 41
264 557 266 151 8 45
266 552 269 156 7 48
438 766 283 166 110 79
269 547 271 150 6 45
269 552 271 154 6 47
269 557 271 154 6 47
271 547 273 148 6 45
272 552 273 151 6 46
272 557 273 152 2 45
260 562 264 103 13 36
318 774 237 37 32 35
260 567 265 143 8 42
264 562 266 146 7 44
264 567 267 144 7 43
258 578 261 186 10 59
265 572 269 145 7 43
348 604 320 193 136 113
267 562 268 153 6 46
471 856 277 92 79 69
439 787 270 162 104 77
267 567 268 150 7 45
355 792 160 53 46 47
270 572 271 150 7 46
269 577 271 146 8 45
283 872 255 95 74 67
272 572 273 150 7 45
289 602 276 135 21 49
272 577 273 152 8 46
275 547 276 145 3 44
410 762 297 192 142 110
275 552 276 145 1 42
345 562 344 168 114 84
275 557 275 148 0 45
278 553 277 141 0 41
278 556 277 141 0 43
301 935 274 56 51 50
280 557 280 143 0 43
314 552 297 46 28 29
375 582 296 119 9 36
370 868 111 111 91 75
298 890 208 64 56 55
285 547 284 151 0 45
283 557 282 144 0 43
272 562 273 153 0 47
275 562 275 154 0 47
314 618 282 114 32 47
320 867 165 58 53 53
272 567 273 151 3 45
275 567 275 153 3 46
277 571 278 155 4 50
280 572 280 158 5 48
280 577 279 160 6 49
283 567 282 148 2 45
286 562 284 141 0 42
285 567 284 149 3 46
283 572 282 158 5 47
283 577 282 164 6 50
371 761 268 79 64 57
285 572 284 155 5 46
369 864 268 57 48 43
290 517 286 53 28 30
293 521 287 60 19 31
308 774 227 81 65 57
290 537 286 63 28 35
292 524 288 53 21 30
298 517 291 128 11 41
301 522 294 76 24 36
298 527 292 94 32 42
292 531 288 32 29 32
295 537 289 57 26 31
295 542 288 54 29 30
383 561 299 166 13 54
301 532 294 75 34 40
304 532 296 61 28 34
305 537 295 70 28 36
302 540 293 121 37 46
306 517 298 78 23 33
308 514 302 71 28 34
310 517 301 133 20 47
306 522 298 68 25 33
313 519 302 48 23 29
316 522 304 48 26 33
319 522 306 62 29 34
307 536 298 41 24 26
310 532 299 127 15 42
380 552 310 133 23 50
310 537 299 74 25 35
315 532 301 100 18 37
384 903 274 52 44 43
315 537 300 65 27 34
317 530 303 134 27 50
319 533 302 135 26 49
319 537 302 60 24 33
290 547 286 109 13 40
289 557 286 145 2 46
289 562 286 137 0 41
292 552 288 30 28 31
410 837 255 32 28 28
343 594 320 186 131 109
295 552 289 59 23 31
416 868 255 50 41 43
300 547 291 79 23 34
303 552 292 137 0 41
300 557 292 140 1 43
305 552 294 138 5 42
302 554 293 134 0 42
302 557 293 137 0 44
462 698 281 114 89 66
292 562 288 139 0 42
292 567 288 140 4 43
393 576 279 165 15 52
295 567 290 130 4 40
295 577 290 53 28 33
300 562 292 142 1 43
299 567 292 124 4 39
302 562 293 137 1 42
298 572 292 57 23 29
300 572 294 75 23 36
299 578 292 72 33 35
293 929 277 64 57 59
301 577 294 78 31 38
305 572 296 140 8 44
439 747 284 170 114 83
310 652 271 122 10 39
310 547 296 63 26 32
310 552 296 61 26 31
313 548 297 46 27 26
320 919 199 95 87 87
340 792 149 77 58 53
308 788 149 64 55 49
320 547 301 46 27 31
320 552 301 49 27 30
435 772 200 81 63 53
314 557 297 97 21 38
316 557 298 65 25 33
320 557 301 60 27 32
311 568 298 117 2 35
307 572 298 148 5 46
313 562 297 110 23 46
315 562 299 84 23 34
318 566 302 128 7 40
320 567 304 122 7 39
315 572 301 125 3 38
317 572 303 127 4 35
320 572 304 140 3 41
317 576 303 138 5 40
320 577 304 147 5 44
308 514 348 125 19 41
307 527 351 171 124 107
310 522 345 124 69 64
308 522 348 129 76 67
350 916 200 78 73 77
315 517 340 145 12 49
295 842 235 134 105 78
315 522 341 150 23 56
320 522 336 120 7 45
311 532 346 161 112 96
310 532 350 184 129 111
316 532 341 137 85 75
313 533 344 156 106 91
317 537 341 156 104 90
404 804 256 38 30 31
315 537 345 179 128 108
314 538 350 198 139 117
319 542 340 167 115 97
316 542 350 201 141 117
318 544 351 201 140 115
300 517 360 134 94 79
298 517 364 141 105 91
297 517 366 155 117 104
303 522 354 172 122 106
303 524 359 197 141 123
305 527 360 203 142 121
300 522 365 195 140 124
297 520 366 185 138 124
302 525 362 206 146 127
296 517 380 195 138 123
297 517 375 191 138 123
300 522 370 203 143 126
302 525 368 207 144 125
303 524 375 199 133 114
305 815 177 87 66 58
305 525 375 194 130 110
305 525 380 197 136 113
320 528 365 188 123 99
310 527 370 197 135 109
310 527 380 192 132 110
425 757 295 180 123 92
315 527 375 191 130 104
319 525 375 192 130 102
392 766 283 182 135 104
315 526 380 194 133 109
315 526 385 193 131 110
319 525 380 192 129 103
321 523 380 185 121 95
318 525 385 194 130 108
312 536 355 200 139 116
308 529 362 196 133 112
311 530 363 197 132 111
385 862 265 32 29 28
315 533 361 197 132 108
376 543 317 165 15 53
315 536 358 193 129 106
323 804 152 51 47 44
320 537 359 187 125 99
315 530 364 200 135 110
315 529 366 198 134 109
319 530 363 189 122 97
319 539 357 193 130 110
415 872 280 59 51 46
320 547 340 181 126 106
366 917 286 61 52 48
320 547 345 195 136 114
321 546 354 194 132 111
410 737 298 181 131 98
258 583 257 166 6 51
261 582 264 182 9 57
261 587 260 170 5 52
262 586 263 180 7 55
262 592 259 162 11 52
350 736 280 81 64 60
263 593 261 112 15 41
267 586 268 34 29 34
267 590 268 29 30 31
270 587 271 78 23 38
270 592 270 132 26 50
263 598 257 46 24 30
269 598 266 113 27 45
271 596 269 93 24 39
447 782 240 73 58 47
271 602 265 127 26 47
275 582 275 161 8 50
278 579 277 160 6 49
276 592 274 36 30 33
281 587 278 56 29 34
280 592 276 37 31 33
284 582 281 105 18 40
286 582 284 126 22 45
282 591 278 41 30 32
285 592 279 38 28 32
371 850 241 34 30 27
275 602 269 152 20 52
277 605 268 78 35 42
406 697 302 176 116 86
344 609 292 125 22 43
280 607 270 83 31 39
284 608 272 107 25 42
277 596 273 41 29 31
281 601 273 134 38 54
354 778 251 183 131 110
283 593 277 35 30 32
272 611 259 169 15 57
273 609 262 181 26 66
276 617 259 108 27 44
330 852 186 35 33 33
280 612 266 126 26 47
428 816 221 64 54 51
277 621 258 54 27 32
294 923 224 76 71 72
285 612 270 118 27 46
282 621 263 83 28 40
285 622 265 121 25 47
287 620 268 147 49 67
287 631 263 155 14 53
293 583 287 40 30 32
290 587 284 73 28 37
289 588 282 75 31 41
324 820 239 83 66 46
295 587 286 88 26 37
298 589 287 174 36 65
299 592 286 113 24 46
290 597 280 55 28 33
296 596 283 39 27 31
291 601 278 159 31 59
294 608 277 97 31 44
296 607 278 117 33 50
305 598 286 45 30 33
408 535 268 180 12 56
299 603 282 47 29 33
301 601 283 37 30 30
304 608 282 40 29 30
425 852 265 67 56 51
306 606 283 42 29 32
309 599 287 46 27 35
314 603 287 167 21 53
320 607 287 115 18 42
295 582 289 48 31 34
344 593 305 129 79 70
324 822 235 83 67 49
410 793 280 174 120 97
296 586 288 68 32 36
370 772 165 61 51 51
300 582 291 58 30 33
356 802 164 54 50 53
305 582 294 80 25 38
300 587 289 83 30 39
313 891 174 75 68 64
310 582 296 164 10 53
308 578 297 180 8 56
310 586 294 106 23 43
309 588 292 102 30 44
310 592 291 105 25 41
315 582 300 180 8 56
437 823 248 77 61 52
314 583 297 185 9 58
319 583 301 171 7 53
376 717 292 164 31 55
321 581 303 163 6 50
317 586 298 187 9 58
320 587 299 179 9 56
310 597 289 76 30 38
321 596 294 118 13 40
315 601 288 113 24 43
289 613 272 67 28 34
295 612 276 89 28 39
292 616 273 69 30 32
296 622 273 68 31 37
297 610 278 79 20 35
298 613 277 149 27 51
305 612 281 85 27 37
305 617 279 75 27 36
364 852 120 93 73 57
302 620 278 63 36 39
289 627 266 103 28 43
295 632 269 96 31 41
288 638 262 110 19 43
294 637 266 75 29 37
296 636 268 138 29 53
299 628 272 73 30 35
300 637 270 91 25 40
303 634 272 28 27 29
307 610 283 48 30 29
309 613 282 118 25 44
310 617 281 118 26 45
315 941 225 88 86 89
310 622 280 54 30 34
315 612 284 149 21 50
320 612 285 133 19 46
320 617 284 91 28 38
319 624 282 53 27 28
309 628 277 50 23 27
310 632 276 81 31 40
312 630 278 32 28 30
306 637 273 40 30 33
442 910 267 95 79 64
314 633 277 31 28 30
315 632 278 33 28 30
315 637 277 103 23 42
317 636 278 103 30 48
320 637 279 118 24 44
318 639 277 85 12 28
323 518 312 73 27 32
315 817 255 96 75 51
325 517 314 87 27 39
411 874 269 60 49 47
321 522 309 62 28 34
324 522 311 63 27 33
322 527 308 41 24 32
495 922 270 115 93 73
327 525 313 62 33 27
328 514 317 128 15 40
400 801 187 66 56 54
330 522 315 98 23 38
410 902 230 69 58 54
332 521 320 94 19 37
455 741 271 99 70 50
330 527 314 72 23 34
400 537 290 171 9 50
401 552 275 170 10 48
329 528 312 33 29 30
333 524 317 115 7 39
333 524 320 125 4 42
389 627 300 141 97 64
335 527 316 120 7 40
321 537 303 99 27 44
322 542 303 82 34 40
322 530 308 47 29 34
327 535 308 168 0 44
330 532 311 78 20 35
332 530 313 39 21 33
334 532 315 121 7 41
333 536 312 119 3 33
329 817 150 68 60 56
335 532 320 114 3 40
334 537 320 123 4 40
328 542 307 135 1 40
331 542 310 123 0 36
332 542 315 109 2 35
331 543 320 116 11 42
332 539 313 115 0 38
325 547 305 117 8 37
324 552 305 124 4 38
322 558 304 125 11 40
326 557 309 139 2 41
355 908 301 56 49 45
328 546 307 128 0 38
329 552 311 143 3 46
330 547 315 107 5 36
329 547 320 83 17 34
365 797 245 165 125 100
330 557 320 124 39 52
330 573 306 120 3 38
335 575 303 107 18 35
325 577 305 149 4 47
330 567 309 126 11 41
334 562 315 79 26 37
334 567 320 142 96 82
339 574 305 84 22 40
328 809 163 49 45 49
340 577 301 93 25 39
338 568 314 71 47 41
306 867 289 107 80 72
338 572 311 66 27 35
338 577 310 87 42 44
337 572 316 127 80 70
337 576 316 140 92 80
291 867 236 163 120 96
370 542 320 53 28 32
375 542 319 129 20 47
384 531 319 87 23 39
379 541 318 180 10 58
382 539 317 164 13 56
354 669 288 134 12 38
344 871 177 66 61 63
384 542 314 59 27 32
285 814 178 205 134 102
365 558 312 43 26 27
364 556 313 39 27 30
366 577 301 104 17 37
394 802 186 62 54 52
366 577 305 86 42 37
367 574 302 132 24 48
365 567 310 69 29 34
366 568 307 36 29 33
362 562 312 84 21 31
364 567 315 102 68 50
364 647 285 112 46 47
365 572 320 132 95 66
367 575 314 123 90 61
377 606 321 149 105 70
357 625 295 178 122 106
383 556 304 109 29 42
325 933 214 84 79 81
382 559 302 132 27 45
354 582 338 175 120 89
370 548 316 115 25 44
370 552 314 62 25 33
373 545 318 94 17 38
374 551 313 81 26 36
370 557 311 39 28 29
375 557 310 46 28 32
290 797 213 46 39 38
376 553 312 45 26 28
369 555 313 41 26 28
385 547 310 150 17 51
385 552 305 105 19 42
381 548 312 64 22 34
378 550 313 68 17 29
305 847 225 137 104 74
375 567 304 78 17 33
365 791 249 151 105 85
369 571 303 103 23 41
370 567 305 82 24 35
370 573 301 102 23 39
370 577 299 142 15 48
375 572 300 35 25 29
374 576 298 72 19 28
372 929 250 58 53 51
375 577 296 117 18 41
330 592 299 132 7 40
384 567 294 166 7 52
379 562 304 84 20 35
385 562 295 166 10 51
371 563 307 88 21 34
370 562 309 82 26 36
375 562 306 109 26 44
374 560 308 52 23 27
325 517 334 33 26 26
326 527 331 74 11 28
332 517 325 65 24 33
422 696 292 153 106 70
332 522 325 55 20 31
331 527 326 78 13 31
335 517 345 73 42 38
333 514 348 67 35 30
503 933 265 108 85 65
333 517 349 127 87 71
336 522 345 127 78 64
334 522 350 160 111 87
428 841 256 70 56 54
321 532 336 158 28 59
290 892 225 56 52 54
321 537 336 133 76 66
326 532 331 150 8 46
326 537 331 183 13 61
359 627 315 193 138 113
324 542 334 140 83 73
331 532 326 62 16 30
374 874 129 87 75 64
331 537 326 81 13 29
334 532 324 76 8 34
330 542 325 101 22 44
335 532 350 166 117 88
341 522 336 95 19 37
345 522 335 129 16 45
424 837 230 61 52 52
344 526 333 117 17 40
350 517 336 155 14 50
346 527 332 65 22 30
344 516 338 49 25 27
344 807 151 71 59 57
342 519 337 31 28 29
339 522 338 88 25 33
370 887 296 44 40 38
339 527 340 127 62 56
337 526 346 151 101 78
356 697 297 66 29 33
342 532 335 106 51 46
370 917 284 59 51 45
345 532 331 47 26 28
343 533 334 82 39 36
345 537 335 112 76 57
346 537 331 56 35 30
365 917 210 76 70 71
351 542 327 41 28 30
347 540 332 85 59 38
362 630 318 193 137 113
364 837 249 146 112 90
349 542 330 66 47 37
348 543 335 131 91 66
341 532 340 138 89 70
339 532 345 156 107 80
342 536 341 147 98 76
344 538 340 146 99 74
340 537 345 159 110 82
337 530 347 163 114 85
338 534 348 163 116 86
344 542 344 158 111 79
341 542 346 160 112 82
338 543 348 159 110 81
327 517 361 171 115 90
327 514 365 168 113 91
326 522 360 164 107 81
365 812 175 54 47 48
385 903 234 77 69 67
344 935 278 67 61 60
311 820 190 46 40 49
325 527 360 172 114 86
327 528 357 166 109 85
329 517 355 158 109 84
434 752 289 175 120 89
328 516 359 176 124 97
330 527 355 169 115 87
332 520 352 161 110 87
333 526 353 177 123 95
327 514 370 164 108 81
325 517 370 175 113 89
327 514 375 169 113 87
325 517 380 173 112 89
325 662 281 55 26 32
367 657 290 148 95 82
323 522 375 183 120 95
322 524 376 185 122 96
300 692 265 38 25 31
322 524 371 187 120 94
323 521 380 182 120 96
324 532 359 170 112 82
324 537 358 172 112 86
327 532 357 166 110 83
325 542 356 185 125 101
324 552 335 168 113 95
326 552 331 151 99 82
326 557 335 184 127 107
361 903 200 75 69 70
328 547 325 53 29 34
329 552 325 87 55 51
328 552 329 142 95 81
330 557 325 134 86 74
328 557 329 157 102 88
370 807 174 60 51 57
322 546 337 166 113 93
322 550 348 198 135 111
415 812 199 61 49 47
325 557 340 198 138 115
330 557 349 195 134 113
335 557 349 187 128 103
327 560 336 193 134 112
331 567 325 163 109 92
333 562 323 146 100 83
329 562 330 173 117 99
365 852 175 61 59 62
330 567 335 196 136 114
332 570 326 174 118 101
360 527 331 160 13 53
333 568 323 153 101 86
334 573 325 175 118 101
336 577 325 187 130 109
332 571 330 190 131 111
333 573 330 195 135 114
334 572 335 196 135 111
336 577 335 194 133 109
327 560 340 199 139 116
329 562 340 197 136 112
331 566 340 194 134 110
324 802 137 89 67 52
332 565 343 193 131 109
335 566 344 198 135 111
334 568 341 192 131 108
336 571 339 192 130 108
352 546 327 62 38 34
329 777 141 65 52 45
351 547 330 106 77 56
341 547 346 157 110 78
342 552 347 160 112 81
302 874 222 98 78 59
339 557 348 173 116 88
347 547 341 153 109 77
352 556 336 150 107 75
351 716 293 161 15 53
340 567 344 192 132 107
340 572 341 194 133 109
340 570 343 193 133 109
337 576 338 192 132 108
340 828 100 92 86 81
345 572 341 186 129 98
344 570 343 184 128 97
345 577 340 192 134 108
347 568 342 175 120 88
350 562 340 159 111 79
284 907 225 61 58 59
365 742 280 74 62 57
350 567 341 164 113 80
350 572 340 171 118 82
330 547 354 179 122 96
329 550 353 191 133 110
355 517 336 113 15 41
318 862 175 47 43 42
360 517 335 93 18 39
356 524 332 154 13 49
360 524 332 171 10 54
365 527 330 180 9 55
362 913 208 63 57 59
355 537 326 36 28 28
361 534 327 95 20 40
360 537 325 83 21 38
360 531 329 87 22 38
332 831 170 36 32 33
355 542 325 33 28 29
365 533 326 173 13 55
364 530 328 172 12 56
420 852 250 63 52 52
366 539 322 36 26 26
324 804 156 53 48 47
375 517 330 178 2 55
375 527 326 170 15 56
370 526 328 184 8 58
373 525 328 183 7 58
335 937 220 90 85 89
381 518 327 178 9 56
389 892 265 48 39 28
384 515 328 184 9 58
380 527 324 87 20 38
384 522 324 41 27 31
378 521 328 180 8 57
370 532 325 122 19 46
374 535 323 35 24 30
376 534 322 116 18 42
384 836 237 33 30 29
371 538 322 34 29 31
388 900 231 80 76 76
379 531 323 118 18 42
354 547 324 51 33 32
353 549 328 110 78 55
354 552 330 131 93 67
357 556 325 117 84 60
353 553 333 146 104 74
355 562 335 150 107 73
354 868 149 78 65 57
356 567 336 153 107 75
358 562 330 144 102 72
415 803 265 126 84 66
358 564 333 148 104 74
418 741 298 175 121 87
359 572 334 151 106 75
403 816 192 56 48 48
418 836 216 76 63 61
361 567 325 138 99 68
366 577 325 144 106 72
362 576 332 147 105 71
364 577 330 147 106 72
325 584 302 158 6 50
328 581 303 126 6 36
330 582 301 117 7 36
335 582 299 109 11 38
269 798 168 180 121 88
330 587 300 129 6 41
333 591 298 131 6 43
336 589 297 147 6 46
325 597 295 145 18 50
323 594 297 184 11 57
326 595 298 170 12 56
321 605 288 56 22 29
329 595 298 148 11 47
