ply
format ascii 1.0
comment Created by Open3D
element vertex 2184
property double x
property double y
property double z
property uchar red
property uchar green
property uchar blue
end_header
252 689 289 147 13 46
257 688 289 132 13 44
247 695 290 148 11 46
242 699 290 150 9 47
242 704 292 157 4 50
354 703 195 87 58 44
247 699 291 152 9 47
257 798 266 103 73 61
247 704 292 157 4 49
315 905 227 68 60 60
317 616 186 121 41 48
250 692 289 146 14 50
253 691 290 146 14 44
252 699 291 145 13 45
252 704 291 162 9 50
282 921 310 34 32 33
257 699 292 138 16 46
202 714 268 162 107 85
202 719 267 164 109 86
207 719 268 137 67 60
366 604 272 140 113 83
197 729 267 181 126 100
202 729 266 170 116 92
202 724 266 168 113 89
277 519 267 46 27 30
207 724 267 139 69 61
207 729 266 141 73 65
277 834 265 165 130 104
203 735 264 169 114 93
206 735 264 148 92 78
217 709 272 159 17 50
209 718 270 131 50 49
212 719 271 128 39 45
216 714 272 152 17 47
216 719 273 156 18 49
219 709 276 160 15 50
278 762 280 76 61 56
302 724 306 191 20 62
219 719 276 177 17 57
223 719 282 173 18 56
212 724 271 132 37 45
277 593 158 158 16 42
212 729 271 136 37 46
217 734 272 162 19 52
344 751 289 76 27 41
221 724 277 178 16 56
224 728 281 37 23 31
220 730 274 173 16 54
220 734 274 169 17 54
357 649 297 162 115 81
392 844 226 92 73 61
194 739 265 176 123 96
197 739 265 177 124 97
197 744 265 179 128 100
195 745 264 179 130 101
352 659 296 177 127 103
197 749 264 175 126 97
198 748 265 175 126 98
203 744 264 172 120 95
353 565 161 163 25 46
203 739 264 171 118 95
212 834 232 124 70 63
207 744 263 139 89 73
201 739 265 175 122 97
202 749 264 170 118 93
200 748 265 174 123 97
373 694 237 56 38 38
197 754 264 173 127 97
199 754 265 172 125 95
197 763 264 172 128 98
197 769 265 173 131 99
336 927 299 68 56 47
207 759 262 154 110 83
200 754 265 171 123 94
203 754 264 168 119 91
202 759 264 168 122 93
269 771 190 80 64 53
200 757 265 171 125 93
207 769 263 158 116 87
201 765 265 171 126 95
202 769 265 172 128 95
209 737 265 120 48 47
210 740 264 116 45 44
214 737 270 129 34 42
262 743 285 75 62 55
217 739 272 165 21 53
213 744 266 116 38 41
215 744 268 136 28 41
215 741 269 133 27 43
215 751 264 95 47 47
218 744 271 172 20 57
394 714 185 81 63 48
218 748 271 134 26 48
220 751 269 51 45 43
220 739 274 168 19 54
224 748 275 89 32 42
212 754 262 118 79 58
367 910 251 77 68 66
212 764 261 129 88 63
217 764 262 139 103 77
217 769 263 145 104 77
221 755 268 54 46 44
222 764 266 51 44 42
222 765 271 57 48 44
224 761 270 63 52 47
222 769 266 49 43 41
224 709 285 152 20 50
352 774 177 78 58 45
431 870 257 89 74 60
224 714 285 168 19 53
392 763 218 102 77 60
224 718 285 176 20 55
227 719 287 176 20 56
225 725 284 75 19 32
308 940 236 78 71 71
226 729 283 73 27 36
224 732 280 33 26 31
227 734 282 120 24 46
232 729 288 97 22 37
229 732 285 158 30 61
237 769 271 70 60 56
232 734 286 82 20 36
230 735 284 63 18 29
403 735 173 80 61 50
237 734 288 184 18 59
297 580 147 219 14 47
232 709 291 140 14 45
229 710 290 97 12 38
229 719 290 167 21 56
266 704 294 76 26 36
232 719 291 163 18 51
247 939 213 77 71 73
237 709 292 163 15 53
361 529 143 100 23 38
237 714 292 175 17 57
230 725 289 152 17 49
232 724 290 174 20 56
387 710 186 88 69 51
303 819 183 57 50 50
349 525 130 53 26 35
237 724 291 184 17 59
234 728 290 176 20 60
237 729 290 184 18 59
242 709 292 168 3 53
247 709 292 164 0 51
247 714 292 175 0 55
403 758 244 68 52 39
388 845 217 103 87 76
252 709 292 167 3 53
252 714 293 173 0 54
387 729 192 57 45 39
374 676 260 105 85 63
252 719 292 183 0 60
257 714 292 177 4 56
324 901 292 36 34 34
242 729 291 135 18 49
247 724 292 195 7 62
242 735 289 139 20 49
247 736 289 37 28 30
257 724 290 186 12 60
252 733 290 55 27 31
382 839 247 55 43 36
252 735 289 45 29 31
226 740 278 75 29 39
227 749 276 84 54 54
226 751 274 78 63 58
232 750 278 85 64 60
237 739 287 168 22 57
352 909 308 46 42 42
234 742 285 73 21 32
237 744 285 110 22 43
236 745 284 59 28 31
446 852 259 106 85 64
238 747 285 89 22 37
227 764 268 67 57 52
272 784 191 82 65 55
282 785 193 81 63 55
213 818 208 105 79 67
227 765 272 69 59 53
227 769 268 63 55 50
228 957 295 69 62 59
227 769 272 69 58 52
230 765 269 66 59 55
206 909 272 111 93 80
237 759 273 74 63 59
228 752 275 82 69 63
332 900 257 33 31 34
232 754 276 79 66 60
231 755 274 76 64 59
230 759 282 80 66 59
230 763 278 74 62 57
229 765 277 70 59 53
238 757 275 77 65 61
403 779 232 66 51 42
357 918 277 49 39 35
236 752 281 81 69 62
247 739 288 94 29 42
346 674 283 86 59 50
242 747 285 100 45 52
247 747 285 75 59 55
334 822 275 42 36 37
252 739 288 70 36 40
257 743 285 78 65 57
252 749 283 80 66 59
257 749 283 80 64 58
257 745 284 80 65 57
388 906 250 77 66 61
241 760 274 80 67 61
243 758 275 81 67 60
247 759 277 80 66 59
242 752 280 83 68 62
277 969 262 65 61 64
242 764 273 80 66 59
244 762 275 78 64 58
247 764 275 77 64 57
245 765 274 76 63 58
407 759 227 85 64 46
248 768 275 74 61 57
250 756 279 81 66 60
317 913 308 39 37 37
257 757 280 73 63 55
202 832 241 188 130 103
252 768 275 76 64 55
257 764 276 70 59 55
289 517 280 157 105 89
182 774 217 166 114 79
180 770 220 172 119 86
179 784 223 162 109 78
183 784 218 165 113 81
187 774 212 156 109 73
184 773 214 159 111 73
427 875 238 93 72 55
392 892 297 41 35 33
189 775 209 154 109 71
292 906 200 71 65 67
192 774 208 150 106 69
365 752 169 80 59 45
190 772 210 149 106 71
335 878 245 40 36 35
187 779 212 161 111 76
282 544 276 148 12 46
307 654 288 120 19 43
185 779 215 165 113 79
192 784 208 159 109 74
264 926 315 39 39 41
184 789 218 162 111 77
182 794 222 160 109 77
408 901 276 85 67 55
183 799 222 162 110 76
186 789 216 161 112 76
359 679 247 39 28 33
193 789 208 157 108 73
191 789 211 157 110 74
186 794 216 161 113 77
212 939 242 57 54 55
312 525 101 73 28 37
191 794 211 159 112 76
192 799 212 159 110 75
189 798 214 160 110 75
206 914 272 125 109 100
187 799 217 161 111 76
184 797 219 161 111 75
185 800 220 162 111 76
176 774 227 165 111 80
292 674 190 67 30 32
366 813 208 59 50 49
175 774 231 159 109 76
174 774 233 157 109 76
174 774 237 159 111 79
176 779 227 161 109 78
355 685 218 68 36 39
174 779 233 158 109 76
397 781 207 95 69 48
287 694 299 51 30 33
175 779 230 157 108 74
175 784 231 161 110 77
287 903 288 112 78 64
173 779 237 163 114 82
174 784 237 168 116 86
359 674 247 53 40 37
174 774 242 164 115 83
175 774 248 170 119 90
369 663 289 153 108 78
173 779 242 167 117 86
267 764 187 80 61 52
174 784 246 175 122 93
223 846 268 123 98 74
175 784 248 177 125 96
176 779 252 178 126 97
396 714 182 75 61 48
176 784 252 180 128 100
176 789 232 167 113 82
174 788 234 168 117 84
392 819 221 75 59 51
174 789 237 173 120 91
175 791 235 173 119 90
253 782 270 68 57 57
252 954 306 74 67 64
176 794 232 171 117 85
175 794 237 176 123 94
215 948 284 46 42 43
366 654 253 91 69 50
176 799 237 180 126 97
215 956 283 54 51 51
174 787 245 175 123 94
175 789 247 180 126 98
238 831 238 48 38 37
175 790 243 177 124 94
176 794 247 184 130 100
176 799 242 187 132 102
320 778 180 47 40 38
177 784 227 159 108 75
357 708 187 85 54 45
178 774 256 173 124 95
178 789 227 160 109 76
277 624 290 84 35 43
179 789 224 158 107 75
178 794 227 165 112 79
179 789 255 182 130 101
177 799 247 190 134 104
179 794 255 182 132 102
178 799 252 189 135 106
393 724 257 122 89 61
179 798 255 185 133 103
182 794 257 180 131 101
182 799 257 183 132 102
184 803 223 168 115 81
190 801 215 160 111 75
192 804 217 166 113 78
188 803 218 164 113 77
186 804 221 169 115 81
187 809 222 179 120 89
237 814 196 87 67 58
190 806 220 172 116 82
392 824 245 64 48 40
191 809 220 179 122 89
258 841 266 115 93 69
262 859 287 133 105 75
193 814 219 190 128 97
188 818 223 189 127 95
192 819 222 200 134 104
179 808 233 183 126 97
250 916 195 77 66 65
181 804 227 175 120 89
312 528 103 147 16 41
396 518 168 188 20 46
304 792 280 60 48 47
177 804 237 184 129 100
179 809 237 189 131 104
181 814 232 195 134 106
347 769 288 155 109 83
180 811 237 195 137 108
372 669 288 148 102 70
180 814 237 200 139 110
185 811 225 180 120 91
372 944 297 87 75 64
185 815 226 181 121 92
177 804 242 193 136 106
178 804 247 194 136 106
179 809 242 196 138 112
179 808 246 196 137 111
179 804 251 191 135 107
179 807 250 192 136 109
321 783 176 48 42 41
180 804 253 190 136 107
182 804 256 187 134 105
352 916 262 73 66 65
181 809 252 194 137 110
372 759 293 168 120 85
180 811 242 200 140 115
180 810 247 197 137 112
303 543 274 108 16 38
181 814 242 205 144 117
187 814 256 200 143 118
183 819 232 210 143 116
187 819 227 200 136 106
188 823 228 222 151 122
191 821 225 209 142 112
184 822 237 217 143 112
186 824 237 227 151 121
191 826 231 230 156 132
293 899 196 62 56 56
192 828 232 227 152 128
189 827 234 234 158 132
375 856 224 61 53 48
189 827 237 228 149 120
368 584 207 195 22 50
398 789 216 81 65 52
184 818 246 206 146 118
185 821 244 211 148 119
374 908 299 55 49 46
187 823 247 209 149 120
357 579 182 138 21 42
360 614 295 157 112 78
187 819 252 202 142 114
188 818 255 203 145 120
192 818 256 206 150 125
189 827 241 224 153 125
192 828 242 212 142 114
191 825 248 208 145 118
193 827 246 211 146 117
412 894 283 83 72 60
231 774 191 73 57 51
315 908 277 31 31 33
227 784 192 71 57 52
233 774 189 73 58 51
396 719 251 83 50 40
287 624 291 100 30 43
277 942 214 88 84 88
238 777 189 76 60 51
373 820 283 183 125 98
237 779 190 75 60 52
385 744 285 173 116 85
237 784 190 75 61 52
263 586 155 220 13 54
232 789 192 75 61 53
388 708 252 80 54 47
268 588 285 162 17 53
271 835 205 138 97 74
237 789 191 76 61 54
237 799 191 78 63 55
338 534 126 158 2 37
243 778 189 75 60 51
242 783 190 74 60 52
247 779 188 74 59 51
243 785 189 75 60 52
301 952 271 71 62 59
252 774 186 71 59 50
257 774 188 73 59 50
357 519 280 155 10 48
252 784 187 76 61 52
277 743 285 73 60 54
241 790 190 77 62 53
352 874 240 41 37 35
245 791 190 78 63 54
358 886 230 87 75 75
242 794 191 79 63 54
242 799 191 80 64 55
263 592 159 196 11 50
247 799 192 84 66 55
252 789 189 79 63 55
257 789 188 79 63 53
254 791 190 81 64 54
277 889 287 143 111 81
252 794 190 84 67 56
340 540 292 153 122 92
252 799 192 86 67 56
316 624 285 77 26 34
257 794 191 83 66 55
242 804 192 82 65 56
293 940 297 63 57 55
197 774 206 147 105 67
197 779 206 155 108 71
196 784 205 159 109 73
206 774 200 148 104 68
202 779 203 155 108 70
202 784 203 159 111 74
390 730 208 56 45 42
206 779 200 157 108 72
394 838 230 72 59 51
370 827 280 182 124 101
206 784 200 162 112 75
197 789 206 157 110 72
199 788 204 157 110 72
197 799 208 161 111 75
287 719 186 133 7 33
202 789 203 157 110 72
207 789 201 160 112 75
204 798 204 164 114 77
376 869 244 45 36 33
194 794 209 158 110 73
213 958 262 76 71 73
209 774 199 150 106 69
285 836 265 157 122 95
215 774 195 163 114 78
387 539 207 60 29 33
209 779 199 159 109 74
212 779 197 163 113 76
347 724 292 139 29 45
209 783 199 163 114 77
218 774 194 156 112 78
222 774 194 73 59 53
222 784 193 58 48 47
267 524 268 83 27 36
213 789 199 161 114 77
217 789 197 132 97 69
364 571 181 203 23 54
213 793 199 153 109 74
217 794 198 115 86 64
317 597 164 222 18 50
211 794 200 157 111 74
212 799 201 154 110 75
401 863 223 93 78 70
215 799 200 135 99 69
222 799 197 66 54 51
202 804 208 166 113 79
362 529 278 48 29 32
205 800 205 165 114 79
208 804 204 164 113 77
319 559 285 141 80 65
207 809 207 170 116 80
197 804 212 164 111 78
196 805 215 167 114 78
373 896 300 45 37 33
198 802 209 163 111 75
238 890 219 155 114 78
355 921 290 84 65 52
390 711 234 82 66 52
197 809 217 176 118 87
199 807 214 170 114 82
197 814 218 189 129 98
200 805 211 167 113 80
203 808 209 170 116 81
317 824 178 72 58 52
374 652 260 131 102 71
201 815 216 188 128 97
203 813 213 182 123 92
208 813 208 177 122 87
195 817 219 200 134 106
389 525 161 195 23 48
197 819 222 207 139 110
197 823 224 216 146 115
358 579 277 120 96 70
353 610 216 165 27 49
205 816 215 191 130 97
206 819 217 199 136 104
202 824 222 215 144 114
208 823 218 207 142 109
402 893 267 82 66 56
205 821 220 207 140 109
206 825 220 211 142 111
203 828 224 213 143 112
242 939 311 48 45 46
328 688 294 129 8 40
209 807 204 165 113 77
216 805 200 77 61 54
211 810 205 167 117 81
212 814 206 141 101 78
217 814 203 71 56 54
222 804 198 72 58 51
223 808 199 75 60 53
217 819 208 84 64 59
325 560 294 169 115 93
223 818 203 85 66 57
406 744 222 77 60 47
222 819 207 89 67 58
217 824 211 85 64 58
297 886 182 73 62 59
212 828 217 114 80 68
209 827 219 206 139 105
216 831 220 63 52 52
217 821 210 88 68 62
222 830 216 86 66 59
281 715 294 107 25 42
194 822 224 214 145 114
196 825 226 220 148 116
337 904 236 67 59 59
194 827 229 224 151 125
197 828 228 216 144 116
201 831 231 208 137 108
402 779 217 76 60 47
207 831 226 199 133 103
205 831 230 203 133 106
200 831 237 205 133 107
197 818 256 200 149 124
197 821 254 203 152 128
400 750 245 71 56 39
197 826 249 204 143 116
202 818 256 188 140 116
202 831 243 190 130 105
301 571 285 140 9 44
202 828 247 191 134 107
302 589 156 210 16 47
207 829 247 180 127 103
228 778 265 63 53 49
201 826 249 195 141 112
207 827 250 189 138 114
232 929 208 77 68 67
212 818 255 160 118 94
377 870 226 66 56 53
393 525 172 40 35 35
234 889 228 123 97 73
212 820 254 167 127 103
217 818 255 146 109 80
217 820 254 151 112 86
217 824 252 165 128 104
267 835 205 151 107 83
396 759 217 93 72 55
217 831 243 124 88 72
217 828 247 155 118 96
217 826 249 176 139 112
222 814 256 78 64 54
222 831 243 50 42 42
381 829 232 66 53 43
227 774 192 72 57 49
228 794 194 74 60 54
225 795 195 74 59 53
228 799 193 75 60 54
356 600 296 153 111 78
232 794 192 76 62 54
232 799 193 77 62 55
402 774 217 81 63 49
257 799 193 84 66 55
287 614 177 156 22 46
226 804 196 74 59 52
229 807 194 75 61 55
363 804 172 90 70 54
231 810 195 78 63 55
267 971 264 62 59 59
226 815 200 83 64 58
237 809 194 80 64 57
238 812 194 85 66 59
233 818 198 87 68 59
441 868 276 78 64 54
227 819 202 87 67 59
226 821 206 89 68 59
237 821 201 98 75 65
237 824 203 100 77 67
331 689 199 60 38 37
287 709 185 101 24 34
236 825 205 101 77 67
233 828 208 98 73 63
239 827 204 100 76 67
337 610 186 98 34 45
227 829 212 92 69 60
226 831 215 88 66 61
317 539 292 166 113 91
228 827 209 97 72 64
232 830 211 94 70 60
257 884 212 52 48 49
287 541 275 145 13 43
246 808 194 89 69 59
244 811 195 89 70 58
247 810 195 89 69 58
247 814 196 91 71 59
328 717 195 93 26 29
252 804 194 86 67 55
287 954 287 65 56 51
328 555 131 67 31 36
250 807 194 88 67 56
252 809 196 88 67 57
387 814 247 63 45 39
255 802 194 86 66 54
257 809 197 86 67 57
397 759 213 91 68 51
252 814 197 90 70 59
242 824 203 99 76 66
247 820 200 94 72 61
342 779 181 69 54 46
247 824 202 94 72 62
243 828 204 97 73 65
247 829 203 88 67 61
254 822 199 92 69 61
252 821 200 91 70 60
272 608 173 141 33 50
286 858 187 47 45 46
252 824 202 91 70 60
282 564 284 125 14 42
257 819 202 89 68 60
252 829 203 70 56 55
257 829 202 55 49 52
302 864 168 88 69 58
351 684 213 64 41 44
227 809 256 56 46 42
226 814 255 50 42 40
228 814 254 57 47 43
231 815 254 60 52 50
233 813 255 63 52 50
237 814 256 62 53 49
234 831 239 56 45 41
227 819 253 51 45 43
227 824 251 55 48 48
232 828 246 62 50 47
232 830 242 59 48 46
227 826 249 61 52 51
232 826 249 65 52 50
237 819 253 61 53 50
347 519 128 124 6 31
237 827 246 62 50 49
247 829 237 116 81 63
370 842 220 59 51 52
246 831 234 112 76 56
247 824 247 106 75 59
246 822 250 84 56 47
242 828 242 67 48 39
322 834 178 95 74 57
241 827 245 63 50 48
244 826 244 83 56 40
343 818 188 65 51 48
252 817 255 145 96 80
251 824 248 133 96 78
257 819 256 163 111 88
256 820 254 163 115 92
249 827 245 132 94 78
250 829 244 155 113 94
368 682 260 76 64 54
257 834 257 144 111 87
251 829 247 153 112 91
253 829 251 157 116 92
289 720 300 84 21 33
256 828 253 152 111 87
217 833 222 64 54 54
223 832 218 83 63 60
203 832 233 201 133 103
362 896 278 48 43 40
208 832 228 196 133 102
207 833 232 192 128 97
212 833 227 135 87 73
315 620 285 66 33 36
217 834 227 53 47 50
219 859 262 157 119 93
217 834 237 57 36 39
222 834 237 48 42 43
212 832 241 180 131 104
217 832 241 103 68 59
396 514 192 151 17 47
222 854 257 142 111 86
222 864 247 123 98 71
219 861 254 147 115 87
217 864 257 146 113 83
220 858 257 150 116 89
220 862 251 138 110 82
216 869 252 143 113 84
386 784 282 174 120 89
214 870 257 141 111 81
215 868 257 142 111 82
295 900 283 114 83 71
267 749 282 70 59 54
216 874 247 141 110 80
213 879 248 141 110 80
368 589 212 187 21 49
213 874 252 137 108 80
336 923 277 83 75 72
211 874 257 129 102 74
375 701 203 54 44 34
401 824 236 67 54 46
209 880 254 137 107 80
208 879 257 138 107 81
210 877 255 125 98 71
224 909 228 65 60 61
214 875 249 143 111 82
219 866 248 131 104 76
222 869 243 129 101 71
237 879 303 144 109 85
220 868 246 126 100 71
270 730 289 94 21 37
224 865 244 122 96 66
222 874 242 137 107 75
357 927 274 81 63 51
374 870 225 62 53 49
223 889 238 134 105 73
223 894 238 130 101 73
215 884 245 146 110 82
213 889 248 152 112 86
211 884 251 149 112 85
209 884 254 155 116 90
207 889 257 185 133 114
361 687 252 55 42 39
357 689 294 166 116 90
215 894 245 157 116 89
213 894 248 160 116 91
211 894 252 169 122 100
374 774 201 62 49 42
220 894 240 145 109 81
238 833 208 82 62 57
227 834 217 83 64 58
401 774 222 78 61 49
229 832 214 89 67 58
233 838 218 65 56 55
230 836 220 75 58 57
242 968 262 72 67 66
292 587 154 158 31 53
234 837 214 69 57 55
372 824 282 182 125 100
237 840 222 134 104 84
239 842 218 189 136 109
239 842 221 193 137 108
242 834 207 66 54 53
247 835 206 93 76 69
282 528 103 173 9 37
372 694 222 53 43 37
243 838 208 113 88 74
247 838 208 177 129 104
252 833 204 93 77 70
257 836 205 163 115 92
240 841 215 186 132 106
247 841 210 186 129 102
247 843 213 182 123 95
240 841 224 184 127 97
242 843 222 193 131 102
246 845 222 193 130 99
252 843 213 176 119 94
340 583 163 179 12 43
252 846 216 176 117 90
257 841 210 164 114 91
257 843 212 166 113 89
253 847 218 177 118 89
257 848 218 167 114 84
327 719 306 34 29 30
379 528 214 34 27 31
254 852 224 171 120 87
227 836 227 58 50 53
227 836 232 50 44 43
232 835 232 46 39 37
237 839 227 113 87 71
237 835 233 69 48 39
363 688 232 31 30 32
345 722 175 65 49 41
392 724 197 66 51 42
237 833 236 50 37 33
227 832 240 56 45 43
232 832 240 58 47 46
368 654 288 148 100 68
228 851 258 104 82 59
232 850 257 98 78 55
228 856 249 105 78 47
210 882 281 122 82 63
232 853 251 100 76 48
227 864 242 117 92 63
366 897 276 55 49 44
225 862 245 116 91 63
228 861 244 108 83 52
389 702 190 77 63 49
232 858 246 104 75 39
232 861 243 104 77 40
225 857 250 114 91 66
237 851 253 97 78 58
237 852 251 95 77 57
237 859 242 101 73 41
239 856 244 93 70 44
397 834 237 81 67 60
302 879 263 39 36 35
242 840 228 169 117 89
241 832 235 81 51 35
243 842 226 179 122 93
246 844 232 174 124 95
245 849 237 144 103 80
343 604 187 68 36 40
246 844 242 131 96 76
247 844 247 99 75 57
248 844 252 74 60 45
246 848 252 72 60 48
374 825 231 72 58 47
346 618 203 111 29 40
248 834 242 157 115 93
251 834 247 156 114 91
250 838 249 139 102 80
251 839 252 120 91 70
371 825 213 64 56 53
254 835 255 142 108 86
255 832 254 150 112 90
342 804 177 93 68 49
253 839 257 103 80 61
248 845 257 69 57 44
262 534 272 52 25 29
248 854 228 166 119 89
246 854 232 153 109 82
206 919 267 188 145 125
245 853 237 133 98 74
248 859 229 144 105 75
242 859 237 104 78 54
241 864 236 100 74 46
252 854 226 159 109 80
255 856 225 161 113 81
252 864 227 125 96 66
244 851 248 75 62 50
288 888 282 123 93 73
352 759 290 170 126 97
245 852 242 92 72 51
241 858 241 88 68 44
236 889 222 173 131 100
305 952 248 76 70 73
252 879 222 80 68 57
257 874 222 79 67 55
257 894 197 55 51 52
332 719 303 88 31 40
256 894 202 50 47 49
267 954 301 80 73 70
241 886 223 86 67 46
240 890 219 110 74 35
427 894 282 89 72 56
363 755 171 87 64 50
242 894 217 106 69 39
330 737 180 64 52 47
243 893 221 89 60 32
367 697 209 52 44 38
247 893 221 86 68 48
255 888 211 51 49 49
338 744 294 113 32 47
255 884 217 56 51 50
251 889 221 85 75 66
322 779 178 50 43 41
276 869 276 141 107 83
254 885 218 68 61 58
372 864 221 65 56 54
388 762 218 95 74 55
253 889 217 77 67 62
252 894 212 63 56 53
248 896 214 90 75 63
254 891 209 52 47 49
228 870 238 130 102 73
232 869 237 125 98 68
347 819 173 107 82 60
385 799 281 173 120 91
233 865 238 113 88 58
332 714 196 89 25 29
227 874 238 136 106 74
359 669 251 48 37 35
227 879 237 139 107 74
377 897 234 76 66 64
232 879 235 136 107 76
238 875 234 105 84 61
237 879 233 104 85 63
227 868 241 127 100 69
259 836 261 129 100 76
225 872 240 133 104 72
227 884 237 138 107 73
227 889 236 129 101 70
230 883 235 135 106 74
317 674 292 136 12 43
233 884 233 118 96 73
228 894 233 107 84 61
231 894 231 114 92 67
237 884 227 105 85 63
262 815 259 183 130 107
235 888 226 163 124 96
234 886 229 83 68 56
235 894 225 128 82 70
242 879 231 93 75 55
245 874 230 129 103 77
248 874 228 121 97 72
245 878 230 131 106 81
256 868 225 99 78 53
254 871 224 94 77 58
251 874 225 107 87 65
250 878 225 92 76 59
277 894 183 76 67 66
319 931 284 59 53 52
242 883 227 92 74 54
240 882 230 86 70 52
252 904 192 73 66 66
254 901 193 63 58 60
256 899 192 64 59 60
255 902 190 76 69 69
251 909 191 83 74 73
258 908 183 79 69 67
253 909 188 83 74 72
247 920 192 84 73 70
346 825 278 162 117 94
246 922 192 85 74 71
253 918 193 81 71 68
250 921 189 87 77 77
223 919 223 62 57 59
207 914 257 157 125 102
219 909 238 94 80 68
314 935 284 61 52 47
213 899 248 162 118 96
215 899 245 163 119 95
215 904 245 154 116 91
213 904 248 151 115 89
211 899 252 169 124 102
208 904 257 134 108 86
358 594 266 108 54 46
217 909 242 136 109 84
209 909 253 156 125 99
218 899 242 162 120 95
217 919 237 59 55 55
335 887 219 65 55 56
267 798 265 190 138 120
214 929 239 55 51 53
377 679 263 114 91 63
218 919 232 57 54 56
223 914 227 61 57 59
221 914 232 59 56 56
224 914 224 64 59 62
220 918 230 57 54 57
220 912 235 61 57 56
218 924 232 58 54 55
352 710 184 67 52 43
219 929 228 59 55 57
217 929 232 55 52 53
214 915 244 123 99 79
214 919 243 82 72 65
202 794 264 181 139 110
219 854 277 163 119 98
210 914 250 159 124 98
208 914 253 159 124 98
214 924 242 66 60 59
215 924 240 60 56 56
371 887 249 34 31 30
185 800 259 186 136 110
212 924 247 101 85 74
213 929 242 58 53 54
212 929 247 74 64 59
390 723 208 59 46 38
210 924 251 140 112 90
237 960 237 82 79 81
209 924 253 158 123 98
209 929 253 122 95 80
223 934 218 75 67 67
221 934 222 76 69 71
215 934 236 57 53 54
214 934 238 56 52 53
216 939 232 71 66 67
308 950 252 84 78 81
215 939 236 64 59 61
214 939 238 59 55 57
216 939 287 160 115 97
216 944 237 71 65 66
214 944 239 68 63 64
343 560 146 177 12 42
219 934 224 74 68 69
249 904 304 156 121 95
219 937 224 82 76 77
218 939 228 77 71 73
220 940 226 76 70 71
381 779 218 51 39 34
222 943 227 66 61 62
221 869 288 170 150 146
211 934 247 60 54 54
213 934 242 55 52 52
322 659 199 119 11 27
210 934 251 69 61 58
208 934 257 98 79 71
211 944 247 68 64 64
213 944 242 69 64 65
343 619 296 167 120 90
209 939 252 65 60 59
208 939 257 74 66 64
352 769 291 179 132 103
211 945 252 79 72 70
218 947 234 73 67 67
223 953 237 81 75 75
326 518 104 103 10 34
217 950 242 81 76 76
213 948 247 79 73 72
216 951 247 80 74 73
211 945 257 76 68 65
216 950 252 80 74 72
214 952 254 72 67 67
220 951 240 80 74 74
218 953 247 79 73 73
222 954 242 84 78 78
222 955 247 82 76 76
224 957 254 70 66 66
233 900 222 91 69 54
233 909 213 148 107 77
227 909 222 65 58 57
230 907 220 80 67 55
272 960 287 73 67 66
335 836 259 47 38 35
237 904 212 131 88 66
235 902 215 148 108 79
377 920 271 95 75 62
238 900 214 147 96 68
347 888 228 68 59 60
237 909 211 88 61 51
431 859 272 54 44 37
237 914 207 60 54 55
312 592 159 224 14 52
237 919 202 72 65 63
421 900 295 86 68 49
233 916 208 65 61 62
239 924 198 87 76 72
352 821 191 66 52 49
238 925 194 90 79 76
234 924 204 75 66 66
237 924 201 81 72 69
234 920 204 70 63 64
237 928 203 85 74 71
237 930 205 85 75 72
227 919 217 63 58 60
434 841 266 74 60 44
362 894 282 40 36 35
229 915 214 62 56 57
230 912 215 70 57 53
229 919 213 66 61 62
225 918 221 64 58 61
277 834 203 79 59 53
282 559 282 136 15 45
228 924 212 66 60 62
328 901 282 40 37 38
230 924 210 69 62 62
236 912 210 61 50 50
306 753 189 121 19 33
248 900 208 56 52 50
387 859 243 65 56 48
247 904 202 56 52 52
334 788 180 55 44 42
247 909 197 68 62 61
249 905 197 58 54 54
243 905 208 57 49 47
241 909 206 55 49 48
243 910 203 58 53 53
250 902 201 56 52 52
242 898 215 106 66 45
242 903 211 74 51 42
358 795 192 67 54 47
245 902 211 72 58 47
243 915 199 69 61 60
242 919 198 77 69 67
247 914 197 73 65 63
242 914 202 65 59 59
242 924 197 90 78 74
307 714 189 105 20 33
243 921 193 88 78 76
247 926 200 88 77 75
458 826 258 110 89 66
257 920 196 80 72 71
393 514 267 54 29 35
251 922 193 86 76 74
251 927 199 83 75 74
334 663 205 67 28 30
253 926 200 83 75 74
252 928 202 77 70 70
311 704 189 124 10 29
257 929 202 79 72 73
227 899 232 100 82 66
372 892 281 44 39 37
229 900 228 91 76 64
258 880 212 52 47 48
231 898 226 111 88 67
230 902 225 89 73 59
353 595 196 72 32 39
225 897 235 112 89 66
389 534 203 92 22 39
224 906 229 70 63 61
282 886 285 141 110 84
232 933 208 85 75 74
237 934 207 83 73 73
227 934 212 81 71 70
316 871 159 100 90 85
231 935 211 83 73 72
282 918 303 38 36 37
227 939 217 77 70 71
232 938 213 80 72 73
363 923 277 87 65 53
228 942 219 70 65 66
225 941 220 71 65 66
227 943 222 68 63 64
232 943 218 72 67 68
231 945 221 68 64 66
236 941 215 76 69 71
238 937 209 81 73 74
237 944 217 75 69 71
238 942 214 78 71 74
314 669 195 45 34 35
352 679 291 154 106 84
389 707 242 91 66 52
233 948 223 69 65 66
237 949 222 71 67 68
258 816 200 88 69 59
238 952 223 70 67 68
272 556 125 87 32 39
242 930 205 82 72 72
284 833 264 161 123 97
247 930 206 77 70 71
247 933 208 75 68 70
251 931 206 71 65 66
254 933 204 79 69 71
283 517 271 151 99 89
381 533 158 123 23 39
242 937 209 80 72 74
242 939 212 78 70 72
367 694 222 52 39 33
242 943 214 79 72 75
247 943 214 83 77 81
388 544 197 73 30 38
365 801 176 89 71 55
253 937 209 76 69 71
267 884 187 69 61 62
252 943 213 80 75 77
361 719 218 52 42 37
257 938 208 80 73 74
380 548 253 183 22 51
247 965 282 66 63 64
257 944 213 84 78 81
370 567 183 200 24 50
247 945 215 86 79 83
247 949 217 82 77 80
241 951 220 77 72 74
242 954 222 74 70 72
244 952 219 75 70 71
315 905 246 37 35 37
247 953 219 80 75 79
368 619 266 125 102 77
247 955 221 80 76 79
252 945 215 84 79 83
257 946 215 88 82 86
257 949 217 91 86 89
252 953 219 92 87 91
252 955 221 93 89 93
272 539 274 76 28 38
261 663 284 176 13 56
252 958 223 90 86 90
257 952 219 94 89 93
245 966 245 81 75 76
212 804 261 162 124 91
257 955 221 96 91 95
226 946 230 66 64 65
226 949 231 68 65 66
228 948 228 64 60 61
277 798 266 194 138 115
230 951 230 67 62 64
233 953 229 69 65 66
333 575 151 184 12 42
230 956 235 80 76 77
232 958 237 80 76 78
233 957 233 76 73 75
367 584 247 149 14 44
235 951 226 68 64 65
237 954 227 71 68 70
238 957 229 74 71 73
225 956 242 81 75 76
387 889 292 55 47 41
228 957 242 81 76 77
337 704 297 73 24 34
226 956 247 85 78 79
228 957 247 85 80 80
232 959 242 86 81 82
377 519 242 107 13 34
376 544 162 50 30 35
225 956 251 86 80 78
227 959 252 77 72 72
231 960 251 77 71 73
352 814 172 118 90 69
242 959 227 76 73 75
241 960 231 81 78 80
382 889 244 61 54 49
247 960 226 79 76 78
239 962 238 90 86 88
228 962 258 78 74 74
232 963 257 80 74 75
380 554 216 128 22 45
282 619 292 105 26 41
351 798 183 84 63 48
237 963 247 80 75 76
238 962 242 96 91 91
234 962 249 78 70 73
239 967 253 81 76 77
243 963 232 84 80 83
207 794 263 171 131 99
247 963 228 82 79 82
242 964 237 93 89 90
247 965 237 89 85 86
252 965 232 79 76 77
257 961 225 97 94 97
357 694 294 165 115 87
315 942 262 75 68 68
257 963 227 91 88 91
392 529 172 114 32 42
257 966 235 89 84 84
257 969 238 84 79 81
292 682 294 37 30 29
241 965 247 83 78 79
246 966 241 91 85 86
247 967 243 84 78 78
247 968 247 85 80 82
240 966 251 84 81 82
242 968 257 81 76 77
247 970 252 76 71 73
332 927 298 65 55 45
247 971 257 72 67 67
251 966 240 96 90 91
272 534 272 66 29 34
380 774 290 171 119 87
292 924 317 43 40 40
252 969 242 84 78 79
344 649 215 98 23 35
344 721 178 64 48 43
256 971 240 85 81 84
253 972 247 67 63 63
387 899 242 83 71 69
257 974 247 63 58 56
250 971 251 78 74 76
252 973 252 70 67 68
249 972 257 64 61 60
404 716 234 92 66 48
252 972 257 54 52 52
257 974 252 60 57 57
220 771 264 97 79 61
257 973 257 57 54 54
183 774 260 175 130 99
190 774 264 174 128 100
193 774 265 173 128 100
282 969 247 86 80 83
187 779 262 177 130 101
184 784 260 181 133 105
187 784 262 182 133 105
192 780 264 176 130 102
355 552 149 167 27 50
312 570 285 140 13 44
192 784 264 179 132 103
184 789 260 182 134 105
184 794 260 180 131 103
187 799 261 185 137 109
192 799 264 181 135 105
312 548 118 101 36 44
190 794 264 180 134 105
193 794 265 179 134 105
186 805 259 190 138 112
187 809 258 195 141 115
381 819 272 158 105 78
197 779 266 179 133 104
194 785 265 178 133 103
206 774 265 166 126 92
202 779 265 177 135 103
205 779 265 167 128 96
207 779 264 168 126 93
197 789 265 180 137 107
196 798 265 181 137 108
199 794 264 184 142 113
207 789 263 171 130 97
326 869 183 68 59 59
201 789 265 183 141 109
203 789 264 178 138 106
207 799 263 172 131 98
201 792 265 183 141 111
337 529 287 120 83 69
285 957 229 85 80 83
262 789 188 80 63 54
202 799 264 181 137 108
404 752 239 75 60 47
212 774 263 144 107 76
217 774 263 139 102 76
212 779 263 155 114 83
293 904 273 54 47 41
212 784 262 165 121 88
217 779 263 146 109 79
221 775 264 62 52 47
258 528 113 161 10 40
222 779 264 62 51 46
212 789 263 167 124 91
217 789 261 161 119 89
212 794 262 166 127 92
212 799 261 159 123 91
217 794 261 161 120 90
217 799 260 158 120 89
232 793 261 59 52 49
222 794 260 66 54 46
221 797 260 80 66 54
292 552 279 159 4 48
197 804 264 183 140 113
382 703 242 87 66 52
194 812 260 194 144 119
207 809 262 178 137 108
302 619 183 124 26 42
202 812 260 185 139 112
207 815 258 175 129 102
207 812 260 181 137 110
211 809 261 168 130 97
215 804 260 153 119 88
218 804 259 148 117 87
210 812 260 173 132 101
217 814 257 149 112 85
350 669 219 84 31 38
222 804 258 65 55 48
222 809 257 75 63 54
327 920 315 49 44 42
312 644 286 100 32 43
227 774 266 64 54 50
228 774 272 68 57 50
232 774 267 69 59 55
237 934 307 46 42 42
227 784 263 61 50 46
227 780 264 62 51 47
274 971 240 81 75 78
231 785 264 63 52 48
372 869 223 63 54 51
232 780 270 65 57 51
307 789 281 76 61 56
232 783 266 66 56 50
231 783 270 62 52 48
395 804 241 60 47 37
237 774 269 68 59 56
302 875 261 43 38 37
238 773 270 70 60 56
230 774 276 63 55 51
232 789 263 62 52 48
274 911 195 80 72 70
368 584 233 160 16 48
385 735 163 81 62 46
227 795 259 65 53 47
227 793 260 63 52 46
227 799 258 63 52 47
266 878 197 49 47 50
237 789 263 64 56 54
237 800 259 63 55 51
234 797 260 59 53 52
242 774 271 79 65 58
362 804 295 181 135 102
241 775 269 78 64 59
244 777 270 75 64 59
370 686 244 69 29 36
247 778 270 70 57 57
252 779 271 72 59 55
442 854 277 85 68 54
252 784 268 70 59 54
390 754 277 174 119 89
396 923 287 96 74 59
257 779 271 66 55 53
257 784 270 67 57 55
252 774 273 76 62 54
242 788 265 75 63 54
267 973 242 64 60 61
337 900 262 34 32 34
247 789 266 72 60 53
247 794 264 70 57 51
247 799 263 66 57 53
256 785 269 66 56 54
442 859 262 101 84 71
257 789 269 67 56 51
249 793 265 68 55 52
252 798 265 53 44 45
257 794 268 57 45 45
237 804 258 64 54 49
237 809 257 62 53 48
241 810 259 61 52 49
313 523 295 179 125 99
247 809 261 50 43 43
242 814 258 58 52 49
245 811 259 50 46 45
247 814 258 71 52 48
248 812 260 63 46 42
252 804 263 77 58 52
252 809 261 133 98 80
257 804 263 156 115 94
257 809 261 178 125 101
282 949 218 84 80 82
257 814 258 176 122 102
394 529 182 110 24 38
257 812 260 175 117 95
428 880 262 100 80 73
221 848 267 143 111 86
332 879 246 38 34 34
220 848 278 171 129 109
222 849 282 170 129 109
223 845 281 141 114 91
377 891 296 41 36 33
219 850 272 173 129 108
387 699 187 86 66 46
219 854 267 169 128 104
219 854 272 172 128 106
220 852 265 161 122 97
220 857 260 155 117 91
218 859 272 155 115 93
217 864 267 161 120 99
363 800 173 90 71 56
407 749 222 72 57 48
367 699 294 171 116 85
220 853 278 172 125 106
218 859 277 138 79 74
217 864 277 130 45 68
218 859 282 135 49 67
219 864 285 140 91 102
220 857 283 123 82 68
222 864 288 126 62 77
307 612 179 61 34 38
206 879 262 148 112 88
340 931 309 73 64 56
208 879 272 135 100 79
204 884 263 179 127 110
205 890 261 195 141 125
204 884 267 178 127 110
311 709 189 126 10 32
205 883 268 170 122 105
205 889 272 186 134 117
377 844 246 43 35 31
206 894 267 182 129 112
209 885 276 144 104 87
207 884 287 149 112 91
208 889 287 165 120 101
214 871 265 116 83 68
332 679 287 131 6 41
217 869 267 113 62 65
474 821 249 128 98 73
214 871 272 96 37 45
216 869 272 106 72 69
383 770 220 61 53 47
209 876 258 125 99 73
209 876 262 128 100 74
211 873 262 125 98 72
354 605 211 165 31 55
209 876 266 127 98 74
260 540 120 153 3 47
273 938 197 90 83 83
212 873 267 117 93 70
209 876 270 132 101 79
215 872 270 89 45 41
327 590 161 190 20 51
356 784 178 86 61 44
362 719 175 81 59 40
372 634 262 123 100 74
214 871 277 106 32 43
216 869 277 134 112 105
398 734 226 74 57 45
212 874 277 140 80 80
277 694 185 122 12 29
210 878 274 148 111 89
211 879 282 145 103 87
423 864 242 70 62 55
216 873 288 135 67 74
218 870 286 153 110 111
318 683 195 45 34 37
209 881 284 90 59 45
287 683 293 61 28 32
208 889 282 168 122 104
210 896 283 165 117 103
209 893 287 169 123 105
210 895 287 174 126 110
212 880 292 109 81 64
322 849 178 90 74 65
442 835 267 88 73 57
222 874 293 134 72 75
340 821 279 158 119 96
221 878 294 141 107 89
389 525 255 169 20 46
272 923 312 34 34 35
222 879 295 126 93 75
319 936 246 78 70 72
209 881 291 122 97 76
209 884 295 179 134 117
212 884 296 159 122 103
282 729 296 136 27 50
209 889 291 195 144 127
345 533 129 118 13 33
211 890 293 200 148 132
213 889 295 184 137 120
263 560 280 86 20 31
371 669 252 79 59 48
227 849 262 108 86 64
357 894 252 32 30 30
227 847 266 108 87 66
227 845 272 106 86 65
232 844 272 98 79 59
237 845 267 90 72 52
237 844 272 95 76 55
308 714 310 168 19 56
232 843 277 97 79 59
228 845 286 148 121 97
232 843 282 105 87 67
282 864 182 55 49 47
362 905 241 73 64 63
232 845 286 138 112 88
232 849 289 166 132 110
237 844 277 99 80 58
230 939 304 50 45 46
237 845 286 134 110 86
224 851 259 128 102 79
227 854 287 158 120 99
226 858 289 137 93 79
242 845 267 82 66 47
271 744 184 47 36 37
324 842 250 62 49 44
254 841 261 87 70 51
439 836 271 81 68 53
252 845 267 81 65 48
252 846 271 97 79 59
257 843 267 106 86 63
257 845 271 114 93 70
215 924 294 180 138 118
325 907 229 65 57 58
242 844 277 102 82 59
247 846 277 107 85 61
242 845 282 114 92 68
242 848 288 145 118 91
246 846 281 113 90 64
248 848 282 118 93 66
397 850 217 90 76 67
247 850 286 135 109 82
249 847 277 109 87 62
357 834 202 69 57 52
252 847 273 107 86 65
257 848 273 116 94 70
252 850 282 116 91 63
251 851 285 125 101 74
248 852 289 145 116 85
375 778 203 59 47 40
256 851 281 114 91 65
257 855 286 131 103 73
262 918 303 51 46 45
283 966 262 62 59 59
237 848 289 158 130 104
247 929 308 42 39 39
466 843 263 102 77 63
349 691 202 78 51 40
231 854 289 162 126 103
228 860 290 140 83 78
234 851 290 168 134 111
267 674 287 89 21 37
237 864 293 157 126 101
373 784 202 62 49 43
372 928 282 96 78 70
242 851 290 158 128 98
278 854 198 45 42 46
242 854 291 160 128 98
242 865 295 151 122 92
247 862 294 153 125 95
252 859 292 148 119 88
252 865 295 154 123 90
254 857 289 142 114 82
258 858 288 138 110 79
257 860 291 144 115 83
257 864 293 147 117 84
364 862 226 55 46 46
227 869 291 148 123 118
231 877 299 128 101 79
229 880 300 138 105 83
232 879 301 139 105 82
236 868 293 122 83 73
339 921 272 77 70 69
239 866 295 146 118 90
237 873 298 122 98 73
292 834 261 153 121 96
331 907 234 67 60 60
226 884 298 144 109 89
415 882 268 86 69 51
228 884 300 162 121 102
236 895 304 188 137 120
234 889 305 192 139 125
235 887 304 182 131 116
234 892 305 194 141 127
357 599 257 108 20 39
238 894 305 194 143 126
246 871 300 145 115 84
308 835 254 152 114 93
241 872 299 138 109 78
248 878 304 152 120 92
256 865 295 152 120 88
252 869 298 156 124 91
287 814 263 177 128 104
257 869 296 154 122 90
253 873 299 160 126 94
252 879 302 155 121 93
255 876 300 156 122 94
242 880 305 159 123 98
247 880 305 157 123 95
252 884 303 155 118 93
256 884 301 155 118 93
253 889 303 159 117 93
257 889 301 156 115 90
257 894 301 156 113 89
242 884 307 174 131 108
242 889 307 186 138 117
247 884 306 165 124 98
352 519 281 144 4 44
247 889 306 175 128 104
399 819 239 58 46 37
242 894 306 190 140 121
250 884 305 159 119 95
207 899 262 150 112 94
207 899 267 135 102 87
208 899 272 132 98 87
310 928 228 75 68 69
204 910 264 152 128 111
204 911 266 150 127 110
206 919 262 184 143 122
205 914 267 127 109 101
406 824 221 70 57 51
206 919 272 184 143 121
381 848 245 58 44 36
208 929 262 171 131 111
207 924 272 178 135 113
379 775 216 67 56 47
207 929 272 181 137 114
206 914 277 129 110 98
272 829 203 90 75 66
207 919 277 184 142 119
208 914 282 148 121 103
208 919 282 188 145 124
207 924 277 184 138 116
208 929 277 187 140 119
287 604 292 41 28 30
209 898 276 141 104 92
211 899 277 138 103 92
302 764 190 80 57 50
341 553 139 183 10 41
211 899 282 150 110 95
209 914 285 166 131 110
331 519 296 153 124 96
209 919 285 187 143 123
407 865 237 82 68 61
208 924 282 186 141 121
211 924 287 183 141 121
209 929 282 188 142 123
209 928 285 184 141 123
214 904 290 173 133 115
216 909 293 144 116 96
221 899 294 137 101 86
224 898 295 142 105 91
222 909 297 94 77 65
412 892 252 85 73 65
213 914 291 174 136 117
216 914 294 167 134 113
342 884 243 44 40 38
213 919 292 183 141 121
215 919 294 183 142 121
396 794 213 77 59 47
216 929 293 184 139 119
218 919 296 185 144 124
377 819 222 62 52 47
386 709 212 60 43 36
221 914 299 132 112 99
223 914 300 137 117 104
221 919 299 186 145 126
231 920 304 186 141 120
223 919 300 189 148 129
218 924 296 183 140 121
218 929 296 184 141 122
223 924 300 187 143 125
221 929 298 183 140 122
224 929 300 188 145 126
208 934 267 155 120 101
272 945 216 90 86 88
342 673 278 56 31 29
208 934 272 184 139 117
390 734 276 169 115 84
431 859 267 53 41 36
208 939 262 88 76 72
209 938 271 141 109 93
210 941 267 86 74 69
211 944 267 67 57 56
210 940 273 130 100 87
210 944 272 68 57 55
324 850 168 85 68 60
317 706 310 164 4 52
210 935 279 191 140 119
267 515 265 74 24 34
210 930 284 188 143 123
210 934 282 191 142 121
212 934 287 188 138 117
209 937 276 185 138 116
314 785 179 46 40 42
360 847 208 54 47 44
212 939 282 168 119 101
213 944 281 78 57 52
215 944 284 69 50 47
215 941 284 139 97 82
373 534 232 124 19 40
272 940 312 65 59 56
210 948 272 50 46 47
209 950 267 58 55 55
209 950 271 51 48 50
214 957 259 76 70 72
210 954 267 66 62 64
213 958 272 90 85 86
217 960 272 86 79 78
292 699 301 54 28 33
340 709 296 93 27 40
457 882 274 91 77 64
222 960 262 66 63 68
213 949 282 46 43 44
394 734 259 129 93 64
216 949 287 49 46 47
214 950 285 51 48 49
211 954 277 56 52 55
213 958 277 64 61 62
217 960 277 66 61 61
213 954 282 55 52 53
214 953 285 55 52 52
384 803 214 77 57 51
216 954 287 52 48 48
302 559 281 150 6 44
214 957 280 53 49 49
217 959 282 61 56 55
322 904 226 68 60 60
222 959 287 69 63 61
214 933 290 188 138 116
216 934 292 188 140 118
215 936 289 188 136 113
387 864 243 67 57 49
297 633 189 117 23 39
222 934 297 180 138 120
218 939 291 158 115 98
219 937 295 169 126 109
253 972 261 51 46 45
220 940 293 116 83 72
223 939 297 109 82 72
221 944 293 54 45 44
218 949 291 49 46 47
222 955 293 57 54 54
223 953 296 56 52 53
220 956 289 60 55 55
223 957 291 68 63 60
229 899 300 121 91 83
232 899 302 126 96 84
225 908 299 121 99 80
231 908 303 114 99 86
237 899 304 142 106 90
236 903 304 84 67 66
328 844 181 79 66 58
233 910 306 144 124 108
389 790 257 136 91 60
239 897 305 182 134 118
400 513 182 57 32 31
237 905 305 111 92 78
227 914 303 123 108 100
227 924 302 185 141 121
229 915 305 151 133 120
232 914 306 123 106 97
237 924 305 176 137 116
252 899 303 156 114 91
252 904 303 152 115 89
372 889 233 70 59 58
257 904 301 150 111 85
394 724 252 96 70 53
293 803 270 189 137 114
252 909 303 154 121 95
380 562 215 172 18 53
242 899 305 168 128 110
240 902 304 118 87 72
242 909 307 154 127 106
250 898 305 165 121 99
252 914 303 155 122 98
257 914 302 131 103 79
272 524 268 57 26 31
252 919 304 117 92 75
257 919 303 75 63 56
297 674 291 55 28 31
242 919 307 179 141 119
247 919 305 158 125 102
306 816 269 167 119 100
242 924 306 155 123 102
242 929 306 60 47 45
247 924 306 110 87 72
250 921 305 120 97 79
251 928 308 39 37 37
255 927 309 34 33 35
252 930 311 39 38 39
227 934 301 142 107 94
231 934 304 93 71 64
397 834 226 83 67 56
472 821 256 104 83 61
227 939 301 64 53 51
225 943 299 51 46 47
233 939 306 46 43 45
230 944 304 53 50 51
233 944 306 51 49 50
397 900 247 83 69 64
233 935 305 56 49 48
239 939 310 45 43 44
227 949 301 58 55 56
226 950 299 57 54 55
227 958 292 67 61 59
231 955 298 68 63 61
229 952 300 64 59 59
317 833 256 113 89 74
294 611 175 156 31 45
232 953 301 64 59 58
237 960 293 61 56 55
272 955 221 95 91 95
338 759 289 43 37 37
233 948 305 59 55 55
246 932 309 43 42 43
406 825 218 73 59 52
240 937 309 39 38 40
328 559 296 172 122 98
248 931 310 41 41 43
257 934 316 53 49 48
252 939 314 66 61 61
370 775 295 173 123 89
254 938 315 62 57 55
257 938 316 69 64 62
247 958 302 63 57 55
257 959 303 73 66 63
277 664 191 122 7 28
241 945 309 58 53 52
247 949 308 73 67 65
242 952 305 70 64 62
256 947 310 81 76 76
321 600 284 155 16 48
257 949 307 79 73 73
221 961 267 79 75 76
221 961 272 70 64 64
267 745 284 70 59 53
222 961 277 54 49 48
338 639 282 110 54 46
227 963 262 69 63 69
232 964 262 71 63 67
354 686 204 77 54 41
262 792 270 101 74 63
227 962 272 65 59 57
232 964 267 68 63 61
232 964 272 72 66 63
238 967 262 71 66 66
345 655 288 147 96 80
236 966 267 67 62 60
236 966 272 65 59 55
267 585 152 221 14 48
238 967 267 68 62 59
322 724 308 133 16 47
341 719 296 56 27 35
239 967 272 62 56 53
227 962 277 62 57 55
347 604 197 95 33 42
225 961 278 51 46 45
232 964 277 67 60 58
317 882 172 60 53 50
227 961 283 54 50 48
228 962 281 60 55 54
232 963 282 72 67 64
272 719 291 81 26 37
375 917 305 61 53 47
233 963 287 68 64 64
237 965 287 59 55 55
356 864 218 69 58 55
237 965 282 60 55 54
285 826 200 58 53 54
387 899 303 69 55 46
242 968 267 65 59 56
247 970 262 65 59 57
281 864 271 143 112 85
247 969 267 67 63 62
304 866 182 61 48 47
257 971 264 73 70 72
257 970 267 67 64 64
242 966 278 66 63 64
242 967 276 68 65 66
247 967 276 73 70 71
242 966 282 66 64 65
242 965 287 64 61 61
247 965 287 61 57 58
252 966 278 72 68 69
297 544 276 146 13 44
257 967 277 66 62 61
256 966 279 75 71 71
262 889 297 150 112 87
262 745 284 75 62 55
377 907 248 81 71 69
252 966 282 69 66 66
377 734 162 80 59 42
252 964 287 64 60 60
257 966 282 69 64 64
367 739 167 73 55 41
363 534 147 53 32 35
247 964 292 65 60 59
244 962 295 67 63 62
262 950 303 73 68 67
248 963 296 67 62 60
252 963 292 55 52 51
252 963 297 62 56 54
257 963 292 59 55 54
252 962 300 68 61 58
257 962 300 66 60 57
274 512 94 67 22 32
280 516 95 108 7 33
283 517 94 200 22 51
287 515 91 209 13 43
287 518 93 205 13 38
361 799 198 66 54 50
425 882 249 110 87 82
259 518 104 118 28 40
263 512 99 139 28 44
261 521 105 69 32 38
263 528 108 122 13 38
261 530 111 173 5 44
267 513 98 150 16 40
267 519 102 135 15 36
328 519 298 156 128 99
376 796 221 67 48 45
272 519 101 178 12 43
272 524 103 137 15 41
380 748 193 65 51 42
267 529 107 130 18 42
272 526 105 104 24 27
382 819 248 57 40 34
263 533 113 177 8 42
265 531 110 176 2 32
268 532 109 163 6 35
258 534 118 179 9 48
262 539 117 175 9 42
282 548 118 214 13 41
263 544 119 166 8 38
277 859 271 141 111 82
267 538 114 179 6 41
272 544 116 205 13 43
277 518 98 102 25 37
278 882 278 136 106 81
276 520 100 183 17 47
275 526 105 67 32 19
278 527 104 153 9 41
276 761 279 74 60 54
292 513 291 179 123 101
368 584 252 166 19 50
277 553 279 90 20 37
287 526 100 210 13 45
287 529 103 201 11 46
307 580 146 210 14 47
277 535 110 193 10 37
277 539 113 191 9 40
282 530 106 161 14 42
281 536 110 192 11 49
287 534 107 160 14 41
282 539 112 193 11 40
284 537 109 140 16 24
287 539 111 149 13 37
312 913 267 32 31 33
273 542 114 193 10 43
277 545 116 206 12 41
307 792 280 75 62 56
362 654 251 72 56 46
282 542 114 201 11 39
282 545 116 206 12 41
264 548 119 189 12 36
262 549 121 126 19 39
362 903 267 61 54 49
262 556 125 198 20 48
262 559 128 157 18 43
272 548 118 203 12 44
347 925 301 75 57 43
267 550 120 154 21 47
396 839 241 83 70 62
272 550 120 150 17 46
267 556 125 167 19 44
267 559 127 140 26 42
272 554 123 114 32 42
277 548 118 217 16 43
282 554 123 182 14 42
287 554 123 211 12 44
287 556 125 187 9 39
287 559 127 194 19 47
297 515 91 159 8 38
297 518 93 167 11 40
301 512 89 150 12 33
302 514 91 51 33 39
405 747 214 71 54 46
302 521 95 215 13 38
307 514 92 82 33 40
307 520 96 109 24 36
312 514 93 73 35 39
311 517 94 51 34 41
312 519 96 46 37 39
314 516 95 56 42 32
423 885 257 96 80 75
317 519 98 50 35 39
292 524 98 181 9 37
258 905 183 79 69 67
291 526 100 180 5 42
297 527 99 133 13 37
302 524 98 210 13 42
302 526 100 206 13 48
409 754 230 78 60 42
290 531 105 208 13 53
381 538 163 135 20 38
297 534 106 90 25 37
292 538 109 161 27 55
292 540 111 85 24 33
297 544 113 131 21 40
409 889 257 56 45 38
302 534 106 117 27 41
302 538 108 137 25 41
302 540 111 60 30 36
292 543 113 207 14 43
307 529 103 184 11 42
381 769 217 53 43 39
312 523 99 61 33 41
317 524 102 68 26 38
277 844 203 61 50 48
316 528 104 112 16 34
317 529 106 191 11 40
387 749 282 173 118 87
307 534 107 91 29 40
313 531 105 160 6 39
307 540 111 132 21 40
310 537 109 99 17 44
317 533 108 189 9 41
318 535 111 190 9 37
314 536 110 150 3 40
317 539 113 193 11 41
439 836 269 83 69 54
307 543 113 65 34 38
312 543 114 110 16 41
267 942 311 68 61 59
346 902 239 74 62 60
312 545 116 74 27 34
292 549 117 183 10 46
467 883 274 94 79 68
383 544 213 44 27 31
406 749 217 81 62 50
296 546 115 167 15 44
297 549 117 167 14 42
302 614 291 140 23 47
290 551 120 219 15 46
294 552 119 221 15 36
297 552 119 199 13 41
292 559 127 103 21 38
297 559 126 84 30 37
424 869 252 88 80 73
303 546 115 96 40 40
385 830 209 65 53 45
302 552 119 83 32 33
298 557 124 138 29 46
302 554 121 124 28 45
302 557 124 134 29 46
366 842 209 53 47 44
367 599 232 91 31 41
307 546 115 60 35 36
307 549 118 85 31 37
332 924 257 71 65 65
308 551 120 125 45 59
313 551 120 120 35 45
306 557 124 92 19 33
308 556 125 163 25 61
313 556 125 148 23 44
332 539 123 171 8 38
317 550 121 166 17 44
317 555 126 85 32 41
374 638 284 157 110 80
317 558 128 153 26 45
321 514 98 45 37 40
310 768 190 69 54 48
377 524 273 151 24 51
323 515 101 57 32 36
326 514 103 67 34 39
321 523 103 173 8 36
322 525 106 183 11 41
317 794 177 57 48 45
321 528 108 187 11 35
329 515 105 64 28 32
331 514 108 95 26 38
334 515 111 84 17 35
349 691 290 141 89 73
277 769 277 76 61 56
336 514 113 97 22 35
336 519 117 163 6 34
427 878 241 90 72 57
334 520 116 163 7 37
329 530 115 171 9 36
334 525 120 163 7 40
326 533 114 186 11 46
347 699 197 70 48 34
324 536 115 190 11 40
321 537 114 193 11 40
322 539 117 188 10 40
321 543 118 186 9 38
326 538 118 180 10 40
323 545 121 186 10 41
331 533 119 170 8 33
336 533 123 165 6 36
330 543 124 177 9 40
380 539 249 129 26 47
332 544 127 176 9 39
337 539 127 146 10 38
397 704 183 67 50 39
334 540 125 169 8 34
272 593 158 196 22 50
338 520 121 160 4 33
424 859 241 73 58 52
343 514 122 157 1 32
341 519 123 158 1 37
342 644 212 127 15 34
340 524 124 154 0 31
345 514 124 158 0 35
374 785 210 54 47 44
347 514 127 158 0 35
332 564 298 175 127 101
339 530 125 163 2 38
342 534 128 158 2 33
324 551 125 183 7 38
402 729 227 72 55 40
327 549 126 186 10 40
321 552 124 83 24 29
273 623 290 41 28 33
322 554 127 85 29 37
329 546 125 179 10 41
262 574 142 156 25 47
315 544 282 125 65 54
359 695 205 60 47 39
342 649 287 146 92 76
267 564 132 53 35 40
267 569 137 81 34 40
354 917 278 53 43 40
272 564 132 117 30 44
272 569 137 101 31 41
280 862 191 46 44 47
267 574 142 110 29 42
350 788 174 86 63 44
338 921 282 84 72 67
272 574 141 97 31 41
277 561 130 132 16 38
276 567 134 140 25 45
333 698 299 131 11 42
277 569 137 127 30 46
277 574 142 152 27 47
