ply
format ascii 1.0
comment Created by Open3D
element vertex 2211
property double x
property double y
property double z
property uchar red
property uchar green
property uchar blue
end_header
223 746 244 124 94 66
256 118 238 154 115 80
249 105 246 126 88 69
253 17 271 97 36 42
322 323 228 113 91 67
269 288 333 126 94 69
243 98 232 122 16 43
270 53 279 112 62 55
233 477 289 129 8 38
265 563 301 125 15 40
375 438 147 113 22 37
224 693 272 90 28 40
354 637 234 49 28 32
332 213 213 125 98 67
245 964 282 74 67 67
257 287 294 136 95 72
242 483 192 151 1 40
233 473 225 46 31 36
434 420 231 87 30 35
244 103 227 125 15 43
446 870 327 77 61 56
345 44 217 119 102 85
250 133 272 110 90 69
233 432 251 122 1 31
244 103 232 120 13 39
399 473 208 97 27 33
252 236 269 140 101 63
237 404 282 79 23 35
230 433 262 120 1 33
180 658 182 132 97 53
426 916 242 88 74 66
332 132 245 116 90 66
264 11 288 93 50 49
424 720 354 153 100 81
240 413 191 131 8 28
430 468 283 103 24 40
260 63 213 112 31 29
244 98 237 107 60 53
345 323 276 106 76 53
245 513 192 60 36 37
359 338 271 121 91 61
289 43 258 123 45 44
237 726 315 187 14 65
350 898 357 60 49 42
244 103 237 122 26 43
246 108 227 136 22 44
222 530 256 144 1 40
366 193 237 116 93 69
367 333 220 115 93 67
303 284 321 121 96 66
251 499 299 165 15 51
246 106 236 132 49 55
251 133 276 107 89 70
314 428 197 108 23 25
312 675 224 94 27 39
212 695 190 144 97 59
256 971 287 73 68 69
246 394 262 60 52 45
368 724 214 68 50 44
205 648 187 122 91 56
238 648 283 34 29 33
234 718 207 100 68 47
250 110 228 138 60 62
405 483 290 102 0 31
290 9 277 105 57 35
306 964 282 71 66 68
192 714 225 162 116 93
244 98 252 122 37 49
202 753 203 151 102 67
285 452 200 83 30 31
300 612 322 37 27 29
243 233 287 126 98 68
378 365 224 105 88 69
263 331 285 99 83 67
231 443 247 110 15 32
325 558 306 73 17 29
325 438 157 41 31 32
333 148 215 119 93 62
251 111 226 149 79 81
393 433 214 41 40 42
338 92 250 110 21 42
315 703 333 115 10 37
353 118 232 116 94 71
330 523 297 101 6 31
382 718 227 67 49 46
187 698 198 180 116 88
222 493 261 56 27 32
239 433 222 137 0 36
223 483 246 102 28 39
335 422 152 84 69 56
365 888 346 45 37 32
241 478 197 143 2 37
235 683 297 60 27 34
345 208 256 104 84 62
317 407 242 79 68 56
252 111 224 154 110 117
246 653 247 106 18 36
277 63 237 104 33 36
356 443 357 68 23 30
441 916 223 111 91 71
373 632 248 166 34 54
438 883 317 91 74 63
254 111 224 164 34 52
265 168 252 137 103 65
355 563 188 193 9 42
254 110 228 142 85 72
373 288 245 126 97 62
237 728 206 100 70 48
273 114 275 116 92 64
15 683 208 158 106 98
383 501 300 157 12 48
305 703 186 63 46 38
280 913 213 90 79 80
431 880 319 97 75 51
257 119 275 105 88 72
386 563 307 65 28 37
319 68 222 129 22 44
251 428 316 57 27 31
254 428 318 47 26 29
358 468 322 140 2 43
240 766 200 103 70 36
409 729 431 143 115 86
396 493 342 102 25 39
290 10 269 106 68 45
325 218 227 112 90 65
246 98 261 111 24 44
300 403 222 92 78 64
381 778 311 162 115 91
285 470 189 64 36 35
273 35 249 71 36 21
350 208 257 111 90 67
385 913 257 62 52 44
255 398 217 97 79 67
250 933 337 70 55 53
339 228 253 97 78 55
443 685 366 148 109 80
251 107 237 140 94 75
226 463 272 95 21 37
344 472 143 132 30 43
225 788 202 166 108 74
250 508 298 34 27 29
280 433 321 72 29 36
404 557 285 41 27 29
404 813 277 150 100 73
322 77 212 124 49 51
248 105 238 133 85 71
223 743 284 150 9 46
266 634 316 39 27 30
260 143 245 141 104 69
229 448 247 87 29 35
249 253 308 123 95 66
286 836 223 64 54 52
256 111 233 147 98 78
245 98 242 117 66 60
385 808 305 170 121 94
264 254 270 144 100 69
274 566 304 141 14 41
252 418 195 98 19 30
340 363 213 94 81 68
281 841 294 151 119 93
324 433 162 59 33 32
392 510 345 164 17 42
250 258 282 149 103 74
286 898 201 85 75 76
233 658 267 84 25 36
337 211 209 129 101 66
339 606 340 190 6 60
237 444 224 133 0 33
478 878 156 96 81 67
307 292 313 119 96 70
249 253 282 148 103 73
300 588 201 66 33 38
149 641 190 100 88 76
405 884 337 71 55 55
251 108 242 124 89 69
368 495 329 69 42 45
315 688 326 105 17 36
300 893 221 71 66 68
366 793 453 177 121 105
369 238 213 125 97 63
223 548 277 113 20 39
413 704 352 158 104 87
345 923 292 70 63 63
377 420 297 60 33 28
252 414 320 109 18 42
310 308 302 119 92 65
371 629 242 107 30 42
244 98 247 118 54 54
343 267 259 88 70 48
245 498 187 81 29 35
252 416 320 105 20 36
222 508 257 143 7 41
3 673 202 131 97 80
385 427 317 80 18 29
290 402 232 98 85 72
326 213 237 103 83 59
430 681 335 105 86 64
368 355 270 116 92 62
245 103 242 130 30 48
270 399 222 104 89 73
358 380 209 90 79 67
365 208 212 117 95 68
329 238 242 103 82 59
292 454 304 45 22 25
298 432 205 111 22 23
369 208 217 115 93 68
254 33 277 113 62 59
254 628 303 37 27 28
265 154 290 107 88 69
245 98 257 117 22 44
229 478 282 134 8 41
327 802 210 58 49 49
411 498 221 143 9 35
271 712 186 82 52 40
248 419 314 67 26 32
194 683 219 143 107 85
331 112 207 145 57 61
330 680 217 74 46 34
446 428 267 78 29 37
290 418 318 142 100 79
246 103 257 122 87 69
406 423 327 114 14 37
247 43 261 97 33 37
410 423 226 119 18 27
358 513 317 63 27 32
332 278 218 133 105 71
242 395 290 123 98 71
442 862 344 68 52 38
335 113 249 121 94 69
267 98 232 90 51 34
371 323 253 128 99 67
223 722 267 41 31 36
238 960 276 78 73 73
330 698 333 102 13 33
226 513 227 144 8 36
332 288 219 128 101 72
247 107 256 126 101 73
434 889 350 88 70 57
375 508 172 156 3 35
280 707 189 70 44 38
249 128 252 117 94 69
345 168 252 113 90 65
329 248 243 101 81 58
249 105 242 130 90 73
309 503 176 59 33 33
403 513 208 133 3 34
237 408 282 59 28 35
329 41 221 111 91 70
345 462 139 116 26 41
293 956 345 79 72 69
253 16 278 86 56 54
227 883 322 150 113 94
308 398 297 114 83 61
238 413 292 129 9 38
303 298 332 108 83 54
345 238 206 131 100 62
388 476 291 137 6 42
367 449 150 148 9 37
370 743 211 60 48 40
344 103 246 121 98 72
251 128 247 123 98 70
290 400 234 99 84 70
237 910 263 65 59 58
404 812 266 85 62 52
15 658 188 129 97 77
202 783 208 169 113 77
250 153 282 112 91 70
231 478 227 70 30 33
303 342 335 139 96 76
250 108 247 120 85 65
353 88 217 119 42 49
15 687 189 174 118 103
354 914 285 61 55 54
328 120 232 119 86 65
367 362 215 104 88 71
397 890 334 65 53 49
251 113 247 114 87 60
269 93 232 121 51 44
440 453 272 107 22 38
305 563 309 46 27 29
275 383 333 160 114 88
360 183 212 119 94 64
371 428 141 137 27 37
335 826 285 54 43 41
319 684 184 63 42 38
105 663 194 158 107 74
249 413 193 115 7 26
362 178 216 110 90 69
290 388 328 151 103 82
261 403 326 153 113 89
321 388 247 70 60 51
346 577 360 39 28 30
253 239 270 141 100 65
265 523 298 110 15 38
285 548 301 82 17 32
251 118 247 113 89 61
317 412 273 57 48 39
332 197 214 118 95 67
237 403 221 85 30 39
320 363 262 74 64 55
242 395 287 118 96 70
288 282 284 127 91 60
248 109 251 124 93 70
223 722 284 162 4 45
235 468 292 56 23 30
249 804 274 74 61 56
325 68 192 121 24 34
338 421 292 78 59 44
249 113 252 120 94 67
438 492 227 167 16 47
323 73 195 135 12 42
388 518 339 145 14 40
387 833 256 86 65 55
306 858 288 141 107 86
352 28 252 117 69 58
346 378 209 88 78 69
448 419 267 112 23 38
383 483 319 49 29 35
223 717 276 49 30 34
264 960 255 94 89 92
330 733 194 76 58 49
248 108 258 121 98 73
383 566 325 62 26 31
238 433 202 156 1 43
358 180 250 120 97 72
241 673 301 79 27 35
245 397 237 75 47 41
253 118 242 130 100 68
237 918 330 178 139 122
245 458 307 122 18 41
351 345 214 97 83 69
365 783 309 179 127 101
277 289 340 125 94 68
222 475 256 96 35 47
310 538 298 46 25 28
265 193 255 132 101 63
230 758 196 143 98 64
359 272 209 136 102 63
407 754 432 200 137 110
198 718 229 150 112 89
375 558 197 85 33 39
254 233 313 113 92 70
325 428 162 46 35 34
252 120 244 119 95 65
270 628 228 143 2 33
385 903 252 70 56 51
380 917 297 59 49 42
232 412 203 159 0 41
322 378 227 76 68 59
329 797 209 61 51 51
238 426 235 124 7 40
372 263 248 127 98 63
240 578 222 153 5 37
326 298 247 91 73 52
283 466 305 45 21 28
252 123 271 109 90 71
245 438 187 111 20 31
403 901 305 73 66 63
335 98 197 124 48 53
247 781 285 79 63 58
249 118 252 116 92 64
290 23 261 106 18 22
345 463 302 115 5 36
252 233 310 116 94 70
301 383 323 144 102 85
370 313 252 126 97 65
280 483 184 86 26 29
252 32 276 121 29 46
250 423 192 81 28 33
348 304 215 113 91 66
344 668 316 123 7 38
365 388 209 100 84 65
325 198 227 113 91 66
280 438 318 103 27 42
322 59 203 71 30 24
375 817 477 181 134 114
345 483 301 112 12 37
505 840 336 102 84 64
305 713 186 62 48 40
306 18 292 134 81 72
365 808 491 185 131 120
350 23 267 125 22 45
377 821 300 163 117 90
249 188 261 131 101 64
489 936 208 87 75 65
251 123 247 119 95 68
336 388 280 91 65 46
385 753 437 132 106 84
287 420 319 147 103 82
288 217 269 122 93 60
354 191 210 125 98 63
253 28 278 116 85 74
327 293 251 87 70 50
320 478 172 39 30 33
230 603 252 88 27 40
255 123 242 138 105 71
165 671 205 192 134 110
350 433 127 165 11 36
385 768 228 71 57 49
231 938 262 65 60 60
252 122 244 125 99 70
435 483 221 143 14 35
280 464 193 43 39 37
246 198 287 112 91 67
353 48 236 126 19 42
405 413 257 71 62 54
255 128 243 140 105 69
326 298 222 118 96 72
382 555 200 48 35 40
322 424 295 79 34 31
284 463 306 56 24 29
304 512 306 112 5 34
249 123 257 119 95 69
459 915 217 104 85 68
243 208 277 122 96 66
383 622 277 188 14 56
268 313 285 106 85 62
255 443 318 89 23 36
327 68 189 109 35 24
249 128 257 119 96 71
268 440 204 59 39 36
130 643 212 131 107 85
238 513 206 44 34 37
383 433 182 113 14 37
327 895 315 32 31 32
231 473 286 141 10 43
331 198 245 96 78 59
290 512 294 33 25 27
253 126 274 107 89 71
271 919 216 87 76 75
239 418 191 130 2 30
254 133 246 133 103 68
376 733 294 44 25 24
480 840 324 85 62 39
350 123 217 106 87 67
237 408 286 108 20 38
224 478 267 83 29 37
247 40 258 106 30 44
311 657 225 42 34 34
280 328 343 141 100 76
310 338 307 114 87 60
352 23 252 109 36 42
254 153 250 133 102 64
346 668 314 120 10 38
315 618 337 35 30 32
222 508 242 117 12 37
252 133 248 126 101 72
230 533 222 62 33 38
375 452 368 65 20 26
160 644 212 122 99 78
255 17 267 97 51 50
248 589 220 162 2 38
257 442 196 47 37 37
247 395 259 73 63 54
294 31 285 143 39 61
295 333 343 146 96 74
250 133 252 121 98 73
224 693 267 96 27 41
340 908 358 56 48 44
243 213 282 121 96 68
406 808 277 155 102 75
194 693 191 168 108 74
275 803 288 182 135 114
288 295 284 106 81 52
223 488 263 124 20 41
234 423 277 53 28 34
241 399 242 79 30 36
24 673 185 137 99 74
372 222 220 117 94 68
265 818 217 72 58 52
305 933 243 72 65 68
270 148 252 123 93 55
315 548 173 157 25 45
345 853 223 56 49 49
305 458 191 110 15 23
290 379 243 96 82 68
448 430 225 61 35 36
239 453 202 148 2 41
392 921 297 70 61 55
247 183 282 114 92 68
255 138 246 135 101 64
367 629 299 185 3 58
289 42 280 115 57 55
335 338 216 101 84 65
283 34 254 87 45 35
237 453 223 128 4 36
383 426 342 65 13 23
331 363 218 97 82 68
330 587 342 84 3 29
11 673 189 126 94 75
293 303 284 103 82 55
327 253 223 133 104 70
252 188 296 114 93 71
432 434 234 163 15 50
255 143 247 137 102 64
295 14 309 129 38 52
252 138 249 128 100 67
249 143 257 119 96 72
299 697 178 86 62 48
219 752 247 105 81 52
180 663 181 153 106 66
249 178 287 115 93 69
392 411 242 72 64 56
227 454 271 56 27 31
455 903 210 92 75 58
323 324 238 94 77 58
235 413 262 82 22 36
385 733 252 78 59 47
226 598 257 149 4 40
249 148 257 119 96 72
292 903 210 87 79 82
387 478 379 126 20 41
239 458 202 125 12 39
335 323 216 112 91 68
322 382 224 80 71 61
255 148 248 139 105 68
249 163 256 125 98 64
290 563 182 171 23 48
410 508 290 101 16 36
373 223 232 118 95 70
255 198 258 133 101 62
357 962 365 84 67 51
249 373 287 119 95 69
288 961 336 68 62 60
220 748 242 117 87 60
355 633 232 67 33 38
394 753 328 182 129 108
252 163 254 129 99 61
314 68 237 107 26 34
227 905 310 87 73 64
320 368 257 73 63 52
237 742 200 118 80 50
350 173 210 125 98 63
7 669 193 140 101 87
236 473 217 108 19 34
149 661 190 171 112 78
417 501 225 127 6 28
265 193 306 108 90 71
255 163 252 136 103 64
254 93 269 104 34 42
320 373 262 71 63 54
271 690 202 82 51 44
401 463 347 81 26 36
248 203 294 113 91 66
390 523 342 148 14 40
321 478 310 105 5 32
150 672 192 221 144 114
390 493 192 76 27 34
382 453 162 86 30 35
373 415 204 93 70 54
412 690 364 147 107 85
479 738 265 100 71 52
201 798 237 177 130 104
346 138 249 119 95 67
234 408 197 135 6 32
413 687 372 127 100 74
407 800 267 69 51 42
299 368 331 147 101 82
265 163 251 136 102 64
324 48 217 99 74 57
237 404 285 141 15 45
330 778 313 81 65 60
265 10 282 90 46 47
170 675 197 204 138 110
255 168 252 138 104 64
281 793 192 63 50 43
445 438 212 60 33 38
320 618 337 60 31 37
250 173 257 130 100 63
355 418 167 89 74 59
275 39 248 80 38 24
233 563 288 45 25 29
255 183 256 137 103 63
323 93 220 133 62 53
253 207 304 113 93 72
330 573 188 186 9 40
372 358 220 108 90 71
228 453 277 85 29 37
256 181 254 140 104 65
373 906 345 68 58 52
340 368 212 93 80 67
295 583 197 169 11 40
347 117 215 103 84 63
326 243 232 113 89 62
270 898 207 91 80 78
355 323 273 124 86 62
403 460 219 46 39 38
247 51 260 105 22 38
255 14 272 91 43 44
360 193 211 124 98 65
278 175 295 108 87 64
336 849 217 60 53 53
363 308 260 126 91 60
327 453 172 88 16 31
420 733 271 94 71 49
401 428 285 82 17 34
426 748 307 168 110 80
335 15 243 95 79 63
265 263 327 117 93 67
357 483 316 139 1 42
252 63 265 100 24 37
247 195 290 113 91 68
195 688 189 171 108 75
103 665 195 161 108 73
221 697 224 94 72 56
329 148 232 106 84 59
283 173 267 110 88 62
256 14 286 83 33 35
331 334 219 110 89 66
244 218 287 117 93 67
391 433 212 71 32 36
355 883 252 63 54 52
251 24 262 86 49 36
351 68 227 119 64 60
351 48 222 85 50 38
283 180 290 109 86 60
295 783 183 68 53 43
260 153 248 139 105 67
362 667 250 106 17 32
397 720 327 145 104 90
243 223 287 118 94 68
331 108 202 135 14 41
268 546 305 163 15 51
427 468 239 152 15 43
277 56 240 97 48 27
323 388 222 80 71 62
344 601 209 179 19 43
270 398 237 105 90 73
429 727 382 208 136 108
328 296 254 87 70 51
341 312 214 108 88 67
241 548 208 87 30 38
255 18 262 98 71 62
245 203 267 131 102 67
277 94 245 127 28 41
317 479 305 126 8 39
285 618 221 92 20 35
359 298 266 127 94 63
253 22 261 94 73 61
271 772 300 76 63 57
336 40 219 118 87 58
531 951 271 95 82 70
237 405 242 81 39 45
290 518 307 120 12 39
327 425 158 67 35 44
369 369 275 120 94 63
234 448 292 56 26 30
370 884 317 58 53 52
244 508 192 48 34 37
328 178 238 100 81 59
280 683 322 50 25 31
300 848 185 76 59 49
231 463 232 63 33 36
345 894 312 35 33 33
368 190 223 118 97 73
252 19 272 102 24 40
252 20 264 98 41 42
236 408 252 74 27 36
237 429 233 124 3 31
266 757 186 72 57 50
241 423 189 126 11 29
65 673 217 180 136 122
335 523 298 89 17 32
355 358 213 95 83 70
310 698 185 64 48 38
275 708 187 81 55 40
240 508 298 147 20 49
252 29 258 80 59 45
316 31 270 128 58 64
255 548 196 149 13 42
308 379 256 115 92 66
505 918 274 94 81 69
118 671 204 210 140 116
325 728 337 167 16 55
357 176 249 120 97 71
193 655 179 133 94 57
343 512 164 163 18 42
247 418 190 117 5 26
396 723 327 150 109 93
331 118 246 124 95 72
369 373 214 104 87 68
95 668 197 171 115 86
250 28 267 89 47 41
245 253 297 133 101 71
287 841 229 64 54 51
250 393 262 113 95 79
373 693 282 59 29 33
322 77 202 139 3 43
284 73 253 134 32 47
405 728 432 135 111 86
274 769 183 79 61 51
250 33 272 106 50 51
197 763 227 165 121 90
327 278 242 102 82 59
350 193 255 112 91 68
354 68 212 114 43 48
315 13 257 121 56 40
249 138 267 113 91 67
255 968 272 85 80 80
320 41 265 120 73 62
421 728 271 97 71 50
294 233 282 119 93 63
252 23 277 100 25 36
270 11 297 106 71 60
252 257 279 149 102 72
243 504 195 44 30 32
376 288 237 125 97 63
384 801 495 186 129 118
370 444 361 55 22 25
253 18 282 98 29 40
265 838 282 144 111 87
380 909 327 57 49 46
255 18 287 95 39 43
243 533 201 159 8 40
384 558 291 55 28 33
352 89 212 98 52 44
383 722 232 79 51 39
403 498 209 129 5 31
402 744 250 72 57 48
308 358 325 128 92 69
105 650 215 154 122 104
252 22 280 104 27 37
235 418 197 154 0 42
207 755 240 148 109 84
340 408 283 107 77 62
378 446 154 141 19 45
245 203 287 114 92 68
394 752 250 73 58 48
351 93 207 132 30 47
247 163 259 122 97 68
405 733 342 181 127 104
280 858 312 128 98 70
287 188 272 111 90 65
374 323 228 112 90 64
428 493 281 126 20 45
330 428 137 88 45 36
247 39 261 106 26 42
329 228 243 101 81 59
256 283 292 139 97 72
260 847 302 100 79 55
236 443 227 127 2 34
330 909 352 38 33 34
280 971 305 65 59 57
248 43 263 113 27 42
9 691 193 193 133 119
381 483 316 41 25 30
242 498 193 37 29 30
227 699 253 82 30 41
346 569 317 100 7 30
290 963 257 85 81 84
401 778 472 168 120 94
241 443 302 79 27 36
311 378 277 95 75 54
275 168 293 108 88 66
249 48 262 122 18 44
290 749 190 55 45 37
231 608 252 42 32 36
387 739 306 121 86 72
408 697 372 146 105 84
407 777 255 71 56 45
377 338 247 131 103 70
247 228 301 115 92 67
382 443 302 126 6 40
231 438 252 119 2 32
324 406 201 89 75 62
320 908 337 36 33 35
255 223 311 112 92 72
365 703 302 93 14 30
20 663 186 128 98 72
248 77 259 98 72 57
257 446 195 38 42 45
334 852 218 64 58 56
257 961 335 67 62 60
246 258 297 136 101 72
236 943 326 58 49 47
251 48 267 119 49 57
252 53 266 114 50 57
90 663 216 172 130 113
255 48 272 124 24 46
247 497 184 117 31 46
275 293 283 119 88 60
340 198 253 101 81 58
353 460 348 152 9 47
342 508 300 52 22 25
197 781 230 176 130 98
270 188 255 126 97 61
264 423 208 87 25 28
232 406 199 144 0 41
243 648 250 87 22 34
442 448 272 152 15 44
250 588 299 49 29 33
254 368 322 135 103 76
275 338 272 94 82 69
329 293 221 122 98 72
325 548 302 34 25 27
232 612 254 49 30 35
392 794 487 187 127 114
347 108 244 119 96 72
253 35 274 114 19 38
370 832 287 124 85 66
423 473 246 148 12 43
254 38 274 124 18 46
395 888 358 91 70 52
256 38 276 127 21 46
354 483 308 74 27 36
292 849 188 70 59 53
274 430 209 45 34 37
350 98 207 132 28 46
247 421 190 121 0 26
325 937 331 76 65 67
398 452 324 67 26 33
397 574 225 165 15 39
292 965 260 84 80 84
249 208 297 111 89 65
399 433 317 134 12 42
256 42 275 123 31 48
398 572 224 162 15 40
237 432 201 147 5 43
232 453 287 111 18 37
438 444 230 96 31 42
368 323 256 127 97 66
249 53 262 113 21 41
281 284 340 111 87 63
344 112 202 153 56 64
254 53 268 117 71 66
294 844 226 49 46 48
320 883 227 58 53 54
340 27 231 103 88 72
251 208 302 112 91 68
248 58 258 113 38 49
466 893 178 101 84 67
298 250 305 119 95 68
333 163 243 100 80 57
222 518 252 146 0 39
283 174 264 115 90 61
243 463 303 138 15 44
435 478 220 115 14 32
250 63 262 101 20 38
229 774 278 49 39 42
242 224 279 124 97 67
256 58 271 107 34 43
301 401 241 92 78 62
224 463 252 120 10 36
281 198 261 129 97 58
439 754 270 95 71 51
250 397 242 94 74 65
192 712 199 181 118 87
275 93 273 109 45 47
236 478 217 118 13 31
384 583 292 106 29 44
247 253 306 123 96 66
254 63 268 101 36 44
379 353 247 126 100 70
383 425 172 77 36 36
392 890 346 84 71 66
321 398 252 69 59 50
255 459 314 59 28 32
288 856 208 35 31 31
425 473 225 110 17 31
305 679 192 83 40 33
368 314 255 124 96 61
340 933 358 74 65 59
238 503 206 47 31 36
424 732 402 188 126 98
291 208 277 114 92 67
244 208 282 119 95 68
392 599 257 39 31 37
383 404 275 115 92 65
392 444 315 121 3 33
300 574 190 190 9 42
273 620 225 154 0 36
251 68 262 100 49 48
251 73 262 106 67 59
220 693 223 92 69 55
362 688 246 59 36 38
235 403 197 145 21 25
328 187 220 118 95 67
246 233 302 115 92 66
307 783 196 52 47 49
46 679 195 169 109 89
293 686 181 81 60 50
248 377 285 119 96 69
222 723 277 65 29 36
252 68 265 105 29 38
435 787 262 77 57 45
330 358 272 65 50 33
417 510 244 96 20 39
150 638 207 108 90 73
255 73 268 109 41 48
469 895 203 106 90 73
240 538 298 176 17 58
322 393 267 63 53 43
253 222 309 113 93 72
366 793 457 174 126 110
356 143 242 115 93 69
224 548 262 153 0 45
335 548 304 58 22 30
234 418 272 84 20 34
290 354 263 97 82 66
396 573 284 150 19 50
250 78 262 101 50 48
326 15 244 90 77 62
375 429 351 68 12 23
370 814 472 194 127 123
276 88 241 125 24 36
241 742 306 93 33 44
247 83 260 95 37 38
326 188 222 115 92 67
291 893 318 125 94 70
325 808 298 50 42 42
243 554 210 127 37 54
260 459 314 93 26 38
335 173 213 126 98 62
378 778 463 130 97 83
380 493 381 153 16 49
251 378 317 134 101 74
247 88 261 99 44 43
377 430 320 58 25 23
359 268 260 120 93 59
247 93 261 107 14 37
238 428 298 98 22 37
345 58 247 108 36 42
250 83 262 94 45 42
114 642 207 103 88 74
325 848 182 64 60 62
339 153 249 105 80 58
344 53 251 119 18 44
356 808 483 144 86 82
290 303 348 123 93 67
331 458 138 141 8 35
251 88 266 103 87 69
242 433 305 71 29 35
255 88 268 96 52 45
295 518 175 111 12 31
305 708 332 42 29 31
400 885 309 91 74 61
426 468 223 85 20 29
214 758 262 173 130 101
248 93 264 104 42 44
380 843 273 48 40 37
433 444 215 87 25 35
330 678 202 72 50 37
247 246 279 148 104 74
378 582 320 94 37 43
324 433 185 97 16 30
342 143 250 118 93 66
285 178 277 111 89 63
254 970 292 68 63 63
3 683 196 146 101 86
252 441 190 40 38 46
395 739 441 133 111 90
260 11 282 87 36 41
251 93 266 105 39 45
243 508 196 55 34 36
322 422 184 69 33 33
378 562 345 181 8 56
252 462 185 40 40 40
418 761 269 104 79 62
263 449 199 91 31 31
247 801 275 74 61 56
320 768 204 61 50 49
387 487 190 55 28 30
312 48 247 110 26 39
340 433 308 109 8 35
370 503 330 65 18 27
256 93 270 104 22 41
380 813 477 205 141 127
365 703 242 69 38 38
327 258 232 117 93 65
247 102 260 117 93 71
340 513 299 67 20 32
280 33 286 128 30 51
253 263 314 126 97 70
310 463 298 36 24 25
312 503 168 67 24 30
248 152 265 114 93 70
232 412 207 130 5 37
380 478 312 42 27 30
308 602 314 90 8 32
249 388 272 105 86 67
302 949 250 78 73 74
352 55 228 104 62 51
284 772 191 65 48 36
374 820 299 160 114 90
332 374 275 68 51 30
242 228 282 125 97 67
237 427 206 159 0 44
417 886 349 59 48 38
229 518 222 126 15 37
283 61 275 127 93 78
382 468 177 124 3 35
369 344 261 117 91 61
249 98 263 108 54 53
360 518 170 157 0 33
247 153 267 114 93 70
221 558 252 146 1 39
381 468 167 137 10 38
236 413 247 90 28 38
315 868 212 68 66 67
285 27 292 142 59 66
434 722 377 204 135 104
249 103 262 116 95 72
255 273 287 142 98 71
382 377 236 121 96 66
321 393 232 75 66 58
306 581 194 182 5 41
279 153 277 111 88 61
254 98 268 107 77 62
252 247 274 147 102 69
345 258 207 136 105 66
330 424 152 80 65 53
352 437 310 129 6 38
265 153 248 134 99 61
292 440 204 88 31 28
237 643 259 123 15 38
254 103 268 111 92 73
381 588 312 102 30 43
399 762 433 216 144 117
328 119 227 121 88 61
442 469 229 123 11 38
296 929 231 78 75 76
257 374 268 104 87 68
240 788 278 75 62 56
330 743 331 186 13 60
406 884 354 74 58 47
323 22 240 85 70 53
251 108 266 113 94 74
268 92 229 120 34 41
292 434 314 71 28 33
280 17 306 169 128 127
262 221 259 135 101 62
257 328 320 134 101 72
379 468 162 122 20 39
252 355 293 123 97 69
224 473 247 43 31 35
265 723 323 176 13 57
390 423 307 85 18 32
240 468 197 124 13 37
362 673 246 106 20 32
425 414 272 86 39 36
308 372 316 129 92 70
253 108 269 109 92 74
394 538 202 37 36 40
246 473 306 155 16 48
34 660 184 122 94 67
340 463 139 87 30 38
256 108 271 109 91 74
408 566 245 174 15 52
320 348 257 74 63 52
236 503 296 108 25 43
253 253 314 121 94 67
306 401 246 89 74 58
251 443 315 150 19 48
245 848 297 106 86 65
495 908 277 104 87 72
255 498 298 134 21 47
338 675 208 87 61 37
439 419 254 71 33 34
205 688 224 122 94 75
165 647 214 128 100 80
324 458 162 89 17 31
244 243 297 123 97 68
309 378 262 98 82 64
253 112 269 110 93 75
375 447 363 70 14 25
420 678 362 111 90 66
264 82 218 147 15 40
245 418 189 123 10 29
285 823 286 162 125 102
240 398 212 89 39 41
232 488 290 121 19 43
246 163 267 113 93 72
200 653 214 118 88 70
252 114 270 111 93 76
248 152 262 115 94 73
361 314 215 115 91 61
346 832 220 54 48 50
249 123 262 116 94 71
415 723 372 182 121 102
256 831 256 186 136 109
249 128 267 113 93 71
369 508 329 72 18 29
326 419 177 83 58 48
435 468 218 120 17 34
277 205 260 127 95 60
265 488 301 119 25 46
236 413 252 131 10 37
236 826 232 50 46 53
289 372 335 153 104 81
198 773 233 168 125 94
355 353 214 97 84 70
243 697 230 88 43 43
241 448 302 81 30 38
245 853 318 169 126 108
382 453 302 129 8 41
254 288 302 135 96 71
361 367 279 124 94 63
256 218 311 111 91 71
282 797 194 61 50 44
500 912 272 70 61 54
382 438 157 44 38 38
366 529 175 171 7 38
510 918 273 112 93 74
390 823 296 162 109 82
251 128 272 109 90 70
398 788 468 172 118 90
321 463 162 93 13 33
254 122 274 107 89 73
409 558 282 110 23 42
393 743 324 170 123 106
238 508 206 59 35 38
345 892 302 35 33 34
248 263 292 143 102 73
316 599 327 85 0 30
345 417 172 87 73 59
255 393 257 107 93 80
381 523 312 33 27 31
285 233 317 111 91 68
253 162 289 111 92 74
224 728 194 137 96 62
196 773 222 170 121 89
255 143 283 107 90 72
305 10 277 113 36 33
242 468 301 134 9 40
403 712 407 136 109 86
429 443 286 136 14 44
317 489 158 92 20 30
290 513 175 78 28 36
266 966 259 81 78 81
335 133 247 118 90 66
305 961 336 57 51 49
390 408 242 73 65 56
411 717 419 132 108 82
256 123 276 106 89 73
398 717 322 132 92 80
262 491 185 101 23 23
260 888 337 183 134 116
352 61 206 110 33 40
326 415 286 51 43 34
239 959 323 63 57 55
275 955 250 93 86 90
255 128 277 106 89 72
272 94 274 108 86 62
325 103 217 119 30 40
340 573 191 189 16 45
330 477 144 149 6 34
251 262 283 148 102 73
248 133 262 115 93 70
307 335 290 94 75 53
381 458 187 113 6 32
279 902 199 78 67 66
237 961 280 77 73 72
248 143 262 116 95 72
196 768 222 167 119 88
252 129 275 108 90 72
305 653 224 82 27 29
188 710 205 189 122 98
275 158 257 121 93 56
355 643 237 72 34 36
269 128 280 110 89 65
254 871 324 84 44 44
277 108 257 125 89 66
254 133 278 106 89 71
264 34 284 119 40 51
219 752 243 111 85 56
345 933 360 68 59 53
336 924 342 55 44 51
210 753 240 146 109 83
247 159 270 112 92 70
303 611 321 40 27 27
248 192 289 113 91 67
256 134 280 105 88 70
250 188 292 115 93 70
265 10 277 90 52 50
253 136 279 105 88 71
350 198 208 119 95 67
304 912 227 80 74 77
252 140 280 107 90 72
320 368 237 75 66 57
288 255 325 113 92 69
253 656 240 102 15 18
243 193 272 123 98 69
233 600 289 75 20 33
34 651 197 111 91 76
283 77 253 146 21 50
238 614 246 46 29 34
375 483 162 146 12 36
273 138 281 115 92 64
365 758 216 74 57 49
370 893 292 68 59 57
403 781 315 185 126 95
322 375 224 80 70 60
251 827 256 131 100 83
248 463 308 71 21 33
273 68 227 108 30 35
247 149 268 114 93 69
383 433 297 112 21 40
340 43 217 120 101 79
349 113 242 116 95 71
255 268 282 143 99 69
298 616 334 43 23 26
433 722 386 193 130 103
344 73 188 131 24 27
351 88 202 146 25 49
231 801 265 50 44 44
251 508 184 78 35 42
363 446 144 183 11 42
298 253 302 120 95 67
359 158 242 116 93 68
345 813 220 64 54 54
270 699 188 93 45 39
323 27 236 69 48 31
282 168 266 109 87 63
247 155 259 115 94 70
361 653 298 85 24 37
269 179 300 108 90 70
377 478 347 133 2 40
247 158 259 120 96 70
384 901 350 57 48 41
314 473 181 81 29 33
349 503 303 57 28 33
399 448 346 138 12 42
247 158 262 116 95 73
345 933 357 88 77 70
247 158 267 112 93 72
354 123 237 114 92 67
260 118 277 106 88 70
245 423 189 123 8 26
352 416 180 88 74 60
257 639 310 153 13 48
248 148 262 115 95 73
252 796 280 74 60 56
234 508 293 50 27 30
247 383 306 129 101 72
380 914 266 49 39 35
332 832 169 122 105 91
248 147 266 115 94 71
248 153 272 114 92 69
268 303 285 113 88 58
230 453 282 81 21 34
249 148 277 112 91 69
338 16 285 150 101 98
265 434 324 69 29 37
254 263 281 148 100 72
409 722 237 77 55 41
358 183 250 120 96 71
283 63 249 129 23 34
276 429 324 104 28 43
248 153 277 113 92 68
251 148 282 110 90 71
293 229 301 119 96 70
345 14 252 99 67 58
281 93 252 107 75 52
205 638 192 96 77 56
254 147 284 107 90 72
361 263 259 120 92 60
285 218 267 127 95 58
290 328 345 148 99 79
222 508 252 81 22 34
268 970 270 86 80 81
282 93 257 121 44 49
416 508 247 120 23 44
335 42 217 117 89 60
264 627 309 73 20 30
233 579 230 97 24 35
270 434 324 53 29 33
256 144 285 106 88 71
357 406 205 89 77 66
353 149 214 114 93 67
444 890 344 90 79 72
364 263 209 136 98 58
313 388 267 77 62 48
400 420 332 74 23 32
250 403 202 133 23 20
252 184 295 114 93 73
319 348 252 75 65 55
382 784 230 63 50 44
268 827 279 159 120 93
300 23 292 157 92 83
351 560 185 176 18 43
5 683 192 147 103 89
330 73 253 121 95 73
235 413 257 110 18 37
293 250 316 115 92 67
227 453 267 100 20 37
247 252 283 146 104 74
296 833 187 80 66 54
352 158 249 116 93 66
280 483 300 46 25 27
252 154 285 110 91 72
352 136 244 117 94 69
256 303 302 116 91 64
372 653 277 73 26 36
390 411 267 66 58 49
255 153 287 107 89 71
248 158 277 114 92 69
240 453 207 144 1 39
243 233 282 134 101 69
327 248 227 126 99 68
325 308 222 119 97 72
249 158 282 113 92 70
365 608 221 76 33 41
312 490 307 95 18 35
260 898 335 158 117 100
246 188 263 129 100 64
378 857 276 58 48 48
246 537 199 67 29 35
251 158 286 110 91 71
371 543 370 140 18 48
254 158 288 108 90 73
308 376 315 129 93 72
273 166 254 131 98 57
385 890 298 84 71 61
318 83 225 120 20 38
255 253 317 120 94 68
305 878 197 78 74 75
354 437 129 161 8 38
247 168 259 125 98 66
305 653 323 44 27 31
448 771 256 106 83 70
384 483 187 110 8 29
242 225 285 119 94 65
234 928 257 55 52 54
304 643 224 108 16 26
246 168 262 122 97 68
313 482 180 43 37 37
245 953 332 51 48 49
274 927 344 41 38 40
286 582 198 193 8 43
233 409 200 147 1 42
389 498 295 147 4 46
245 168 267 115 94 70
382 896 239 90 79 76
281 83 252 133 26 43
424 428 290 77 21 30
246 248 287 141 103 73
190 693 217 154 112 88
222 503 247 106 22 37
246 173 262 125 98 66
323 416 284 52 44 36
232 920 264 49 46 48
383 846 270 58 47 42
244 396 262 50 43 42
255 228 312 112 91 70
365 423 142 110 59 47
286 290 345 109 87 63
365 911 341 60 49 48
255 398 322 146 109 83
247 169 276 112 91 69
295 768 186 67 54 44
357 554 327 81 25 37
342 730 334 28 25 26
318 63 217 105 39 42
410 473 292 108 2 33
300 10 292 130 56 67
317 463 306 93 25 37
244 213 287 117 94 68
229 918 277 96 79 66
403 716 338 160 112 95
198 730 229 161 117 92
358 415 184 90 76 61
228 876 285 146 115 85
340 693 327 84 12 27
247 173 277 114 92 69
377 258 237 122 94 60
303 887 218 67 63 64
247 175 280 113 91 68
259 923 226 87 75 72
232 928 262 54 50 51
248 714 220 94 28 32
248 163 274 112 91 67
238 423 217 148 3 43
426 875 336 73 56 51
388 433 208 111 15 29
350 38 252 126 16 45
264 903 217 65 60 61
348 60 199 86 48 21
351 538 316 122 1 39
309 921 244 76 70 71
324 25 279 128 59 60
330 47 212 119 90 56
375 773 457 128 103 86
285 25 298 148 109 87
421 680 371 106 88 67
170 648 213 127 99 79
325 43 222 93 69 52
248 168 277 113 91 68
390 412 272 61 53 45
233 448 288 100 25 40
360 558 366 39 29 30
460 900 207 96 77 60
195 738 227 171 119 95
305 883 212 66 62 62
330 178 242 100 81 60
299 477 300 47 27 31
202 710 230 133 103 82
249 163 282 114 92 69
249 168 282 115 93 69
344 25 234 106 91 74
250 168 287 113 93 71
165 667 185 199 132 100
442 430 260 76 31 37
257 308 298 109 87 62
436 908 238 83 70 61
248 172 279 114 93 69
296 777 179 68 55 46
351 113 222 103 83 59
308 413 302 95 72 51
234 418 267 107 14 33
347 890 301 33 33 34
60 652 207 111 100 91
377 362 225 107 88 68
272 283 335 121 92 66
396 724 262 106 76 43
255 203 258 132 100 63
328 851 198 64 62 65
249 173 282 114 93 69
305 493 179 42 35 36
397 427 344 68 22 28
246 178 262 128 100 68
376 825 246 58 49 46
224 468 262 136 2 37
270 353 336 143 105 81
372 217 228 119 97 70
332 925 280 83 76 75
246 183 263 129 101 67
354 778 214 58 48 44
294 922 353 38 36 37
222 543 257 149 0 44
236 423 247 126 3 34
401 759 453 207 146 124
244 183 272 117 94 69
255 223 263 136 100 63
250 473 308 57 23 32
259 93 218 140 12 34
254 678 314 74 23 33
330 108 248 123 95 73
244 178 267 123 98 69
252 169 290 113 94 75
359 586 204 53 37 38
238 423 297 103 17 36
372 238 216 120 95 65
290 203 287 114 91 65
401 744 247 69 51 44
403 713 382 154 108 88
330 833 278 103 80 65
244 183 267 126 100 69
307 773 196 53 47 47
251 248 311 119 94 67
273 133 254 125 93 61
248 409 194 118 10 23
444 703 342 169 115 85
280 58 278 126 21 48
260 83 271 96 77 60
321 373 232 75 66 57
324 42 226 76 48 27
247 192 264 129 100 65
370 448 152 169 7 35
246 243 302 120 95 67
368 364 214 104 87 70
285 442 205 66 35 35
309 313 302 122 93 67
244 188 267 127 100 68
421 915 238 101 87 79
423 513 240 161 8 51
256 413 202 114 14 26
244 193 267 129 101 68
231 448 242 44 32 32
365 493 336 81 17 32
208 805 215 191 125 96
403 826 254 66 52 44
271 402 227 104 89 73
355 253 261 113 89 61
248 179 260 129 99 64
323 332 237 89 74 57
411 750 334 203 136 109
219 820 238 189 129 101
237 416 234 39 32 39
378 498 343 113 9 35
251 183 258 134 102 64
280 48 247 109 30 27
257 934 340 43 41 42
240 401 197 166 8 14
365 743 212 55 44 40
295 238 287 114 90 63
356 153 217 106 88 69
248 183 260 130 100 65
75 654 203 129 103 71
382 448 195 103 16 30
320 554 305 53 26 28
310 693 328 35 29 30
360 963 351 113 88 70
281 88 252 105 70 52
377 258 232 122 95 62
205 698 190 153 100 65
421 448 223 99 20 30
237 418 194 139 0 35
340 476 144 87 35 39
358 508 313 76 28 34
233 423 262 119 5 32
291 33 261 123 36 34
342 213 255 100 80 58
255 188 257 136 102 62
384 393 227 99 84 68
356 473 342 121 9 40
225 478 237 38 33 37
238 402 242 59 33 37
360 838 278 57 42 36
248 642 299 145 6 45
290 933 232 97 91 92
377 333 237 124 97 65
253 278 313 133 100 75
299 374 254 91 77 62
300 273 297 112 89 63
384 603 292 163 16 51
252 193 259 132 101 63
228 498 225 77 26 33
255 193 257 135 102 62
226 453 257 127 5 34
495 904 287 99 83 69
409 416 284 59 20 28
416 498 225 137 9 28
326 843 182 63 59 60
246 178 277 115 93 70
275 470 189 48 37 34
253 367 280 119 96 70
241 399 237 54 29 32
249 438 313 121 13 39
371 673 287 44 29 33
226 713 196 131 90 57
395 418 222 105 32 30
278 575 195 189 7 39
398 488 343 91 29 39
300 378 327 147 103 85
356 884 337 44 37 32
245 183 277 114 92 69
262 746 196 68 44 42
237 413 194 133 4 34
324 398 212 83 73 64
231 781 199 163 107 72
378 537 371 98 35 43
392 910 314 66 59 55
223 503 264 63 24 32
245 218 292 113 91 67
399 588 267 171 15 46
247 179 281 113 91 67
320 373 237 73 64 56
410 888 327 59 49 48
238 402 257 37 31 32
330 303 218 122 99 73
388 806 470 210 143 122
271 690 207 78 46 42
244 193 277 119 96 70
288 239 316 115 93 68
414 543 281 110 21 43
238 408 236 109 28 42
314 410 208 79 68 57
256 328 297 124 97 68
370 763 216 72 55 47
329 198 243 99 81 60
307 806 195 54 46 45
329 902 337 37 34 34
247 378 297 124 98 69
233 403 214 75 26 35
239 448 197 99 25 36
359 409 203 90 77 64
275 123 267 111 84 57
305 363 327 138 99 78
327 190 219 119 94 66
221 733 277 116 18 42
280 9 287 107 62 50
246 188 282 114 92 68
354 498 308 91 22 37
250 208 263 132 102 64
251 383 317 135 103 75
327 184 240 100 81 60
432 443 234 50 27 31
345 15 247 99 73 61
257 802 280 53 43 42
249 183 287 113 92 68
247 189 286 113 91 68
245 193 282 116 93 69
434 458 281 92 28 38
359 712 198 82 58 47
248 424 189 117 19 26
321 73 217 131 36 49
321 419 286 52 44 36
255 308 312 135 102 74
415 693 322 115 80 36
294 259 321 116 93 67
246 253 302 128 98 69
246 603 296 101 22 38
214 663 192 117 85 54
252 378 273 111 90 67
248 178 283 113 91 67
243 960 270 76 72 74
405 463 222 47 38 39
248 239 275 143 103 70
251 383 272 111 90 68
243 950 260 70 64 65
237 406 220 131 11 35
386 447 363 78 21 30
338 50 194 108 35 18
264 549 190 87 23 33
350 518 169 163 0 33
346 648 313 154 14 50
391 433 311 112 9 36
248 182 284 112 91 67
274 704 188 82 50 36
256 353 322 125 97 68
310 18 287 152 95 88
380 383 222 102 85 67
248 188 288 113 91 67
226 543 282 72 27 35
315 848 182 75 63 62
365 523 323 85 14 31
187 681 189 183 116 86
265 543 187 136 9 36
327 218 219 118 94 65
250 888 333 183 135 120
311 508 167 53 30 29
398 508 199 129 5 33
334 168 216 122 96 63
396 743 331 178 127 107
255 163 291 109 92 74
382 372 242 121 96 66
256 158 290 107 90 72
376 598 312 136 23 49
320 853 177 110 95 89
340 388 209 86 76 66
247 374 296 123 97 68
236 399 217 91 24 38
282 280 340 105 84 62
255 168 292 111 93 75
338 576 318 101 0 32
252 421 195 75 36 41
226 473 237 37 34 37
366 183 232 116 94 70
379 796 500 168 126 104
395 873 322 95 68 53
251 173 291 113 94 74
254 173 293 113 95 77
253 280 300 142 100 76
363 415 189 94 78 62
353 98 222 113 46 49
205 683 187 154 100 68
232 450 234 38 32 33
271 763 187 65 53 48
357 555 337 76 21 35
290 785 179 77 60 46
290 960 255 86 82 85
160 639 206 106 89 71
275 243 324 113 91 67
423 796 258 78 62 52
374 473 367 66 21 30
386 885 309 74 63 58
256 174 295 110 92 75
422 675 356 110 88 63
246 393 267 87 70 56
350 223 205 126 98 62
345 523 303 53 21 29
266 898 217 56 51 52
336 273 213 139 106 69
15 688 192 192 128 114
375 738 228 64 50 43
347 843 222 52 46 48
251 178 292 115 94 73
310 308 312 131 99 70
263 434 204 51 39 39
329 133 237 114 87 63
237 508 208 42 33 39
270 63 222 111 30 31
250 183 292 116 94 72
329 158 232 105 84 60
253 177 294 115 96 77
377 855 261 68 50 47
364 198 247 120 97 71
255 178 296 111 93 74
354 133 242 112 91 67
338 83 250 112 89 69
233 468 226 76 29 35
374 698 282 53 31 35
379 833 249 52 42 40
255 183 297 110 91 72
234 488 217 121 12 33
248 387 276 111 90 69
249 193 292 113 92 68
272 379 248 99 87 75
310 498 310 129 2 40
274 88 238 124 25 33
328 825 198 61 56 57
384 418 297 64 27 31
270 229 320 111 91 70
251 193 297 114 93 70
383 438 292 125 13 40
310 38 257 104 12 33
348 811 219 69 57 53
85 654 216 150 119 102
304 856 185 107 84 64
368 538 352 103 8 35
254 188 298 111 92 71
316 53 227 83 41 35
308 876 197 75 70 71
290 393 238 96 83 69
327 248 222 131 103 70
253 192 299 112 92 71
311 15 262 132 47 40
420 433 223 54 33 36
256 188 300 109 91 72
320 10 278 124 50 60
353 83 207 130 24 46
243 396 267 95 55 52
255 193 301 110 91 71
379 618 242 96 24 40
263 779 196 52 43 40
309 368 317 127 92 68
243 198 272 128 101 71
260 818 217 72 58 52
331 298 218 122 99 72
406 724 236 82 59 45
310 738 331 44 27 31
432 428 250 108 12 32
247 198 264 131 101 66
438 421 285 141 26 54
397 438 220 61 37 39
222 478 252 65 30 33
324 458 177 93 17 30
298 28 268 136 28 44
278 88 244 125 20 33
338 828 170 111 95 83
243 208 272 129 101 68
239 403 232 49 32 36
270 43 242 91 68 52
300 541 299 30 26 29
374 826 244 60 48 47
327 88 207 133 9 41
330 894 312 34 32 33
228 483 283 145 10 43
248 249 280 148 104 75
247 201 264 131 102 68
347 143 249 119 94 65
252 198 259 132 101 63
280 686 197 78 54 48
250 203 262 131 102 65
346 38 258 129 13 45
440 868 342 86 67 53
350 388 208 85 76 66
195 653 180 131 94 55
403 722 247 85 66 48
335 83 251 107 40 46
223 513 262 153 0 43
352 75 200 138 23 45
343 532 304 120 1 36
368 953 361 94 77 63
252 201 259 131 101 62
238 657 288 34 29 33
121 659 214 177 132 116
325 83 252 110 18 41
309 328 297 105 82 57
332 811 215 65 52 53
255 448 317 122 24 46
256 208 259 131 100 61
330 704 335 117 3 36
419 458 290 36 27 29
254 208 260 132 100 62
346 73 243 113 45 50
268 513 180 136 11 32
245 248 292 135 101 71
329 243 243 103 82 59
323 393 273 62 52 43
248 204 265 130 100 65
399 428 342 82 25 32
357 308 269 124 89 61
270 243 266 135 97 63
231 403 207 122 12 34
263 770 186 44 39 38
360 958 366 81 64 48
353 139 245 115 92 66
256 401 211 107 75 62
259 474 189 42 37 38
225 877 297 129 102 77
431 723 312 131 93 63
244 238 297 120 95 67
261 698 202 69 37 35
232 440 285 85 34 45
244 203 282 117 94 69
246 703 222 93 37 36
354 698 202 67 50 39
245 208 287 116 93 68
353 134 219 108 89 69
380 368 227 110 90 68
94 671 210 195 134 118
335 814 213 65 52 50
352 401 205 89 76 64
446 417 278 130 24 44
246 213 268 130 99 64
359 637 238 41 32 34
361 459 151 42 34 39
340 58 253 123 100 76
437 468 272 80 28 38
255 413 321 108 71 58
222 918 292 172 133 112
315 73 247 104 45 49
335 508 158 182 12 43
244 213 272 128 100 65
253 748 201 53 44 45
363 174 219 112 93 71
323 946 277 64 57 55
233 433 283 96 26 38
353 53 222 106 24 35
228 494 279 149 10 44
316 63 252 109 74 62
360 553 183 106 28 41
375 783 463 120 87 75
312 490 298 51 29 26
390 874 323 75 59 54
286 222 308 115 93 67
411 733 262 92 71 61
260 153 290 106 88 70
262 709 182 70 44 35
378 488 342 130 0 40
248 264 303 136 101 73
287 217 304 116 93 68
247 218 269 133 100 64
244 218 272 131 99 64
290 12 266 110 60 41
406 703 377 149 107 86
416 433 224 61 31 35
242 423 305 61 26 32
362 702 307 90 16 29
373 858 281 46 39 38
417 420 290 49 33 31
339 138 249 118 91 64
339 487 149 89 30 41
247 222 269 137 101 64
239 448 202 127 17 42
315 938 352 63 56 53
292 356 265 94 78 62
227 875 292 127 102 74
337 251 209 133 103 67
333 133 215 118 92 61
228 452 246 40 34 35
245 443 187 105 21 31
251 213 263 133 100 63
234 523 293 88 29 39
255 213 261 133 100 61
329 148 227 107 85 59
382 382 262 114 90 62
413 763 263 95 74 55
384 821 300 162 112 84
250 473 184 63 35 35
255 218 262 134 100 63
382 810 475 204 135 121
263 656 314 159 14 50
351 948 361 65 51 39
269 357 266 97 84 72
229 468 232 45 33 37
250 223 267 138 102 65
413 538 224 140 11 33
420 734 392 196 129 103
345 873 288 39 35 35
201 763 236 155 117 88
328 73 190 135 14 34
254 353 287 122 97 68
271 359 263 96 85 73
449 443 222 38 32 34
252 221 264 137 102 65
315 508 296 54 16 24
313 394 242 95 77 58
320 825 184 67 58 56
293 428 315 86 62 48
231 878 278 154 118 88
394 733 422 148 112 91
353 123 227 113 92 70
313 502 166 79 24 30
243 213 277 123 97 66
235 768 286 89 73 67
381 895 348 72 59 50
262 25 254 100 85 72
243 218 277 124 97 66
315 673 323 163 15 52
243 223 277 127 98 66
243 222 283 118 93 66
227 936 315 185 133 111
390 767 433 206 136 118
386 425 337 55 19 25
382 555 332 41 29 32
235 423 287 68 30 36
359 591 340 188 5 60
232 433 252 123 2 35
410 713 232 79 56 39
365 426 304 58 29 27
234 418 202 162 0 45
247 203 292 111 90 66
288 392 240 100 85 70
423 756 307 176 114 86
329 173 222 109 87 61
404 573 247 183 12 52
345 416 176 87 73 59
404 744 446 142 116 89
246 383 287 118 95 70
304 18 297 162 108 95
248 198 293 113 91 66
410 498 291 105 13 35
270 703 324 141 15 46
250 198 297 115 93 69
340 503 298 54 24 29
223 518 258 155 0 43
277 721 180 66 50 41
252 199 300 113 92 70
274 623 226 148 3 33
312 762 201 54 46 43
255 198 302 111 91 71
165 643 188 95 82 70
392 443 353 125 6 39
310 820 189 57 51 49
251 203 301 113 91 68
305 378 257 103 84 63
129 642 196 103 91 80
323 298 226 115 94 71
254 203 303 113 93 71
278 49 244 96 29 26
285 360 259 95 82 67
380 788 227 57 44 39
282 163 272 110 88 63
235 418 257 133 4 37
400 503 291 127 1 39
315 627 331 47 30 32
180 648 214 121 94 74
325 478 145 119 24 40
236 623 286 47 24 32
256 203 306 110 91 71
265 457 315 135 21 48
340 827 167 117 100 88
430 433 216 133 7 29
239 403 227 69 30 37
255 208 306 111 91 70
240 463 202 128 10 38
246 213 292 112 91 67
245 397 242 81 49 46
261 328 287 98 82 66
280 817 214 57 47 46
383 453 177 122 4 33
247 218 297 113 91 66
305 697 184 64 45 37
215 713 192 145 97 63
280 273 336 102 83 64
250 468 184 107 20 32
65 650 212 103 91 80
238 423 222 120 12 39
195 698 223 147 109 88
150 659 213 165 123 104
37 691 204 181 126 111
244 223 292 115 93 68
236 498 296 86 29 39
335 604 343 189 7 60
292 233 276 121 91 60
215 703 191 139 94 61
243 513 196 55 33 38
238 851 295 136 110 83
246 223 297 114 91 67
356 663 242 73 30 35
385 419 212 102 47 35
247 220 300 112 90 66
423 537 232 181 14 50
294 814 289 182 138 115
248 213 298 112 90 67
229 443 252 97 16 33
242 453 305 55 28 32
340 508 299 36 25 27
250 213 302 112 91 69
349 107 217 106 75 55
352 893 347 49 40 36
223 742 251 127 96 67
252 214 305 114 93 70
295 592 204 153 18 44
334 233 248 99 80 60
376 875 328 43 40 40
330 158 237 100 80 57
345 468 302 85 12 33
320 918 252 62 56 57
271 32 250 90 74 58
251 358 302 122 97 68
303 451 195 108 22 23
248 217 299 113 91 68
221 563 252 141 1 37
249 223 303 114 92 68
252 210 305 113 92 70
324 58 202 96 71 50
345 383 282 124 89 68
208 810 220 206 141 110
251 218 306 113 92 70
265 763 302 79 64 58
251 223 307 114 93 70
236 423 242 132 8 39
385 438 202 87 20 30
198 738 206 170 111 78
325 443 182 96 16 31
375 809 304 167 123 97
366 757 214 70 53 47
352 127 221 108 89 69
250 448 187 97 25 32
237 428 237 120 4 32
389 733 307 120 86 71
441 478 227 151 23 49
254 218 308 113 92 71
255 338 297 127 99 70
250 568 208 111 24 39
383 811 467 220 149 136
347 470 145 80 36 47
335 88 251 113 39 48
246 228 273 139 101 66
320 908 248 62 57 58
331 183 218 122 96 65
252 232 269 140 101 65
276 622 224 148 4 33
256 228 264 137 100 63
367 288 254 128 99 64
470 887 168 98 81 64
375 573 206 95 26 40
335 158 246 98 77 56
365 308 257 125 92 60
320 743 197 67 52 46
322 77 218 124 73 70
238 441 225 130 0 35
318 69 226 132 35 49
306 353 328 131 92 72
352 57 212 109 35 38
255 233 266 137 99 63
240 398 267 92 43 42
374 248 217 123 96 62
235 399 207 111 26 30
347 113 244 118 96 72
337 580 327 101 1 32
381 573 322 93 33 43
250 238 272 142 101 67
273 123 254 125 94 63
382 453 191 108 8 31
239 448 192 87 30 38
371 468 367 109 19 39
352 54 232 110 86 71
242 227 279 129 99 67
350 268 208 137 104 62
245 233 277 140 102 71
330 898 327 33 32 32
238 421 294 113 13 37
335 328 273 68 53 34
310 912 352 39 36 36
380 488 177 118 4 31
237 747 300 45 29 33
377 774 460 126 99 82
247 232 273 140 101 69
368 368 214 104 87 69
242 228 285 122 96 67
300 583 196 166 9 41
344 88 246 101 32 38
310 603 208 132 27 45
238 428 217 149 0 40
369 248 251 124 97 66
376 373 221 102 86 70
362 172 220 114 94 72
252 238 310 117 94 69
261 62 215 101 38 29
303 299 337 109 86 57
360 793 218 52 44 43
327 390 214 88 76 65
320 582 194 58 35 39
315 758 321 74 61 56
325 463 311 78 17 29
235 403 217 72 27 34
242 231 283 129 100 67
380 423 172 82 43 39
225 738 242 119 87 61
223 518 236 130 14 40
352 47 226 111 36 41
255 258 317 123 96 69
266 884 248 68 58 53
329 173 237 100 80 58
245 397 252 64 54 50
340 931 302 74 68 67
253 361 285 122 97 70
394 493 357 100 27 39
317 97 241 113 12 39
275 969 265 87 81 84
361 158 232 113 93 70
355 663 306 61 25 31
289 344 269 93 78 61
266 921 219 86 76 74
330 382 277 64 48 28
243 230 280 134 101 69
256 438 320 94 22 37
343 78 245 110 25 42
246 428 311 133 15 43
385 444 361 97 16 31
389 443 357 115 11 36
403 577 247 186 12 51
235 438 292 33 28 30
325 785 309 76 61 57
355 238 205 130 99 59
275 653 228 88 25 27
247 236 274 141 100 70
362 753 314 136 23 47
335 213 211 128 100 65
326 463 143 135 5 32
350 83 197 150 22 49
330 398 206 90 78 65
246 238 277 143 102 72
357 152 244 118 95 69
254 243 313 117 93 67
352 83 202 146 30 52
244 238 282 138 103 71
321 308 237 107 86 65
255 397 222 97 78 65
335 128 247 120 90 67
247 413 315 148 17 46
320 857 279 41 35 31
26 678 184 152 104 81
321 78 222 120 25 42
364 591 336 191 11 59
55 682 203 217 140 118
331 158 218 116 91 61
250 528 302 97 28 40
243 238 287 131 99 70
352 52 221 69 32 27
280 406 232 103 87 70
254 243 271 143 100 67
280 698 187 83 51 45
407 754 442 194 132 107
299 263 297 115 91 64
322 333 253 71 61 52
305 10 282 103 36 37
255 248 272 146 100 68
284 798 192 67 54 45
236 705 234 136 21 38
200 637 202 82 68 53
270 113 276 113 90 66
246 243 278 146 103 72
417 769 308 184 121 94
432 453 234 130 20 47
256 308 307 128 99 70
294 777 185 68 55 45
272 898 204 92 81 80
185 663 181 151 104 66
234 693 302 47 28 33
246 253 287 143 102 73
301 11 302 130 38 56
340 123 210 138 99 61
290 975 282 68 64 63
298 373 330 147 101 82
227 464 276 81 22 34
252 580 300 111 38 51
295 694 171 87 60 45
437 453 279 96 28 42
345 318 275 102 76 51
352 33 242 88 50 40
265 939 236 89 80 81
300 402 237 95 79 63
249 243 276 145 103 70
340 328 215 102 84 65
251 253 278 150 103 72
275 10 292 106 69 59
333 931 360 76 66 60
335 68 254 117 32 49
280 258 328 114 93 69
312 20 249 134 26 34
244 668 246 54 33 37
394 468 362 88 25 35
439 483 223 107 24 37
315 773 203 52 45 44
244 468 303 134 8 39
230 508 287 33 28 30
290 208 272 114 90 62
202 675 220 122 94 74
256 252 273 148 100 69
192 718 225 165 117 93
241 398 282 87 67 52
316 68 251 100 43 46
319 416 273 55 46 38
301 454 194 100 19 25
244 228 292 119 95 69
361 508 327 76 25 34
228 443 257 122 4 33
240 453 197 129 17 41
340 128 249 120 95 67
328 830 194 63 54 56
279 163 287 109 87 60
313 784 168 60 53 48
243 233 292 123 98 69
388 796 495 152 113 93
303 911 224 74 66 71
252 243 311 118 94 68
348 120 214 107 88 67
245 228 297 115 92 67
255 849 292 91 73 51
255 403 207 111 61 48
379 751 303 72 54 40
415 863 351 66 52 40
262 353 330 131 101 73
361 173 217 110 91 70
246 238 302 116 93 66
309 388 292 111 82 60
268 386 250 106 92 78
237 716 220 77 54 42
305 288 317 120 95 66
248 228 303 116 93 68
370 828 242 69 55 50
387 604 284 176 12 54
270 58 278 119 93 70
289 334 274 93 78 62
270 582 203 186 6 41
282 202 304 112 90 66
