ply
format ascii 1.0
comment Created by Open3D
element vertex 2218
property double x
property double y
property double z
property uchar red
property uchar green
property uchar blue
end_header
275 198 235 119 93 61
277 198 236 117 92 61
386 907 303 35 32 33
381 368 253 121 96 68
336 143 217 130 100 64
416 423 262 56 31 32
276 208 235 122 95 63
291 763 177 100 74 44
321 963 313 64 57 56
283 548 165 165 0 37
278 203 236 120 94 61
328 173 247 106 84 61
315 398 248 60 52 45
267 358 301 151 105 86
278 207 236 121 94 62
281 208 238 117 91 57
316 976 293 66 60 59
238 596 241 83 23 30
285 198 244 110 85 54
355 158 219 118 94 65
326 803 174 67 52 46
287 197 247 110 87 59
361 421 148 93 77 58
271 208 282 119 95 68
267 568 273 59 24 31
281 213 237 117 91 58
330 238 259 113 90 67
276 218 235 122 95 62
395 428 387 136 20 47
317 358 258 75 56 43
276 223 234 123 95 61
270 148 271 119 95 67
332 453 113 111 24 35
281 223 237 118 91 57
284 213 240 114 87 52
284 218 240 113 86 52
369 209 247 116 94 69
369 492 376 92 2 33
358 716 201 49 40 39
287 213 242 115 87 53
287 218 242 113 86 52
327 708 340 122 13 40
256 623 263 59 29 35
287 223 241 114 86 52
261 228 234 126 97 61
258 231 235 127 96 59
350 443 113 112 16 37
349 15 262 98 52 45
261 233 235 125 95 59
293 318 290 120 86 61
414 444 221 126 7 39
352 473 137 92 22 34
366 623 233 47 31 35
259 234 236 127 96 59
266 233 234 123 95 59
376 253 233 126 98 63
288 463 150 73 37 35
271 228 233 125 96 61
366 398 299 107 85 61
429 752 311 185 124 97
271 233 233 122 95 61
327 248 257 110 87 64
181 688 308 174 121 102
266 238 234 125 94 58
253 534 263 77 20 29
284 595 181 163 1 30
295 23 264 114 14 24
360 158 228 116 95 72
401 578 253 185 12 50
422 822 258 65 56 50
271 238 234 124 95 60
258 244 235 131 97 59
341 422 133 91 75 58
261 243 235 129 97 58
346 576 371 111 27 43
266 798 173 183 121 87
340 778 177 73 57 49
261 248 234 130 97 59
291 803 184 105 73 55
370 472 155 166 0 36
355 518 383 57 25 30
259 250 236 130 96 58
268 448 160 142 0 33
297 23 267 131 22 33
262 252 235 130 96 59
360 943 258 60 55 58
307 373 263 82 58 43
322 713 158 69 54 41
266 248 234 128 96 58
341 415 159 89 75 59
346 833 172 104 79 61
266 253 235 129 96 59
271 253 235 127 95 59
380 493 353 76 19 33
352 133 223 110 90 68
271 255 236 127 95 59
304 897 216 50 46 49
276 228 234 123 95 60
351 528 308 120 0 37
406 933 293 92 73 66
245 738 163 169 112 79
368 615 231 71 29 33
321 328 238 71 61 52
406 418 193 55 46 38
281 228 237 118 90 56
278 233 236 119 92 59
425 689 258 115 81 56
374 665 255 55 32 31
223 663 268 143 91 80
395 593 248 70 32 39
281 233 237 117 90 57
402 838 263 59 48 41
262 618 276 62 29 35
316 418 148 101 73 53
370 918 263 63 57 59
278 238 236 118 91 56
316 413 278 56 44 32
339 483 123 70 34 39
423 723 246 113 64 49
351 28 258 115 39 46
281 238 238 116 89 55
335 42 261 114 21 41
257 672 219 109 39 45
285 233 240 114 87 53
287 233 241 113 86 53
386 414 348 87 20 34
381 623 283 59 31 36
321 414 283 68 51 39
328 443 120 73 33 35
317 970 310 77 69 66
356 168 253 115 93 69
369 258 225 125 95 59
466 903 292 87 75 65
286 238 242 113 85 52
369 456 411 173 1 56
354 532 377 72 21 30
304 21 287 117 64 57
330 163 223 118 91 58
415 658 326 161 110 76
275 248 235 123 93 58
341 168 216 132 101 63
302 893 228 52 47 51
277 243 236 121 93 59
322 868 188 52 45 44
281 248 239 117 89 55
328 285 271 97 77 54
272 113 270 128 99 72
284 241 240 113 86 52
291 228 268 115 90 62
379 468 333 102 12 37
286 243 242 113 85 51
317 353 248 67 56 45
286 248 242 113 86 53
355 138 228 114 94 72
284 248 240 115 88 53
306 964 314 80 75 74
230 649 237 67 51 36
350 443 108 81 28 37
243 699 176 159 107 79
327 153 228 111 87 58
261 865 283 110 86 57
362 163 238 114 92 69
342 438 306 119 9 39
386 843 148 122 98 76
283 254 241 117 88 55
325 372 232 82 68 53
375 803 217 67 54 51
286 253 243 114 87 54
350 163 257 115 93 69
411 528 198 189 15 47
294 38 260 127 19 38
321 838 208 57 49 47
423 498 276 70 25 28
326 178 243 107 85 62
396 508 173 57 32 37
289 199 249 112 89 61
261 168 276 114 93 70
363 172 239 115 93 69
378 523 329 123 5 38
269 70 275 118 10 43
347 411 176 91 77 61
288 201 246 110 85 55
287 317 246 84 72 61
289 204 245 111 86 54
290 213 244 111 85 52
311 942 210 88 81 81
411 708 233 82 59 41
238 709 254 141 1 39
290 223 244 110 85 53
292 223 248 110 85 54
171 659 307 126 91 77
306 768 177 54 46 44
342 629 335 131 67 54
290 233 244 111 85 52
332 11 278 157 105 115
342 950 232 73 67 68
293 228 248 109 84 52
334 143 250 109 84 59
420 932 309 84 67 55
292 228 253 104 82 54
291 613 387 162 116 98
288 338 300 118 84 61
290 238 244 111 85 52
422 414 285 89 27 28
294 239 251 108 83 54
294 248 250 110 85 56
326 208 228 117 93 66
389 603 283 103 30 41
357 163 222 110 90 68
284 530 161 47 28 35
407 717 220 66 50 43
292 253 248 107 83 54
399 572 229 192 15 50
332 348 291 129 91 72
427 669 320 170 113 80
294 253 250 107 83 55
398 499 305 81 28 40
294 253 253 104 82 56
391 423 313 129 19 44
385 437 382 96 3 33
293 253 254 103 81 55
281 968 307 63 59 58
366 394 224 94 81 67
330 138 223 121 94 62
395 463 312 120 29 46
319 323 253 78 65 52
379 528 323 93 14 34
358 888 150 92 79 71
333 143 220 125 98 65
412 819 258 72 58 49
385 393 268 107 86 63
344 775 330 70 60 56
496 874 263 119 98 78
271 323 243 92 78 64
381 950 326 100 89 78
336 148 218 130 99 61
451 913 302 80 67 59
330 158 223 118 91 58
247 903 297 157 122 103
351 758 177 73 56 45
279 536 270 35 22 25
192 670 319 111 83 68
403 504 295 118 18 42
336 158 218 131 100 62
279 116 256 117 86 63
241 618 228 71 36 35
271 948 223 79 73 74
233 528 236 62 18 28
338 138 215 135 103 63
376 708 209 60 46 40
341 138 214 135 101 61
291 743 184 86 22 30
357 503 311 96 14 33
258 388 291 139 102 79
324 606 195 188 7 45
436 693 312 170 112 81
345 133 215 131 100 61
339 915 306 42 37 34
329 238 227 126 98 64
301 613 383 165 120 99
351 138 218 114 92 66
296 628 314 79 30 38
354 189 261 115 93 68
431 928 328 85 71 58
289 198 258 110 86 59
286 278 288 118 93 63
348 143 216 129 99 63
326 178 228 109 87 60
342 153 215 133 101 63
344 833 170 116 85 62
376 893 284 40 37 36
348 148 216 128 98 61
425 438 149 169 15 36
377 752 314 144 109 79
351 148 218 120 95 64
347 154 216 129 98 60
281 343 304 128 87 71
346 158 216 128 98 61
370 313 238 119 93 64
414 800 276 54 45 39
300 393 213 103 88 73
257 822 218 177 130 104
351 158 217 127 98 61
328 133 228 117 89 61
308 513 140 153 2 39
382 444 389 154 4 50
328 133 238 113 87 63
399 488 307 167 13 52
327 138 233 109 86 61
294 258 253 105 82 56
327 143 228 114 89 61
317 10 288 120 44 51
284 457 288 51 27 32
327 143 233 108 85 61
363 168 233 120 99 75
259 44 270 130 12 43
160 674 311 154 109 88
361 478 393 31 28 29
328 130 225 122 92 63
318 550 156 197 18 39
419 492 270 121 0 30
346 688 324 72 25 33
328 138 225 120 92 62
328 138 238 110 86 60
266 808 243 70 58 55
377 672 253 62 47 43
328 133 242 110 83 62
329 138 244 107 82 61
321 333 278 106 71 52
331 138 248 108 83 60
366 838 298 50 43 40
285 508 156 151 1 33
329 143 244 105 81 58
310 754 329 61 43 45
331 143 248 107 83 60
336 138 252 110 86 60
327 148 233 107 85 61
346 328 289 120 87 58
301 630 350 169 107 93
410 936 311 87 72 64
419 501 217 149 7 42
328 153 238 106 85 61
243 757 253 126 39 58
361 898 238 66 59 61
361 592 204 71 31 37
327 158 228 111 87 58
408 930 331 59 49 41
332 203 257 106 85 62
366 939 283 66 59 61
351 168 216 129 100 63
218 671 259 208 138 114
423 494 193 62 31 34
287 238 274 119 94 66
326 158 233 108 87 62
328 148 225 115 90 60
328 148 242 104 82 59
329 148 244 103 80 59
196 649 288 117 94 78
304 765 315 86 68 61
381 943 308 100 80 65
389 487 366 169 5 54
273 390 215 98 86 72
331 148 248 106 84 60
410 898 300 63 57 52
366 438 423 126 19 42
329 153 244 103 80 58
336 148 252 106 84 59
287 702 197 67 29 37
423 470 167 39 33 39
365 208 257 119 95 67
287 723 183 97 63 53
328 158 243 104 82 58
364 486 386 59 19 24
321 40 265 112 20 39
356 778 193 50 45 45
321 984 253 75 71 70
329 158 245 104 82 59
237 650 163 96 80 63
336 158 254 104 82 59
341 133 253 113 91 65
333 278 229 99 82 64
342 930 311 38 36 36
301 617 194 148 14 39
244 707 241 53 36 40
271 283 241 119 90 61
341 138 253 113 90 64
379 841 215 57 51 53
341 158 256 111 89 65
346 143 254 114 91 65
322 308 235 85 74 63
339 157 255 110 88 64
291 12 310 130 34 51
346 148 254 114 91 66
361 508 398 174 9 53
278 114 259 121 88 64
361 422 143 93 78 61
352 158 254 112 90 66
293 256 255 104 82 56
412 704 311 139 96 72
326 383 287 132 92 76
370 767 194 60 47 43
330 168 222 118 92 59
370 648 263 73 23 34
363 826 316 182 137 114
292 258 247 107 82 54
320 590 345 155 11 50
379 474 338 69 24 34
332 167 220 126 97 59
190 658 281 146 109 79
333 163 219 126 96 60
248 735 196 147 102 78
330 824 299 182 135 117
295 410 286 67 52 33
336 173 218 130 100 62
421 513 278 111 19 36
475 834 279 90 65 52
332 173 220 128 98 61
342 213 266 114 92 69
327 188 224 121 96 65
328 518 291 53 25 29
219 664 281 140 93 81
281 624 363 124 84 73
319 393 248 82 63 51
331 183 222 127 99 63
328 183 224 118 93 63
297 559 292 105 4 34
301 888 302 155 120 92
336 178 219 132 102 63
389 881 281 49 43 41
271 598 184 63 32 37
374 432 140 86 33 39
396 593 268 157 20 49
333 182 220 132 102 64
331 188 222 128 100 65
376 368 238 105 87 68
381 443 318 129 1 39
331 193 222 125 98 65
402 738 223 69 53 42
266 128 271 117 94 69
294 380 220 105 90 74
346 374 224 92 81 70
341 173 217 130 100 62
379 508 332 115 7 37
346 168 216 130 100 62
283 797 276 43 37 41
351 163 217 127 98 61
453 824 281 69 55 46
284 253 282 121 96 68
399 448 360 85 31 39
266 368 299 146 102 82
244 718 185 159 110 84
351 173 216 129 100 62
279 789 275 79 63 57
400 432 382 84 21 35
257 338 244 101 85 68
506 867 253 119 94 72
346 183 217 130 100 62
327 163 238 105 83 60
361 448 310 98 10 31
266 318 244 102 83 63
326 168 238 105 84 61
338 280 276 100 79 57
328 172 225 111 88 60
292 611 321 74 33 40
328 168 243 105 84 61
327 173 243 106 84 61
332 808 164 94 73 60
292 258 273 117 92 64
348 514 395 59 26 29
298 426 301 112 7 33
401 728 219 69 53 43
332 163 251 102 78 59
336 308 287 110 83 58
332 168 252 106 84 59
374 750 316 156 118 88
276 478 159 143 2 32
405 932 330 50 43 37
336 163 254 105 83 60
425 483 183 79 32 39
335 168 254 108 86 62
301 984 258 75 72 73
329 173 249 107 85 61
219 662 240 174 123 101
297 981 258 96 91 93
226 663 244 151 100 84
248 573 190 146 0 33
332 173 252 107 86 62
325 183 228 110 87 61
313 464 130 62 38 38
305 578 304 110 0 33
273 618 291 79 23 37
325 183 238 105 84 62
372 598 328 119 17 44
276 433 154 142 2 33
323 241 238 109 86 58
324 188 232 109 87 63
410 487 165 101 28 39
381 638 313 95 68 43
400 414 281 77 55 45
325 193 228 117 94 67
261 763 273 84 66 60
324 192 232 112 89 63
257 413 286 138 101 79
333 332 230 79 70 61
325 238 233 113 89 60
377 693 293 40 28 29
350 814 315 74 61 56
232 523 213 69 29 37
368 671 237 68 44 44
328 31 271 114 67 56
323 193 238 110 89 66
298 416 148 133 27 23
410 680 314 155 102 81
324 193 240 106 86 64
280 768 164 158 106 72
325 193 243 109 87 64
331 183 253 105 83 60
271 10 278 85 52 48
438 910 300 81 65 57
334 178 255 107 85 61
239 563 249 122 2 37
324 207 244 105 85 63
334 186 255 106 84 59
310 892 203 41 37 41
353 137 222 107 88 67
353 131 226 112 92 70
267 404 204 103 89 74
353 132 245 110 89 66
379 501 344 88 16 31
354 139 246 113 91 66
357 148 228 114 94 72
415 712 315 153 108 81
361 618 333 79 23 33
356 803 322 155 119 98
358 152 227 112 92 71
373 299 242 116 91 61
359 148 234 115 94 71
336 13 263 107 63 63
430 414 291 56 24 35
318 506 286 30 26 29
373 278 255 128 97 62
301 13 303 124 54 56
359 153 233 115 94 72
347 569 323 54 23 25
336 233 264 112 90 65
355 453 407 79 20 31
359 149 238 112 91 67
276 438 154 145 0 35
366 658 323 106 63 54
358 156 226 111 91 69
355 148 248 116 94 69
280 258 239 119 89 56
359 150 241 112 92 69
359 154 242 112 91 68
444 712 306 188 125 99
424 767 316 183 125 97
262 363 297 145 102 82
358 152 244 113 91 66
383 387 242 104 84 63
330 318 232 84 75 66
356 153 248 115 93 68
353 147 250 114 92 66
250 648 228 81 42 37
358 156 245 114 91 66
426 653 284 98 79 58
278 701 179 90 69 54
277 966 235 78 74 74
435 423 287 70 26 34
266 328 307 145 99 82
355 158 252 114 92 67
366 458 149 127 20 40
355 163 219 121 95 64
356 298 278 132 95 66
176 682 303 192 123 111
275 397 207 103 89 76
379 478 343 70 22 32
356 168 218 124 98 65
375 233 243 120 96 69
266 598 187 48 32 35
360 168 224 110 91 68
320 713 163 62 50 41
356 183 217 131 101 62
394 726 305 57 39 33
359 178 220 121 95 64
305 338 248 71 60 49
360 183 219 124 97 64
250 595 196 49 24 33
296 398 283 69 52 33
298 830 206 71 57 52
356 188 217 130 100 60
415 419 207 50 20 23
360 188 219 126 98 64
336 223 219 132 102 64
362 178 223 112 91 67
362 183 222 113 91 65
363 188 222 115 93 66
329 941 215 79 73 74
357 528 373 63 24 32
369 379 291 119 94 63
376 743 217 57 45 42
211 663 263 210 144 121
328 276 235 95 79 60
365 188 224 114 92 67
282 463 154 87 24 38
309 863 231 82 63 54
287 793 283 60 48 48
362 163 233 119 97 74
321 406 183 99 84 69
374 476 391 94 15 36
363 173 227 116 95 72
366 488 311 99 7 32
414 536 219 38 31 36
292 554 286 79 26 35
346 243 217 131 100 61
364 170 233 121 99 76
351 228 269 121 97 70
407 421 181 62 46 37
364 174 229 118 96 72
364 178 238 115 94 69
261 634 212 56 36 38
326 793 176 73 54 45
426 877 288 74 58 47
358 346 285 111 88 58
364 173 238 116 94 69
353 162 255 115 93 69
404 936 303 84 69 65
301 403 282 64 48 28
381 368 248 117 94 68
357 842 193 47 42 47
360 173 252 116 95 71
361 168 243 114 92 68
327 498 291 42 27 28
361 173 248 117 95 70
188 671 304 118 93 75
242 783 174 170 114 78
296 10 298 135 71 80
363 177 226 115 94 71
366 188 228 116 95 70
411 728 226 72 54 42
368 193 238 117 95 70
294 821 195 77 60 53
358 177 255 114 92 67
334 218 260 110 87 63
291 353 233 92 80 67
284 709 190 86 42 43
360 178 253 117 95 71
358 182 255 115 93 68
441 693 274 139 101 72
286 614 303 67 23 31
322 368 233 77 65 53
363 182 249 117 96 72
291 838 213 62 54 54
257 628 268 72 29 37
358 448 404 51 29 32
409 763 234 70 54 46
336 906 294 46 39 37
380 474 309 87 15 31
364 179 242 115 93 68
364 183 243 116 93 68
421 453 269 49 33 32
364 183 247 115 93 70
321 628 343 164 108 91
365 193 248 115 93 68
377 443 399 43 26 31
381 503 168 167 7 39
381 603 303 80 27 37
363 186 250 117 94 70
325 203 244 106 85 63
364 193 252 116 94 68
334 195 221 121 96 64
264 975 284 59 56 55
405 488 297 151 9 47
239 688 163 158 102 75
334 198 221 122 96 65
345 538 382 41 27 30
366 468 152 162 0 36
336 208 218 127 99 64
375 333 253 119 95 67
261 513 169 83 22 33
316 12 293 127 50 55
240 663 229 78 52 42
342 464 111 76 29 34
401 674 313 141 90 70
333 204 220 127 100 68
286 964 232 85 81 84
351 168 257 116 94 69
333 208 220 128 100 67
389 845 235 66 58 53
265 63 274 112 86 67
241 773 173 164 113 78
331 218 223 126 98 64
357 523 398 161 17 53
409 557 263 161 16 46
348 489 404 33 31 32
296 513 149 84 29 35
343 208 215 128 100 64
370 463 387 92 6 35
341 203 217 124 99 68
258 606 195 34 29 36
336 12 273 136 87 97
266 412 198 103 90 76
351 198 216 122 97 66
372 500 166 162 2 36
238 523 198 138 12 39
351 208 215 121 96 66
417 773 252 66 51 42
299 875 296 131 99 69
243 668 145 137 99 63
303 590 332 101 2 34
239 721 247 158 0 48
342 213 215 130 100 63
390 553 303 62 27 34
300 323 282 126 87 68
434 756 272 81 60 45
318 367 230 71 62 53
251 653 243 60 29 36
392 912 275 67 54 54
340 213 216 131 101 64
343 218 215 130 100 62
336 848 282 171 126 99
343 223 215 132 100 61
329 208 226 122 96 67
341 223 216 132 101 62
215 670 262 209 138 115
377 463 389 175 9 55
335 385 214 95 81 66
351 213 215 125 98 63
346 223 215 130 99 60
344 430 105 97 66 51
323 198 233 110 89 64
372 898 253 61 57 59
293 258 268 111 87 59
328 197 225 124 98 69
410 458 258 74 28 35
323 198 238 110 90 67
234 663 162 125 94 58
324 203 232 112 89 64
323 203 234 111 89 64
316 673 323 139 7 43
326 642 322 89 20 38
322 458 124 64 36 37
323 208 234 113 90 64
266 273 240 133 97 62
334 496 125 48 46 46
330 497 125 62 33 39
276 553 278 28 27 28
326 198 248 109 86 62
328 198 251 108 86 63
330 208 254 109 86 62
410 778 234 73 56 45
323 213 234 111 89 63
281 543 165 160 0 35
363 343 231 95 82 68
413 778 238 68 53 44
260 318 304 138 97 76
323 213 238 112 92 69
332 198 257 108 87 63
325 223 233 111 89 62
376 407 223 96 82 67
327 223 229 116 92 63
383 834 284 35 32 33
341 358 228 85 75 65
323 218 238 112 91 69
329 214 226 120 94 64
329 218 226 121 94 63
329 223 226 123 95 63
332 443 113 117 14 35
283 294 246 74 62 50
365 248 220 126 96 59
413 776 243 57 45 41
323 213 243 104 84 61
361 258 221 118 90 58
369 277 230 113 87 55
266 473 163 106 15 32
306 523 279 100 12 34
325 213 248 108 86 63
403 423 300 133 15 43
281 473 293 90 19 35
420 424 207 144 8 45
351 409 183 92 77 62
321 728 343 36 29 31
323 218 243 105 85 62
323 219 246 104 82 58
323 223 247 103 81 58
317 698 147 96 78 67
327 218 252 111 88 65
365 824 319 189 140 117
393 474 369 173 12 54
251 817 189 213 143 111
246 670 223 105 66 56
324 223 249 109 85 63
247 713 228 78 29 37
261 826 199 196 124 94
327 223 252 112 88 64
430 761 244 78 58 46
282 633 359 154 103 88
367 578 348 68 31 37
230 647 218 99 82 63
329 213 254 111 88 64
296 404 188 105 90 74
381 418 173 95 78 58
430 423 291 49 30 29
329 223 255 112 89 65
335 433 108 133 33 38
344 508 305 56 28 31
221 669 238 179 120 98
306 634 363 200 137 114
333 225 220 131 101 66
353 620 221 23 32 39
332 233 224 129 100 64
368 514 364 98 0 31
306 828 206 66 51 46
399 695 244 55 44 38
332 243 224 131 101 65
326 699 152 84 69 56
428 454 162 180 15 47
335 248 222 132 102 66
371 283 233 111 86 56
343 228 215 133 101 62
395 583 287 164 4 51
261 288 244 127 94 61
346 228 215 131 100 62
346 233 215 132 101 62
248 520 256 76 32 39
344 234 216 134 102 64
322 599 191 189 8 41
351 239 216 132 100 60
341 243 219 133 102 63
371 303 263 127 98 63
338 243 220 134 103 65
344 461 110 66 23 19
341 248 219 131 101 65
377 439 389 82 6 26
276 279 241 109 85 58
338 248 220 134 103 66
345 522 149 53 31 34
347 564 177 57 32 36
351 918 303 35 32 31
430 876 288 74 60 47
428 426 182 68 39 38
338 251 220 133 102 65
339 254 221 131 101 65
316 577 309 103 1 33
387 413 315 107 39 49
206 676 275 199 132 112
285 743 314 109 40 52
418 513 198 182 12 47
278 452 155 140 3 33
371 808 163 92 78 68
368 628 318 77 35 35
420 433 265 49 35 31
351 243 217 131 99 60
369 733 210 78 56 51
374 581 205 190 15 46
351 248 218 126 96 60
265 388 222 96 84 72
346 253 219 124 97 64
406 429 153 102 25 33
376 243 238 123 97 67
375 468 378 73 17 33
406 410 268 73 59 52
342 40 260 121 15 43
327 228 229 119 93 64
325 233 233 113 89 61
419 506 190 64 33 36
328 238 229 122 94 62
312 468 130 63 36 35
324 238 237 108 85 57
329 228 226 124 96 64
323 228 243 112 91 68
355 557 348 52 25 30
261 328 244 102 84 66
323 238 243 113 92 69
367 488 379 91 3 31
340 548 305 112 0 33
317 406 199 99 84 70
336 368 229 89 76 64
446 868 307 67 53 41
326 238 253 111 88 65
325 248 238 109 85 58
399 561 215 116 10 39
434 437 173 56 36 38
259 383 226 101 86 70
329 253 231 120 94 62
311 13 258 116 43 32
345 284 226 83 70 56
333 253 225 130 100 64
261 273 293 116 91 66
416 927 328 82 66 53
323 242 243 114 92 68
419 501 184 52 31 36
324 248 248 107 87 65
372 338 243 109 89 67
325 243 253 108 85 63
403 555 216 69 17 23
218 666 228 194 132 107
320 323 273 89 63 42
325 248 253 105 82 59
379 916 275 60 54 54
382 439 394 137 20 48
207 671 295 130 96 84
330 37 266 128 13 47
325 253 243 104 84 62
287 763 173 104 75 48
355 343 286 116 89 57
448 709 237 94 70 53
262 817 232 61 51 47
400 410 243 76 66 54
324 253 248 108 89 67
261 453 164 139 1 35
325 253 253 101 80 58
398 720 306 96 66 53
266 688 208 56 31 36
356 198 217 125 99 66
268 727 301 171 3 53
249 620 211 43 32 34
354 209 215 121 96 66
270 478 162 139 7 35
254 648 221 84 68 62
377 253 243 120 93 61
356 203 216 120 96 66
363 197 221 123 97 66
259 406 216 105 85 73
366 198 223 116 93 67
371 409 203 95 80 64
363 208 221 120 97 68
311 918 304 92 73 64
391 498 353 154 6 47
266 17 258 94 79 67
364 200 220 122 97 68
211 650 263 115 98 80
292 945 211 94 87 88
366 203 223 115 93 67
339 262 270 112 87 61
366 208 223 115 93 68
401 428 153 96 42 41
296 817 194 75 58 53
281 478 157 139 5 34
296 622 377 183 125 106
252 821 194 213 140 107
256 698 187 92 63 50
357 213 216 124 98 65
286 604 390 132 94 82
275 387 216 96 84 74
361 213 219 123 97 65
243 612 214 118 27 41
243 699 258 43 32 37
356 223 215 129 100 62
358 221 216 129 100 63
276 450 280 30 26 27
361 223 217 128 100 63
363 211 221 120 96 66
283 763 166 147 100 68
386 428 143 83 64 46
364 215 220 122 97 65
382 413 328 114 12 38
365 218 220 123 97 65
301 313 249 87 73 57
367 218 222 118 94 65
367 223 222 119 95 64
363 197 255 118 95 69
277 399 200 103 89 75
383 820 210 51 46 48
366 203 253 118 96 71
394 463 355 100 24 36
344 546 377 45 26 28
326 808 173 70 58 52
302 303 263 87 73 58
312 402 203 101 86 72
411 929 331 81 66 53
367 213 253 117 94 69
352 560 317 50 30 30
290 418 146 133 19 30
369 194 233 119 97 73
243 654 145 127 100 68
286 20 304 147 100 78
305 738 334 192 13 61
369 198 233 120 97 73
379 503 332 116 3 37
369 195 236 117 95 70
369 198 237 118 95 70
366 498 393 64 27 36
368 203 226 115 93 69
331 977 248 83 78 81
389 415 190 87 71 54
369 203 228 117 95 69
296 418 158 122 63 50
378 421 156 96 77 56
335 208 259 107 84 60
364 483 387 57 20 26
370 203 233 120 97 72
294 541 280 57 26 30
368 206 226 116 95 72
252 893 258 138 109 81
371 208 233 121 98 72
370 203 238 118 95 70
289 611 300 120 9 39
375 806 166 91 75 64
356 348 288 114 89 60
307 863 234 112 83 64
321 348 233 75 63 52
371 208 238 118 96 71
396 415 198 56 42 34
381 410 208 95 80 65
368 202 244 116 93 69
210 649 283 120 91 72
369 200 241 117 94 67
369 328 271 130 102 69
270 623 288 83 21 36
291 395 200 101 88 74
369 204 242 118 95 69
280 668 153 101 79 55
370 208 243 117 95 70
256 642 148 103 87 69
264 871 300 164 132 106
368 206 245 116 93 67
372 213 238 118 95 70
378 795 175 76 59 44
369 218 225 114 92 67
371 218 228 115 93 67
369 223 225 116 92 64
271 893 308 147 113 86
372 223 228 116 93 65
276 253 289 121 96 68
405 430 150 106 26 33
373 218 233 119 97 71
391 407 258 74 65 56
373 218 238 119 96 71
275 943 217 76 69 71
374 224 234 121 97 70
358 671 236 54 42 46
374 223 238 117 94 69
368 211 250 114 92 66
372 218 243 116 93 68
292 871 295 126 99 69
281 412 158 140 33 33
297 38 273 126 20 46
356 503 388 49 26 33
373 222 244 117 94 68
302 908 198 56 51 52
281 10 273 84 67 53
374 224 242 117 94 69
409 496 170 94 30 43
233 654 165 110 88 62
372 223 248 118 95 68
260 53 269 109 32 46
302 323 279 126 87 67
336 566 382 183 16 59
326 48 262 131 99 76
355 232 215 130 99 60
401 712 233 68 50 42
357 233 216 130 99 59
416 508 289 69 27 33
361 233 217 129 98 60
370 425 140 109 67 46
354 236 215 131 100 60
265 513 273 40 27 29
358 524 374 55 22 31
368 228 222 122 96 63
407 678 308 134 86 64
361 628 233 58 30 33
250 538 182 140 10 37
365 233 219 127 97 62
291 412 173 103 88 73
368 233 221 124 97 64
391 538 318 124 21 41
417 788 288 147 99 71
301 10 274 104 54 34
383 604 299 112 29 43
194 650 291 132 104 88
366 238 219 127 97 61
356 243 217 130 98 59
328 841 185 57 47 44
276 273 239 121 91 60
362 624 231 44 33 36
356 248 218 125 95 58
361 243 218 129 98 59
281 412 163 124 44 43
326 563 304 40 26 27
361 248 219 125 95 59
311 583 328 68 24 28
325 600 340 142 13 48
361 253 220 120 91 58
413 758 246 59 46 39
446 908 297 83 69 60
382 430 393 84 31 40
272 379 220 95 83 72
365 243 219 127 97 59
271 865 293 107 86 62
306 416 289 60 47 32
319 315 249 77 66 54
367 549 323 50 25 29
281 488 157 141 2 32
276 868 298 130 105 78
368 243 222 124 96 61
367 248 222 125 96 60
346 278 279 113 91 66
363 255 221 120 91 57
291 479 289 100 7 32
364 252 220 123 93 57
391 668 323 157 103 82
294 438 146 140 2 33
366 253 222 123 94 57
350 488 139 53 38 40
351 283 225 87 73 56
339 350 231 82 73 64
306 443 137 102 24 32
384 481 322 87 18 31
370 228 224 118 93 63
370 233 224 120 95 64
432 762 254 70 53 45
420 483 208 144 4 43
370 238 224 122 96 63
298 464 140 99 33 34
249 915 273 148 104 90
350 458 128 145 0 35
370 243 224 122 96 63
271 353 233 96 84 73
326 429 301 105 17 37
370 253 224 124 96 61
292 308 289 121 93 64
373 226 231 119 95 68
411 898 315 62 49 37
242 708 158 168 112 80
374 228 233 119 96 68
411 508 290 108 16 38
373 232 227 120 95 64
311 683 198 55 39 43
374 230 230 117 93 63
247 753 164 157 106 70
226 667 242 133 85 70
305 453 137 99 24 29
374 234 229 120 95 64
317 403 228 85 72 57
331 31 271 128 30 49
326 258 238 101 81 57
325 848 198 56 50 49
265 913 304 174 121 108
375 228 238 117 95 68
241 758 173 160 111 76
240 788 178 174 119 83
397 463 310 66 22 30
376 233 238 119 95 67
373 238 226 122 96 66
368 803 168 86 72 62
374 238 228 122 97 66
236 646 196 103 89 74
376 238 233 123 98 68
336 373 227 92 79 66
295 683 315 60 31 35
317 353 263 78 57 42
373 228 249 120 96 69
413 676 295 88 56 33
254 741 205 116 80 60
392 438 313 154 4 48
374 229 247 121 96 68
287 433 150 149 1 34
393 870 257 69 60 56
336 424 123 87 72 55
406 424 168 85 46 36
402 842 254 72 59 50
374 233 248 122 97 69
371 228 253 117 93 64
280 423 151 130 19 32
316 803 168 59 51 48
376 238 243 123 97 68
320 303 258 89 73 54
374 234 251 122 97 67
378 619 247 133 32 49
374 238 251 122 97 67
371 508 312 52 27 31
373 243 226 123 97 65
373 248 227 123 96 64
383 620 275 97 34 37
327 448 119 61 36 32
375 248 229 125 97 64
265 688 182 84 65 53
368 599 217 183 18 55
182 658 284 145 106 80
372 253 227 125 97 62
232 645 227 74 64 54
409 422 301 111 14 38
430 722 252 112 74 54
386 583 303 158 9 48
211 663 288 128 92 75
245 739 279 154 18 54
377 253 238 122 95 62
338 322 231 83 74 65
351 868 178 76 63 58
376 243 248 122 97 67
327 258 258 104 82 61
375 243 252 120 95 65
375 253 253 121 94 60
376 243 243 123 97 66
261 678 139 158 107 73
331 463 113 73 33 39
370 513 362 100 0 33
292 366 226 97 84 70
377 248 243 121 95 64
376 248 248 121 95 64
212 662 259 207 141 120
289 648 310 88 29 40
377 253 248 121 94 61
251 649 208 89 68 57
324 810 181 69 56 46
286 413 153 148 31 30
298 976 245 107 99 99
257 14 273 89 42 40
327 792 316 78 64 59
405 773 229 75 58 45
153 670 315 158 122 99
243 672 145 137 98 61
258 15 270 93 46 44
310 815 191 55 46 42
296 663 314 34 27 30
272 543 272 75 23 34
361 433 137 70 31 39
263 15 264 91 66 58
166 663 313 123 97 79
267 15 260 92 77 65
266 14 263 90 72 61
346 443 308 114 4 35
270 15 260 92 78 66
271 13 263 88 74 63
337 838 179 71 61 60
361 243 268 121 95 65
281 308 244 81 70 58
266 12 273 86 53 49
214 650 263 116 98 82
270 11 273 83 60 53
390 573 298 158 3 48
258 461 276 57 28 31
271 12 268 83 67 58
326 743 168 63 47 37
261 13 288 85 33 35
418 499 182 133 30 46
258 15 287 86 39 34
345 793 159 71 57 46
247 698 182 146 94 73
251 798 176 187 125 92
326 384 214 90 76 62
266 11 278 88 43 43
368 869 145 96 81 69
268 10 283 87 40 40
298 600 314 55 15 25
266 11 288 86 40 39
266 412 168 90 45 39
311 908 302 150 113 84
271 10 283 86 46 42
278 920 224 69 59 53
382 412 333 89 19 36
261 43 273 118 72 66
268 10 286 86 43 39
281 341 236 94 81 69
248 641 230 66 41 38
262 878 301 180 140 116
271 10 288 87 46 40
261 17 263 94 62 55
334 253 265 114 91 66
376 493 163 160 3 34
267 58 276 118 94 71
319 707 172 66 51 44
283 768 291 82 66 60
258 24 259 80 40 35
380 393 278 113 90 63
284 269 286 119 94 66
260 23 258 90 71 58
358 838 154 111 84 64
281 373 222 98 86 74
259 21 261 93 52 43
380 804 215 57 47 48
341 902 290 36 33 33
241 649 228 63 50 37
260 16 267 94 54 50
286 10 308 130 33 51
286 594 388 128 96 81
336 12 268 120 70 76
264 16 262 92 72 62
245 703 152 172 113 83
326 313 235 84 74 64
334 976 258 76 73 74
271 18 257 97 84 71
270 199 281 121 97 70
301 843 283 165 128 106
161 678 333 147 107 89
286 178 258 109 86 60
244 767 209 137 102 70
324 263 248 104 87 70
381 868 238 58 52 50
389 493 343 138 14 44
352 883 207 64 60 63
360 395 301 125 97 70
258 18 288 97 39 45
320 403 268 100 69 57
371 328 268 129 101 69
258 22 287 121 17 42
281 433 152 144 0 34
357 238 269 121 97 68
366 438 140 67 37 41
251 670 218 123 73 64
359 898 234 64 61 65
422 483 203 150 5 44
349 436 100 64 36 30
280 698 149 136 100 69
260 24 289 130 20 48
258 32 277 116 41 51
374 364 276 120 94 64
293 327 290 114 82 57
258 26 282 115 45 48
261 28 283 119 68 64
259 25 285 136 96 85
392 463 323 56 24 30
262 26 287 135 21 51
378 490 360 66 18 34
291 10 273 104 69 44
242 807 184 188 126 94
397 739 316 147 105 80
271 29 289 110 59 53
433 740 240 77 58 47
292 288 284 118 92 63
271 32 287 99 62 51
341 869 170 70 59 57
281 13 263 75 67 59
275 11 267 79 67 58
320 403 228 88 75 63
290 415 158 118 52 39
247 743 278 160 14 54
262 409 209 103 89 75
400 548 291 124 28 47
311 653 208 125 9 29
342 728 192 62 50 42
273 10 270 80 65 57
360 571 190 178 14 46
306 533 147 148 16 41
511 868 258 104 84 65
276 10 273 80 64 55
341 443 102 50 34 42
276 588 179 125 20 39
281 10 268 78 66 56
330 767 175 65 51 45
286 13 263 83 71 59
368 640 251 107 33 37
351 423 305 108 83 58
286 10 269 85 68 53
290 678 310 130 17 45
340 443 305 123 5 39
331 524 142 181 8 42
356 376 226 91 79 66
338 955 325 81 72 69
276 10 283 90 56 45
416 412 298 121 14 41
452 838 274 96 71 48
281 9 283 99 63 46
311 498 134 134 16 39
351 338 288 124 93 64
428 703 256 65 49 36
288 854 281 140 113 89
281 9 288 104 56 45
294 446 146 93 29 28
406 426 162 95 34 33
384 700 270 62 55 51
286 9 278 102 71 48
286 9 288 118 67 60
332 248 262 112 89 64
347 564 317 45 27 26
341 338 293 128 93 66
286 633 309 112 27 44
373 658 299 77 28 30
282 871 300 134 108 80
276 16 261 90 78 65
277 21 256 97 84 71
281 18 259 92 79 66
258 503 170 140 14 39
326 353 287 123 85 67
378 852 140 125 99 76
281 23 257 86 65 49
286 613 318 72 27 36
427 768 273 72 53 42
286 19 259 77 53 35
277 168 269 112 90 65
256 822 193 206 129 98
288 32 256 92 33 25
416 929 308 85 72 66
263 15 296 151 113 118
292 934 195 91 79 76
389 404 239 76 68 59
437 708 268 87 67 48
388 444 363 71 15 28
444 723 293 172 114 85
366 593 208 187 15 46
272 10 293 90 48 41
383 478 324 86 17 32
268 14 301 102 73 61
271 13 302 109 68 54
261 18 293 114 78 68
272 815 186 189 126 95
331 387 212 93 79 64
406 903 267 97 74 69
390 552 194 102 36 45
433 754 262 78 58 46
283 488 155 141 4 31
266 18 298 109 37 45
250 542 258 86 15 32
268 16 301 124 97 89
311 903 299 144 111 81
416 798 243 73 59 52
375 453 308 88 7 31
271 18 302 143 111 100
264 25 290 116 73 62
374 695 210 65 49 42
409 425 231 51 24 28
408 662 294 89 59 32
271 27 293 144 19 55
261 348 299 145 103 78
292 263 247 104 80 54
367 498 162 44 36 39
270 25 295 149 12 58
170 678 322 138 96 85
272 26 296 141 18 54
266 508 278 103 21 39
308 381 260 65 49 34
276 10 293 96 49 42
273 10 296 97 49 43
391 943 335 70 59 49
293 458 145 61 34 39
379 465 310 95 8 32
324 478 290 74 29 38
267 787 262 76 61 56
281 10 298 111 47 45
331 597 347 91 27 40
375 278 248 127 95 61
286 9 293 117 54 53
286 9 298 119 43 49
380 409 292 90 52 45
261 378 227 101 86 70
360 709 321 141 0 43
281 13 308 128 55 57
298 363 285 120 83 65
282 10 307 125 40 50
292 815 191 75 59 52
260 663 204 83 60 46
301 424 301 121 7 39
396 838 278 49 40 35
283 12 311 126 26 49
286 12 312 130 33 51
257 689 186 75 55 41
325 769 325 78 65 61
276 18 303 148 105 89
276 27 293 138 36 56
401 444 141 84 28 36
318 368 233 71 61 50
276 33 287 127 30 50
245 778 228 186 131 100
281 33 287 123 39 52
280 25 300 134 101 78
358 221 265 122 98 70
251 644 173 90 76 62
281 26 297 130 53 58
290 333 297 114 82 58
303 308 268 97 76 55
220 653 233 139 104 78
286 24 299 144 104 82
431 458 278 121 14 37
286 27 293 143 63 70
286 33 287 131 39 56
303 438 140 132 4 33
306 10 270 120 44 29
485 877 273 116 96 76
286 26 297 135 55 58
390 434 333 116 10 37
374 434 406 119 28 46
394 508 318 50 28 32
255 820 191 211 136 106
277 16 306 198 157 163
281 17 307 159 121 104
286 17 308 166 121 118
376 628 293 102 32 43
261 194 281 115 95 73
258 608 267 109 27 42
285 964 310 56 52 52
191 679 323 159 108 96
353 489 141 53 37 41
257 37 272 125 19 44
369 532 367 169 15 54
316 736 341 90 24 40
376 648 309 91 58 54
382 697 272 64 57 53
258 42 271 127 22 47
287 188 258 110 86 59
249 653 234 36 29 30
421 743 319 180 120 90
421 933 333 84 70 58
262 48 273 113 39 50
266 693 208 64 32 37
239 558 202 161 8 41
259 34 275 112 37 44
503 875 280 94 79 63
343 468 306 36 24 25
374 882 240 64 57 55
260 38 274 122 31 48
359 527 392 53 29 31
438 696 271 120 86 60
381 443 383 94 2 32
262 38 277 126 23 48
292 873 240 139 109 79
361 398 301 110 87 62
263 42 276 120 95 76
328 464 115 45 33 35
238 764 192 150 112 79
267 37 282 130 14 47
358 484 415 163 24 58
356 416 163 93 77 60
268 938 230 64 60 61
364 909 225 60 58 61
376 409 208 95 80 64
291 977 298 52 49 49
271 38 283 125 16 45
361 493 311 103 4 33
266 43 278 117 95 75
363 473 151 147 1 33
311 558 159 64 35 38
424 828 244 74 64 57
264 44 275 126 106 85
267 48 277 115 40 51
152 677 318 166 126 102
231 558 223 114 27 43
311 953 219 91 85 86
269 44 280 100 49 45
346 493 307 122 5 38
270 48 280 113 25 43
271 43 282 108 17 38
258 52 266 116 32 48
354 286 225 90 75 58
359 466 145 142 0 27
432 429 289 51 32 33
374 642 274 58 30 33
288 920 215 54 46 48
259 55 265 116 97 79
362 823 188 57 56 57
440 692 277 149 105 72
262 53 272 102 35 41
393 589 238 80 40 46
258 58 263 106 57 56
259 58 265 105 65 58
346 417 153 92 76 59
311 694 332 102 14 36
242 583 198 105 21 32
261 873 300 182 142 120
298 391 212 103 89 76
354 532 165 166 3 37
260 63 268 112 28 45
262 58 272 97 53 45
370 373 288 119 93 63
271 972 254 76 70 71
351 420 148 93 77 60
262 63 272 113 35 45
271 53 279 109 48 51
406 943 337 73 61 52
344 472 128 149 0 36
267 63 276 120 97 74
271 58 279 115 91 69
303 518 145 85 31 36
360 867 172 99 77 66
342 448 306 66 19 31
281 39 285 123 27 46
412 418 300 46 26 30
281 36 286 134 20 49
276 43 283 115 86 66
317 402 253 63 53 47
281 43 283 130 99 77
281 48 282 128 100 76
286 38 285 129 17 48
286 36 286 129 21 47
401 948 333 77 63 52
325 453 122 91 34 36
274 376 221 93 83 72
397 668 304 151 94 84
296 928 308 156 121 94
346 648 319 132 8 39
286 43 283 126 88 71
353 765 182 50 43 41
286 48 282 118 84 66
276 53 281 114 34 44
248 744 201 147 102 78
318 365 230 69 60 52
260 673 217 94 33 39
276 58 280 113 36 47
276 63 279 126 25 48
419 496 180 81 24 30
250 914 294 198 147 132
398 858 264 57 49 46
281 63 278 128 35 52
277 56 281 121 12 43
428 449 157 175 15 44
341 208 264 113 91 67
431 448 288 127 20 44
281 57 281 124 20 46
396 432 298 127 18 45
281 59 280 127 18 47
404 716 310 134 90 71
288 54 280 119 16 43
326 28 273 142 98 80
237 783 198 167 125 93
286 58 278 121 71 65
287 63 274 130 95 76
288 60 275 129 90 74
285 57 281 121 11 45
276 293 243 87 72 57
386 449 147 171 0 33
281 678 207 58 30 37
317 625 350 163 119 96
251 644 158 100 84 69
290 14 264 101 70 46
291 12 268 97 67 43
292 11 271 103 68 43
295 14 269 115 41 21
301 14 270 113 44 39
303 25 278 128 38 53
296 10 274 110 64 39
296 9 288 151 104 110
301 9 278 107 64 49
301 10 283 116 77 72
321 623 325 101 22 38
301 10 288 132 92 95
284 820 260 183 128 108
423 428 266 87 20 30
379 483 338 87 18 33
307 421 142 169 19 18
291 933 309 157 123 100
289 20 260 74 32 24
289 29 259 71 44 29
293 32 261 82 52 37
346 498 403 55 28 33
441 664 275 116 91 60
301 18 269 123 35 37
349 453 123 135 0 35
323 384 215 92 75 61
151 673 334 148 111 95
320 614 367 151 115 94
302 17 271 127 29 26
371 419 158 93 77 60
249 633 222 108 34 39
298 33 267 105 60 51
334 248 265 113 90 65
288 630 355 171 117 101
271 412 183 100 84 69
340 943 224 63 57 60
421 427 168 96 29 33
299 32 273 122 48 57
270 758 284 83 66 60
296 32 287 141 97 86
257 404 219 99 86 73
406 468 153 112 24 38
303 24 283 142 25 56
375 453 343 59 30 35
302 23 288 140 34 57
350 824 310 74 61 57
301 28 278 124 47 55
261 410 178 90 52 38
299 32 278 135 60 66
299 31 282 139 26 52
317 37 266 110 13 36
291 24 298 132 83 70
276 797 175 178 118 85
300 27 288 140 63 67
358 696 205 54 39 32
249 588 254 103 28 42
316 618 358 161 118 96
308 15 259 122 42 28
311 12 263 128 40 30
306 10 273 110 47 31
255 742 208 107 73 55
348 18 274 111 81 66
262 923 244 144 114 86
304 13 271 110 35 22
387 398 253 93 78 63
331 624 338 173 104 91
311 11 268 132 41 32
252 693 228 46 34 37
246 763 208 130 94 65
453 828 282 63 50 37
311 10 273 119 44 35
257 544 265 120 0 37
316 11 263 123 48 42
255 678 273 118 14 40
320 398 268 102 69 57
384 736 220 59 46 41
307 23 258 120 34 29
376 493 309 48 26 30
316 12 258 112 49 40
367 613 227 49 33 36
388 842 236 63 55 53
321 12 258 107 62 53
411 468 294 152 11 47
368 915 261 60 55 58
316 11 268 132 48 44
316 10 273 128 56 54
344 489 305 128 0 37
344 493 305 110 10 37
401 823 279 43 34 30
306 9 278 99 53 40
311 10 278 99 45 35
272 803 258 73 58 53
306 13 288 99 65 61
326 703 338 135 4 40
307 11 285 94 62 57
355 672 228 51 40 43
335 718 173 66 52 40
310 11 285 92 48 45
311 12 288 98 50 45
408 738 231 70 53 43
316 10 278 110 51 50
261 410 174 95 50 38
321 10 278 130 70 75
270 473 161 144 4 31
286 843 253 169 129 103
371 408 208 95 80 64
307 18 258 135 36 21
306 18 263 149 32 27
326 626 346 151 112 89
351 798 323 82 63 56
292 423 145 139 8 34
374 743 215 61 48 44
307 368 243 83 68 50
245 558 192 139 0 33
243 768 219 157 112 80
284 501 281 109 7 32
308 28 258 106 50 46
306 415 287 58 46 30
311 33 263 97 15 35
248 928 268 137 112 97
310 28 268 105 61 56
416 946 320 73 59 47
313 32 267 113 72 62
316 33 268 120 73 68
371 944 308 95 77 66
338 388 296 125 92 68
393 573 294 159 0 49
421 493 289 49 29 31
315 30 270 119 51 59
321 33 269 123 26 48
306 23 278 103 32 40
397 824 313 177 115 86
415 448 218 127 12 42
237 808 198 195 139 111
416 458 268 71 28 31
404 425 374 84 30 39
307 20 284 114 48 53
306 22 283 120 35 48
180 684 306 198 130 113
281 612 190 81 28 37
311 21 282 145 93 79
288 595 385 127 96 79
329 373 290 131 94 73
322 313 278 99 68 47
336 513 137 163 7 37
310 25 274 114 20 44
286 414 149 147 25 33
386 828 228 60 51 50
316 20 285 168 111 96
259 799 240 67 57 51
355 454 425 132 10 43
434 748 252 83 61 48
363 469 151 152 0 29
331 408 178 92 78 63
321 22 282 133 93 74
296 9 293 152 100 108
266 903 307 174 127 110
385 418 348 121 7 37
291 9 298 128 53 64
234 530 211 45 34 36
325 694 139 116 80 43
291 10 303 127 37 54
266 278 241 130 96 62
200 669 272 191 126 103
296 10 303 126 48 60
311 958 222 92 86 89
259 871 266 130 111 95
300 10 293 150 103 110
251 703 223 93 28 40
429 448 196 133 16 43
353 186 260 119 97 74
299 10 298 137 77 85
299 10 302 129 59 68
311 413 163 101 85 67
375 283 243 124 93 59
240 645 223 77 63 53
290 10 311 137 30 55
377 453 312 103 8 33
356 588 198 94 32 40
297 11 308 122 40 52
354 447 134 150 0 36
240 723 243 156 1 44
300 13 308 113 53 50
346 414 163 91 76 60
299 14 311 110 56 48
290 20 304 175 131 111
292 21 302 161 116 94
347 574 186 89 27 37
296 24 298 161 110 91
266 338 239 98 84 70
296 22 303 172 119 104
291 27 293 139 43 58
277 410 184 104 88 72
407 923 288 100 86 83
299 353 286 120 83 64
291 33 287 136 43 60
323 274 253 96 80 62
297 25 295 149 23 56
361 488 388 50 25 30
294 26 296 156 25 61
391 432 141 75 50 44
341 283 227 87 74 60
376 712 210 60 46 39
272 148 269 119 94 66
283 100 259 132 64 63
274 290 301 110 89 66
375 283 248 125 94 61
301 23 293 144 23 54
299 21 302 167 115 95
345 928 224 74 67 70
301 18 303 162 112 99
299 26 291 148 13 56
411 717 238 78 59 48
296 20 309 214 158 170
318 406 208 96 82 68
345 597 200 79 35 40
293 21 306 185 136 133
196 663 273 152 107 79
295 21 307 232 183 201
300 18 308 163 116 100
299 16 311 130 96 71
361 778 330 196 141 113
304 14 293 138 77 84
361 438 309 75 29 29
406 543 289 68 27 34
316 928 308 48 46 46
312 14 292 122 73 63
304 14 296 123 51 55
405 813 248 70 58 53
323 288 243 84 71 58
321 10 293 139 40 58
399 437 306 157 5 51
321 14 294 131 24 49
312 17 292 157 108 97
411 423 258 95 15 31
390 433 323 144 4 40
304 16 296 108 64 47
336 647 328 153 11 51
316 18 293 175 122 118
385 563 322 70 28 36
360 818 183 56 54 57
361 417 163 92 77 60
320 17 292 158 101 87
317 16 296 137 83 71
292 38 257 123 27 28
279 92 271 121 14 44
481 888 294 86 72 59
294 35 260 107 13 22
307 458 135 93 34 36
296 38 263 127 24 41
271 938 308 192 148 129
230 667 233 118 76 61
352 928 232 58 52 55
292 48 258 96 47 48
210 677 288 172 120 105
276 317 241 87 74 62
376 598 318 146 7 45
294 47 263 114 31 43
363 275 226 114 89 59
394 503 327 128 14 42
295 43 268 118 61 61
311 528 142 93 26 39
295 43 273 130 74 69
224 658 208 148 105 75
294 47 268 116 87 72
321 478 289 85 23 36
294 47 272 131 94 78
376 661 331 166 104 84
297 38 268 126 28 48
292 35 285 141 113 95
340 782 174 81 64 56
348 555 360 38 28 28
317 402 238 74 63 50
191 680 318 163 109 98
289 442 294 101 21 38
368 594 339 114 21 43
283 831 241 190 145 116
291 38 284 128 36 53
364 546 371 103 27 43
411 417 203 47 37 31
295 37 282 126 27 48
281 644 207 121 17 34
278 817 257 174 126 106
358 260 221 114 89 59
297 38 278 126 26 49
359 188 256 118 95 70
302 643 316 66 29 35
292 48 278 123 50 59
258 718 210 90 19 38
295 42 278 128 44 55
356 338 283 122 92 59
382 373 253 121 96 67
345 863 187 64 56 57
401 423 168 88 61 46
266 688 141 157 105 72
293 49 274 125 94 78
290 47 281 114 22 41
321 693 138 107 71 42
315 488 285 47 28 30
258 352 296 138 100 76
320 343 238 70 60 51
294 41 281 130 11 48
292 53 258 121 33 48
279 473 288 66 24 31
293 53 263 124 14 42
318 313 251 82 71 60
293 50 268 119 84 69
271 369 225 95 84 73
293 53 268 126 16 44
292 58 263 116 22 43
336 644 323 158 11 52
433 438 278 99 26 38
271 623 378 125 78 68
290 58 273 121 82 68
216 671 263 203 134 112
288 292 290 117 92 62
291 63 268 111 76 60
276 968 303 59 55 55
279 305 306 116 90 61
311 38 258 83 12 29
312 43 258 96 62 54
316 38 264 109 6 37
411 828 263 67 55 49
273 695 195 96 44 41
314 35 265 97 26 34
273 787 271 76 61 55
321 37 267 124 6 44
336 338 233 79 70 61
316 43 263 105 19 39
385 513 313 54 24 28
370 243 258 119 93 62
331 421 133 83 67 50
296 423 143 136 11 31
261 113 268 117 96 75
352 498 394 57 25 30
262 422 286 129 92 72
365 547 314 93 8 31
354 511 150 76 36 37
312 48 257 100 48 50
331 713 148 85 62 47
278 875 250 105 79 47
316 48 262 103 18 37
264 479 166 143 20 40
321 318 238 73 64 55
269 692 295 55 26 30
392 473 318 89 22 35
316 922 305 50 46 44
302 318 248 84 70 54
280 702 310 59 27 32
321 43 264 126 91 73
385 829 213 52 43 47
317 934 206 87 79 81
313 52 257 104 13 37
287 903 225 134 91 60
315 53 259 113 34 48
291 363 228 95 83 70
256 677 187 83 60 43
357 885 134 91 69 58
317 52 261 114 5 42
236 658 158 119 92 60
341 406 187 93 79 66
321 52 261 117 53 53
346 288 227 79 68 58
321 54 260 116 21 44
385 518 353 178 5 56
316 57 257 125 87 73
221 672 258 195 126 106
257 73 263 111 30 45
243 718 159 168 111 80
258 68 266 108 93 75
263 68 271 113 15 40
374 323 248 111 89 64
295 583 300 121 5 38
263 73 271 113 18 40
259 74 265 109 36 40
261 78 268 105 38 45
298 524 276 83 10 30
355 863 170 93 76 66
263 76 271 106 26 40
266 73 273 117 15 42
316 405 188 101 86 71
266 68 274 112 33 45
451 714 242 102 76 54
268 67 276 109 64 56
271 68 276 116 26 46
414 746 240 63 50 45
276 903 313 175 130 109
259 82 265 98 15 35
446 678 273 154 115 81
378 473 343 78 20 36
261 88 268 103 52 50
261 243 290 122 98 72
260 449 280 45 25 30
258 93 266 111 23 40
292 228 258 109 84 55
413 710 222 83 60 47
336 479 117 108 28 39
260 93 269 112 25 44
263 90 271 107 52 44
431 463 283 122 15 38
261 348 239 101 86 71
324 302 274 99 71 52
263 93 271 111 31 44
275 750 294 81 65 59
337 243 267 112 89 64
305 798 182 57 47 45
264 83 270 112 93 73
332 622 335 152 71 67
267 83 272 106 76 62
269 640 295 139 23 47
266 88 272 106 64 54
281 288 244 82 67 52
271 83 274 112 28 43
374 892 286 37 34 33
233 676 164 181 121 90
336 627 348 129 97 73
271 93 273 116 61 58
449 925 313 104 84 70
378 513 338 130 1 39
387 713 223 56 44 41
271 158 272 116 93 67
288 69 269 120 47 54
422 454 152 173 15 41
419 473 213 145 5 42
286 68 273 121 71 64
285 411 177 105 89 72
359 826 185 58 55 56
288 73 263 127 88 72
298 336 285 116 81 58
287 78 258 135 23 52
397 902 269 100 87 85
286 858 248 168 127 99
281 78 272 113 54 52
287 743 318 165 19 57
261 448 163 136 5 31
360 478 417 92 26 39
284 77 271 124 13 46
301 417 293 62 48 33
276 68 277 118 58 57
361 653 338 200 136 110
371 438 141 74 39 41
276 72 276 126 99 74
281 68 277 124 28 49
409 445 236 85 0 28
408 805 287 116 75 54
279 71 276 121 89 70
279 690 150 117 91 62
321 303 238 81 70 60
301 418 158 115 67 49
276 74 275 124 96 70
276 78 274 120 97 71
281 73 274 116 67 58
276 93 272 121 44 53
291 957 223 89 84 87
281 93 268 121 34 50
439 906 306 78 63 54
300 303 278 114 89 61
278 95 270 117 57 53
311 403 208 99 85 70
286 83 258 126 10 43
296 945 212 93 86 89
286 866 290 116 93 68
284 88 263 107 55 49
331 258 263 110 88 64
301 898 304 161 121 94
328 275 266 106 84 61
280 83 272 120 22 46
336 591 356 87 31 40
291 401 192 104 89 74
283 84 269 121 77 64
372 822 195 59 53 52
284 82 267 122 85 66
284 88 266 117 87 66
371 763 193 60 49 44
283 94 265 124 17 44
296 322 244 83 70 56
276 88 273 125 17 45
406 908 268 88 68 57
263 96 271 112 85 66
244 619 222 80 33 37
326 588 184 193 9 43
451 709 237 94 71 55
258 104 266 119 100 80
374 437 406 158 21 52
331 476 115 141 19 41
301 718 194 95 16 26
345 813 165 105 75 50
258 108 266 116 97 77
311 473 288 36 26 28
258 258 291 121 94 67
261 108 268 116 96 74
381 453 363 119 10 40
334 272 270 109 86 61
364 512 371 94 12 33
271 98 272 124 100 74
266 108 271 115 93 69
256 669 213 90 56 48
264 113 270 115 93 70
356 768 333 193 148 120
266 113 271 117 94 69
377 343 258 122 96 66
258 118 266 111 92 72
340 972 258 76 71 72
355 369 225 87 77 67
261 118 269 115 94 72
252 606 200 115 17 35
257 123 267 112 93 73
277 448 155 141 1 35
391 743 313 137 96 74
238 723 248 156 0 44
418 488 290 35 28 31
376 888 253 59 57 58
264 116 270 116 94 70
266 408 203 102 88 74
266 118 271 117 94 69
270 118 271 125 99 72
272 118 270 127 98 71
266 123 271 116 93 68
269 123 271 124 98 70
227 653 243 87 63 46
289 921 212 56 50 53
275 778 278 80 63 57
234 572 238 134 9 41
272 123 269 123 96 69
302 594 323 58 22 25
269 128 271 122 96 68
272 128 269 121 95 67
456 818 277 86 71 60
280 103 263 132 97 76
275 98 271 129 101 75
274 102 271 128 99 73
261 948 298 186 138 121
336 404 188 93 79 66
311 463 132 49 35 39
320 617 200 43 30 38
406 568 263 175 13 48
277 99 269 133 100 76
257 223 286 118 96 72
280 97 267 129 77 68
279 102 266 134 98 78
279 108 262 126 93 70
357 343 284 115 89 58
285 453 152 86 26 37
265 938 304 193 151 132
258 622 204 38 29 36
273 104 270 127 98 71
273 108 270 128 100 73
285 703 158 91 73 54
276 113 268 128 96 71
305 803 293 192 139 121
246 753 263 74 31 41
292 723 328 67 28 36
372 478 393 73 23 36
281 103 258 135 92 73
326 27 278 138 42 57
387 708 223 63 49 41
310 609 377 148 111 91
284 97 258 130 16 43
284 97 262 129 8 44
278 118 258 116 87 62
386 883 282 46 41 38
277 118 263 120 91 65
446 928 323 94 75 60
278 123 258 114 86 60
345 957 288 79 72 75
276 123 263 118 89 63
171 653 303 128 95 81
276 128 263 116 88 62
237 583 229 67 28 34
275 122 267 122 94 66
423 453 205 142 2 43
411 433 148 110 11 28
290 68 258 103 66 56
290 68 263 123 42 52
330 888 282 88 68 57
258 390 225 102 86 69
355 878 212 55 51 53
357 803 178 75 60 51
328 416 151 81 68 54
331 624 358 149 118 94
289 72 258 115 64 59
301 418 143 153 15 25
289 71 263 126 85 68
318 375 225 84 68 54
376 653 312 122 83 76
316 823 203 50 42 41
341 698 329 140 3 42
253 638 263 82 31 37
288 74 258 122 73 65
252 588 190 138 7 34
419 517 286 46 29 31
326 12 258 102 71 64
352 878 159 102 83 72
413 478 239 50 29 32
322 11 271 142 80 85
378 625 289 102 34 44
320 409 268 87 62 52
332 362 230 80 70 58
326 11 268 134 84 90
202 650 273 104 90 77
326 11 272 148 95 103
359 425 134 75 65 54
453 694 293 174 119 88
251 883 273 168 126 102
331 13 258 100 71 65
336 13 258 99 65 59
380 553 338 163 19 53
326 10 278 148 87 96
403 565 231 43 27 34
318 406 218 91 77 64
363 798 326 180 139 111
326 10 288 143 49 66
329 10 275 155 102 112
336 11 278 151 102 112
295 384 219 103 89 75
419 438 211 141 3 45
349 473 135 137 4 33
330 10 283 152 82 94
174 670 296 170 114 93
356 616 337 154 5 47
267 399 209 103 88 73
332 11 283 155 90 102
250 723 289 171 0 54
279 130 256 112 83 58
382 483 374 174 5 55
336 13 288 149 63 80
320 541 150 192 8 41
