ply
format ascii 1.0
comment Created by Open3D
element vertex 2223
property double x
property double y
property double z
property uchar red
property uchar green
property uchar blue
end_header
333 525 293 58 25 30
346 505 298 136 16 42
406 844 246 41 35 30
419 701 159 71 52 47
351 500 309 38 27 29
452 754 168 76 56 43
353 505 312 128 19 43
431 690 251 84 25 35
353 510 312 149 17 46
333 660 207 129 2 30
383 450 288 38 24 28
430 892 240 57 49 50
305 940 247 56 53 54
365 453 294 116 18 43
403 585 181 61 35 39
366 949 316 61 57 57
352 845 157 126 99 93
365 455 297 93 19 35
366 456 295 139 15 41
305 942 238 65 61 61
364 455 302 87 20 37
261 807 284 186 132 107
366 464 296 141 14 43
485 521 201 182 19 47
429 640 252 170 8 55
369 465 293 137 12 41
365 460 298 143 14 42
400 916 220 75 65 65
505 825 192 104 86 71
364 460 302 144 14 43
308 569 174 177 15 43
427 759 276 85 56 55
311 607 299 144 26 50
365 465 298 121 16 39
364 465 302 125 16 40
355 450 315 145 16 47
337 755 200 78 34 38
333 585 301 135 20 45
355 465 315 151 18 48
358 460 316 159 18 50
483 840 238 97 85 77
363 450 312 66 27 34
364 455 307 125 19 41
361 454 315 150 18 46
364 460 307 152 16 47
414 846 297 52 42 35
363 465 312 151 18 46
361 465 315 154 17 47
284 589 204 127 24 43
368 470 293 127 14 40
365 470 298 113 20 40
263 535 192 53 29 33
369 480 293 29 26 29
364 475 302 57 26 32
285 608 214 189 12 49
364 480 302 83 27 36
358 475 315 68 24 32
475 806 238 104 76 59
308 690 292 51 26 30
358 575 171 183 5 39
470 791 239 149 107 84
358 480 315 53 28 31
363 470 312 117 21 43
472 809 198 104 73 55
364 470 307 41 25 30
361 469 315 154 18 50
362 475 312 77 25 36
362 480 312 65 29 33
373 465 291 91 18 35
313 845 247 104 82 73
378 450 288 65 21 31
380 463 289 36 26 28
444 755 253 130 88 67
378 470 290 53 23 30
479 625 226 151 109 73
381 467 290 33 27 30
382 470 290 78 20 33
384 470 289 101 20 38
378 475 291 126 14 39
352 958 321 68 62 60
327 847 230 160 108 85
261 796 255 180 121 90
272 550 222 71 32 37
366 485 296 89 20 36
329 974 242 90 86 90
365 485 302 96 26 40
367 495 296 134 14 44
358 490 314 40 28 30
480 788 223 72 53 40
329 800 203 70 55 49
357 492 315 40 27 29
360 495 314 87 24 35
377 845 271 116 93 74
364 485 307 70 27 35
364 773 144 100 71 49
362 485 312 50 29 33
364 490 307 86 26 37
255 760 254 166 114 84
272 540 212 91 20 36
362 885 306 75 63 51
364 495 307 104 24 41
392 425 280 92 17 32
365 498 299 90 14 28
367 500 297 137 12 43
373 600 298 48 27 31
365 500 302 144 18 45
275 595 252 65 30 36
368 505 297 143 8 43
412 742 147 55 46 41
365 505 302 137 15 44
366 502 300 147 14 43
366 505 300 148 13 47
323 820 216 78 62 53
408 705 191 65 39 41
365 510 302 151 12 46
358 500 314 113 23 42
408 585 182 65 37 40
357 498 315 86 26 37
433 525 182 126 15 34
408 846 336 63 49 37
362 753 144 74 57 48
358 505 314 148 19 49
353 976 292 65 61 60
362 500 312 51 28 32
373 490 292 134 10 42
404 530 165 43 37 42
301 748 294 53 18 24
378 485 291 132 11 41
280 588 204 124 29 40
383 485 290 137 6 43
317 895 257 131 104 78
398 300 268 128 99 66
378 490 292 134 6 41
383 490 291 137 6 42
423 530 176 88 26 39
370 500 294 140 5 43
368 549 159 107 32 40
370 504 294 139 3 43
373 505 294 137 1 42
378 505 293 137 4 42
336 863 272 81 63 41
416 405 270 128 97 67
430 690 253 73 26 34
378 510 294 137 7 42
478 585 251 166 118 87
392 270 259 118 93 66
398 260 259 133 103 72
305 920 272 154 123 99
398 265 259 130 99 69
427 875 212 80 70 70
398 270 260 126 99 68
369 742 148 78 57 47
485 632 242 164 115 80
468 635 254 184 134 104
388 275 258 117 94 69
416 894 222 64 57 57
338 854 187 40 36 35
393 275 261 123 96 70
388 285 262 107 86 64
385 286 260 105 84 61
477 760 173 79 62 47
393 285 263 111 89 66
370 600 299 60 28 32
398 275 261 125 96 68
348 765 177 43 38 37
398 280 262 120 95 67
398 285 263 118 94 68
484 763 232 139 98 64
405 280 259 125 92 63
403 285 262 118 93 64
405 283 259 122 95 60
388 290 263 106 86 64
458 690 218 110 86 56
388 300 267 115 90 64
388 305 269 112 87 62
393 300 268 117 93 66
393 304 269 118 91 64
398 305 269 132 95 65
385 311 270 114 88 62
364 525 156 138 1 30
388 315 272 118 90 64
378 715 182 66 35 38
396 307 270 127 92 66
272 705 255 117 90 58
278 735 297 173 122 95
399 310 269 121 88 60
338 786 199 59 49 46
349 765 182 53 45 43
398 320 271 134 90 66
393 320 273 130 91 67
310 925 242 53 50 52
407 290 261 121 94 61
265 520 261 45 30 32
407 295 262 127 97 61
402 295 265 127 98 64
403 300 266 134 98 65
406 315 262 124 89 57
473 805 202 121 85 63
422 660 218 50 34 33
406 320 262 129 91 60
404 320 267 133 93 65
401 320 270 137 95 69
405 314 264 124 89 58
406 320 265 132 94 65
398 330 271 135 92 67
311 533 154 182 6 33
388 330 274 132 93 71
439 529 178 107 17 36
264 520 222 62 30 35
388 335 274 132 95 70
393 330 273 136 93 67
378 745 132 106 78 54
295 530 172 119 8 36
393 335 274 134 94 65
452 701 182 76 64 52
378 589 179 50 37 40
448 823 288 70 57 46
283 745 298 178 128 100
393 345 274 142 96 72
388 350 274 141 99 77
393 350 274 143 97 73
462 794 246 105 79 62
398 350 272 141 97 72
519 845 207 89 78 68
403 325 267 136 93 66
376 909 204 59 53 56
401 323 270 143 98 74
426 544 271 135 26 47
400 326 269 140 96 70
406 325 265 131 93 61
403 330 267 133 93 65
406 330 265 128 91 59
384 890 296 35 33 36
406 335 265 129 94 61
408 340 262 129 94 61
355 948 214 80 76 79
404 345 268 135 97 69
402 350 270 139 100 73
409 350 262 121 92 59
333 605 301 89 24 39
410 340 258 126 96 61
410 345 259 122 93 58
303 546 160 115 30 40
283 825 287 205 148 124
448 545 267 45 28 31
411 351 260 119 92 58
318 897 315 135 105 85
388 355 274 143 101 79
426 754 280 72 34 39
388 360 274 144 104 78
398 635 287 93 32 42
393 360 274 145 101 75
311 678 220 44 36 39
398 365 273 141 100 73
434 505 272 95 25 39
388 375 274 141 103 75
393 370 274 143 103 74
398 375 274 139 100 71
497 756 140 102 78 54
394 384 275 142 101 74
373 635 198 63 30 34
393 871 191 65 57 58
398 385 274 140 101 71
404 355 268 132 97 66
412 665 276 116 18 41
402 360 271 136 98 69
326 833 270 95 72 59
407 355 266 125 94 62
408 360 267 126 95 63
272 730 294 172 119 93
403 365 271 135 97 69
483 830 240 81 67 55
436 574 275 96 42 49
410 354 263 122 94 60
303 615 296 99 30 42
415 358 259 123 97 66
414 365 263 125 96 62
412 365 266 126 97 63
448 835 306 77 60 48
409 370 269 129 97 66
373 589 178 142 17 41
368 595 301 169 17 54
413 375 267 131 99 67
411 377 270 134 97 69
413 380 268 134 99 68
475 575 250 147 107 84
411 380 270 135 99 69
414 385 268 135 101 69
403 375 273 137 100 69
406 843 268 35 32 31
403 380 274 139 101 70
417 365 261 125 97 64
306 602 200 189 7 41
418 375 262 130 100 66
420 374 259 129 99 66
419 380 263 131 99 66
398 851 337 62 49 38
348 710 197 76 31 34
421 376 260 129 99 66
363 874 193 73 66 68
426 514 281 69 34 39
297 665 252 70 31 36
422 385 261 129 100 66
351 933 334 46 42 42
315 907 254 120 98 78
388 390 274 138 99 75
393 390 274 136 97 71
333 865 308 173 135 114
344 841 167 89 76 64
473 740 232 157 103 72
388 395 273 126 92 66
476 809 208 94 71 53
393 395 273 123 89 62
398 395 273 125 92 61
262 600 281 148 108 78
398 400 274 117 88 58
283 615 242 84 33 39
388 405 274 94 72 50
388 407 275 86 67 46
388 410 276 83 45 36
397 940 291 51 46 45
398 404 274 116 86 58
396 914 306 51 46 45
398 410 276 96 55 42
481 530 244 108 83 66
412 390 270 134 99 68
400 611 294 89 26 38
415 390 269 133 100 66
415 395 269 133 99 67
271 557 261 149 8 42
403 400 273 123 91 61
294 575 187 78 23 34
293 625 227 69 33 40
388 965 277 67 63 63
442 690 248 97 55 45
413 405 272 126 95 64
459 821 207 176 116 91
413 410 273 100 76 55
453 849 228 87 68 61
485 626 236 160 114 79
403 410 276 99 53 43
358 560 162 163 16 43
271 655 271 167 115 87
256 545 302 174 124 103
408 410 275 96 60 47
409 408 274 118 92 65
412 411 275 59 46 37
409 679 284 130 14 41
307 640 289 166 33 55
413 415 275 52 33 34
388 735 142 71 54 43
414 413 274 70 33 34
387 417 280 111 17 34
354 830 162 91 70 58
413 540 172 75 34 41
388 420 280 115 17 36
396 465 285 92 22 34
388 430 281 58 23 29
328 640 297 90 21 35
392 430 280 95 23 36
398 420 279 107 21 37
398 425 279 93 25 36
393 435 281 41 27 27
393 440 282 30 28 29
388 445 286 84 22 34
308 780 211 73 58 49
391 447 285 44 23 25
277 585 227 159 2 42
394 433 279 41 26 28
399 434 279 39 29 29
426 793 260 62 50 43
398 440 281 36 29 29
403 420 278 107 21 37
408 420 277 54 28 29
483 610 227 150 109 73
435 630 225 66 36 36
408 425 278 73 25 31
408 430 278 89 27 35
413 420 276 55 28 31
388 799 173 72 58 54
403 435 278 54 29 31
481 625 229 154 110 75
333 680 206 108 14 28
404 440 279 65 28 34
460 821 256 91 65 52
408 440 278 99 26 40
398 575 301 169 13 53
405 444 279 37 29 30
425 862 294 63 49 38
273 775 236 134 96 59
403 445 281 36 29 30
413 440 277 126 16 40
421 396 265 134 102 67
421 401 265 135 101 69
405 936 241 60 55 53
425 394 259 129 100 67
426 396 260 129 100 65
433 755 167 73 55 45
418 405 268 132 100 69
419 409 269 125 97 69
417 411 271 107 66 49
423 410 267 121 90 64
421 412 270 104 44 37
424 415 269 127 31 41
272 565 197 120 28 44
428 410 262 134 106 75
430 413 259 133 106 75
429 414 263 122 56 49
443 704 175 109 79 53
426 412 265 120 92 66
427 415 266 130 31 42
416 416 275 120 30 39
422 420 271 138 17 45
306 754 210 126 13 30
286 560 300 121 45 49
432 425 262 136 12 41
425 420 269 139 16 42
428 425 267 137 10 41
487 570 250 176 121 89
430 424 264 136 12 39
434 440 262 70 28 34
342 814 280 138 102 84
428 430 267 136 9 42
426 430 270 136 11 42
431 427 265 136 8 45
433 430 262 136 11 42
431 430 265 137 9 41
343 540 297 83 21 33
417 425 275 109 27 42
389 881 298 32 30 29
429 435 268 136 13 42
286 723 245 94 25 33
427 440 271 137 11 42
381 958 295 59 56 55
476 776 250 96 74 61
434 435 262 134 16 41
383 696 194 54 37 36
423 790 178 64 47 39
353 620 303 112 32 48
429 440 268 121 17 40
313 790 293 47 41 40
432 445 267 63 26 34
430 444 269 75 21 34
355 741 168 48 39 38
418 435 275 70 22 34
294 700 242 108 15 35
323 545 297 37 28 30
471 721 219 115 88 54
420 435 274 116 22 41
418 440 275 141 15 42
421 442 275 141 11 43
424 445 273 140 11 42
301 656 241 159 2 42
435 445 262 70 28 36
383 895 297 37 35 36
436 445 260 91 32 41
388 455 287 44 26 30
392 450 285 69 27 34
393 460 286 57 27 32
393 465 286 85 27 36
368 579 173 186 6 38
388 707 162 61 42 40
394 450 284 68 27 33
396 460 285 70 25 33
443 824 287 81 66 52
343 565 172 105 28 40
398 465 284 72 24 31
388 470 288 111 20 39
280 530 312 150 101 83
388 475 288 131 14 41
388 480 288 137 9 42
443 840 277 59 47 40
398 475 285 116 19 40
347 591 186 92 35 41
428 610 272 99 25 41
398 480 286 134 16 43
357 914 204 67 61 64
408 450 278 112 23 39
409 455 279 63 27 32
343 650 299 177 6 56
403 450 281 61 26 31
442 595 208 35 32 37
403 455 281 53 27 30
432 559 273 81 10 27
406 450 280 82 27 34
403 460 282 46 29 30
409 458 279 38 28 28
413 461 280 85 27 36
452 880 267 72 62 58
413 465 281 121 21 40
403 480 286 78 17 31
408 475 285 101 23 37
430 860 289 56 47 40
413 470 283 48 29 31
488 830 226 101 82 68
338 950 216 85 78 80
415 479 284 150 20 49
393 490 288 138 13 42
398 713 137 89 64 48
403 485 287 144 16 45
440 892 267 67 57 53
417 749 153 73 56 47
403 490 288 94 20 35
440 600 249 162 13 52
413 485 287 115 19 40
469 685 248 178 122 95
413 490 288 79 28 36
483 795 204 105 80 63
390 493 289 138 10 41
362 744 157 63 51 48
303 565 298 150 18 47
393 494 289 138 14 42
393 496 290 143 14 45
354 983 239 68 62 63
388 500 292 142 11 44
388 505 293 148 10 44
257 795 267 180 123 96
440 739 249 60 46 46
393 500 291 140 14 42
348 854 157 103 86 76
388 510 293 151 9 46
393 510 292 105 21 39
408 725 298 66 33 39
265 680 282 146 101 71
398 497 290 103 18 36
398 510 292 68 28 36
403 494 289 34 30 32
405 861 292 45 38 34
298 675 247 55 31 34
408 490 288 105 22 40
413 495 289 65 29 34
445 887 273 62 54 50
359 911 205 65 61 63
403 500 290 114 23 42
408 500 290 84 29 38
412 501 290 85 23 34
413 505 290 74 27 34
305 892 282 154 116 92
318 915 237 99 73 59
428 455 272 139 19 45
332 708 314 39 32 34
433 460 267 143 15 44
278 640 306 179 129 101
429 465 273 133 16 42
262 795 288 172 122 94
418 450 276 143 14 42
498 799 207 116 94 78
326 880 207 41 37 36
454 714 195 76 61 48
418 455 277 77 23 32
292 545 182 72 26 34
301 745 215 39 36 44
342 935 319 91 72 61
323 720 313 158 20 52
422 450 275 139 13 42
449 831 207 108 77 68
422 455 276 74 20 33
465 801 195 129 85 61
418 460 278 80 29 36
288 570 196 91 31 39
418 465 280 64 26 33
425 458 274 89 18 25
273 740 247 126 94 61
426 460 275 121 27 48
423 475 278 147 14 44
426 470 275 143 15 44
331 861 247 163 111 82
318 583 184 191 8 40
390 650 289 35 29 33
436 450 261 69 22 31
456 828 214 174 115 95
327 811 210 75 59 52
437 455 261 101 23 39
353 860 177 65 58 57
438 470 262 88 22 36
476 674 234 160 111 80
437 460 262 94 22 37
518 842 242 89 73 59
440 465 258 99 28 39
438 465 262 90 22 37
436 465 265 144 13 44
527 836 168 100 82 67
436 470 265 148 14 43
438 475 262 136 15 43
525 847 163 90 82 77
438 480 262 140 12 42
436 475 265 148 11 45
436 481 265 141 10 43
440 470 259 63 22 32
417 486 285 47 24 30
418 490 286 35 28 31
419 489 284 32 29 30
418 495 287 44 28 31
447 847 271 46 37 33
306 627 220 188 8 45
421 492 285 33 30 32
282 620 262 76 26 36
428 485 277 65 25 31
295 706 233 97 24 36
275 579 233 156 1 40
305 940 282 179 139 117
432 485 272 99 21 37
463 775 248 118 84 63
431 487 275 39 31 27
433 805 256 76 60 49
434 490 272 42 29 31
436 779 260 80 62 52
431 490 276 50 29 32
427 491 280 58 30 34
427 495 281 39 29 31
418 500 288 90 26 38
422 500 286 42 27 29
430 500 279 43 29 32
432 500 276 44 31 34
403 800 266 65 51 45
431 505 276 37 29 32
513 830 192 107 91 75
430 505 278 40 30 33
427 500 281 49 30 33
426 870 290 49 43 41
433 510 272 115 26 43
435 485 268 140 17 44
434 495 273 49 30 31
440 490 263 146 12 44
436 491 270 34 29 31
277 595 310 167 120 90
441 482 260 137 11 40
441 490 261 150 10 45
436 500 270 35 27 31
469 546 243 43 26 28
441 500 261 133 16 41
445 510 258 39 30 33
458 740 179 46 34 29
413 660 211 65 32 31
442 510 262 37 30 32
356 888 194 72 63 63
416 505 290 71 27 35
419 510 289 81 29 37
302 740 216 99 20 33
368 680 198 47 35 37
254 760 257 167 114 85
458 655 223 107 83 57
254 765 257 172 119 88
387 830 261 112 88 72
298 545 296 139 15 44
254 514 298 187 140 121
265 590 278 128 96 65
410 571 180 158 3 28
255 520 299 156 114 93
452 799 183 71 53 44
287 790 226 61 51 49
389 606 299 180 29 61
254 525 302 157 119 96
255 515 310 162 120 96
255 520 307 159 120 96
511 839 251 83 68 58
255 530 299 153 111 90
253 530 302 172 124 106
304 690 223 75 33 38
254 535 302 181 130 111
300 675 242 55 31 35
255 539 299 173 127 103
307 625 294 171 29 59
254 530 307 174 127 107
255 539 306 178 126 106
398 621 195 101 30 40
446 585 217 112 12 35
255 741 267 148 104 75
255 745 267 154 105 77
255 742 270 152 104 74
255 745 272 159 108 77
412 584 184 48 36 40
438 870 227 79 66 64
255 750 258 154 108 79
337 660 299 162 16 50
255 750 276 165 112 85
253 765 262 171 118 89
399 905 307 52 46 46
254 770 262 174 119 92
467 705 246 182 127 98
254 770 272 170 117 88
254 775 267 172 118 90
350 751 177 47 40 35
464 840 242 80 64 56
255 775 272 171 118 88
418 555 272 142 14 44
255 780 267 173 119 90
463 533 217 104 28 39
255 780 272 173 120 90
255 783 267 174 119 91
255 775 277 169 117 88
255 770 280 167 116 88
445 882 255 69 59 56
318 535 297 150 21 48
439 596 206 38 33 39
263 515 175 136 10 33
319 886 306 130 57 71
268 515 175 74 25 34
273 515 176 136 4 33
258 515 182 163 2 43
260 519 178 127 14 36
260 520 186 145 6 42
262 514 189 140 2 40
261 520 188 142 3 43
263 520 191 119 7 38
349 755 167 47 39 37
264 524 178 81 32 35
260 523 183 57 27 32
428 730 142 84 63 49
263 525 192 75 23 32
403 540 166 80 33 39
468 770 247 126 91 66
268 525 177 58 33 36
358 855 176 65 56 54
451 544 214 103 28 41
262 530 187 68 31 35
397 959 252 63 57 55
264 540 188 64 29 34
267 531 180 61 34 35
368 982 247 73 68 70
273 535 181 120 21 37
438 890 252 87 72 66
358 660 200 85 26 34
268 540 183 108 23 38
466 735 169 80 62 48
273 544 184 166 1 36
265 544 188 84 21 38
423 860 302 58 46 40
268 545 187 152 10 40
265 544 192 145 13 46
277 590 232 161 6 45
345 725 314 182 2 59
278 515 176 142 2 34
330 896 222 46 42 44
278 525 178 97 27 36
288 520 178 143 5 34
460 825 243 91 65 53
273 685 262 128 94 59
288 527 180 148 5 32
295 516 173 128 11 37
277 544 184 166 2 35
283 670 298 166 126 99
283 535 183 106 18 36
288 535 182 144 6 33
329 866 267 99 76 52
278 546 186 163 2 36
334 955 322 43 40 41
288 740 297 179 124 99
447 765 167 84 61 52
448 690 251 131 92 73
493 525 217 193 120 104
281 543 184 161 0 36
438 755 267 85 31 39
288 605 301 160 117 92
283 545 186 151 3 33
289 624 228 162 37 56
427 573 280 166 9 51
365 525 304 145 13 43
470 754 181 73 56 45
284 542 185 158 0 33
378 560 166 170 5 37
288 542 185 144 7 39
266 546 192 174 4 47
269 550 188 175 7 41
270 570 242 165 0 43
267 550 192 179 4 46
353 735 308 185 12 59
273 546 185 168 3 38
273 550 186 163 7 39
368 810 162 83 66 57
324 567 180 88 26 35
273 554 189 94 20 36
272 556 191 155 13 42
438 730 161 71 54 40
278 550 187 134 15 36
278 554 189 80 29 35
278 560 191 106 28 39
377 955 301 54 52 54
283 550 188 146 8 35
299 515 147 81 27 36
388 660 199 78 28 30
299 520 148 134 14 37
261 630 287 167 118 87
354 747 158 64 53 46
300 514 144 93 36 38
342 825 207 53 49 49
285 620 242 136 27 46
301 516 145 63 30 40
297 525 157 70 28 34
408 600 188 97 30 40
300 529 153 166 8 39
298 530 157 152 7 38
303 536 155 180 8 37
299 540 158 110 21 39
300 543 159 48 32 35
312 514 144 127 20 40
257 735 267 142 102 69
310 517 145 108 24 39
314 515 146 84 26 36
313 520 147 119 23 38
323 550 297 78 26 35
318 515 151 143 7 33
318 520 153 160 5 35
315 526 155 176 9 37
317 524 154 169 5 38
318 526 156 173 8 35
351 762 195 89 32 40
266 615 275 143 104 69
312 530 153 180 8 37
312 540 159 171 10 38
326 884 208 43 40 39
318 530 158 179 8 36
394 866 303 66 55 46
431 706 276 127 20 44
275 603 264 159 9 39
468 565 227 134 17 34
317 534 159 182 9 39
430 688 225 44 39 46
295 517 167 106 21 37
447 839 306 82 64 50
318 973 287 69 63 60
304 695 222 47 35 39
292 515 176 132 11 39
290 731 228 121 10 34
428 795 173 53 44 39
292 520 176 136 7 34
295 525 167 123 4 33
293 525 177 146 1 33
296 515 162 102 15 32
474 745 222 145 97 64
296 514 171 112 17 35
295 529 168 125 2 34
293 530 177 118 16 37
295 535 169 115 10 34
293 535 177 115 16 38
422 645 262 167 18 51
295 540 168 134 3 36
474 750 222 146 99 67
297 530 162 135 3 35
296 530 166 127 1 34
423 590 278 146 13 45
296 535 167 122 8 35
298 545 162 116 18 38
291 535 181 152 1 32
379 884 293 33 32 33
262 515 287 93 41 44
292 540 181 150 7 35
268 515 320 169 121 99
314 541 160 130 17 36
313 545 162 99 31 41
295 549 169 123 21 38
341 827 210 54 49 49
264 700 282 151 103 74
295 555 173 63 27 34
478 854 265 81 66 58
299 549 163 96 28 42
299 554 168 121 30 43
398 700 297 76 27 34
303 555 166 150 24 44
304 553 164 172 16 40
298 560 172 135 18 42
313 815 218 78 61 52
300 558 169 110 26 47
294 560 182 139 2 37
292 555 186 128 13 37
301 567 175 156 27 52
448 760 251 127 86 62
383 726 152 57 48 41
304 568 174 143 25 45
295 565 178 160 7 41
494 842 262 83 66 52
294 565 182 141 3 37
295 574 183 144 14 42
298 575 181 180 14 44
302 577 180 112 24 41
308 553 164 171 15 43
328 886 311 131 61 71
308 556 165 131 31 46
308 560 168 124 29 43
313 559 168 65 35 40
315 551 165 112 33 42
317 555 168 39 35 39
412 850 336 90 70 55
319 555 171 102 31 41
316 558 169 41 37 42
309 563 169 125 22 39
342 725 316 179 7 58
314 561 170 64 36 38
313 565 172 90 28 38
307 961 256 82 78 79
308 571 175 126 20 41
419 911 267 66 56 52
265 670 287 165 113 86
314 571 175 168 21 46
319 565 176 71 35 38
318 570 177 80 32 40
308 575 178 114 31 43
313 575 178 86 28 37
272 560 207 99 22 38
303 640 288 147 47 56
317 574 179 128 32 45
501 806 221 84 68 54
320 572 180 112 49 60
308 795 292 134 99 80
269 515 197 133 0 40
407 840 242 38 33 30
268 515 202 121 8 36
267 515 207 101 18 34
267 520 207 99 20 35
271 526 199 146 7 45
256 780 256 179 121 91
444 725 253 131 36 46
269 525 207 139 4 39
263 515 222 102 23 38
322 951 231 74 69 72
265 515 212 44 32 35
266 515 210 44 31 33
265 535 195 46 26 32
404 856 338 81 62 49
447 883 258 61 52 48
271 530 202 83 16 34
271 535 203 146 5 41
367 934 335 66 59 57
270 534 208 149 0 41
445 872 245 83 65 57
265 540 195 118 17 43
487 600 228 154 112 78
340 529 154 60 30 31
267 540 198 151 6 47
265 544 195 164 2 48
270 540 201 154 0 45
353 600 186 89 28 40
462 710 208 99 80 58
347 601 190 143 20 39
290 638 259 73 30 34
271 540 203 152 0 45
288 614 217 197 12 49
374 710 304 143 26 51
272 540 207 129 10 40
269 545 201 152 0 46
268 530 212 159 1 39
267 530 217 109 16 37
268 535 217 151 9 42
453 620 247 141 96 82
265 529 222 68 25 34
290 652 294 174 127 105
266 531 221 62 30 36
267 535 222 136 14 43
481 639 234 135 97 62
271 536 212 127 11 40
318 940 217 76 69 68
274 580 207 101 31 42
428 725 142 84 61 46
417 650 213 94 22 31
271 541 216 142 15 43
270 544 223 39 32 36
344 908 194 74 67 70
273 545 212 69 30 36
262 515 227 96 29 39
262 515 232 101 27 41
436 674 243 82 77 76
263 520 227 101 23 38
262 520 237 69 26 34
261 515 247 78 22 34
261 520 242 150 4 42
389 951 226 71 64 65
263 515 257 158 3 44
262 520 252 159 0 43
465 808 292 71 55 43
372 894 312 39 35 33
351 753 305 79 65 56
262 525 242 158 1 44
328 580 186 170 1 35
263 525 247 161 0 43
263 525 252 138 12 43
321 863 290 152 119 93
264 530 232 164 0 43
263 530 237 162 0 43
266 535 227 149 8 43
490 772 233 97 73 48
265 535 232 166 0 44
383 701 195 56 36 37
413 720 142 76 58 44
287 581 200 113 27 41
263 750 247 132 100 64
402 935 287 57 51 49
440 611 244 84 28 37
264 535 237 164 0 44
266 537 230 149 8 42
338 605 302 126 21 45
267 545 232 168 1 44
266 541 237 163 0 43
267 545 237 164 0 43
432 556 190 121 14 36
357 725 191 43 34 40
393 835 183 65 55 54
264 530 252 138 9 42
307 815 221 76 59 51
266 536 248 166 0 44
412 904 291 45 40 38
266 535 257 166 0 46
449 515 252 125 18 40
446 747 250 100 63 49
266 541 242 167 0 46
494 560 247 173 121 92
265 540 247 169 0 46
303 602 200 194 8 43
267 545 247 171 0 46
269 550 201 147 8 45
353 804 281 156 112 92
439 851 221 125 110 110
269 555 197 165 3 46
401 949 271 57 49 46
271 557 195 182 4 46
271 561 196 172 10 46
271 555 204 136 12 42
272 555 207 74 24 34
259 565 306 166 119 95
270 560 202 124 14 40
271 558 204 141 3 41
271 565 208 50 28 31
270 568 203 51 30 35
271 570 207 44 30 32
274 555 212 57 28 34
274 555 217 99 24 38
519 835 196 98 86 76
307 935 237 61 58 59
348 705 311 138 5 43
275 573 199 109 31 44
403 845 267 33 31 30
278 570 196 56 34 37
278 575 198 85 33 38
482 785 208 93 68 51
407 794 169 64 50 43
353 755 302 86 67 59
457 515 196 121 26 40
273 575 202 127 27 46
276 576 200 124 24 45
377 930 322 55 50 48
283 564 194 142 15 39
288 575 197 67 32 36
274 565 212 57 29 34
275 566 216 37 29 33
463 750 243 159 111 83
275 565 222 72 32 39
276 564 218 41 27 32
276 566 221 67 27 33
272 575 212 34 29 32
275 569 221 74 28 36
276 570 222 85 29 39
364 901 316 38 33 32
276 575 222 105 26 40
269 550 227 146 11 44
292 622 225 63 31 35
268 550 237 165 0 44
270 553 228 167 0 44
379 732 136 93 74 61
269 555 232 160 4 43
458 819 287 75 60 48
269 560 237 159 3 43
490 600 242 162 114 79
268 550 247 169 0 45
268 550 252 171 0 48
269 560 247 164 0 44
269 555 252 169 0 46
270 560 252 168 0 47
448 550 212 80 25 36
270 558 255 173 0 49
294 634 234 153 23 50
271 565 236 168 3 45
270 564 238 166 0 43
265 736 249 127 96 61
270 563 250 166 0 47
271 566 249 165 0 44
271 570 240 162 1 41
270 570 246 167 0 46
338 640 207 133 20 37
270 574 246 169 0 45
349 967 308 75 71 71
373 870 281 102 83 63
428 590 196 142 10 37
340 548 164 101 22 30
271 570 252 168 1 46
272 570 257 105 17 38
458 835 247 72 51 45
271 575 252 167 0 47
378 715 136 79 60 46
272 575 257 143 9 43
320 973 273 83 77 77
274 565 227 112 20 39
275 570 227 58 29 34
413 520 168 101 30 40
474 755 227 149 102 68
273 570 232 62 29 36
274 575 232 140 16 44
290 569 194 58 29 33
316 655 220 148 2 37
294 580 187 158 10 41
303 580 182 130 21 44
293 600 202 69 28 36
297 581 186 184 10 44
298 585 188 185 10 44
301 582 185 193 12 45
303 585 187 196 9 44
297 587 190 176 11 41
304 589 189 197 9 43
425 858 239 83 83 83
303 591 191 195 9 45
308 580 182 165 18 44
270 785 295 171 123 96
310 578 179 159 22 41
312 578 179 163 21 42
340 765 199 73 54 51
313 580 181 193 13 44
313 583 184 195 10 43
310 681 219 44 38 41
378 966 231 78 72 73
313 586 186 194 10 43
313 591 190 189 9 43
318 589 188 176 8 40
318 592 190 137 13 38
465 862 268 75 64 58
308 595 193 192 9 43
275 584 208 60 29 36
277 585 206 47 34 38
368 970 227 81 78 81
280 578 199 103 34 43
289 579 198 90 28 38
458 785 252 102 74 56
283 580 200 92 27 38
494 575 237 170 123 88
283 585 202 112 26 40
282 591 206 85 32 38
288 590 202 83 29 36
258 535 312 173 123 101
275 580 217 108 24 42
275 585 212 123 19 44
293 606 206 193 12 48
275 585 217 75 23 36
275 582 220 26 28 32
331 650 210 135 1 32
275 585 220 30 29 32
378 707 194 69 35 34
276 579 219 102 19 39
276 580 222 77 22 35
473 760 172 78 61 49
276 587 210 33 31 41
277 590 212 67 30 40
289 595 203 45 31 35
287 596 206 66 30 35
288 600 206 151 16 44
278 595 212 92 26 40
453 625 248 151 106 90
304 613 209 192 8 43
281 597 210 159 17 45
400 852 340 67 52 40
282 600 212 171 13 45
442 660 248 114 77 65
282 605 217 191 7 50
284 605 213 185 11 46
286 602 210 176 9 40
361 903 199 64 59 59
261 610 281 153 111 77
280 604 218 190 5 51
280 604 222 164 12 47
271 580 247 170 1 46
313 710 212 107 18 32
276 580 227 151 6 42
280 746 243 97 73 46
452 814 194 90 69 61
276 580 231 151 1 40
355 722 194 55 33 38
372 826 270 154 117 97
373 935 212 66 62 65
273 580 237 163 0 42
437 719 167 107 75 50
273 585 247 170 3 46
482 540 248 129 92 74
273 585 257 167 2 45
447 550 192 99 30 41
274 590 252 125 23 44
279 600 227 93 26 39
277 595 237 45 34 37
427 801 175 54 44 41
280 604 237 102 30 42
336 847 225 125 86 67
280 604 227 156 20 48
276 597 247 121 33 47
353 710 196 100 23 31
408 565 176 90 27 39
388 807 180 73 58 54
275 594 257 106 21 39
378 860 192 64 57 57
276 600 252 81 31 40
277 600 257 143 15 46
328 825 216 74 58 52
279 605 242 85 29 39
433 556 271 68 13 26
279 605 247 59 31 36
289 619 223 103 34 42
282 610 227 80 29 38
282 610 232 77 30 38
284 615 232 111 27 41
282 610 237 63 31 34
284 615 237 104 31 42
288 620 227 130 31 47
416 569 184 156 1 36
442 680 225 81 68 56
285 618 232 71 36 39
458 821 291 73 59 46
287 621 232 117 31 46
286 621 237 101 32 44
289 625 232 93 31 43
296 655 290 161 115 95
267 680 272 144 102 70
280 609 247 69 31 35
280 610 252 140 19 45
279 610 257 176 2 46
374 766 289 80 62 54
266 679 276 142 101 69
280 608 243 48 33 36
438 810 182 81 64 58
281 611 247 53 29 31
440 786 254 138 98 74
287 625 242 76 34 42
285 623 247 42 34 38
286 626 252 58 37 39
286 627 257 86 36 46
288 630 252 38 31 36
288 630 257 52 33 37
291 580 196 82 26 36
367 983 257 76 72 71
503 758 140 95 75 54
292 585 197 117 18 40
290 588 199 97 20 33
294 589 193 175 10 44
383 590 299 154 18 49
458 755 246 158 113 85
368 695 196 89 27 30
291 591 200 88 23 36
503 758 138 95 75 54
458 530 257 131 12 41
293 595 198 158 15 43
294 599 199 140 14 37
291 595 201 54 30 33
259 605 292 159 115 85
290 599 204 57 29 38
294 604 203 161 17 48
298 595 196 193 10 44
313 606 201 180 6 41
292 809 295 177 133 104
298 599 198 188 11 46
305 675 229 100 25 39
303 600 198 194 8 43
297 602 200 167 18 44
297 607 205 198 9 43
308 597 195 189 8 42
405 851 276 37 31 30
308 600 197 187 7 42
426 888 285 50 45 43
318 606 200 182 6 40
298 609 207 197 9 45
290 608 209 191 12 48
293 611 212 199 12 50
408 930 247 46 40 37
293 613 214 199 12 47
293 616 216 174 14 47
291 617 220 110 28 41
329 854 238 171 116 91
444 585 248 122 28 45
294 624 223 62 34 36
298 615 212 193 10 46
298 620 217 68 29 37
298 625 222 148 19 44
300 623 219 173 21 50
308 608 204 186 7 39
304 608 204 192 8 45
313 611 205 184 6 41
340 785 177 54 46 42
313 615 207 133 19 42
318 615 206 46 32 37
308 620 212 189 8 44
308 670 287 46 29 31
313 625 213 185 6 44
312 626 215 186 7 47
308 630 221 183 9 46
310 629 219 183 8 42
519 831 182 106 89 73
311 632 220 175 6 44
319 670 214 46 35 39
382 940 213 73 66 66
310 639 224 157 2 37
475 763 229 143 100 65
315 628 214 180 5 42
317 631 215 167 3 39
318 635 216 156 2 37
320 634 214 147 10 37
315 639 219 149 0 38
291 627 231 40 35 35
373 600 183 153 10 38
392 845 259 43 37 31
463 690 218 120 91 58
438 689 226 75 64 56
293 630 232 37 33 37
520 849 233 87 72 59
290 628 234 42 35 41
291 631 236 81 28 39
453 570 226 69 32 36
293 635 237 155 22 50
295 638 238 33 32 36
424 665 258 67 26 34
486 604 229 153 111 77
297 627 226 154 17 47
297 632 230 22 33 39
449 838 294 87 74 66
302 631 226 146 15 46
388 914 208 66 59 61
298 635 232 161 10 45
299 633 229 154 15 44
296 637 235 56 24 38
298 640 237 80 27 40
299 639 233 149 25 47
290 633 242 68 21 34
294 779 219 73 57 51
292 636 242 148 22 49
323 750 308 70 33 39
290 634 247 41 32 34
291 636 247 129 25 45
294 639 242 50 30 36
290 634 252 49 35 37
342 645 205 127 7 30
291 636 252 86 32 41
411 928 258 60 54 51
342 621 200 100 28 40
463 845 242 86 71 62
429 685 225 44 38 43
292 640 257 125 29 45
449 765 171 82 59 51
307 636 225 171 7 42
321 518 154 102 21 33
416 650 270 165 14 51
438 580 198 158 2 35
446 570 212 131 2 38
323 520 156 117 24 40
378 592 180 49 37 41
324 517 155 135 27 47
333 515 156 91 27 37
413 920 262 50 44 42
333 520 157 76 32 37
317 900 256 125 101 76
335 514 154 61 33 35
384 821 264 137 99 81
334 525 159 92 25 36
335 529 159 144 12 40
343 515 148 85 31 39
298 805 293 172 132 101
342 521 150 131 19 40
339 525 153 57 34 39
348 515 147 139 8 33
458 517 245 37 27 27
348 520 148 135 12 36
432 784 260 50 43 39
345 523 149 151 9 45
398 935 292 47 43 43
347 526 150 95 20 32
473 640 254 184 133 101
354 526 150 158 2 32
353 625 302 133 28 50
437 702 194 87 67 48
341 536 155 71 37 41
343 540 156 98 32 41
288 520 292 36 28 27
287 699 255 96 68 47
340 948 330 52 48 49
483 790 222 74 59 48
353 535 152 126 24 38
382 954 223 81 72 74
345 539 154 87 21 32
344 820 172 86 68 56
348 545 156 92 30 41
258 570 297 162 117 88
474 755 222 146 100 67
328 526 160 160 4 34
332 526 160 148 8 34
351 975 236 82 77 81
328 530 162 169 0 35
328 535 164 170 1 33
455 527 210 76 30 40
322 539 164 137 15 38
323 541 165 138 19 40
328 538 164 172 2 35
328 545 168 109 25 38
383 710 167 50 39 37
333 538 164 169 1 33
333 541 166 169 2 34
318 680 213 57 34 37
373 685 198 44 34 39
438 715 262 123 16 41
339 544 163 79 33 36
337 545 166 48 30 37
363 715 193 74 31 34
341 542 160 119 34 41
383 720 137 75 56 42
343 870 172 85 70 65
342 546 161 80 36 44
378 715 303 107 32 46
349 550 158 49 36 40
350 553 159 52 35 35
328 550 171 94 31 39
323 559 174 104 34 44
471 710 240 175 117 87
331 547 170 166 20 45
333 550 171 95 28 38
334 548 169 73 28 36
343 820 277 156 107 89
334 559 174 105 33 45
343 695 201 122 10 28
320 562 175 90 30 37
353 640 202 114 21 34
473 570 247 114 85 67
328 565 178 129 24 39
406 898 214 72 61 60
323 575 183 130 17 38
328 570 181 129 25 42
383 884 293 35 33 35
464 524 198 93 28 38
333 565 178 131 19 39
447 617 230 77 66 64
338 550 167 84 30 39
341 551 165 129 28 44
465 725 244 177 122 94
344 554 164 43 34 38
338 560 172 149 13 38
347 551 160 43 36 40
341 844 197 44 41 41
348 559 164 119 31 42
353 560 163 158 17 42
336 562 175 114 18 32
454 755 177 96 72 55
340 564 173 174 7 42
344 564 169 57 31 37
341 566 175 170 8 43
460 853 269 62 52 46
418 720 296 172 8 55
348 565 167 97 33 42
338 575 181 181 5 37
341 715 200 100 26 34
440 802 255 111 84 66
353 565 166 86 32 42
311 731 304 173 17 54
346 567 170 104 28 35
348 570 172 152 15 42
430 862 215 70 59 58
343 575 178 178 6 39
349 569 169 129 26 44
352 572 170 178 7 41
338 570 178 183 7 39
423 780 266 74 59 53
358 764 296 82 64 54
336 572 180 182 6 38
339 574 179 183 7 37
342 576 180 176 4 41
357 515 149 153 0 33
368 700 195 88 27 29
359 515 151 153 0 33
356 519 149 160 2 35
358 525 151 158 2 33
362 525 153 144 1 30
368 525 158 125 4 28
358 535 153 143 11 35
418 730 132 89 64 46
358 539 154 58 32 36
362 535 154 160 7 35
395 822 259 129 91 72
364 535 155 151 5 33
368 530 157 118 7 27
356 553 159 159 31 47
368 540 156 81 29 37
378 612 190 76 31 34
368 545 157 61 35 40
265 579 310 162 115 91
374 521 159 90 15 28
398 819 260 139 102 84
380 516 159 89 24 34
480 652 235 138 100 66
383 515 159 44 37 38
383 520 159 62 35 38
378 525 159 57 30 35
373 540 158 117 18 33
378 530 158 125 13 33
279 530 302 73 56 49
383 530 159 74 27 37
328 890 312 158 106 96
378 540 159 148 5 33
373 515 160 129 1 30
344 814 168 101 77 59
373 520 160 123 6 28
384 525 160 42 36 40
380 541 160 160 4 37
383 540 160 163 1 34
383 545 161 170 3 36
363 550 159 75 32 37
358 555 160 131 26 42
360 552 160 149 36 50
363 560 163 107 31 43
305 916 282 127 103 84
369 551 160 103 24 40
453 620 226 99 75 50
363 563 164 123 38 44
363 566 166 81 34 42
269 675 272 145 103 72
368 565 166 164 15 40
363 570 168 89 28 40
478 759 192 80 64 51
378 550 161 129 18 39
382 554 164 106 21 39
380 557 165 169 7 36
363 815 272 157 105 87
374 712 152 69 55 46
448 800 272 69 52 40
372 974 233 77 71 75
373 569 169 187 7 40
368 810 272 156 105 85
370 572 170 197 9 43
373 575 171 188 7 38
342 785 192 42 40 41
373 675 297 160 13 51
378 565 168 173 5 37
383 565 168 165 11 38
334 875 243 121 95 71
382 568 169 182 6 39
383 575 173 175 1 35
324 580 185 172 1 36
445 658 224 77 62 46
323 585 187 172 1 36
323 591 190 88 27 37
438 515 177 77 25 33
363 810 166 83 62 51
445 700 250 120 73 59
333 585 188 165 7 37
348 580 177 137 19 41
451 749 164 76 57 44
338 579 183 171 6 38
430 852 297 64 50 42
343 580 182 117 24 41
344 584 183 92 34 41
338 589 189 122 31 43
489 791 199 109 80 54
343 590 187 63 33 36
347 585 181 80 28 39
353 585 177 184 8 41
345 588 184 84 49 46
344 594 189 116 27 41
382 876 200 61 54 58
329 619 300 49 30 32
342 596 190 157 18 39
343 600 192 140 19 39
348 595 187 73 31 37
520 843 225 93 77 64
348 610 193 113 31 41
378 585 177 69 32 40
424 822 185 77 61 56
353 610 192 125 19 39
363 585 177 182 4 39
314 900 312 173 130 110
368 582 175 186 6 40
354 588 179 184 6 39
358 589 179 183 5 39
398 620 292 122 38 52
358 591 180 184 5 39
441 838 204 75 60 56
387 748 144 63 49 40
368 592 180 169 3 37
358 598 184 100 26 37
358 605 188 144 17 42
356 607 190 178 19 49
363 595 182 178 3 40
363 599 184 83 24 36
368 595 181 173 2 36
368 599 183 101 21 38
368 605 187 46 37 40
333 915 312 127 96 86
373 579 174 190 7 41
373 585 176 151 11 38
383 585 177 55 36 40
373 602 185 87 23 37
378 595 182 47 35 40
378 600 184 149 18 42
442 839 207 82 65 60
343 689 304 145 9 45
383 599 184 53 32 38
378 602 185 178 5 44
404 850 243 37 31 29
378 605 186 127 24 40
363 608 189 85 40 47
363 611 190 58 31 35
363 615 193 73 33 40
368 611 190 54 36 39
368 615 192 51 36 40
388 575 174 173 4 39
373 609 188 53 35 38
348 819 276 160 108 90
328 597 195 143 16 42
323 604 199 120 22 40
323 606 200 163 14 41
457 831 220 111 84 69
332 597 195 127 31 38
297 670 252 60 30 35
423 560 272 101 3 30
333 600 196 104 28 39
334 598 194 114 28 40
403 735 137 87 65 48
339 599 193 104 26 38
323 610 203 105 27 39
391 938 219 71 62 63
403 890 206 82 68 65
323 615 206 45 34 38
319 691 301 76 29 37
328 610 203 121 29 43
461 789 250 106 81 62
328 615 206 70 34 38
265 670 291 176 121 97
334 619 204 56 37 40
288 745 227 124 11 35
388 520 160 84 33 35
333 630 207 42 36 38
328 915 197 72 63 61
323 630 212 98 23 37
327 630 210 52 35 39
324 640 214 76 29 34
451 798 262 84 67 56
321 641 215 134 19 42
463 540 230 97 18 32
330 630 209 46 36 38
384 756 289 74 58 52
330 633 209 56 39 39
331 636 210 49 36 40
331 640 210 64 29 33
339 610 198 64 34 37
369 752 294 87 69 60
343 610 196 95 32 39
439 822 285 56 44 36
340 614 199 43 35 41
343 615 198 99 25 37
337 611 200 101 33 42
338 615 201 47 33 38
463 780 248 114 83 63
344 619 199 125 18 38
363 680 198 60 32 35
338 625 203 68 37 41
304 900 287 192 138 123
343 625 201 61 34 38
345 609 194 83 28 34
274 706 254 117 90 58
348 615 196 110 25 40
472 725 237 169 111 81
353 614 194 161 10 41
310 746 209 81 31 32
345 623 199 71 26 24
436 696 163 89 63 46
353 620 196 64 33 41
353 956 323 68 63 62
290 655 294 161 122 98
398 597 185 81 25 34
338 635 206 105 28 37
343 635 204 80 30 37
340 634 204 76 31 35
354 629 199 114 28 41
264 700 277 146 101 70
353 635 201 132 15 37
359 618 194 138 27 45
358 625 197 107 27 37
296 660 256 45 31 35
319 881 262 133 106 80
485 769 209 68 51 39
363 619 194 83 29 37
363 621 195 105 29 41
512 830 227 84 76 71
368 622 195 52 37 38
368 625 196 51 37 39
262 760 246 140 103 68
358 630 198 69 34 38
367 952 215 78 73 76
357 636 200 87 29 37
361 640 200 56 30 31
358 833 158 87 65 56
373 620 194 55 36 40
373 625 196 73 34 38
414 844 324 92 78 69
378 620 194 68 35 39
258 755 282 164 113 87
263 755 246 134 101 65
378 625 195 93 26 40
341 849 166 81 70 61
319 735 310 181 19 57
383 620 194 57 36 38
313 755 207 98 26 34
373 640 198 73 31 37
378 630 197 43 35 38
364 736 157 58 46 42
378 635 198 106 23 34
378 640 198 76 26 33
383 640 198 83 27 33
383 735 128 73 54 43
278 700 256 117 88 55
278 705 254 116 87 53
279 702 254 116 86 51
286 703 255 110 78 53
313 650 222 165 5 43
318 645 217 128 11 35
316 650 220 159 3 39
292 819 290 187 136 108
288 800 297 182 135 106
318 655 218 143 1 35
310 671 224 84 29 33
313 660 222 132 8 36
318 660 218 135 2 34
318 665 217 121 13 33
283 545 297 75 27 35
317 670 216 58 32 36
314 670 218 79 31 37
300 644 238 162 7 42
300 650 239 161 8 45
399 901 312 49 44 42
302 655 237 166 4 43
295 644 249 91 24 38
362 866 286 89 74 57
294 655 257 94 36 40
298 645 242 159 5 42
291 740 225 131 6 35
308 750 302 171 20 54
296 642 246 169 15 50
296 647 250 84 24 37
297 650 247 138 8 39
459 870 267 72 61 55
298 655 247 153 5 42
296 650 251 93 20 35
370 865 200 61 55 57
303 665 237 131 4 36
299 665 247 107 19 37
300 659 244 147 1 36
375 902 194 62 56 57
301 665 242 125 7 36
355 732 189 55 40 41
463 630 222 125 95 62
297 660 252 64 29 35
432 832 305 82 63 48
296 665 256 66 32 37
313 750 208 83 28 34
300 671 243 57 30 35
301 670 241 71 28 34
382 836 265 110 89 72
296 670 255 64 30 33
310 645 224 140 7 37
308 655 227 162 4 42
306 665 231 133 5 38
305 660 233 151 1 41
306 670 231 101 27 40
435 842 289 71 57 48
454 800 187 97 70 53
332 860 242 170 117 87
311 674 221 63 32 34
314 675 218 49 38 40
313 685 216 40 38 41
308 695 217 56 37 40
307 690 221 49 36 38
308 700 217 52 36 38
412 904 232 68 60 59
310 700 214 74 31 34
307 705 216 60 37 38
309 915 262 153 118 94
313 705 212 105 27 36
304 705 218 46 35 39
288 570 298 129 24 46
317 700 211 46 37 39
302 675 237 86 29 36
416 876 205 74 62 61
304 675 232 86 25 36
302 685 232 58 31 37
300 686 233 56 32 36
283 665 262 113 74 46
378 710 152 68 52 43
295 681 253 42 33 37
360 878 304 83 71 59
293 680 257 63 42 36
295 686 248 75 30 37
405 942 257 62 57 55
433 685 226 57 53 54
294 685 252 41 33 35
299 680 242 66 31 35
428 809 267 56 46 38
260 725 277 146 99 71
296 673 255 109 27 41
296 684 246 71 30 36
295 701 238 101 16 32
269 595 310 166 116 92
300 692 229 48 33 33
442 770 257 149 109 82
297 695 237 112 14 36
297 700 232 116 9 36
296 705 231 97 21 33
296 699 236 110 13 33
278 650 303 181 133 107
296 703 235 107 17 31
295 696 243 69 28 34
294 695 247 94 25 38
293 700 247 114 12 35
268 765 243 124 92 56
292 705 242 74 26 34
290 696 254 59 43 36
395 951 283 47 41 40
294 735 223 132 6 38
290 706 248 83 30 32
296 688 245 43 28 35
473 595 223 130 101 68
306 679 226 66 26 32
467 710 246 181 126 97
268 710 257 121 93 60
273 710 253 119 91 58
256 540 308 174 123 102
270 712 254 123 95 61
328 975 257 91 85 86
269 715 253 119 91 58
437 710 257 147 10 45
452 560 222 124 9 33
273 715 252 118 90 57
273 720 251 118 89 57
263 725 257 131 98 65
525 848 163 90 82 77
264 730 253 123 95 62
263 735 252 124 95 61
265 726 254 120 92 59
268 725 252 121 93 59
263 740 286 163 113 87
273 725 250 119 90 58
428 841 242 83 83 83
269 731 249 122 93 60
266 734 250 124 95 61
368 750 296 87 68 61
286 709 251 81 48 36
379 727 153 55 46 41
287 720 246 86 29 33
284 721 248 84 52 40
285 727 239 74 23 31
284 735 237 43 33 38
286 734 235 39 32 39
276 728 250 120 90 59
283 725 247 87 52 40
339 815 197 55 50 49
448 630 226 88 68 47
288 720 242 101 19 32
299 760 214 127 22 37
348 905 319 146 104 88
285 726 242 101 26 36
378 711 167 53 41 39
412 849 297 47 39 35
509 794 188 115 96 79
281 723 250 116 84 55
283 735 242 42 33 38
503 795 207 103 81 61
282 735 246 59 46 42
296 640 290 159 110 92
288 760 222 59 35 38
415 831 271 47 38 31
343 940 211 78 72 75
259 745 252 137 101 70
258 750 252 144 104 74
354 750 157 57 46 41
383 645 292 125 32 49
260 751 249 136 101 69
378 856 190 66 57 56
284 560 302 123 68 59
256 750 256 153 109 79
408 800 263 67 52 45
288 833 276 200 139 114
308 805 218 80 62 53
268 740 247 127 96 61
403 570 175 167 2 36
268 745 246 129 98 63
273 745 247 126 93 60
430 631 258 182 0 58
273 750 246 118 88 56
260 755 248 141 103 70
259 760 248 148 106 73
257 760 252 161 112 82
259 765 248 154 107 76
257 765 251 166 114 84
425 542 274 123 41 55
268 755 245 125 94 58
346 803 174 49 44 40
265 760 244 133 99 64
337 760 200 93 32 39
423 850 311 70 57 48
380 871 323 65 53 45
438 700 196 95 74 52
273 760 242 107 80 48
273 765 241 103 76 46
469 750 238 156 107 77
280 751 238 113 88 56
433 640 227 93 28 35
287 740 231 117 15 36
371 718 178 63 36 37
352 968 305 67 63 64
286 744 230 125 13 38
283 740 237 87 27 35
282 745 237 110 60 46
327 660 210 129 3 31
285 736 234 34 28 41
350 747 166 59 50 43
479 795 241 122 88 67
435 802 175 66 52 47
269 635 273 131 95 63
285 741 233 111 21 37
372 803 275 164 114 92
283 750 232 112 55 44
288 750 227 107 19 32
286 630 261 69 34 38
405 736 134 84 60 46
420 632 210 40 27 31
282 740 242 66 39 36
324 790 203 72 57 48
281 738 245 56 40 35
278 760 237 123 92 56
275 766 239 117 88 52
277 765 236 124 92 56
368 983 262 69 65 66
351 784 150 92 69 48
284 760 227 94 63 47
282 760 231 122 91 56
286 760 225 61 34 38
343 825 182 63 55 50
284 765 227 104 79 55
285 760 224 50 34 43
286 765 225 56 47 45
276 759 240 114 85 50
283 660 262 119 76 49
299 710 223 116 19 34
302 710 221 87 28 36
298 715 222 114 17 35
298 720 222 127 9 34
341 821 206 53 49 48
301 714 220 64 31 33
300 720 219 129 12 33
468 790 258 75 55 40
294 730 223 105 21 37
297 730 221 76 31 34
275 595 262 150 2 37
307 710 216 90 34 40
309 715 214 64 31 37
313 720 212 134 8 33
420 581 190 154 4 36
317 719 210 133 3 33
324 961 311 41 37 38
306 724 215 132 9 34
305 727 214 130 6 30
333 700 311 75 28 35
305 735 214 128 10 31
488 565 224 147 112 78
312 730 211 71 28 35
314 735 209 86 30 34
295 712 229 67 25 26
291 715 237 73 29 35
291 719 236 72 23 31
448 550 202 55 31 35
296 708 230 70 32 35
263 585 282 132 99 68
296 715 226 96 22 35
290 707 244 93 34 37
419 782 175 49 40 40
412 530 295 91 29 39
453 605 229 92 54 41
291 709 241 63 31 34
424 901 252 63 54 54
290 715 242 100 23 33
291 724 231 116 10 36
365 565 304 154 5 46
454 512 195 88 25 34
290 722 234 106 22 34
408 710 132 98 66 45
292 730 227 122 10 35
333 940 315 140 104 85
291 728 230 119 6 32
401 953 257 65 59 57
294 740 223 130 12 37
298 740 218 100 19 33
296 739 220 124 13 35
298 745 217 41 35 41
296 744 220 40 36 42
298 750 216 92 24 37
526 842 229 103 87 71
301 748 215 34 37 45
292 765 220 58 51 48
392 708 172 53 39 35
428 615 207 97 28 38
294 765 218 58 50 48
299 755 214 128 10 32
297 760 215 99 29 35
303 760 211 129 16 37
300 765 214 65 49 44
308 745 211 89 28 34
312 740 210 57 32 37
309 750 209 76 30 35
483 827 240 75 60 48
313 765 207 61 49 44
307 765 210 64 51 46
358 855 282 113 93 73
289 740 228 124 11 35
333 655 208 127 3 30
324 645 214 103 26 37
376 745 136 97 71 52
328 645 212 127 14 36
463 816 287 76 60 46
322 650 215 150 3 38
324 650 214 148 3 35
331 645 210 131 9 33
334 645 209 131 5 31
324 660 295 151 18 47
331 654 210 127 1 29
329 660 208 128 5 30
328 670 208 105 19 30
333 770 203 72 56 49
333 670 206 129 6 29
321 660 215 131 2 33
453 645 223 91 73 51
324 660 213 129 4 31
323 665 212 100 19 32
321 663 215 127 7 32
326 665 210 97 17 30
326 670 210 74 31 40
338 655 206 128 4 32
342 650 205 128 4 29
437 735 271 175 14 54
344 650 204 129 6 29
400 808 179 70 54 47
341 655 205 129 3 31
487 765 192 94 71 54
348 650 203 118 12 32
353 650 202 97 21 30
353 655 202 88 26 33
462 715 207 99 79 57
338 665 206 124 10 30
344 660 204 123 8 32
341 660 205 122 12 31
501 793 199 95 74 51
348 840 162 86 71 60
343 665 204 104 22 31
273 790 296 171 125 96
343 670 204 87 26 31
348 660 202 122 12 31
353 665 201 75 32 33
353 670 200 61 33 34
323 675 211 60 33 36
322 680 211 86 25 33
447 760 167 87 62 52
322 685 210 124 14 32
422 544 276 53 28 32
328 690 207 60 31 36
323 700 208 59 34 36
333 690 206 62 29 33
332 700 205 84 22 34
331 705 205 64 27 35
478 795 203 102 74 55
338 969 233 84 80 83
337 675 205 124 8 29
337 680 205 124 11 29
343 680 203 127 11 29
337 685 205 107 19 29
348 680 201 121 13 30
353 675 200 61 36 37
462 516 191 76 30 36
336 689 205 114 18 32
343 690 202 122 12 29
410 776 274 79 59 51
283 828 285 202 144 116
338 700 202 118 12 29
338 705 202 89 25 34
344 705 199 116 16 30
433 705 167 69 52 43
463 630 253 181 133 107
353 700 198 48 35 37
456 717 194 77 62 47
353 705 197 73 30 33
463 735 168 89 68 49
358 645 200 100 24 33
358 650 200 100 24 31
358 655 200 68 31 34
370 937 328 69 63 62
363 645 199 101 26 35
368 645 198 99 25 33
389 699 299 83 27 36
364 655 199 69 33 36
368 650 198 55 34 38
361 650 200 104 27 37
359 666 199 50 34 34
358 670 199 54 36 37
363 660 199 83 29 33
361 659 200 102 28 32
512 827 226 81 74 69
306 938 255 54 51 52
343 705 313 135 9 43
378 650 198 40 32 36
378 655 199 100 25 31
462 804 194 118 79 59
373 660 199 97 21 29
448 685 251 135 95 77
373 665 199 50 31 35
378 660 199 99 22 27
483 850 257 91 73 60
383 665 199 82 28 29
452 630 248 159 114 96
358 680 199 81 31 36
356 674 200 48 36 40
358 695 197 98 21 27
363 700 196 92 25 31
369 699 194 86 30 31
373 675 198 49 34 37
378 680 198 41 34 37
271 715 294 167 116 90
383 675 198 51 35 34
455 791 257 100 72 55
373 690 196 55 33 37
421 828 189 71 56 50
370 697 194 86 29 28
373 700 195 79 33 31
443 615 226 69 25 31
379 696 194 53 37 39
450 842 220 108 85 79
467 778 176 103 76 58
383 699 194 57 36 36
318 665 293 150 20 49
285 600 304 162 116 90
350 747 164 60 49 42
433 735 277 72 25 37
350 749 164 59 49 43
352 750 182 44 36 33
350 752 181 46 36 35
352 755 162 50 42 38
348 975 297 60 55 54
351 760 166 45 39 37
350 760 167 45 38 37
349 755 172 53 45 41
389 876 334 74 61 55
440 523 174 47 34 34
349 755 177 56 47 41
349 760 172 45 39 37
378 890 198 62 55 56
351 764 161 55 46 41
368 755 147 101 74 55
350 765 162 53 44 40
350 762 164 47 40 38
462 730 245 171 119 91
348 765 172 46 40 39
349 755 182 49 37 36
350 756 187 52 34 35
351 760 192 73 32 35
314 970 297 54 51 50
265 525 260 37 30 32
349 765 187 54 45 43
352 765 192 50 36 39
410 673 279 146 15 44
351 766 189 49 45 44
374 712 142 77 60 46
372 715 142 76 64 53
473 789 192 128 87 63
453 675 220 95 76 53
383 711 142 74 59 49
383 715 133 89 65 49
381 714 135 85 63 49
338 915 198 87 77 78
378 719 142 76 59 48
328 685 301 60 28 34
373 715 152 72 59 47
463 830 243 78 59 49
358 655 299 141 21 49
374 712 147 69 55 44
375 712 156 71 62 53
378 711 147 70 54 45
383 710 147 69 53 45
444 841 215 142 127 122
378 710 157 64 49 44
378 717 152 70 56 43
384 718 146 80 68 56
387 969 238 76 71 74
377 717 156 66 55 44
378 720 157 64 53 43
381 736 138 80 70 61
381 735 142 80 69 60
369 722 158 64 48 42
369 725 158 61 44 41
311 551 300 167 7 53
486 598 250 171 118 88
373 725 156 58 43 39
375 727 154 57 45 39
367 978 281 82 80 82
375 732 148 75 59 49
375 731 153 60 48 40
436 854 238 83 83 83
373 735 152 69 53 44
343 985 262 56 53 54
373 730 157 54 42 37
335 880 221 41 37 38
378 724 156 60 49 42
340 844 185 52 48 46
378 730 147 73 57 47
377 730 152 60 48 40
368 719 172 57 42 37
362 719 191 52 34 38
408 785 271 76 58 51
368 715 191 67 34 34
361 535 310 51 27 31
368 719 187 68 35 40
363 721 187 54 36 41
366 718 190 58 38 44
359 736 167 54 40 39
410 561 278 147 21 49
359 736 172 49 39 35
365 725 163 66 52 45
256 536 309 180 126 107
364 725 167 54 44 38
434 876 284 48 43 40
480 782 219 70 52 38
433 720 162 85 63 48
364 731 163 61 48 43
