ply
format ascii 1.0
comment Created by Open3D
element vertex 2222
property double x
property double y
property double z
property uchar red
property uchar green
property uchar blue
end_header
273 840 273 100 69 53
323 852 146 103 82 70
296 869 220 53 49 52
248 50 211 102 87 73
351 472 268 121 17 36
336 808 264 160 114 92
303 670 192 117 13 29
286 23 269 134 30 51
231 496 124 172 11 46
265 667 305 74 53 40
341 702 183 100 22 24
353 70 206 131 37 51
251 413 214 98 83 67
359 450 142 115 13 32
228 930 261 63 57 55
244 838 271 75 61 58
353 160 236 115 94 70
240 696 281 60 30 35
346 908 302 63 52 51
366 541 176 77 23 34
213 435 212 104 7 29
234 625 236 192 8 51
321 823 159 61 54 53
396 646 203 116 97 77
283 600 176 177 4 39
266 340 313 139 101 74
237 617 220 209 12 55
209 485 286 128 11 40
279 796 303 67 52 47
245 51 217 101 46 46
244 175 260 114 95 75
369 830 273 54 43 35
314 845 206 49 46 49
246 49 215 93 54 39
270 628 198 157 11 47
230 934 300 185 137 115
199 440 218 117 0 28
247 26 262 135 32 54
299 683 308 132 13 42
388 660 197 119 95 68
245 70 225 105 54 50
240 259 248 118 90 59
286 403 244 87 71 56
238 640 251 166 19 52
246 262 244 112 84 54
189 445 231 139 8 41
244 50 221 113 29 38
243 55 221 110 30 40
262 675 325 175 119 92
250 261 289 118 94 68
386 450 234 135 7 43
268 445 311 105 7 33
242 60 211 109 26 40
342 634 188 133 23 42
315 280 227 101 81 59
242 60 216 114 23 40
236 511 129 47 36 39
398 446 226 40 24 24
247 295 255 114 89 62
236 411 234 99 85 71
241 65 211 101 61 52
226 468 158 89 13 33
405 674 211 143 103 70
376 687 239 94 24 36
318 28 274 137 30 54
338 505 157 138 1 30
353 540 261 136 80 65
323 50 216 92 71 56
201 490 150 118 20 38
293 955 230 92 87 90
245 141 245 109 90 70
344 26 277 149 20 57
358 205 226 122 99 72
211 474 143 147 0 32
191 485 247 36 30 30
280 471 116 155 1 38
242 65 216 108 64 59
240 231 274 114 93 69
364 504 260 41 19 27
194 435 245 146 0 44
257 730 324 175 116 89
264 715 208 141 2 37
384 585 201 139 24 45
213 435 151 94 24 39
242 60 221 124 20 44
277 185 233 123 95 61
333 680 187 102 20 28
318 345 276 100 71 50
243 35 231 92 34 36
263 90 250 108 27 43
237 465 100 172 5 39
240 180 236 120 97 70
220 476 143 135 3 30
319 420 160 114 52 42
242 40 231 117 28 43
260 14 284 141 100 84
284 605 311 154 104 77
350 184 253 121 98 73
243 270 251 119 90 58
233 235 256 120 96 68
304 402 188 98 84 70
388 510 182 157 11 38
375 852 228 76 60 57
380 703 262 130 16 44
364 699 277 122 5 37
248 35 226 99 82 68
283 430 106 101 57 43
302 924 212 82 74 75
259 819 233 88 67 57
275 228 278 116 93 66
245 36 228 89 34 31
230 475 165 77 20 33
191 490 247 35 30 32
246 33 229 93 66 47
274 347 313 149 105 82
296 454 333 98 22 39
271 52 208 95 53 43
254 214 228 122 95 63
400 755 181 60 47 39
358 315 251 135 102 71
248 70 187 119 35 33
387 774 121 83 62 50
253 405 225 95 82 70
241 35 236 102 45 44
287 290 291 118 92 60
388 780 240 132 97 67
235 246 269 116 92 66
247 175 262 113 95 77
359 554 259 157 99 82
261 413 226 96 81 66
224 575 181 150 18 46
303 960 241 86 81 83
240 176 245 113 93 70
241 35 241 100 61 53
352 160 246 118 94 68
248 215 277 111 91 71
260 721 323 175 118 92
389 715 180 65 56 47
268 205 226 129 98 61
247 375 236 87 77 67
258 65 249 115 88 70
306 295 241 84 70 56
338 162 254 117 95 70
238 424 221 95 81 67
325 181 249 109 88 65
351 99 230 119 15 39
242 40 241 126 31 48
250 760 223 116 17 36
226 950 276 61 58 59
248 514 122 50 38 41
194 425 246 129 14 43
243 45 226 87 47 41
319 409 282 123 17 37
244 365 305 123 97 69
286 20 248 104 29 36
347 130 221 113 92 68
228 800 261 119 86 66
294 330 286 116 82 58
243 80 211 110 62 57
258 17 189 140 10 11
343 895 266 67 60 62
242 45 231 98 39 40
343 260 213 134 97 59
314 956 276 62 58 57
212 440 276 85 23 34
359 215 236 116 93 67
242 45 236 113 61 55
232 400 296 126 99 71
239 427 198 89 75 59
358 275 226 132 97 63
316 359 209 94 82 71
220 588 279 127 28 47
357 749 279 83 63 57
256 418 199 94 80 66
229 425 306 69 22 32
268 745 207 110 27 39
323 290 222 110 87 60
254 100 192 150 20 45
201 565 216 69 27 35
245 53 240 130 18 50
244 45 241 116 88 73
310 277 242 91 75 57
251 33 224 101 89 77
201 428 253 139 7 44
231 379 260 117 94 68
267 246 289 116 93 65
250 300 253 107 84 57
208 419 215 91 11 28
205 416 259 128 5 38
346 330 274 139 94 70
288 815 290 67 55 48
291 326 300 113 84 54
270 188 268 110 89 65
243 35 246 117 39 47
245 98 203 139 25 51
273 929 322 39 38 39
392 640 245 166 117 84
371 678 209 48 42 42
398 465 237 54 27 30
310 302 228 92 78 65
250 70 240 100 61 51
244 40 246 128 20 47
373 469 173 60 30 36
258 537 134 183 7 37
253 185 226 137 102 63
245 288 253 118 88 60
273 675 207 82 25 32
302 360 241 76 62 48
247 36 252 125 21 45
344 440 153 65 35 38
250 735 222 87 25 37
219 475 296 132 12 43
254 310 300 119 93 63
246 32 253 133 22 48
245 38 249 126 20 44
248 290 252 118 89 60
270 248 288 118 94 67
334 925 266 47 41 39
332 566 275 120 13 39
250 125 223 114 92 67
252 635 221 92 23 37
248 40 251 129 38 54
243 215 235 118 92 61
277 65 211 87 51 41
278 350 312 147 99 77
358 735 176 61 38 38
270 412 198 91 78 64
267 952 229 94 89 92
386 445 234 136 4 42
259 654 218 159 1 42
245 44 244 120 34 46
408 815 182 119 84 63
324 230 255 114 92 68
250 38 254 135 19 50
251 139 253 105 88 70
248 55 241 122 61 63
322 225 252 111 89 66
246 390 229 93 81 70
239 185 246 114 93 70
344 291 219 124 95 62
284 14 276 121 73 62
401 627 227 142 105 67
235 215 251 117 94 68
192 505 231 146 4 39
241 344 288 126 97 68
367 410 216 91 77 63
283 40 256 121 23 45
239 180 241 117 95 73
252 36 257 127 33 50
327 105 206 131 16 43
253 40 256 127 41 55
320 90 218 125 33 45
359 722 183 72 38 36
300 377 223 75 66 57
249 660 285 85 35 41
229 955 271 73 69 70
313 295 262 71 58 43
339 886 309 48 42 39
244 838 281 53 42 46
313 385 266 68 48 32
223 420 211 82 55 39
417 798 192 137 94 70
250 44 249 125 102 84
281 70 226 102 78 58
244 310 291 127 99 72
246 444 167 103 11 32
369 735 166 60 48 40
213 435 141 79 30 40
268 855 307 167 132 102
254 113 206 135 89 72
245 145 246 111 91 70
373 695 266 119 1 37
324 125 236 105 81 58
199 465 261 128 6 38
190 490 236 62 28 33
328 845 150 121 100 93
278 795 212 80 62 54
404 655 221 159 108 80
278 545 147 160 6 36
254 44 254 124 100 79
202 489 158 77 22 32
369 440 153 39 28 26
202 495 150 99 32 39
318 699 184 55 35 35
318 340 216 93 81 70
274 170 231 117 91 59
333 165 252 110 88 65
242 50 226 117 31 43
326 205 253 110 89 65
232 675 316 157 112 85
292 923 323 38 37 38
279 650 202 142 7 35
208 465 281 101 17 35
291 320 296 109 78 54
250 12 274 105 70 57
273 800 217 82 64 55
244 370 305 126 99 70
358 340 241 127 101 70
313 330 271 67 54 38
228 470 131 101 2 32
268 255 291 117 94 67
252 389 224 90 80 69
272 95 249 112 68 57
215 584 274 169 4 49
325 906 214 72 65 65
242 275 282 123 95 68
286 963 304 73 66 65
313 635 187 60 34 37
243 55 226 115 69 60
367 410 221 87 73 60
342 360 275 148 103 77
354 200 252 124 99 71
258 431 131 66 48 37
238 455 161 113 0 34
244 235 238 113 88 58
228 400 246 113 97 82
277 650 311 139 88 68
232 904 265 141 113 87
248 120 236 112 92 71
367 714 180 74 46 45
243 55 231 115 41 49
239 295 276 126 95 70
347 100 241 116 71 60
278 560 156 154 15 39
358 425 166 54 35 33
208 436 214 92 10 32
345 632 189 62 39 41
320 212 249 106 85 63
412 430 168 147 16 40
241 70 208 99 51 49
320 47 222 71 42 21
313 25 276 145 23 54
241 219 268 113 92 69
413 420 167 146 25 34
242 300 286 128 99 72
257 444 88 138 36 45
282 916 314 97 80 65
251 210 229 124 95 61
233 440 320 111 23 42
359 375 226 107 88 68
359 275 251 132 98 63
399 645 236 155 109 74
308 690 188 62 34 35
245 49 240 120 62 63
362 245 231 125 99 69
273 345 242 85 74 63
248 145 226 120 96 69
246 56 237 124 88 75
247 60 236 117 42 52
279 942 323 59 54 51
283 324 254 77 64 50
268 350 241 91 79 67
258 265 239 100 78 54
227 480 121 121 17 38
243 60 226 119 58 59
294 502 134 151 0 30
313 650 189 123 15 34
318 270 260 87 71 54
330 155 249 108 87 64
244 60 231 119 35 50
400 644 209 106 87 67
246 96 200 137 17 45
428 750 126 99 74 54
279 246 239 94 75 52
244 65 226 114 38 47
262 570 316 136 104 85
345 710 184 101 23 31
203 435 215 87 16 31
255 602 324 155 117 93
245 386 309 128 99 73
315 78 245 108 6 39
252 115 220 112 86 58
263 258 238 92 74 53
213 490 200 42 32 29
303 605 175 57 37 41
245 64 230 117 26 45
402 675 231 172 119 90
353 265 217 135 99 61
338 150 213 125 96 60
244 340 295 124 97 67
228 535 147 126 25 44
226 611 272 120 27 44
244 150 246 111 91 69
268 305 312 113 88 61
294 350 246 104 82 62
246 62 233 119 10 41
252 585 311 127 97 78
220 444 208 99 13 25
293 850 222 125 93 72
236 254 273 119 94 67
247 100 236 110 50 51
248 65 236 100 22 36
343 95 196 145 22 43
250 65 240 106 36 45
272 300 248 84 71 56
246 50 242 127 26 47
236 464 189 42 22 25
255 12 279 119 77 64
314 395 265 66 47 30
358 660 261 73 27 34
323 30 236 64 39 32
350 195 214 126 99 64
241 228 273 117 95 71
231 415 311 82 20 35
278 22 278 165 118 92
249 50 246 125 20 45
196 440 247 139 0 41
348 120 241 116 94 71
300 426 344 75 23 31
239 335 281 126 97 69
258 846 251 197 137 108
208 510 171 94 7 32
298 445 131 141 9 34
253 520 305 50 21 28
245 150 250 112 92 70
346 80 192 146 24 47
278 12 261 114 46 44
246 180 229 127 99 63
243 436 156 65 23 27
251 50 248 124 32 51
278 450 312 82 12 32
242 340 260 98 82 66
350 300 268 131 94 62
303 480 336 84 27 36
359 409 205 127 106 84
303 535 141 69 35 39
229 430 202 103 20 27
358 225 251 124 99 70
250 54 245 123 15 45
363 440 165 75 28 29
254 246 289 115 93 69
235 442 193 89 16 25
378 710 176 77 63 50
240 626 302 127 100 74
252 55 247 107 36 44
348 90 201 144 23 47
358 435 161 66 22 32
390 526 228 167 7 53
416 478 219 150 22 56
241 80 201 134 11 44
303 855 216 54 48 48
349 300 271 132 96 63
301 534 297 143 91 69
327 645 188 81 28 32
242 205 266 113 92 68
273 20 237 80 43 30
277 600 325 165 118 87
206 454 273 73 20 30
275 204 268 115 92 67
190 480 245 64 28 34
287 879 211 43 41 44
206 495 283 48 29 31
270 18 284 162 119 111
258 865 309 153 108 96
248 180 227 134 101 62
315 800 188 84 65 55
319 240 217 124 95 60
247 354 302 118 94 67
318 505 145 133 5 28
246 155 229 115 94 70
285 240 252 102 80 55
198 535 236 177 1 47
253 50 250 121 46 56
288 270 266 104 81 55
254 55 250 115 67 61
240 690 256 75 29 37
269 370 235 94 80 68
253 155 260 107 89 71
263 11 271 119 72 65
308 840 278 161 126 98
238 395 241 94 82 71
294 391 241 99 76 64
258 560 310 93 10 30
273 350 242 91 78 65
252 112 206 128 69 60
235 475 181 81 19 34
250 59 244 110 23 37
289 345 251 94 75 55
355 368 219 101 85 68
318 815 181 49 45 46
287 725 318 179 17 56
204 449 150 131 1 38
391 792 244 77 58 44
226 617 256 89 34 38
222 445 139 63 40 34
258 865 255 110 88 61
258 600 325 152 115 89
373 495 177 91 18 31
394 515 226 173 6 55
338 210 261 120 97 71
328 680 291 81 21 35
224 515 301 78 24 37
393 790 141 93 69 54
352 145 241 116 93 68
244 70 191 118 34 45
231 740 277 148 112 82
202 452 219 106 0 35
293 775 197 82 63 53
289 381 238 146 105 90
203 418 219 75 25 24
353 434 269 91 25 37
348 875 301 40 37 36
248 875 311 140 78 79
248 190 227 134 102 64
244 75 191 136 13 46
404 775 156 83 63 47
247 220 277 110 91 70
373 839 176 85 68 61
268 70 252 113 82 65
204 505 206 118 1 31
327 120 246 112 89 66
201 545 256 78 25 36
247 125 231 116 95 72
245 243 238 113 87 57
241 181 234 123 97 68
238 580 305 83 26 36
203 480 155 119 1 35
203 535 206 48 31 30
250 121 223 115 91 64
199 535 216 50 29 31
252 590 316 142 113 89
244 80 192 143 5 45
260 413 318 78 62 44
239 866 276 139 110 82
412 424 222 55 25 23
397 805 239 75 54 41
241 200 234 126 99 65
277 500 126 60 30 32
258 265 295 116 93 68
249 80 187 142 11 42
325 926 297 54 47 43
291 287 280 114 90 61
423 810 206 132 91 70
255 70 183 120 34 31
235 833 301 199 130 105
248 585 175 200 12 45
332 894 312 50 43 39
371 773 259 93 76 68
252 70 185 121 34 31
222 452 153 99 9 28
258 969 261 85 81 82
332 175 253 113 91 68
209 580 241 121 16 42
255 79 183 132 27 39
241 209 262 110 89 65
201 546 236 53 27 33
312 315 225 92 79 66
247 130 241 111 91 72
210 481 207 40 34 34
215 465 208 50 32 30
378 840 266 67 54 44
249 115 241 112 93 74
228 490 186 66 22 33
235 225 256 115 93 68
252 75 185 131 18 32
235 425 324 57 24 31
293 790 297 75 59 53
228 470 161 67 22 31
204 440 142 70 32 40
265 121 215 129 92 63
416 800 181 108 77 57
331 31 193 133 27 11
248 110 236 116 94 72
193 465 226 120 3 29
247 85 191 149 9 47
370 812 149 76 56 47
338 110 250 123 97 67
285 891 177 91 79 76
348 65 196 109 47 38
313 55 251 106 48 50
290 299 288 125 94 63
320 830 268 126 93 76
284 881 222 51 50 53
283 210 246 105 84 61
207 504 168 43 24 29
254 28 265 121 72 65
200 508 158 113 37 42
249 84 188 148 13 44
245 645 280 114 12 38
229 885 291 170 124 108
253 25 271 144 22 55
302 430 346 89 20 35
250 366 237 92 80 69
282 505 328 159 16 50
333 880 192 70 62 62
351 848 168 90 73 66
355 175 231 118 95 70
297 450 132 99 25 38
258 21 232 113 81 67
289 435 326 141 11 45
241 231 239 114 88 57
253 85 186 147 14 43
341 418 175 99 77 61
298 930 328 59 54 52
273 135 241 104 81 53
254 34 260 134 26 52
343 225 209 126 97 61
279 715 198 98 26 39
249 90 191 145 10 44
403 765 116 72 55 41
231 461 105 156 6 40
220 407 261 85 65 55
250 130 223 117 96 72
246 622 214 36 31 40
290 451 124 166 5 40
326 759 285 91 69 61
248 460 95 182 5 36
292 404 226 103 82 68
246 370 240 90 80 71
236 220 257 112 91 68
286 245 266 112 88 61
250 104 198 137 14 42
213 425 210 126 12 21
232 465 195 55 23 30
348 510 282 184 123 102
244 80 226 105 26 38
254 558 148 68 35 40
276 627 194 53 36 40
242 771 234 69 56 50
253 90 187 151 17 47
236 251 250 122 94 63
262 433 115 80 68 52
258 275 297 115 92 67
253 380 313 131 99 75
235 875 296 159 118 100
235 240 247 122 95 64
246 624 292 136 43 52
252 735 220 116 20 40
254 968 266 80 75 76
243 455 92 180 4 36
250 116 244 110 93 76
250 94 192 142 10 45
227 945 271 63 57 57
227 435 301 72 25 34
232 476 110 126 20 41
327 280 267 100 80 59
206 512 204 123 5 33
263 660 216 140 0 35
253 360 310 128 99 71
249 175 265 110 92 75
243 95 216 132 37 53
422 465 216 99 25 38
398 785 240 77 56 39
240 225 270 114 92 68
380 585 216 66 27 33
283 590 171 182 4 39
285 462 124 162 2 33
303 605 295 40 26 30
255 93 188 158 25 53
239 215 238 115 91 64
366 438 264 60 23 30
273 795 307 138 101 76
285 277 254 113 89 73
245 422 198 93 79 65
243 432 138 57 28 29
240 70 201 121 36 44
315 795 188 83 65 54
263 124 253 111 89 67
249 881 253 131 104 73
230 446 125 34 28 39
283 390 239 104 83 63
246 140 236 112 92 70
271 100 206 115 47 47
242 70 196 123 32 44
241 913 244 59 55 58
241 68 199 120 33 45
232 405 301 112 86 64
273 180 230 129 98 61
243 85 221 92 52 44
245 732 328 174 120 93
250 110 240 113 93 73
307 735 184 92 25 34
269 160 225 124 94 57
226 418 293 102 5 28
243 310 261 124 95 68
354 894 292 131 111 113
320 165 236 100 80 58
208 485 206 60 30 33
240 72 198 128 30 47
292 500 321 118 23 42
353 450 267 127 18 42
286 25 248 105 37 42
245 145 241 110 90 70
294 370 266 85 66 50
293 735 318 103 28 43
229 485 186 42 27 30
240 67 202 117 36 44
231 941 297 133 93 80
329 115 216 118 83 58
303 735 317 163 15 53
243 155 241 113 92 70
289 336 242 90 69 47
246 604 304 137 102 88
333 190 256 116 93 68
250 413 323 43 32 35
233 530 305 69 28 34
246 102 232 114 46 49
343 425 268 121 9 39
324 655 287 52 26 31
226 403 283 124 98 70
314 250 251 93 75 56
240 67 205 113 36 43
238 400 237 97 84 71
242 75 196 137 15 46
251 379 229 87 77 66
360 500 169 97 1 33
370 413 236 108 86 61
240 785 238 76 61 53
335 201 259 117 94 69
343 185 256 122 98 73
371 484 244 151 16 47
308 400 261 53 41 28
357 804 134 81 62 49
271 187 228 121 94 59
195 456 249 132 3 38
365 742 167 59 47 41
369 635 242 98 37 41
218 750 311 172 119 94
244 150 241 112 91 69
324 110 246 115 87 66
274 110 226 125 87 63
319 60 216 95 32 35
266 374 314 145 106 77
241 423 224 97 83 68
338 245 265 126 100 71
284 215 246 104 84 61
298 860 221 56 49 49
333 611 279 30 26 27
247 125 236 113 93 72
374 425 261 130 33 47
285 460 319 70 21 36
213 411 246 68 45 41
203 490 147 87 24 36
222 450 297 56 24 29
313 420 146 128 30 34
221 601 272 72 26 32
250 256 289 116 92 68
251 549 313 140 17 46
258 65 185 109 24 20
240 73 198 130 27 45
254 105 245 114 95 76
255 838 243 49 45 52
240 74 201 129 21 43
362 450 140 121 10 31
388 470 235 49 22 25
377 830 166 84 68 60
393 422 195 54 28 25
314 265 227 111 88 61
243 250 282 117 94 68
300 451 134 88 30 37
348 300 222 110 89 64
240 347 289 124 97 67
284 215 251 106 84 58
241 76 200 136 16 43
269 446 94 101 35 42
345 27 273 137 64 62
271 879 239 79 69 60
366 523 269 174 121 99
246 140 246 108 89 69
233 610 291 71 27 35
239 230 271 116 94 69
374 417 181 66 30 32
308 290 241 85 71 56
258 115 206 147 99 78
319 730 306 176 9 56
205 563 256 117 12 45
242 80 196 140 7 46
253 150 221 131 101 65
240 74 205 119 27 43
267 61 192 91 36 18
318 395 191 99 86 73
238 420 211 92 77 63
350 470 281 150 94 86
281 85 231 111 36 44
241 76 207 115 40 48
218 760 311 178 121 96
256 43 209 125 72 51
303 416 151 97 84 67
363 585 170 170 14 38
251 107 220 130 90 71
242 80 206 112 52 53
253 966 291 56 51 49
277 220 232 109 84 55
261 19 188 140 10 11
258 220 228 116 91 62
221 429 288 57 30 35
254 376 228 90 78 67
362 250 231 123 97 67
366 507 258 42 20 27
201 547 184 164 5 39
211 480 288 135 6 38
323 550 151 68 32 37
353 295 226 112 89 63
317 210 220 117 93 63
330 838 258 59 50 43
243 70 216 112 38 49
238 485 111 101 29 41
392 841 265 64 50 37
244 70 221 114 21 41
288 360 236 91 73 58
206 575 226 130 24 45
382 829 172 83 65 56
248 250 286 115 93 69
351 93 212 141 25 46
244 75 216 102 54 53
293 565 311 163 110 86
335 474 301 116 73 65
329 566 159 176 10 43
251 316 254 103 82 59
368 445 136 58 39 39
316 449 336 132 19 44
225 519 143 158 7 41
243 80 216 109 33 44
324 90 211 107 49 46
250 187 269 109 91 73
204 532 184 105 11 32
222 606 236 203 2 55
292 455 327 93 22 39
328 280 217 129 98 63
321 805 180 53 47 46
237 556 159 145 17 43
238 190 241 118 95 71
293 415 316 57 30 27
222 410 251 87 72 59
273 424 151 80 64 51
357 200 221 119 96 70
241 446 158 109 4 35
312 45 251 105 79 65
345 66 243 107 84 66
244 75 221 99 37 41
324 689 298 94 20 36
318 55 221 80 36 32
244 85 196 142 8 46
272 408 205 93 79 64
242 85 201 133 11 44
231 448 104 148 20 48
248 240 236 111 86 56
229 456 131 98 9 31
245 84 193 148 6 44
309 851 200 42 40 43
264 427 161 78 55 43
235 254 253 127 94 64
354 460 147 126 11 33
218 785 301 176 119 90
195 412 238 69 34 37
263 972 276 66 60 59
246 87 194 145 9 44
241 646 268 169 7 49
331 634 284 77 24 35
294 568 158 161 11 43
252 27 267 128 68 64
200 431 254 136 0 43
291 358 241 103 81 62
242 85 206 122 20 42
226 786 260 167 116 85
268 360 242 97 83 69
311 811 194 86 67 57
244 295 257 121 92 63
329 40 195 133 29 13
195 412 241 64 32 35
241 650 323 155 111 87
362 430 135 56 38 40
237 460 166 84 14 32
363 500 276 162 120 97
245 89 198 140 10 45
352 85 216 100 63 53
199 525 176 113 12 38
233 434 146 58 24 27
377 628 209 116 86 61
251 650 288 45 36 35
313 830 186 47 45 45
324 110 226 115 81 58
245 284 253 118 88 57
315 450 331 118 17 39
216 596 256 93 36 40
316 692 304 140 12 41
245 94 202 134 19 46
253 260 239 108 83 54
230 499 309 153 17 49
288 710 192 135 8 34
283 60 236 99 40 42
232 745 251 153 9 46
314 901 200 74 66 65
328 725 296 147 15 49
308 620 182 91 31 39
248 95 196 141 13 45
223 495 191 39 29 27
352 270 217 136 98 61
246 92 199 141 17 47
208 411 246 62 36 36
293 385 286 122 84 64
243 90 206 110 57 56
214 481 203 38 33 30
242 235 240 114 88 56
226 945 281 54 48 49
359 504 255 50 23 28
226 390 266 116 92 65
258 135 255 108 89 69
244 95 206 121 26 41
268 426 146 79 58 45
236 226 244 116 91 62
225 943 273 64 57 56
319 170 226 105 83 56
249 108 210 130 49 52
241 195 234 125 98 66
249 190 270 109 91 72
320 941 288 54 46 43
337 799 269 159 118 98
361 231 240 119 94 65
225 435 299 55 27 31
275 102 243 118 86 64
242 85 211 124 32 48
208 506 169 67 19 31
268 270 297 108 88 66
251 207 229 125 96 61
365 393 239 117 94 66
323 485 312 145 95 89
258 235 232 99 80 57
243 170 231 118 94 67
354 610 271 75 34 41
257 735 215 119 18 37
403 460 236 32 29 28
191 490 251 36 30 32
318 60 221 108 23 36
225 823 296 209 142 114
284 13 271 116 55 52
282 490 327 102 23 39
243 645 276 141 8 44
243 85 216 113 48 51
309 450 144 92 28 32
361 446 139 51 38 39
347 701 290 38 29 30
253 235 233 105 83 57
244 340 256 99 84 68
303 670 302 144 13 45
270 561 319 138 108 86
313 655 189 131 8 32
278 12 256 113 42 39
398 435 212 55 23 24
242 532 140 88 34 42
330 22 233 90 72 57
258 55 185 132 16 17
253 505 117 77 38 43
373 490 151 116 9 37
308 569 158 60 37 42
309 340 222 87 75 63
368 720 175 64 44 40
243 90 211 106 71 61
267 554 313 76 42 40
238 875 305 139 97 84
241 205 261 113 91 66
243 90 216 114 44 48
231 450 127 90 16 32
357 270 222 135 100 62
268 17 238 91 79 67
347 905 301 65 55 53
313 630 185 79 35 39
312 363 214 91 79 68
283 275 253 103 83 64
237 235 266 115 92 66
242 185 256 114 93 69
359 455 263 65 25 30
323 365 276 136 94 76
244 95 211 136 22 46
355 660 263 46 24 30
290 566 318 173 125 103
253 345 306 118 94 67
283 30 261 125 63 63
268 940 325 68 64 64
258 259 238 99 78 54
249 146 254 107 90 72
272 435 107 79 68 54
343 215 210 123 97 63
208 511 154 63 35 39
241 511 124 132 41 55
219 476 203 41 31 29
298 959 233 82 78 80
297 772 194 81 61 55
238 225 241 114 90 62
381 585 215 51 29 32
246 84 233 101 26 39
338 240 265 126 100 72
287 460 126 155 2 34
359 761 162 46 42 41
252 869 255 124 100 72
243 90 221 122 23 45
285 466 319 68 21 30
343 536 257 126 71 63
291 439 118 160 4 42
245 314 258 115 91 64
244 95 221 115 75 64
230 519 138 168 4 39
314 418 326 78 27 36
316 721 309 164 0 51
258 555 145 154 23 45
328 12 253 104 64 54
253 31 262 123 39 51
320 451 268 141 14 43
284 429 125 87 71 52
249 150 255 108 90 71
264 69 184 120 24 29
213 460 142 143 0 33
311 848 196 43 41 43
331 552 269 139 10 42
246 67 227 115 90 75
288 705 317 65 25 33
277 670 205 98 27 35
245 141 241 109 90 69
243 225 236 114 89 59
358 422 269 117 25 44
370 846 268 57 48 43
198 412 246 47 29 31
326 899 208 72 65 65
247 70 231 106 83 65
202 555 226 176 0 48
351 57 212 111 34 40
227 430 301 121 13 38
355 620 267 166 22 53
234 490 117 112 27 41
226 942 270 82 74 70
318 12 266 126 44 46
358 505 280 175 122 100
324 504 149 132 2 27
325 941 245 86 78 77
220 445 294 58 24 28
289 880 176 70 64 64
398 725 153 94 66 47
338 80 252 116 59 56
252 105 242 112 93 73
350 46 247 126 54 58
394 430 211 61 24 27
359 210 236 117 94 68
235 237 264 117 93 67
333 460 265 36 22 24
338 240 210 126 95 57
338 13 256 100 64 57
278 955 231 95 90 95
265 660 213 146 0 34
308 404 276 51 40 28
218 455 153 123 1 39
244 75 225 99 36 39
331 530 153 79 23 34
200 482 218 98 5 31
312 235 241 101 82 62
334 109 198 120 62 58
403 426 206 53 24 24
358 725 286 57 29 33
246 75 228 93 76 60
313 300 226 91 78 65
318 755 181 115 16 33
234 795 246 75 63 59
315 202 239 101 82 61
217 412 237 84 71 60
223 445 154 45 26 28
249 340 252 95 81 66
264 19 235 97 83 70
283 815 292 69 54 46
243 365 246 94 82 71
245 81 229 96 41 36
266 156 259 109 88 65
371 823 263 60 48 36
190 485 236 114 26 42
246 78 228 84 62 44
242 670 251 130 15 42
239 437 126 53 34 32
247 15 272 113 73 71
207 530 277 158 3 48
294 896 185 84 73 73
338 235 264 125 100 72
250 115 223 121 93 65
233 585 302 105 25 41
313 455 301 77 24 34
205 455 147 134 1 38
232 380 286 124 97 68
318 35 267 121 53 58
206 498 163 65 23 27
288 416 166 81 68 54
339 462 270 40 24 26
246 408 313 105 84 64
211 458 283 84 18 30
229 475 311 152 16 48
390 822 175 75 56 46
401 755 150 66 54 42
247 80 231 101 66 55
223 410 281 122 8 36
417 485 201 53 32 33
284 280 254 101 81 59
249 75 236 109 44 49
296 785 199 85 66 56
273 580 325 148 113 81
364 534 168 61 32 39
347 375 208 92 82 73
244 920 231 63 58 61
343 235 264 129 103 73
258 165 264 110 90 69
250 75 239 117 26 46
223 465 156 103 8 34
289 390 232 132 98 79
359 230 251 123 98 69
250 145 223 122 97 68
314 54 256 112 43 50
338 270 214 132 98 61
238 265 276 126 97 69
253 515 306 67 13 27
345 88 243 98 17 34
236 210 251 114 92 68
356 391 213 136 111 84
341 858 168 84 73 69
240 172 241 113 93 71
263 570 156 145 24 43
273 130 241 105 80 53
237 205 251 114 92 69
247 429 190 87 75 61
313 245 226 115 90 60
236 374 292 125 98 67
294 486 311 77 26 35
350 75 228 105 36 38
248 115 236 114 93 72
257 884 241 150 119 91
247 445 324 119 21 42
375 577 194 76 29 39
241 650 256 186 1 54
282 910 314 139 106 80
375 706 182 76 61 53
224 400 251 90 77 63
329 66 188 97 40 22
312 835 191 55 51 51
283 756 313 75 61 56
249 80 236 107 28 42
318 26 276 142 29 54
250 80 239 115 15 40
241 766 234 67 51 46
258 685 216 117 15 35
244 210 271 113 92 70
398 515 221 92 25 39
258 175 268 110 91 70
251 433 152 69 34 32
335 166 254 114 92 68
263 899 225 67 51 46
240 216 265 111 90 68
411 478 183 160 16 37
283 933 213 95 89 91
248 225 234 112 88 59
242 710 236 70 32 37
338 463 276 40 24 25
277 59 254 131 95 80
241 200 257 111 90 66
255 79 244 102 36 43
243 85 226 104 26 38
263 16 237 91 79 66
248 440 171 86 15 26
243 961 301 66 61 58
239 360 252 99 85 70
244 95 226 109 85 64
376 853 197 92 74 65
352 245 213 133 101 61
238 421 226 97 82 67
302 540 285 93 22 37
244 90 231 105 24 40
253 114 201 152 45 58
286 235 250 100 79 54
214 501 169 50 24 28
408 425 165 100 32 37
244 95 231 107 23 39
401 745 188 116 85 59
234 441 126 47 34 32
341 838 249 46 38 32
314 270 256 87 73 58
246 89 233 103 74 59
360 380 226 102 84 65
248 400 312 131 99 75
195 416 249 35 29 35
248 410 316 80 63 50
247 90 236 109 90 72
216 586 272 166 9 51
293 885 172 89 76 72
250 498 113 159 15 43
253 850 271 78 60 52
236 360 282 121 95 67
243 185 261 115 94 73
358 888 282 79 65 60
363 495 144 54 33 38
387 733 164 69 52 40
276 175 233 116 90 59
350 70 228 114 64 59
339 710 293 56 28 32
245 95 234 108 14 35
263 370 313 140 103 77
251 253 288 114 92 67
370 792 129 91 67 52
249 95 240 107 36 43
253 770 326 168 121 87
222 495 146 83 22 32
374 460 146 67 31 35
303 552 149 141 22 40
328 50 206 114 89 58
239 205 237 124 98 69
295 491 325 112 27 40
284 740 197 49 35 39
218 435 141 93 28 36
419 460 227 144 24 51
267 160 260 109 88 65
252 90 242 98 34 38
248 930 317 167 129 108
278 250 233 94 75 52
347 109 221 113 84 60
252 95 242 108 26 42
300 380 221 73 64 56
254 90 244 103 23 39
277 36 232 79 36 23
405 802 180 121 86 61
315 445 281 96 12 34
297 898 188 83 74 71
233 245 256 125 98 67
235 823 319 198 141 117
254 95 245 108 29 44
266 42 213 115 98 83
369 766 263 88 70 60
268 570 156 167 15 42
203 505 167 53 24 29
428 416 221 72 22 29
276 75 198 146 23 46
242 170 251 113 92 69
399 535 191 174 18 44
190 416 232 43 33 37
343 509 285 182 118 99
313 610 290 125 19 44
247 100 201 136 15 46
338 13 261 105 57 54
377 421 211 66 50 44
352 779 151 53 47 46
234 465 102 172 8 42
280 32 263 136 93 83
333 420 171 112 68 55
268 50 257 121 88 69
268 970 286 68 64 63
327 903 212 68 60 60
236 469 172 82 16 35
245 99 206 127 25 42
353 585 265 112 9 34
234 235 261 117 94 68
388 480 240 49 26 29
314 25 247 90 32 23
368 625 246 82 26 33
302 370 226 76 66 56
263 80 250 106 19 40
253 464 98 178 3 35
250 622 324 160 119 90
350 105 226 120 86 65
294 365 266 90 68 51
249 442 92 98 23 28
318 690 301 140 12 44
333 195 257 116 94 69
247 105 206 122 21 41
281 85 227 117 23 40
226 445 154 39 25 29
273 945 322 64 59 59
388 515 183 157 12 37
308 16 261 118 36 45
251 97 194 147 12 44
340 501 293 190 133 116
255 140 218 132 100 62
247 115 231 120 98 74
279 35 235 90 61 45
220 766 281 130 97 65
226 500 134 77 32 39
292 375 256 98 76 63
348 190 256 121 98 72
252 101 194 148 15 45
245 99 216 109 75 60
330 113 206 138 82 67
205 462 149 133 0 38
390 580 236 139 112 81
235 220 246 120 95 68
220 426 284 94 18 34
374 720 172 59 48 40
234 250 266 120 95 67
337 546 259 123 12 38
247 440 176 91 12 29
285 854 228 133 96 73
388 480 176 153 7 36
338 536 257 95 28 36
249 105 201 132 12 41
254 115 216 115 89 61
228 540 301 73 25 32
350 490 257 45 28 31
258 844 301 125 95 73
223 510 301 47 28 29
314 430 291 84 22 36
223 416 221 88 64 50
214 435 276 54 30 32
368 800 135 101 75 55
229 490 122 158 6 41
253 105 195 141 21 42
363 816 150 86 62 50
273 105 246 117 87 62
235 375 252 98 82 64
286 404 231 96 77 63
361 645 255 105 22 41
222 489 167 53 26 30
255 104 193 141 34 46
230 418 230 96 82 68
246 150 252 110 91 71
381 430 250 168 21 56
243 610 295 105 20 38
272 423 165 82 66 53
373 475 151 92 15 36
235 472 182 61 30 33
238 423 224 96 82 68
264 286 304 109 86 63
254 130 217 128 100 67
317 180 226 106 85 59
395 832 199 168 114 88
240 224 238 115 90 61
220 510 152 83 22 30
316 38 239 107 24 22
333 380 274 151 104 81
297 671 304 110 19 37
254 120 216 119 94 65
316 348 273 86 60 41
249 110 201 139 17 43
378 785 246 76 60 50
346 611 279 37 29 30
337 54 259 119 54 54
368 785 256 86 68 60
395 640 243 159 112 78
378 750 156 61 53 48
222 485 301 141 14 43
254 645 221 82 30 38
253 110 197 133 29 40
402 771 181 87 64 51
241 203 258 112 90 67
340 111 211 124 88 63
393 555 211 40 28 32
252 120 220 112 89 62
358 735 285 52 24 32
286 235 243 106 81 55
244 380 236 87 78 70
245 376 238 88 80 72
309 380 202 94 82 71
235 211 250 116 93 67
245 432 188 83 72 55
250 108 198 134 11 35
267 425 315 32 26 25
314 360 211 93 81 70
285 243 261 105 83 55
252 171 224 135 103 63
386 571 237 132 107 81
272 413 195 91 77 62
318 21 286 174 124 110
251 112 200 145 25 49
318 250 255 97 78 58
383 860 276 69 56 46
277 905 186 91 81 80
382 535 235 154 17 50
245 99 211 114 71 62
273 630 326 161 112 80
348 16 251 99 57 51
195 454 223 136 0 33
246 101 211 95 64 52
234 945 301 53 44 43
276 66 202 117 34 41
312 270 241 95 77 57
337 915 246 63 56 54
374 445 252 162 10 51
243 260 246 116 88 56
284 396 216 94 77 63
268 145 222 122 91 54
229 380 266 120 96 69
327 260 262 109 88 64
314 931 307 58 52 49
246 102 216 114 45 43
371 417 141 96 30 40
236 234 263 116 93 68
283 885 216 46 45 48
333 14 290 153 41 65
219 500 192 39 26 27
252 552 144 102 29 40
254 824 238 86 65 56
314 12 286 127 83 66
254 125 250 108 90 72
248 105 216 133 35 50
282 60 226 100 26 32
387 575 250 165 122 89
228 895 281 125 90 77
293 480 337 115 22 41
359 285 236 125 96 63
243 160 236 114 94 73
401 785 156 82 60 50
322 690 300 132 17 43
426 454 216 100 29 39
303 370 251 66 53 41
263 290 246 86 70 52
249 220 279 112 92 72
243 480 317 155 17 50
280 50 230 96 32 32
278 370 310 147 102 78
229 405 242 101 87 72
227 479 194 61 29 36
245 100 221 113 49 50
371 488 244 132 20 47
248 130 246 108 90 71
385 847 244 87 73 68
225 392 262 111 90 65
320 57 207 83 66 53
284 45 251 118 83 70
246 102 220 134 13 46
235 412 324 42 34 23
388 495 240 145 19 49
414 445 175 131 17 38
261 82 248 97 51 44
308 624 183 58 38 40
248 105 221 127 57 57
235 645 301 149 115 87
315 285 227 98 80 59
347 130 245 116 93 68
293 515 317 144 107 94
235 710 261 69 27 37
368 475 141 127 8 32
212 550 171 106 25 41
238 575 171 118 32 45
358 535 153 147 12 36
314 65 231 104 43 44
321 430 346 86 24 35
252 107 213 141 93 77
333 285 272 104 83 60
258 470 101 106 20 37
393 785 241 84 58 40
378 752 137 65 52 43
365 509 247 146 16 50
320 241 254 105 85 63
215 431 276 44 28 31
289 859 297 129 104 77
222 443 153 33 29 26
363 875 241 66 58 59
332 64 189 104 39 25
318 495 310 169 108 99
257 412 319 76 61 45
329 741 292 82 63 54
240 219 238 114 90 62
252 107 216 140 98 78
258 79 183 129 32 42
295 668 303 136 15 45
244 160 231 115 94 71
363 780 121 72 58 50
341 150 213 124 96 62
251 168 263 109 91 73
229 405 296 106 77 59
246 667 278 149 16 47
397 725 234 163 108 78
246 158 229 115 93 69
365 626 248 52 25 32
253 110 216 126 92 70
318 467 295 72 13 28
296 876 299 137 104 77
263 575 320 138 110 85
252 110 220 121 86 64
234 475 176 52 26 33
273 190 266 110 88 62
286 240 246 99 78 56
332 185 214 125 97 62
378 715 275 152 8 48
199 495 271 54 25 29
252 569 304 44 23 26
318 330 218 91 79 68
247 140 231 115 95 72
356 500 149 45 36 39
302 968 251 88 83 86
282 335 256 86 69 49
317 930 306 58 52 49
328 715 181 118 19 31
343 625 185 67 37 39
322 105 241 118 87 68
276 504 127 39 31 34
243 433 147 59 22 28
416 423 168 144 20 50
340 54 195 96 48 16
372 770 126 57 49 43
251 155 224 126 98 64
347 245 264 127 100 67
204 504 153 47 32 38
295 350 286 123 84 63
224 599 212 202 5 54
308 335 226 83 71 60
254 113 198 151 33 64
263 228 228 101 81 59
319 430 155 96 30 37
255 218 228 120 93 60
298 395 206 91 78 66
266 47 207 116 98 79
213 590 236 67 28 35
284 605 306 125 81 60
194 420 222 58 39 32
205 485 280 65 27 30
255 120 213 131 101 68
248 205 230 128 99 65
333 340 280 146 100 77
253 400 314 136 103 79
263 265 240 92 74 54
216 498 168 71 19 34
254 125 216 128 101 71
245 150 236 114 94 72
307 928 218 79 72 73
308 360 217 86 75 64
280 934 329 66 63 63
355 329 229 109 89 66
213 411 251 74 42 42
252 125 220 118 95 69
236 257 254 125 94 65
418 810 201 135 91 67
320 103 236 130 90 74
273 964 306 61 55 54
299 609 178 139 18 44
248 170 261 112 94 75
244 100 226 124 32 49
245 165 228 118 94 66
210 538 279 163 5 49
247 105 226 126 79 66
303 555 150 100 31 41
245 911 237 63 58 58
302 483 326 62 25 33
194 450 222 134 0 32
342 34 265 136 25 53
370 550 184 92 21 35
248 105 236 115 93 70
303 412 166 95 81 66
238 575 307 92 28 38
315 446 320 149 9 43
408 421 196 68 32 34
251 114 243 109 92 74
358 868 292 45 40 37
290 430 114 142 18 32
238 225 266 113 91 67
353 840 282 52 42 35
315 574 288 113 25 45
387 590 250 169 118 88
344 43 219 123 106 89
333 70 186 115 40 34
247 110 231 120 97 73
252 504 309 157 17 49
249 100 240 109 63 58
300 888 163 84 70 63
324 720 301 165 6 52
218 460 207 36 34 33
227 405 291 106 78 57
332 12 290 155 49 71
348 230 210 128 98 61
240 222 269 113 92 68
250 105 240 114 94 73
240 422 203 89 77 64
372 445 138 59 39 39
252 100 242 111 82 66
237 450 322 120 22 43
248 345 301 119 94 67
346 883 208 86 73 73
318 335 217 93 81 70
249 265 242 111 84 53
336 476 301 114 75 61
338 225 263 121 97 72
248 115 226 122 97 69
319 104 231 124 72 62
293 470 336 77 24 34
279 185 235 116 91 59
248 120 226 118 94 68
284 355 250 96 77 60
358 730 286 44 28 31
423 425 230 68 26 31
209 465 142 146 1 34
258 431 161 76 43 33
372 490 146 102 18 35
325 22 238 89 75 60
308 435 141 112 22 37
258 430 141 68 40 35
236 459 162 112 1 34
281 94 227 115 34 40
248 125 226 116 93 68
313 675 188 98 26 32
232 621 276 68 27 34
208 435 146 74 31 43
258 24 230 116 76 61
211 580 261 177 0 48
280 632 311 148 94 69
231 725 266 138 7 43
216 592 215 203 12 57
365 726 283 184 18 60
248 275 291 117 93 68
344 376 273 147 103 78
249 446 323 31 25 27
363 450 161 96 8 35
268 11 246 85 68 58
263 190 225 127 98 63
316 440 318 149 15 46
248 125 241 110 91 70
268 434 106 80 68 54
268 836 281 53 42 38
303 640 296 151 9 48
253 115 246 108 90 73
212 455 214 89 18 28
336 910 256 53 47 45
254 151 259 107 89 70
362 879 251 76 67 67
250 121 245 109 91 73
241 454 181 73 17 32
234 614 221 206 9 54
248 155 226 118 94 66
229 385 276 121 96 68
264 507 119 44 35 33
206 576 216 79 27 35
333 65 257 119 40 51
328 295 275 106 83 59
249 295 252 114 88 61
232 462 133 97 4 29
277 271 294 118 94 65
252 120 247 107 89 72
351 55 231 120 97 81
249 125 246 108 90 71
394 496 179 161 12 37
351 216 259 124 99 70
250 135 223 120 98 74
333 550 156 87 32 37
338 255 267 127 99 70
250 437 166 78 36 26
314 511 286 167 104 86
243 765 231 96 41 46
267 80 186 145 15 42
248 810 325 190 139 113
307 350 266 71 55 39
241 320 265 101 82 62
252 135 220 125 99 69
275 613 183 199 14 45
208 494 162 62 24 30
333 25 281 131 84 71
292 770 195 99 48 50
258 660 326 152 109 78
254 135 217 131 102 66
243 458 93 184 7 41
303 756 307 92 73 64
233 250 256 127 98 68
333 845 281 42 35 31
228 725 322 155 109 82
250 140 223 122 98 72
306 853 186 43 42 44
318 180 236 99 80 58
232 485 313 163 16 52
252 140 220 126 98 65
251 654 289 54 44 41
354 845 176 77 62 56
233 360 266 119 95 69
195 510 260 64 25 30
240 622 303 128 100 74
253 145 221 129 99 63
292 426 117 129 47 36
295 556 306 155 100 79
201 460 267 125 9 39
296 349 285 120 82 64
358 490 276 98 72 56
266 224 228 107 86 62
231 430 312 124 10 40
255 18 279 140 103 86
218 470 145 125 10 34
333 301 279 110 85 59
344 160 214 125 98 65
228 385 261 118 94 68
328 325 217 92 80 68
255 144 218 136 101 61
333 425 269 117 15 41
253 155 222 132 101 64
392 773 127 99 72 57
228 570 172 65 33 39
234 230 256 117 94 69
294 305 281 122 96 66
405 650 221 156 108 80
348 265 215 135 98 60
313 500 311 179 120 107
234 720 291 116 86 65
314 416 150 138 38 33
253 160 222 133 101 62
204 470 147 140 0 35
350 305 224 108 89 68
403 745 131 88 65 49
252 840 250 62 54 54
231 440 199 97 14 29
336 163 253 112 89 65
338 464 286 37 22 28
255 273 243 106 82 53
248 530 132 104 21 37
333 915 236 78 69 68
247 130 231 116 95 72
225 508 304 55 24 32
312 250 236 105 84 59
245 12 261 88 35 35
246 582 174 159 18 45
321 178 243 105 85 62
284 403 244 87 71 57
248 12 261 87 39 36
356 740 179 54 34 35
305 305 237 84 70 56
202 520 211 56 26 32
358 841 176 76 63 59
263 65 252 115 56 54
291 896 309 144 112 86
273 135 236 105 82 54
298 960 296 61 54 50
399 725 233 169 114 85
295 350 276 107 76 58
247 135 231 114 94 72
293 605 297 42 29 29
311 320 224 89 76 64
246 135 236 113 93 71
231 451 122 79 18 31
251 199 273 108 90 72
343 115 217 106 83 54
260 54 254 114 68 60
318 416 162 103 63 46
299 814 203 86 66 57
248 140 226 119 96 71
369 480 247 154 15 48
303 665 192 133 5 33
354 320 257 137 100 68
323 11 296 144 40 59
318 870 156 101 88 82
276 635 324 157 110 79
241 335 288 129 100 70
248 565 311 144 19 48
230 454 103 143 7 36
248 235 235 110 85 57
303 635 188 68 31 38
220 449 154 89 20 35
295 487 320 123 20 43
218 455 141 105 23 34
214 411 265 75 22 31
398 765 151 67 50 37
246 680 235 47 34 36
312 245 236 105 84 60
246 145 231 117 96 73
244 442 97 82 29 41
217 459 153 115 1 36
383 480 237 48 23 26
219 790 306 171 117 88
245 141 237 111 90 69
248 195 270 110 92 72
404 417 175 126 32 41
272 130 226 117 89 57
246 145 234 114 94 74
263 295 248 87 70 50
247 135 246 108 89 70
342 361 208 93 83 73
274 185 262 106 83 57
263 113 201 158 59 63
348 250 211 133 100 59
215 593 218 126 5 37
281 50 255 118 27 47
378 854 216 89 70 66
396 735 234 165 110 81
394 635 243 160 112 80
349 415 147 136 21 32
246 144 248 111 91 71
218 500 151 68 32 36
211 493 163 66 33 38
249 135 250 106 89 71
252 135 252 106 88 70
292 305 286 125 94 64
253 665 290 74 42 40
371 788 123 105 79 64
411 716 215 155 107 74
319 326 218 91 79 67
248 621 211 48 33 37
338 365 276 151 103 80
378 850 226 75 59 57
277 615 325 165 117 89
343 40 261 132 32 52
393 530 185 165 15 37
250 310 253 108 85 59
353 755 277 84 65 56
348 200 212 126 99 65
383 425 241 75 63 50
393 745 155 71 52 42
224 765 266 151 109 76
329 413 174 102 82 67
247 145 251 109 91 72
397 545 206 41 29 32
253 285 248 113 86 59
357 869 221 63 54 52
216 464 293 102 25 39
236 627 278 71 37 43
243 245 241 116 89 58
353 816 136 99 79 61
248 437 111 75 55 47
362 710 284 72 21 34
383 615 211 118 91 61
233 695 296 118 93 65
197 475 261 129 3 39
405 827 200 119 87 73
250 131 249 107 89 72
229 949 266 71 66 66
350 26 267 135 37 55
318 22 283 157 121 98
343 770 276 82 62 53
317 874 156 96 83 76
268 605 327 159 118 86
253 130 251 107 89 71
398 839 226 103 73 60
303 750 186 102 26 37
255 132 254 107 88 69
423 740 131 85 67 49
320 78 210 125 29 45
419 784 216 118 85 55
244 265 247 116 87 55
265 301 309 111 88 61
305 321 264 76 62 46
248 356 247 94 83 72
285 782 303 68 56 48
301 374 231 77 61 51
321 80 219 126 22 41
240 385 238 91 80 70
255 574 162 115 34 45
335 919 263 47 41 37
375 880 292 80 66 56
253 200 275 109 90 71
278 613 183 148 15 40
242 195 261 114 92 70
337 340 279 145 100 75
294 395 271 96 69 53
337 905 236 63 55 54
225 505 137 139 9 37
232 370 261 117 94 68
225 609 231 204 5 55
248 574 167 147 21 43
272 125 246 110 83 57
387 770 239 124 82 55
320 280 264 84 68 50
254 135 254 107 89 71
278 410 196 90 76 61
416 464 183 162 16 41
233 470 316 83 19 36
239 220 266 112 91 67
426 455 201 181 16 49
343 190 212 125 97 62
253 140 255 107 89 71
303 750 312 99 31 46
287 725 194 62 33 39
219 411 271 112 14 35
253 465 315 81 23 35
192 480 225 132 5 34
223 435 296 41 27 31
235 256 274 121 94 65
241 750 234 45 34 37
288 921 201 96 89 89
250 142 254 105 87 70
418 425 171 154 17 40
368 705 196 57 38 42
328 690 185 60 30 34
379 540 251 133 108 81
284 215 261 113 91 66
247 189 268 111 91 71
254 325 252 95 79 62
373 460 141 107 25 33
227 465 200 79 21 28
355 384 214 123 100 77
274 75 196 140 20 40
228 440 201 97 12 31
253 145 256 107 89 71
231 670 306 144 105 74
325 120 244 111 86 64
248 595 311 137 106 86
208 421 212 105 34 33
287 504 329 131 21 47
338 585 167 166 6 35
337 530 157 141 11 33
238 285 266 133 96 71
248 150 226 119 95 68
333 445 265 84 15 33
268 961 235 90 86 90
245 151 232 115 95 73
245 381 233 90 80 69
377 524 188 67 27 35
373 465 141 129 12 34
317 945 291 54 47 43
233 230 251 120 96 69
230 417 309 115 8 30
266 227 284 111 90 66
253 185 270 110 91 73
218 414 251 71 57 49
327 923 300 58 51 50
367 515 270 186 137 113
196 465 253 75 25 34
288 615 182 54 37 38
246 150 231 116 95 72
360 689 273 76 26 32
245 155 231 115 94 72
268 411 216 95 80 65
258 100 192 120 71 66
427 455 206 186 16 52
248 160 226 120 95 65
299 380 241 83 63 55
203 450 216 105 1 33
348 873 298 39 36 35
189 480 231 116 17 41
348 435 268 93 14 32
300 863 288 145 116 86
276 235 280 118 94 66
319 75 221 117 46 48
274 665 207 140 4 36
374 450 146 77 27 36
244 155 236 114 94 72
351 804 259 61 51 46
406 810 229 80 58 46
382 774 112 113 84 63
267 26 232 85 67 53
254 735 217 110 16 38
242 160 241 113 92 70
222 425 286 100 18 35
225 489 132 113 13 32
368 600 181 52 31 36
351 195 254 120 97 71
427 791 206 105 76 53
251 160 224 129 99 63
213 450 152 114 6 38
245 146 249 112 92 71
328 700 183 73 29 33
240 265 280 124 95 68
349 120 226 117 94 69
338 85 251 118 94 71
214 510 175 104 6 34
283 365 247 103 82 61
318 415 291 153 15 46
243 490 111 84 32 40
290 502 327 102 25 38
378 820 261 52 42 31
338 205 260 119 96 71
366 655 245 154 16 49
294 345 246 103 81 62
243 155 246 111 91 69
206 444 268 114 5 32
272 504 317 141 14 44
240 235 275 116 94 70
268 25 276 139 86 73
243 160 246 112 91 69
312 870 140 95 80 70
380 568 229 60 40 32
244 165 256 113 93 72
344 415 152 134 24 32
247 424 195 91 78 64
244 155 251 112 92 70
359 840 152 86 68 56
283 240 271 118 94 66
244 350 253 98 85 71
297 440 336 149 14 48
244 195 266 113 92 71
248 155 256 109 90 71
248 400 226 91 79 66
245 156 254 112 93 73
273 967 297 75 69 68
258 170 222 136 103 64
401 805 168 88 65 53
365 557 159 128 15 33
254 169 223 136 103 64
298 408 298 55 43 28
373 822 261 52 42 33
320 296 223 97 80 61
415 421 225 50 26 25
254 366 233 86 76 67
260 384 313 141 103 75
283 835 276 122 91 71
323 855 141 92 76 62
217 445 209 101 9 30
229 465 111 136 11 38
346 908 306 62 53 52
232 450 131 93 19 32
273 429 121 85 69 50
283 30 241 114 41 35
357 230 255 126 101 71
240 175 237 118 96 72
320 215 249 106 85 63
255 293 248 110 85 60
379 485 179 102 12 31
197 445 219 125 0 29
243 285 256 124 91 63
356 488 284 167 116 102
323 155 221 111 86 55
240 185 237 122 97 70
298 855 287 149 116 89
204 470 151 130 0 39
256 771 324 165 118 86
361 497 279 169 121 97
236 472 104 69 28 33
279 66 247 111 80 63
304 455 140 135 20 38
279 90 221 116 30 37
239 190 236 122 97 68
323 480 312 164 126 117
228 600 206 198 8 52
368 570 257 170 112 90
239 190 246 113 92 69
243 175 231 120 95 65
223 720 301 145 107 77
285 235 252 103 81 55
248 170 226 128 99 62
196 475 257 61 18 29
356 366 264 136 100 70
349 26 271 138 38 56
379 700 256 129 11 41
315 434 319 138 14 51
245 170 228 120 95 64
303 530 301 154 97 77
389 719 238 120 73 57
254 195 274 110 91 72
361 459 159 92 12 35
283 220 266 119 95 69
312 40 256 115 32 48
286 453 118 164 5 39
270 148 253 108 85 57
426 422 178 80 37 41
212 495 200 38 31 32
248 175 227 130 100 63
251 694 224 73 34 36
387 600 249 165 113 82
226 429 298 114 18 38
245 174 228 123 97 64
251 646 290 72 39 38
272 820 301 71 58 51
297 390 246 64 53 44
307 949 227 80 74 73
347 180 254 119 96 70
190 435 228 85 31 41
380 699 246 114 14 43
295 440 125 162 3 34
288 565 320 168 121 97
410 745 222 169 113 82
406 519 196 58 33 37
241 170 236 116 94 71
236 473 180 48 27 28
241 170 241 111 91 70
282 824 290 79 63 57
206 470 145 145 0 36
238 835 281 117 74 63
352 160 226 120 98 74
226 498 185 47 23 31
241 174 235 118 96 71
238 420 327 89 23 35
373 435 166 72 32 29
242 165 246 112 92 71
278 425 310 93 10 32
243 165 251 112 92 70
390 836 196 106 71 61
243 915 316 124 108 97
361 245 246 123 96 64
229 755 325 170 117 93
236 354 277 121 97 69
237 270 276 127 96 71
241 170 246 111 91 70
190 420 228 48 39 39
333 45 263 111 59 54
274 62 253 119 84 68
239 195 236 123 98 69
394 842 235 90 68 61
241 175 251 113 92 70
210 584 216 126 29 44
405 810 179 114 82 64
333 519 276 151 98 85
243 175 256 115 94 73
213 505 196 56 25 29
243 245 281 116 93 68
328 670 188 80 31 34
252 225 282 110 91 70
403 460 171 47 34 38
197 490 266 74 22 33
245 605 311 147 114 92
263 230 231 98 79 58
243 180 231 124 97 66
253 220 230 114 90 60
222 725 311 158 112 86
237 428 199 86 52 28
247 645 231 163 7 42
311 13 281 120 70 59
248 185 227 135 102 64
253 910 226 74 59 53
223 415 231 93 78 65
273 11 256 108 50 43
332 517 278 144 92 80
235 244 248 122 94 64
244 185 231 127 99 65
303 403 276 53 41 26
356 320 232 110 90 66
212 535 282 162 6 50
322 235 215 125 96 61
408 740 161 72 56 42
237 435 195 84 21 29
276 12 243 100 66 51
246 185 229 131 101 64
240 738 233 155 6 42
224 605 276 151 18 51
241 185 235 123 98 68
230 444 132 66 31 28
315 57 228 48 34 26
248 964 266 81 77 80
283 12 261 112 46 46
205 490 208 38 32 32
196 520 256 54 30 34
250 675 228 51 37 43
243 190 231 128 99 63
246 190 229 134 102 65
371 505 151 143 4 33
323 115 236 112 84 63
218 480 146 139 1 33
314 925 220 75 67 69
325 816 152 65 57 54
229 685 306 150 110 79
241 189 234 123 96 65
304 380 256 60 50 39
218 465 206 37 32 32
263 963 309 60 56 54
338 190 212 125 97 62
292 380 256 84 68 54
253 180 226 137 103 63
354 827 267 38 34 31
300 754 188 138 16 44
260 638 213 47 36 35
235 442 112 62 35 44
253 190 226 135 102 62
325 240 213 126 97 61
190 480 241 84 25 37
334 427 268 104 17 39
240 181 249 113 92 69
298 485 321 128 25 47
400 782 150 78 58 45
344 145 215 121 97 67
278 421 156 79 66 52
350 718 184 68 26 26
196 426 248 136 8 41
318 60 211 87 35 31
331 939 261 55 49 46
329 110 202 145 19 45
241 178 248 113 92 69
338 55 192 103 40 20
268 895 322 183 133 111
239 715 241 103 24 40
228 510 136 165 4 41
313 445 350 168 16 53
324 409 277 127 22 42
343 830 251 42 34 30
236 205 246 117 95 71
244 205 270 113 93 71
207 515 281 141 7 45
381 550 259 183 134 107
232 409 306 69 28 34
379 436 247 159 12 49
338 286 274 111 88 64
315 442 329 146 13 43
300 486 331 80 28 38
347 16 280 117 65 68
260 724 213 139 0 36
370 418 187 66 38 35
283 735 197 101 27 39
241 180 251 112 91 69
350 91 210 119 31 44
246 637 229 172 10 45
354 805 133 84 64 51
242 180 256 114 93 71
248 390 226 91 80 69
240 185 250 114 93 70
241 185 252 112 91 69
359 430 165 55 33 34
212 575 271 166 1 48
308 715 184 112 21 32
278 625 191 92 25 41
253 450 90 114 24 38
343 65 251 125 40 52
317 425 147 136 12 31
240 190 251 113 92 70
295 340 280 115 81 60
353 855 282 51 42 34
241 190 253 113 92 69
267 423 175 83 67 54
345 786 152 50 45 43
348 800 134 89 66 53
327 235 258 116 93 69
253 230 285 110 90 69
305 403 266 51 41 31
343 35 226 114 98 81
352 330 261 125 92 58
353 285 261 131 99 66
241 190 256 113 92 68
380 417 168 89 36 40
280 342 249 79 68 55
210 442 274 84 27 25
293 380 286 130 89 69
228 565 296 79 23 34
338 425 156 82 26 32
234 405 236 101 87 73
237 195 241 120 96 71
222 415 281 94 20 35
210 575 261 176 5 51
358 545 155 88 29 39
217 775 286 167 119 85
192 440 225 61 30 34
229 441 132 83 32 37
405 515 211 60 29 31
258 159 263 110 90 70
368 630 245 126 29 45
248 950 236 67 63 65
244 315 291 128 99 72
337 925 261 51 46 43
268 180 266 109 88 65
236 200 241 122 99 72
269 923 203 89 80 78
250 171 264 110 93 75
326 367 203 91 81 71
313 455 306 108 23 39
203 440 261 128 1 38
223 445 206 98 12 30
199 505 161 96 25 36
288 905 186 95 85 85
226 941 282 82 69 65
249 205 274 109 91 71
227 710 300 139 106 75
239 200 237 125 99 69
244 608 197 136 26 49
308 850 191 43 41 44
318 285 225 104 83 60
273 495 116 139 15 38
274 226 234 99 79 57
