ply
format ascii 1.0
comment Created by Open3D
element vertex 2231
property double x
property double y
property double z
property uchar red
property uchar green
property uchar blue
end_header
392 834 229 53 46 46
362 769 209 68 47 44
366 764 203 63 49 42
367 769 204 59 48 42
357 764 211 75 40 40
429 677 312 72 58 44
356 766 212 77 42 41
298 879 299 154 118 89
359 767 211 78 45 47
362 754 211 65 37 38
369 744 206 61 40 39
372 744 204 53 39 39
327 759 307 67 56 49
375 739 202 52 41 39
377 744 199 54 43 39
375 743 202 52 41 38
410 534 382 168 117 88
372 749 204 62 48 45
374 748 201 61 47 43
377 704 337 100 25 39
419 686 242 62 40 34
377 749 199 57 44 38
288 729 303 173 16 56
377 739 199 53 43 39
383 745 196 69 53 40
381 749 197 60 47 40
383 749 196 68 52 43
437 824 247 60 50 44
376 759 198 63 50 44
375 754 202 62 49 42
374 756 201 61 49 42
373 760 200 62 49 43
417 669 350 184 125 98
312 968 314 66 61 61
372 764 199 63 50 43
393 664 227 76 24 29
375 762 197 66 51 46
369 761 201 62 50 43
378 760 195 65 50 41
379 756 196 65 50 42
382 754 195 63 48 42
380 753 197 65 51 43
357 879 233 63 57 57
349 743 327 76 61 55
422 889 278 68 54 46
382 759 194 62 49 40
312 924 248 87 74 72
382 764 194 66 51 42
272 774 216 137 99 64
387 519 109 212 18 53
390 517 106 186 20 60
391 517 109 224 17 53
432 769 344 173 119 86
385 522 111 222 15 50
396 513 104 220 18 55
396 513 109 220 15 54
297 784 290 71 59 52
388 521 113 147 19 43
389 521 117 61 38 37
392 520 119 117 24 43
259 827 249 236 156 131
390 522 120 51 33 40
444 811 316 177 115 86
392 523 124 197 14 49
387 529 129 194 17 48
362 604 310 101 22 38
393 525 128 211 14 48
397 514 114 215 13 51
401 517 125 207 14 50
347 914 238 71 64 65
345 871 222 79 67 64
395 517 116 219 14 55
425 558 186 90 19 34
440 534 324 162 12 51
396 518 119 215 15 51
264 614 271 166 119 98
399 516 122 214 17 55
395 522 126 212 15 55
407 804 233 60 52 50
396 524 130 209 13 48
400 512 115 203 18 56
402 513 119 188 19 49
403 515 124 207 14 50
356 784 217 61 49 45
402 519 129 202 11 50
404 516 127 200 8 42
382 855 238 64 56 56
406 513 125 177 8 44
425 610 341 146 108 72
407 515 129 112 18 43
410 512 126 212 18 58
412 514 129 78 27 39
362 549 304 69 24 32
392 530 133 185 14 45
396 528 135 200 17 49
398 525 133 167 12 43
398 530 139 168 18 46
399 526 137 92 16 46
388 531 132 191 17 47
276 698 271 79 32 32
387 534 134 186 19 48
422 774 229 49 42 40
391 532 135 117 24 41
392 535 139 163 29 48
385 537 136 209 13 49
387 538 139 180 19 47
429 586 234 46 32 37
387 543 145 207 13 45
391 537 141 129 27 48
399 531 142 148 32 57
396 902 336 47 42 41
289 886 319 159 116 95
394 536 142 193 28 58
392 544 149 203 14 47
393 540 147 149 17 39
367 719 341 139 12 46
397 539 149 102 30 43
458 865 255 93 71 65
396 542 151 188 12 45
311 845 249 124 99 84
397 544 154 150 27 46
406 517 130 149 10 37
403 520 133 199 10 44
407 523 139 204 13 47
402 569 379 188 129 104
408 521 137 217 14 54
408 525 143 168 12 44
406 528 145 138 20 45
416 513 130 91 33 40
417 515 134 97 38 46
412 520 139 157 24 49
417 518 139 44 35 40
414 521 142 81 26 37
417 520 144 51 36 39
397 919 284 61 54 51
426 588 307 87 24 34
410 527 146 173 17 43
416 522 145 51 31 36
415 527 151 192 14 31
413 530 153 128 14 39
416 528 155 194 14 48
418 892 281 64 50 45
405 532 146 122 22 34
405 537 151 44 34 39
403 540 153 82 36 44
407 539 154 62 34 40
324 836 297 162 123 101
405 542 156 57 30 37
410 532 151 42 31 35
418 530 158 201 15 50
416 533 160 191 14 45
412 538 159 126 20 42
413 540 163 139 23 44
410 542 161 99 32 47
411 543 165 108 28 41
356 884 333 149 114 86
415 538 161 192 15 43
416 538 164 183 14 44
413 545 168 157 17 45
418 539 169 189 14 46
445 538 190 96 31 41
416 543 170 171 11 43
386 549 150 204 13 46
395 610 355 174 126 104
371 810 316 75 58 56
390 547 151 200 14 43
422 779 345 184 135 102
388 550 152 200 13 45
392 549 154 169 12 42
393 545 152 168 13 48
387 554 154 193 14 47
362 714 339 164 6 51
388 555 157 195 17 48
457 784 264 88 66 55
385 557 156 132 15 29
387 559 159 165 24 47
390 552 156 194 11 41
394 895 263 66 58 57
392 554 159 162 14 43
396 547 156 173 24 57
393 550 158 191 9 45
402 548 160 94 38 45
391 557 161 61 25 34
392 559 164 60 32 37
394 555 162 112 43 45
397 554 164 101 35 44
402 579 189 191 17 45
455 710 286 83 60 43
431 823 204 80 68 61
396 558 165 141 34 49
398 560 168 86 31 41
386 562 161 111 33 45
468 862 266 84 71 61
385 567 166 164 22 48
388 566 168 189 18 47
417 584 344 117 90 59
387 569 169 172 18 45
391 562 166 138 35 49
358 819 210 64 56 52
392 564 168 120 28 44
388 571 172 173 16 47
385 573 171 180 11 44
412 875 258 86 67 60
282 518 307 91 19 36
387 574 174 174 16 46
392 570 173 113 31 44
392 573 175 90 31 40
330 699 316 33 29 30
397 563 170 78 32 41
381 904 244 66 59 60
395 567 171 132 39 48
397 569 174 82 33 39
393 575 178 88 31 40
344 851 201 100 80 61
397 574 179 115 36 46
398 570 178 99 28 37
401 553 165 81 32 41
407 554 169 89 33 41
405 557 171 48 34 40
403 560 173 55 34 37
407 559 174 107 31 44
409 555 173 92 33 43
410 547 166 115 21 31
425 621 336 140 106 69
418 545 173 182 15 44
328 866 244 39 35 36
447 724 324 154 106 73
417 548 175 102 25 40
410 552 171 150 31 54
393 875 308 36 33 32
412 554 174 147 27 47
348 941 356 62 56 55
410 557 176 143 28 51
416 557 181 102 30 40
416 715 190 103 70 49
382 834 219 63 52 48
312 818 288 190 139 118
413 560 182 116 30 45
400 562 171 45 37 40
402 564 174 64 34 39
400 567 176 148 36 54
405 562 176 78 30 39
382 924 348 52 45 41
403 565 178 118 22 39
406 567 181 177 12 41
408 566 182 169 19 44
400 572 181 60 34 36
406 573 186 117 32 44
411 568 185 94 26 38
416 564 185 179 17 44
341 729 326 126 22 48
413 570 188 145 20 44
418 565 188 192 19 46
376 807 207 63 51 43
415 567 186 170 12 50
417 568 190 191 18 45
292 899 304 173 126 103
345 801 306 193 139 120
421 517 141 43 35 37
422 518 144 57 35 42
426 513 140 46 35 38
274 758 277 119 84 65
362 800 207 55 45 42
422 520 149 152 23 45
419 521 147 44 36 35
421 522 151 172 18 51
443 550 204 99 31 43
418 526 153 204 15 47
422 524 154 213 17 53
420 527 156 201 17 48
359 777 322 67 59 57
423 526 158 209 18 54
425 517 146 144 18 41
427 518 149 192 20 52
281 684 266 38 29 27
428 516 148 138 35 55
430 517 151 163 42 56
428 520 153 216 20 52
424 521 152 218 19 52
433 859 300 47 40 37
426 523 155 214 19 51
427 524 159 210 19 53
431 523 160 209 20 53
423 594 354 157 113 79
433 516 153 121 21 42
437 514 154 107 33 43
435 517 156 140 5 24
436 518 160 215 23 54
425 527 161 205 17 48
426 528 164 195 16 45
303 875 318 112 72 71
432 524 164 199 18 49
334 811 222 75 59 51
428 530 168 184 15 41
312 559 303 167 11 51
430 527 166 187 15 44
431 528 170 181 14 41
313 859 294 109 84 58
433 526 168 185 15 44
457 854 219 95 71 44
419 531 162 205 17 51
418 534 164 195 15 45
422 535 168 193 16 45
419 536 167 197 16 49
419 540 172 198 16 45
272 574 287 89 18 35
387 559 314 151 4 46
422 540 173 196 17 43
422 544 175 197 17 46
430 532 171 188 16 41
461 734 263 55 44 39
425 537 171 193 16 45
285 687 280 38 28 33
427 539 174 192 17 44
432 540 178 187 18 44
429 540 177 188 17 39
434 521 162 209 21 39
432 784 235 55 44 42
439 521 167 194 17 48
433 530 172 186 17 43
442 514 164 195 22 51
442 519 169 188 16 44
271 820 271 214 164 141
447 514 169 190 18 45
410 652 316 77 57 39
446 518 170 187 17 45
442 524 173 163 10 40
347 869 219 78 65 62
444 521 172 170 7 44
447 524 175 61 24 32
372 749 334 75 60 56
297 804 217 177 125 94
436 533 176 167 13 42
438 569 289 160 4 44
502 924 279 110 91 75
462 784 269 77 60 51
438 535 177 122 17 39
437 539 179 91 22 38
436 542 180 183 20 50
439 540 183 36 32 33
367 949 343 64 57 53
341 774 211 77 60 51
439 545 188 174 23 51
443 530 178 126 22 41
442 534 179 135 21 41
369 869 304 129 96 77
443 535 183 66 32 39
477 840 290 85 67 51
428 815 252 52 42 40
448 530 183 64 33 37
445 532 180 55 32 42
446 533 185 89 32 40
447 534 189 118 30 43
440 537 181 128 33 44
442 539 184 44 32 38
443 540 189 40 32 37
418 550 177 73 26 31
418 556 182 126 29 46
421 553 181 53 34 37
301 868 304 147 118 88
422 559 185 83 31 39
428 550 183 175 14 45
427 554 184 140 17 43
423 560 188 123 36 51
427 559 189 136 20 44
430 552 186 192 19 46
430 558 191 180 15 48
420 562 186 111 14 40
422 564 189 149 18 45
426 563 191 196 22 51
435 547 185 197 20 52
433 550 188 197 20 49
435 552 191 200 21 51
440 547 191 204 23 51
417 574 194 195 19 47
290 894 326 186 133 117
447 539 194 70 32 38
448 539 199 76 34 41
444 541 192 48 33 36
434 589 274 46 31 35
432 559 194 174 19 46
422 569 194 193 19 48
424 571 197 185 19 48
420 869 312 45 38 34
427 564 194 158 19 44
426 568 195 169 21 52
429 561 192 189 16 47
430 563 195 50 27 32
432 564 199 81 35 42
429 566 197 105 39 46
430 567 200 84 27 37
426 573 200 189 20 49
431 574 214 113 27 45
438 550 193 199 21 51
441 704 314 107 81 54
433 555 193 196 20 50
412 774 343 179 134 104
436 554 194 196 20 49
438 555 199 174 22 50
308 554 302 173 13 54
437 559 204 76 36 39
438 560 209 65 32 35
441 548 194 185 18 49
444 550 208 112 36 47
445 547 205 45 32 37
446 548 209 124 36 49
440 553 200 148 20 47
392 669 313 44 25 26
377 884 308 41 36 34
441 554 204 83 32 38
440 557 206 51 35 33
444 551 212 104 29 39
403 576 187 183 27 55
443 554 214 73 32 36
443 555 219 126 30 45
444 555 224 136 28 48
442 559 224 70 29 37
445 552 224 73 27 35
387 544 314 148 3 45
434 565 203 119 31 43
435 563 205 147 26 48
434 570 214 63 33 39
437 564 214 113 31 43
448 544 259 67 30 36
439 561 218 75 37 40
436 568 219 110 34 46
447 685 289 66 50 40
434 571 218 162 30 55
433 580 305 129 22 46
440 562 224 169 40 61
447 549 239 87 26 40
297 828 230 88 70 65
444 555 234 180 14 49
362 685 328 106 15 37
420 874 312 41 37 35
443 559 239 187 15 50
323 629 298 61 30 36
447 549 244 138 20 43
387 603 195 86 38 45
448 544 249 159 19 48
448 544 254 65 29 35
332 804 300 189 137 118
446 549 254 43 30 34
443 559 244 178 11 47
445 554 244 170 10 46
399 921 331 56 50 47
444 556 243 176 10 45
307 739 307 69 37 39
445 554 249 116 19 41
445 557 249 180 13 48
291 520 307 132 8 41
444 559 254 180 12 50
445 554 254 140 18 44
454 861 206 92 75 59
421 809 209 89 70 55
439 566 234 192 17 54
435 573 229 188 17 51
434 575 229 191 17 51
410 669 307 71 48 42
435 794 241 54 44 42
307 849 319 154 123 97
441 564 239 182 13 50
440 567 240 178 12 48
439 570 244 180 12 51
407 904 334 59 51 47
439 570 249 177 10 49
437 574 249 176 11 48
442 544 289 70 26 36
442 564 249 179 11 49
442 564 254 177 10 50
440 568 254 174 9 49
421 783 230 55 46 42
387 583 181 192 11 44
389 576 177 89 18 39
392 579 180 175 19 46
387 585 183 152 12 41
416 694 239 51 37 34
392 584 184 191 13 45
392 589 189 180 16 47
392 874 244 67 57 55
470 772 276 93 68 55
396 577 181 99 24 41
397 579 184 177 13 42
394 580 182 190 13 44
397 584 189 188 14 45
398 580 188 187 14 44
394 585 187 190 14 43
386 598 191 162 26 50
401 619 329 137 88 76
391 593 191 186 14 44
400 577 186 188 15 44
406 578 190 146 24 46
410 577 191 114 20 36
399 586 192 189 16 44
387 599 193 101 26 39
391 598 195 170 18 47
412 835 304 40 35 34
385 607 196 149 32 40
387 609 199 159 22 45
388 605 198 67 35 41
393 600 198 192 17 48
390 602 196 154 8 40
391 604 199 118 24 42
402 609 310 158 10 49
392 609 204 52 32 39
397 649 309 81 35 36
393 605 202 51 33 39
396 593 195 191 16 47
364 830 207 94 75 61
398 600 202 191 17 48
397 604 204 99 23 40
388 514 375 125 68 63
398 610 208 44 35 40
399 606 207 37 36 35
414 517 352 70 30 38
402 585 193 191 17 46
407 583 195 191 18 45
402 590 198 196 18 48
408 585 198 198 19 50
412 579 194 191 20 49
412 584 199 200 20 50
264 792 221 176 119 85
415 577 196 195 20 50
417 579 199 198 21 50
323 875 247 35 32 33
303 809 288 61 51 47
416 582 200 199 21 49
412 589 204 145 22 44
357 524 298 67 25 31
400 922 306 62 55 54
414 586 202 197 18 48
419 678 258 90 27 34
418 589 209 53 33 38
400 597 201 190 17 45
402 599 204 181 16 45
367 529 303 43 28 30
408 599 208 70 29 40
401 603 206 175 16 44
411 593 205 45 31 35
406 603 210 160 20 45
403 610 213 93 26 41
332 975 309 58 56 57
408 605 214 147 22 45
406 608 215 183 22 51
411 598 210 43 33 37
380 952 319 56 49 46
416 593 210 77 33 39
413 600 214 47 34 38
302 534 305 108 6 36
416 598 215 77 36 43
408 609 218 140 28 46
409 606 217 193 37 65
414 606 223 75 38 43
399 876 252 68 56 53
387 614 204 180 18 47
392 615 208 59 31 37
420 579 358 159 114 81
347 779 215 73 57 50
394 611 207 36 37 38
388 625 213 102 26 40
391 618 210 50 34 37
372 908 329 62 50 41
389 621 212 154 42 63
398 615 213 64 37 41
377 539 308 143 4 43
393 625 218 45 33 38
396 623 220 56 33 38
398 625 223 112 32 43
415 525 335 131 12 45
420 862 256 72 56 47
290 640 261 140 6 44
384 626 212 148 40 58
388 630 218 52 34 36
433 704 275 57 35 34
392 629 219 58 33 37
373 774 199 66 51 42
385 633 216 58 32 40
387 634 219 55 34 38
392 634 223 86 33 42
389 636 222 62 34 37
460 743 260 68 52 43
388 639 222 80 33 38
325 843 300 140 108 87
395 628 221 56 28 28
415 660 292 58 25 31
396 629 224 76 28 39
394 630 222 122 34 49
401 613 215 62 32 37
403 615 219 74 32 40
406 613 220 87 27 38
459 733 268 47 35 34
407 614 224 83 34 42
422 734 233 52 40 38
404 616 222 45 32 37
405 618 225 47 33 36
288 639 259 109 14 38
288 774 211 146 102 66
314 567 302 176 14 55
409 611 222 205 24 51
395 633 226 44 37 40
396 639 230 137 12 38
399 636 232 147 25 50
442 739 245 61 50 42
399 639 232 123 15 38
403 624 229 87 29 40
409 616 228 110 42 52
418 801 206 77 61 54
404 620 227 52 35 36
405 623 230 51 37 39
407 624 234 70 35 40
410 612 225 124 25 43
412 837 302 36 30 31
411 614 229 53 31 36
414 611 232 125 48 48
413 615 233 156 27 48
415 613 235 160 27 47
261 581 276 59 38 34
417 649 318 85 65 41
410 617 231 170 47 69
411 618 234 128 24 43
413 620 238 136 24 43
414 616 237 164 26 51
414 621 242 104 11 37
322 967 329 63 59 59
414 625 243 91 29 41
403 754 198 77 58 46
416 623 245 103 32 44
403 629 233 102 28 41
438 687 287 59 46 39
406 628 235 71 36 41
408 629 238 56 33 37
327 889 228 72 63 61
278 823 272 193 148 122
402 634 234 87 28 38
401 639 235 123 23 40
404 635 237 118 36 50
404 639 237 91 30 39
405 632 236 55 35 38
406 634 239 67 33 37
409 625 237 80 28 38
410 628 241 87 35 39
408 639 244 46 33 37
412 629 244 61 35 39
402 814 219 54 46 44
417 624 249 80 31 40
415 627 246 43 34 40
415 628 249 81 28 37
313 869 285 125 97 69
414 630 248 84 35 43
417 629 254 122 25 43
409 635 243 64 35 40
409 640 247 74 31 40
342 948 260 85 81 83
414 635 254 127 32 47
415 633 255 90 22 34
419 581 202 197 20 48
422 579 204 196 20 49
421 583 205 189 19 47
424 581 208 201 21 53
426 579 209 201 21 54
457 744 305 65 49 38
419 591 212 43 33 38
380 826 306 125 99 83
421 588 210 63 35 38
422 589 214 79 40 46
424 586 213 105 37 47
423 590 219 44 34 37
424 590 223 40 32 39
452 534 239 178 11 48
425 582 211 180 22 46
353 966 330 76 73 75
429 576 212 121 21 41
431 578 219 180 16 50
431 579 224 190 20 54
379 941 267 76 68 67
429 581 222 143 28 51
428 584 224 80 37 44
425 588 220 40 34 40
425 588 224 42 33 36
402 744 190 63 48 39
420 592 216 51 35 40
431 827 302 91 51 40
432 579 229 176 19 51
265 558 292 65 25 31
428 585 229 53 35 40
379 735 336 38 26 28
427 589 234 104 32 42
428 589 239 114 26 43
429 586 238 45 27 33
423 594 229 120 32 45
415 816 195 100 78 61
440 554 318 95 26 39
404 870 252 76 61 57
424 595 234 73 33 36
336 854 224 55 49 48
418 605 234 55 35 38
420 603 235 84 32 38
422 604 239 88 32 41
308 904 264 145 101 80
392 864 240 62 52 51
425 592 230 144 36 54
426 594 239 75 33 40
424 596 237 61 25 34
424 605 243 92 31 38
422 609 244 94 31 45
427 599 244 56 32 36
431 594 249 99 31 42
429 596 248 146 33 54
432 794 344 183 127 96
431 594 254 71 31 39
430 598 254 86 31 39
424 610 248 93 37 44
433 579 234 69 26 38
434 579 239 73 23 36
435 577 239 110 19 37
435 578 244 188 17 51
434 580 244 188 17 52
435 583 254 171 9 47
408 683 223 63 45 42
420 613 245 42 32 39
422 614 249 77 33 40
423 614 254 102 31 42
420 618 250 149 28 49
445 549 264 130 24 45
419 625 254 88 31 39
450 753 249 65 51 44
421 619 254 103 29 41
285 626 261 100 32 43
420 623 255 80 30 37
424 611 252 65 26 33
450 866 267 83 71 59
425 612 256 58 24 30
451 513 170 186 17 43
452 514 174 184 17 44
451 518 175 181 16 42
455 513 176 187 15 46
453 524 184 185 17 49
451 528 185 107 27 43
454 525 189 170 18 49
352 584 310 121 4 36
455 523 190 130 20 43
451 529 189 130 23 43
457 514 184 194 15 51
414 567 352 111 84 56
458 514 189 191 15 51
450 533 190 120 35 52
358 874 324 140 105 79
455 523 199 138 21 45
452 529 194 118 28 43
354 752 327 76 62 55
454 525 194 92 27 38
453 529 199 92 30 40
454 526 199 126 25 42
456 519 209 134 17 43
299 957 290 80 75 76
455 523 209 84 22 38
453 529 204 97 30 40
454 525 209 128 17 44
454 529 209 117 25 43
458 514 194 185 14 50
457 519 194 117 15 40
458 514 204 133 10 41
457 514 209 169 8 46
455 519 214 166 9 46
455 523 214 170 10 47
454 529 214 51 28 33
456 519 224 167 5 45
455 524 224 163 10 44
454 526 219 84 18 32
297 874 309 148 117 86
454 526 224 140 5 35
456 514 214 165 4 45
456 514 219 161 3 45
456 514 224 156 0 43
429 604 274 104 28 40
419 621 361 172 120 90
449 535 194 64 31 34
450 533 194 75 33 37
417 800 237 69 55 48
451 534 199 47 31 35
290 904 314 166 121 103
451 534 204 39 32 36
327 905 233 75 66 64
452 534 209 69 29 37
449 536 198 62 38 43
453 514 259 157 7 48
450 537 201 33 34 40
262 520 296 94 23 39
450 537 204 37 31 38
327 969 324 63 58 56
450 538 209 34 32 36
327 968 329 60 55 54
452 534 219 143 22 47
452 534 224 124 23 44
449 540 214 72 31 37
450 538 214 76 29 38
435 691 337 155 105 73
450 539 219 72 29 38
450 539 224 33 30 36
455 519 229 161 1 43
455 519 234 109 14 36
320 820 291 184 135 114
455 519 239 69 30 37
415 574 372 167 118 89
455 523 229 171 10 48
290 646 261 137 5 43
455 522 234 166 8 45
455 523 239 104 23 38
465 726 276 97 74 57
453 529 234 173 10 46
337 944 356 55 50 48
454 525 239 120 14 39
363 873 216 75 65 68
453 529 239 179 11 48
455 519 244 42 31 34
455 523 248 121 13 42
374 855 295 127 91 70
453 529 244 182 13 49
453 529 249 174 10 46
452 529 254 158 10 43
456 514 244 63 32 36
456 514 249 45 31 34
452 534 234 125 15 41
449 544 229 73 31 38
292 802 216 177 122 88
450 539 239 180 13 49
392 659 310 69 20 29
449 544 234 40 31 34
450 542 234 62 25 36
450 542 239 130 16 41
452 534 244 184 14 51
450 539 249 166 13 46
449 544 244 86 22 38
450 542 244 174 14 50
449 540 255 76 21 33
398 815 224 52 45 46
412 704 184 82 58 46
417 700 185 82 61 52
412 704 189 82 60 48
416 704 184 83 60 49
423 690 190 78 59 46
357 809 210 56 47 45
422 694 189 80 64 53
419 696 188 85 75 70
421 696 186 85 75 70
387 719 335 129 18 47
341 759 315 76 62 54
422 698 188 78 59 49
420 700 186 79 60 48
395 629 339 175 125 107
425 696 188 79 60 47
425 697 188 76 58 47
435 704 249 62 47 37
386 644 220 94 28 36
388 644 222 77 29 34
386 649 221 109 24 37
391 649 225 56 32 38
387 659 223 72 27 32
387 664 223 77 27 31
396 680 210 64 48 38
388 669 222 55 37 38
405 649 240 149 10 43
392 669 225 49 37 38
391 654 225 38 33 39
437 784 239 52 44 42
394 650 227 39 33 40
396 649 230 63 35 40
399 644 232 69 27 33
396 654 230 58 32 34
290 677 276 41 29 32
367 911 237 62 57 57
391 659 226 82 24 29
361 834 205 84 67 57
393 659 228 99 23 30
374 778 201 70 54 45
397 664 230 94 20 27
395 671 226 58 38 35
404 644 237 78 26 38
401 649 235 81 27 35
406 644 240 85 26 37
410 539 382 167 117 87
408 644 244 78 28 36
405 654 240 127 9 35
401 734 336 109 65 56
406 654 244 136 12 39
408 654 249 141 14 40
409 644 248 104 28 39
412 644 254 138 18 42
411 649 254 151 18 47
409 650 252 140 15 44
409 654 252 136 15 42
401 659 235 98 19 31
404 659 238 99 17 33
401 664 234 103 15 29
297 584 290 173 12 54
404 664 237 91 21 32
400 666 231 100 22 26
400 669 231 94 24 27
402 669 234 89 24 31
405 669 240 88 30 31
407 659 244 125 15 38
407 664 244 60 26 32
409 664 248 68 26 33
472 749 299 68 51 38
409 657 252 97 12 32
410 664 250 75 28 34
411 664 254 85 26 30
409 669 247 46 33 32
413 669 254 91 26 33
392 689 208 56 42 35
422 534 334 137 14 45
398 689 209 58 44 39
386 679 214 65 49 42
392 675 215 73 49 44
388 676 211 72 55 48
392 677 212 72 52 47
311 634 290 104 16 39
389 672 222 53 41 42
466 821 302 87 70 53
387 684 209 62 47 38
300 908 287 92 77 68
282 659 261 50 35 33
391 933 329 64 57 54
385 684 213 62 45 39
387 689 210 57 42 36
385 689 213 61 42 35
457 859 269 72 62 52
392 684 208 63 47 39
397 679 214 59 45 40
396 676 215 62 45 38
356 774 321 69 59 55
443 839 264 59 48 44
396 675 219 61 43 40
397 674 224 65 45 41
267 569 289 151 17 50
398 678 219 53 41 37
399 684 213 52 41 38
450 861 282 75 65 56
393 690 206 56 41 34
391 694 208 59 42 36
387 704 204 65 42 42
399 921 299 58 51 47
392 700 206 61 44 37
392 703 203 61 44 37
350 811 306 196 142 121
396 690 206 58 45 39
377 794 209 82 60 51
398 694 208 63 48 39
392 524 318 80 20 34
396 699 206 72 49 41
397 705 204 71 49 48
399 700 207 75 58 48
442 779 339 178 122 92
399 704 208 74 58 53
397 739 334 97 37 40
385 693 212 62 39 37
363 893 325 128 95 70
401 680 220 55 40 39
317 872 334 64 38 41
400 676 225 63 44 42
402 678 224 55 40 38
279 700 279 134 11 41
402 689 213 54 38 36
405 686 216 58 41 39
406 689 215 58 42 39
412 684 223 80 58 43
411 685 221 76 57 41
412 689 220 72 53 43
414 688 222 74 57 45
416 684 225 80 58 45
431 684 251 63 45 36
416 689 224 62 48 41
413 705 193 85 61 47
400 690 211 58 39 38
461 798 275 83 64 54
400 694 210 60 44 38
403 694 213 56 39 38
402 699 210 65 49 41
402 704 209 73 51 45
407 700 211 65 48 40
407 703 209 74 53 41
357 799 314 189 141 120
412 693 218 71 52 40
417 694 224 55 43 36
410 699 211 74 55 39
412 699 213 78 57 42
357 514 299 102 23 39
417 699 215 70 51 39
418 704 213 75 54 41
398 673 228 75 32 33
429 601 258 82 31 43
403 678 229 52 40 39
330 619 301 77 27 35
402 674 234 66 34 35
406 674 240 70 39 38
405 676 236 46 41 36
417 744 200 73 51 39
332 885 228 75 66 65
407 679 239 75 38 37
407 684 231 67 44 41
407 684 234 70 42 42
407 688 233 70 43 45
417 680 234 79 54 42
412 679 239 123 40 29
417 679 239 89 53 39
412 681 226 82 54 44
412 680 229 87 52 40
415 681 226 95 67 48
410 683 234 91 47 41
364 866 311 152 118 93
410 682 237 99 47 38
408 678 242 97 34 33
412 675 245 121 32 27
439 834 270 70 56 46
412 678 242 136 31 21
417 676 245 117 47 34
417 675 254 92 33 33
414 695 240 49 35 34
416 699 240 44 35 35
417 699 234 45 37 34
414 704 235 41 31 34
416 704 233 45 33 35
306 649 285 147 0 45
414 701 236 38 33 34
414 703 237 41 32 32
419 693 192 79 59 46
277 579 286 157 3 47
421 692 192 79 59 46
417 705 194 85 60 42
418 702 197 79 57 42
330 856 254 66 50 48
392 850 236 61 50 48
420 703 196 76 55 41
420 701 216 51 40 39
418 698 219 54 42 36
418 699 224 54 42 35
418 704 224 54 42 36
418 704 220 54 43 34
320 852 336 178 135 115
283 739 293 101 28 43
420 700 219 51 40 36
419 689 229 54 44 37
419 684 234 66 48 37
367 804 209 60 50 46
419 683 238 74 54 41
420 680 240 85 60 45
420 684 239 70 49 39
322 519 290 62 25 31
406 909 309 53 44 37
420 689 234 58 44 37
420 687 238 62 46 39
394 604 349 171 124 104
422 679 244 86 57 42
422 676 249 80 59 43
423 677 248 85 58 41
419 677 256 87 34 38
422 678 256 65 37 35
418 689 243 50 37 35
422 684 244 77 45 38
299 691 297 120 0 36
439 565 269 172 10 48
422 689 245 52 37 37
426 679 249 81 51 38
425 676 251 79 52 39
425 676 254 63 46 35
376 958 279 72 67 69
427 678 254 62 46 35
425 684 246 83 45 39
468 856 190 92 82 72
328 860 229 53 47 48
427 684 248 78 47 39
424 686 247 69 37 36
475 859 185 93 86 79
424 688 247 60 42 38
314 967 286 87 84 86
430 681 251 67 46 35
336 860 337 153 121 87
433 684 253 63 46 37
432 689 250 66 50 39
418 694 229 56 45 38
420 692 230 58 46 37
418 698 242 50 39 36
421 704 241 51 40 36
423 704 242 53 42 38
427 695 245 58 42 37
432 694 248 63 46 38
278 774 282 37 35 38
431 696 246 64 46 38
433 690 255 57 43 37
427 699 244 57 39 36
427 704 243 52 41 37
431 699 245 64 46 37
417 818 204 95 73 57
433 694 255 60 43 37
436 694 253 62 47 37
434 699 248 61 45 37
433 704 255 54 40 36
435 703 253 58 45 36
388 711 189 72 52 45
397 524 393 167 119 90
392 714 179 78 54 40
389 715 181 77 54 39
445 769 250 65 50 45
389 717 181 77 58 44
315 884 282 109 84 62
327 945 258 88 82 84
388 717 185 77 59 43
392 718 184 79 60 44
386 713 188 72 54 46
387 718 189 70 52 41
450 767 327 172 114 82
396 710 190 74 50 41
397 713 184 91 60 46
397 719 184 75 58 44
398 712 188 92 59 48
397 720 189 72 56 42
417 549 325 47 26 31
399 730 191 64 50 42
398 734 190 72 54 44
442 539 304 166 11 47
401 720 176 86 61 44
408 710 190 89 64 48
400 716 181 87 58 41
401 719 179 85 61 44
390 938 319 70 61 62
402 719 185 81 59 45
402 713 189 84 56 42
357 869 324 140 107 78
407 714 189 80 57 46
409 707 184 84 59 45
415 707 183 89 70 62
409 715 183 84 55 44
411 712 184 92 66 59
412 714 189 100 70 52
412 719 189 94 67 49
397 749 192 62 48 40
339 907 231 74 66 65
417 718 190 81 59 45
407 724 184 90 65 48
330 862 249 42 36 36
407 729 184 82 58 41
440 563 309 130 29 49
402 729 189 79 61 50
404 729 186 88 64 48
401 734 188 83 61 45
407 734 185 84 58 42
410 726 184 89 65 48
410 728 185 80 59 42
409 723 188 92 68 50
411 724 189 87 66 52
470 719 302 90 68 50
393 744 191 80 60 47
333 694 318 40 29 31
419 717 243 81 24 37
397 747 191 66 49 42
402 739 189 85 61 44
415 549 367 171 125 93
307 818 288 159 117 99
391 707 199 64 46 42
358 825 210 64 54 49
388 706 201 61 38 39
332 809 220 78 61 54
384 705 205 59 41 42
392 706 200 62 46 41
441 784 241 52 42 40
360 874 319 140 104 80
385 712 192 68 52 47
387 720 193 63 47 38
395 706 195 64 47 40
397 709 194 69 50 37
412 832 309 51 37 36
412 554 329 69 29 36
387 729 198 60 46 39
278 822 231 203 140 113
392 724 194 61 47 38
387 734 195 66 51 39
384 736 196 55 44 35
392 730 195 61 47 38
392 734 194 67 52 45
396 734 192 68 51 43
294 890 301 164 120 95
441 874 298 49 42 37
402 710 195 83 58 44
395 857 301 43 38 35
402 709 199 75 53 42
407 710 194 88 62 49
402 707 203 78 58 50
407 705 205 88 63 45
407 708 203 91 64 45
392 841 296 45 35 33
403 712 193 89 63 50
329 645 302 64 25 33
392 774 199 75 58 50
407 714 194 85 61 47
407 712 197 87 65 51
410 706 198 81 59 45
412 708 199 80 60 46
416 709 194 90 67 49
417 709 199 80 65 52
412 706 205 84 63 47
417 709 209 71 58 48
417 714 194 85 69 61
408 714 213 53 42 36
406 689 346 175 128 103
416 706 210 82 60 46
414 711 211 61 52 44
413 710 218 46 38 34
417 709 219 52 39 34
331 859 254 57 47 45
385 801 321 68 58 53
411 714 215 49 39 35
417 714 208 69 58 48
416 719 209 58 46 36
416 714 220 51 39 34
415 720 215 53 40 35
416 724 195 80 61 50
409 736 193 77 59 45
368 803 317 60 48 48
414 731 197 72 52 41
416 734 200 78 61 50
387 739 195 68 51 40
427 821 239 52 42 40
384 739 196 63 48 38
369 854 305 149 113 88
387 744 194 68 52 41
392 739 193 69 52 42
387 754 195 60 46 38
398 539 365 132 87 72
315 836 271 187 135 110
317 845 333 137 114 92
392 759 194 70 55 48
387 764 195 67 53 45
392 764 195 80 62 53
297 835 264 60 47 44
391 767 196 76 58 49
404 548 324 103 19 37
295 928 278 54 51 53
397 754 193 66 51 44
398 765 199 74 56 47
396 769 200 69 52 45
441 809 333 198 132 107
399 766 202 62 49 42
263 568 288 72 26 34
408 739 194 70 53 40
261 560 291 99 23 38
406 744 195 68 51 38
402 749 194 69 53 42
405 748 196 71 53 44
408 745 198 71 54 42
350 867 216 83 68 64
410 738 196 72 53 38
412 739 198 69 52 39
412 744 199 73 54 40
412 748 200 82 58 43
409 751 202 77 56 44
405 550 324 93 21 36
287 835 244 120 76 69
412 750 203 80 57 44
432 809 239 62 49 44
416 748 201 83 59 44
397 619 334 152 106 89
418 750 203 78 57 45
417 738 211 56 45 36
414 738 214 65 52 46
372 939 258 74 66 66
416 739 213 58 44 37
414 740 219 53 42 42
415 738 219 56 45 45
415 737 224 63 51 47
414 740 224 61 49 44
414 744 224 56 44 43
412 895 289 72 58 49
417 749 218 62 48 45
414 749 221 49 40 39
426 759 214 66 50 44
400 758 196 83 62 51
402 759 198 72 54 45
408 759 203 62 49 41
402 763 200 64 50 43
402 765 204 57 45 40
402 769 208 60 48 42
309 558 302 177 13 56
405 762 201 57 45 39
443 529 309 151 16 46
407 763 204 59 46 40
357 667 316 46 25 29
322 799 299 178 134 110
407 765 208 62 49 42
412 754 204 68 51 43
413 760 208 60 46 43
417 759 208 61 47 43
412 764 210 64 49 43
414 758 224 53 43 44
417 760 224 54 43 43
318 894 254 52 47 48
413 766 212 73 55 44
278 694 273 59 26 30
416 768 215 92 71 54
356 745 331 74 60 55
417 734 224 67 55 50
432 813 249 54 44 42
417 734 229 55 40 40
416 739 229 56 42 40
414 744 227 60 46 43
416 744 230 55 44 41
401 534 320 110 16 40
439 534 326 173 6 54
417 749 230 54 45 44
417 759 228 55 44 43
420 707 196 91 66 44
427 584 308 109 21 39
420 710 199 89 68 52
422 711 207 69 55 44
419 712 197 79 71 67
421 718 196 78 58 47
422 719 199 81 62 49
418 719 205 70 57 45
412 704 347 185 131 104
297 744 304 148 20 50
421 719 203 78 63 49
420 707 217 53 41 35
418 714 223 53 40 34
471 739 303 79 61 46
419 717 222 49 38 35
419 721 197 79 62 49
277 704 279 128 15 40
420 723 200 72 54 44
420 726 209 61 46 37
392 644 309 98 15 33
418 734 203 78 62 51
432 729 208 75 56 40
419 729 215 50 39 37
322 967 334 69 63 61
419 724 223 49 36 37
395 570 375 176 124 102
418 729 219 52 41 38
420 728 223 55 40 37
421 734 213 59 47 38
419 729 225 57 41 40
432 679 334 147 101 68
461 730 256 51 43 38
420 728 221 56 41 37
429 724 209 75 53 41
432 725 209 73 53 39
443 720 206 92 68 53
443 720 208 87 62 47
402 839 300 37 33 31
446 719 208 95 67 51
435 726 208 81 60 44
397 554 359 132 88 73
439 726 204 93 68 50
433 731 206 85 61 39
437 734 208 67 50 37
442 725 205 91 66 50
442 729 204 91 64 51
335 596 306 171 6 53
445 723 206 93 66 52
480 840 288 85 68 51
440 732 205 85 61 49
417 709 229 54 40 38
418 708 238 53 30 33
419 712 229 56 43 39
421 715 229 56 41 38
422 719 229 57 41 39
355 890 337 156 118 94
323 891 352 173 128 111
419 712 233 59 34 35
423 714 240 50 33 33
319 947 261 74 67 69
321 884 234 72 65 63
426 715 236 53 42 39
426 715 238 49 39 36
371 943 260 75 67 68
424 719 232 55 37 37
423 710 244 52 38 36
440 563 269 175 12 50
419 714 244 70 28 37
423 714 247 64 40 38
315 951 267 80 74 76
377 789 323 66 58 56
418 817 332 181 125 100
423 718 241 71 26 37
456 889 288 75 63 57
422 719 244 71 30 36
426 654 339 127 89 55
428 711 248 57 39 37
347 724 330 101 25 43
426 716 246 59 42 38
427 719 245 63 40 40
432 719 248 59 37 41
432 714 250 56 39 38
417 729 229 50 37 38
419 726 228 53 36 36
425 724 231 53 43 38
430 721 238 58 42 37
430 721 236 55 45 37
438 719 253 62 46 41
372 934 254 72 64 65
431 729 239 55 39 37
429 735 237 59 48 44
306 693 301 134 7 40
428 723 241 63 33 34
432 724 245 56 36 38
432 729 243 54 37 36
435 710 254 60 45 37
433 713 252 61 45 41
435 716 251 63 48 44
436 699 338 159 108 75
282 819 275 92 71 64
310 576 296 160 9 48
433 694 259 57 42 36
438 814 207 79 63 55
436 719 250 64 45 41
441 720 255 63 46 37
437 724 249 57 40 39
435 726 246 51 35 38
437 734 244 51 43 39
442 723 253 60 48 41
448 728 253 58 43 39
440 731 246 51 40 37
443 734 248 55 46 40
318 967 333 68 64 63
422 740 200 78 56 40
422 744 200 75 52 38
418 738 202 77 64 57
388 687 320 74 10 25
262 808 230 179 120 87
423 738 204 73 57 44
422 739 209 53 41 32
404 631 316 123 52 49
382 910 338 39 35 35
420 747 201 87 62 46
422 748 204 72 53 43
422 749 209 57 45 40
427 743 200 84 60 42
427 739 204 72 53 38
427 744 204 73 54 43
425 745 208 59 46 39
395 919 274 72 63 60
432 739 208 61 45 33
430 742 200 93 67 49
423 749 214 58 44 40
427 748 215 62 47 39
402 524 333 140 9 45
428 746 214 65 49 42
428 748 217 65 51 42
421 754 210 58 45 38
422 758 221 58 44 43
421 762 211 70 53 43
395 546 386 188 133 111
422 764 214 82 64 51
418 763 225 49 38 39
417 770 219 72 55 44
422 764 224 48 38 38
427 818 214 80 63 52
423 766 218 69 55 46
421 769 224 48 40 39
426 756 216 54 42 39
428 759 219 57 44 42
431 759 219 56 45 43
434 823 247 56 47 44
426 763 215 72 57 49
372 634 310 85 15 31
436 739 208 52 39 34
419 744 232 48 42 40
422 744 233 48 41 40
300 894 292 144 109 82
354 884 335 155 119 92
419 747 232 50 44 44
403 531 366 115 68 55
426 739 236 61 50 46
427 744 235 63 52 48
446 832 258 75 66 58
429 739 237 63 53 51
432 739 239 57 47 43
427 748 233 59 50 48
432 749 234 60 50 44
422 754 230 52 44 42
422 759 230 56 45 44
352 704 333 128 10 41
333 850 235 52 45 45
420 769 228 48 41 40
364 561 307 116 7 33
438 564 294 76 22 35
426 758 231 61 49 47
428 759 233 57 45 44
432 754 233 63 51 46
431 763 236 57 47 43
432 764 238 59 47 43
428 769 237 53 44 42
432 769 240 57 47 42
437 749 238 66 52 42
436 740 241 55 46 42
438 739 243 54 46 42
347 514 294 58 27 31
444 737 247 59 48 41
461 892 302 81 67 58
443 743 243 62 50 40
432 815 204 79 62 51
447 739 248 56 45 39
445 740 246 57 45 41
448 743 248 57 47 40
436 754 236 63 49 42
437 569 284 164 6 47
436 758 236 63 49 42
438 754 237 63 49 41
433 761 237 60 47 41
439 766 242 61 48 45
420 575 355 156 118 82
337 609 304 40 28 30
444 759 244 74 57 49
450 529 263 84 20 37
289 788 211 166 112 77
444 754 242 72 57 49
447 754 244 69 54 47
445 757 244 68 53 45
441 763 241 69 53 46
443 764 244 76 57 48
448 764 254 58 44 41
448 769 254 59 46 43
332 584 308 48 29 32
452 729 255 59 46 40
450 735 251 56 47 41
452 734 253 59 48 41
457 734 255 52 44 39
461 734 256 55 45 41
451 739 250 60 49 41
456 739 255 55 46 42
456 743 255 56 46 42
407 614 367 184 131 105
450 746 246 62 51 44
449 756 252 69 53 44
451 759 255 59 45 40
450 764 256 56 44 37
262 524 294 83 25 38
262 529 293 97 20 38
266 515 300 75 23 34
264 512 302 91 14 25
267 519 298 61 28 33
273 518 303 68 24 31
299 870 305 148 117 88
267 529 293 78 24 34
271 525 296 94 28 42
272 529 295 51 28 31
272 523 298 104 23 39
258 534 295 77 20 31
262 534 293 60 24 30
419 569 320 65 25 34
262 539 293 63 23 31
267 533 292 78 28 34
272 534 293 54 28 31
323 553 301 115 4 34
265 539 292 94 26 35
462 856 194 94 78 62
268 544 291 38 27 30
265 544 292 32 25 26
272 539 291 75 26 35
277 524 299 151 22 52
447 709 274 72 46 37
275 521 301 82 27 37
274 527 297 84 23 28
278 523 303 75 24 35
280 526 301 160 24 59
284 528 302 102 23 41
337 854 214 88 73 61
273 512 307 185 12 58
276 515 306 107 18 42
441 844 254 60 42 42
278 517 307 41 29 35
282 514 308 116 11 38
281 520 306 69 29 35
287 523 307 137 17 46
273 538 292 85 25 35
277 539 293 113 21 42
372 569 309 121 4 37
277 544 291 51 26 31
402 649 304 57 33 42
278 543 292 115 17 44
372 849 224 57 52 52
281 535 296 124 21 46
280 531 296 50 16 28
450 850 273 71 58 47
283 533 297 94 22 39
402 629 359 184 133 107
332 970 324 60 55 53
286 540 296 168 10 51
272 559 288 61 26 32
272 564 288 87 24 36
352 624 308 79 28 35
467 879 283 84 71 59
277 564 287 107 24 40
278 566 286 127 24 47
277 569 286 126 16 43
275 574 287 147 10 46
282 564 288 101 23 39
280 566 286 131 23 40
282 570 286 104 25 41
306 780 296 69 57 51
283 568 287 75 28 36
287 569 289 45 29 30
286 574 286 90 19 36
262 549 294 42 23 29
355 895 337 150 112 86
262 554 293 99 19 38
268 549 291 34 27 28
367 919 249 69 64 66
266 549 292 30 26 27
403 794 219 58 49 47
268 554 291 30 27 28
382 639 309 121 3 37
272 554 289 44 28 31
390 937 294 69 63 60
277 549 290 79 25 37
277 554 289 65 28 33
280 546 291 40 20 29
281 550 291 121 16 42
283 548 292 141 9 46
282 554 290 39 26 30
285 556 291 35 26 30
287 554 292 39 27 31
416 804 340 181 132 105
286 560 291 49 27 32
288 558 292 38 28 31
372 898 232 69 61 63
287 564 290 64 29 34
293 513 300 107 0 30
362 908 335 69 55 48
291 515 303 119 3 36
292 519 305 125 5 38
351 838 218 50 45 44
295 516 302 114 0 33
398 619 359 181 131 106
301 516 297 104 0 30
304 519 296 70 16 28
292 834 264 58 48 44
371 790 321 66 58 56
301 525 302 122 5 37
292 524 307 115 10 36
394 925 279 65 57 54
292 527 307 131 14 46
294 523 306 117 8 37
297 529 306 137 4 40
292 534 304 154 14 53
291 539 300 181 14 57
290 536 301 181 14 55
395 923 279 61 55 52
406 582 342 94 56 40
295 541 301 183 14 59
297 544 300 182 14 58
340 648 306 144 18 44
297 534 306 161 7 49
399 614 363 177 129 104
306 514 293 91 8 31
314 909 244 71 65 64
309 518 291 24 24 28
279 764 282 47 40 39
308 523 295 73 20 30
313 528 295 41 24 26
306 525 298 84 13 30
364 791 209 52 45 44
307 529 299 45 23 28
311 530 297 33 24 27
317 514 289 72 19 29
317 519 290 36 25 28
402 884 318 39 36 35
396 654 329 163 114 99
318 523 291 75 18 30
317 529 294 67 21 29
307 534 303 63 20 29
402 855 302 47 41 39
312 534 299 77 15 31
316 609 296 51 26 30
313 538 300 113 0 35
351 519 296 83 23 34
383 944 274 73 65 67
283 793 282 49 42 40
307 544 303 141 2 42
316 536 297 104 8 33
259 580 276 92 65 58
314 542 301 115 0 34
307 704 305 140 6 43
317 544 300 109 7 34
319 537 296 99 11 31
471 709 304 88 68 48
292 549 295 166 11 51
293 548 297 170 10 51
307 836 237 94 71 63
295 550 296 170 12 51
292 554 293 105 19 41
292 559 293 47 28 33
354 904 340 144 105 84
297 559 294 120 13 41
303 547 302 170 10 53
302 554 299 177 14 55
300 556 296 167 12 50
289 562 292 92 41 49
290 565 291 88 19 36
378 839 218 61 52 49
292 574 290 112 18 42
437 774 343 175 118 87
452 799 264 65 51 44
296 575 291 169 10 52
302 564 295 161 9 48
307 889 284 122 97 71
460 782 266 93 70 54
302 574 293 163 5 49
306 550 301 171 10 54
312 554 304 153 7 47
455 754 308 118 80 56
316 550 302 121 3 36
318 548 301 109 8 34
317 554 304 131 4 40
305 561 296 166 12 51
307 564 298 170 12 53
482 853 279 76 64 53
491 854 278 77 62 49
306 565 296 164 12 50
306 569 296 161 10 49
312 569 299 171 13 53
309 573 297 162 10 48
315 570 301 176 13 56
316 574 300 170 12 52
318 574 302 172 12 54
259 584 276 135 96 82
262 579 278 54 28 30
262 584 275 73 50 44
266 585 275 40 27 28
272 580 286 161 18 53
272 577 287 165 11 53
267 588 273 46 28 27
269 588 278 76 30 35
272 589 279 85 35 41
298 685 293 124 1 38
267 594 271 61 39 35
341 740 320 74 59 53
267 599 270 106 74 65
264 601 271 149 108 91
264 604 271 155 112 94
267 604 269 140 98 86
264 609 271 164 118 98
337 849 233 52 46 46
422 898 294 58 49 40
271 608 267 109 64 60
415 521 345 59 28 33
258 594 276 158 113 92
295 899 298 171 126 103
258 599 275 167 118 96
262 599 273 152 110 91
265 593 272 96 69 58
275 577 287 158 5 47
277 584 285 136 18 47
275 591 281 44 27 31
282 579 285 163 7 49
282 584 285 160 6 49
445 514 309 123 16 39
394 782 332 37 36 41
287 579 286 156 13 51
287 584 285 169 10 52
282 589 284 162 10 50
276 605 270 100 26 41
405 810 212 75 60 53
278 609 269 57 27 31
273 593 278 37 29 31
274 598 273 57 27 33
276 600 275 123 22 44
325 662 301 139 5 43
320 687 306 33 29 32
278 599 278 128 21 48
278 593 282 71 31 38
278 604 274 140 25 49
279 607 272 87 25 36
318 929 352 183 139 119
282 594 283 146 16 49
282 599 280 178 19 57
283 597 282 179 15 57
287 594 283 169 10 51
461 843 243 81 65 52
287 600 281 128 15 43
282 604 278 62 25 34
347 619 307 118 18 43
280 605 275 48 22 29
282 609 274 46 28 32
283 608 277 41 29 32
287 604 280 38 27 29
263 619 271 167 120 100
391 852 296 41 37 35
263 624 270 172 121 100
267 614 269 160 115 97
427 829 300 68 45 37
272 614 265 107 74 65
270 614 267 150 106 93
267 619 268 162 117 99
440 554 299 154 5 41
267 624 268 165 118 100
270 617 267 156 110 96
447 519 274 149 10 43
269 624 266 158 113 96
319 852 261 180 122 93
261 619 272 169 120 99
262 629 270 178 122 102
258 635 271 184 130 108
262 634 270 182 126 106
262 639 269 185 128 108
290 760 291 76 63 56
266 629 268 171 119 100
269 629 266 163 117 98
457 874 264 90 73 61
272 629 264 151 107 92
266 639 267 183 126 107
268 639 266 179 125 107
272 639 264 163 116 100
475 730 276 92 70 51
329 869 260 62 52 47
277 618 262 52 32 30
280 610 270 59 27 31
377 823 308 120 92 79
280 616 265 48 25 29
281 620 261 117 28 44
435 816 219 90 78 68
282 624 259 56 26 31
284 623 263 62 27 31
396 924 289 61 54 51
286 624 264 56 26 32
283 618 268 67 29 35
286 620 270 42 26 29
297 830 233 94 73 66
420 620 326 121 92 63
285 621 266 42 22 32
283 613 273 59 30 33
277 794 218 172 118 85
274 626 261 121 82 73
277 629 259 85 56 48
277 634 259 101 65 55
419 678 279 62 32 33
275 634 262 140 99 86
278 639 260 116 77 66
473 764 284 75 57 44
275 639 262 148 108 92
282 629 258 45 28 29
286 629 260 84 28 37
288 629 264 50 26 28
281 639 257 67 32 31
285 636 256 96 36 40
409 519 381 150 113 81
377 953 324 64 57 56
289 578 287 98 23 39
292 579 289 134 14 46
293 584 288 176 14 54
309 890 274 167 129 100
294 588 287 174 13 54
297 589 289 172 12 53
295 591 286 174 13 54
296 595 286 170 11 52
298 594 288 165 10 51
297 599 285 137 21 49
292 604 281 39 27 30
293 603 282 36 26 29
297 604 283 72 25 35
302 599 289 79 24 36
304 609 287 85 18 35
299 579 292 166 8 51
302 579 293 161 4 49
300 585 291 165 12 51
336 808 221 74 59 52
303 589 292 59 23 31
301 594 290 150 16 49
304 594 292 57 25 31
307 579 295 157 5 48
307 584 294 79 19 35
307 589 294 47 26 32
441 529 324 175 7 54
317 579 300 163 10 50
317 584 299 160 7 48
319 578 302 170 11 53
314 588 297 158 7 50
317 589 298 94 20 38
303 739 307 52 29 32
307 594 293 90 24 39
305 600 291 111 29 45
307 599 293 102 24 41
347 884 344 165 127 101
312 594 295 72 26 37
307 609 290 76 27 37
312 604 294 143 19 49
372 864 238 60 54 56
309 608 292 39 24 28
317 594 298 37 30 32
315 599 296 37 28 30
403 880 258 67 55 53
297 949 284 75 70 72
316 604 296 118 24 43
296 614 280 165 10 51
291 620 275 120 24 44
293 618 278 127 16 44
289 622 272 62 29 33
292 624 274 121 23 46
295 624 276 43 22 30
422 829 304 135 84 64
298 624 279 43 25 29
299 618 282 167 6 50
300 625 281 49 28 29
303 624 283 74 23 33
289 628 268 50 23 26
291 629 269 88 22 35
290 631 266 56 24 31
347 559 303 86 17 32
289 633 263 57 25 29
289 638 262 77 12 26
295 635 271 113 12 38
293 639 269 149 3 46
448 845 234 109 84 64
295 639 271 153 3 47
294 628 273 144 23 51
294 632 272 97 22 31
296 634 274 106 18 39
405 918 319 47 41 39
298 629 278 48 29 31
362 844 213 88 70 60
303 629 283 57 25 31
299 634 278 112 12 38
305 619 286 159 6 50
262 789 276 178 138 108
361 703 336 141 7 44
308 619 288 113 23 43
424 896 301 66 56 49
352 599 311 86 27 38
306 624 286 108 30 45
308 624 288 61 23 31
306 634 285 155 2 48
306 639 285 154 0 47
384 544 312 147 3 45
308 639 288 155 0 48
310 615 291 97 23 39
311 619 290 117 25 44
312 624 290 56 27 31
317 614 295 102 29 41
319 614 297 68 27 31
317 619 295 129 25 47
412 633 362 196 139 111
314 629 292 128 15 43
380 577 311 131 2 38
433 589 299 168 8 51
317 634 294 76 27 36
452 809 269 72 57 50
327 514 289 69 24 31
322 524 291 57 24 29
328 527 291 55 24 26
327 529 292 67 24 30
307 779 208 92 71 60
332 514 290 56 27 31
332 524 291 85 19 32
332 529 292 81 20 32
405 903 290 78 65 59
333 525 292 104 14 36
337 529 293 79 21 32
414 549 370 168 121 89
311 831 232 98 75 65
506 928 278 93 81 70
322 534 294 74 21 31
322 544 298 55 21 28
326 545 297 73 22 32
336 970 278 94 90 92
417 624 299 130 24 47
447 873 290 63 53 46
332 534 293 53 25 29
287 784 285 68 55 49
337 534 294 52 26 29
412 694 348 183 130 102
337 539 295 55 27 30
337 543 296 78 22 32
342 519 293 91 22 35
432 692 298 102 27 37
342 529 294 63 26 31
347 519 294 84 22 34
347 529 295 69 25 33
393 554 379 175 124 102
351 528 296 68 24 33
342 534 295 54 26 30
341 538 296 51 27 30
277 819 229 199 138 109
343 540 297 46 27 29
367 569 308 101 13 36
340 542 296 53 23 27
346 533 296 76 24 34
348 535 297 94 18 35
352 534 298 98 17 36
347 539 298 74 22 32
327 549 298 84 18 31
321 554 302 120 3 35
302 838 263 46 35 40
327 554 300 97 15 34
324 557 301 119 3 38
331 859 244 39 34 37
419 626 258 147 26 43
327 560 302 109 10 34
332 549 298 45 26 27
337 554 299 59 23 28
337 559 300 100 9 34
327 564 303 120 5 37
322 569 305 148 6 45
483 852 282 82 67 53
322 574 305 159 8 49
416 649 284 110 22 40
332 564 303 114 3 36
327 569 305 131 2 39
426 654 344 154 106 75
332 569 305 122 1 37
337 573 306 114 8 36
342 549 299 79 21 32
342 554 300 104 10 35
342 560 302 114 3 36
347 549 300 77 22 32
351 548 301 46 27 29
353 550 302 56 27 30
348 555 302 55 26 31
352 559 304 66 27 31
282 794 281 46 40 40
342 564 303 115 1 35
331 798 215 80 62 55
466 856 225 80 63 52
347 564 304 113 3 36
342 569 305 116 2 36
342 575 307 102 10 34
346 572 306 110 8 31
349 571 307 111 3 34
353 570 307 102 10 34
418 614 305 88 26 39
396 639 339 181 133 114
354 514 297 81 26 36
354 519 297 86 26 39
367 519 305 74 25 34
446 865 288 70 59 50
362 524 300 66 28 34
399 674 338 169 125 102
362 529 301 59 27 31
364 524 302 64 26 33
367 524 303 63 27 32
366 515 305 82 29 38
357 534 300 87 21 34
357 539 301 81 24 34
356 543 301 51 27 29
415 647 266 97 18 34
329 738 312 62 50 45
359 541 302 52 26 28
428 896 300 67 57 50
321 888 263 55 50 49
361 534 301 63 24 32
305 776 296 71 58 51
363 534 302 59 26 31
360 538 301 73 25 32
362 539 302 81 23 34
362 544 303 68 26 33
367 539 304 117 15 39
367 544 305 126 10 41
307 843 249 60 52 55
369 518 307 103 24 41
372 519 309 85 23 37
376 520 311 109 16 41
374 513 312 84 21 36
275 811 276 194 148 119
377 514 314 72 26 36
325 888 256 39 36 40
374 517 312 39 22 30
370 520 306 61 26 30
376 524 310 143 9 46
374 529 307 68 23 35
377 529 309 135 10 44
382 519 315 99 20 39
266 795 222 173 117 81
379 523 312 159 4 48
379 527 312 158 4 50
382 524 314 155 6 47
291 939 309 91 77 71
372 534 306 73 22 34
329 853 244 57 47 46
377 534 308 127 14 41
372 539 306 137 7 42
374 544 307 147 2 45
380 530 311 154 4 48
381 534 311 142 8 44
383 534 312 152 5 47
399 694 338 147 106 88
384 539 312 148 3 44
357 559 305 47 28 30
367 554 306 125 4 38
427 594 304 146 13 47
366 559 306 124 1 38
368 560 307 124 0 38
332 955 351 83 79 80
357 564 306 48 26 29
357 569 307 111 8 36
357 574 308 117 1 36
348 674 317 99 23 39
440 827 272 71 55 47
268 828 240 225 150 121
402 664 344 173 129 105
402 809 329 166 127 103
361 562 306 63 22 29
407 784 214 75 57 45
362 564 307 58 23 29
367 564 308 102 12 35
472 727 277 110 85 59
362 574 309 120 0 37
374 549 307 146 3 45
371 553 306 134 1 40
372 554 307 137 1 42
420 595 341 135 103 68
369 556 307 130 1 39
381 549 310 148 3 44
384 549 312 147 3 45
381 554 310 147 3 45
384 554 312 147 3 45
411 898 295 77 61 51
377 564 309 137 2 42
377 569 310 132 1 40
372 574 310 123 0 38
377 574 311 129 1 40
380 564 311 143 3 43
380 569 311 139 3 41
380 574 311 134 2 40
379 512 381 141 93 86
378 513 384 169 126 116
384 518 380 164 115 102
277 679 265 58 41 32
383 519 384 177 125 111
322 579 304 165 9 52
323 584 303 158 12 50
322 589 300 58 26 33
326 584 305 104 22 39
460 793 271 70 54 47
327 589 304 93 31 41
325 591 301 39 25 28
328 579 307 150 9 47
430 602 279 120 26 42
328 584 307 79 22 34
332 579 308 99 19 38
332 589 308 41 29 31
337 589 309 54 30 32
297 959 329 54 51 52
367 963 319 61 54 54
377 959 299 60 54 52
322 594 300 36 29 31
322 599 299 37 28 31
322 604 298 93 30 42
421 801 209 70 56 50
327 604 300 67 26 36
332 594 305 102 24 41
268 798 221 178 125 87
329 603 302 53 27 33
330 606 301 136 25 44
297 759 295 80 65 58
407 618 308 167 33 57
317 799 297 160 123 103
330 609 301 83 20 34
333 609 302 89 30 41
447 764 334 172 117 84
334 593 307 93 23 37
336 600 306 69 23 36
337 604 305 34 29 30
342 579 308 66 23 30
382 859 240 61 53 55
443 823 260 41 33 36
342 589 310 67 31 36
347 579 309 108 9 35
352 579 309 117 4 36
352 589 311 123 11 40
341 609 306 32 27 29
347 594 311 74 26 34
347 599 310 96 24 40
347 609 308 72 28 36
417 779 344 183 136 104
352 604 310 52 27 30
322 614 298 135 20 47
320 619 296 73 25 34
398 870 308 37 33 33
327 619 300 59 29 34
330 614 301 94 29 42
332 614 302 87 26 38
348 894 345 164 120 97
333 619 302 114 21 41
330 624 301 60 27 33
337 619 304 115 24 43
337 624 304 59 26 34
320 629 296 60 26 33
327 629 300 70 28 35
320 634 296 97 30 42
323 639 298 98 24 39
337 629 304 75 28 37
330 635 301 65 25 32
332 639 303 61 28 34
342 614 306 38 28 29
342 624 305 92 23 38
347 614 307 88 25 38
352 614 309 148 11 48
345 624 306 116 14 42
348 624 307 111 25 43
352 619 308 129 12 42
358 739 333 43 28 33
342 629 306 58 30 34
352 849 313 128 101 72
344 634 307 34 28 29
345 627 306 54 25 31
347 629 307 49 29 32
407 549 328 79 24 37
347 634 308 37 28 30
347 639 308 33 28 30
442 539 284 48 28 34
352 639 309 33 28 30
357 584 310 123 0 38
362 579 310 121 0 37
267 724 272 135 85 68
362 584 310 123 0 38
367 584 310 125 0 39
367 589 310 128 1 40
357 594 311 117 12 39
357 599 311 71 25 33
413 622 322 107 61 42
357 604 310 98 27 39
357 609 310 69 27 34
367 594 311 129 3 40
398 664 311 117 75 69
367 604 310 87 17 34
372 579 310 125 0 38
372 584 310 127 0 40
347 974 314 63 58 56
376 584 311 130 3 41
377 589 311 132 3 42
379 588 312 135 9 43
382 589 312 93 20 35
372 594 311 131 1 41
372 599 310 131 1 41
