ply
format ascii 1.0
comment Created by Open3D
element vertex 2221
property double x
property double y
property double z
property uchar red
property uchar green
property uchar blue
end_header
300 366 243 86 66 50
279 673 335 135 97 64
340 506 335 59 21 29
289 371 233 72 55 42
281 921 352 67 58 55
296 378 238 77 60 45
297 371 241 85 65 48
300 371 243 83 64 48
356 486 116 69 35 40
298 376 241 80 62 46
403 529 109 202 138 111
301 376 243 78 61 45
368 620 164 106 72 55
302 376 245 76 60 44
357 775 355 51 40 31
316 356 239 109 83 62
317 361 239 107 82 62
321 361 238 109 84 63
410 428 124 108 20 22
309 353 240 102 74 57
326 751 342 119 88 60
311 361 242 96 71 53
381 641 185 139 96 77
308 364 244 86 63 46
311 366 243 87 65 48
261 412 362 104 19 38
304 362 252 84 65 49
344 858 399 120 97 75
289 761 246 83 65 60
319 363 240 104 81 60
320 366 240 101 78 59
316 966 262 95 91 94
307 371 252 75 59 43
326 306 236 130 100 72
283 736 234 116 23 44
306 371 257 81 63 43
307 375 251 68 54 39
381 851 267 52 43 46
376 696 382 80 56 40
396 466 97 75 24 30
334 544 340 159 30 56
310 373 252 71 56 41
311 376 249 64 52 38
306 451 325 36 25 26
309 373 255 70 56 41
352 551 323 45 27 30
306 381 247 63 51 37
363 893 326 54 46 52
256 621 328 149 110 72
409 774 256 64 49 44
310 381 249 58 46 34
406 711 373 103 85 68
312 381 251 55 45 33
432 883 347 96 75 64
314 373 245 69 54 37
319 918 364 43 38 36
400 741 192 148 104 80
317 376 243 70 56 40
226 576 324 156 116 87
321 376 241 77 62 46
291 871 252 121 98 74
317 381 243 58 48 37
381 651 187 150 102 79
314 378 250 57 46 33
312 381 257 63 51 37
374 718 286 28 25 35
326 261 180 125 97 63
326 271 180 129 97 61
311 721 180 136 7 34
327 404 304 84 37 33
336 261 183 129 98 60
331 266 181 130 98 62
335 266 183 130 98 62
326 276 181 132 98 62
337 271 186 130 98 63
342 621 308 52 26 30
336 276 187 130 98 63
333 277 185 131 98 65
356 401 182 103 88 72
381 432 103 106 13 23
332 281 185 131 97 63
336 281 188 129 96 62
333 789 184 182 137 104
341 261 187 128 97 61
340 271 188 130 98 64
393 581 207 71 23 33
343 267 190 130 98 64
342 271 191 129 98 64
345 266 192 129 96 64
265 747 266 185 4 54
281 446 157 171 7 43
270 626 301 93 25 34
345 271 193 127 96 64
406 551 237 175 19 54
292 900 337 68 57 50
339 276 189 129 97 63
379 862 266 57 48 52
342 276 192 127 96 63
399 500 105 51 29 26
338 281 190 127 96 62
381 740 380 64 48 37
286 941 337 57 54 55
338 286 190 122 93 61
325 296 184 127 96 63
328 291 185 130 97 63
421 506 92 140 81 73
327 296 185 127 95 63
325 301 184 119 92 62
284 436 332 53 29 32
320 624 320 153 17 41
428 504 84 95 22 30
328 301 185 121 93 62
299 536 165 61 33 35
331 296 187 125 94 62
267 576 252 81 26 35
334 296 189 118 92 63
337 296 190 116 92 64
295 451 146 149 5 39
331 301 187 119 92 62
325 311 184 114 91 64
356 856 406 98 83 71
327 306 185 117 93 65
328 311 185 116 93 66
401 491 251 51 24 27
333 834 224 195 147 124
387 922 213 122 108 98
326 316 184 112 90 66
371 412 147 100 85 70
365 461 110 44 36 38
325 321 184 110 90 68
335 306 188 115 92 65
367 749 370 62 48 37
454 509 161 44 27 29
335 311 188 113 90 65
259 711 261 139 1 41
353 810 164 151 112 79
313 389 267 82 68 53
343 861 326 32 29 30
416 417 157 129 23 35
327 322 185 105 88 69
331 321 186 100 84 68
334 316 189 104 85 64
334 321 189 94 80 66
337 316 191 99 82 63
393 587 232 178 12 53
337 301 191 111 90 66
337 311 191 107 87 65
348 262 195 125 95 62
399 566 242 115 19 42
349 259 194 125 94 60
349 261 197 123 94 62
348 266 196 124 93 62
347 271 197 122 94 63
281 901 256 132 102 74
350 266 202 120 92 61
350 266 207 123 92 63
292 351 272 109 86 60
341 686 316 38 24 26
349 270 207 125 93 64
436 520 122 209 146 130
473 477 153 174 10 54
382 746 339 69 47 43
342 266 223 135 102 76
341 271 222 136 102 78
320 801 350 153 103 75
382 511 308 149 1 45
350 261 212 129 96 69
347 261 218 132 100 73
347 266 217 133 99 74
349 264 215 131 96 71
227 596 299 161 115 82
361 404 182 101 86 72
348 267 214 132 96 72
345 266 221 134 101 77
356 526 131 103 26 36
344 883 350 42 36 34
343 286 196 119 92 63
346 276 197 122 94 63
306 741 183 78 31 38
453 833 329 69 52 42
419 719 393 88 64 49
345 281 197 118 92 63
347 281 207 126 95 69
389 701 241 95 30 37
334 261 230 125 97 68
348 272 207 126 95 66
341 276 222 138 102 79
338 277 224 139 102 78
277 526 325 43 27 30
361 738 343 55 48 43
356 836 418 140 121 109
261 414 317 66 53 43
377 872 320 62 54 57
374 880 230 112 94 89
426 451 87 97 26 38
337 281 224 138 103 77
340 281 221 136 101 79
331 346 234 123 93 67
343 277 219 138 103 78
236 540 287 96 17 35
342 281 218 136 100 76
396 405 207 108 27 41
337 286 223 136 101 76
340 286 221 136 100 75
471 466 156 130 10 40
376 791 155 147 104 64
347 276 212 132 98 73
403 471 94 109 19 27
344 281 216 136 100 75
344 286 212 129 96 74
461 496 157 132 18 43
344 285 215 133 98 75
346 640 179 170 16 38
368 504 119 54 31 33
257 946 297 65 60 60
397 429 116 101 34 31
392 761 160 142 100 64
387 467 309 44 28 31
326 261 232 113 87 61
326 266 232 114 88 62
251 556 277 163 0 37
331 271 231 123 97 70
336 266 228 128 100 72
297 571 178 115 20 36
333 271 229 125 99 72
357 931 272 65 57 57
364 550 315 125 10 35
326 276 232 121 93 67
352 546 133 108 7 29
391 850 224 81 67 55
285 436 357 60 29 32
281 586 212 155 8 41
284 812 320 169 122 97
326 281 231 127 96 70
326 286 232 131 99 72
330 276 230 125 97 71
330 281 230 132 99 73
259 901 281 129 103 84
336 276 226 137 103 76
333 276 229 131 101 73
221 556 321 155 116 87
335 281 226 136 102 76
388 476 99 39 37 41
380 711 327 70 50 39
330 285 230 134 102 75
332 286 228 134 102 76
390 870 324 66 57 58
368 717 298 78 20 35
399 470 296 81 30 39
334 286 225 135 102 77
340 261 226 132 102 74
390 916 216 104 87 71
378 403 274 71 54 41
256 726 272 72 23 37
340 291 193 117 92 64
340 296 193 113 91 66
342 291 196 116 92 63
373 876 270 59 52 53
281 601 217 47 36 39
343 302 201 118 93 65
257 449 340 170 16 54
344 296 202 119 94 66
344 296 207 125 96 70
279 392 219 60 50 39
341 740 333 28 25 25
344 301 203 119 93 64
344 301 207 121 94 65
343 288 214 127 92 72
393 818 202 183 125 96
196 536 293 174 123 97
343 296 213 134 98 75
351 399 247 71 61 52
341 296 217 131 95 73
339 291 220 132 99 74
295 701 341 132 100 69
236 631 303 171 121 87
401 405 227 99 26 32
343 301 212 128 96 70
299 882 332 98 75 64
338 301 223 126 99 71
371 881 232 93 77 74
344 291 211 130 96 74
344 296 210 132 98 74
344 299 210 128 98 71
356 866 337 37 33 35
340 311 193 104 85 64
402 546 198 136 15 44
387 591 133 149 104 65
281 705 349 139 102 74
434 468 76 135 39 41
374 636 145 145 106 71
342 311 197 115 92 67
343 306 202 123 97 69
276 621 287 150 0 42
385 511 306 156 1 48
343 306 207 125 98 68
430 795 336 65 52 42
343 311 202 124 97 69
340 316 194 99 82 63
316 956 327 69 67 69
342 316 197 110 89 67
406 831 312 84 70 66
343 316 207 121 94 66
396 740 298 68 27 33
290 926 342 59 56 56
326 399 287 67 58 49
342 306 212 129 98 69
341 306 217 120 91 62
343 311 212 127 97 70
294 854 304 136 108 81
386 471 101 51 34 34
341 311 217 119 92 64
339 306 221 121 96 68
338 306 224 125 100 72
278 746 355 163 114 88
343 316 212 122 94 66
265 581 313 66 16 27
343 321 212 119 92 64
322 295 234 125 96 67
282 909 365 60 54 52
305 836 252 138 112 86
326 296 233 128 98 71
343 511 334 54 24 28
325 297 235 127 98 71
439 488 108 90 67 42
326 301 235 127 98 70
330 292 230 131 102 74
395 418 143 108 63 50
366 415 132 101 85 68
332 291 228 133 102 75
391 705 357 71 54 43
330 296 231 129 101 74
335 291 226 133 101 76
259 717 328 185 127 99
335 296 227 131 100 74
281 671 292 76 23 37
335 301 227 128 101 73
326 311 237 133 101 75
350 356 217 111 89 65
408 769 215 67 55 52
326 321 238 136 100 77
332 311 233 130 102 74
379 855 234 77 60 52
236 589 305 139 96 68
394 804 277 68 57 54
255 701 317 185 129 101
334 311 231 131 102 74
328 306 234 129 101 73
272 466 341 154 14 49
374 610 270 175 32 58
329 312 235 132 101 75
286 576 324 169 15 55
418 481 184 71 22 32
335 316 231 132 102 74
411 414 162 137 28 41
335 321 231 134 102 74
330 316 235 134 101 75
332 315 233 133 103 74
339 311 225 128 101 71
231 556 297 45 34 34
337 316 228 131 101 73
327 326 185 101 86 70
326 336 182 93 81 68
331 326 186 95 82 70
340 606 316 124 24 47
334 326 189 93 80 68
261 561 267 90 18 29
329 332 184 93 82 71
335 492 335 133 15 43
335 336 188 96 85 74
391 402 302 106 43 42
326 341 182 90 79 68
319 813 226 183 131 108
326 346 181 88 79 69
296 676 318 48 33 32
326 351 181 87 77 68
333 340 185 96 84 73
335 351 183 93 83 73
262 446 187 69 31 38
353 942 271 84 76 76
336 346 186 96 85 74
337 331 191 94 82 70
328 878 331 30 28 31
291 451 347 77 19 33
446 432 132 122 8 17
340 336 193 93 81 69
262 876 311 168 124 108
427 472 121 39 31 32
340 351 188 95 84 75
376 403 232 71 58 48
278 413 305 70 61 52
342 346 192 95 84 73
342 350 191 95 84 74
405 894 357 58 50 47
317 676 189 43 39 41
326 361 180 87 77 68
466 481 137 192 19 42
326 367 179 87 77 68
436 436 112 116 19 24
331 356 181 90 80 70
357 381 196 104 90 73
348 894 338 31 28 34
331 365 180 88 78 69
275 551 232 75 28 38
335 368 179 90 80 70
336 366 181 91 81 71
326 376 175 88 78 69
326 381 172 88 78 68
463 456 159 139 5 43
331 376 176 88 78 69
342 336 223 125 97 67
331 381 173 88 78 69
377 866 247 54 46 42
305 381 282 110 88 63
292 726 192 168 5 48
404 776 289 60 47 43
333 379 175 89 80 70
336 376 177 90 79 69
332 441 124 68 33 33
326 371 177 87 77 68
284 783 281 82 67 62
294 452 330 99 20 39
289 716 211 160 9 45
258 571 267 162 6 46
331 371 177 87 77 68
268 318 279 126 91 64
336 371 178 89 79 69
370 641 192 94 34 42
261 501 322 66 26 34
338 356 185 93 83 73
278 599 320 149 18 49
385 566 282 173 17 53
268 775 336 178 128 98
271 386 218 70 58 44
382 751 294 109 19 39
341 356 187 94 84 75
261 381 291 127 100 72
316 886 319 83 67 56
339 361 184 93 83 74
411 761 377 98 81 67
276 781 302 68 56 52
420 421 216 146 15 44
342 361 186 94 84 75
456 442 113 184 9 33
343 354 190 94 84 74
343 365 185 95 85 75
391 841 338 49 41 37
345 352 193 94 83 72
411 750 372 94 78 65
385 456 310 83 30 37
346 356 192 94 83 73
344 357 189 95 85 75
206 526 317 160 115 90
292 902 357 49 46 47
386 897 337 82 74 75
347 361 191 95 85 75
416 816 303 75 61 50
346 366 187 95 85 76
389 717 202 105 40 43
350 366 192 94 84 73
349 368 189 96 86 76
266 316 280 125 89 65
338 370 180 90 80 71
208 570 311 180 124 101
341 371 182 91 81 72
339 372 179 90 80 70
339 376 179 90 80 70
372 637 192 78 26 36
341 376 181 91 81 71
366 741 357 54 42 33
368 495 314 122 8 40
340 381 178 91 80 70
344 372 184 93 83 73
377 881 292 58 50 52
324 793 206 83 69 62
346 371 187 95 85 75
426 475 66 95 3 22
313 740 338 103 74 53
326 947 246 97 89 90
347 376 187 95 84 73
348 376 190 96 84 73
389 532 131 41 27 28
345 381 183 94 83 72
348 381 186 97 85 74
422 476 67 91 25 33
351 381 191 100 88 76
404 742 182 137 100 73
343 326 202 117 94 68
431 902 416 100 81 65
456 471 160 126 5 37
342 331 197 100 83 66
342 336 197 97 82 67
343 330 202 114 92 68
310 385 176 89 79 69
343 329 205 118 95 67
346 711 320 51 25 23
271 446 172 88 27 38
343 335 200 107 88 68
344 327 208 118 94 66
318 514 349 144 18 42
261 916 337 49 45 46
344 332 203 115 93 68
344 336 202 111 90 68
259 948 292 73 68 68
396 486 96 117 21 37
345 341 202 109 90 70
345 336 207 114 92 67
327 816 212 76 64 60
343 325 212 118 92 65
218 594 316 175 124 97
343 325 217 119 93 63
378 607 263 69 27 35
446 521 167 131 21 44
378 693 374 81 57 40
342 326 222 127 97 68
278 646 282 153 0 47
344 326 212 117 92 64
344 331 212 115 91 64
274 753 260 81 66 60
345 336 217 117 93 64
456 436 127 119 9 17
444 529 162 55 27 34
371 705 346 71 55 40
343 345 195 94 82 71
264 733 320 186 128 100
344 338 199 104 87 69
332 486 128 65 30 32
346 341 207 114 93 69
277 641 322 127 91 64
345 346 197 98 84 70
353 651 299 145 14 47
281 506 332 77 24 34
264 433 359 48 23 30
344 348 194 93 82 72
281 476 172 99 28 40
346 351 197 97 84 71
281 786 292 77 64 59
298 384 289 113 89 60
347 346 202 108 90 70
415 751 225 93 62 57
347 346 207 113 93 70
339 698 320 69 31 32
348 349 205 113 93 71
343 345 224 122 96 67
283 843 274 113 90 62
345 341 217 116 92 64
344 341 221 120 94 64
258 921 283 162 127 102
349 348 208 112 92 69
267 766 332 175 125 95
378 467 104 51 34 29
348 350 213 109 89 66
349 348 210 110 90 68
326 556 152 166 0 38
451 456 121 68 34 38
349 351 212 109 89 67
421 802 333 61 49 38
398 476 292 51 31 32
421 442 102 113 26 34
346 351 222 118 94 66
285 466 162 86 29 37
383 858 306 59 51 55
361 845 212 74 63 63
277 446 360 73 25 33
326 326 237 134 97 76
326 331 237 130 95 72
302 586 179 178 5 44
277 631 252 100 25 42
326 336 237 125 93 68
335 326 232 133 101 76
259 737 272 124 15 44
316 476 137 141 3 34
333 326 234 134 100 76
361 856 339 43 38 36
377 536 308 103 27 40
335 331 231 132 100 75
350 930 253 74 66 65
335 336 231 132 99 73
330 331 236 132 97 74
497 812 318 98 82 68
332 331 234 133 98 74
332 336 234 131 96 72
261 401 212 57 49 37
326 341 236 120 89 66
395 746 322 62 49 42
344 352 225 121 96 67
326 351 236 117 89 66
408 461 234 78 22 32
293 630 209 82 32 36
372 651 267 150 14 46
330 340 235 125 92 70
277 566 227 134 8 37
336 341 231 129 98 72
330 351 235 118 90 66
336 346 231 125 95 68
351 409 141 101 86 71
389 610 206 120 21 40
356 892 352 30 29 33
340 326 226 133 102 74
364 590 296 118 20 45
309 404 309 66 59 53
298 809 274 185 137 112
338 326 229 134 102 76
340 331 226 130 100 72
338 336 229 133 100 73
270 601 296 93 20 36
401 766 282 59 45 41
340 341 226 127 99 70
371 901 332 72 63 67
341 351 228 122 96 68
434 486 170 130 9 41
276 295 286 140 92 69
413 463 189 142 19 57
421 527 112 225 145 123
339 348 230 124 96 68
348 355 197 96 83 71
306 967 267 93 90 94
340 580 325 88 17 32
349 357 197 97 84 71
406 796 352 59 46 37
349 358 194 93 83 72
348 354 200 103 86 70
366 726 362 52 40 31
316 931 231 87 76 73
489 445 144 47 30 20
350 356 202 105 88 70
351 356 207 111 91 70
352 361 207 110 90 70
352 366 197 96 83 71
351 356 212 109 89 67
375 815 159 173 119 86
352 361 212 109 89 68
246 550 273 194 8 50
336 791 183 181 131 95
352 361 217 109 88 64
343 666 309 104 24 39
347 356 223 117 93 65
317 399 289 80 68 56
348 354 219 113 91 65
348 360 224 118 94 67
352 371 223 116 93 66
312 741 342 118 85 63
162 515 298 182 129 106
272 621 298 113 11 31
311 876 317 117 89 74
326 356 236 114 87 65
265 721 342 165 112 87
421 496 87 122 85 66
322 366 239 104 81 60
207 542 295 137 99 74
326 366 237 104 81 60
330 356 235 116 90 65
366 920 217 89 72 56
474 475 151 175 13 57
332 356 234 118 91 67
331 361 236 113 88 65
336 356 233 119 93 67
337 361 233 118 93 68
302 751 193 142 21 47
334 361 235 114 90 67
292 375 289 115 90 61
331 366 237 107 84 61
335 366 235 112 88 64
351 436 116 112 18 33
326 371 238 92 73 54
326 376 238 79 64 47
471 471 133 188 18 44
381 687 347 82 64 46
424 777 351 66 49 38
323 379 239 69 56 43
366 456 111 58 31 31
331 371 237 99 79 57
331 376 237 86 70 52
416 767 322 57 46 41
351 591 158 78 33 36
336 371 236 108 87 63
366 876 233 50 43 42
331 380 239 76 62 48
336 381 238 85 70 55
325 371 241 90 71 53
326 380 241 68 56 43
385 706 337 65 47 38
351 886 367 37 34 34
228 621 308 180 126 95
341 361 231 122 97 69
301 701 323 87 28 36
341 366 232 118 94 68
285 556 197 158 8 41
361 842 202 65 56 61
466 436 137 87 32 31
361 501 322 46 27 30
400 616 142 163 112 79
266 691 267 123 6 37
345 356 226 122 97 69
369 609 280 157 23 63
347 366 228 121 96 68
349 362 225 118 94 66
367 651 277 126 21 43
286 962 266 77 74 75
349 366 226 118 94 67
296 426 143 116 14 29
338 369 234 114 91 66
341 371 233 116 93 68
341 381 235 98 80 61
343 381 234 105 86 65
345 371 231 119 95 68
269 492 211 165 9 43
347 370 228 119 95 67
346 376 232 117 94 68
350 371 226 118 94 67
321 875 372 58 52 49
351 381 228 116 93 68
399 461 297 69 25 35
466 767 297 103 82 61
354 363 208 110 91 69
369 550 310 170 15 54
354 367 202 104 87 70
317 395 251 52 43 34
291 521 172 61 35 39
277 490 335 167 16 52
301 429 319 48 24 25
353 364 205 108 90 70
331 398 272 65 55 46
354 366 207 109 90 69
339 874 410 65 58 54
354 363 210 109 89 67
354 366 212 109 89 67
296 370 283 111 88 60
440 731 227 94 70 54
353 365 218 111 89 65
306 949 335 62 57 57
384 560 290 125 11 32
321 392 262 58 49 40
354 367 217 110 89 65
421 440 106 113 24 30
248 670 326 188 128 104
355 371 197 98 84 71
340 511 336 106 25 40
417 451 207 140 18 45
371 417 132 101 85 67
354 373 194 96 84 72
355 376 193 100 87 73
216 536 293 68 22 30
357 376 197 99 85 71
356 371 202 104 87 70
322 830 233 173 131 106
356 371 207 107 89 69
345 403 158 99 85 70
392 429 111 101 40 35
357 376 202 102 86 70
411 761 223 72 42 38
301 958 324 54 51 51
358 376 207 106 88 68
358 380 202 103 87 70
359 382 202 101 86 70
360 381 207 102 85 66
286 776 262 79 64 59
358 376 212 108 88 67
429 461 86 88 22 38
407 551 148 115 72 67
357 376 217 111 90 66
354 372 221 114 91 65
198 513 279 53 26 40
353 374 224 117 93 66
264 467 200 160 2 41
355 376 222 115 92 65
359 378 212 107 88 66
337 827 431 79 62 48
286 967 292 73 67 67
359 378 208 106 88 67
398 568 216 90 26 37
371 411 152 100 86 71
257 731 267 178 1 52
360 381 212 107 87 66
318 795 214 81 67 65
387 424 121 103 51 39
364 652 285 119 22 39
395 746 163 129 95 58
358 380 218 111 89 65
359 383 220 112 90 64
311 967 312 78 73 73
354 382 225 115 91 65
386 716 337 63 47 40
351 415 126 102 87 72
321 726 177 142 4 35
414 493 95 128 8 20
326 417 128 124 65 45
326 431 127 74 31 34
331 417 127 109 67 46
274 887 314 111 82 68
363 537 124 100 20 28
332 421 124 173 13 36
272 396 203 76 61 46
256 576 312 40 24 26
398 758 204 121 88 59
336 421 123 152 20 34
281 296 282 138 91 69
351 496 123 145 16 41
336 418 124 126 46 29
333 418 124 123 59 38
278 949 325 49 45 46
336 417 127 102 73 57
326 501 136 163 0 37
331 426 125 127 16 34
316 947 246 95 87 89
229 612 324 160 113 87
306 829 331 128 83 62
411 406 197 130 20 42
332 431 124 101 29 37
336 426 123 130 16 32
333 426 124 128 15 30
394 498 261 68 16 29
410 501 242 73 21 32
336 431 123 114 18 29
326 436 127 77 32 34
316 871 312 110 86 69
341 856 322 33 29 30
326 441 127 75 29 32
326 446 127 88 29 34
366 844 208 83 69 66
166 517 329 165 112 96
330 436 125 100 28 35
330 441 125 73 35 35
288 374 289 118 92 62
321 870 381 59 53 52
336 441 122 58 33 35
410 534 114 215 136 115
304 836 277 118 91 68
330 446 125 53 37 35
332 446 124 45 36 36
336 446 122 60 36 36
382 857 227 82 64 52
341 421 122 84 36 43
341 417 127 98 84 69
289 787 272 77 64 59
318 744 339 105 78 51
341 431 121 100 23 31
260 410 299 65 56 47
371 403 227 69 60 52
391 596 207 165 12 49
351 421 118 79 57 51
345 420 121 78 55 53
347 418 123 102 86 71
373 699 383 87 61 46
266 491 217 161 6 40
358 525 129 116 23 34
351 417 122 103 88 72
350 419 120 106 88 71
351 426 117 91 32 36
336 666 183 42 37 38
351 431 116 65 36 38
344 426 120 91 32 33
390 930 202 98 82 68
344 430 120 51 37 34
261 456 197 164 6 42
393 551 123 160 109 82
343 433 119 40 35 41
343 436 119 50 34 34
318 771 354 153 107 74
316 461 329 32 26 27
362 676 292 56 25 29
340 436 120 68 31 34
340 441 120 88 27 32
343 446 119 123 18 29
360 452 310 136 11 41
346 436 118 70 31 34
346 441 118 135 8 33
412 446 227 147 10 45
346 446 118 133 6 31
361 431 111 67 37 35
289 708 350 142 104 73
365 430 110 94 32 30
366 431 109 89 33 34
361 421 117 104 88 70
290 855 260 106 88 67
356 417 122 103 87 69
360 418 123 102 86 69
355 425 115 103 33 34
354 431 115 67 33 32
357 431 114 76 34 35
442 451 112 167 11 46
357 427 114 89 34 33
416 466 77 178 21 41
366 421 117 103 84 62
366 419 122 101 84 64
365 418 124 99 81 61
330 398 277 67 57 48
366 417 127 101 84 67
440 423 149 116 16 34
425 805 326 58 45 36
367 436 109 114 26 33
367 441 109 141 14 31
365 446 111 155 2 36
277 521 207 157 10 43
388 423 309 155 6 51
307 566 168 109 25 36
354 436 115 122 15 31
282 486 341 171 18 52
356 441 114 142 3 34
474 461 155 50 24 27
354 447 115 138 0 31
371 557 147 160 6 33
375 871 262 58 51 51
398 446 290 49 31 30
371 426 112 93 48 37
371 429 110 74 36 29
371 431 108 80 33 32
251 536 265 61 32 34
263 589 256 186 1 55
480 466 147 87 22 37
376 430 107 115 14 21
276 496 332 90 26 39
429 417 170 146 15 48
306 451 138 92 20 33
321 611 171 116 26 42
353 676 304 72 23 29
381 427 112 104 43 36
332 928 227 80 72 71
336 801 341 137 93 72
384 865 287 54 47 47
472 472 135 191 19 47
377 432 104 149 8 15
434 764 232 96 65 58
368 419 125 101 84 67
291 876 252 129 105 79
326 942 241 87 79 79
376 420 127 101 81 63
308 384 278 106 85 62
322 436 129 52 34 38
376 421 122 100 72 55
333 394 248 53 45 36
434 492 121 92 62 49
368 424 115 97 82 66
362 661 167 140 107 81
371 424 115 95 65 46
396 440 96 105 13 33
376 424 116 100 55 41
273 681 272 136 0 41
381 422 122 101 62 46
261 296 286 140 99 76
381 421 127 100 75 57
303 481 353 92 21 34
348 840 426 90 74 61
383 424 120 102 54 40
371 436 106 65 35 36
299 647 205 152 4 44
263 579 271 150 0 44
360 676 296 44 27 30
371 441 107 76 27 37
374 436 105 79 37 35
377 436 103 90 29 32
375 441 105 115 20 32
371 446 108 141 8 37
376 676 151 159 114 79
245 557 314 48 24 27
376 446 106 145 4 37
265 596 257 178 1 51
381 436 102 132 21 26
381 446 103 152 1 36
286 666 227 125 13 39
335 884 396 60 53 49
378 444 104 147 7 37
360 666 172 133 100 80
350 853 404 111 94 78
379 448 105 149 0 34
246 566 299 64 28 37
409 894 347 72 60 57
376 745 293 114 19 40
447 480 164 129 2 40
291 726 356 153 113 81
209 563 314 164 117 91
326 451 127 65 29 35
406 781 187 181 123 94
326 456 128 67 33 35
389 814 286 66 55 55
371 536 117 78 27 33
282 796 307 118 88 73
332 451 124 85 33 36
381 531 127 141 23 39
364 680 160 126 100 71
330 456 125 98 30 39
332 456 124 95 22 30
382 532 122 114 15 28
336 456 123 96 29 34
313 834 301 50 41 43
400 756 277 58 46 41
352 571 318 58 26 33
331 461 126 88 31 37
336 461 123 104 24 33
341 691 316 91 17 31
333 459 124 112 23 27
379 620 251 78 17 30
229 631 317 178 124 97
331 471 128 146 3 37
377 476 104 41 35 38
391 816 177 180 121 92
328 968 270 88 82 83
331 476 128 144 0 33
395 898 383 75 66 59
419 478 80 162 13 42
336 476 126 145 1 33
356 421 308 71 25 33
259 381 289 128 100 72
343 450 119 114 24 28
341 451 121 80 26 30
341 461 121 129 9 31
335 913 220 96 83 77
346 451 118 131 8 29
292 700 343 132 100 65
351 451 116 133 5 30
333 795 188 60 50 49
351 456 117 129 7 29
400 541 262 104 29 43
316 786 212 84 68 63
239 543 319 152 19 48
344 452 120 129 14 33
344 456 120 135 10 29
406 811 247 69 56 55
330 874 323 30 28 28
346 461 118 139 3 30
431 487 61 55 36 44
351 461 116 136 7 33
308 904 380 70 64 61
341 466 122 144 2 33
341 471 122 143 2 33
352 906 246 57 49 51
338 475 124 144 0 30
276 881 258 159 121 90
341 481 123 116 19 32
264 467 334 167 15 53
347 466 119 141 4 33
347 471 119 138 10 34
341 632 175 150 18 39
426 746 246 80 56 50
411 831 332 67 56 49
351 466 116 125 13 32
313 749 349 134 96 68
349 393 179 99 86 74
279 642 293 136 4 40
351 471 117 93 26 36
384 446 255 139 11 43
341 521 136 115 19 38
345 471 120 141 6 36
351 476 118 86 30 35
420 431 192 52 23 28
346 481 121 83 31 34
396 751 277 59 44 42
253 942 308 51 49 50
291 436 322 85 14 30
338 482 124 104 22 33
341 486 123 90 31 35
342 490 124 83 30 43
285 362 285 114 90 62
348 399 252 65 56 47
442 531 162 89 23 38
352 490 119 181 9 43
301 756 361 170 123 89
346 501 127 58 34 37
314 613 175 82 35 33
262 466 202 163 6 40
349 498 125 158 16 42
321 626 318 157 23 53
395 576 247 182 15 54
352 500 124 106 29 41
381 677 150 174 115 83
351 506 126 69 32 36
351 511 127 42 35 38
426 780 342 66 53 46
296 879 355 80 66 65
361 456 112 49 33 34
366 451 111 131 8 34
373 547 140 171 4 32
294 347 262 108 84 57
361 461 112 56 36 36
397 410 291 107 17 29
266 940 331 60 56 56
356 836 337 58 47 43
344 828 429 87 68 53
368 461 109 46 32 35
355 451 115 131 8 30
355 456 115 121 16 28
357 451 114 130 9 31
384 406 273 78 61 47
338 856 300 30 26 27
361 451 113 122 11 30
354 461 115 111 19 30
361 471 111 76 32 35
360 856 408 89 70 59
365 466 110 46 35 37
367 471 109 80 28 35
371 541 122 88 32 40
227 556 319 140 102 75
361 476 112 66 33 37
289 578 324 168 17 53
362 484 314 126 5 39
365 476 110 106 22 33
289 700 210 53 24 30
306 887 342 55 49 49
300 899 336 82 70 63
367 476 109 123 20 36
354 466 115 61 27 33
351 918 222 70 58 52
356 466 113 64 35 37
282 651 237 85 32 40
380 708 377 78 63 47
335 536 340 102 28 42
355 471 115 57 36 37
255 696 327 177 121 97
355 476 115 92 31 36
376 900 230 71 57 52
358 481 114 60 38 41
266 541 257 99 20 37
251 611 327 153 112 78
368 449 109 145 0 31
371 451 109 142 7 32
371 456 108 127 11 29
376 451 107 146 5 36
376 456 106 134 6 27
390 881 337 78 72 69
371 461 108 66 28 32
341 446 316 125 6 41
376 461 106 106 17 28
382 451 104 148 3 34
380 460 105 122 7 27
402 541 257 38 29 30
391 826 207 79 60 55
293 809 298 73 59 54
371 471 107 56 32 36
366 901 287 53 47 46
376 466 105 84 34 33
274 742 246 205 19 62
411 715 376 92 79 71
439 497 116 116 64 65
375 471 105 56 37 36
305 781 227 82 68 63
413 740 264 54 40 34
371 476 107 83 33 35
294 481 155 115 29 40
371 481 107 70 32 37
387 831 201 149 101 80
287 596 202 60 31 37
375 476 105 69 34 35
407 770 301 59 49 42
314 601 170 51 33 41
234 643 315 201 141 110
398 426 290 135 14 36
394 547 120 174 115 87
381 466 103 87 24 29
381 471 103 43 37 38
271 361 288 127 99 70
377 472 104 42 37 36
378 481 104 95 32 41
349 812 170 167 125 95
366 486 111 53 34 38
391 705 352 62 48 38
362 486 113 42 37 40
360 487 115 41 35 40
356 491 118 100 24 37
384 829 178 156 104 76
326 870 382 73 63 58
361 491 116 51 35 38
431 490 63 73 31 37
357 494 119 125 28 47
409 764 265 73 54 51
361 495 118 80 28 37
356 496 121 148 20 43
360 926 287 54 49 46
363 490 114 46 32 35
365 492 115 84 34 39
366 496 117 120 21 39
356 501 123 107 27 39
346 606 164 69 33 37
361 501 121 116 23 38
388 743 296 106 16 38
353 504 124 116 40 57
356 506 124 99 29 38
227 571 300 129 89 60
321 516 348 129 15 40
357 686 303 53 27 27
403 490 249 65 17 28
355 507 125 137 25 40
356 511 126 134 13 34
361 511 124 139 11 39
395 810 345 58 47 40
363 499 119 142 30 35
278 708 350 141 102 74
366 501 119 73 28 38
365 502 120 65 31 35
397 842 221 94 71 54
371 486 108 107 27 37
369 488 110 72 30 36
271 481 333 101 20 42
261 410 352 76 35 34
376 486 106 110 26 41
371 491 111 116 34 44
386 705 347 62 46 35
275 860 299 160 148 142
360 911 367 77 69 65
412 462 79 180 19 36
379 606 141 133 95 59
372 490 109 64 23 33
276 376 293 128 101 71
375 492 110 101 30 40
270 941 256 75 68 68
359 676 172 122 94 72
376 496 113 92 29 37
379 422 269 99 9 28
381 486 103 93 30 39
282 852 264 107 89 69
442 456 164 84 26 36
381 405 197 87 76 66
382 494 109 124 30 44
368 494 114 153 36 59
258 921 311 177 134 114
371 497 116 144 25 41
381 501 113 53 30 36
348 825 183 210 156 124
374 498 115 103 30 35
399 566 217 70 28 36
270 861 287 140 66 81
449 509 144 176 20 36
347 951 297 55 51 51
305 521 156 156 3 37
375 501 116 83 25 32
372 510 119 119 18 36
241 591 326 148 111 78
464 845 338 93 77 63
376 506 116 126 13 33
376 511 117 143 8 33
431 496 173 135 3 42
433 766 237 89 64 56
370 511 120 45 27 33
336 916 223 86 71 69
378 500 114 110 23 36
379 503 115 108 20 36
380 507 115 119 15 35
282 876 254 142 115 86
225 571 299 135 92 67
385 497 110 83 32 34
380 511 115 133 4 31
504 827 340 90 75 62
382 506 114 69 23 31
256 646 302 174 126 99
382 511 114 102 17 26
408 481 242 42 28 29
290 556 187 151 12 42
286 412 152 117 63 59
284 414 150 133 9 40
286 411 157 106 76 64
403 564 154 115 66 54
410 737 281 67 54 43
337 526 138 145 6 39
262 416 168 148 7 36
261 411 177 106 42 32
258 416 174 162 8 43
391 631 177 155 111 87
295 286 262 128 90 65
260 416 172 147 11 36
267 413 163 124 35 37
266 947 318 54 50 50
303 515 345 178 23 58
314 787 215 82 67 65
267 416 163 154 10 32
271 411 167 110 49 44
486 446 137 86 28 40
312 796 222 73 60 58
266 410 177 100 51 37
290 711 207 145 13 44
261 410 182 84 49 38
261 410 192 81 54 42
288 734 224 155 6 48
266 410 187 79 55 39
407 811 242 65 54 54
322 421 129 171 5 36
271 410 192 79 60 40
287 386 188 93 79 64
285 391 192 102 84 66
288 391 188 93 79 65
362 671 292 59 26 31
283 401 192 106 81 64
291 696 342 132 100 67
287 396 187 101 86 71
285 396 191 106 87 68
285 401 187 133 108 100
371 876 317 61 53 56
381 436 257 111 17 40
411 541 147 65 35 34
400 756 217 102 21 42
276 411 167 94 65 53
281 410 167 97 75 64
379 413 149 100 85 69
276 411 177 104 68 60
371 404 272 65 56 44
285 915 265 97 72 59
405 791 197 173 115 89
289 487 349 166 26 59
281 411 172 105 84 74
311 441 324 69 23 28
350 392 182 101 87 74
283 710 219 48 33 39
286 411 172 104 87 76
276 411 182 94 61 51
281 411 182 97 72 60
276 409 192 78 61 44
287 406 183 127 107 96
282 626 232 142 28 48
283 400 189 144 110 101
283 407 188 98 74 55
366 601 287 98 26 41
288 401 183 110 93 80
273 420 159 133 11 39
276 421 157 125 13 37
383 823 287 53 44 48
281 421 152 127 15 35
273 424 159 118 13 34
422 862 336 87 72 62
273 432 159 50 35 40
400 441 297 102 21 38
276 431 157 100 23 32
279 310 275 127 89 66
278 424 154 129 15 32
277 461 172 160 4 39
170 517 295 171 124 103
286 421 148 133 12 32
284 421 150 131 14 37
326 947 332 54 49 47
287 426 148 109 19 30
325 466 130 119 22 37
287 431 148 98 21 35
392 671 177 142 97 67
284 431 150 126 13 34
406 409 177 154 20 51
352 556 323 42 27 31
273 434 159 41 38 41
279 437 155 86 19 34
287 436 149 135 5 32
285 436 151 139 1 33
288 440 149 126 13 36
434 710 403 99 80 61
432 904 416 92 74 56
226 531 269 45 34 35
282 440 154 157 1 36
366 726 156 150 102 61
286 446 152 124 13 41
261 606 301 130 13 34
461 466 131 182 15 41
426 525 107 228 149 127
283 444 154 168 6 45
282 862 258 115 94 72
334 512 340 38 27 29
263 420 168 111 19 34
397 700 391 87 70 58
261 421 172 91 23 34
397 486 253 131 19 44
273 466 183 157 7 43
262 426 172 100 27 38
265 421 166 145 7 37
260 431 177 68 28 33
270 421 161 141 8 37
265 426 167 127 16 37
366 886 302 52 43 49
313 639 189 98 26 31
268 426 164 130 14 36
244 653 310 184 137 109
251 591 302 101 27 34
266 431 167 56 36 38
420 481 181 64 24 29
271 431 162 54 37 40
268 430 164 53 39 39
321 747 341 109 82 55
448 522 157 110 25 42
264 428 170 76 25 26
258 426 178 150 3 40
257 556 273 146 0 35
440 511 122 139 98 79
408 471 238 52 24 30
258 430 179 112 19 40
263 434 174 78 36 42
262 436 177 54 35 37
356 846 217 92 80 78
408 779 205 137 93 66
229 538 270 73 25 34
272 436 162 59 34 38
369 641 157 146 106 80
270 437 166 52 34 36
266 441 177 74 34 38
321 846 239 159 128 101
270 442 171 67 32 37
323 399 255 54 45 36
268 445 178 73 30 37
270 447 176 74 31 34
258 434 183 161 6 45
259 433 180 64 29 36
420 776 228 69 54 48
263 439 179 87 43 46
386 911 217 78 69 61
425 412 182 169 19 54
262 441 183 141 22 46
404 766 271 57 46 40
258 440 188 181 12 47
264 442 181 73 34 40
266 446 182 70 33 37
264 447 186 96 35 45
274 437 160 65 26 34
274 443 165 179 8 38
306 391 172 91 80 69
279 447 161 177 9 44
296 416 143 102 27 37
301 416 142 124 19 38
309 747 355 143 104 70
366 746 371 62 48 38
302 413 144 102 48 44
290 415 146 137 18 41
384 889 229 73 58 52
291 451 337 62 28 32
356 541 323 78 27 36
378 756 349 81 61 50
271 417 307 68 59 49
292 416 144 143 21 47
362 568 150 162 0 33
466 486 142 182 20 47
354 838 200 79 69 70
275 952 266 74 69 71
157 520 321 179 121 103
296 412 157 88 68 54
301 413 147 99 59 51
312 698 184 44 39 38
383 904 376 71 60 58
301 413 152 104 62 49
456 501 162 83 19 33
301 411 157 91 75 58
386 921 217 99 84 72
306 416 138 147 29 38
326 481 132 145 2 34
376 406 247 70 53 43
366 881 307 54 45 50
436 857 345 52 44 36
306 413 143 131 58 45
351 876 337 37 32 32
293 491 159 94 27 32
311 415 137 140 47 38
316 416 133 149 43 39
321 416 132 118 65 47
266 411 301 66 57 48
316 413 143 95 82 65
311 596 328 96 29 39
316 414 141 96 79 60
321 412 143 97 82 68
258 906 311 167 130 106
382 686 257 53 27 31
311 406 157 93 80 68
461 831 332 73 57 49
453 439 115 119 14 20
343 801 178 177 133 100
306 413 147 119 63 49
308 414 147 121 64 49
342 873 330 36 32 30
446 516 147 102 22 38
306 412 152 99 73 58
259 727 261 187 6 52
311 411 152 94 80 65
311 412 147 97 75 60
302 770 222 80 67 62
436 420 157 133 15 42
309 414 145 126 62 49
306 410 156 92 78 63
340 486 330 139 5 43
309 409 155 95 81 66
312 408 154 95 81 67
316 407 152 96 81 68
296 871 251 132 108 83
351 861 332 37 33 33
302 266 262 125 93 63
313 403 159 95 81 67
304 835 267 128 100 75
317 402 158 95 82 70
436 486 102 101 53 53
316 405 156 94 81 68
301 841 287 60 46 33
311 832 297 60 49 47
294 394 180 85 75 66
389 462 255 88 14 35
321 402 157 96 83 70
264 457 339 154 17 50
382 676 189 131 86 63
320 404 156 96 82 69
315 409 150 96 81 67
320 410 146 98 83 69
339 833 215 52 48 56
280 646 292 139 4 41
322 408 148 97 83 70
300 390 176 88 78 68
211 520 315 135 56 59
302 392 173 88 78 68
383 671 237 46 31 34
259 886 276 185 132 112
327 864 298 58 47 38
302 397 169 84 75 67
270 521 232 110 25 40
298 393 174 86 76 66
297 392 178 87 77 67
298 397 173 85 75 67
363 538 319 163 19 54
299 401 170 87 76 63
328 499 339 132 11 40
312 894 390 76 69 66
297 401 173 89 77 64
296 386 182 87 76 67
507 814 312 99 80 66
291 386 186 88 76 64
381 711 332 75 54 42
424 416 210 54 24 30
307 735 348 139 103 73
289 391 186 88 75 63
401 561 197 72 23 33
294 386 186 87 76 66
424 507 90 73 26 33
291 396 182 87 76 65
393 441 285 39 32 29
293 397 179 87 76 65
293 401 179 91 79 65
289 394 185 90 78 65
301 386 178 89 79 69
396 556 122 172 114 82
274 768 286 78 65 60
291 386 294 118 94 64
299 389 180 88 78 68
403 766 287 64 49 45
296 412 162 89 75 61
411 726 242 107 70 47
256 911 297 180 139 118
282 606 217 41 34 40
291 411 172 94 80 66
401 771 167 154 107 77
291 410 177 96 78 62
386 411 277 54 29 31
295 410 172 92 76 60
316 736 335 82 38 35
300 406 167 92 78 64
313 874 314 114 89 75
298 408 169 91 78 64
300 410 162 93 78 62
401 626 157 155 110 77
270 776 322 178 127 97
299 409 167 91 77 62
386 731 273 94 28 41
399 431 301 152 12 44
292 407 179 93 77 60
316 791 354 155 105 77
291 406 181 96 81 66
306 386 176 89 79 69
428 523 127 211 148 132
326 456 328 96 19 33
424 511 90 128 85 64
307 388 174 88 78 69
398 471 297 97 25 39
290 418 315 103 5 30
304 389 175 88 78 68
311 390 171 91 81 71
207 556 315 164 116 91
306 396 168 89 79 69
305 400 166 91 80 69
311 396 167 91 80 69
411 529 108 225 144 122
311 401 162 93 81 69
309 399 165 92 80 68
365 506 320 38 26 29
403 754 308 72 58 44
306 393 169 91 80 69
316 386 172 91 80 70
314 384 175 90 80 70
419 436 216 98 17 36
321 386 171 88 78 69
314 923 359 53 49 49
402 761 217 61 35 41
302 934 350 63 58 57
456 908 416 96 83 72
321 391 167 90 80 70
263 735 322 189 132 104
316 397 163 92 81 71
262 731 327 188 129 102
316 400 161 93 82 70
408 501 200 162 15 50
357 835 422 115 96 78
320 400 161 93 81 69
307 402 163 93 81 68
309 404 160 94 81 69
296 431 142 130 10 32
366 412 142 101 86 71
300 421 141 134 11 34
326 436 321 61 26 31
303 417 139 160 2 36
413 471 206 88 24 40
331 661 312 133 19 45
300 426 141 121 11 27
316 626 319 63 24 31
300 431 140 127 10 28
277 481 182 73 33 41
290 421 146 134 10 35
293 421 144 128 11 30
296 441 143 62 28 35
470 438 132 77 25 39
300 436 140 138 6 33
336 686 181 92 30 38
300 441 141 95 22 33
302 436 139 138 8 35
310 908 374 69 62 59
284 493 175 37 39 36
303 441 139 133 17 35
267 756 332 176 126 96
297 446 143 42 33 39
266 348 285 128 100 71
377 676 212 88 27 39
292 681 327 116 89 64
301 446 141 66 30 35
186 522 291 146 104 86
285 791 292 79 65 61
303 446 139 112 28 37
406 506 247 143 13 44
293 434 144 140 9 34
294 441 145 54 29 35
387 821 268 51 43 46
289 447 150 148 15 42
361 811 343 49 41 34
399 560 251 61 24 31
253 938 314 48 44 47
294 446 145 42 32 38
312 421 134 139 13 33
375 532 115 88 38 45
310 426 135 116 18 28
306 426 138 88 22 30
361 536 322 156 17 51
306 431 137 62 33 33
316 426 133 125 13 32
310 441 135 128 18 34
317 958 324 73 73 76
194 516 325 165 123 101
401 422 137 114 28 28
306 441 137 96 24 34
385 815 345 51 43 36
311 446 136 99 26 35
306 446 138 99 27 35
470 474 134 185 18 46
301 823 343 140 87 67
306 496 353 46 26 30
269 546 319 95 21 37
313 436 134 110 22 35
302 506 153 156 0 36
316 436 132 113 25 35
291 844 271 117 88 48
384 441 255 125 13 41
316 441 132 97 25 32
431 481 112 85 59 44
320 441 130 70 35 34
351 906 217 75 60 56
316 446 133 65 35 35
320 446 130 43 36 39
369 646 271 103 15 37
272 392 207 67 54 41
321 926 223 84 72 69
211 531 317 150 103 80
270 396 207 73 59 45
370 722 313 58 36 35
311 486 142 149 0 35
271 401 202 79 62 46
267 401 207 74 60 43
356 889 231 61 51 50
397 441 303 64 27 32
421 431 182 100 18 35
269 400 208 72 59 43
384 584 265 152 43 60
225 591 300 164 114 81
263 398 213 63 51 40
409 831 336 59 49 42
279 418 338 97 3 30
260 400 216 57 46 33
216 531 291 99 14 33
262 396 217 60 49 37
260 395 221 59 48 37
414 460 191 61 19 30
263 393 218 58 48 38
267 387 219 68 56 43
268 711 303 102 42 46
265 386 221 62 52 41
266 391 217 64 53 41
403 548 249 60 20 21
264 391 221 59 49 39
380 626 227 175 7 54
478 458 130 167 19 49
386 736 341 81 59 48
265 395 216 64 53 41
266 396 212 75 61 45
252 650 329 129 92 61
266 399 210 71 58 43
272 391 212 64 54 42
331 838 314 33 29 30
268 392 214 72 60 46
395 801 172 187 126 97
288 297 273 139 96 73
271 401 212 70 57 43
331 591 327 50 26 31
267 408 198 78 61 42
311 405 313 90 34 37
271 406 198 81 63 46
363 734 355 51 37 28
266 406 202 78 61 42
382 576 147 115 68 58
265 404 206 77 60 42
422 756 231 87 51 44
268 402 204 78 62 44
270 404 201 80 62 46
265 486 217 163 6 40
266 409 196 77 60 41
264 572 319 145 22 48
316 451 326 57 26 30
445 511 143 146 16 41
269 586 246 137 6 38
265 741 332 184 127 100
271 409 196 79 61 41
400 428 119 101 25 26
281 386 197 95 76 56
421 885 366 88 74 64
274 389 207 66 53 40
321 972 272 89 85 88
278 395 199 82 65 50
304 266 267 132 97 69
280 396 197 86 68 51
280 401 196 77 62 46
336 746 337 48 24 23
283 386 194 101 81 61
426 491 67 75 34 35
283 391 194 105 83 62
289 447 356 126 9 38
265 706 287 40 28 31
367 711 322 71 58 47
277 386 221 62 51 40
358 390 224 113 90 65
247 526 319 53 21 28
424 453 84 107 24 40
281 386 223 61 50 39
451 775 297 95 75 59
281 391 222 60 50 39
273 400 215 68 56 44
274 397 214 68 57 44
274 401 214 70 57 44
276 400 216 68 56 42
398 716 290 87 67 62
279 397 219 63 51 40
281 396 221 59 49 39
381 641 138 151 108 67
280 401 218 64 53 41
279 508 329 51 30 29
426 437 112 117 19 25
382 871 223 119 94 92
281 400 220 61 51 41
487 451 142 88 29 39
284 395 224 59 49 41
466 461 128 184 15 40
276 406 197 79 62 43
379 657 246 149 14 43
263 510 238 116 19 38
408 501 197 149 15 46
283 386 225 62 51 41
269 900 354 52 48 46
326 390 247 54 45 36
363 577 304 45 23 28
286 386 227 61 50 40
288 386 230 60 49 39
264 478 210 134 11 48
284 392 224 59 49 39
291 390 231 62 51 40
306 943 241 85 76 76
293 384 235 66 52 39
266 361 288 129 101 72
252 554 286 131 4 43
379 864 307 57 49 53
294 386 234 65 52 40
432 442 98 122 19 28
272 898 326 100 86 74
297 391 236 55 45 35
299 387 239 68 54 41
333 830 425 81 63 49
282 526 197 147 9 41
380 843 216 89 73 70
282 292 284 142 93 71
374 719 347 58 45 32
298 394 236 54 45 35
300 399 236 54 45 35
236 556 296 43 33 36
301 386 241 66 53 40
307 386 246 55 45 33
396 476 253 107 16 36
317 586 167 49 37 39
311 386 248 54 44 33
311 391 248 52 43 34
500 839 347 107 91 76
377 536 127 66 33 34
306 395 243 53 44 34
383 572 282 100 23 40
369 899 282 54 46 47
309 396 244 53 44 34
288 614 209 125 11 34
312 399 246 52 44 36
426 411 207 135 19 46
321 386 243 53 44 35
397 821 217 75 59 49
276 891 257 158 119 89
250 652 305 178 129 102
317 385 247 50 41 32
329 929 224 72 62 58
311 416 317 48 24 27
316 386 252 51 42 33
315 386 257 56 46 36
296 907 368 61 56 55
314 391 249 52 43 34
320 387 251 50 41 31
241 646 328 159 114 87
317 389 257 54 46 36
220 601 312 185 128 98
310 840 289 128 94 71
397 816 252 60 45 47
321 390 253 51 42 33
270 752 262 55 43 44
313 394 250 52 43 34
321 396 253 53 44 35
321 399 252 53 45 36
282 451 158 154 8 41
294 808 296 77 62 57
285 451 156 153 6 40
271 526 232 81 30 37
272 491 202 165 7 42
385 856 221 92 68 61
287 461 157 66 32 38
287 466 158 149 14 43
271 451 177 67 29 35
421 425 137 120 10 26
263 450 188 48 33 38
387 710 194 127 89 69
263 455 193 92 21 38
329 817 211 79 66 61
267 451 183 57 36 37
270 456 182 140 12 39
286 900 371 61 55 52
265 451 187 52 35 38
421 901 402 106 88 70
267 456 187 136 18 42
233 599 300 153 109 77
401 902 402 99 79 62
265 456 191 133 14 42
246 576 299 72 25 33
268 460 188 176 7 46
266 461 192 165 6 41
269 458 185 169 7 44
269 462 190 161 6 33
451 471 162 69 13 28
277 466 177 160 6 42
271 466 187 132 11 37
260 731 262 192 4 56
296 415 314 78 17 28
269 466 191 97 20 35
325 687 320 35 25 27
272 471 187 43 30 37
236 641 308 182 128 96
335 872 383 69 59 54
278 449 164 181 10 47
308 380 272 104 83 61
279 452 165 176 9 45
278 455 168 162 5 40
274 448 170 162 17 52
420 411 217 50 28 31
381 730 373 66 53 41
275 451 172 156 11 43
371 646 202 134 19 45
274 453 175 117 20 29
276 456 172 161 5 41
279 462 171 160 5 41
283 461 163 73 32 35
284 458 160 73 31 33
274 462 180 158 7 35
251 576 299 61 27 31
280 466 172 161 6 42
378 651 222 155 12 46
434 468 170 109 41 51
279 471 176 151 7 40
410 461 232 93 21 36
358 902 318 54 45 51
283 471 168 114 29 45
284 468 165 92 29 39
366 411 312 46 30 32
403 703 284 93 64 42
284 472 166 80 33 41
311 562 334 186 12 59
281 471 172 147 9 39
286 481 167 92 34 41
293 509 164 165 9 53
283 475 169 87 28 32
280 481 177 53 37 39
267 731 313 160 104 82
274 467 181 155 7 39
275 471 182 122 14 36
302 641 315 155 17 49
281 741 357 162 113 88
301 702 327 103 60 52
277 471 178 149 5 36
273 470 184 116 22 44
278 890 365 54 50 49
276 476 182 89 25 38
278 476 178 108 21 36
278 480 179 78 33 35
371 882 303 55 46 51
273 476 188 47 31 36
274 473 185 42 31 39
420 750 256 68 46 40
268 584 287 118 14 41
346 661 184 44 34 36
273 479 189 127 27 51
311 531 153 61 30 37
276 431 361 38 30 31
327 445 324 92 17 33
284 482 170 57 35 37
382 404 239 74 48 33
278 501 197 159 6 42
284 486 171 41 35 39
311 954 330 77 74 75
326 876 372 65 55 51
282 491 177 42 34 37
278 479 340 168 18 55
424 524 149 85 6 28
283 495 178 93 25 42
457 506 157 59 26 31
428 740 405 100 93 87
293 526 169 53 36 39
285 496 172 117 20 42
279 482 180 85 44 45
376 402 292 75 43 36
278 485 183 55 37 38
280 487 181 43 34 38
474 456 155 45 23 26
276 486 187 69 34 38
262 572 258 59 33 36
339 732 330 62 26 27
303 838 254 131 106 82
275 486 192 102 25 40
280 491 182 49 33 35
382 818 344 56 48 42
279 492 186 80 31 37
335 617 170 71 35 39
379 743 310 56 41 36
346 406 306 132 14 40
277 491 192 96 27 38
343 829 198 79 68 65
278 494 189 116 28 42
246 552 276 194 4 45
306 746 186 112 24 40
412 780 212 116 85 64
279 497 191 118 19 41
282 496 182 103 31 44
287 501 172 56 30 35
286 506 177 141 16 43
279 501 192 64 29 36
318 897 234 54 51 51
326 937 231 82 71 67
283 501 182 119 24 41
284 502 180 135 27 43
304 680 195 58 30 33
281 501 187 59 34 36
283 505 183 154 12 44
287 511 177 165 9 41
392 726 256 94 23 38
287 954 258 74 68 70
395 496 301 154 14 49
286 511 182 165 10 44
282 506 187 134 14 41
362 481 313 123 3 37
283 510 188 165 8 42
336 400 287 68 59 51
412 506 227 161 17 45
282 511 192 164 8 42
398 754 278 63 48 46
284 511 186 165 9 43
345 838 216 56 51 54
302 461 143 151 0 37
399 436 297 140 15 44
295 681 206 125 8 36
366 806 346 34 30 26
419 570 177 95 22 40
311 701 183 48 36 39
375 906 226 80 68 58
293 455 149 114 11 36
236 581 323 146 111 79
291 461 153 49 38 39
382 812 160 164 111 78
412 787 242 61 45 41
296 461 148 116 11 36
431 467 78 102 29 26
341 786 343 57 42 31
294 461 150 41 38 39
299 458 145 151 0 38
300 462 145 153 1 39
381 681 257 40 28 32
420 897 415 99 78 54
295 466 151 52 33 35
286 466 357 147 19 50
288 470 159 82 24 29
292 481 158 98 27 37
391 486 98 132 17 35
274 694 240 42 35 40
296 481 153 66 28 35
291 907 362 57 52 52
297 465 149 129 18 40
298 471 149 83 35 40
330 718 330 74 20 26
301 471 147 76 30 36
452 429 146 93 33 30
336 866 236 140 108 84
298 474 149 35 40 40
301 476 147 126 14 37
361 835 177 230 152 116
299 478 150 137 35 48
340 537 140 103 15 32
311 451 136 111 24 33
413 760 225 70 40 44
304 452 140 149 2 35
339 861 317 30 29 29
305 457 140 148 1 34
419 473 76 182 16 42
227 539 273 68 31 36
308 461 139 134 7 34
291 356 277 110 87 60
311 461 136 93 24 35
223 513 274 41 34 37
313 450 134 137 19 35
401 492 101 125 26 40
316 451 133 91 31 35
361 586 156 106 26 37
454 433 134 120 4 15
316 456 133 118 19 32
399 626 148 175 123 90
397 866 326 83 73 75
314 456 135 128 13 34
316 461 134 112 18 35
314 461 135 111 16 31
430 451 170 127 10 40
376 871 257 50 44 43
306 471 142 140 3 34
271 596 317 134 17 45
341 936 247 66 59 59
270 451 352 83 22 35
308 466 139 149 0 37
271 861 297 133 94 95
281 531 202 160 8 42
311 466 137 82 25 34
308 470 139 151 0 31
294 788 260 76 62 59
252 600 324 140 103 74
309 473 140 151 0 37
456 436 160 128 4 38
309 477 140 149 0 37
312 480 139 147 0 30
310 481 141 148 0 33
318 624 179 61 31 39
273 414 322 87 45 34
315 466 135 107 30 40
321 466 132 69 27 32
392 491 277 116 14 37
316 471 136 106 19 34
321 471 133 148 4 34
321 436 322 76 26 32
416 501 183 147 6 45
378 862 276 56 50 53
322 476 133 146 0 33
306 624 320 107 25 43
320 481 136 147 0 32
371 646 188 111 56 49
304 476 145 149 6 36
361 896 322 55 47 52
289 473 160 46 37 39
289 477 161 59 37 41
290 481 161 76 31 35
293 486 158 74 31 37
296 491 156 87 32 35
399 599 134 160 110 76
293 496 159 74 35 39
399 446 297 77 24 35
300 486 151 117 20 38
462 897 392 95 83 78
192 541 302 192 128 99
332 832 414 73 58 47
388 466 276 70 31 34
302 486 148 128 11 35
297 486 154 94 25 36
300 491 151 74 30 35
301 496 152 47 34 40
427 466 97 112 13 34
311 866 312 125 96 78
303 496 149 66 33 33
298 491 154 81 37 37
297 506 158 136 6 36
299 275 259 121 87 61
412 491 188 132 15 41
300 506 156 158 0 37
266 952 307 64 61 63
267 536 252 94 25 36
260 731 282 60 30 35
286 501 337 102 19 38
269 700 288 49 23 30
303 510 154 155 0 38
311 491 142 151 0 35
271 761 317 170 119 89
437 481 168 101 12 35
388 734 330 78 62 49
354 497 325 138 15 42
311 496 143 155 0 34
313 484 139 147 0 31
317 491 138 153 1 31
436 472 72 114 31 35
316 496 141 156 0 36
321 496 137 159 0 36
325 497 135 158 3 39
305 491 146 144 3 37
255 611 326 145 107 73
308 494 144 160 0 31
271 691 247 59 31 35
309 496 145 154 0 32
303 912 238 65 59 57
312 500 144 155 0 35
306 546 162 92 26 37
390 702 381 131 94 78
418 500 89 144 100 76
386 766 157 139 100 60
319 498 140 158 0 38
320 501 141 158 0 36
304 502 150 73 28 36
399 741 169 120 92 58
310 502 145 144 3 36
306 506 151 154 1 34
260 646 300 166 121 96
307 505 148 151 3 41
272 877 315 134 99 82
389 731 159 134 93 57
380 403 282 73 53 40
306 402 306 72 63 53
311 511 148 157 0 36
340 576 326 61 28 33
421 430 127 115 15 21
437 758 235 84 54 45
361 727 332 55 44 36
315 511 145 158 0 38
290 486 162 78 32 38
288 486 164 121 30 42
289 497 165 38 32 36
290 501 167 122 22 41
265 531 319 30 26 30
425 471 176 56 23 29
270 786 332 184 133 103
396 871 332 68 59 57
288 500 168 143 18 45
294 502 160 100 23 41
284 611 216 107 34 48
291 506 167 141 13 42
295 506 161 106 20 38
295 511 162 160 6 40
292 511 167 144 11 42
289 507 171 124 20 42
369 645 193 77 34 43
211 521 314 126 51 56
325 396 258 55 46 38
259 448 195 174 4 41
444 464 124 81 38 25
258 454 199 169 6 42
384 842 279 56 50 52
262 460 198 168 7 40
260 461 202 167 7 42
412 466 227 106 21 39
258 460 204 165 6 41
259 462 205 167 7 36
264 462 196 166 6 40
377 876 292 54 46 48
393 742 354 71 58 46
427 436 172 77 25 30
263 464 199 164 6 49
258 465 208 102 20 36
329 788 190 76 64 61
263 470 203 160 8 44
265 466 197 125 10 36
309 387 281 107 87 63
387 826 187 164 105 79
268 470 194 77 29 38
326 736 336 50 23 24
365 901 329 75 67 73
306 828 333 128 80 60
265 472 201 164 7 42
268 475 198 64 24 32
429 524 107 226 147 125
269 473 195 117 15 37
226 566 322 153 116 87
267 476 202 98 23 38
341 506 131 112 27 39
256 706 322 188 131 103
402 756 273 54 41 37
264 473 206 129 3 39
331 596 326 54 29 33
265 476 207 115 14 39
373 738 375 64 47 37
413 476 222 83 26 36
381 739 284 89 26 38
268 480 203 41 30 36
260 447 343 172 17 56
266 481 207 63 25 33
269 481 201 54 31 34
471 456 157 105 10 33
416 915 174 107 90 78
425 491 176 126 13 42
402 708 279 94 66 43
258 470 213 52 32 37
260 472 211 85 20 36
260 476 217 165 6 41
287 945 244 91 81 81
288 724 214 172 7 50
357 501 324 89 22 35
383 721 362 88 73 57
