ply
format ascii 1.0
comment Created by Open3D
element vertex 2200
property double x
property double y
property double z
property uchar red
property uchar green
property uchar blue
end_header
373 411 317 103 77 51
456 484 288 158 2 46
378 404 315 116 91 64
378 409 316 113 87 62
377 411 317 108 84 58
268 674 261 154 118 95
358 749 328 79 64 58
232 520 285 194 136 115
380 412 316 110 86 61
291 775 286 74 62 55
290 935 285 56 53 54
384 413 316 104 82 60
355 444 318 139 7 43
258 699 263 152 109 85
356 582 156 160 32 49
415 501 351 155 3 47
355 448 317 136 16 46
369 879 300 80 62 51
387 468 370 83 52 46
432 494 334 147 0 46
378 419 318 83 65 46
363 575 153 174 26 48
378 719 212 74 37 38
348 409 324 143 8 45
360 739 207 82 32 39
353 400 324 86 48 36
350 405 328 141 13 44
323 724 305 93 19 38
354 401 328 90 43 35
353 405 334 116 31 38
350 406 332 145 22 51
403 274 279 130 95 63
352 409 334 148 17 46
349 414 324 141 8 44
352 411 330 153 9 45
476 865 261 78 66 57
354 414 329 156 9 47
402 820 321 146 110 91
352 419 324 155 2 47
344 599 307 83 28 38
334 739 314 67 54 49
351 421 321 156 1 46
416 817 236 61 50 47
352 439 384 85 14 32
328 794 299 179 134 112
352 449 379 107 9 35
353 449 384 123 7 39
363 699 333 132 10 41
358 404 329 76 43 32
360 408 325 66 42 29
284 604 273 46 26 31
359 409 329 86 29 29
356 405 333 80 42 27
357 547 121 217 14 44
360 413 330 103 20 31
244 529 244 163 16 47
318 835 232 93 70 63
486 927 297 97 85 74
361 406 322 81 55 34
361 409 323 69 45 31
361 411 327 72 33 30
276 554 198 45 31 35
297 539 164 95 22 33
363 414 324 75 44 32
361 415 328 87 30 31
388 529 364 139 90 79
361 416 332 128 12 38
353 409 339 119 21 42
289 949 299 61 57 59
355 410 343 102 27 41
413 739 214 51 42 42
355 416 349 108 20 39
357 415 349 109 21 37
383 749 333 88 47 50
357 416 352 112 21 37
386 813 212 72 56 47
354 424 329 135 12 42
355 419 334 148 10 45
359 418 335 129 10 39
356 429 330 75 19 33
364 418 324 89 59 45
363 424 329 95 23 35
366 420 323 76 49 35
368 424 324 57 36 26
365 423 326 77 46 35
336 947 251 82 78 80
362 429 334 106 4 36
368 429 329 67 15 26
403 669 234 78 26 31
355 418 339 143 9 47
355 418 344 109 12 39
331 469 291 123 5 38
413 682 229 83 48 41
358 419 344 116 10 37
363 753 327 74 62 58
357 424 339 67 18 29
355 418 349 105 20 41
358 419 349 116 5 36
360 429 344 94 13 34
361 420 339 125 0 41
438 489 329 140 5 43
313 549 289 142 8 43
362 424 344 117 3 36
357 469 310 124 11 40
324 680 302 92 23 37
305 808 287 41 29 32
364 429 349 118 0 35
366 431 346 111 0 36
366 431 349 114 0 36
297 953 325 42 39 39
355 433 323 128 13 43
397 504 383 167 120 89
305 938 256 79 71 72
357 439 324 110 15 38
359 439 334 108 14 36
359 444 324 146 4 45
462 739 302 69 53 39
360 443 329 131 11 42
360 448 323 153 3 44
459 889 274 83 70 60
403 424 334 84 37 36
364 432 334 99 9 32
258 779 215 171 114 81
250 642 236 159 107 75
361 445 330 132 9 41
409 459 346 83 20 34
360 443 333 120 15 45
258 569 270 114 69 60
360 434 344 83 18 32
439 694 267 76 54 45
359 434 349 44 23 28
361 439 340 118 11 41
384 778 195 72 55 44
383 845 290 121 83 62
360 438 345 74 19 29
365 432 339 104 3 31
474 897 277 96 84 76
369 438 339 82 9 28
367 923 245 75 68 71
363 654 207 135 1 33
366 459 339 153 2 47
361 441 336 111 15 35
432 518 130 75 34 39
258 828 254 219 149 121
361 444 339 124 9 39
446 514 309 159 16 50
361 444 344 109 11 37
362 449 344 116 14 37
361 441 348 49 24 28
365 966 273 86 80 82
281 610 208 133 13 37
399 519 381 165 117 86
398 799 204 76 60 53
361 444 349 67 22 31
285 628 210 90 35 42
311 561 152 147 4 34
459 419 279 135 13 41
373 424 321 67 49 30
374 427 325 55 39 29
424 614 259 153 27 49
373 429 329 48 30 23
377 423 321 65 51 34
383 422 321 62 51 39
393 594 344 164 118 99
378 427 325 60 45 32
383 428 330 58 47 35
379 431 332 49 33 27
401 656 336 174 128 107
373 432 331 56 18 25
373 433 334 69 6 27
311 579 291 147 8 44
400 886 252 61 52 52
378 433 334 54 26 27
373 439 339 73 8 26
369 439 344 91 1 29
270 744 272 143 45 52
371 440 350 79 9 32
373 929 348 48 42 39
370 442 347 83 0 30
393 583 176 205 17 50
373 444 349 75 5 26
375 447 350 65 10 24
383 435 338 51 35 30
378 441 343 72 17 30
408 454 346 121 8 38
333 649 199 160 6 39
372 908 316 66 48 36
383 440 342 73 25 31
435 498 331 154 0 49
383 449 344 62 22 29
378 443 345 73 15 29
417 584 334 117 88 59
397 339 288 134 104 71
288 614 189 49 32 35
361 806 311 195 147 125
377 446 348 74 12 29
358 534 300 102 19 37
378 448 349 68 14 26
407 654 298 31 27 32
413 664 345 187 131 104
354 419 354 95 19 36
354 420 358 93 17 31
355 423 354 94 19 33
355 423 358 87 15 30
358 419 354 118 11 38
395 634 334 180 131 113
358 429 359 99 12 35
391 329 292 134 103 70
358 426 363 124 15 40
358 429 364 95 12 32
356 426 369 109 13 36
358 429 369 103 9 34
397 579 330 96 38 43
361 425 354 121 5 35
364 429 354 121 1 36
362 430 364 124 2 39
361 431 369 115 0 33
298 949 274 77 71 73
355 426 370 96 16 34
355 429 370 78 19 30
356 426 373 121 10 42
354 426 377 88 16 26
380 951 326 64 59 56
428 910 284 71 59 52
353 429 379 89 16 31
361 431 379 108 8 35
250 542 231 128 27 49
360 439 354 56 24 30
467 804 284 80 61 51
405 387 286 121 96 68
355 439 370 106 13 34
357 444 364 65 23 29
448 914 298 71 62 56
356 444 367 59 21 27
412 734 184 74 55 46
357 449 364 93 16 34
367 434 354 103 2 32
365 432 356 118 0 34
366 435 359 108 5 32
380 950 274 71 64 66
425 644 319 147 108 76
458 713 301 70 54 43
368 438 359 88 7 24
268 819 228 200 137 108
364 433 364 120 0 36
376 557 141 98 22 36
417 504 348 160 4 49
366 436 368 104 4 32
445 793 244 56 46 41
368 439 364 84 11 27
401 288 274 118 90 59
368 439 369 68 14 25
361 444 353 49 23 27
361 449 353 57 23 29
360 449 355 78 18 30
457 891 244 95 73 57
396 684 329 140 99 83
355 434 371 100 12 35
396 585 361 174 124 100
353 439 374 100 12 35
368 439 374 62 18 24
362 653 206 138 0 33
364 433 379 88 11 31
367 435 384 71 11 26
369 438 379 68 16 27
343 938 246 82 76 80
401 887 255 59 51 49
368 444 384 102 20 38
372 440 354 77 8 26
374 443 354 73 12 23
437 791 187 100 75 55
381 540 315 146 7 46
363 672 316 134 10 40
370 442 364 67 13 24
378 668 311 108 1 33
373 443 364 65 15 24
378 444 359 70 13 27
384 447 358 68 8 24
378 444 364 63 16 24
377 445 369 55 20 26
383 446 368 81 62 50
372 444 378 95 17 36
371 442 382 73 18 30
369 450 375 111 8 34
353 759 320 74 60 54
376 446 372 64 21 28
376 449 372 55 21 29
458 910 300 79 67 59
382 449 370 61 45 39
251 768 261 157 117 88
323 479 287 129 0 40
327 454 291 79 24 33
391 334 292 135 104 71
353 509 298 82 24 36
328 459 291 92 20 34
292 819 275 63 53 49
328 464 290 106 13 35
328 469 290 127 3 39
395 649 328 174 129 111
377 873 235 56 51 53
331 466 291 92 14 31
336 450 296 74 23 32
342 454 300 100 21 37
344 454 302 109 18 39
332 764 305 72 58 52
337 464 295 90 19 34
347 454 305 98 19 36
273 519 194 43 35 38
352 454 310 94 22 37
350 458 307 68 25 33
374 550 133 216 13 49
351 465 306 132 11 43
406 502 377 169 115 87
338 469 295 124 6 39
400 299 264 114 91 66
373 454 373 59 20 27
340 467 297 109 11 38
338 474 294 139 2 42
344 474 298 140 6 43
350 478 302 93 22 36
353 479 304 54 27 31
254 684 230 125 91 56
321 484 286 129 0 39
323 484 287 129 0 38
318 899 345 187 137 122
321 489 286 130 0 39
384 644 217 79 30 38
328 494 288 131 0 40
402 843 183 108 86 64
322 639 296 96 26 40
362 484 364 71 24 32
325 502 287 129 0 39
328 504 287 130 0 39
355 878 326 149 113 86
328 509 288 106 12 36
451 474 304 136 19 43
362 770 321 65 57 55
328 484 288 131 0 39
333 484 290 132 3 41
333 499 289 122 6 38
342 484 295 75 24 33
404 545 326 55 28 33
296 961 312 68 65 74
343 494 294 119 13 39
345 484 297 51 27 31
345 487 297 86 20 38
348 489 298 99 22 38
352 489 300 94 23 37
346 490 296 108 18 37
346 494 296 97 21 38
349 494 298 98 23 38
494 933 210 101 86 71
337 499 291 82 21 32
339 499 292 94 21 35
339 504 292 92 21 35
393 830 196 109 82 61
438 813 245 55 48 46
462 889 269 81 69 62
343 499 294 100 20 38
343 504 293 107 16 37
343 509 293 86 23 35
288 835 239 77 53 53
388 600 187 158 31 50
347 504 296 55 26 30
350 504 297 64 27 32
317 589 296 97 21 38
423 412 309 78 41 33
348 509 295 61 27 32
350 509 297 58 27 31
365 493 312 65 28 35
413 734 194 64 49 42
356 450 316 120 16 39
258 574 235 75 37 34
359 454 319 142 5 43
424 644 339 131 91 58
328 618 180 215 13 46
355 459 312 148 1 45
355 462 312 149 3 44
358 459 315 149 0 45
362 459 320 150 1 45
361 464 315 152 2 46
462 703 299 85 70 55
359 469 313 121 10 39
245 744 244 162 110 81
358 474 309 60 26 32
356 479 306 37 28 28
358 479 309 54 29 32
364 469 319 130 9 40
355 494 302 97 25 40
459 849 273 80 65 55
363 520 102 69 29 34
357 489 305 94 23 38
417 594 329 116 85 56
358 494 304 93 26 38
298 544 283 154 9 46
359 484 308 45 28 32
359 489 308 78 26 36
262 804 223 173 117 82
364 489 313 67 26 34
368 484 319 46 29 32
433 854 254 62 49 43
367 494 315 63 27 34
358 499 304 85 27 37
263 759 267 146 107 81
299 909 279 78 66 58
356 500 301 86 26 37
402 554 329 58 24 32
357 509 301 78 26 35
359 509 303 70 25 33
400 393 296 120 96 68
416 474 351 93 49 45
363 499 309 78 29 36
265 636 261 182 124 106
366 500 311 83 31 39
367 504 310 64 25 32
272 589 218 118 25 42
369 504 313 65 27 34
372 494 354 99 16 36
253 659 259 183 134 113
320 806 217 91 70 61
370 494 318 91 25 38
365 747 332 47 21 25
370 498 317 121 16 39
373 499 319 105 24 42
371 500 316 127 18 43
323 623 185 65 32 41
458 808 296 64 53 45
371 504 315 71 27 34
406 664 240 64 25 33
374 509 318 62 26 32
352 880 218 74 63 59
315 832 277 180 132 108
350 450 377 139 13 47
350 451 376 143 12 44
353 453 378 132 13 42
360 452 322 152 2 48
364 454 334 89 19 36
366 461 324 155 0 47
294 534 282 141 11 47
366 460 329 148 2 44
301 684 212 51 34 36
367 464 324 153 0 47
367 464 329 151 0 44
363 439 390 94 20 36
418 789 219 52 43 41
462 814 279 69 55 49
364 454 339 109 20 40
365 457 340 141 10 43
366 460 344 160 0 47
381 640 307 125 4 38
437 703 269 69 49 39
234 534 260 169 121 96
368 464 339 157 0 47
248 734 254 163 111 85
367 464 344 154 1 46
426 412 298 97 34 35
328 843 304 104 82 60
365 464 350 152 3 43
365 468 322 147 0 45
367 469 324 145 1 43
343 684 315 38 28 30
366 470 321 129 11 41
368 469 344 143 1 44
227 515 285 192 132 111
367 469 349 124 9 39
370 469 334 150 0 46
399 515 345 40 29 28
413 720 179 93 66 52
371 480 329 126 16 41
413 589 308 92 23 38
393 450 378 106 86 67
370 477 334 155 3 47
371 480 334 154 6 48
245 644 262 185 133 108
370 474 339 153 0 46
370 477 338 154 0 46
371 479 339 151 3 46
371 476 341 149 1 42
371 476 342 150 4 42
403 415 309 63 55 47
371 479 343 139 8 45
410 472 365 129 97 73
369 479 349 133 11 43
461 474 274 141 14 44
295 720 211 113 13 30
360 454 355 71 21 32
355 455 366 129 9 40
357 454 364 102 5 33
392 674 220 49 41 41
424 644 329 152 102 71
356 452 367 132 8 37
298 669 280 129 4 39
353 669 313 44 26 31
357 464 363 142 9 44
361 460 354 146 4 47
360 458 355 98 7 31
358 456 376 129 12 42
358 459 375 118 12 36
368 454 375 104 9 32
363 450 380 141 14 43
368 464 373 74 21 31
364 457 377 141 12 44
366 458 377 137 15 45
355 468 366 149 8 44
357 469 364 148 7 46
360 469 360 146 9 46
359 474 364 135 8 45
244 619 240 149 107 72
358 479 369 59 24 32
366 470 352 88 16 25
383 512 96 81 35 37
442 843 274 67 56 49
362 474 359 94 16 37
364 479 359 88 20 34
403 669 339 170 127 101
243 769 234 160 110 78
454 525 158 210 23 56
367 475 353 69 21 32
367 479 354 100 17 38
358 568 144 109 28 40
365 477 356 59 21 34
414 769 228 57 45 44
343 524 109 107 22 39
366 480 357 93 23 36
360 472 361 151 0 49
456 493 287 159 12 47
428 844 259 61 49 43
362 479 363 86 21 35
483 924 214 103 84 66
358 469 376 88 18 32
398 595 188 197 15 47
250 719 257 163 111 85
355 473 374 116 18 40
357 474 377 116 22 45
363 469 374 61 24 27
501 936 220 88 79 71
363 474 374 79 19 31
427 589 219 42 33 38
392 826 310 60 49 46
453 459 299 62 26 33
363 479 375 71 24 32
368 479 376 70 26 31
383 464 368 72 48 42
372 464 372 88 19 35
375 461 371 50 33 29
376 454 372 42 25 28
454 897 248 91 74 61
384 449 373 99 67 59
491 929 244 98 80 64
406 509 374 171 120 91
378 459 370 49 34 35
416 661 274 57 33 38
378 464 369 39 23 27
397 613 205 41 34 39
422 753 194 67 52 42
435 443 325 34 28 29
373 469 373 71 26 33
398 819 319 52 40 39
374 475 371 101 29 38
388 389 308 121 95 63
378 467 370 42 23 26
397 824 219 56 44 45
439 559 184 209 22 53
378 473 372 50 23 28
383 474 374 65 29 31
383 479 374 70 38 37
423 599 344 155 110 76
417 670 300 45 34 35
379 480 379 55 35 32
384 474 379 82 50 45
382 478 379 55 37 35
401 923 300 69 59 53
371 480 326 83 20 37
388 414 315 89 72 55
370 488 322 70 22 32
410 389 280 119 94 67
372 489 324 131 14 43
396 571 336 84 41 39
375 493 334 60 26 34
441 573 268 176 8 51
376 496 329 50 29 30
311 863 288 107 83 56
376 495 334 60 27 33
373 609 308 68 20 30
373 484 339 136 11 44
372 489 349 76 19 32
375 494 339 83 20 34
372 478 393 164 111 100
413 729 340 183 130 102
424 525 133 125 28 44
258 549 280 70 23 32
374 494 349 126 13 42
353 734 203 128 12 34
375 498 323 74 24 32
376 496 326 80 30 37
281 610 256 45 29 29
373 514 98 90 28 38
377 499 329 57 27 32
365 774 201 66 52 46
376 505 321 65 28 35
377 499 334 60 27 31
378 504 334 57 26 31
273 524 194 40 36 40
379 509 334 61 27 33
398 419 319 61 53 44
375 498 340 117 31 47
375 499 344 143 8 45
394 629 324 156 112 94
302 960 300 78 72 71
303 699 299 131 10 41
375 503 349 132 12 43
376 499 339 84 21 34
460 526 167 190 14 46
274 719 274 148 12 45
376 500 343 139 12 45
377 504 344 119 12 40
275 758 277 43 38 38
376 505 348 123 12 41
377 509 349 73 24 33
349 759 318 77 63 56
360 484 369 50 28 32
456 737 251 54 42 34
368 484 354 72 23 33
368 779 205 61 49 44
289 724 215 101 22 28
365 484 360 97 19 38
360 483 366 47 29 32
364 489 364 96 19 38
410 383 274 116 92 63
408 574 174 183 26 54
290 915 323 127 105 92
365 488 361 115 16 45
392 577 171 184 18 47
323 845 238 163 113 88
364 493 369 93 22 36
365 493 365 97 23 37
369 494 359 90 21 38
360 484 373 62 27 32
363 484 374 61 25 30
308 859 329 133 83 73
363 489 373 67 26 34
275 544 196 109 24 34
368 484 375 66 27 32
446 691 275 68 52 41
249 704 230 137 97 64
435 584 279 125 15 43
365 492 372 89 29 39
328 833 231 78 61 55
369 499 364 92 23 37
369 498 368 103 23 40
371 490 353 87 21 34
373 484 376 85 38 43
374 484 385 126 89 77
373 494 374 104 64 61
380 483 370 101 39 44
318 564 293 148 7 45
423 689 239 70 46 39
383 484 369 92 54 51
382 484 373 89 50 49
384 488 369 96 62 53
383 487 372 86 56 49
376 487 382 128 90 76
376 492 376 124 87 81
376 492 377 123 87 80
371 496 357 89 14 34
372 504 359 108 17 38
432 740 188 84 60 47
419 570 178 112 25 40
374 504 354 129 14 43
372 504 364 111 18 41
372 499 370 112 50 57
374 508 364 103 20 37
376 511 357 94 23 38
378 509 369 116 74 68
377 510 365 96 26 37
425 488 341 141 7 44
419 840 248 50 42 41
375 503 375 143 100 89
374 499 379 156 114 105
245 724 244 158 106 78
373 499 384 178 131 119
422 791 196 72 55 45
403 460 363 111 91 71
300 634 277 104 13 38
374 504 379 163 121 109
374 504 384 188 139 126
338 609 174 213 13 46
399 744 186 77 58 46
375 508 376 162 122 110
375 508 379 178 134 121
459 852 268 68 55 46
376 505 373 144 103 93
258 819 264 206 148 124
241 573 247 135 103 69
391 360 297 125 98 66
376 505 370 123 82 75
359 884 319 138 105 77
377 509 374 156 114 102
378 509 384 197 144 126
402 479 383 149 104 77
355 434 387 105 17 38
355 439 387 88 21 33
353 514 298 79 26 35
443 734 245 51 43 39
358 432 386 94 22 40
440 576 254 181 9 51
378 545 129 217 13 47
355 447 387 102 6 31
388 545 134 217 13 49
363 434 388 84 14 31
245 674 248 177 122 96
366 436 388 85 12 35
367 439 388 89 23 35
397 594 360 174 125 100
363 444 388 122 17 42
367 443 388 93 20 35
370 482 393 179 123 114
370 471 399 186 138 131
343 979 294 53 50 52
308 743 302 66 55 51
378 854 198 94 73 60
419 504 345 165 3 52
372 471 400 193 147 141
316 533 286 42 25 26
373 480 390 141 96 86
343 634 195 185 8 42
448 909 294 69 59 50
373 475 394 172 117 109
451 502 302 139 9 45
370 475 395 160 106 95
284 604 199 142 1 34
287 619 199 119 19 41
494 930 214 99 86 73
393 715 175 77 58 47
322 624 296 36 27 30
373 474 399 186 136 130
370 477 398 179 119 113
433 699 254 58 40 37
242 784 249 168 118 87
373 479 398 175 117 105
378 480 389 96 61 54
266 569 218 56 25 33
376 475 398 175 126 115
377 479 394 161 114 99
371 489 389 163 117 105
296 620 276 166 11 54
375 481 386 104 73 62
368 709 337 86 27 37
403 554 324 45 27 31
373 484 395 179 122 113
374 482 397 170 115 101
451 557 223 107 28 38
373 489 394 183 129 116
372 494 389 179 130 119
466 416 262 98 21 28
374 494 393 182 129 116
349 571 142 215 14 48
403 439 339 89 12 29
348 889 225 65 57 58
380 483 390 92 45 43
384 489 391 119 83 64
381 486 392 110 66 61
412 578 180 130 33 48
373 521 102 101 39 50
286 646 227 103 46 45
373 499 389 195 141 130
381 948 327 49 45 43
375 502 388 198 143 132
416 664 274 60 30 35
375 497 392 196 138 129
437 559 304 53 29 33
378 504 388 200 143 127
381 497 392 189 131 112
376 506 386 197 144 129
400 264 286 128 98 64
413 886 263 72 59 54
399 269 285 131 98 65
244 794 234 176 118 86
394 528 382 177 126 99
400 279 258 115 90 62
397 274 288 129 97 66
403 680 224 57 43 40
450 546 182 42 31 36
399 274 285 133 98 67
263 809 270 182 138 110
396 279 287 131 96 67
393 289 289 127 96 63
396 283 287 129 96 65
286 534 178 87 28 37
398 289 284 131 97 67
403 259 259 111 87 58
461 439 273 146 3 45
400 264 257 109 87 61
406 257 266 119 92 61
406 257 269 121 93 59
405 264 269 118 89 57
258 639 229 128 97 61
403 269 264 114 89 58
406 258 275 125 94 60
403 269 279 130 95 62
444 565 209 79 33 39
404 269 274 124 92 58
401 274 260 113 89 61
401 279 260 116 91 61
400 286 262 118 93 61
400 289 264 117 92 64
401 288 269 113 87 56
241 599 266 170 119 94
402 279 274 121 89 57
401 274 283 133 97 66
400 281 281 131 95 65
397 644 334 186 136 116
400 284 281 131 95 65
388 259 294 124 95 59
392 608 195 54 32 37
388 264 294 127 96 60
392 259 292 123 95 60
388 269 294 127 95 60
391 269 292 128 94 61
394 269 290 128 96 64
388 279 294 126 95 61
393 279 290 129 96 62
391 287 292 125 97 64
302 659 280 144 0 44
309 704 206 121 12 29
268 709 220 125 94 59
396 290 287 131 99 68
400 294 279 124 93 63
393 299 289 130 98 67
387 636 306 133 9 44
396 299 287 131 98 67
400 304 279 122 93 63
239 599 264 168 119 94
439 698 294 100 30 38
453 897 269 82 68 57
308 749 201 142 11 37
415 490 355 49 30 31
400 304 263 118 94 67
400 309 263 122 97 68
400 314 279 119 92 62
441 799 333 187 129 101
396 319 287 130 98 69
401 304 265 123 98 70
400 294 274 116 89 59
410 519 364 139 103 72
400 309 270 126 96 66
401 314 265 126 100 70
471 815 303 84 64 53
465 764 291 62 49 38
440 475 326 152 5 48
391 300 292 128 98 65
394 304 290 129 98 68
388 314 294 133 101 69
293 814 278 70 58 53
283 634 224 126 18 34
274 724 274 150 13 47
396 324 256 98 81 63
400 329 264 117 93 66
396 330 256 97 82 67
380 517 378 185 136 118
473 884 280 67 55 44
399 329 284 128 98 65
295 664 216 45 33 36
397 334 288 133 102 70
400 343 258 97 82 66
289 894 304 175 129 105
399 339 284 128 99 67
305 842 257 130 106 85
425 585 208 159 21 49
310 861 291 109 85 58
397 344 288 131 102 71
368 524 305 71 28 34
388 329 295 134 103 72
404 559 334 71 24 33
397 349 288 130 101 70
328 602 166 50 34 40
401 334 265 120 96 69
401 331 266 123 98 69
400 324 275 116 91 62
417 484 364 165 116 95
401 324 273 119 93 63
418 404 264 69 61 53
383 546 133 219 14 49
400 328 274 117 93 64
401 334 278 122 96 65
402 624 355 181 131 105
308 714 303 158 4 49
400 334 280 125 98 65
401 340 261 108 89 67
403 344 269 117 94 68
401 346 256 96 81 67
255 730 216 128 96 60
438 409 279 104 27 36
404 349 264 117 94 69
404 349 269 118 94 68
402 339 274 120 95 66
402 344 279 123 97 66
411 529 364 176 125 98
400 339 281 126 98 65
401 345 282 128 98 66
462 489 269 103 17 37
403 349 279 124 97 65
388 324 295 132 102 70
248 814 239 198 137 108
323 539 134 55 32 35
346 538 296 57 27 28
384 324 296 135 102 70
373 689 325 132 3 41
385 329 296 135 102 72
388 334 295 134 103 70
385 334 296 134 102 69
394 329 290 132 100 71
388 339 295 131 102 70
392 344 293 130 101 70
389 349 295 129 101 69
282 702 227 62 40 34
387 349 298 126 99 68
394 344 290 132 102 70
386 942 276 74 67 66
400 354 286 130 100 67
404 354 259 107 88 68
405 354 264 116 94 70
405 357 263 114 93 71
240 643 254 172 122 92
406 359 264 113 92 69
405 353 269 117 94 68
342 714 325 79 26 36
406 356 266 116 94 70
414 694 234 53 37 34
406 359 269 113 91 67
275 588 211 76 23 32
405 363 258 102 85 67
406 364 260 105 87 67
419 409 274 77 56 43
465 760 262 87 64 52
452 710 302 64 46 36
408 364 269 111 90 66
406 356 273 117 93 66
405 357 276 119 94 64
442 704 269 84 58 44
405 359 279 123 96 64
406 360 277 118 93 63
327 879 254 48 43 43
454 709 301 65 51 41
407 364 274 115 92 65
380 702 331 95 29 41
405 364 280 121 96 66
386 549 316 159 2 49
407 369 279 118 93 64
400 367 286 125 98 66
443 709 305 72 28 29
294 529 170 50 32 35
399 369 289 124 97 65
405 369 281 121 95 66
408 374 259 103 85 66
410 374 264 109 89 66
408 804 335 176 128 105
410 374 269 110 89 65
417 574 340 124 94 63
374 885 234 55 50 51
411 376 268 111 89 65
443 489 324 160 4 51
398 900 319 35 33 34
410 378 263 107 87 64
411 379 264 109 88 64
317 851 254 190 128 98
410 382 259 98 80 60
412 384 259 95 79 60
412 384 264 104 85 62
411 376 266 110 89 65
411 379 269 111 89 64
392 562 156 197 29 56
276 530 192 70 37 38
408 374 279 118 93 64
413 599 209 56 34 39
376 531 311 38 27 32
401 370 287 124 97 64
402 374 288 123 97 65
406 374 282 122 96 65
404 379 285 122 96 65
406 379 283 123 97 66
407 384 283 123 97 68
397 524 344 81 9 29
405 383 286 122 97 67
409 374 274 114 91 64
409 384 279 122 97 67
267 584 224 71 31 37
390 353 296 128 101 68
283 534 280 76 24 33
393 359 294 127 100 66
387 354 298 125 99 67
388 359 299 124 97 66
405 506 355 135 44 54
386 365 302 118 93 63
389 369 301 120 94 63
396 359 292 128 100 67
237 519 258 96 73 54
394 364 295 124 97 63
303 554 285 147 11 44
395 369 296 122 95 63
385 393 311 121 95 64
397 369 293 123 96 64
388 374 304 121 95 64
305 919 342 176 141 123
393 374 299 120 94 63
391 376 302 120 94 62
392 380 303 120 94 64
395 373 296 121 94 62
404 644 348 185 135 111
398 379 294 122 95 64
394 379 299 122 96 65
348 966 262 86 83 86
394 383 300 121 95 65
396 376 297 121 95 64
248 614 269 171 124 99
385 378 306 120 94 61
402 883 250 59 50 48
386 380 307 121 94 60
313 689 205 72 33 37
394 820 220 52 38 41
387 384 308 122 95 62
423 734 229 50 40 38
400 384 291 122 96 65
293 609 180 79 33 39
414 389 259 85 72 57
414 394 259 78 67 56
361 879 312 140 104 80
414 394 264 85 71 58
401 406 302 84 71 56
414 394 269 90 74 58
408 394 284 112 90 65
407 574 367 178 123 93
411 386 278 121 96 67
411 389 278 117 93 66
308 966 294 68 65 65
411 394 279 106 85 63
399 929 324 59 52 49
409 399 284 86 72 57
410 398 281 88 73 58
402 814 209 92 70 51
412 401 282 71 62 53
413 403 284 69 61 52
419 412 304 71 49 37
410 402 286 70 61 52
373 869 229 61 58 60
240 639 258 177 126 101
408 404 289 70 61 52
343 879 219 70 61 59
253 604 269 172 123 97
413 405 289 68 60 52
399 389 295 122 96 66
303 729 203 117 17 33
421 517 121 212 21 54
395 388 301 121 95 65
396 395 302 119 94 66
397 399 303 117 93 66
399 399 300 114 91 66
391 394 307 122 96 66
417 629 254 116 23 41
386 396 312 120 94 63
386 399 312 120 94 65
408 669 343 178 129 103
253 529 224 58 35 35
273 684 262 82 62 48
394 398 306 121 96 68
398 404 304 106 86 63
389 403 311 122 96 67
306 862 297 130 104 78
394 408 311 102 82 60
451 823 292 56 47 40
461 424 273 117 12 37
387 404 312 121 95 67
332 754 306 70 58 51
393 414 313 70 59 47
395 404 306 116 92 66
396 406 308 106 86 62
234 554 269 162 113 88
412 704 219 56 39 35
393 504 385 171 122 93
398 409 309 80 67 52
400 643 343 185 137 115
401 386 292 123 96 66
401 390 293 122 96 68
454 539 269 60 30 35
377 939 259 72 63 62
403 399 294 104 84 63
373 943 260 76 67 68
401 399 298 109 88 64
408 407 295 67 59 52
408 410 304 67 58 50
413 409 299 67 59 49
408 413 309 65 57 49
403 415 314 64 55 46
404 416 319 63 54 46
413 411 309 65 56 47
287 654 255 49 27 32
330 563 136 162 12 37
412 412 310 66 58 49
306 853 308 132 107 81
413 412 314 65 57 48
389 418 316 67 57 45
331 749 306 70 58 52
388 420 318 63 53 43
416 400 259 70 62 53
416 400 264 69 61 53
416 400 269 70 61 53
465 767 291 61 48 38
418 404 259 69 62 54
417 404 269 68 61 52
423 410 259 68 61 52
391 540 359 131 84 71
420 412 269 74 58 46
423 413 269 75 57 45
333 834 299 147 116 92
459 499 274 122 25 43
428 412 264 71 57 47
337 749 311 72 58 52
433 411 259 72 56 46
396 623 216 122 46 56
428 412 269 79 53 43
416 404 279 69 61 53
418 409 284 80 48 38
468 769 289 70 54 41
307 848 319 139 112 87
333 979 294 54 51 50
420 413 279 87 47 37
423 413 274 84 50 40
320 784 297 68 56 50
423 413 279 93 43 36
420 413 284 95 39 34
305 851 314 160 126 99
449 854 269 88 76 67
420 413 289 98 34 33
430 411 276 100 36 36
398 518 104 195 17 49
430 411 279 107 30 35
467 749 265 67 50 35
429 411 284 111 27 36
310 675 292 62 19 31
433 410 284 114 24 36
429 411 289 110 27 34
438 411 259 76 49 38
303 859 314 173 134 107
438 410 264 77 46 36
378 823 308 51 40 42
401 456 378 144 112 92
448 410 259 83 42 30
438 408 289 119 21 37
443 407 284 115 18 39
358 939 249 76 70 71
443 408 279 97 28 35
423 413 294 96 34 34
413 864 297 39 34 31
432 524 328 172 3 54
419 413 299 77 46 37
423 413 299 87 40 35
306 908 264 153 105 86
262 826 260 212 150 122
283 549 279 100 25 40
427 412 294 104 30 34
425 411 302 91 37 34
323 944 350 45 42 43
278 729 284 123 15 44
417 411 309 68 54 41
418 753 190 81 59 45
419 412 309 71 51 37
407 891 312 38 35 35
470 920 276 95 77 64
418 413 319 63 48 36
425 411 309 84 35 30
378 543 124 222 14 48
428 410 309 92 29 31
433 410 309 110 20 36
413 869 298 39 34 31
425 411 314 79 29 25
370 864 294 128 93 73
428 411 317 92 22 25
428 412 316 101 21 30
412 518 115 178 21 49
428 413 319 120 16 38
434 414 314 130 17 42
438 410 304 131 12 40
449 414 294 118 17 39
435 412 311 129 14 40
437 414 309 115 18 39
381 923 256 72 60 57
318 734 200 99 25 36
293 789 207 169 114 81
440 414 306 95 23 35
436 414 312 122 14 39
433 504 334 163 0 51
432 419 318 108 18 37
482 891 283 79 69 62
432 424 319 115 18 39
367 782 206 57 48 42
383 829 204 96 75 60
245 553 246 111 58 47
443 424 304 77 28 34
446 419 298 51 28 30
447 424 298 46 28 31
445 427 301 86 37 43
373 938 344 52 47 44
468 915 294 81 69 58
438 419 309 93 20 36
309 838 235 93 71 64
441 512 131 86 40 45
373 864 219 63 57 57
435 423 315 70 25 31
436 419 312 85 19 32
366 878 225 66 63 65
440 428 310 68 24 30
434 429 319 129 13 41
417 660 311 80 63 42
394 634 329 172 125 107
333 845 238 113 77 60
435 427 316 87 21 29
448 434 299 129 14 39
280 564 195 142 11 41
435 433 320 141 13 44
440 438 315 135 9 42
443 434 309 55 25 31
385 694 206 61 38 33
442 439 313 137 9 43
444 444 310 119 18 41
337 530 117 170 9 42
455 509 284 98 26 38
447 449 309 64 26 31
446 508 313 180 10 54
445 448 311 109 19 36
446 788 327 175 115 84
456 444 283 146 8 45
393 769 190 67 52 44
442 444 314 136 8 41
440 442 316 136 9 40
441 449 318 115 16 39
328 928 241 85 76 78
457 544 204 37 32 36
413 415 324 64 50 43
388 423 324 59 50 42
387 427 331 58 49 39
360 898 325 136 102 73
395 421 327 60 51 43
398 422 330 59 50 41
420 601 232 145 44 58
388 434 339 50 35 29
387 440 342 45 25 27
372 793 211 50 43 40
293 572 166 91 27 38
393 439 340 72 21 30
387 444 342 50 24 27
389 444 341 61 22 29
390 448 341 48 22 27
443 789 244 54 44 41
398 439 339 111 7 37
258 754 265 166 120 93
436 454 328 32 28 30
408 418 329 63 49 40
431 744 192 65 47 41
408 424 333 96 25 36
410 416 327 62 51 45
392 549 369 172 123 101
282 639 232 94 32 34
413 416 327 60 46 41
413 419 329 50 36 33
412 869 244 70 56 53
411 421 332 65 27 29
408 434 337 60 22 28
403 444 340 74 12 24
404 446 342 89 9 28
408 449 344 109 5 34
447 719 314 131 93 60
328 629 300 62 29 34
413 435 337 34 25 27
413 439 338 53 27 29
299 680 287 129 4 40
263 744 214 130 98 63
413 444 340 65 24 31
388 448 364 66 13 27
335 699 317 41 29 31
389 447 368 71 51 37
419 417 326 81 27 35
357 815 306 194 144 122
422 420 327 52 28 31
314 753 302 64 56 52
418 424 330 60 26 30
252 649 238 161 106 75
312 755 301 66 57 52
417 425 332 46 24 27
427 419 323 70 27 32
428 424 324 79 25 33
430 423 321 105 20 40
281 769 281 67 55 50
398 639 339 186 134 115
368 530 108 91 34 40
432 429 323 132 17 42
418 434 335 64 26 30
268 559 282 95 26 39
419 438 336 43 26 28
429 545 321 118 26 48
398 819 224 42 36 41
423 434 333 40 27 27
428 434 329 49 27 29
426 686 296 66 33 36
430 432 326 88 23 33
432 434 324 116 16 38
462 528 170 191 13 48
427 439 333 45 27 30
433 449 329 34 28 30
417 908 314 69 58 53
428 859 293 50 44 41
426 449 337 39 24 25
437 444 323 39 28 28
470 880 256 100 81 65
349 680 317 123 20 44
437 449 324 40 30 31
444 454 314 65 24 30
341 819 296 163 122 102
442 454 319 82 21 34
446 454 312 49 27 29
443 459 319 83 23 33
358 623 191 116 38 47
444 464 319 89 27 37
271 732 271 141 46 51
445 464 316 83 18 30
414 734 209 44 37 35
447 474 314 105 21 38
294 758 292 81 66 59
410 544 370 166 117 87
444 479 319 154 9 48
446 479 317 151 9 47
447 489 314 156 7 46
254 649 234 165 109 81
447 494 314 145 10 44
446 499 318 42 27 31
445 504 320 114 23 45
446 503 318 84 22 37
448 504 309 156 3 44
263 539 283 44 25 28
398 450 342 76 7 25
403 459 349 107 10 33
421 599 352 158 112 80
406 456 347 125 10 38
407 460 348 112 20 38
413 454 344 74 21 33
289 539 175 141 6 33
411 464 343 76 22 34
415 461 341 39 28 31
272 614 259 131 95 82
465 530 199 61 29 33
410 464 345 73 21 31
412 465 350 82 48 42
330 871 337 148 117 90
413 469 349 102 40 45
414 473 340 119 1 35
415 477 348 93 15 30
419 473 336 134 6 41
387 451 355 58 20 25
298 699 213 116 16 32
388 449 359 61 15 25
238 584 249 145 106 72
388 452 353 60 18 27
277 826 266 194 149 123
254 823 240 225 151 126
391 451 360 54 21 22
393 454 354 52 20 25
391 569 321 124 11 40
386 933 266 78 67 65
392 450 364 66 20 26
414 734 224 46 37 37
398 455 359 53 17 26
394 453 364 60 39 30
395 453 368 90 60 46
396 456 364 75 52 45
399 458 364 73 48 42
398 459 369 112 80 61
345 834 226 54 47 47
385 453 373 78 51 47
387 454 374 84 58 51
392 453 381 125 90 73
387 459 370 89 60 52
361 814 212 63 50 43
388 459 374 94 72 65
413 609 309 86 26 37
387 464 370 92 61 54
388 464 374 97 69 59
393 459 384 142 101 84
243 804 249 181 127 99
390 460 382 124 81 73
388 464 379 94 62 56
508 922 294 95 80 67
260 514 281 125 13 40
389 464 383 120 80 69
398 454 374 100 69 51
399 454 379 124 98 76
397 455 382 147 106 88
400 459 379 148 108 89
327 834 295 156 122 99
398 464 384 162 114 95
387 469 379 77 49 43
290 569 282 43 29 30
398 469 384 154 109 85
400 469 380 134 98 75
403 459 354 74 20 29
405 462 353 107 16 34
400 915 288 75 64 61
447 784 324 172 114 81
406 461 359 102 78 62
243 799 239 174 118 85
408 464 359 105 68 55
404 463 365 124 99 75
406 461 362 125 102 81
298 819 219 70 59 59
407 464 364 128 103 78
423 535 330 168 7 53
278 825 228 207 142 115
413 465 354 97 79 61
400 462 370 118 93 68
366 872 210 90 78 70
400 463 374 118 77 59
307 519 138 63 32 36
400 464 379 142 102 82
436 738 187 92 66 54
409 469 364 126 96 73
406 466 367 132 102 75
421 842 251 60 49 43
409 468 360 98 47 44
459 504 274 70 30 37
413 469 359 88 46 41
409 473 369 127 99 72
414 478 365 114 85 62
404 468 370 112 85 63
402 469 374 118 91 66
401 470 378 116 86 60
400 472 381 135 102 74
378 779 324 67 58 57
401 475 382 134 97 65
394 590 182 136 23 43
405 478 381 160 114 90
493 916 295 96 81 69
406 476 378 135 103 71
407 479 378 162 117 91
410 477 371 123 96 67
413 509 349 96 20 37
386 488 369 101 68 57
398 494 384 170 120 92
470 428 256 139 14 37
398 499 383 170 121 92
400 504 381 167 120 89
378 844 294 147 108 81
426 872 256 71 55 51
397 509 382 169 122 90
400 509 381 170 121 91
423 604 334 151 111 77
414 484 369 154 111 84
362 804 213 55 47 42
413 489 369 176 122 101
414 494 355 92 27 38
414 494 359 144 95 82
364 719 337 164 9 52
412 494 368 176 124 101
402 484 383 166 117 92
340 790 212 76 60 52
402 489 382 169 120 92
404 489 380 167 119 93
408 494 374 172 120 94
410 896 277 67 55 51
268 629 260 168 117 100
403 494 379 167 117 91
410 484 375 171 118 96
297 929 334 183 138 117
293 599 174 137 7 35
304 859 304 151 120 91
410 491 371 174 121 97
408 504 354 132 35 46
270 512 196 96 30 37
407 508 360 156 111 93
410 500 355 101 39 43
383 688 320 99 4 31
340 924 346 141 110 87
336 540 122 163 18 42
412 499 359 153 106 91
410 500 358 141 86 76
411 499 368 177 126 101
408 894 314 39 37 36
411 502 361 169 120 103
348 624 189 83 33 42
409 504 369 169 121 96
408 509 369 170 122 95
401 497 382 168 118 89
468 519 169 197 14 48
429 454 335 46 28 29
432 454 333 62 29 33
297 904 288 153 115 92
289 594 175 136 12 37
429 459 336 55 22 30
417 450 342 90 23 35
423 454 339 88 25 37
423 464 337 56 23 30
418 470 336 123 9 41
436 542 317 55 28 32
428 479 333 132 7 40
343 664 202 132 4 32
433 474 332 144 10 44
403 819 229 55 46 48
248 592 272 172 123 99
422 467 337 55 19 24
417 470 351 121 71 65
305 740 201 92 19 32
436 827 261 57 39 39
419 477 340 131 7 41
368 574 154 88 30 38
416 476 342 113 1 35
439 454 324 33 28 30
348 668 311 110 12 36
434 454 330 31 28 30
441 456 322 32 29 28
438 469 329 129 18 44
436 469 332 83 19 35
434 479 331 139 5 40
436 472 332 149 10 48
442 469 324 73 25 34
441 470 327 128 12 44
441 472 327 132 11 40
314 614 292 79 27 36
442 479 324 156 3 50
360 561 137 186 15 44
440 479 326 152 3 47
465 454 265 140 6 42
421 474 359 176 129 113
417 474 362 136 102 80
428 484 334 138 4 43
432 484 332 136 3 42
302 779 291 71 58 51
422 484 344 136 12 44
420 483 345 133 14 43
472 754 274 79 59 45
421 486 347 85 10 30
419 494 349 83 25 37
418 784 342 184 136 104
453 454 294 63 27 31
423 494 344 141 7 45
260 553 220 166 0 42
460 516 152 73 34 42
427 489 338 142 2 45
430 494 336 144 0 45
433 509 333 169 0 53
338 978 279 52 49 50
323 589 299 67 26 35
436 505 332 162 0 54
353 963 260 82 76 79
422 504 343 166 1 51
418 499 349 162 6 50
382 937 338 60 50 47
420 500 346 168 2 52
424 509 340 169 7 53
416 508 347 118 17 41
428 499 339 161 0 50
419 812 337 200 144 119
426 498 342 162 0 51
428 504 338 168 0 52
460 893 254 90 70 58
433 499 334 154 0 48
426 509 337 171 4 54
338 884 345 154 119 90
438 494 329 141 6 43
324 938 246 84 77 78
440 510 326 176 6 56
436 508 332 167 0 56
441 504 327 147 14 48
418 484 359 142 96 83
419 684 269 57 36 34
248 684 239 143 99 69
416 489 353 50 29 31
416 488 360 146 101 87
416 489 364 179 125 104
249 744 220 139 98 67
416 487 367 177 126 107
373 583 165 91 35 41
453 410 269 84 28 30
458 411 264 101 28 28
236 524 257 113 88 60
460 412 260 103 31 26
455 474 290 96 21 35
338 629 304 67 29 36
460 412 264 113 16 33
460 412 270 125 13 40
462 414 269 132 9 38
453 474 299 125 17 40
453 409 274 58 29 29
457 410 274 76 25 33
459 414 274 109 18 36
456 414 283 78 26 34
348 819 224 60 51 50
455 424 285 84 25 35
461 419 274 140 11 43
460 419 276 137 11 43
460 424 275 86 16 31
453 439 289 143 9 43
259 549 220 159 1 41
420 611 242 36 30 35
456 424 283 96 21 36
458 429 279 122 13 40
463 444 269 149 2 46
455 434 285 144 6 41
455 444 286 144 11 44
454 444 289 109 16 37
450 821 273 74 54 50
455 449 286 99 17 34
454 449 289 74 26 32
458 434 279 144 5 43
452 869 282 73 65 57
373 859 200 95 77 67
328 958 260 89 84 88
460 439 275 144 2 43
458 439 279 147 1 46
456 434 283 145 4 44
396 584 338 136 94 79
456 439 283 145 2 42
459 444 279 148 3 45
459 449 279 141 8 42
460 449 276 145 5 43
468 419 259 55 28 31
465 419 265 125 14 41
468 424 259 92 20 36
466 424 263 124 15 40
461 769 250 77 56 42
467 429 264 89 22 34
397 527 115 54 38 43
465 429 266 69 23 30
469 434 259 47 29 30
406 565 331 59 25 30
470 433 256 51 29 29
363 554 304 59 29 33
469 439 259 53 27 31
469 444 259 131 15 43
362 745 331 129 26 47
469 449 259 73 22 33
460 540 209 144 28 49
471 448 257 93 25 36
465 444 265 156 1 49
451 424 292 132 19 43
333 704 200 76 35 38
338 689 201 59 34 37
453 449 294 75 27 35
306 550 158 93 23 31
333 564 298 128 3 39
451 519 293 70 27 35
450 443 300 73 18 28
451 444 298 86 23 34
449 449 304 61 25 31
243 564 248 129 98 65
452 509 294 64 30 37
450 448 301 82 18 28
463 454 269 153 3 47
464 459 264 150 8 43
375 741 196 53 37 34
252 799 228 174 116 83
464 464 264 147 9 45
463 464 269 146 9 43
361 929 246 77 71 74
460 452 276 140 8 40
458 849 259 69 58 52
461 456 277 135 13 38
461 464 277 69 21 33
333 849 239 85 62 54
289 695 292 119 5 39
404 548 338 53 35 34
456 459 288 138 22 44
457 464 284 121 19 38
462 474 269 157 6 47
461 469 274 154 4 45
306 559 286 148 9 45
461 469 277 154 10 47
392 734 332 160 14 49
457 479 284 130 19 44
302 934 340 184 139 123
467 469 259 151 10 44
323 965 335 62 57 55
466 469 262 148 11 46
338 924 348 156 120 96
455 459 290 129 21 44
454 459 294 65 26 34
454 464 294 52 29 32
381 520 361 134 27 49
451 459 303 107 24 40
450 464 306 52 24 30
452 759 255 67 51 42
455 469 290 93 20 34
453 469 299 64 25 31
297 697 296 122 0 37
455 479 290 108 19 39
454 479 294 108 21 39
449 469 309 57 26 31
297 634 274 97 14 37
450 474 306 130 18 44
449 479 309 90 19 36
409 694 213 64 48 40
464 484 264 160 3 48
464 489 264 157 4 47
438 809 239 60 49 47
464 494 264 160 2 47
407 673 304 63 45 44
462 494 269 158 6 46
455 494 289 160 8 46
459 484 279 115 15 42
353 969 269 80 77 80
459 489 279 160 6 46
461 489 273 161 11 50
460 489 275 165 7 49
457 484 284 157 4 44
389 554 329 149 4 46
456 489 288 156 2 46
457 494 284 111 16 40
445 560 274 127 18 43
461 504 268 98 24 39
253 524 224 58 35 37
263 524 280 80 17 30
464 504 259 167 5 50
451 700 280 64 50 38
454 499 289 113 27 42
454 504 289 42 30 32
461 498 272 154 14 46
456 504 283 77 25 38
394 659 314 85 59 51
456 509 279 141 21 46
465 707 287 94 68 45
465 489 260 164 0 51
465 494 260 166 4 50
465 499 259 166 3 49
309 644 288 150 5 46
465 500 256 169 7 51
430 678 330 147 101 69
282 704 290 83 25 37
451 484 304 88 24 36
265 519 206 126 23 40
450 746 252 54 43 40
453 484 299 76 23 33
454 494 294 140 9 41
361 912 236 68 62 63
451 494 303 165 8 47
450 484 306 112 19 41
449 484 309 152 11 47
377 722 212 61 35 29
449 489 309 145 9 44
452 499 299 152 12 45
450 499 304 161 4 47
418 689 234 61 44 36
451 499 302 162 5 47
450 506 301 45 24 31
393 464 386 147 107 87
393 467 386 143 105 83
393 469 387 144 107 85
386 477 386 104 77 60
393 550 143 214 13 46
428 729 230 49 42 38
388 479 389 130 98 77
393 474 389 145 107 85
473 915 299 86 76 68
393 479 389 160 109 92
249 689 234 136 95 64
393 466 387 151 112 90
396 470 387 146 104 80
402 878 244 59 50 48
396 658 312 85 72 70
397 474 387 148 101 77
415 668 290 38 30 31
302 889 284 138 107 78
388 489 390 168 125 102
393 484 389 174 120 102
388 494 389 173 127 103
364 546 122 228 14 50
397 484 387 173 118 99
444 860 276 65 55 46
423 699 284 85 28 37
395 490 386 171 119 94
323 869 264 123 91 69
253 514 224 47 36 35
244 624 240 152 108 73
255 514 221 44 34 34
253 534 224 75 34 39
254 539 224 53 36 39
418 909 299 64 51 40
254 544 225 64 30 36
399 823 318 43 33 35
427 742 181 83 59 47
250 680 236 128 93 58
240 514 249 122 30 47
238 514 254 80 51 50
239 524 255 93 65 50
373 629 307 96 18 36
421 880 302 40 36 33
438 574 219 174 31 56
239 529 255 127 89 69
239 539 254 135 97 71
452 814 293 54 43 37
248 514 229 127 18 39
248 519 229 105 22 37
244 514 234 142 10 40
240 513 240 170 13 46
402 603 200 195 17 50
244 519 234 163 7 46
457 720 308 73 49 39
371 942 256 75 67 67
249 529 229 62 35 37
305 886 281 134 106 77
246 520 232 156 12 47
385 538 334 81 22 35
332 549 128 128 19 41
357 750 326 79 63 57
245 527 235 152 12 45
250 514 226 51 35 35
241 516 244 90 29 38
300 742 302 82 30 35
241 519 249 106 27 41
429 546 162 205 19 47
383 548 135 219 14 50
314 694 302 101 18 41
240 517 250 131 29 46
243 524 244 173 13 49
242 524 249 85 30 37
425 748 200 62 46 39
244 529 249 72 33 36
252 544 229 69 31 37
249 539 234 142 20 45
248 544 239 147 31 43
416 873 251 75 58 54
323 614 297 129 21 46
245 534 244 144 23 43
246 534 243 164 22 46
246 530 252 77 28 33
411 529 359 141 101 76
246 533 251 84 17 33
246 533 252 92 24 35
393 639 324 166 122 104
333 824 294 154 120 97
246 539 243 140 30 41
243 539 249 117 53 44
291 526 172 89 33 42
241 538 252 120 77 57
238 549 254 148 109 78
238 559 254 148 109 77
373 724 211 102 24 31
240 569 250 146 107 74
421 604 330 140 104 70
255 548 226 88 21 36
300 866 312 163 128 100
367 617 191 92 35 40
255 553 230 178 9 44
249 554 240 111 38 38
413 734 204 52 41 37
246 545 247 115 43 40
243 554 249 121 87 59
246 556 247 114 70 51
247 559 244 113 62 45
411 585 325 70 35 36
246 558 247 115 78 55
307 699 207 123 15 35
240 555 251 134 101 67
241 552 252 132 101 69
253 564 238 104 39 38
253 569 239 97 52 39
242 569 248 133 101 68
401 756 187 69 52 43
247 574 242 119 88 55
250 569 241 110 71 48
237 584 254 147 107 74
239 589 245 143 106 72
367 519 305 117 22 44
239 594 245 144 106 74
238 594 249 147 107 74
245 774 257 161 118 86
372 907 236 66 61 60
238 599 254 151 108 76
248 589 240 126 96 61
253 579 239 108 79 50
253 589 238 121 92 60
243 579 243 127 98 64
415 649 274 110 23 39
240 576 246 136 104 70
368 849 213 91 71 55
242 584 243 130 99 65
248 584 240 124 94 61
244 589 241 129 99 63
446 891 268 63 50 43
248 599 238 129 98 61
244 604 240 140 105 69
247 609 237 136 101 63
253 599 235 127 95 61
254 595 236 125 95 60
346 707 326 28 28 30
374 621 197 177 34 53
253 604 235 129 97 61
249 609 236 133 99 62
397 629 309 139 37 49
424 639 334 157 105 77
303 843 249 56 50 55
241 609 242 147 106 74
238 614 249 153 110 75
239 619 249 154 109 75
239 624 249 153 108 74
239 619 254 154 107 77
239 624 254 152 105 75
239 629 249 150 106 72
418 785 207 88 68 53
239 629 254 149 104 73
240 634 249 144 103 68
239 634 254 152 107 77
249 619 236 139 102 63
318 524 286 54 24 29
392 823 202 104 79 57
253 619 234 136 100 61
303 769 203 131 95 62
458 779 261 90 65 53
363 524 104 98 29 41
253 624 234 139 103 63
241 619 243 150 107 71
242 624 243 152 106 72
240 624 245 153 107 73
447 779 254 58 48 45
253 629 234 138 101 64
250 634 236 150 106 71
422 614 329 141 104 70
253 634 233 139 102 66
250 638 236 153 105 73
422 665 310 91 71 48
244 629 240 156 110 74
289 664 264 35 25 29
240 629 246 153 108 74
240 638 246 142 102 64
255 648 231 165 115 84
253 644 234 161 109 78
249 649 240 147 97 64
373 639 208 159 11 41
252 654 238 124 84 51
255 654 234 141 93 62
296 918 279 54 51 52
241 645 248 146 104 69
244 759 244 158 110 78
246 645 242 147 99 64
241 645 254 177 128 99
244 654 244 135 98 62
303 724 205 99 21 31
242 654 249 172 120 90
438 513 129 87 34 40
414 594 360 172 119 89
247 653 242 113 84 48
248 664 239 127 92 57
289 685 282 49 26 31
251 664 237 119 87 50
440 566 198 75 35 38
254 659 235 124 87 53
303 884 339 122 90 71
388 819 314 68 56 52
253 664 235 118 85 49
248 669 239 137 96 62
243 659 249 178 124 97
475 917 282 90 77 68
432 695 260 56 41 38
244 664 244 161 112 82
406 577 176 38 36 31
314 535 287 106 12 36
244 664 249 179 123 98
245 664 253 184 129 103
246 660 256 178 131 105
369 565 148 74 35 41
328 529 125 151 7 37
245 669 244 173 118 90
247 689 239 146 101 70
255 674 231 128 95 57
248 674 239 141 97 64
252 679 234 128 93 58
248 679 239 141 98 68
252 684 233 128 93 58
467 879 259 120 99 87
249 684 235 133 95 61
245 779 257 164 118 88
246 674 243 170 118 83
247 679 244 168 113 85
248 674 254 174 121 97
275 514 191 88 32 38
247 684 244 161 110 81
246 689 244 156 107 78
413 814 200 87 71 63
248 689 254 167 116 89
249 694 234 138 96 64
248 699 234 139 97 63
415 659 284 100 26 38
253 694 229 130 94 59
318 639 294 110 21 41
289 929 309 172 135 113
254 704 225 124 92 59
286 620 260 47 26 31
448 559 209 59 32 35
246 694 244 157 107 78
247 699 249 163 111 84
248 699 254 164 113 86
248 704 254 163 112 86
252 719 223 126 94 59
253 714 224 127 94 60
248 734 224 140 101 68
258 774 214 167 113 79
344 547 121 181 12 43
305 514 149 94 26 37
249 724 225 131 95 63
253 729 219 127 95 60
251 728 222 128 95 61
250 730 221 129 98 62
252 734 218 128 95 61
246 709 239 147 101 69
248 719 229 133 95 62
243 759 239 160 112 79
247 714 234 136 94 63
446 754 328 174 119 86
245 720 236 144 97 68
251 708 227 133 97 63
249 709 229 134 95 63
435 729 336 170 112 80
428 905 310 57 48 43
305 710 206 111 23 35
466 806 287 84 61 49
250 719 225 128 94 60
313 834 269 186 136 112
458 794 290 63 50 41
434 820 324 197 126 99
246 709 244 156 106 75
248 709 254 162 111 84
245 726 231 141 98 67
273 669 259 131 100 81
246 734 227 145 102 70
305 952 271 75 71 71
246 723 233 141 97 67
462 523 165 191 15 46
387 606 311 55 31 31
244 729 234 147 101 70
330 709 312 44 25 29
302 863 304 153 121 91
444 810 299 96 62 45
318 623 185 48 34 40
244 734 234 149 101 70
403 874 240 63 51 50
463 784 269 68 55 48
246 724 246 160 107 80
246 724 249 161 108 82
245 729 244 160 107 79
246 729 246 161 107 80
246 729 249 162 109 83
378 921 342 43 39 38
245 734 244 160 108 79
318 854 264 185 128 96
247 739 224 143 101 71
247 744 223 147 102 74
413 896 277 70 57 51
502 937 213 86 77 69
246 749 223 153 106 76
254 739 216 130 95 62
254 744 215 134 97 64
252 739 218 131 96 63
251 744 218 135 98 65
245 754 225 160 109 78
249 754 219 149 103 72
245 759 225 165 112 82
249 764 220 162 111 78
368 864 199 88 73 66
246 764 223 166 113 81
247 769 223 168 113 83
251 760 217 154 105 74
351 624 306 131 47 62
255 769 216 162 109 77
244 739 234 152 104 73
438 879 260 74 62 59
319 884 264 81 68 57
244 739 239 157 107 77
244 749 229 159 108 76
245 740 248 162 111 82
453 701 298 69 56 45
246 737 246 162 110 81
245 744 248 160 110 82
246 744 250 160 111 82
244 749 244 159 108 80
246 748 251 159 112 83
248 749 254 157 112 82
244 754 229 160 108 79
245 769 225 169 115 83
423 893 249 100 75 62
458 874 269 83 68 56
392 682 311 52 22 26
243 764 234 161 111 79
242 764 239 158 110 78
338 976 306 58 53 52
242 769 239 158 109 77
247 754 254 156 110 80
318 801 212 89 69 60
247 759 255 158 114 82
231 529 269 162 112 86
243 769 249 158 111 79
293 669 219 114 20 36
352 957 256 86 80 84
224 514 274 202 135 111
229 514 264 192 135 112
234 514 260 158 114 96
225 513 270 194 132 110
232 519 264 170 123 99
231 521 267 151 106 80
235 519 260 129 100 74
227 519 274 196 132 108
225 517 278 197 133 113
440 576 259 173 8 50
227 519 279 196 134 112
233 518 288 193 138 118
230 523 279 187 126 106
350 866 201 96 76 63
231 526 272 178 124 100
231 525 280 180 121 100
238 525 286 174 123 101
238 523 287 186 131 110
409 579 366 179 124 91
238 529 285 171 121 101
234 544 259 159 113 85
418 552 322 52 28 32
233 544 264 151 107 80
236 538 257 158 114 88
233 539 269 156 109 81
235 534 282 174 122 101
238 534 283 178 125 105
233 539 274 162 112 88
235 543 277 173 120 101
245 520 286 151 106 92
243 529 285 171 117 102
415 610 233 132 34 51
252 514 287 139 12 42
254 519 286 71 17 33
253 523 287 33 26 29
248 535 281 137 80 72
242 538 282 176 123 104
333 972 318 65 59 56
243 544 280 173 120 100
238 599 259 157 110 82
248 539 280 143 86 75
253 544 280 100 36 41
254 538 282 63 28 35
357 830 217 69 56 51
350 700 327 132 9 40
233 515 290 191 138 118
238 512 292 189 136 119
234 549 264 151 108 79
398 659 310 81 67 63
253 689 260 161 115 89
234 549 269 158 110 85
234 554 264 153 109 79
348 976 306 61 57 57
235 559 260 149 108 77
467 523 179 206 19 55
236 554 258 150 111 80
236 559 258 148 108 77
418 831 309 154 99 74
235 559 269 166 116 92
435 551 311 42 36 36
236 560 270 172 120 98
373 814 208 64 52 48
234 549 274 172 122 99
235 554 273 173 123 99
237 554 275 176 123 101
239 553 277 177 123 101
238 559 274 174 121 100
235 562 264 155 109 82
408 764 193 83 63 49
237 569 259 151 107 76
343 965 263 89 85 89
235 562 267 160 111 86
237 574 264 163 114 87
383 709 212 60 35 34
291 950 288 66 62 63
243 559 277 175 122 102
248 554 277 165 112 92
253 549 278 118 51 51
358 834 305 165 131 98
287 674 264 65 28 34
253 555 276 135 75 66
386 689 204 63 46 36
249 555 276 161 109 89
268 604 233 87 58 43
249 559 276 169 116 93
469 744 294 65 50 36
430 521 132 49 38 43
348 609 307 91 31 40
255 571 271 156 106 90
446 764 251 57 45 41
243 564 276 174 120 99
320 789 297 47 40 39
371 679 211 62 32 31
243 569 275 174 119 98
336 718 316 90 20 37
248 564 275 174 119 97
240 572 272 177 122 98
248 574 274 174 122 98
253 569 273 161 111 90
278 759 279 58 48 44
253 574 272 166 116 93
430 669 319 136 98 65
237 579 264 165 115 90
