ply
format ascii 1.0
comment Created by Open3D
element vertex 2202
property double x
property double y
property double z
property uchar red
property uchar green
property uchar blue
end_header
448 433 201 90 27 40
441 467 289 129 98 66
393 604 161 124 25 44
438 434 211 89 33 39
340 365 266 119 79 61
506 503 204 85 20 33
383 295 281 141 103 69
440 432 221 85 26 36
445 432 211 86 28 38
389 677 188 79 46 44
448 432 211 86 32 41
417 420 232 150 128 110
338 770 291 66 56 51
373 765 171 72 55 45
418 425 231 123 106 92
509 463 135 96 26 36
319 532 84 206 13 44
419 420 241 102 84 64
427 840 276 44 38 34
292 566 105 191 14 40
420 425 240 98 81 63
416 426 228 120 100 81
333 895 335 158 115 92
413 835 236 74 58 53
323 855 211 45 41 42
444 501 276 169 124 105
293 770 283 66 58 53
418 430 226 115 93 75
431 515 304 156 111 80
421 427 232 75 67 60
392 665 202 83 27 31
422 430 231 87 67 56
454 520 262 65 23 33
343 740 297 72 59 52
421 432 228 109 86 70
362 944 335 79 69 64
352 405 282 122 80 65
423 431 236 79 65 56
340 350 270 122 80 60
419 419 246 112 90 66
421 425 243 103 84 63
293 850 316 124 101 80
421 422 246 111 90 66
422 425 246 109 88 65
343 315 271 102 74 49
511 514 194 182 17 56
360 262 279 126 98 71
306 852 255 189 129 97
418 420 251 122 97 69
417 420 256 124 100 74
251 628 263 161 115 88
422 426 251 114 92 68
424 430 246 99 82 64
406 605 287 161 114 97
424 429 251 106 86 65
398 799 202 73 59 55
373 751 303 81 66 59
426 431 256 94 78 62
383 704 171 65 50 42
420 436 229 108 77 64
358 519 88 70 31 37
403 550 116 212 13 44
419 439 226 103 69 58
420 438 229 105 68 58
328 770 191 101 45 46
423 439 230 98 50 47
423 441 226 99 46 46
423 443 225 99 48 49
428 436 231 94 39 43
427 438 229 95 37 41
308 890 251 73 59 52
433 436 226 102 28 42
405 681 294 146 107 87
433 435 231 99 33 44
425 433 236 77 50 44
428 434 236 86 44 43
280 513 158 113 32 30
332 866 325 141 112 80
472 554 221 68 32 38
425 433 241 81 68 59
268 810 277 183 137 108
430 440 238 108 35 46
433 444 241 92 27 37
425 433 244 90 76 61
399 310 266 127 98 65
428 435 246 87 71 59
318 945 246 90 83 86
433 437 247 82 57 49
458 440 166 85 30 41
433 440 247 82 48 47
248 828 256 212 138 111
426 432 248 96 79 62
429 434 251 94 77 61
308 915 337 99 81 71
433 436 251 84 67 55
438 432 234 83 25 36
333 970 301 64 59 58
443 429 231 66 24 30
346 490 268 140 10 42
435 837 322 45 35 27
443 431 234 68 24 31
333 962 255 89 87 91
437 434 226 93 27 39
436 434 230 95 31 41
447 850 321 60 46 41
435 432 234 101 31 46
493 449 156 101 22 36
438 435 235 92 24 39
348 810 286 188 140 114
439 443 237 74 20 32
410 892 328 66 52 41
443 440 236 44 26 29
443 445 237 71 20 29
436 437 248 82 46 43
438 440 246 89 32 38
346 901 324 128 96 75
318 655 176 172 4 40
438 436 256 66 54 47
468 516 105 108 22 39
444 440 251 88 28 35
443 441 247 95 15 33
406 768 186 69 55 49
442 437 256 83 68 59
446 442 250 84 2 27
446 442 248 84 13 30
473 475 240 98 18 35
294 755 284 74 63 57
445 444 253 83 15 32
253 520 241 143 88 77
353 541 105 208 13 44
446 445 256 82 38 39
308 872 328 136 94 98
378 829 178 81 66 60
425 619 264 129 89 64
304 649 178 166 5 40
448 450 237 75 16 27
256 797 219 175 119 86
404 730 171 72 53 45
448 450 239 75 15 27
449 455 237 71 19 27
449 450 251 107 73 61
468 436 186 85 27 44
448 450 256 100 74 56
288 545 101 53 31 33
253 826 241 225 155 125
498 450 156 95 23 32
500 460 206 37 28 30
408 900 331 58 50 44
453 445 141 92 47 44
230 804 261 187 133 106
453 850 301 95 76 61
433 645 286 133 92 59
458 447 136 89 39 39
461 447 138 86 36 37
378 725 156 67 51 45
453 444 146 93 46 43
417 599 177 43 33 39
283 619 156 130 29 45
453 443 151 92 46 43
453 442 156 89 38 42
458 445 146 93 40 40
323 972 292 59 56 56
318 860 327 158 125 92
463 446 146 87 32 38
265 745 208 111 88 63
463 444 151 92 31 37
458 442 156 89 34 39
458 443 155 91 35 38
458 441 161 87 31 40
463 443 156 93 29 36
447 790 241 70 55 47
248 755 220 139 103 68
468 445 151 87 27 35
465 443 159 92 29 36
293 645 256 135 11 42
473 443 161 94 26 37
473 445 156 90 22 35
476 447 148 84 23 36
478 446 156 91 21 35
453 439 166 87 29 43
353 785 177 76 56 46
453 438 171 89 27 43
449 438 174 91 31 44
453 437 177 90 28 43
338 500 262 122 7 38
458 439 171 87 28 42
463 439 171 85 29 42
398 821 215 82 64 58
453 434 191 93 26 42
273 635 186 56 37 42
458 437 178 88 27 43
458 436 181 88 27 43
458 434 191 90 27 43
411 499 309 65 26 29
468 440 171 84 30 41
316 868 221 41 38 39
388 555 302 184 11 58
473 440 171 88 31 41
468 442 162 90 29 37
468 441 166 87 30 39
408 845 272 30 27 25
472 441 239 56 25 29
382 889 237 82 70 68
431 595 299 165 117 86
466 437 178 84 28 43
457 860 311 91 68 55
288 960 306 70 66 67
468 437 181 84 28 43
473 434 191 83 29 44
478 437 182 90 32 44
379 505 304 117 32 47
478 436 186 86 31 44
298 281 259 106 85 62
341 370 268 127 84 67
435 545 298 167 116 86
478 434 191 81 29 43
395 693 189 64 47 42
482 447 153 91 21 36
405 404 272 112 90 66
483 446 156 94 20 35
291 957 287 79 74 73
483 445 161 95 22 35
487 447 157 101 19 37
488 446 161 100 20 36
447 495 271 159 87 81
286 463 259 124 64 65
360 537 104 201 12 41
413 614 196 124 35 48
266 595 196 135 25 47
493 447 162 103 21 37
483 443 166 97 25 35
283 834 241 92 70 62
493 531 146 121 25 46
459 510 257 153 5 48
301 640 263 149 12 47
488 444 166 97 24 35
483 441 171 101 28 39
332 826 204 53 46 46
485 443 169 97 26 35
488 443 169 97 26 35
488 440 176 103 29 40
388 810 205 69 56 55
493 443 170 100 26 36
319 973 282 67 63 63
493 442 172 102 26 37
488 437 183 106 30 46
488 436 186 104 30 46
488 434 191 100 29 46
358 555 116 186 14 45
491 437 183 108 30 45
267 555 181 158 4 42
444 765 296 164 111 77
446 539 264 172 10 54
502 447 167 92 26 37
498 442 176 109 26 38
503 444 176 110 25 39
354 894 313 116 93 71
506 447 172 99 25 39
507 446 176 113 24 41
496 437 188 109 34 45
499 438 190 119 29 41
502 441 186 113 26 39
511 450 179 113 28 40
383 460 296 41 27 28
505 444 186 105 20 38
452 574 241 46 31 35
341 340 271 119 78 59
383 560 301 182 15 58
504 445 191 89 27 38
258 545 265 162 116 92
458 431 206 84 37 44
345 425 269 142 10 43
230 755 255 158 111 80
386 678 189 79 40 43
453 431 211 84 37 43
453 430 216 79 37 42
453 429 221 63 32 35
392 445 298 116 6 33
283 890 316 144 105 88
454 717 264 83 62 48
408 400 261 128 100 68
259 545 196 99 27 41
458 429 216 77 39 41
303 650 266 147 13 45
458 428 220 63 33 35
308 745 186 162 5 40
453 434 196 92 26 41
451 433 204 87 30 40
485 449 233 64 28 33
460 731 244 78 52 44
454 432 203 86 30 41
457 452 234 56 23 27
427 613 221 63 30 34
458 433 196 89 28 41
283 606 140 151 23 48
463 433 196 86 31 42
298 785 199 90 70 59
463 433 199 85 33 42
402 280 265 137 98 69
389 305 277 139 100 68
250 525 259 153 111 87
473 432 201 77 38 44
410 887 270 71 59 59
320 861 221 39 37 38
478 431 201 76 33 41
468 429 211 74 40 41
410 417 315 80 25 24
432 575 271 131 91 68
468 428 216 67 38 38
473 428 215 66 38 34
473 427 217 66 37 33
478 427 216 65 35 35
478 429 211 66 35 35
409 640 231 114 27 43
478 428 214 65 35 34
468 433 196 84 33 44
478 432 197 80 31 43
453 427 226 48 26 29
449 427 231 50 25 27
452 428 225 52 27 30
445 795 286 146 95 65
286 569 127 121 10 40
425 600 261 115 44 45
458 426 226 51 28 31
463 426 226 61 30 34
338 515 77 72 35 39
458 427 235 49 24 29
463 426 236 76 20 29
463 431 239 81 14 29
254 535 237 116 64 51
451 439 238 71 19 29
250 520 243 141 99 78
369 936 333 52 46 43
454 436 239 75 14 26
452 444 241 76 14 26
344 310 271 106 77 52
437 691 261 94 62 45
463 434 238 79 15 27
443 460 281 110 85 62
463 435 239 82 7 26
458 440 241 87 4 25
333 920 231 79 73 75
239 795 231 175 119 86
463 440 241 100 4 30
398 415 296 84 26 31
423 865 281 39 33 29
289 542 119 83 25 34
393 565 125 129 34 48
268 670 221 110 72 58
462 446 244 127 10 40
468 425 226 70 32 36
260 539 188 51 25 33
274 803 213 162 118 92
473 425 226 73 32 37
329 954 248 91 87 91
460 552 243 179 20 58
468 426 236 87 19 32
468 430 238 95 12 32
468 430 239 94 11 30
454 741 245 75 51 42
478 425 231 89 23 36
527 485 107 191 17 46
441 574 254 172 20 57
469 435 238 92 8 28
530 487 114 80 39 44
441 828 288 59 47 40
468 440 240 84 17 32
403 865 326 37 34 34
478 435 236 53 25 30
478 440 236 50 27 30
475 443 238 54 26 32
476 446 239 95 25 36
483 432 197 84 28 43
393 860 280 31 28 27
488 431 201 108 27 44
351 500 273 139 10 43
326 834 216 51 47 47
488 430 206 119 27 45
413 570 136 203 16 50
483 427 217 77 34 35
483 428 215 82 33 36
488 429 211 115 29 42
338 905 331 139 101 78
357 430 287 135 3 41
411 638 236 185 19 52
483 426 221 72 32 35
343 910 228 72 67 69
486 427 218 87 32 36
493 430 216 123 27 44
488 432 197 97 26 44
411 690 298 162 119 93
494 435 217 78 25 35
384 886 235 80 67 64
258 515 231 102 21 35
492 435 221 87 30 38
490 435 223 101 30 40
494 445 216 151 20 50
472 525 246 122 20 44
413 630 226 81 34 40
498 436 196 119 29 47
350 800 182 65 50 44
498 435 201 137 23 49
500 438 194 123 26 42
502 440 196 103 24 38
501 440 200 115 22 40
496 432 206 150 23 52
289 350 269 141 100 79
498 435 206 152 21 51
501 445 196 52 28 33
328 680 179 73 32 35
253 520 206 156 2 44
318 609 147 217 14 47
500 446 198 44 28 30
496 447 214 116 19 39
414 709 212 61 31 35
483 426 226 68 29 34
482 426 230 76 25 35
488 430 226 63 28 33
480 428 233 91 22 34
484 435 232 80 26 34
486 435 229 116 22 40
458 855 301 86 66 55
260 570 216 132 11 40
489 435 226 127 24 45
351 519 277 39 24 25
484 440 232 60 28 31
481 435 234 46 26 28
482 445 235 62 27 30
489 445 226 55 28 31
398 536 308 100 24 41
491 446 224 86 26 36
459 448 135 87 38 38
463 448 136 85 35 37
473 452 131 89 26 29
427 454 281 31 22 25
461 558 239 178 26 59
473 451 136 86 27 31
468 448 141 83 33 37
269 535 261 144 93 77
473 449 141 84 30 34
443 869 296 98 76 63
478 454 131 93 26 27
436 737 223 64 48 41
476 452 133 90 24 27
271 555 175 86 23 38
535 478 130 112 20 24
478 450 141 88 24 30
433 878 320 64 52 45
447 804 251 81 64 55
474 448 145 83 27 36
478 449 146 87 24 34
483 455 131 94 27 27
483 454 136 93 23 28
374 940 256 85 74 74
488 456 131 97 27 30
488 455 136 99 22 31
483 452 141 92 21 30
388 635 272 161 17 52
493 456 136 102 21 33
343 664 282 102 13 33
483 450 146 94 22 33
278 827 230 96 74 67
488 451 146 97 20 33
294 930 329 187 145 127
488 448 155 101 20 38
338 670 179 126 21 32
492 452 147 97 20 31
278 525 161 43 32 35
493 451 151 96 22 32
490 453 144 98 19 33
493 453 145 98 20 30
398 835 221 67 54 50
248 675 226 141 100 69
498 456 141 101 20 30
503 460 136 94 23 33
294 539 87 186 13 41
378 550 115 125 29 44
328 555 276 124 9 37
503 459 141 97 22 30
502 457 142 100 21 29
508 464 131 100 31 39
507 462 137 93 24 32
508 460 141 94 23 29
273 435 261 104 25 40
513 464 136 99 25 38
361 654 183 92 29 35
512 462 142 96 23 30
298 900 333 178 130 114
514 463 140 95 24 33
497 452 152 95 24 29
503 456 146 100 23 29
504 453 155 96 25 29
506 452 158 94 25 30
513 456 156 96 26 27
513 454 161 89 24 28
442 505 281 168 119 97
433 480 297 153 112 84
408 581 146 203 15 51
507 457 147 99 24 27
508 459 146 98 23 28
296 578 258 132 9 40
271 532 169 49 38 42
510 458 149 98 24 27
346 783 184 60 50 44
448 740 236 88 67 55
512 457 152 98 26 28
346 528 278 70 24 34
500 448 164 99 24 37
504 448 165 90 22 36
508 450 166 83 23 33
378 599 284 189 7 58
392 280 275 134 99 68
433 820 246 81 63 56
512 452 166 78 24 31
511 452 163 82 24 31
511 455 179 103 26 39
397 285 270 136 100 71
509 455 182 109 25 39
458 455 247 104 20 37
507 450 186 118 23 41
359 687 299 124 10 38
305 600 269 82 22 33
505 450 188 93 27 37
348 400 276 141 99 80
428 565 301 174 118 89
504 450 191 53 27 31
357 810 177 95 69 54
438 550 266 139 21 48
383 620 277 179 15 57
474 535 237 38 28 31
507 455 186 92 24 36
298 385 267 158 108 85
441 873 302 87 68 61
385 825 199 58 52 52
505 454 188 64 22 28
504 455 191 86 26 36
250 682 223 137 98 65
285 654 193 170 5 41
505 460 192 112 19 39
509 465 186 134 17 45
248 695 262 152 107 80
505 465 192 140 14 44
511 466 184 119 15 39
368 295 286 130 99 67
368 485 290 149 5 45
417 415 281 71 30 38
440 802 235 87 67 57
382 705 304 45 29 30
509 469 187 147 11 46
512 470 185 148 15 46
435 705 292 158 105 73
513 475 186 150 9 47
509 475 192 150 11 47
510 473 188 149 11 46
511 476 189 149 7 47
344 972 292 68 64 65
496 538 190 203 16 59
511 480 190 151 8 47
510 512 130 159 32 51
431 655 277 130 90 62
513 510 131 106 35 45
404 866 316 34 32 32
356 863 208 66 59 59
512 485 190 148 13 46
350 440 275 145 10 44
403 769 186 64 50 45
512 490 191 145 17 46
361 513 288 33 27 29
264 610 262 155 109 82
454 452 232 57 23 28
458 455 231 56 23 27
358 670 286 67 19 30
462 452 230 55 23 27
388 655 272 36 26 27
462 453 230 55 23 27
453 449 248 113 32 42
452 451 249 118 45 48
450 453 252 120 70 60
453 455 250 133 39 49
333 531 90 70 33 38
450 453 256 125 88 68
393 735 166 78 55 44
455 455 248 126 17 40
463 450 245 112 17 37
282 930 301 185 143 121
462 455 245 63 24 31
458 460 247 129 17 42
458 465 246 139 47 55
426 459 282 36 23 23
539 490 156 42 32 34
462 460 244 116 23 41
464 465 242 137 15 44
298 630 166 71 36 40
462 465 244 143 23 48
323 575 120 205 15 44
462 470 244 135 53 57
456 466 249 130 55 53
458 475 251 149 88 80
457 475 256 138 94 76
402 885 295 38 33 31
322 718 288 45 20 25
473 450 239 85 22 34
473 455 239 86 26 36
304 963 267 87 83 86
473 460 240 43 28 31
336 800 194 59 48 43
476 449 239 73 24 31
468 450 242 88 23 35
428 475 298 133 101 77
401 453 308 52 22 26
468 455 241 46 28 30
454 581 216 206 20 59
473 470 240 100 18 36
477 470 239 84 22 35
465 480 243 125 9 38
454 490 257 81 20 33
459 485 251 135 9 41
348 515 81 94 29 39
366 427 293 45 30 34
388 660 272 72 18 30
457 485 255 108 21 38
461 486 249 135 6 42
306 899 236 49 45 46
458 495 255 130 6 39
261 525 180 57 28 36
460 494 253 135 6 41
253 520 261 145 107 83
405 837 229 59 49 46
463 490 250 137 4 43
364 720 309 166 17 52
381 717 163 71 52 43
464 489 247 135 4 41
353 850 175 105 84 73
461 496 254 141 6 45
240 813 274 203 146 120
462 500 254 145 2 47
462 505 255 147 0 46
323 890 198 90 79 78
298 456 258 89 26 37
463 510 255 148 1 45
469 485 243 132 8 41
466 482 244 130 9 41
416 808 213 82 65 56
466 486 244 131 8 40
473 485 242 134 7 42
277 625 250 138 94 80
468 490 245 136 5 43
311 857 254 161 111 81
271 639 254 164 108 94
468 495 247 141 1 44
470 488 243 136 6 43
472 491 244 136 2 42
367 858 195 69 63 64
473 495 245 138 0 43
355 420 284 143 7 42
475 493 243 139 0 42
280 912 309 112 94 79
478 495 242 142 3 44
313 440 257 147 15 45
388 460 297 64 25 32
476 496 244 139 2 44
239 695 246 141 98 66
403 714 173 67 52 45
288 595 252 127 17 41
469 499 248 145 1 45
473 500 246 140 2 43
468 505 250 149 3 47
399 640 281 147 106 92
468 510 251 153 6 48
298 376 268 154 107 82
465 510 253 146 1 44
368 583 138 161 15 40
473 510 247 96 18 36
298 625 161 138 23 44
235 725 231 141 101 71
291 905 326 172 122 106
471 510 249 146 12 45
364 813 289 135 95 75
479 500 242 148 10 46
479 505 242 146 17 48
350 465 275 122 17 43
477 505 245 139 12 44
293 425 263 157 17 49
477 510 245 42 23 30
313 315 260 113 77 55
402 909 296 72 64 62
495 450 216 157 17 50
290 534 88 172 11 44
258 765 274 156 120 84
493 450 221 144 22 48
493 455 221 99 20 39
381 938 271 60 54 52
289 691 279 110 5 35
495 460 218 155 16 48
445 872 313 77 59 52
494 460 221 123 22 44
349 760 172 64 49 42
495 464 218 155 16 48
494 480 221 98 26 38
502 450 196 37 29 31
367 528 98 203 12 42
533 490 121 189 21 50
500 450 201 103 26 40
323 640 276 96 28 40
501 450 199 61 27 30
503 455 196 63 28 34
407 588 153 216 14 51
499 455 206 47 28 31
283 655 196 112 18 40
503 460 196 107 20 38
502 465 201 144 18 45
500 458 203 40 31 34
501 461 204 75 24 31
432 686 251 102 76 69
501 465 205 124 22 45
338 660 280 133 21 45
497 450 211 112 22 43
497 455 211 110 22 40
343 385 271 140 94 76
496 455 215 156 17 49
323 886 339 167 124 100
283 880 306 121 95 71
258 735 270 166 117 92
498 460 211 98 21 38
497 460 216 153 15 47
275 671 208 137 7 35
382 634 188 112 23 42
499 465 211 88 23 37
504 475 202 103 24 39
350 418 279 145 8 43
340 501 264 127 6 39
355 271 270 116 92 66
428 860 261 87 74 71
502 475 206 98 26 39
401 335 260 125 98 66
505 469 197 145 15 46
507 475 196 135 18 44
497 470 216 110 23 40
340 582 129 199 20 58
500 475 211 54 27 32
258 740 270 166 118 94
274 450 259 97 26 39
497 475 216 49 26 30
498 480 216 59 28 33
501 472 209 79 25 31
408 815 302 149 107 82
363 375 290 137 102 75
501 475 209 83 28 34
269 605 191 78 31 38
496 476 219 40 24 31
496 480 219 78 25 35
253 660 261 170 125 98
427 834 247 81 65 58
487 450 230 64 27 32
362 505 282 136 11 42
488 455 231 69 29 35
482 450 235 69 28 33
395 772 168 80 60 52
439 711 244 99 68 56
267 605 201 82 35 42
483 455 235 94 28 39
390 882 334 36 34 34
308 370 266 148 102 80
483 460 236 61 28 32
483 465 236 64 26 33
363 960 296 67 63 64
486 457 234 54 26 28
489 465 231 32 29 30
313 935 236 77 70 72
351 816 184 88 68 54
486 466 234 31 27 31
311 840 283 167 127 105
491 455 225 48 28 31
490 460 228 37 30 31
491 465 225 53 29 34
490 465 228 29 29 31
278 637 185 42 34 39
303 340 270 136 94 69
314 923 339 193 153 131
483 470 237 97 23 38
486 470 234 85 30 40
483 475 237 57 25 31
487 475 235 112 28 43
400 460 310 120 10 38
357 741 303 72 59 54
489 475 231 103 29 44
297 841 258 164 114 86
487 480 235 82 23 35
491 470 225 62 26 33
375 496 294 39 27 30
325 836 213 50 44 44
491 480 225 100 25 38
387 490 306 57 26 30
490 480 227 108 29 44
407 425 311 124 10 36
422 524 98 65 32 37
495 480 218 91 26 41
494 490 222 63 28 33
494 495 222 118 28 45
314 949 339 49 46 46
507 485 201 77 30 36
319 865 241 54 46 45
510 485 193 138 17 45
505 484 203 53 29 32
449 844 276 76 58 50
507 490 201 98 26 38
289 930 251 69 64 64
411 675 236 78 32 37
509 490 196 75 23 33
267 801 214 187 130 98
358 317 289 123 89 66
511 495 194 92 24 36
463 531 120 207 18 51
506 492 204 137 24 40
498 485 216 84 25 36
496 485 219 98 29 41
290 590 254 128 12 39
498 490 216 41 27 31
355 454 284 112 33 47
498 495 216 73 23 31
500 490 213 39 29 32
502 495 211 71 29 35
328 565 278 156 16 48
500 495 213 69 23 31
496 490 219 76 30 33
496 495 219 133 27 49
290 365 269 140 100 79
511 500 195 77 25 36
507 500 201 118 23 42
511 505 195 160 19 51
507 505 201 127 27 46
507 510 200 79 25 36
509 510 197 159 20 51
511 510 194 178 14 54
513 510 191 177 14 54
505 511 203 63 25 34
277 580 166 64 30 34
498 500 216 136 23 47
349 692 299 102 6 33
498 505 216 114 23 41
419 420 296 120 17 41
500 500 213 118 19 40
273 750 277 53 44 42
501 505 210 91 24 38
456 829 301 76 57 42
496 500 219 150 22 49
363 935 337 53 48 47
426 640 267 136 100 70
328 505 257 126 8 38
488 485 231 75 29 36
393 530 100 75 30 40
484 485 237 144 15 48
514 460 177 124 19 41
481 485 239 147 8 46
486 485 235 118 27 44
485 495 233 157 18 50
491 490 225 67 28 34
492 495 225 85 29 38
487 505 231 167 14 52
453 814 285 95 73 59
484 500 236 123 20 43
284 590 127 102 34 45
340 729 299 162 26 58
481 500 240 158 14 50
485 500 233 140 17 48
487 510 230 158 16 51
481 510 240 46 26 28
363 620 279 120 31 47
328 410 257 131 15 42
517 510 186 169 19 52
492 500 225 57 26 30
491 510 224 63 26 36
375 897 330 39 35 37
284 291 259 115 90 64
349 875 306 134 102 78
288 290 261 106 85 62
368 534 102 182 15 42
406 429 312 128 8 39
287 294 263 108 85 61
383 500 306 40 28 30
281 305 262 118 90 62
285 301 264 112 87 62
289 296 264 107 85 60
288 300 266 110 86 62
246 635 236 158 112 84
288 305 267 114 89 63
423 780 310 171 125 91
280 310 260 126 89 63
318 445 256 132 17 43
284 310 266 131 92 71
287 309 268 123 90 66
290 559 103 170 15 43
280 315 260 126 90 64
297 637 174 59 32 35
284 315 265 135 93 73
286 315 268 135 93 75
286 320 268 127 90 69
298 285 261 108 87 63
301 282 259 105 83 58
302 286 260 108 85 59
294 291 264 108 87 63
298 305 270 117 88 63
268 765 205 144 103 68
292 299 268 111 87 63
294 301 269 113 87 64
383 555 302 175 16 55
445 746 244 64 51 46
382 645 193 136 13 36
293 305 270 115 88 64
299 288 263 111 88 63
254 610 264 150 108 79
364 730 309 172 17 55
301 291 264 113 88 62
303 295 265 113 87 60
301 302 269 114 87 60
446 495 280 174 124 97
359 966 291 66 59 59
304 305 268 118 87 62
289 306 269 116 89 64
318 470 256 51 26 31
293 310 271 122 89 66
343 355 276 138 93 74
294 765 284 67 58 54
303 310 270 130 91 68
298 315 272 132 91 71
294 695 187 52 36 38
354 641 174 106 22 38
298 320 271 129 89 68
285 470 258 98 50 51
302 320 270 128 86 65
309 300 261 113 79 55
238 780 272 159 117 87
447 769 226 66 52 42
311 300 259 117 82 59
311 305 259 115 78 57
486 529 224 132 30 50
309 305 262 113 76 54
255 640 223 143 106 72
307 305 265 117 82 58
393 560 122 119 28 43
310 315 263 116 75 56
388 500 308 46 28 30
313 320 261 108 77 52
305 320 268 123 82 62
403 745 181 65 50 41
287 530 96 104 16 34
307 320 265 116 78 57
407 390 261 131 101 69
315 314 258 111 79 57
337 924 343 40 37 38
281 325 263 126 91 67
284 325 265 123 89 65
286 325 268 125 89 68
403 640 286 160 120 102
289 330 270 131 93 72
286 335 268 138 95 76
263 640 220 135 96 68
279 340 260 129 95 66
245 619 250 154 109 78
279 345 260 127 95 67
278 350 260 128 95 69
281 345 263 134 99 71
286 345 268 143 101 78
289 345 270 144 101 79
303 525 76 193 12 42
363 555 282 90 15 33
281 350 263 133 97 73
362 810 186 79 60 51
287 350 268 141 100 78
396 803 203 64 55 52
272 380 257 135 104 76
366 435 293 97 30 40
498 535 186 204 15 57
407 619 196 52 32 37
272 385 257 133 100 75
269 620 257 159 107 87
278 355 260 130 97 72
348 913 336 34 32 33
278 360 261 133 99 74
434 680 271 120 86 57
275 362 259 132 100 73
278 365 261 135 101 76
328 821 285 143 114 90
281 355 263 134 98 74
281 360 263 136 99 75
284 355 265 136 98 76
378 460 296 41 29 30
283 360 265 137 100 76
368 300 286 138 99 68
287 355 268 138 98 77
275 370 259 135 100 75
275 375 259 135 102 76
434 555 267 100 25 39
383 665 196 96 22 27
278 375 262 139 103 77
420 640 259 107 75 51
275 380 259 136 104 76
274 385 260 136 102 75
280 375 264 140 103 78
288 370 268 143 103 80
283 380 265 143 104 81
292 895 275 134 104 76
288 380 267 149 107 84
449 779 226 77 59 49
288 385 267 149 108 84
400 607 169 130 46 59
293 325 272 127 90 69
368 870 191 77 67 66
302 325 270 123 86 62
298 335 271 131 91 73
303 330 270 124 87 65
303 335 270 130 91 68
293 340 271 142 99 77
293 345 271 144 101 79
278 832 262 56 46 42
298 345 271 146 102 77
303 345 270 140 96 72
263 635 262 166 117 92
300 633 168 143 12 43
298 350 271 147 103 80
313 325 261 110 78 54
308 325 266 112 79 56
296 515 113 135 3 42
305 325 268 118 82 58
311 326 264 112 78 54
234 720 246 138 96 66
308 330 266 119 83 60
305 330 268 122 86 62
405 866 239 73 60 57
377 535 287 67 22 32
312 335 265 123 84 60
383 615 166 81 29 40
316 325 259 107 76 53
340 345 266 107 71 52
347 420 272 146 8 44
314 335 262 120 81 60
308 340 267 131 89 66
306 345 269 137 93 71
402 769 182 68 53 46
313 690 286 123 20 42
312 340 265 128 86 64
375 709 159 59 45 36
306 350 269 141 96 73
309 350 267 138 94 73
313 350 265 135 91 71
315 340 263 126 84 63
303 820 216 92 72 62
315 345 263 130 86 66
318 345 261 120 83 63
314 350 263 132 88 68
318 350 261 124 84 66
418 850 272 44 40 38
293 355 270 141 100 79
289 360 269 141 102 79
395 467 304 58 26 25
293 365 269 144 103 81
268 730 271 129 22 42
298 355 270 146 102 79
359 911 234 73 65 68
373 755 166 81 62 53
265 594 198 152 20 49
298 360 270 147 104 80
303 355 270 146 100 76
303 360 269 146 102 77
386 295 279 141 105 70
298 365 270 149 104 80
304 366 268 148 102 77
258 830 246 229 155 127
418 564 131 217 15 50
293 370 269 150 107 84
298 850 321 116 97 79
293 540 136 48 31 33
293 375 268 152 109 84
362 804 177 97 72 53
473 560 196 73 31 40
295 374 269 154 109 84
293 380 268 156 110 85
298 370 269 153 106 82
304 370 268 152 105 80
301 374 269 155 105 82
298 824 270 99 69 55
298 380 268 157 108 84
303 855 327 180 137 119
436 595 281 157 111 78
309 355 267 141 96 76
293 705 288 146 16 47
306 358 269 144 97 77
308 365 266 146 101 78
305 362 268 146 100 79
315 355 263 133 88 70
318 355 261 126 85 67
318 360 261 128 86 69
314 365 263 137 92 75
298 775 283 68 58 53
311 375 264 146 99 79
313 380 261 146 99 82
392 687 284 80 14 26
310 382 263 151 102 84
231 734 246 149 103 74
404 818 299 145 106 80
310 386 263 154 105 85
308 380 265 151 100 82
311 378 264 147 99 82
375 947 297 54 47 43
288 750 192 163 8 42
314 370 262 141 96 77
314 375 262 144 98 79
323 902 214 84 75 77
317 379 259 139 92 76
351 285 261 96 75 51
338 775 191 72 53 48
353 285 271 106 84 60
413 826 230 80 63 58
350 290 261 92 72 49
492 530 215 54 32 34
351 289 266 98 77 54
287 569 141 127 1 38
378 520 95 168 16 43
347 300 261 89 69 46
345 305 262 88 67 45
293 775 282 66 57 52
434 620 281 155 106 72
347 300 266 94 73 49
492 518 122 76 34 40
347 300 271 111 84 59
353 290 276 107 85 61
350 296 275 114 89 63
265 515 173 151 1 37
313 720 181 98 26 36
347 305 276 116 84 61
241 720 224 131 97 64
337 540 276 90 9 31
353 295 281 112 87 63
438 465 291 143 102 76
350 301 280 112 86 61
352 300 282 112 86 62
351 304 283 107 83 58
346 310 260 87 65 44
268 475 262 82 46 38
345 310 263 84 63 41
345 306 266 93 71 47
413 505 302 55 27 28
519 510 181 180 15 53
428 443 273 42 30 25
263 805 280 184 141 111
444 735 286 162 110 76
247 565 241 144 109 77
398 610 171 52 35 42
264 740 211 58 41 39
345 306 270 109 78 55
433 620 296 169 118 86
344 370 276 141 97 77
231 735 236 142 101 70
344 320 261 84 63 42
423 660 296 177 121 91
343 320 276 123 86 62
345 311 275 112 82 56
376 690 168 68 52 45
346 308 273 112 78 56
353 305 285 112 84 61
284 920 281 93 78 67
301 910 236 56 51 52
350 307 284 113 83 61
250 640 227 130 97 65
350 311 284 115 85 62
417 545 297 98 65 55
277 695 206 87 32 39
280 670 202 65 32 36
345 316 279 118 86 62
347 315 282 116 86 63
273 755 201 153 104 73
344 320 280 126 90 68
349 320 285 123 90 67
444 826 291 70 59 48
353 320 287 125 89 69
397 355 271 135 105 72
307 584 122 96 32 41
353 697 304 135 14 42
445 758 244 70 53 43
355 265 261 103 82 59
422 819 232 78 63 58
355 265 265 112 90 64
368 745 305 73 61 57
356 260 266 113 90 66
362 839 196 87 73 68
356 264 267 115 92 66
358 265 276 124 97 70
358 270 276 117 92 65
401 888 292 38 33 32
363 260 281 127 98 72
363 265 281 124 96 68
351 435 278 144 5 44
368 265 283 133 102 73
283 925 281 65 59 57
360 270 279 117 91 65
363 270 281 120 93 65
368 270 283 131 100 70
246 570 241 144 108 76
354 275 266 112 89 64
355 275 271 116 92 65
308 536 84 99 28 42
353 280 266 110 86 62
354 280 271 115 90 65
291 869 284 130 103 77
355 281 275 115 91 65
290 540 92 171 12 44
482 549 206 152 28 50
356 274 273 118 94 66
357 275 276 119 93 66
357 280 277 116 91 66
393 825 211 60 50 47
354 285 276 108 86 61
448 775 286 165 110 77
355 286 279 108 86 64
432 850 296 35 30 28
422 635 262 119 87 57
356 283 278 111 88 63
363 275 281 122 95 69
364 286 284 117 93 68
369 284 283 123 97 69
373 265 283 136 103 69
373 270 283 137 103 69
378 260 283 137 103 67
233 780 231 175 118 88
229 765 251 161 111 81
378 265 283 137 101 67
383 265 282 136 101 65
391 915 272 53 47 45
383 270 282 138 101 67
390 841 214 69 58 54
371 287 284 122 95 63
383 285 281 137 101 67
427 588 172 219 24 56
354 290 280 106 84 62
398 413 292 66 52 43
539 480 157 89 28 37
259 610 223 126 92 65
357 290 282 108 85 63
359 291 284 112 88 65
447 845 286 82 64 53
355 296 284 114 88 65
373 300 285 143 101 70
249 585 233 128 99 67
354 300 285 110 86 60
414 725 196 53 39 35
358 300 286 118 92 65
438 855 335 62 50 46
358 305 287 124 93 67
302 559 257 89 23 37
356 708 152 72 48 38
343 350 276 135 92 71
328 910 337 151 120 94
363 300 287 133 100 71
363 305 287 143 101 75
368 305 286 148 101 74
358 310 287 124 91 65
449 770 276 164 111 77
363 310 287 133 96 68
368 315 286 129 90 62
243 730 222 135 100 65
343 954 330 72 64 60
363 320 288 139 96 70
368 320 286 138 95 68
372 291 284 124 96 62
374 289 283 123 94 60
402 868 316 34 32 32
379 295 283 135 98 66
376 292 284 126 95 61
364 806 186 74 56 50
376 295 284 133 97 63
243 705 226 126 95 61
378 300 283 143 100 70
376 300 284 143 100 71
271 729 204 120 8 35
378 305 282 144 99 70
313 665 179 155 1 35
376 303 284 148 100 75
383 305 280 144 103 72
375 306 283 146 100 72
388 590 287 95 32 42
343 605 285 41 28 31
374 310 283 136 96 67
378 735 156 68 50 40
286 571 155 100 9 31
383 678 189 85 38 37
374 315 283 138 98 67
343 555 279 160 21 54
383 310 280 141 102 71
378 315 282 138 98 66
378 320 281 141 101 69
359 320 289 133 92 70
361 321 289 142 96 72
329 532 89 52 33 36
320 338 258 94 70 50
321 345 259 98 72 52
343 325 266 89 66 44
342 330 266 94 70 47
288 824 221 91 70 62
341 330 271 109 71 54
341 335 266 102 71 49
378 745 306 80 56 53
287 565 131 131 1 39
290 903 325 171 119 105
342 330 276 124 81 62
283 799 207 82 65 59
344 335 281 130 90 69
231 787 239 175 118 86
378 660 275 145 19 47
425 428 261 83 71 58
405 697 173 95 60 43
353 325 287 137 94 76
447 840 301 75 59 45
349 330 285 133 92 73
394 693 288 84 15 26
346 335 283 130 91 70
399 655 281 145 100 88
349 335 285 132 93 70
241 685 246 138 97 66
525 473 129 119 32 41
461 730 246 85 60 45
353 335 287 133 94 70
423 640 299 188 131 104
340 342 261 92 66 46
382 695 300 91 17 33
343 590 283 44 30 32
382 613 163 132 18 38
340 344 261 94 66 47
340 341 266 106 71 52
341 350 261 98 67 49
442 809 247 87 67 57
341 347 264 101 67 51
529 468 145 96 25 34
340 350 267 111 73 53
298 695 185 99 25 36
342 340 276 129 85 66
344 340 280 133 91 72
332 815 200 61 51 49
436 574 259 46 29 33
318 745 185 105 31 43
343 345 276 131 88 67
350 345 284 141 99 79
308 954 335 46 42 41
353 345 286 141 98 78
344 350 280 140 98 76
283 555 250 59 25 31
347 350 282 140 98 78
394 290 272 133 101 69
350 350 284 141 98 78
318 830 286 154 123 99
353 350 286 141 98 78
321 355 259 109 78 60
300 848 250 192 130 99
448 760 251 64 49 39
265 590 196 118 32 47
321 360 259 112 79 60
418 440 326 64 29 35
425 723 216 59 46 41
321 365 259 113 78 60
321 369 259 116 80 62
303 628 163 62 31 39
338 556 110 151 23 43
340 356 260 98 67 50
496 518 214 174 11 55
340 360 265 114 76 58
350 893 218 59 53 55
341 354 265 109 72 55
342 355 271 126 84 65
340 358 269 122 81 63
342 360 271 130 87 67
341 365 268 126 84 65
342 365 271 132 88 70
343 360 276 140 95 76
343 365 276 139 94 76
345 360 279 141 96 78
443 440 261 88 72 56
283 810 275 56 49 45
348 355 282 142 100 80
350 355 284 143 100 81
353 355 286 144 101 82
350 358 284 144 104 82
424 832 274 40 34 31
353 360 285 143 102 80
326 548 268 121 8 36
345 365 279 140 96 77
373 675 286 114 0 33
348 365 281 142 101 80
385 491 305 33 29 30
341 371 260 102 70 51
341 375 260 107 72 55
340 375 262 114 77 60
348 615 281 101 24 39
340 370 266 121 79 63
382 355 284 120 94 61
331 848 200 58 52 52
342 375 271 135 90 72
371 475 293 117 19 41
340 378 265 124 84 67
341 380 266 129 85 69
298 935 241 77 70 70
257 584 263 156 110 85
343 380 271 137 90 74
355 430 284 140 0 42
342 385 266 130 87 69
398 485 315 139 24 49
303 965 291 81 76 77
312 875 216 48 43 43
358 675 176 78 48 40
344 380 276 141 96 77
345 369 279 141 97 78
412 759 192 75 58 48
348 370 281 141 100 79
437 470 294 162 113 92
346 375 278 140 98 79
351 370 283 143 104 80
388 360 281 127 100 67
363 490 285 149 6 46
351 375 283 141 102 79
346 381 278 143 101 80
252 765 219 102 73 45
349 380 280 142 102 80
345 385 275 143 97 79
290 562 141 133 3 38
298 415 264 156 20 51
346 385 277 145 100 81
436 695 289 156 105 73
348 385 280 144 102 82
291 540 145 91 22 35
351 380 283 141 102 80
294 948 263 75 69 71
351 385 283 143 103 81
363 770 297 65 57 54
350 480 274 98 19 39
368 536 283 70 26 34
363 330 287 142 95 69
267 415 257 117 18 40
368 330 286 138 95 67
524 475 172 78 24 33
432 604 211 187 19 53
368 335 286 137 95 66
347 470 271 137 14 44
358 345 287 141 99 77
338 710 179 125 13 34
358 350 287 143 101 77
363 340 287 138 96 69
386 523 296 45 23 24
298 605 141 70 35 40
409 454 324 111 23 42
368 340 286 138 97 68
368 345 286 137 98 68
331 752 288 64 54 48
418 695 231 62 49 41
241 724 224 133 97 64
368 571 130 192 22 49
294 550 131 117 6 38
363 350 287 141 100 71
352 913 342 39 37 36
423 543 113 207 13 43
368 350 287 134 97 66
313 585 126 159 20 43
302 678 273 110 0 32
383 340 281 137 103 69
372 325 284 139 96 67
433 581 165 86 38 46
372 330 284 138 96 65
308 794 203 89 69 60
372 335 284 135 95 64
374 335 283 135 96 66
259 814 228 197 133 102
417 671 247 67 45 38
378 325 282 141 100 70
383 325 280 144 104 74
434 575 296 168 117 83
378 335 282 137 98 68
383 330 280 145 105 75
373 345 285 132 97 65
363 711 160 86 62 49
378 340 282 133 99 65
236 710 241 139 99 66
378 345 283 127 95 60
273 430 261 136 23 46
380 348 283 121 93 60
378 350 285 121 94 61
383 350 282 124 97 63
358 325 288 147 100 80
298 564 102 208 15 40
358 355 287 146 106 80
290 528 83 119 0 27
354 365 285 142 102 80
354 380 285 141 102 80
354 385 285 142 103 80
328 899 212 77 70 69
357 380 287 140 102 78
518 470 126 121 46 43
404 580 282 58 25 29
357 385 287 142 103 80
373 355 287 128 98 63
416 855 248 61 51 52
347 845 192 99 79 64
378 355 286 123 95 61
378 360 287 127 99 65
431 609 221 135 35 51
383 360 285 125 98 65
378 365 288 130 100 66
363 365 289 137 101 74
368 365 289 135 102 69
448 755 281 171 121 85
360 380 289 141 104 77
442 770 300 166 115 81
373 860 280 30 28 28
361 368 288 138 102 78
360 375 289 137 102 76
307 840 276 169 127 104
448 520 267 41 27 31
363 385 291 141 103 78
405 761 184 70 53 47
368 380 291 138 103 75
368 385 291 140 103 77
378 370 289 133 103 68
313 959 330 65 60 58
379 369 288 131 99 66
415 450 283 63 23 33
378 375 290 136 103 68
408 525 97 54 37 41
384 374 288 133 100 66
383 385 290 134 101 68
272 390 257 133 100 75
233 750 226 150 105 75
272 399 257 121 89 67
268 405 261 139 23 44
323 705 289 102 23 41
269 402 260 81 40 28
314 758 188 141 33 53
252 725 268 159 112 85
283 884 312 124 93 71
266 410 258 154 20 51
285 555 152 82 20 32
268 410 260 147 19 47
408 821 221 59 48 47
271 410 263 147 19 46
275 390 259 135 102 77
363 895 310 85 64 50
463 720 250 89 67 47
298 612 149 232 15 48
278 390 262 137 103 78
363 796 174 91 68 48
277 399 262 119 85 67
323 645 277 87 29 39
283 390 265 143 106 81
288 390 266 148 108 84
279 401 265 101 55 44
288 395 266 140 103 81
288 400 267 97 73 57
274 405 264 146 22 46
288 580 116 126 25 41
330 542 269 120 7 36
275 402 264 97 29 30
274 410 264 149 18 47
495 521 213 178 14 55
274 415 264 153 20 49
420 570 299 163 114 90
338 715 297 113 22 41
278 410 265 155 19 50
278 415 265 91 21 37
495 536 197 126 26 44
416 457 285 66 50 41
285 687 274 69 33 39
338 600 282 112 24 40
283 405 267 137 22 47
288 410 267 162 17 51
288 415 266 166 13 53
451 583 211 209 16 55
272 420 262 69 22 31
273 425 262 116 19 41
418 785 311 172 128 96
270 430 259 92 21 35
271 445 258 144 21 48
255 530 201 55 34 36
353 855 191 87 73 64
275 420 264 117 27 44
275 424 264 149 31 57
278 420 265 57 25 31
298 425 262 157 19 51
388 405 292 110 88 65
278 425 264 90 26 38
377 400 294 137 104 77
426 883 287 72 61 56
288 420 264 167 12 52
283 427 263 160 16 48
288 425 263 163 16 51
288 430 263 59 23 33
274 445 260 124 24 44
278 445 261 134 24 48
404 850 231 69 56 51
278 560 250 72 33 35
283 440 261 166 18 52
288 435 262 38 26 29
293 390 267 154 110 84
268 770 275 130 99 67
293 395 266 148 106 83
298 390 266 156 108 84
303 390 265 156 106 83
286 555 111 57 29 31
353 745 300 70 59 53
298 395 266 152 105 84
245 620 246 156 111 81
280 798 208 57 50 53
298 720 185 121 19 38
298 400 266 121 81 65
517 457 157 99 25 27
303 395 265 154 106 84
285 572 146 126 0 38
303 405 265 145 22 50
304 411 263 160 16 51
300 416 263 121 21 41
313 805 282 183 133 111
263 575 196 77 24 37
303 415 262 137 19 46
298 410 265 160 18 51
302 410 264 155 18 50
313 390 260 149 102 82
308 395 262 154 105 84
352 831 289 151 122 92
413 690 299 167 123 95
308 400 262 134 82 69
293 950 266 75 69 70
372 528 98 195 11 48
428 821 296 126 81 62
368 600 286 188 10 60
355 572 284 120 5 36
306 394 264 155 106 84
228 785 256 169 117 87
263 565 191 165 10 46
315 396 258 135 93 77
308 405 262 129 24 46
366 543 108 115 22 40
318 938 238 84 78 79
306 402 264 109 34 36
306 404 264 135 21 45
308 415 260 160 16 50
313 410 260 143 20 47
298 865 281 107 84 57
312 415 259 152 17 48
528 504 141 98 35 44
338 960 251 88 85 89
440 577 165 142 29 45
319 405 258 134 19 45
394 445 299 116 4 33
318 410 258 146 19 47
293 430 263 55 23 31
294 895 271 121 93 70
303 425 261 156 15 48
298 430 262 102 21 40
323 940 241 88 82 85
303 430 261 149 18 48
415 452 311 150 17 47
313 925 338 191 150 129
293 440 261 159 17 50
368 900 312 89 67 57
303 435 260 107 17 39
303 440 259 158 17 48
303 445 259 140 22 47
288 515 81 60 32 36
368 814 290 87 62 53
307 430 259 153 16 46
383 645 273 143 19 47
267 575 260 149 100 76
310 430 258 149 17 47
248 824 270 210 147 119
333 845 300 147 118 91
313 430 258 142 18 45
307 434 259 157 17 49
305 440 258 157 18 50
306 438 259 158 19 43
305 445 258 122 18 42
308 445 258 118 24 43
258 460 257 121 87 70
272 450 258 127 27 47
272 455 258 80 27 35
268 464 258 102 20 35
521 513 156 209 19 53
272 460 258 100 27 37
257 468 263 122 94 70
368 850 180 81 69 61
258 475 265 159 114 97
428 485 300 146 107 78
263 475 265 133 101 80
263 480 266 149 115 92
443 845 306 67 54 45
268 466 259 91 24 33
423 421 331 88 24 36
273 475 262 115 85 65
416 628 232 158 32 52
267 476 264 119 89 67
395 749 179 60 46 42
298 750 189 89 26 40
273 480 264 138 104 81
263 825 232 209 144 112
288 455 260 153 73 76
253 795 280 168 128 96
283 460 260 150 103 95
323 695 291 111 27 45
283 465 260 141 90 78
288 465 258 119 41 51
431 883 297 79 64 55
279 480 263 142 95 82
359 410 290 135 29 46
277 480 264 148 104 86
288 920 261 57 54 55
298 830 226 94 72 62
288 470 257 73 31 36
282 480 260 131 70 68
285 475 258 116 31 43
249 675 260 161 114 86
285 480 258 111 26 39
288 480 257 80 23 33
258 485 265 160 116 95
258 495 265 153 113 90
435 601 237 42 29 32
237 769 268 150 110 78
263 495 266 156 116 91
254 540 237 122 81 61
443 780 226 84 67 57
292 765 283 67 59 55
268 485 266 155 115 91
273 485 265 154 111 88
307 625 267 47 26 30
268 490 266 167 122 99
268 495 266 158 115 89
452 465 271 156 113 91
273 490 265 162 114 92
278 520 249 98 23 37
273 495 265 164 117 94
256 502 263 153 114 90
242 685 241 137 96 65
256 505 263 157 114 92
258 500 265 146 110 85
453 825 306 60 47 35
258 505 265 157 114 92
249 600 260 148 105 80
263 500 266 153 113 88
263 505 266 162 120 94
268 500 266 159 117 91
373 855 277 33 29 28
272 505 264 165 122 98
453 520 101 201 12 41
268 510 265 155 113 88
277 485 264 161 110 93
287 555 150 70 23 34
429 865 265 85 72 70
278 495 261 151 103 92
276 495 264 163 116 96
447 550 260 45 24 31
306 655 268 150 14 46
395 718 183 54 44 39
282 485 260 133 75 73
280 495 258 134 76 74
368 674 180 66 46 38
275 501 263 173 122 104
448 525 267 88 22 38
278 500 261 156 108 97
277 505 260 158 107 96
276 508 259 145 89 82
413 615 201 124 33 48
294 457 258 35 26 28
298 454 259 42 24 28
302 450 259 44 26 30
240 701 232 133 97 67
304 451 258 47 25 29
303 460 257 90 26 38
303 465 257 48 29 32
303 470 257 83 28 36
451 792 264 68 52 40
333 949 339 70 66 65
293 470 257 76 28 36
293 480 257 88 25 35
324 856 202 54 50 51
298 470 257 103 28 40
376 853 199 68 59 56
343 873 193 86 73 68
313 450 257 48 28 32
291 514 103 135 2 39
308 835 276 166 125 102
308 460 257 45 26 30
431 883 310 65 52 44
366 844 279 122 93 71
313 465 257 77 28 35
318 460 257 147 18 47
368 551 115 207 13 44
444 845 301 64 51 40
338 950 336 61 57 56
318 465 257 142 24 48
350 828 288 152 122 92
308 470 256 66 26 33
324 853 312 111 91 68
376 588 289 182 12 59
308 475 256 121 27 45
308 480 256 64 26 33
303 485 257 35 27 30
337 570 278 167 14 52
313 485 256 66 27 36
329 617 154 215 13 46
323 405 258 140 17 45
249 610 260 149 107 80
323 415 257 139 18 46
333 405 258 107 12 34
333 410 258 76 21 32
343 650 176 148 20 39
333 415 257 94 20 36
279 833 237 94 71 61
343 390 266 129 86 70
346 880 315 139 105 78
312 820 277 169 124 103
378 530 287 63 22 30
343 400 261 94 63 50
345 390 274 144 96 79
350 400 280 142 100 80
248 775 218 149 105 71
305 914 223 85 76 75
336 404 258 118 16 34
435 535 273 31 25 31
338 405 260 124 17 42
341 404 263 75 23 31
402 390 271 131 102 68
343 405 266 76 25 34
338 410 261 118 13 38
341 415 263 137 11 42
343 410 266 138 13 43
407 445 321 81 23 32
343 415 266 142 11 43
345 405 270 119 29 47
345 410 270 146 12 46
347 405 276 116 47 51
268 834 251 71 46 46
258 740 221 108 72 53
349 405 280 91 54 48
349 415 276 150 9 46
308 604 142 189 17 47
229 770 256 159 110 80
349 410 280 108 19 40
323 425 257 43 26 28
328 425 256 40 26 26
323 430 256 95 21 37
328 430 256 43 26 27
333 420 257 61 23 30
267 630 260 162 110 88
335 421 259 66 24 26
289 900 326 186 135 117
329 890 337 163 121 98
335 430 259 52 28 29
323 435 256 114 19 40
244 824 246 233 162 133
399 500 314 96 23 38
439 460 286 135 101 76
323 440 256 137 17 44
272 540 170 77 33 40
328 435 256 46 24 26
323 445 256 139 15 43
328 445 256 83 17 34
325 687 289 36 25 30
332 435 258 45 24 26
443 539 117 211 14 48
335 435 259 59 24 29
332 445 258 50 23 28
334 445 259 51 26 28
464 530 252 171 4 54
255 520 196 64 30 34
476 544 229 159 30 55
343 420 266 138 10 43
270 705 216 58 34 37
343 425 266 130 10 40
338 430 261 62 25 31
278 515 161 111 20 37
347 430 271 144 10 44
352 420 281 145 6 44
349 425 276 145 6 44
285 910 282 157 121 95
377 700 167 60 46 40
349 430 276 145 7 44
287 660 252 37 25 27
338 435 261 59 24 29
420 587 164 81 21 33
338 440 261 49 27 29
279 660 248 87 48 43
341 435 263 112 21 41
258 829 241 228 156 125
343 440 266 37 26 27
318 666 179 148 0 34
340 445 264 39 27 29
343 445 266 40 27 28
347 435 271 112 12 39
450 815 265 79 59 50
346 436 268 32 25 28
410 502 308 42 30 28
348 440 271 109 16 39
350 435 275 144 7 43
350 445 275 136 9 42
441 851 334 65 54 48
354 390 285 143 102 82
417 860 251 62 51 50
402 554 299 175 15 58
354 400 285 141 101 79
248 764 273 153 117 85
427 697 228 71 52 41
358 395 287 143 104 80
396 913 339 58 51 47
327 533 88 106 35 48
265 544 178 165 16 52
357 400 287 140 102 78
275 741 279 73 28 37
354 415 285 142 12 43
357 410 288 134 27 43
293 855 301 126 104 81
359 879 219 54 50 50
414 616 206 108 36 46
357 415 287 146 12 46
284 575 131 96 22 34
323 700 290 102 24 43
248 760 220 141 103 68
360 389 289 143 105 81
312 922 338 189 150 129
266 560 184 153 2 39
359 855 187 83 71 65
360 400 289 140 103 77
368 395 292 141 104 78
368 400 292 141 104 78
359 415 290 149 13 47
363 405 291 133 99 75
267 720 268 113 47 43
368 405 293 135 101 75
363 410 292 131 43 50
343 485 266 137 12 43
368 410 294 123 54 51
431 715 228 81 57 41
368 415 295 146 13 45
373 390 292 139 104 77
323 450 256 140 15 43
375 396 294 138 106 76
285 537 114 86 22 34
374 400 294 137 104 77
378 390 292 137 103 74
363 675 291 85 18 31
378 395 293 137 103 74
355 697 153 67 50 39
376 395 294 138 106 76
428 881 286 75 64 61
379 400 293 137 105 76
373 410 295 120 74 58
247 700 262 152 107 79
373 415 296 134 14 44
378 405 294 132 101 75
360 962 297 62 56 57
338 608 148 166 21 46
379 404 293 133 102 75
383 860 221 63 54 53
382 407 294 120 94 69
357 425 287 142 4 43
353 435 281 142 3 42
327 876 200 83 70 65
355 440 284 90 25 38
278 775 278 53 44 41
357 435 287 117 15 39
452 455 266 110 83 62
245 605 250 150 108 79
353 445 281 136 11 43
453 830 291 98 78 63
308 895 226 49 46 46
273 515 166 116 14 36
355 445 284 94 17 37
456 563 163 29 31 44
357 445 286 93 23 38
360 420 289 137 12 43
453 560 156 165 25 51
360 430 289 102 17 37
232 780 267 163 117 86
368 420 295 134 13 41
368 425 295 103 16 37
366 430 293 49 26 30
351 486 273 148 9 45
369 430 294 106 28 41
360 444 289 101 18 39
369 435 294 56 29 33
369 445 294 33 29 30
373 425 296 60 28 33
378 420 296 122 16 39
378 425 296 100 22 37
383 425 296 83 26 34
427 615 241 184 16 53
271 640 214 121 21 39
378 430 296 76 30 36
323 460 257 153 18 47
295 862 288 111 89 66
328 460 258 148 17 45
331 455 258 131 10 40
333 460 259 129 14 37
333 465 259 52 24 31
328 470 257 102 20 39
328 475 256 61 26 33
343 480 266 80 22 34
384 695 175 56 44 37
332 470 258 34 27 29
335 475 259 89 18 34
341 452 263 146 15 42
340 450 264 93 23 40
437 480 295 152 110 80
370 701 154 72 48 40
338 460 262 122 14 39
290 524 83 133 16 44
338 465 262 29 26 28
410 705 299 163 120 94
340 465 264 35 24 26
345 450 269 90 18 36
386 725 304 163 23 55
378 620 277 86 19 37
323 600 276 33 28 31
383 706 167 61 48 43
303 625 161 118 25 41
345 455 269 140 11 40
413 450 286 66 30 34
333 975 276 66 63 63
347 455 271 143 10 43
253 580 261 150 108 81
307 640 268 149 14 46
345 460 269 138 10 43
347 460 272 144 11 44
373 606 154 193 14 48
345 464 269 110 15 40
350 450 275 145 9 44
351 450 278 127 11 41
418 590 300 164 120 92
288 710 191 117 14 31
351 460 278 143 10 43
352 465 277 52 24 32
338 470 262 48 25 28
388 810 296 56 47 43
338 475 262 101 21 37
341 475 263 68 21 26
343 475 266 49 27 30
345 479 269 56 25 29
244 800 227 181 126 90
294 871 277 128 100 72
350 475 274 70 18 31
251 689 263 151 106 78
343 826 289 153 124 93
353 480 276 140 10 45
405 680 204 111 61 42
333 600 141 216 14 47
412 459 320 119 25 41
332 485 258 63 28 33
532 480 165 116 25 41
332 490 258 95 22 36
289 681 270 69 18 30
328 500 257 111 15 37
293 535 86 181 12 39
432 795 309 168 120 90
329 511 259 118 4 35
333 510 260 118 3 35
341 486 263 130 16 45
343 490 266 124 12 40
340 491 264 39 24 29
284 545 111 72 33 38
343 495 266 127 9 39
345 898 323 143 109 86
346 486 268 144 11 42
348 490 271 143 9 43
447 869 320 79 59 49
305 850 275 174 130 105
411 480 311 72 28 36
346 495 268 138 9 42
275 700 208 68 28 35
348 495 271 141 8 43
351 490 273 146 7 45
343 505 266 127 5 38
337 510 263 119 4 35
244 600 246 151 111 81
382 825 196 60 54 58
296 662 189 157 0 38
346 500 268 134 6 43
318 822 219 79 60 51
348 500 271 136 8 42
416 823 228 81 64 61
260 746 218 109 83 55
348 510 272 133 8 41
353 505 275 137 11 42
351 509 273 135 9 43
350 510 274 133 9 41
354 455 281 126 18 44
358 465 286 61 29 34
387 320 279 140 102 71
416 807 308 170 119 94
478 555 191 214 18 59
356 470 282 117 17 43
454 495 257 117 9 36
359 470 285 121 15 42
304 948 253 79 73 75
357 475 282 150 0 45
443 444 267 84 66 52
359 475 285 153 0 46
360 480 284 154 0 47
362 470 288 119 11 40
322 528 83 110 15 33
441 855 334 65 54 46
408 685 221 96 31 39
363 480 287 147 4 46
396 873 233 54 44 45
360 454 289 34 28 30
400 765 176 66 52 45
366 450 293 74 30 35
447 780 276 153 103 70
412 660 251 53 33 34
369 450 294 57 28 32
290 865 316 158 107 94
368 780 170 87 65 43
354 775 172 78 56 45
366 455 293 47 26 30
435 685 270 118 86 56
368 455 294 112 29 44
363 460 291 97 26 40
253 575 231 121 91 61
372 705 157 66 48 38
361 462 288 65 27 25
424 877 333 76 63 49
270 639 206 134 11 36
363 465 290 90 26 39
369 460 294 69 28 35
367 465 292 101 29 42
368 470 292 72 28 36
373 455 296 110 26 42
373 460 295 65 29 33
369 465 294 111 23 40
373 465 295 70 26 33
440 867 289 99 78 66
378 450 296 39 27 29
378 455 296 68 30 35
296 621 258 68 20 33
383 450 297 94 20 35
378 465 296 56 28 32
300 900 251 152 106 87
370 470 294 47 25 32
378 820 287 52 43 41
430 615 269 139 96 67
373 470 294 48 28 32
374 475 294 55 28 33
417 440 316 82 21 32
393 671 274 56 29 29
374 480 294 46 26 30
333 924 233 80 75 77
396 664 273 72 43 39
348 669 287 35 29 30
383 470 297 105 17 37
378 480 295 108 17 39
383 480 297 99 18 36
416 632 298 176 129 103
355 483 279 151 3 43
388 630 274 172 17 55
358 485 281 151 2 46
356 490 278 147 6 44
356 496 278 143 10 42
263 829 266 206 146 120
434 725 297 162 106 75
359 495 280 147 10 46
360 484 284 150 1 46
361 487 283 151 4 41
308 914 222 86 75 73
436 708 238 69 54 41
364 495 285 149 10 46
367 490 288 138 6 42
415 426 294 144 16 45
376 844 185 70 63 59
356 500 278 143 11 44
431 645 294 176 120 92
355 512 279 127 8 34
358 510 281 123 7 37
360 512 285 78 13 31
355 670 184 95 30 30
323 655 176 120 19 37
367 500 287 148 13 45
417 419 291 154 18 50
318 961 327 64 59 58
410 698 229 47 42 40
364 505 285 94 14 34
369 490 289 127 10 41
403 855 276 32 29 28
364 511 291 68 22 30
415 412 301 108 39 47
369 505 290 113 9 34
413 665 246 46 34 33
367 509 291 81 22 33
375 483 294 90 19 37
373 490 292 126 9 39
286 580 120 145 19 43
430 637 274 171 122 95
451 473 274 164 118 97
373 495 292 39 25 28
321 858 206 47 45 47
482 513 108 192 12 39
376 486 293 139 10 44
383 485 297 135 11 41
243 765 220 153 109 73
378 495 296 58 24 30
379 786 191 64 52 48
384 490 301 42 27 30
439 730 235 75 56 46
