ply
format ascii 1.0
comment Created by Open3D
element vertex 2211
property double x
property double y
property double z
property uchar red
property uchar green
property uchar blue
end_header
406 888 230 87 70 66
152 753 220 108 89 70
375 220 216 110 90 67
442 531 354 203 16 62
287 879 310 154 112 91
438 504 374 62 22 29
282 464 184 43 36 36
382 565 361 163 17 53
368 790 320 102 76 54
297 899 305 137 96 76
362 820 364 171 118 96
392 919 284 77 63 58
272 129 280 108 87 65
377 219 219 113 92 68
113 803 210 199 140 113
387 384 219 107 89 69
358 193 256 116 94 70
431 509 259 96 24 41
331 17 287 163 124 109
367 194 249 119 96 71
382 779 314 103 79 54
472 444 263 97 21 35
368 199 250 120 96 71
211 909 226 149 111 100
312 899 199 63 58 58
389 369 227 101 84 67
437 519 248 100 20 39
335 443 121 74 32 44
247 894 294 152 105 91
440 502 386 56 24 26
302 10 289 149 91 96
385 330 252 127 99 66
285 155 269 108 86 61
236 724 259 161 0 47
366 199 253 120 97 70
367 204 253 122 98 71
374 198 229 119 97 72
248 634 269 140 5 43
457 519 369 123 33 49
367 209 254 122 98 71
484 496 318 72 26 29
328 505 286 46 28 29
368 219 255 122 97 69
239 694 235 38 34 37
262 94 273 105 33 44
373 194 234 115 93 70
371 194 239 114 92 68
353 366 217 86 75 66
206 884 242 114 81 72
366 770 190 46 40 40
366 830 289 128 85 67
366 406 190 90 76 63
344 874 212 63 58 57
316 922 326 33 30 30
374 199 234 115 93 69
427 874 259 84 67 51
102 743 219 101 86 71
375 200 229 119 97 73
374 203 235 114 92 68
308 434 175 80 27 34
375 205 234 116 94 69
156 828 211 139 92 66
309 439 133 142 1 40
297 614 209 156 1 33
361 684 189 61 48 34
361 573 301 50 27 30
374 204 239 114 93 68
433 864 299 54 42 33
333 334 234 71 63 55
238 514 249 33 29 31
277 15 260 108 96 84
376 209 234 116 94 70
333 289 244 99 80 59
375 206 237 114 92 68
286 810 260 182 125 106
375 210 238 113 91 67
266 508 285 62 22 30
370 194 244 117 95 69
326 759 157 87 64 57
379 292 251 127 98 62
320 311 286 100 81 61
371 199 244 117 94 69
243 604 269 97 26 41
372 204 244 117 95 70
361 836 260 36 30 30
371 204 248 121 98 72
394 384 229 103 85 66
371 209 249 121 97 71
412 564 305 59 28 33
234 568 231 114 12 32
262 99 273 111 92 71
372 822 349 167 111 86
377 214 234 115 93 69
304 499 144 130 6 33
379 218 229 118 96 72
267 239 314 116 93 69
327 869 150 133 115 117
380 221 229 118 97 73
380 221 226 118 96 72
268 499 185 101 29 36
383 284 244 124 96 62
384 324 233 112 90 63
384 851 242 78 65 56
380 224 225 117 95 70
337 929 334 69 61 58
252 819 189 200 130 105
307 309 344 142 98 76
379 223 235 118 95 69
402 749 245 51 39 32
307 310 280 86 72 57
378 224 239 116 93 66
413 895 295 67 54 50
277 844 269 83 65 43
452 465 267 90 8 30
380 224 233 118 95 69
377 509 154 113 22 41
363 776 379 87 73 59
374 214 245 118 95 69
333 435 117 55 30 38
373 219 249 120 97 71
321 750 316 123 34 52
427 448 259 64 51 40
375 220 247 120 96 70
330 349 244 73 64 55
383 359 269 113 90 63
247 584 219 113 26 40
442 489 285 73 21 32
375 224 248 119 95 68
376 224 244 117 93 66
377 324 259 123 94 60
287 199 259 122 92 55
292 44 274 124 59 59
359 786 350 122 99 75
374 279 256 126 97 61
281 458 187 42 37 38
359 840 197 69 60 58
353 259 262 98 77 52
391 923 294 85 67 63
357 234 206 130 100 61
490 465 337 132 16 44
362 229 207 126 97 60
361 234 206 128 98 58
302 888 174 80 67 64
367 234 208 126 96 60
112 746 201 104 91 78
367 239 208 129 97 57
362 244 207 132 99 57
441 820 184 87 75 66
418 540 329 41 28 29
327 415 134 82 65 48
357 254 208 131 100 61
335 278 245 102 82 59
308 29 259 106 35 42
367 779 404 112 89 64
392 404 219 89 77 65
307 10 284 114 57 59
367 249 208 133 99 58
289 59 269 123 86 69
444 816 196 97 81 69
265 388 258 97 82 66
362 254 208 131 98 58
357 353 217 87 77 67
327 439 115 154 2 36
405 420 206 103 19 31
318 824 418 172 132 109
258 169 289 115 95 74
341 742 151 74 55 46
367 254 209 133 99 59
376 229 215 117 93 65
371 234 211 125 97 62
414 504 197 154 15 42
201 788 222 157 116 94
382 902 277 56 48 43
371 239 211 127 97 59
282 19 258 101 39 30
318 834 418 183 136 114
267 429 205 124 13 28
254 915 231 76 70 71
373 234 213 125 98 64
373 907 251 88 68 58
282 180 297 108 90 70
277 214 313 110 91 71
313 616 326 31 29 32
376 234 215 121 96 66
123 757 192 96 81 66
371 659 239 76 26 34
317 494 304 143 12 44
373 239 213 127 98 60
307 374 244 98 84 68
407 889 240 79 67 59
365 820 310 165 114 87
377 239 215 124 97 64
279 159 257 119 92 55
378 229 219 114 92 65
348 224 258 99 79 57
262 44 278 128 105 85
297 328 273 90 77 63
379 227 222 117 94 68
118 804 233 186 137 122
448 454 259 89 15 27
378 234 218 117 93 66
479 506 334 202 17 57
391 489 150 63 33 39
292 33 283 135 74 72
212 799 218 158 118 92
379 238 217 119 95 66
460 438 256 110 12 29
437 544 309 174 10 52
373 244 212 129 99 61
192 764 190 106 83 53
377 244 215 124 97 64
372 254 210 132 98 57
331 798 419 140 114 87
297 9 284 132 73 73
395 756 282 164 124 91
338 755 163 71 53 45
374 254 212 131 99 60
285 69 268 117 58 55
403 902 255 78 66 56
381 249 219 121 95 62
369 794 425 158 111 82
394 491 296 65 20 27
386 608 302 175 13 55
150 815 232 96 72 51
401 769 264 144 102 72
237 714 234 106 26 41
379 254 217 123 96 63
381 254 219 123 95 61
241 753 209 126 104 82
406 789 239 58 47 42
379 228 240 117 93 65
380 230 238 120 96 68
316 789 164 72 56 46
445 517 348 61 26 26
386 890 259 56 47 42
382 234 229 122 98 71
262 825 199 152 93 68
347 309 274 79 63 44
380 234 239 121 96 66
433 870 291 77 60 50
381 239 239 120 95 66
346 728 327 33 27 30
401 789 304 145 107 70
320 314 286 104 83 59
297 34 274 134 53 62
252 609 274 56 31 34
371 229 254 122 97 68
316 434 154 93 21 32
327 589 193 83 34 38
332 529 289 57 18 26
242 544 273 159 10 49
374 229 251 122 97 69
364 869 228 73 64 63
421 465 283 65 21 25
371 344 273 112 87 56
433 524 251 171 8 54
384 417 177 71 50 43
300 27 283 139 65 62
272 12 267 96 81 69
372 239 255 123 97 65
251 956 264 84 78 78
377 234 249 120 95 65
417 898 264 83 69 57
267 199 304 110 91 70
371 480 296 104 4 33
347 434 120 123 19 37
237 914 274 174 130 110
300 827 266 150 113 92
375 236 252 121 95 64
128 823 214 205 142 118
295 397 212 102 89 74
326 364 289 100 74 51
358 926 309 58 50 43
147 839 215 194 133 111
309 845 176 62 52 48
379 232 241 117 93 64
287 429 314 107 27 43
379 234 244 119 95 66
117 784 236 166 128 111
379 238 246 120 94 63
383 244 229 122 97 68
361 514 291 35 26 27
404 449 154 93 27 37
382 244 239 119 94 64
383 249 234 120 94 64
362 234 261 117 94 67
373 244 255 123 97 65
373 249 255 126 99 67
363 238 261 117 93 65
374 254 256 125 98 64
444 816 198 94 84 76
378 244 249 122 95 64
381 249 244 119 93 62
432 884 255 89 70 52
380 249 248 121 94 63
297 10 299 146 69 79
267 14 264 93 80 68
120 781 192 177 120 90
122 799 236 173 132 117
342 494 140 117 15 36
314 880 151 124 106 98
377 384 284 128 98 66
321 374 314 136 94 76
264 11 271 91 65 58
236 519 239 145 1 39
342 878 133 79 73 70
301 923 327 116 80 72
263 11 274 90 54 51
260 123 276 107 89 73
260 12 278 89 39 43
381 864 225 64 60 60
380 879 253 80 68 60
292 44 264 112 67 57
259 11 280 89 34 40
292 189 264 116 93 66
262 11 284 89 35 39
179 918 248 196 140 135
286 169 289 108 87 63
264 11 287 89 40 40
261 12 285 89 33 39
363 820 409 175 110 82
262 12 289 89 39 39
397 499 294 85 11 29
272 10 274 94 73 63
267 10 284 90 43 42
299 208 278 113 91 66
280 130 264 107 84 56
272 10 289 98 61 52
394 440 123 163 17 40
394 616 280 183 14 52
280 350 326 136 103 76
262 394 219 95 41 38
391 483 146 110 36 46
262 19 259 102 88 73
286 27 292 139 28 54
396 709 219 64 46 35
262 22 257 103 89 75
265 22 257 109 95 80
258 24 288 121 45 56
287 374 239 99 86 74
391 695 214 74 58 44
263 28 288 133 43 59
325 364 244 87 70 55
265 31 286 140 19 53
292 384 228 101 87 72
277 13 264 102 83 72
277 11 269 100 79 68
311 259 304 112 89 62
260 509 192 37 34 38
282 15 260 112 84 62
468 500 324 69 18 28
287 13 263 109 61 45
449 884 267 65 55 45
271 294 294 132 97 74
282 11 266 105 75 63
111 769 192 156 107 74
342 364 277 70 50 30
298 449 180 79 31 38
277 10 274 99 74 63
327 849 159 112 87 65
277 10 279 99 65 55
337 409 164 88 71 55
287 10 274 110 55 41
313 454 149 87 24 35
142 746 209 102 88 74
352 395 199 93 78 64
339 790 410 115 89 62
287 9 279 109 53 42
331 399 254 94 69 53
287 9 284 120 63 60
287 229 263 127 93 57
317 434 298 78 34 30
277 19 258 107 83 63
292 10 309 149 35 61
318 390 239 94 77 60
422 524 364 60 23 27
276 21 256 102 69 43
309 274 287 98 79 57
327 598 319 73 11 26
287 24 259 100 33 30
291 16 306 148 89 87
395 477 146 52 39 41
102 745 223 121 99 78
314 418 166 112 13 30
443 839 266 98 77 64
284 308 332 127 97 68
435 552 299 74 28 40
280 26 256 98 26 30
287 29 259 70 46 38
347 279 215 123 95 65
357 339 217 87 77 67
292 874 305 155 114 93
282 29 289 135 92 77
335 322 238 87 72 57
268 11 294 98 62 52
94 746 215 95 80 66
322 839 268 157 119 93
267 14 299 107 67 62
322 374 244 124 92 63
320 391 216 98 83 67
146 760 227 138 110 87
397 888 224 81 69 63
287 69 264 127 20 47
372 459 297 43 24 28
272 259 320 125 97 70
439 859 259 88 74 60
364 711 141 91 67 52
272 12 300 107 70 58
261 25 290 134 33 55
376 482 136 60 30 40
480 487 392 123 22 42
436 434 232 76 27 33
267 25 295 131 48 59
372 664 294 72 29 35
443 463 265 71 14 24
260 389 294 132 101 73
409 449 198 56 34 31
259 63 272 115 20 44
307 394 319 152 103 83
382 484 140 83 30 40
432 474 235 71 33 34
267 19 300 112 30 47
263 962 265 76 70 72
268 23 298 137 18 51
250 867 290 111 37 49
269 17 302 108 30 35
272 18 302 132 95 87
325 354 258 102 79 60
137 750 223 107 89 71
272 24 299 130 35 53
282 409 203 123 12 28
365 451 122 106 56 46
272 27 294 142 27 57
282 614 298 75 23 35
277 11 299 115 64 55
258 760 191 102 81 57
277 14 304 134 89 77
446 823 219 88 67 56
282 10 294 122 60 58
322 644 314 36 28 29
384 363 271 114 90 62
313 384 243 91 77 62
284 11 307 131 46 54
467 474 379 67 22 28
352 559 178 67 35 39
310 841 191 49 45 43
282 14 307 137 82 75
396 775 293 139 110 76
287 14 308 139 52 61
317 12 269 144 84 93
327 11 289 154 63 83
460 821 179 84 70 59
277 19 303 140 100 81
322 875 184 70 64 66
104 788 210 199 138 110
276 504 178 43 36 39
247 559 278 150 13 47
277 24 299 134 81 70
430 517 367 57 23 28
354 581 325 42 31 30
278 22 302 149 106 85
396 740 248 53 39 36
337 899 294 38 33 32
314 719 322 32 27 30
274 27 297 152 15 55
359 782 426 133 106 78
233 789 233 169 123 97
282 19 304 147 103 85
287 24 299 146 102 82
288 21 301 140 94 74
265 212 306 113 92 70
367 499 294 116 3 35
282 26 295 135 40 55
390 562 342 164 26 57
378 835 213 69 57 53
394 377 239 115 92 67
287 16 306 174 123 118
260 36 281 127 10 43
276 368 257 101 86 70
308 401 191 100 84 64
342 29 269 122 74 64
456 503 300 81 17 29
263 38 282 133 16 49
302 899 354 176 114 93
366 392 286 135 98 72
263 49 277 117 41 52
255 626 232 108 25 35
282 69 273 117 28 46
467 464 274 116 1 36
267 39 283 126 27 49
367 419 139 89 73 54
330 339 244 70 61 52
425 549 252 136 29 49
267 49 279 117 29 47
330 339 239 71 62 54
331 688 158 80 59 51
297 409 318 163 111 88
367 418 144 88 72 54
265 41 281 118 85 68
284 189 257 116 89 55
272 44 282 113 25 41
250 630 237 116 21 40
272 49 281 125 16 45
380 567 322 51 22 28
258 54 273 112 14 40
383 289 244 123 96 62
360 787 348 121 97 74
284 410 201 120 18 25
488 465 299 111 4 34
267 965 269 70 66 67
467 826 175 91 78 68
259 59 273 110 18 38
262 64 274 114 38 47
357 588 339 170 12 53
264 58 277 115 93 71
347 464 129 164 0 31
277 239 263 137 99 64
324 350 254 76 63 48
267 59 278 122 95 73
266 65 276 112 89 69
364 751 311 43 29 25
288 339 333 140 102 78
322 435 112 163 1 32
268 63 277 119 94 72
377 609 304 166 14 52
388 816 223 56 47 43
239 544 269 95 19 36
392 519 169 175 14 39
457 484 268 111 20 33
325 331 296 99 78 53
272 59 279 117 90 68
347 719 328 91 30 40
288 34 258 94 44 34
267 589 204 168 4 40
453 469 233 124 19 37
288 39 257 126 22 37
277 44 283 120 90 70
282 436 311 130 35 54
277 48 282 114 77 61
312 864 398 211 157 134
387 437 295 92 73 51
282 34 285 127 32 51
332 832 392 114 74 53
377 414 289 125 95 68
282 39 284 126 37 51
342 759 168 74 58 51
394 836 267 67 35 25
377 415 174 84 70 58
437 890 272 81 70 59
287 34 284 134 25 51
179 917 241 203 135 131
282 49 281 127 97 75
262 409 209 116 23 32
288 40 281 125 29 47
157 819 214 130 83 62
288 64 259 127 27 47
260 579 281 73 20 30
287 64 269 124 91 72
277 54 280 115 35 45
383 495 147 45 34 37
403 753 216 86 71 58
327 20 285 150 105 82
282 54 280 117 65 58
376 421 140 89 72 54
302 460 296 105 20 38
442 921 315 98 78 60
337 324 224 95 79 63
287 54 278 120 20 45
367 339 275 118 90 59
349 381 211 94 81 68
470 512 359 133 29 49
283 64 275 124 53 60
284 61 276 124 94 78
271 859 253 106 77 38
287 59 274 128 89 74
317 574 304 42 25 28
456 503 275 116 19 34
380 855 225 66 59 59
462 429 229 103 32 39
265 468 197 122 11 29
285 58 277 118 61 58
294 40 269 135 27 49
309 474 130 85 28 35
289 54 275 123 51 56
366 713 135 110 77 49
327 504 140 102 23 35
292 11 270 112 52 35
272 919 315 110 80 66
377 809 399 201 132 106
334 364 272 66 55 45
307 264 284 106 84 58
300 423 187 97 19 30
293 12 268 119 48 32
297 14 269 123 36 28
418 569 244 207 19 56
291 624 314 71 26 33
355 422 286 103 73 58
297 10 274 106 43 30
352 284 214 120 93 64
431 833 185 89 79 73
234 764 242 173 131 106
342 314 273 69 56 41
317 44 263 107 21 39
292 9 284 131 74 73
312 11 287 112 42 49
325 354 254 78 64 50
292 9 289 153 91 96
297 10 289 158 97 102
347 364 279 87 62 41
302 10 275 114 42 38
284 153 274 109 86 59
258 629 283 44 26 30
289 18 262 128 18 22
381 568 195 183 11 44
338 430 117 65 38 37
326 724 164 73 64 56
401 774 279 155 113 80
295 19 266 116 22 32
311 883 378 204 138 114
309 484 131 117 18 37
406 449 184 121 5 33
412 887 283 86 63 52
106 780 203 187 130 100
287 469 298 70 27 33
345 805 389 160 106 87
298 19 269 140 23 30
290 29 260 116 15 26
321 359 269 96 75 60
257 939 224 78 70 70
272 759 283 72 58 52
381 269 220 120 92 57
293 29 263 118 65 54
302 20 271 130 42 41
352 719 174 63 51 47
281 324 278 101 84 67
296 214 303 114 91 66
352 815 285 56 45 41
394 916 286 77 61 53
362 844 253 28 25 25
300 24 271 146 31 53
372 403 203 94 79 65
394 707 204 60 46 35
336 789 154 82 69 57
307 938 328 64 57 55
292 28 289 139 46 61
292 31 286 148 22 57
287 439 190 39 36 39
377 734 189 68 52 45
392 739 279 164 125 95
322 389 224 102 81 63
273 284 323 126 99 72
297 29 284 145 73 75
320 602 324 66 18 28
382 474 297 44 26 26
324 921 222 77 71 72
303 24 273 142 34 55
332 23 282 138 101 79
347 588 196 112 20 36
302 24 284 141 32 56
300 28 274 131 41 56
439 506 292 69 22 32
312 299 285 93 77 59
332 26 281 125 81 66
303 25 279 138 37 55
457 444 229 91 30 37
300 28 279 134 48 53
342 799 294 60 49 46
312 14 264 126 54 55
430 527 310 65 24 28
454 426 248 67 16 26
380 647 256 150 34 48
391 895 258 65 55 46
309 16 265 125 47 47
441 451 262 54 30 26
383 294 244 123 96 62
405 568 216 44 30 32
407 922 324 68 56 46
317 13 259 112 56 51
337 699 325 130 10 40
317 13 264 127 68 71
370 916 272 66 58 56
238 699 259 56 32 37
319 334 331 129 91 70
339 273 221 126 100 70
312 11 275 126 58 64
312 11 284 111 46 53
317 11 279 143 80 93
246 949 254 78 73 73
422 484 284 76 17 28
308 19 259 118 38 37
297 898 338 122 91 76
309 16 261 121 44 42
307 479 144 65 28 36
307 592 196 136 19 43
381 264 248 127 97 62
425 484 224 57 32 35
428 515 379 54 26 30
307 24 269 109 34 42
311 434 173 49 31 30
317 375 246 90 73 55
442 819 270 86 64 51
309 29 264 105 24 42
305 17 272 130 46 46
307 24 274 118 25 45
323 772 302 75 59 54
277 926 320 47 40 41
342 374 279 72 50 29
304 21 286 126 48 54
462 484 399 143 18 48
304 21 290 139 58 64
311 795 286 76 65 58
307 845 385 109 85 62
404 831 268 131 91 76
312 20 284 166 113 96
330 853 170 74 66 64
312 648 211 129 3 29
332 394 234 88 69 59
406 579 269 188 13 53
312 19 289 183 129 127
405 443 165 76 29 35
310 21 281 136 77 64
94 751 222 149 119 97
312 25 275 136 29 55
307 244 289 108 87 61
280 473 182 96 28 35
317 668 212 79 28 28
377 814 209 61 51 47
337 871 267 42 37 36
270 414 311 134 98 78
314 22 282 170 129 105
261 946 233 71 65 68
278 329 279 103 86 68
389 556 336 39 26 26
317 21 285 168 115 97
390 790 363 152 105 71
317 26 276 136 31 51
382 905 248 74 61 55
453 494 292 70 21 29
318 52 262 115 3 41
297 10 294 160 94 101
331 374 249 70 61 51
470 477 271 95 26 30
299 233 310 113 92 67
281 884 228 90 76 63
405 444 169 125 17 40
292 10 299 143 60 72
229 775 229 138 107 78
292 659 308 78 25 37
292 10 304 140 39 58
301 11 299 143 71 77
292 14 309 138 39 58
342 12 274 119 69 73
235 549 244 86 18 36
297 14 309 131 50 58
292 21 300 156 112 91
344 691 157 72 53 35
299 510 155 101 18 35
333 793 149 83 64 42
292 25 294 139 56 64
361 524 291 88 18 35
407 439 199 85 20 29
297 22 298 173 122 99
344 392 202 96 82 67
289 26 291 143 22 57
311 489 299 64 24 31
292 26 291 158 22 63
282 894 313 150 111 93
301 22 294 170 121 100
241 594 264 71 27 35
302 19 304 191 137 140
412 459 289 62 22 28
402 912 255 89 78 75
300 22 297 169 110 95
330 364 244 71 61 52
202 784 187 149 102 64
328 418 290 78 59 43
307 13 290 115 61 64
327 384 274 106 76 59
367 364 214 89 79 69
395 552 338 39 27 28
304 12 290 148 90 95
424 499 218 123 12 34
446 823 199 96 79 65
357 749 179 61 50 44
313 14 293 122 65 58
285 77 259 132 24 48
251 869 294 131 65 70
363 714 139 99 74 52
305 15 303 124 89 67
254 629 278 46 28 32
289 516 293 52 23 28
316 12 290 123 39 52
318 474 290 86 55 58
317 13 295 130 50 57
377 754 194 73 53 45
372 918 279 67 58 54
319 13 297 136 35 57
305 18 294 147 95 83
244 674 264 55 29 35
334 391 210 90 77 63
313 18 293 163 112 99
362 434 298 117 17 40
327 873 184 69 63 64
379 865 223 64 60 60
261 84 271 90 69 52
305 17 303 154 103 87
292 705 201 106 15 24
254 602 221 146 30 47
318 838 417 189 139 117
291 39 260 139 24 40
297 34 269 122 50 54
264 471 196 125 10 28
175 900 227 138 97 78
295 38 269 128 16 46
348 290 216 108 86 61
251 644 274 102 17 38
382 544 178 53 34 38
261 654 227 76 28 32
434 516 361 66 22 30
276 114 273 115 90 62
230 569 249 110 19 41
400 404 239 106 86 64
342 551 172 170 21 47
289 44 257 108 48 37
291 44 260 137 35 49
344 356 221 83 74 65
361 460 127 171 2 32
251 944 300 47 42 43
291 49 264 117 56 57
291 49 269 123 63 65
267 619 218 129 12 38
279 132 276 113 88 59
247 599 273 79 25 35
418 479 209 53 31 32
293 35 280 125 82 69
502 445 294 126 21 43
290 38 282 131 20 45
284 456 186 44 36 37
291 44 278 120 17 43
326 814 162 97 71 52
376 365 216 99 85 70
397 429 134 119 52 43
290 53 260 127 13 41
331 853 164 88 72 62
290 54 269 117 30 47
282 499 175 78 28 32
392 364 239 116 94 68
257 769 265 81 65 60
330 854 262 152 108 88
318 384 314 147 104 86
289 56 271 116 77 62
377 739 193 64 48 41
342 274 218 124 98 69
270 941 222 75 69 69
386 329 239 121 95 66
289 59 259 114 42 47
437 489 284 71 22 31
282 169 293 107 88 66
326 344 294 98 76 51
290 57 261 119 2 40
290 57 263 106 30 40
325 374 264 83 68 51
388 543 296 102 6 33
439 526 323 70 18 29
289 50 276 122 8 41
290 53 273 120 22 43
340 326 222 94 79 63
310 35 260 91 38 38
312 34 264 107 19 39
342 269 255 90 74 56
316 36 266 103 42 40
332 394 219 89 75 60
292 794 184 54 46 42
235 529 229 140 0 36
317 39 265 113 8 39
422 839 189 76 65 58
314 49 258 103 47 51
406 769 247 54 41 34
316 49 260 104 11 38
391 359 244 118 93 63
427 519 364 53 25 28
316 853 163 71 60 55
359 411 287 126 90 69
318 49 262 107 15 38
347 687 200 54 42 34
337 849 258 131 93 74
299 506 156 102 30 46
184 922 249 180 110 108
322 299 299 103 84 63
317 54 259 115 47 51
267 134 283 107 88 68
318 58 258 130 92 76
260 70 271 105 90 72
436 829 179 90 78 69
260 74 271 116 44 51
261 79 271 103 49 48
263 79 273 106 56 53
385 867 238 76 70 67
412 543 314 44 28 30
99 764 227 167 128 108
267 69 276 114 25 43
269 67 277 110 45 46
272 68 277 117 24 45
267 624 220 104 22 37
314 429 170 79 27 35
372 374 214 91 79 68
244 709 292 81 27 38
277 429 314 83 30 39
339 916 232 63 56 56
442 864 255 82 68 57
272 70 276 113 50 52
267 74 275 116 20 42
302 880 360 107 74 59
267 79 275 108 34 45
272 74 276 111 86 63
260 88 271 95 38 37
277 79 274 111 84 63
474 481 294 96 40 51
267 89 274 108 55 51
306 882 382 213 155 129
267 868 300 97 44 47
335 298 255 82 65 46
381 592 307 58 21 29
274 390 240 106 91 75
272 89 275 115 23 42
267 94 275 105 48 50
326 399 284 119 83 64
410 814 251 72 57 49
235 529 239 150 0 42
352 399 283 129 89 70
362 854 260 35 31 29
286 69 259 118 77 63
400 761 259 136 98 68
346 379 280 90 62 44
284 80 259 130 17 45
423 453 239 55 29 24
499 460 314 142 27 48
380 299 225 117 91 61
262 719 301 187 6 60
285 77 263 136 13 49
280 79 272 107 60 51
255 530 197 36 30 29
381 629 239 91 30 40
318 700 322 123 14 40
498 451 313 77 19 32
260 209 300 114 93 69
410 420 211 113 16 30
284 84 259 109 38 42
272 744 293 45 27 30
479 479 319 126 6 39
404 444 154 51 36 35
93 759 200 164 119 92
392 714 219 63 44 35
283 89 264 113 83 59
281 89 269 120 78 64
380 319 226 120 95 66
300 255 322 113 92 68
283 94 259 124 20 43
282 94 264 120 18 44
358 620 217 96 33 37
374 338 266 115 89 57
277 84 274 114 32 45
177 869 243 110 81 65
305 502 287 53 47 48
263 455 201 125 9 30
277 89 273 121 16 44
259 99 272 109 89 69
240 688 254 115 22 41
388 450 123 168 16 38
346 448 303 133 15 43
347 684 205 74 50 39
262 109 274 110 92 73
267 109 276 111 91 70
272 109 275 113 90 66
338 401 186 92 78 63
377 465 127 122 22 40
258 114 272 108 91 75
258 119 273 108 91 73
287 264 273 132 91 62
363 278 266 111 89 64
262 114 275 107 89 70
264 116 277 107 88 68
258 499 195 64 28 35
238 544 224 142 3 34
390 361 231 105 86 66
328 399 274 110 76 60
263 119 277 106 88 69
289 207 306 111 91 68
259 126 277 106 89 72
298 244 273 120 91 56
253 928 320 131 90 86
424 866 256 82 66 51
215 909 243 84 54 42
258 130 277 107 90 72
262 129 279 106 89 71
442 499 248 114 22 45
246 753 203 96 83 70
404 434 188 107 12 31
267 119 278 107 88 67
271 115 277 109 88 66
351 829 184 59 54 54
267 124 279 107 87 67
345 792 387 158 113 92
272 124 279 108 88 65
327 13 259 106 70 58
402 898 269 75 63 53
264 386 265 109 88 65
267 128 281 107 87 67
432 524 233 55 27 34
279 110 259 120 87 62
143 803 231 99 75 54
433 825 208 93 80 70
279 109 269 118 87 62
410 735 231 79 49 40
278 542 292 175 12 56
307 344 265 91 77 61
282 99 259 128 56 59
351 809 359 182 127 105
281 99 264 121 79 63
332 411 154 84 67 51
415 572 236 198 15 51
280 104 264 118 85 63
239 929 274 120 89 79
336 284 254 86 69 52
280 98 268 118 85 64
280 108 259 125 88 65
357 344 217 88 78 69
280 108 263 119 84 63
276 109 273 116 90 62
375 324 221 112 89 63
279 114 259 117 88 60
324 329 289 84 68 50
266 230 262 139 102 64
278 582 196 138 19 43
279 114 269 115 86 59
279 124 264 108 84 55
279 124 269 110 84 57
274 476 186 117 12 30
279 127 267 107 83 55
417 539 314 65 20 30
463 525 334 67 28 35
280 119 260 115 88 60
307 474 144 61 30 32
372 434 111 90 37 36
280 116 262 115 86 58
264 198 256 132 99 62
234 787 181 120 89 48
272 919 205 78 67 65
375 289 257 128 98 63
280 124 260 113 88 57
334 386 220 85 72 61
170 904 240 181 130 125
280 129 259 114 89 58
280 126 270 110 85 57
404 469 159 90 29 39
332 504 286 77 22 32
278 124 274 112 88 60
279 129 275 112 87 58
327 13 264 124 83 84
263 629 225 135 7 35
327 12 269 150 108 119
277 179 298 108 89 70
297 199 279 111 89 65
410 564 220 107 26 42
307 390 214 103 87 70
332 13 259 101 67 55
399 606 280 167 16 47
445 464 253 78 22 32
172 788 223 173 124 107
332 13 264 115 73 71
373 595 207 40 33 39
374 571 313 45 26 28
95 771 221 191 137 115
322 11 279 165 106 123
322 12 273 165 113 127
283 577 191 172 11 45
327 12 273 165 120 134
398 484 153 71 36 40
327 11 284 166 101 119
248 899 299 157 121 101
384 694 274 43 30 35
331 11 279 170 122 138
386 416 184 74 54 46
326 384 244 125 89 68
287 397 214 99 87 76
357 434 115 66 30 37
167 793 214 186 131 108
333 811 143 84 64 56
337 12 279 151 106 119
331 11 284 173 114 132
353 725 139 90 60 51
487 475 309 105 22 37
333 12 284 167 107 125
426 518 380 76 22 33
404 449 168 93 31 38
256 644 233 77 31 36
281 225 317 112 92 71
382 417 164 76 56 46
357 510 152 82 30 37
453 510 278 155 17 37
363 649 300 146 16 47
326 937 327 65 57 55
337 14 284 155 97 109
406 814 220 72 57 51
322 18 289 175 122 107
297 564 301 47 27 29
170 899 241 169 120 115
322 30 271 129 60 59
274 324 318 139 104 78
332 30 270 133 31 52
327 824 159 99 76 62
160 830 233 103 76 55
202 915 228 177 127 120
382 695 209 57 47 38
114 807 219 207 143 119
337 30 269 130 59 62
287 354 259 100 87 74
300 356 251 103 87 70
310 264 314 114 92 66
255 889 247 133 99 69
322 20 285 154 107 86
322 25 279 134 59 64
327 18 288 190 145 142
163 763 226 121 100 78
330 364 249 70 60 50
277 225 317 109 89 68
322 28 274 134 84 72
425 892 251 74 58 41
421 552 338 194 11 60
388 629 269 75 33 38
322 26 276 137 47 58
330 402 256 92 68 52
319 887 138 90 74 58
332 19 285 148 104 86
325 359 245 76 64 54
336 795 149 82 63 44
337 19 283 137 96 81
355 577 338 34 28 25
234 550 262 89 12 31
297 681 206 44 33 34
264 369 284 120 96 69
332 28 274 130 55 59
332 27 278 146 33 59
241 724 284 177 9 55
387 417 179 69 43 38
337 25 280 122 76 64
287 899 184 92 81 79
172 774 190 156 102 68
239 738 273 184 9 57
183 864 223 148 100 80
272 924 315 84 64 56
352 19 259 118 27 46
351 19 264 94 47 45
261 514 285 48 24 27
269 299 313 140 103 77
350 16 268 104 29 42
350 23 269 124 16 45
413 910 275 66 55 54
109 798 223 194 140 121
236 729 254 163 2 50
264 239 312 117 95 71
392 409 214 85 73 59
379 821 350 181 120 95
292 973 264 51 47 46
352 24 259 110 22 39
416 907 278 64 54 51
477 509 339 202 17 56
246 734 218 121 99 76
350 27 263 137 103 87
287 909 313 122 92 74
345 597 338 172 11 53
346 28 269 136 43 57
278 630 303 62 23 29
349 26 266 124 52 57
127 804 236 168 129 112
342 24 279 132 49 60
273 740 191 79 29 31
290 349 262 97 84 70
297 534 293 66 26 32
341 19 282 140 106 99
441 529 280 121 25 41
342 28 274 140 38 60
276 196 307 110 91 72
239 602 240 157 15 45
437 504 384 68 23 29
341 27 277 151 14 58
348 244 258 98 78 56
343 894 223 70 62 62
323 870 179 69 62 63
341 420 288 62 47 34
382 534 295 108 1 34
348 740 159 53 43 39
347 24 274 132 36 55
452 533 334 199 19 60
358 820 425 195 134 104
137 813 236 149 116 100
346 23 278 124 22 46
382 824 214 65 53 48
397 899 239 84 71 65
312 294 339 112 88 61
345 27 273 138 56 65
344 26 276 148 14 57
245 889 294 165 116 101
284 154 279 109 87 60
327 389 284 114 81 62
142 764 190 133 94 56
322 11 294 143 36 61
327 15 290 156 71 86
282 504 174 47 34 36
365 782 348 104 84 64
315 433 164 53 31 33
481 474 344 129 11 43
276 859 244 111 87 58
323 16 291 137 65 68
327 13 294 155 26 62
395 503 160 75 28 34
322 13 297 146 33 61
332 594 309 103 1 32
95 747 208 100 88 76
330 11 292 154 38 67
331 13 294 157 26 62
320 18 292 168 116 96
303 419 185 87 24 32
330 369 244 71 61 52
357 704 179 61 49 40
322 34 268 126 18 47
474 471 374 68 17 28
327 37 267 136 15 49
305 473 163 57 34 32
288 894 311 142 97 79
146 804 205 137 83 58
261 654 290 148 9 46
321 958 273 67 61 62
327 39 265 124 38 52
223 789 223 136 107 78
322 49 263 122 84 66
297 469 174 53 36 35
390 716 222 64 43 33
270 239 316 116 93 69
327 48 262 131 99 75
327 714 329 158 15 50
332 39 264 123 36 52
362 454 294 119 6 37
382 574 200 183 11 44
337 39 263 130 15 48
306 341 266 90 76 61
337 34 265 119 53 54
332 44 263 120 85 67
336 416 130 86 70 51
337 44 260 114 35 47
304 445 176 36 35 34
356 689 313 141 7 44
155 816 224 109 71 48
335 42 262 112 23 42
268 891 226 136 92 60
333 45 261 106 37 39
362 834 194 69 58 54
428 890 253 84 66 48
337 49 259 121 21 46
381 759 297 167 129 96
322 55 261 116 24 45
396 544 190 179 12 42
322 52 262 117 49 49
474 471 272 85 29 38
237 815 187 208 140 114
367 349 217 92 81 71
197 784 189 157 105 68
297 830 203 129 87 66
328 50 261 126 97 74
312 499 303 147 12 46
257 961 289 64 59 58
424 886 241 102 81 69
379 494 297 112 6 34
327 54 260 119 60 57
400 458 145 162 17 41
334 390 214 87 75 62
323 63 257 109 55 55
327 64 258 120 13 43
344 855 198 67 61 63
292 324 275 89 76 63
197 754 194 99 84 67
334 370 226 77 67 58
396 609 244 101 32 44
352 920 329 40 35 33
257 729 200 100 40 35
337 54 258 118 57 57
389 616 238 56 33 35
377 784 314 114 84 59
380 304 225 124 97 66
297 374 328 163 115 90
262 394 224 91 50 41
346 443 308 40 24 27
272 134 282 109 88 66
396 708 222 64 48 34
332 59 258 117 73 61
332 806 286 46 39 38
336 58 257 130 102 78
390 734 287 84 21 35
361 706 207 96 63 51
384 314 234 116 92 64
307 424 179 56 31 33
310 576 187 194 9 42
341 38 262 133 15 50
261 649 228 122 14 32
342 39 260 127 28 48
338 41 261 123 17 44
386 928 299 91 71 61
341 44 258 133 107 84
284 202 306 110 91 70
340 48 257 121 59 60
347 859 200 65 57 56
364 827 197 73 61 57
362 924 324 79 66 59
386 349 259 120 96 68
347 34 259 122 37 50
352 471 291 110 9 34
376 583 333 87 35 43
346 38 258 131 17 48
357 229 261 110 89 66
400 753 206 62 48 42
384 591 306 58 22 28
324 67 257 116 8 44
328 784 130 97 74 53
326 67 257 112 23 43
261 134 280 105 88 69
330 483 131 84 35 41
314 866 156 114 90 75
249 714 297 145 15 47
263 135 282 106 88 69
280 135 277 115 90 61
386 329 244 124 96 64
259 140 282 107 89 71
315 418 302 145 104 84
260 138 281 105 88 69
341 334 223 84 73 60
262 139 283 105 88 69
134 747 221 99 83 68
357 490 143 168 5 39
262 144 284 107 89 71
342 819 278 47 38 35
267 131 282 106 87 67
339 789 163 69 56 46
247 803 233 155 119 94
267 139 284 107 89 69
272 139 283 109 88 66
352 469 132 169 0 32
272 144 285 107 87 65
258 149 283 110 91 72
288 395 220 105 90 73
416 469 204 35 32 35
261 149 285 107 89 71
442 425 225 130 12 27
263 150 287 107 89 71
222 819 204 199 139 108
292 239 268 125 91 54
235 763 228 123 101 79
259 160 287 111 92 72
260 154 286 108 90 72
318 704 184 55 44 36
412 519 289 49 26 28
328 806 410 129 105 78
149 797 214 124 73 52
110 790 231 182 135 118
262 154 288 107 89 71
461 814 205 99 79 63
484 461 331 92 25 35
262 159 289 109 91 72
306 646 212 149 12 36
267 146 287 106 88 68
267 149 288 106 88 69
403 444 149 124 22 37
279 134 257 121 93 59
327 594 309 107 0 33
237 724 269 172 5 51
392 834 234 66 53 47
279 140 257 118 91 59
398 795 216 63 49 45
419 922 332 81 64 51
280 134 264 108 85 58
324 359 244 73 62 52
280 134 269 108 84 57
280 139 259 116 91 61
377 425 124 90 73 53
293 875 189 39 36 38
267 234 264 137 99 62
281 139 264 110 87 61
351 804 359 170 122 101
282 960 309 66 60 57
387 418 164 81 51 43
281 144 259 116 92 61
472 510 314 197 15 51
254 910 235 74 67 68
242 684 264 54 28 34
281 139 269 109 85 58
322 739 159 56 47 40
147 772 227 165 120 102
321 829 421 180 134 112
480 491 374 162 13 47
282 144 269 109 86 60
383 932 293 81 62 57
277 134 279 112 89 63
273 133 281 110 89 65
277 404 203 121 20 29
471 469 280 110 54 59
279 143 281 112 89 64
339 344 226 77 68 61
209 812 203 208 146 114
280 134 274 112 88 59
280 140 278 114 90 61
261 424 305 112 20 38
282 144 274 109 85 58
281 144 279 111 88 61
295 863 385 163 127 105
146 799 205 135 81 59
423 560 249 149 25 52
279 149 257 113 87 54
395 431 126 181 31 48
458 490 293 79 19 30
328 676 206 81 45 38
283 149 264 110 88 63
298 504 159 93 17 31
283 149 269 109 87 62
280 154 256 116 90 56
238 599 244 162 8 48
347 509 148 182 7 35
394 782 310 134 104 71
272 211 257 132 101 64
284 154 264 110 88 63
429 526 307 59 24 29
321 314 329 106 81 53
300 508 153 101 14 32
359 412 167 91 76 61
282 159 259 115 89 57
331 374 244 71 62 53
382 409 209 95 78 61
285 159 264 109 87 62
284 153 269 109 87 62
359 897 270 46 41 39
272 154 289 107 88 68
373 689 238 68 30 39
279 152 286 108 87 63
322 384 239 100 78 58
385 932 292 85 65 62
342 399 283 78 50 32
317 544 164 95 29 39
409 439 259 78 64 49
277 219 315 109 90 70
282 149 279 109 86 59
405 459 169 138 11 37
382 713 186 81 58 47
285 156 278 110 87 61
322 784 295 69 55 51
285 159 279 108 86 60
311 888 179 77 69 66
357 284 213 120 93 63
397 809 213 70 55 48
282 154 284 109 87 62
250 514 202 138 5 34
280 155 287 108 87 63
284 157 281 108 86 61
267 824 219 57 47 44
353 824 184 59 54 53
285 160 283 107 85 60
267 160 292 107 89 69
244 916 251 70 63 61
240 689 259 87 26 38
272 158 291 107 88 69
337 864 263 48 41 37
441 537 342 180 32 66
271 160 292 107 88 68
277 159 290 107 88 68
335 947 251 69 64 69
259 182 256 135 101 62
260 185 257 135 102 62
391 734 244 45 35 32
402 409 229 84 71 59
260 189 257 133 101 61
282 164 259 117 90 57
421 564 239 195 19 54
334 269 229 127 100 71
280 165 256 123 93 56
382 565 324 47 29 30
400 887 226 79 66 61
190 761 217 107 88 69
290 865 227 115 91 68
372 825 334 176 121 95
314 387 242 92 77 62
262 524 288 54 27 29
283 169 259 119 91 56
304 239 279 111 87 57
286 164 264 109 87 61
347 350 221 84 74 65
285 170 261 115 89 55
262 679 294 74 21 34
389 916 272 74 65 61
283 174 258 122 93 56
400 404 234 100 83 65
288 174 264 112 88 60
443 539 294 138 20 42
325 329 299 101 79 53
287 169 284 109 87 61
296 365 241 104 89 74
287 174 289 107 85 61
376 411 194 92 78 65
361 729 180 57 46 40
332 389 264 68 56 45
312 569 303 30 26 29
283 184 258 114 88 55
322 384 234 108 82 61
289 560 297 33 25 30
288 178 263 113 89 61
337 695 159 69 52 38
286 184 260 116 92 61
308 419 180 95 23 33
286 189 260 115 89 57
366 777 363 93 77 60
407 454 294 61 24 27
387 560 193 141 21 44
322 524 288 84 9 29
262 164 290 112 93 75
322 309 294 95 76 54
261 168 291 113 95 76
264 165 292 110 92 74
304 234 283 110 87 61
259 174 292 116 96 76
300 478 167 95 26 31
262 174 294 114 95 77
267 169 295 108 90 71
272 164 293 107 89 69
272 169 295 107 88 69
403 826 233 83 64 50
292 895 370 213 157 133
446 814 240 93 75 60
266 174 296 111 93 75
268 175 297 110 92 73
117 784 195 178 121 90
405 464 174 135 9 39
378 319 223 122 96 66
269 171 297 104 85 66
371 714 304 152 13 46
447 533 344 190 18 60
473 485 278 92 30 41
270 171 297 105 87 67
264 477 292 174 17 59
332 747 151 71 54 43
272 174 297 107 89 70
326 379 254 94 72 56
364 827 299 150 105 82
274 365 260 103 87 70
297 893 344 119 87 71
384 694 259 34 31 36
259 179 293 118 97 75
305 684 311 46 28 30
437 504 269 79 23 33
392 811 217 54 42 38
307 509 300 143 12 45
262 179 295 115 96 77
282 414 317 162 116 95
470 507 296 191 21 49
264 180 297 112 93 74
260 188 296 116 95 73
251 669 280 39 28 31
244 614 254 92 26 39
262 189 298 113 93 71
278 484 181 120 11 30
132 747 203 103 89 74
267 179 298 109 91 73
267 184 300 108 90 71
388 422 143 90 75 62
283 834 239 157 113 89
430 832 187 85 75 70
312 734 188 42 36 39
342 324 220 96 80 64
249 634 272 147 8 46
362 309 216 98 81 63
348 664 222 39 35 41
332 299 229 112 92 71
208 757 206 87 71 55
272 179 299 108 89 71
278 544 176 47 29 35
280 269 326 120 95 69
266 189 301 110 91 72
269 186 302 107 88 69
272 185 302 108 90 71
322 894 293 121 81 70
380 577 201 183 10 43
307 619 210 50 35 36
277 165 292 106 87 67
287 244 323 114 91 67
337 444 314 120 21 42
278 163 291 107 88 67
278 173 296 108 89 69
362 440 118 173 2 41
317 474 123 101 26 36
301 784 285 78 61 56
307 625 320 91 31 40
311 414 178 111 13 33
492 449 279 82 21 34
156 820 228 100 70 49
274 172 296 108 89 70
257 634 284 92 25 36
307 284 285 88 71 52
299 410 191 118 21 31
411 569 274 159 14 41
280 166 292 106 86 64
282 174 294 106 86 64
372 835 269 72 48 37
346 401 186 92 78 63
417 909 269 72 58 56
285 171 292 107 86 63
301 509 149 112 15 35
269 335 294 127 99 68
277 184 300 108 90 71
278 649 216 121 14 31
337 579 304 96 3 31
278 210 257 129 98 61
414 569 260 180 11 53
395 533 181 123 18 40
276 186 302 109 91 72
277 189 303 109 91 72
289 179 289 105 84 59
377 575 336 55 23 32
286 184 297 108 88 65
330 369 254 69 59 49
281 190 302 107 89 69
387 905 269 56 47 40
289 169 269 108 87 63
289 173 268 108 87 62
361 577 328 38 27 28
312 484 129 56 33 39
290 171 278 111 89 64
392 889 224 75 66 60
236 739 249 93 51 54
291 174 274 111 89 64
197 899 234 116 78 69
383 794 209 76 58 49
474 490 313 97 14 32
287 289 333 125 93 68
308 819 189 59 51 51
290 174 279 111 89 64
437 523 344 72 21 28
289 172 281 110 88 62
384 707 286 126 11 37
316 849 272 156 115 90
391 394 220 104 87 68
291 184 265 110 88 63
465 512 373 150 26 58
446 523 378 137 30 52
362 420 129 89 73 56
306 259 319 114 91 65
341 587 306 103 1 32
291 179 269 106 85 61
278 304 286 117 91 64
325 390 230 108 82 63
289 189 262 118 94 65
382 423 134 89 73 54
265 418 207 122 16 30
202 899 220 140 103 84
277 289 284 119 89 61
387 469 134 107 29 40
294 189 269 107 87 63
292 219 264 123 91 53
461 849 249 91 67 55
295 191 270 109 88 64
465 502 329 63 25 29
292 179 279 111 89 64
293 184 274 110 88 64
307 409 184 106 24 26
291 179 284 111 89 64
289 178 286 109 87 63
337 344 228 77 68 59
197 921 251 122 80 73
315 424 159 42 30 31
478 484 344 89 1 31
278 967 250 97 92 92
291 184 289 107 85 60
418 530 354 70 19 25
295 190 274 109 88 63
427 893 269 76 64 56
428 531 318 82 15 28
247 654 264 55 30 35
295 190 279 110 88 63
246 654 249 61 31 37
293 189 289 111 89 63
452 514 324 52 27 28
289 188 296 109 88 63
384 422 142 89 73 58
309 396 201 100 85 70
290 185 293 107 85 60
383 304 234 116 92 65
352 929 324 63 53 48
291 189 294 109 87 61
272 644 220 130 2 30
345 827 171 58 54 53
270 339 300 130 100 70
398 599 234 93 33 42
290 190 297 110 89 64
243 889 260 159 110 88
342 504 145 182 5 35
414 438 217 50 35 35
332 605 329 158 18 51
258 194 260 132 102 64
243 909 259 153 116 94
255 519 197 140 2 34
259 209 261 134 103 64
317 504 138 120 28 42
446 454 254 88 17 31
262 204 258 131 100 63
130 830 224 210 148 123
262 209 259 132 100 62
268 851 297 160 123 98
264 370 298 127 100 69
322 664 315 149 20 51
265 204 257 132 100 61
267 209 257 133 101 64
313 730 191 44 36 38
292 514 289 39 26 28
453 444 246 63 28 33
373 550 177 78 29 38
240 894 269 166 118 101
260 215 262 134 100 62
271 234 316 114 92 69
352 599 328 184 8 58
377 284 219 113 88 57
237 809 185 186 125 93
258 219 265 137 101 65
261 219 263 136 101 65
263 218 261 134 100 63
447 524 284 200 21 53
462 454 264 117 4 34
262 224 263 138 102 65
258 223 266 140 102 67
157 786 220 168 117 99
342 423 309 84 44 38
387 809 214 64 51 46
267 214 258 134 101 63
272 214 257 133 102 64
472 505 374 105 26 41
305 402 317 156 105 84
267 219 259 135 101 63
267 224 260 138 100 64
255 539 197 120 33 45
407 903 259 74 62 51
462 454 260 107 7 30
264 222 261 136 99 63
234 539 239 148 0 40
272 219 258 134 100 62
436 549 304 184 12 56
300 442 182 46 35 34
426 887 294 72 58 54
272 224 259 136 101 63
372 413 174 89 75 61
277 208 256 129 99 63
287 194 260 119 91 55
441 544 299 197 17 56
280 208 256 128 97 60
386 573 201 182 11 42
282 209 258 125 94 58
323 319 294 95 76 53
359 708 205 94 62 50
287 204 259 123 92 56
202 760 213 101 82 61
277 214 257 131 99 62
277 219 258 131 98 61
270 352 277 119 95 68
277 224 259 132 98 61
478 433 263 97 26 38
450 845 289 57 45 36
287 214 260 123 90 56
398 550 303 77 16 30
431 456 267 63 39 32
282 219 259 126 95 59
282 224 260 128 95 59
493 469 294 165 17 45
286 219 261 124 92 55
347 399 283 109 72 57
422 499 285 59 24 29
288 224 263 125 90 55
325 391 226 103 80 61
437 509 270 62 27 33
308 392 226 102 86 69
357 694 313 139 5 42
258 194 294 117 95 71
261 269 304 143 103 78
353 700 164 69 60 53
295 418 192 113 21 28
259 195 297 117 96 73
255 930 311 124 85 77
317 834 269 161 121 96
257 724 299 185 11 59
343 374 220 89 79 68
348 581 192 185 15 46
301 438 307 33 29 29
262 194 299 114 93 72
259 204 298 116 94 70
362 299 215 100 83 64
392 569 335 142 27 52
258 209 298 113 91 67
140 836 217 199 139 113
264 901 226 110 83 64
411 419 214 118 12 34
307 659 211 87 19 28
262 209 304 115 93 71
267 194 303 109 90 71
282 454 189 54 36 35
271 198 306 108 89 70
343 875 145 83 77 77
369 827 318 182 125 100
266 204 305 111 91 70
406 474 174 144 12 37
280 887 224 83 72 64
136 818 237 159 122 105
266 208 306 112 92 70
409 468 188 121 10 32
410 750 211 76 61 57
272 549 288 180 11 56
419 530 212 95 26 38
268 205 307 108 89 69
151 854 234 199 146 131
384 626 242 107 33 37
146 800 228 100 69 50
383 279 234 124 95 60
308 888 169 77 66 61
272 204 309 110 91 71
432 469 235 56 34 36
272 209 310 109 90 70
240 766 251 183 144 119
258 214 299 114 92 68
418 489 204 115 17 34
395 723 196 66 48 42
217 771 186 99 80 59
421 563 253 182 12 56
412 870 211 71 61 61
397 899 312 52 44 38
383 269 244 126 95 61
372 794 199 66 53 46
381 274 248 125 96 61
377 603 215 60 33 38
401 504 292 59 20 26
260 213 301 114 92 68
200 871 235 121 101 96
280 328 277 102 86 70
263 813 233 62 50 47
330 299 234 115 94 72
272 249 319 118 94 68
183 762 192 106 83 55
259 224 303 116 94 69
324 377 286 107 76 56
182 864 240 126 100 85
317 733 322 153 22 52
315 419 154 116 6 38
261 224 305 115 93 70
352 434 118 161 6 37
263 224 308 116 95 73
286 840 224 170 123 91
347 274 260 84 68 51
385 628 287 105 33 45
442 884 240 113 93 81
321 369 249 128 97 68
267 214 308 111 91 70
137 747 203 107 92 76
353 777 307 61 51 47
264 215 307 114 93 70
450 489 239 175 15 46
271 214 311 109 90 70
378 716 225 57 33 33
447 504 391 98 30 42
267 409 309 139 106 82
267 219 310 112 92 71
270 218 311 111 92 71
334 323 226 94 79 63
403 898 250 80 70 62
326 364 284 99 73 52
347 289 217 111 89 65
272 219 313 110 91 70
334 264 226 131 103 72
269 221 312 111 91 70
157 750 195 91 79 68
437 494 254 143 14 43
282 194 304 107 88 69
282 739 190 122 15 30
248 694 289 47 29 31
284 192 301 105 86 65
277 449 194 73 34 34
288 193 300 109 89 66
274 196 307 108 90 70
277 825 197 72 58 54
325 334 304 103 81 54
277 199 308 109 90 70
362 413 164 90 75 60
173 767 226 123 102 81
277 204 309 110 91 71
343 649 222 70 30 31
295 438 187 102 28 32
332 949 269 67 59 57
277 208 311 111 91 70
290 880 381 199 149 131
282 209 310 110 91 71
286 861 302 153 120 86
329 777 302 70 56 52
420 892 292 67 54 51
414 443 250 67 55 42
288 203 305 109 89 68
277 748 292 68 50 46
286 205 307 110 91 69
272 664 299 160 14 50
452 534 319 189 16 51
382 422 139 89 73 55
382 430 119 85 62 47
353 703 321 115 13 40
278 798 262 45 37 41
287 209 309 110 90 69
269 649 297 162 13 52
402 914 329 57 46 38
450 497 367 86 3 29
277 210 312 111 91 71
276 223 316 109 89 69
413 579 249 204 18 57
424 472 227 46 36 35
336 259 249 98 79 59
283 213 311 110 91 70
287 214 310 109 89 68
368 393 207 91 76 63
337 778 125 118 89 65
280 211 312 111 91 71
363 682 219 50 37 36
282 214 313 111 92 71
258 234 270 144 102 67
262 929 340 171 122 111
259 238 271 146 102 70
247 749 274 63 29 36
342 289 264 78 67 57
261 234 268 143 102 66
286 849 228 139 103 76
272 364 319 139 105 78
265 226 262 138 101 65
474 511 350 95 25 39
268 228 261 140 103 63
403 768 218 77 62 53
383 704 249 72 24 33
270 231 262 139 103 64
328 422 117 180 25 23
256 934 324 98 68 61
272 239 264 142 100 66
282 240 322 115 93 70
261 961 254 88 83 84
367 405 194 90 77 65
265 240 267 143 100 68
428 901 274 70 59 50
358 434 300 115 14 39
262 244 270 147 102 69
457 499 394 126 27 49
337 444 123 63 34 37
327 384 289 113 79 59
267 249 269 147 100 69
273 248 266 145 101 68
272 250 268 147 102 70
325 334 309 104 81 53
300 214 274 112 88 61
268 253 271 148 100 69
250 674 280 77 33 39
272 254 269 146 100 69
259 248 276 153 105 75
325 369 244 109 82 61
258 249 279 152 106 75
260 245 272 150 104 71
112 754 229 138 110 86
261 389 269 114 92 69
262 249 273 152 103 73
166 879 234 189 137 122
259 253 280 153 104 74
263 254 275 155 104 73
377 695 219 62 36 30
248 782 182 108 84 54
261 255 278 156 106 77
269 254 317 123 96 70
277 765 280 70 57 51
258 254 284 152 106 77
400 444 140 163 18 41
184 917 235 214 153 144
257 254 289 150 105 77
265 251 272 152 102 73
266 254 273 152 102 71
352 391 206 92 79 66
258 424 299 47 25 29
277 229 260 132 98 61
277 233 261 133 98 61
277 235 262 134 98 61
274 230 317 109 89 67
282 228 261 129 96 60
317 403 184 91 75 60
272 854 298 160 125 99
432 424 234 83 32 39
371 859 211 74 62 59
283 230 262 128 95 59
436 498 286 45 26 28
439 541 292 152 15 39
282 803 186 61 51 46
285 227 261 127 94 57
295 498 167 108 10 30
413 774 224 68 53 45
236 734 239 125 101 81
282 239 264 129 95 59
366 269 211 125 96 61
287 234 264 126 93 57
346 458 297 35 22 27
287 239 265 126 91 58
277 244 264 139 100 65
352 679 194 58 47 37
262 923 315 103 75 63
277 249 266 142 100 68
148 752 221 109 90 71
94 755 200 129 100 71
276 251 267 145 101 71
282 248 266 135 96 65
287 249 268 130 93 59
339 774 168 66 53 48
382 679 274 68 32 38
248 534 205 108 24 36
283 250 267 134 95 65
298 877 387 204 144 123
317 379 245 88 73 55
116 786 197 179 122 90
482 469 349 92 12 33
348 804 379 177 121 100
303 690 312 88 24 34
309 385 321 153 104 84
282 319 329 139 104 77
287 254 269 130 92 60
259 229 303 119 96 70
409 747 232 52 38 34
260 229 306 118 95 71
357 418 134 89 73 56
262 229 309 115 94 72
403 459 296 65 20 25
414 845 195 74 64 61
89 755 206 144 107 81
260 234 306 118 94 68
439 546 299 199 18 56
399 422 188 100 21 29
262 234 309 118 95 71
287 254 325 118 94 68
454 506 350 57 28 28
260 239 306 119 95 68
281 419 202 123 15 29
152 843 216 191 133 110
461 473 275 94 50 56
265 228 311 113 92 70
334 304 225 110 91 70
292 209 304 112 90 66
276 831 208 60 51 51
403 429 164 47 31 35
376 696 222 68 35 32
265 232 311 114 93 70
192 874 224 124 90 61
383 699 184 78 59 46
235 554 240 67 23 37
264 236 312 116 94 71
272 239 318 116 93 69
240 702 276 137 9 41
258 249 304 125 97 69
256 254 294 145 105 77
319 337 277 112 92 68
257 254 299 136 102 73
286 539 168 170 7 37
258 254 304 129 98 71
382 429 292 119 92 66
260 244 306 119 94 67
442 540 334 72 28 35
460 844 246 97 73 57
261 244 309 120 95 68
320 682 207 105 38 27
289 219 262 121 89 54
370 702 176 86 61 47
385 617 297 174 37 67
302 714 199 81 24 28
392 524 295 86 14 29
332 344 269 72 63 55
259 250 307 123 96 68
457 423 239 78 25 28
261 254 309 126 97 70
264 244 312 119 95 69
307 879 364 111 75 61
267 249 315 120 95 69
145 806 232 97 72 52
477 489 334 59 18 29
362 364 283 131 93 66
337 570 182 193 9 39
269 245 317 116 92 67
248 699 219 96 24 29
269 249 317 119 94 68
245 514 207 142 4 35
353 412 163 89 74 58
347 234 258 99 80 57
246 544 275 150 10 46
272 254 319 120 94 68
275 227 316 108 88 67
267 847 263 104 81 54
238 755 209 117 97 75
277 229 318 110 90 68
277 234 319 113 92 70
272 894 229 92 56 34
401 558 205 128 24 43
393 374 249 112 90 63
372 896 304 35 32 32
277 239 320 115 93 69
292 534 160 89 25 40
405 450 174 134 10 37
429 535 232 141 12 33
297 879 385 205 147 125
477 509 329 202 15 59
272 395 219 88 62 48
292 384 325 165 117 92
282 229 318 113 93 71
282 234 320 113 92 70
238 699 239 92 32 41
287 234 319 113 92 70
376 304 220 116 93 67
292 199 263 126 96 58
422 908 264 79 65 62
356 426 298 62 36 30
397 420 189 92 27 28
332 414 279 71 52 41
295 194 269 107 87 64
295 196 266 108 87 62
236 768 219 112 92 72
387 908 314 52 44 39
262 395 214 102 36 33
295 200 266 114 90 62
396 709 214 60 43 32
265 923 212 68 60 60
356 429 303 86 23 37
367 474 133 168 4 41
338 842 155 96 82 73
241 689 264 68 31 35
451 807 228 97 76 61
296 199 269 107 87 64
247 569 279 47 25 30
430 813 271 103 75 61
348 897 285 34 30 31
290 201 261 126 95 57
392 724 195 79 60 49
292 204 263 129 95 55
290 207 261 122 91 53
292 209 263 127 93 55
263 635 292 92 33 42
372 410 189 91 78 65
406 469 174 140 12 37
300 617 306 69 15 25
295 204 266 122 94 60
397 445 298 69 43 33
444 521 324 80 16 28
268 449 200 121 14 28
295 209 266 131 99 62
322 694 174 58 47 37
297 204 269 109 87 62
477 459 278 119 1 34
295 194 274 110 88 65
264 659 292 134 12 44
319 293 297 101 83 63
322 901 297 65 44 38
295 194 284 111 89 64
401 833 269 112 75 59
437 428 240 64 18 27
234 766 226 120 98 74
386 744 289 163 124 96
303 858 284 139 101 74
372 573 319 63 23 29
295 195 288 111 89 63
375 794 408 157 109 76
296 199 274 112 90 66
407 794 289 134 98 61
299 209 274 111 89 65
255 956 301 57 52 50
297 379 234 105 90 74
399 408 222 95 78 63
255 622 276 28 29 31
298 204 284 111 89 63
241 754 219 128 105 81
323 501 137 90 34 35
233 559 259 47 28 32
453 439 254 79 17 29
299 208 289 116 93 67
310 857 168 60 52 49
387 891 299 45 38 33
135 789 196 153 97 68
390 467 136 89 30 41
277 396 214 92 61 45
307 804 184 49 44 43
99 756 196 129 96 61
380 274 220 117 90 57
300 209 284 113 90 64
289 211 262 122 90 51
289 214 262 123 91 54
297 214 269 123 93 59
292 224 265 123 91 53
295 219 266 126 94 54
411 529 199 48 38 41
297 219 269 125 95 59
471 509 304 211 20 55
297 224 269 125 93 56
300 216 271 114 89 59
289 476 176 75 39 34
292 699 310 33 28 31
242 694 274 67 26 34
323 600 333 47 30 32
300 219 271 114 88 57
300 222 271 114 88 57
399 536 187 86 26 34
94 762 201 184 130 104
282 324 328 136 102 76
