ply
format ascii 1.0
comment Created by Open3D
element vertex 2204
property double x
property double y
property double z
property uchar red
property uchar green
property uchar blue
end_header
326 728 201 40 37 38
250 793 338 156 120 88
228 532 211 161 4 35
354 845 187 104 81 70
229 535 212 125 20 41
226 538 214 139 19 39
476 820 225 105 82 64
231 543 213 106 30 42
225 544 217 93 32 37
351 563 404 127 98 76
351 658 284 145 8 45
395 723 184 57 45 33
236 538 209 103 33 41
240 673 253 110 23 40
233 542 211 46 33 37
241 538 208 42 37 42
456 568 264 150 15 45
246 528 204 95 29 35
337 804 276 145 102 82
252 518 201 132 7 29
256 518 200 139 2 30
286 593 354 147 88 75
251 528 202 52 35 40
253 526 201 42 36 41
391 862 326 50 42 38
256 528 201 73 32 36
397 567 306 151 9 44
246 543 208 54 37 39
190 533 330 157 16 49
248 541 206 67 30 30
257 532 201 101 33 39
251 538 204 104 30 40
250 544 207 88 32 40
185 573 304 61 27 35
226 548 218 87 32 38
381 533 339 60 37 31
255 627 344 163 103 83
198 602 284 169 7 49
225 555 222 70 29 36
356 863 214 86 75 71
232 558 220 148 12 40
366 593 289 107 25 43
228 556 221 78 31 33
243 776 341 152 117 82
331 753 195 60 46 43
237 547 211 112 34 44
319 585 342 51 23 27
234 544 212 89 26 33
235 652 353 176 114 89
230 658 314 65 22 33
342 824 255 107 83 69
380 559 307 148 14 49
363 603 264 174 7 54
235 548 213 100 26 38
451 527 328 161 23 54
206 678 316 124 90 60
240 550 212 101 31 42
301 633 328 103 23 41
219 590 247 181 8 43
241 558 215 82 31 39
234 555 217 176 8 40
251 864 319 122 89 69
495 550 252 135 14 41
235 559 218 172 11 43
401 844 313 47 39 34
236 563 220 183 5 42
231 568 225 176 4 40
506 573 255 88 70 53
240 569 222 179 10 44
241 573 224 123 25 44
410 607 322 109 27 44
421 908 288 88 75 68
231 698 264 49 36 38
251 548 208 149 17 41
257 547 206 143 20 42
383 712 193 113 83 59
246 548 210 103 31 40
247 552 211 113 26 38
236 763 343 161 116 84
246 554 212 73 34 38
497 578 270 141 12 47
174 535 257 187 0 50
251 553 210 122 29 43
256 553 208 103 31 39
285 743 217 132 7 34
242 827 284 82 66 61
226 818 338 202 143 119
256 558 210 118 26 42
352 686 223 79 72 76
246 568 218 171 3 40
246 572 220 99 24 38
421 573 265 50 30 35
311 648 323 41 28 30
245 574 222 37 33 38
252 567 216 174 0 40
228 688 279 95 23 40
256 568 214 171 0 37
305 863 234 56 53 55
250 569 217 176 1 39
257 572 216 169 0 38
245 703 243 131 4 34
231 603 248 126 26 44
339 774 192 137 93 65
227 562 225 130 32 47
303 801 216 83 65 56
225 564 228 138 31 48
278 775 326 89 70 58
226 568 229 144 14 40
335 524 287 69 40 38
230 569 227 172 5 40
227 572 230 172 4 40
224 570 232 162 4 38
301 923 248 96 85 85
233 571 226 192 8 42
235 574 227 176 16 49
261 523 199 146 3 32
229 668 289 78 27 37
201 582 255 193 13 49
207 577 246 187 10 46
213 798 299 188 130 99
451 598 264 147 97 64
189 653 334 164 108 89
206 588 255 190 11 48
217 577 240 197 10 48
302 517 327 120 54 54
214 565 341 151 28 57
246 868 314 159 115 94
355 858 293 35 32 32
222 583 240 140 12 40
210 580 247 189 10 45
212 582 246 193 10 48
301 553 200 66 35 38
216 583 244 191 9 47
387 773 239 150 113 82
476 596 307 101 19 36
209 585 252 191 11 48
210 588 253 189 10 48
209 627 345 127 98 67
389 739 209 130 93 57
212 592 255 186 10 46
446 607 295 84 25 34
371 849 284 36 32 30
217 592 250 183 8 45
320 643 317 57 25 32
215 594 253 184 9 45
220 584 243 138 12 39
223 586 241 50 35 35
222 597 250 167 11 45
246 578 224 70 32 37
216 563 343 58 27 32
250 579 223 174 14 44
256 578 220 180 4 39
257 580 222 189 7 39
489 565 290 89 14 31
223 646 299 157 12 45
227 582 236 173 15 48
231 583 234 122 24 41
423 830 254 61 50 45
445 859 264 93 79 68
226 588 240 73 32 38
368 716 242 74 33 43
172 538 299 172 4 48
236 578 229 121 25 42
393 826 248 104 88 71
238 576 226 70 26 27
234 580 232 172 13 43
344 650 231 44 30 41
362 738 180 66 52 41
235 590 237 83 33 40
236 593 239 132 29 43
241 588 233 111 28 43
219 640 294 115 29 44
227 569 352 86 25 37
390 748 219 144 104 67
238 591 236 69 30 35
228 591 241 146 15 39
321 738 200 45 36 39
390 643 204 190 125 95
241 598 239 106 29 43
225 599 248 141 17 42
373 584 270 96 35 40
230 594 242 83 23 38
229 600 247 181 20 52
225 604 253 173 10 47
234 605 247 112 18 31
476 829 228 103 82 61
241 608 245 75 29 39
247 582 226 106 33 44
245 584 228 79 34 41
379 572 246 37 28 31
246 588 230 127 27 42
185 573 279 110 31 43
470 558 244 76 28 30
246 593 234 162 19 45
250 589 228 79 33 41
221 753 346 171 122 93
251 593 230 164 18 46
256 588 225 111 31 44
348 780 276 77 60 51
256 593 229 159 18 44
247 597 235 139 23 44
245 599 238 129 33 48
256 597 231 136 15 40
216 623 319 99 32 44
250 604 238 107 29 41
336 588 338 153 21 52
237 649 344 155 97 78
344 685 192 155 113 82
286 541 350 67 12 24
244 605 242 38 31 41
231 613 254 90 28 41
241 613 248 67 37 42
236 623 255 52 31 37
437 561 249 49 35 40
238 616 251 91 23 36
216 753 346 169 120 91
238 627 256 57 33 37
381 636 228 148 96 77
241 628 254 51 36 39
247 613 245 50 31 37
314 936 347 64 60 60
246 623 249 88 30 39
254 615 242 43 25 33
255 618 242 75 29 39
395 857 213 81 61 53
196 598 279 191 1 51
294 524 355 85 22 35
256 623 243 136 16 40
243 626 251 40 36 40
247 633 250 114 17 34
260 950 305 70 66 67
245 638 252 141 3 34
380 607 332 102 32 44
425 850 254 85 69 58
250 628 247 77 26 35
422 838 255 69 50 45
250 633 248 120 16 35
287 738 216 132 8 36
256 628 244 86 27 38
256 638 244 137 2 33
381 531 329 56 39 34
391 832 270 70 57 45
301 832 305 118 94 69
238 668 256 51 37 40
238 673 255 86 27 37
242 648 255 153 0 41
247 643 251 146 0 35
245 643 253 152 0 37
228 662 312 98 20 42
361 813 169 77 63 56
247 648 250 145 0 38
344 714 197 145 107 83
242 653 255 132 3 33
276 564 208 190 3 40
282 628 231 70 32 37
247 653 250 136 0 35
250 648 248 139 0 34
340 896 201 97 85 76
256 643 244 133 5 33
256 648 243 134 4 32
250 653 248 134 2 35
281 708 349 111 30 45
241 793 344 164 121 89
293 878 246 55 50 53
242 658 255 84 20 32
480 549 300 92 56 51
247 658 250 126 2 32
267 688 337 117 20 40
244 662 252 89 16 27
246 668 248 118 11 28
376 568 239 55 27 30
243 665 251 92 24 29
227 693 284 133 4 38
334 668 312 33 29 32
243 668 250 109 18 30
249 663 247 125 2 30
361 523 203 119 14 32
451 583 265 121 71 44
491 573 274 91 9 29
257 668 240 119 14 32
416 714 164 73 59 46
256 673 240 120 10 29
362 570 394 56 38 39
335 872 325 33 30 30
237 678 255 140 19 45
237 683 254 92 28 37
460 523 235 80 26 36
239 683 252 124 21 41
237 688 254 52 35 38
236 693 254 54 37 40
310 523 379 70 22 31
269 628 237 97 28 37
241 693 249 54 35 37
192 708 324 166 117 91
235 703 254 138 8 38
441 578 299 89 15 32
240 698 248 80 31 38
238 703 250 142 6 41
404 759 192 67 50 36
351 608 338 187 3 59
240 703 248 139 10 43
256 683 238 121 7 29
244 678 247 43 34 39
331 648 229 71 27 32
246 683 244 68 27 36
246 688 244 120 15 36
440 516 226 53 30 33
229 732 262 138 8 38
244 686 247 128 14 34
441 518 238 93 42 48
393 766 226 147 107 73
252 678 241 117 13 28
249 686 242 135 5 32
361 550 224 93 30 38
257 688 235 129 5 30
211 683 352 174 120 95
356 653 249 67 30 38
254 692 237 115 13 32
250 698 238 126 9 34
282 723 220 96 35 43
305 519 382 126 22 44
256 698 235 99 26 37
343 673 191 149 109 79
253 698 236 74 26 33
219 758 272 42 38 43
256 703 234 93 24 35
243 690 246 99 31 45
351 610 327 123 12 38
242 698 245 99 23 34
245 698 243 103 19 36
248 698 241 126 11 37
366 813 248 41 35 32
247 594 362 123 96 69
446 573 309 97 27 40
247 514 346 158 19 52
247 703 241 131 2 33
459 840 252 113 91 70
248 693 241 94 18 31
390 858 204 90 71 56
235 713 253 154 4 43
237 718 249 146 5 42
239 728 247 61 29 35
235 728 253 56 29 36
351 557 389 45 24 26
237 723 250 95 25 39
237 728 250 106 32 43
462 520 243 73 35 42
218 631 280 195 8 51
235 733 253 77 29 39
256 708 234 132 6 34
242 718 245 143 2 39
191 543 328 173 15 54
349 844 192 87 69 60
247 723 240 99 25 37
247 733 240 69 33 37
252 723 236 84 27 35
256 728 234 101 27 38
250 733 237 96 28 38
244 728 242 82 29 39
317 837 301 136 107 82
242 733 245 143 14 44
316 713 329 170 9 55
244 733 243 121 21 40
355 684 303 107 17 38
232 738 256 99 25 38
233 743 256 133 24 44
235 743 253 80 30 40
317 739 201 79 33 35
302 798 216 83 65 56
261 763 334 177 130 100
221 778 347 173 125 95
264 892 278 154 113 87
240 738 248 122 21 41
238 743 250 97 22 34
199 760 312 178 121 93
289 708 217 126 17 35
516 598 269 119 88 67
219 820 319 214 144 111
233 748 256 155 3 41
342 668 194 145 105 78
235 748 253 115 19 40
236 753 254 119 30 45
240 748 248 114 21 39
238 752 251 62 27 33
241 753 249 115 32 44
190 588 289 108 25 41
236 758 254 63 52 48
238 756 251 59 49 51
241 758 250 64 52 49
241 768 254 67 55 49
247 738 240 41 36 39
326 698 325 121 23 45
256 743 234 59 35 39
252 743 236 121 27 37
251 753 239 81 45 46
347 557 400 77 50 41
242 743 245 86 32 40
335 833 263 115 88 69
244 738 243 57 33 38
243 748 246 98 27 41
339 703 317 37 26 28
243 752 246 132 31 49
245 748 243 70 32 38
254 627 354 176 113 90
247 608 367 161 116 91
406 739 158 67 53 45
248 752 241 113 41 49
307 753 321 88 67 56
252 758 240 73 56 51
247 758 245 69 54 51
248 762 246 69 55 50
242 763 251 65 54 49
363 691 301 135 5 42
243 767 251 67 55 49
249 768 247 69 56 50
255 768 242 73 58 51
166 518 264 60 32 37
378 742 249 150 115 84
293 738 211 47 30 34
165 518 269 65 32 36
381 603 314 57 33 37
168 522 264 54 34 36
424 856 226 92 71 63
169 524 259 67 34 40
361 843 274 34 30 29
366 553 339 60 20 36
171 528 259 94 31 43
169 525 264 50 33 36
226 793 274 55 47 48
328 638 311 92 31 41
168 526 266 52 30 33
164 514 274 41 27 31
376 834 184 99 76 62
165 518 274 50 31 35
311 537 318 74 48 39
393 858 214 83 65 60
166 518 289 56 26 32
167 523 289 38 30 33
244 760 337 156 109 78
172 533 259 183 4 50
205 642 323 104 80 51
174 538 259 186 3 50
176 543 259 163 10 46
203 611 285 169 6 50
174 540 269 184 5 51
341 913 269 81 70 70
169 533 279 58 32 35
340 923 274 83 72 71
168 531 280 68 34 41
169 534 284 69 28 36
345 643 188 141 104 73
172 538 274 130 18 42
336 568 405 136 102 87
172 538 279 130 17 42
413 730 149 77 60 46
174 540 272 184 0 48
173 542 279 187 0 49
319 736 202 65 33 40
174 544 279 187 0 51
170 538 289 180 0 48
173 542 284 187 0 50
356 597 336 182 0 58
174 544 283 188 0 49
431 592 254 118 75 31
370 852 175 107 85 66
261 593 367 163 120 96
172 543 289 186 0 50
341 568 374 162 98 91
167 523 294 113 22 40
381 638 190 129 97 58
168 523 299 159 6 43
168 522 302 163 1 47
315 723 328 175 13 56
169 523 304 161 3 45
170 528 304 166 1 46
169 519 305 160 4 45
222 609 344 111 87 62
328 852 285 117 94 75
171 528 309 161 1 46
172 523 313 129 17 44
173 528 313 145 11 46
223 672 322 106 54 41
168 531 292 44 32 38
372 578 243 65 22 26
431 597 284 102 32 41
170 533 299 173 2 47
209 775 297 166 113 83
172 538 304 142 9 45
286 763 328 88 69 60
496 583 300 55 31 34
173 542 299 79 24 37
173 541 303 67 18 34
174 544 300 55 29 35
174 543 304 153 21 50
235 658 263 123 12 37
282 873 352 186 138 123
175 533 314 60 25 34
173 537 308 168 3 48
274 856 277 150 117 86
177 533 318 54 25 33
315 569 394 178 121 109
180 538 320 166 9 51
178 541 317 167 20 55
306 758 319 86 66 55
176 548 274 178 6 50
176 548 279 185 0 50
175 548 289 178 7 49
178 547 259 160 13 46
179 549 259 163 14 48
181 553 259 86 28 39
502 576 266 128 9 40
391 872 339 62 49 37
255 918 279 59 55 56
178 552 269 80 32 40
184 560 258 49 33 39
323 837 295 133 105 82
296 828 300 121 89 65
179 555 274 132 18 47
321 903 368 53 48 46
179 559 279 141 21 46
182 562 269 52 35 37
178 557 284 137 13 43
183 561 260 162 26 55
441 561 239 196 1 49
187 568 259 64 35 38
185 568 269 65 35 39
308 875 225 54 51 53
189 569 258 46 32 35
354 664 284 140 3 45
188 572 264 92 35 45
189 574 263 73 30 37
364 887 338 66 53 47
323 770 301 77 57 49
181 563 279 97 36 43
236 778 346 166 120 89
183 567 279 99 34 42
180 563 289 66 32 37
320 574 395 184 124 108
209 605 326 176 11 54
182 568 289 44 32 34
256 567 354 70 21 31
183 571 289 40 32 35
184 568 274 91 34 42
185 573 284 62 33 39
466 541 304 79 19 33
173 546 290 190 1 55
173 546 293 134 11 41
370 723 294 163 19 54
176 548 304 70 33 39
179 555 300 146 26 50
179 554 304 103 27 42
196 598 304 68 29 35
180 548 315 52 26 34
336 568 369 151 85 85
183 558 313 162 8 48
184 549 320 172 10 53
184 558 315 164 8 48
229 678 314 56 22 32
182 563 304 109 33 46
450 584 301 98 12 31
183 567 299 49 30 36
183 567 303 80 38 44
183 563 309 91 28 39
201 648 350 148 106 79
183 562 312 83 20 33
184 568 309 138 14 45
185 563 314 85 20 36
344 781 187 73 56 46
190 558 320 172 12 53
471 846 249 89 75 67
400 793 215 93 67 52
190 563 320 167 11 51
187 573 313 107 16 42
372 708 182 105 77 43
189 574 316 148 11 47
305 798 303 142 101 81
178 518 322 114 28 44
324 951 322 65 59 58
185 533 326 164 12 50
182 518 328 78 24 34
470 819 243 78 61 44
178 526 322 97 33 48
383 723 225 159 108 78
183 526 327 162 17 51
185 518 330 83 28 36
188 517 332 46 28 30
298 625 335 94 27 41
179 529 321 43 26 33
466 524 244 114 27 42
326 728 318 110 35 48
276 829 319 82 61 47
191 518 334 53 30 33
409 573 261 46 29 31
186 523 329 86 28 37
191 523 334 125 23 46
189 529 331 69 22 33
431 607 268 181 126 110
182 533 323 161 10 49
257 803 250 76 60 53
183 542 322 170 12 51
461 537 328 97 27 40
192 532 332 168 17 52
471 563 315 174 19 58
185 538 325 168 13 51
186 543 324 172 13 53
393 799 187 81 63 56
192 558 323 172 14 53
192 577 260 92 33 43
191 578 264 137 30 51
187 578 279 52 32 37
231 678 299 45 30 36
190 583 274 132 32 47
189 580 278 34 31 39
441 593 255 134 93 59
281 618 340 41 27 29
190 583 279 39 32 38
188 581 280 45 32 37
187 578 284 99 30 43
188 582 289 112 22 43
409 605 226 108 85 56
245 591 354 107 82 60
189 584 284 76 30 40
192 588 274 73 31 39
191 588 279 85 32 44
190 588 284 113 25 44
192 593 289 183 8 51
186 578 294 114 25 45
188 583 294 40 30 35
336 576 331 155 17 48
293 517 374 125 23 45
188 582 304 182 6 52
189 585 294 50 28 35
295 819 232 56 48 49
190 588 299 189 4 53
189 585 304 191 0 53
192 593 304 184 8 54
187 578 309 156 17 52
188 582 308 180 3 51
188 577 312 122 11 40
256 863 294 151 115 85
233 647 266 162 6 44
441 829 235 96 69 46
511 598 258 160 107 93
192 583 319 154 7 45
192 588 314 164 6 50
285 594 222 141 22 42
195 528 335 163 20 53
312 555 338 90 5 30
391 644 214 180 120 91
199 518 341 130 21 45
205 673 351 173 120 97
197 523 338 77 25 35
201 528 340 170 21 54
203 527 342 170 22 53
206 523 344 147 21 49
196 533 335 172 19 54
194 543 331 168 17 52
359 572 407 152 102 87
294 586 356 149 91 77
201 533 339 170 23 56
421 847 249 91 74 60
360 562 400 68 20 30
306 643 226 110 17 25
308 965 304 68 64 63
204 530 341 173 22 55
356 578 404 178 115 107
206 538 340 35 27 30
206 543 339 140 22 46
461 558 314 128 22 47
452 557 312 113 22 41
211 518 345 124 23 46
372 783 255 73 59 53
216 528 345 43 29 31
218 518 347 72 34 41
230 683 309 61 26 32
404 520 216 103 12 26
220 529 346 48 28 31
336 738 198 82 32 31
425 537 343 174 11 55
222 690 310 55 34 32
222 528 347 35 28 31
196 748 314 167 114 88
216 533 344 98 30 41
210 539 341 43 26 30
295 582 368 186 118 97
379 787 247 151 117 90
195 548 330 174 16 54
272 768 230 77 61 53
384 651 200 183 120 90
196 553 329 175 16 54
386 558 239 75 31 38
197 547 332 172 18 53
201 548 334 171 20 54
386 591 291 99 22 39
299 712 212 66 31 29
199 554 331 175 16 54
336 863 205 72 61 57
199 559 331 168 17 52
301 863 344 145 114 87
205 558 336 169 20 54
398 831 243 117 80 112
206 548 338 161 21 52
301 788 213 81 64 56
411 527 299 66 29 28
195 563 325 161 14 49
402 718 150 105 78 52
194 573 321 164 12 50
389 820 248 66 53 42
196 573 324 167 13 52
416 536 359 75 22 32
199 574 326 160 14 48
301 628 329 118 26 45
202 563 333 164 18 52
206 568 334 142 19 48
206 573 334 57 24 32
204 574 331 113 22 41
208 758 342 174 122 96
207 563 337 164 20 52
247 673 327 61 27 31
344 643 293 89 24 38
300 798 218 83 64 57
212 548 342 140 20 46
213 553 342 73 23 34
291 593 220 90 30 38
216 553 344 124 28 47
284 888 253 54 50 53
211 558 340 69 24 36
221 548 344 48 26 28
211 563 340 145 23 49
214 568 341 105 25 41
316 919 244 89 80 80
435 541 329 126 20 42
209 574 336 33 26 30
214 572 341 39 27 32
367 853 218 76 63 57
221 568 344 67 22 30
218 574 347 66 27 33
315 858 324 134 105 78
352 554 223 175 5 41
366 551 335 50 28 35
302 884 225 64 59 61
241 557 340 47 26 30
222 569 348 53 21 30
317 858 310 140 108 83
226 518 348 46 29 32
321 698 328 62 25 34
226 523 348 50 28 31
389 752 187 43 33 28
232 528 346 57 27 33
236 518 347 133 21 47
426 530 299 74 15 30
242 519 346 161 20 52
456 527 244 89 29 41
235 522 347 166 20 52
236 523 346 161 22 53
459 537 246 60 27 34
236 528 344 101 26 41
238 520 346 164 20 53
306 888 219 87 75 70
241 523 345 132 21 46
202 638 348 131 100 71
376 607 320 60 31 35
226 533 346 123 31 48
231 533 345 86 30 39
236 533 344 82 24 35
240 532 342 71 23 33
235 542 342 84 22 35
475 543 319 50 28 32
354 640 251 34 29 41
351 598 309 128 30 51
237 544 341 69 26 34
241 543 340 33 25 28
356 678 224 75 56 51
246 518 345 142 19 47
276 683 338 39 30 32
246 523 344 50 23 30
256 514 346 90 27 39
251 529 341 120 17 41
266 602 367 183 126 102
256 526 342 132 15 42
366 827 175 105 81 62
242 534 341 73 24 31
476 552 264 95 4 29
346 683 219 74 54 56
247 529 341 39 25 27
246 533 340 40 26 27
227 653 304 83 26 39
251 533 340 99 18 36
282 942 265 83 75 75
256 533 340 123 12 40
386 611 324 89 29 40
251 538 339 53 24 30
256 538 338 81 15 32
256 543 338 78 15 32
229 554 342 45 25 27
232 549 341 55 26 31
232 557 341 30 25 27
370 668 185 126 92 55
236 548 340 51 27 30
234 546 342 35 25 27
370 552 400 102 10 32
241 548 339 29 25 27
305 941 347 66 60 58
236 557 341 30 24 26
286 823 298 144 106 86
241 559 344 37 25 28
231 563 344 56 22 27
335 711 207 66 28 30
226 568 349 51 24 28
282 831 304 79 60 52
232 565 349 55 21 28
229 566 346 45 20 28
351 863 299 33 30 30
285 754 218 72 54 50
231 574 349 61 23 30
236 562 344 51 23 27
219 738 278 151 9 45
240 561 349 46 23 27
301 663 221 85 28 33
236 574 346 89 12 31
241 574 345 98 6 31
452 864 251 87 70 60
357 878 234 84 74 71
245 556 340 64 23 29
364 616 209 93 67 42
395 783 169 80 62 52
246 557 344 38 27 28
251 548 338 47 25 28
256 552 344 82 13 31
348 527 259 59 34 26
248 555 342 35 30 30
252 554 349 68 18 27
242 570 350 99 4 31
251 574 341 50 20 26
256 573 343 78 13 30
248 570 346 86 4 25
375 556 402 141 24 52
431 844 259 93 74 59
256 569 349 84 9 28
255 570 346 79 13 29
227 572 352 92 25 40
416 530 313 82 29 35
241 568 354 166 21 54
236 571 352 165 24 56
228 662 293 123 10 38
346 728 310 154 22 53
432 596 279 92 45 46
326 680 216 85 23 30
250 557 355 75 20 29
256 558 359 78 28 36
488 536 240 156 25 43
291 713 349 125 21 46
243 560 352 75 20 29
245 562 356 134 18 43
296 848 250 166 119 94
247 566 357 176 23 58
470 544 268 93 14 32
248 560 357 89 21 30
411 594 284 96 27 36
251 567 354 143 23 49
251 566 357 157 27 55
244 576 342 85 10 28
255 861 319 122 95 72
195 579 258 91 26 39
236 583 341 74 22 33
194 580 262 184 18 55
197 658 347 150 103 79
198 581 256 193 13 50
406 573 260 62 26 32
200 584 258 194 14 50
366 718 181 98 75 49
197 587 265 98 23 40
195 588 269 55 33 36
466 540 306 79 18 32
193 587 270 69 30 36
201 593 264 91 24 38
198 591 266 42 31 38
281 542 354 49 22 25
203 586 256 193 13 51
215 628 355 131 99 69
194 590 273 45 32 35
195 593 274 159 13 47
355 598 235 66 22 32
257 663 241 73 29 33
417 857 253 96 77 62
193 592 279 117 21 43
199 594 268 75 26 37
201 598 269 191 14 51
204 595 262 184 8 50
206 598 263 181 12 47
203 648 352 148 105 78
271 829 314 123 95 80
203 602 270 196 11 51
204 600 267 193 14 47
460 605 284 189 124 111
207 602 265 192 13 50
207 607 270 197 13 52
194 594 278 155 12 47
197 598 274 195 1 50
199 599 273 196 4 50
195 598 284 196 1 52
193 596 289 177 14 50
246 778 250 68 56 49
248 878 305 180 131 106
195 598 289 187 9 51
321 673 217 49 35 37
321 864 314 126 100 77
201 603 274 198 4 52
198 602 289 145 20 50
205 608 274 200 4 51
201 723 308 138 101 70
201 608 289 116 24 43
456 847 269 93 73 60
208 592 256 188 11 47
431 563 264 122 10 33
210 594 257 187 10 46
211 598 259 185 10 46
203 602 318 107 34 46
496 578 253 134 96 75
213 596 256 184 9 45
215 599 258 183 9 44
261 603 233 171 5 40
216 603 259 186 10 45
217 607 260 187 10 47
445 532 328 148 24 50
215 609 263 191 12 48
285 799 228 80 64 56
320 533 299 68 47 39
210 609 268 196 14 51
220 604 257 185 8 45
221 608 258 155 14 45
438 867 253 92 83 76
193 587 318 173 8 52
201 773 324 192 130 104
196 593 314 91 31 41
197 592 319 161 23 52
347 683 185 148 106 72
193 596 294 93 22 39
195 598 294 109 23 42
295 587 359 163 97 81
195 598 299 118 31 48
316 523 298 99 30 44
263 844 327 140 28 64
197 602 294 156 20 50
199 600 310 145 26 52
198 596 313 40 30 31
200 598 314 103 28 44
261 843 314 179 132 109
203 607 308 60 29 34
322 728 320 109 30 46
205 609 309 46 31 35
411 593 279 85 29 32
203 606 312 48 30 32
205 604 319 86 26 38
204 605 315 73 29 41
205 608 314 87 31 42
207 608 319 157 15 51
396 552 339 168 21 55
306 603 222 74 33 36
207 612 275 168 8 48
208 618 284 78 33 40
207 618 289 138 32 50
216 618 269 191 13 49
222 612 260 116 20 41
220 614 263 183 11 47
302 769 316 82 61 51
221 618 264 184 10 47
218 621 271 187 12 48
209 615 277 42 31 32
367 844 178 117 90 71
208 616 280 42 32 36
328 628 311 85 35 43
334 926 357 69 60 55
224 644 288 162 2 45
215 619 273 193 12 51
214 624 278 196 10 52
226 658 325 120 83 66
209 619 283 77 35 42
209 620 287 153 36 51
210 623 289 74 33 40
223 631 271 183 12 49
213 626 285 132 26 47
457 587 303 132 16 40
213 627 289 37 33 37
295 538 350 80 13 30
342 633 295 69 30 37
220 628 273 186 13 49
222 632 274 188 12 50
219 634 283 197 8 54
221 638 284 190 11 51
457 833 245 85 66 49
218 636 290 66 25 36
220 639 289 163 25 53
221 738 274 131 17 43
206 618 294 105 33 44
207 618 299 108 29 44
277 522 347 81 18 33
208 616 308 127 31 46
208 621 290 180 22 53
431 558 307 80 25 34
393 730 183 62 56 51
211 623 304 69 31 37
349 703 187 154 111 79
208 611 318 142 13 45
373 619 227 95 50 44
210 613 319 179 11 55
431 578 299 45 27 30
376 788 249 149 117 90
210 618 309 89 32 41
358 759 281 93 72 65
300 523 380 114 27 44
375 708 228 147 94 73
238 685 322 38 23 22
214 620 320 138 30 52
360 551 374 70 24 28
240 773 343 158 118 84
213 626 303 48 29 33
217 637 294 35 33 37
218 637 299 66 30 37
220 639 299 128 25 46
213 626 307 49 33 40
217 633 309 47 32 36
212 639 320 101 71 50
216 638 319 107 71 54
306 733 205 81 32 35
217 627 318 64 34 37
218 632 313 42 31 33
266 843 329 135 56 68
264 842 325 145 99 83
216 634 320 92 63 49
220 634 314 63 31 36
221 633 319 89 47 46
219 635 310 81 31 37
222 637 313 100 26 44
226 613 258 102 21 41
409 751 178 76 54 41
229 615 257 165 8 46
375 567 235 48 29 30
225 619 262 178 8 44
211 678 317 121 82 58
231 623 259 161 6 43
319 645 226 100 14 32
234 624 257 74 27 36
232 628 260 141 8 38
230 683 299 82 26 39
231 633 264 170 4 44
224 625 267 178 9 44
324 823 284 135 107 84
229 638 268 161 6 43
233 631 261 149 12 44
239 634 257 56 32 34
201 773 319 193 131 105
234 634 262 163 10 45
297 692 340 130 5 42
237 638 260 82 26 36
225 639 279 199 9 55
224 640 311 103 19 38
225 639 319 103 49 51
301 773 209 74 60 52
395 813 204 75 60 52
196 583 324 138 9 41
199 582 326 148 13 48
197 588 324 159 16 50
200 593 324 137 23 48
386 708 209 145 97 65
201 593 329 178 14 55
354 887 254 79 68 66
205 578 331 50 25 31
228 678 282 100 42 53
316 578 374 165 104 89
205 582 334 77 22 32
203 585 337 71 29 35
206 588 339 58 27 34
253 941 325 66 63 64
207 592 338 118 22 45
202 597 324 67 25 34
203 596 327 154 14 45
256 583 359 116 91 68
207 597 333 179 15 56
261 533 201 66 33 36
208 602 328 178 13 55
209 577 336 36 25 25
210 577 339 61 25 31
365 551 384 50 25 27
215 578 346 40 28 30
211 587 342 162 19 52
391 643 219 181 118 91
346 638 289 102 21 40
216 588 341 95 22 37
307 574 358 162 106 89
220 582 343 85 25 36
222 584 341 88 25 37
222 609 339 89 69 50
222 580 345 66 26 33
306 562 344 109 4 36
217 578 347 48 27 30
221 578 348 68 26 34
306 564 348 130 15 44
407 592 321 60 27 31
218 585 341 99 22 38
221 588 341 85 22 34
221 593 340 42 26 28
212 603 333 170 14 53
216 599 336 51 21 28
216 603 334 108 19 38
213 606 332 174 11 55
216 608 333 111 18 41
221 603 335 73 25 35
296 523 364 102 22 41
213 596 337 73 18 29
348 526 254 61 31 26
286 548 364 94 21 36
197 639 330 88 71 52
206 628 334 107 83 57
336 530 329 69 42 38
202 635 330 95 77 56
200 637 340 114 89 62
202 634 339 118 93 64
206 628 339 121 94 65
287 831 319 96 79 60
204 631 340 123 96 67
207 629 344 125 97 66
420 520 248 71 21 31
203 635 343 119 94 65
205 638 350 132 100 70
283 526 319 109 27 45
213 612 328 176 8 55
254 928 340 63 49 45
243 831 291 75 62 59
229 663 294 70 23 33
215 613 329 161 12 52
215 609 331 171 11 55
371 714 181 93 70 45
215 618 324 141 21 49
216 618 329 86 35 37
246 831 309 129 84 67
281 713 349 166 21 54
356 813 254 60 47 44
211 623 334 103 77 52
388 794 173 77 60 51
215 618 334 98 67 46
213 620 335 105 77 51
351 592 336 182 0 58
211 623 344 128 99 68
236 778 259 72 58 53
330 517 292 105 33 49
215 617 344 120 92 64
275 762 332 77 62 54
220 612 344 114 88 62
216 628 324 87 60 44
210 637 323 93 71 46
340 912 348 56 51 48
335 673 312 58 30 34
292 792 220 80 64 56
208 634 352 131 100 69
223 610 352 123 95 68
222 614 353 126 98 69
302 892 225 85 73 71
221 623 358 132 100 70
271 572 215 147 17 41
223 619 357 131 99 70
211 633 354 132 101 69
261 808 249 80 63 54
342 632 237 122 13 35
213 625 352 131 99 68
301 574 375 181 121 104
388 825 178 97 74 57
376 708 269 62 29 39
328 905 238 79 71 69
211 638 355 137 102 72
250 933 294 66 61 61
381 773 139 89 68 54
216 633 358 138 102 73
367 864 229 84 68 61
381 538 359 113 29 42
218 629 357 133 100 71
220 638 361 155 113 85
307 896 226 80 69 65
223 638 362 158 114 87
226 579 345 74 23 32
436 843 254 90 71 53
303 780 311 74 56 47
367 874 274 67 59 57
231 582 342 47 26 28
366 555 353 73 18 29
230 576 348 40 23 27
231 584 341 48 26 29
291 593 343 54 27 30
228 660 312 79 40 39
231 593 340 110 23 41
363 740 174 57 48 41
236 578 344 80 16 31
241 577 343 91 12 31
338 570 378 149 88 79
236 588 341 49 25 29
240 591 341 85 20 30
226 598 339 75 25 33
226 603 339 55 31 32
227 604 344 97 75 56
386 578 247 37 29 34
225 607 344 107 84 63
321 912 234 86 77 76
229 601 341 48 28 27
227 604 349 113 89 65
422 832 290 62 49 38
330 612 226 48 34 38
353 804 171 66 55 48
235 597 349 101 78 58
241 593 349 87 65 47
246 583 340 71 18 30
244 591 345 52 24 26
247 589 349 71 48 36
251 582 340 75 18 31
358 673 244 110 25 43
436 524 344 176 27 59
268 610 352 159 100 77
411 533 215 88 25 32
256 582 344 47 25 27
281 543 200 71 28 36
250 586 345 35 26 28
339 567 406 138 109 93
228 605 352 119 94 68
226 608 354 124 96 69
241 623 365 171 122 98
229 607 355 124 97 69
232 604 357 125 97 70
223 642 308 54 33 33
231 608 358 127 98 70
236 598 354 113 89 65
356 603 294 158 18 52
411 855 274 82 66 55
228 734 261 57 27 31
238 595 353 108 84 63
241 593 354 107 84 60
260 698 232 114 17 32
366 543 203 68 31 38
233 600 353 115 90 66
236 603 359 125 97 69
239 602 361 124 96 69
250 934 315 70 65 64
237 608 362 131 101 72
238 604 362 127 98 70
251 813 334 165 120 94
366 867 334 40 36 34
241 608 364 141 105 78
247 589 354 104 80 58
247 590 358 114 89 64
250 587 354 104 79 58
251 593 364 129 99 72
227 788 270 67 55 54
256 588 364 127 98 72
296 663 222 43 34 37
256 593 365 143 107 81
242 594 358 116 91 65
246 598 363 128 98 70
257 598 367 165 121 98
248 605 367 154 112 88
251 608 367 170 123 99
209 790 336 187 127 99
256 603 367 173 125 102
241 640 330 115 32 44
243 640 334 121 48 46
381 788 149 94 73 61
256 628 336 91 27 37
386 857 264 79 65 58
246 638 339 153 94 78
246 638 344 168 104 84
246 638 349 174 110 88
381 831 189 91 70 58
252 629 339 132 77 66
253 629 336 112 22 39
301 928 250 95 85 85
253 630 344 165 103 85
203 777 310 189 127 99
248 635 336 127 38 46
249 636 343 167 103 85
366 625 190 99 83 65
248 635 350 174 110 87
228 610 357 127 99 70
409 613 221 116 89 53
296 733 209 68 34 37
232 614 362 135 102 74
303 531 378 58 25 31
228 624 362 145 105 79
231 618 363 142 105 78
224 649 299 169 16 54
228 620 362 139 103 75
291 613 340 51 26 31
396 532 344 79 20 29
206 653 354 163 115 90
231 623 363 152 111 85
427 838 249 89 65 52
418 877 310 83 65 53
236 613 363 141 107 79
276 630 340 119 34 47
369 857 303 34 32 32
228 708 346 165 111 83
236 623 365 162 116 91
241 618 365 164 119 94
224 627 361 144 106 78
227 628 362 150 109 81
226 638 362 161 115 89
236 628 364 167 119 94
236 633 363 174 123 99
401 543 354 137 22 49
241 633 363 178 121 95
241 638 359 177 116 90
239 636 362 176 116 90
250 611 367 175 127 103
251 613 366 179 128 104
253 610 366 182 131 107
252 624 361 180 118 94
246 633 359 178 117 93
196 753 319 181 123 98
248 634 354 179 115 92
244 636 358 178 115 92
242 635 361 177 117 90
424 854 226 94 76 66
250 632 354 178 115 91
252 629 354 176 112 90
260 617 359 179 116 95
267 923 259 80 70 68
249 626 362 177 117 92
190 648 329 134 97 71
321 558 344 106 5 35
192 644 329 97 75 53
190 648 334 148 98 80
441 534 294 75 11 29
192 649 326 118 90 59
189 653 329 157 108 85
191 648 339 150 103 80
191 658 324 147 106 77
191 663 324 150 106 78
190 663 329 160 111 85
190 663 334 165 113 88
243 821 271 86 68 61
398 808 214 75 59 52
190 668 329 161 112 86
271 593 369 185 132 110
191 673 324 159 113 83
190 673 329 166 116 89
190 668 334 165 113 88
190 658 339 165 111 89
259 774 242 73 58 52
191 663 339 167 115 90
275 602 349 133 78 66
191 678 324 161 114 84
191 678 329 167 117 90
191 683 329 167 116 90
341 857 285 31 28 27
191 688 324 162 114 84
324 649 226 58 29 30
361 818 248 32 28 27
231 738 344 171 117 91
191 688 329 167 116 90
192 678 339 172 119 92
192 693 334 172 118 96
376 833 179 98 78 64
191 698 329 172 119 94
192 703 329 171 119 94
206 648 320 121 86 58
206 653 318 128 88 62
511 618 291 133 25 49
196 658 319 141 105 73
196 668 318 141 104 71
491 558 254 113 15 39
235 644 325 115 35 51
201 668 317 131 94 64
201 673 317 129 95 63
206 658 318 131 89 63
223 646 302 128 12 44
450 523 235 82 25 34
216 643 318 118 75 60
431 613 244 176 118 93
341 728 203 62 32 34
211 653 318 133 88 66
221 653 320 130 85 70
341 531 314 64 44 37
291 623 229 115 24 33
216 658 320 132 82 66
367 793 255 54 45 41
391 813 188 79 62 55
216 663 320 127 79 62
211 668 318 127 83 61
325 808 208 69 55 51
211 673 318 124 84 60
216 673 319 123 81 60
378 550 332 47 28 27
252 889 333 132 109 87
221 673 320 110 66 51
221 668 321 113 65 50
196 678 318 143 105 72
201 679 316 130 97 64
196 683 318 141 103 70
195 688 318 140 103 71
323 851 211 67 58 59
198 688 316 134 100 68
453 546 247 87 28 29
201 688 315 130 98 64
195 693 318 142 104 73
359 664 259 71 31 39
271 564 355 102 18 35
376 593 331 114 20 41
192 698 319 156 111 81
229 783 267 70 59 57
194 698 317 147 107 76
197 698 315 138 103 69
397 740 157 72 64 58
206 704 311 125 92 59
206 698 312 123 93 60
206 702 312 125 93 61
210 679 316 121 82 56
216 678 318 121 82 60
211 688 315 120 85 58
271 623 235 88 33 40
465 599 301 109 5 33
216 683 317 119 80 59
216 688 314 117 79 58
221 683 317 103 66 48
274 781 327 93 70 58
223 686 317 89 55 42
211 693 313 119 84 58
248 898 333 158 132 113
216 703 309 99 67 49
343 658 191 144 105 77
381 557 398 130 25 48
300 758 323 87 66 54
221 693 313 75 50 37
455 858 264 112 94 79
219 696 309 81 53 41
218 699 306 99 53 48
221 696 313 68 48 35
261 663 239 71 33 37
380 752 148 63 50 41
235 648 263 149 2 39
240 643 257 165 2 43
237 648 260 153 0 41
431 842 254 86 66 55
235 653 263 147 2 40
240 653 258 132 4 33
381 853 213 88 74 66
457 566 245 215 11 54
276 653 334 164 19 52
233 653 266 155 6 44
229 644 272 195 6 55
228 647 275 195 10 54
439 840 247 90 71 54
225 648 289 191 4 52
229 650 277 174 5 45
228 653 280 154 4 43
227 653 284 153 5 42
291 713 215 90 30 37
226 653 289 146 4 40
231 658 269 83 24 35
309 543 380 42 28 28
231 663 269 110 31 44
232 668 269 89 34 44
261 572 215 176 2 38
234 663 262 63 30 34
237 663 259 42 34 38
233 663 265 104 31 43
368 701 247 151 19 47
234 668 262 59 37 40
241 703 328 53 25 28
236 673 259 55 37 39
234 673 263 46 38 41
302 837 310 126 102 75
228 658 284 175 6 49
230 673 274 88 26 39
229 672 278 137 13 41
229 664 290 71 25 31
228 668 284 114 20 42
226 648 304 104 22 41
302 563 334 86 21 34
225 653 294 139 5 39
368 553 311 144 14 47
512 603 280 150 103 97
228 648 309 123 21 43
229 648 314 99 20 38
231 648 319 57 25 29
229 653 310 100 20 36
224 738 268 60 34 43
232 653 319 48 26 28
270 743 341 164 20 53
227 658 294 136 3 37
228 661 300 124 21 47
229 664 303 39 30 35
312 744 201 94 30 35
286 950 273 86 81 82
231 673 294 71 28 38
260 713 232 140 3 34
311 863 224 61 56 58
230 673 299 59 30 34
228 663 309 89 21 35
261 948 309 64 60 60
229 664 310 100 17 37
229 663 314 80 20 34
396 583 319 73 21 32
229 668 309 88 22 34
311 738 203 72 35 37
371 693 225 137 84 68
230 678 269 42 29 35
395 778 229 143 106 72
376 869 339 49 40 33
231 688 264 58 34 38
317 827 296 146 113 87
230 683 269 72 33 40
284 896 248 55 51 52
230 688 269 54 33 37
259 631 336 44 24 27
233 684 260 45 36 41
305 566 350 107 24 46
233 688 260 106 32 45
234 688 258 79 29 35
229 678 274 112 22 43
228 683 284 56 32 38
229 681 284 72 31 34
258 821 256 82 66 60
230 698 269 94 27 40
363 764 161 50 43 40
229 703 269 92 25 40
229 693 274 68 31 39
228 645 361 176 126 101
228 693 276 74 19 32
374 751 158 58 49 43
228 703 274 145 15 45
226 703 279 110 24 43
229 698 273 151 10 48
229 702 272 155 8 49
226 698 284 125 11 36
227 698 289 105 11 36
226 703 284 98 24 40
411 553 244 188 11 49
229 688 294 52 29 37
260 600 232 174 4 38
232 678 318 66 39 37
226 688 314 54 28 33
231 688 319 51 36 33
236 678 319 48 23 26
229 692 290 78 26 36
229 693 294 87 20 35
226 703 294 75 28 37
227 703 299 111 14 38
226 703 305 95 23 37
432 838 284 73 57 42
226 693 308 55 34 32
231 692 320 41 28 27
226 696 307 78 35 35
224 696 315 65 44 31
266 678 335 50 28 31
196 648 324 115 91 63
199 641 327 95 78 59
427 584 265 93 33 37
200 646 322 114 89 60
198 649 321 118 91 61
195 642 340 127 94 68
369 685 279 120 14 40
197 643 344 135 100 73
201 703 345 168 117 92
201 643 349 138 102 74
198 648 347 150 106 81
197 653 348 148 103 78
193 663 321 147 107 78
198 663 347 165 117 90
385 545 402 128 22 46
201 663 350 164 116 91
193 668 342 167 114 90
366 808 249 50 42 38
195 668 345 165 116 90
213 776 286 167 112 80
196 673 344 167 117 91
201 673 349 171 120 96
399 861 296 77 64 58
394 759 204 88 61 39
220 658 321 127 80 66
238 766 256 67 54 48
220 663 321 117 69 57
400 718 158 92 68 50
222 663 322 117 71 57
206 643 353 140 102 75
411 532 350 118 28 42
203 658 352 164 117 92
306 568 213 60 36 39
210 643 355 143 104 76
232 688 334 121 81 63
216 653 360 165 118 92
248 914 296 51 49 50
221 643 361 160 115 89
221 653 360 176 126 101
212 658 357 166 118 93
212 662 357 174 121 95
216 658 358 173 122 97
211 673 353 173 120 96
271 658 234 57 36 39
221 668 353 176 121 94
220 672 352 171 119 91
341 573 224 109 14 29
341 648 204 119 82 68
398 555 247 163 17 41
193 676 342 172 120 93
194 679 341 171 119 93
199 678 346 169 119 94
201 678 348 171 120 96
192 688 339 173 117 95
202 688 347 168 117 94
206 683 350 174 120 95
200 693 345 167 117 93
193 698 338 176 121 97
195 698 340 172 118 94
347 518 274 60 46 30
195 703 340 173 120 94
197 698 343 167 115 93
349 916 324 65 57 54
198 703 342 168 117 92
203 692 347 168 117 94
206 693 349 170 118 93
203 698 347 167 116 92
296 648 330 159 5 50
291 955 330 61 56 55
371 588 264 82 23 37
331 603 340 168 10 51
221 683 350 163 110 83
211 693 351 170 116 92
216 693 351 172 120 94
272 748 226 137 8 37
356 528 204 132 7 28
327 940 273 86 77 79
211 698 350 170 117 93
216 698 351 173 121 94
395 607 240 124 71 67
216 703 350 173 121 96
216 683 352 174 121 94
291 663 333 169 12 54
213 686 352 173 120 94
229 640 321 117 43 49
328 823 276 133 106 86
231 644 324 128 73 76
230 647 325 126 85 81
392 817 241 73 58 46
269 595 227 45 36 40
484 555 296 96 49 44
224 651 321 131 93 78
347 748 190 93 69 42
226 653 324 130 94 82
233 644 327 162 127 122
241 643 330 108 16 38
242 648 328 73 22 32
240 649 326 52 22 27
232 654 339 120 77 62
241 643 339 148 91 74
230 713 264 118 16 38
239 646 340 146 92 73
236 653 349 168 108 85
229 656 334 109 70 56
422 587 310 78 23 33
226 668 324 107 70 55
327 808 205 62 52 50
226 673 323 103 62 53
228 668 327 85 65 48
229 668 329 90 64 48
264 663 237 62 34 36
229 670 326 85 64 50
228 667 335 119 79 62
229 668 334 116 77 63
455 846 253 96 79 63
238 657 322 29 26 27
405 619 246 186 124 107
386 718 209 141 95 62
239 668 321 53 26 28
374 546 401 122 12 39
262 860 338 121 86 68
239 673 321 52 23 28
228 659 338 113 75 61
230 662 349 163 109 84
227 668 344 133 88 69
420 617 234 179 122 93
306 898 228 82 70 67
224 673 348 156 105 81
234 656 344 146 96 73
234 656 349 167 107 82
326 878 210 74 63 58
247 642 332 139 20 44
205 773 304 174 117 87
243 652 327 56 28 32
246 653 328 37 26 27
267 723 342 174 22 57
250 645 331 91 27 40
255 653 331 44 28 30
243 640 338 147 90 76
242 643 349 174 111 87
276 773 229 77 61 54
244 658 326 30 26 27
247 658 328 31 27 26
247 663 327 44 28 29
332 823 195 66 59 57
245 668 326 38 26 27
247 668 327 50 28 30
251 658 329 44 28 30
256 658 331 35 29 30
456 542 304 73 15 29
256 663 331 36 29 31
251 673 330 50 27 32
497 582 279 105 13 33
254 672 331 84 21 34
256 673 332 134 24 46
226 643 362 166 118 93
231 648 359 176 115 89
241 643 354 178 114 91
237 648 354 177 115 91
227 659 355 179 118 91
421 561 260 118 8 32
276 945 345 67 62 60
225 657 358 180 121 94
230 658 353 177 116 90
231 678 329 96 70 56
310 728 334 176 12 56
230 678 334 123 81 63
359 756 282 94 71 64
228 682 322 77 54 45
232 688 324 51 37 31
231 683 334 122 81 63
419 536 332 159 24 52
284 596 362 176 112 94
235 687 321 41 24 25
383 772 136 94 72 57
351 577 331 151 14 47
239 682 321 36 22 23
347 658 184 145 105 69
330 623 308 100 28 43
297 837 319 117 93 66
236 689 323 33 26 25
351 678 303 72 26 33
241 688 324 27 25 26
370 848 199 84 70 63
227 678 344 138 92 70
428 895 286 92 75 64
376 623 230 110 64 56
317 848 305 136 108 81
229 678 339 130 85 65
230 683 339 132 88 67
229 680 342 133 88 67
230 688 343 140 95 71
225 683 347 150 100 75
341 573 330 151 15 49
225 688 347 154 104 77
428 825 250 56 44 38
233 692 322 39 28 26
404 772 188 58 43 35
230 825 331 204 142 116
236 693 324 33 25 25
236 698 329 75 51 42
241 698 326 59 22 26
238 703 329 77 52 43
234 796 347 182 137 108
237 703 334 125 81 65
230 693 343 145 98 73
225 693 348 159 107 80
227 693 346 151 101 76
231 698 344 150 101 76
231 703 344 155 104 80
225 698 348 163 110 81
400 778 189 62 48 38
228 698 346 157 107 80
446 593 259 136 92 58
226 703 348 165 111 83
234 695 338 133 90 69
336 713 315 103 31 44
245 678 325 55 26 31
247 678 327 72 28 35
246 683 325 56 22 29
245 688 326 31 25 26
247 689 327 48 26 28
251 678 330 54 27 33
451 523 245 87 27 37
253 675 332 85 21 37
284 882 258 59 54 53
296 953 274 95 92 95
254 679 331 36 23 30
256 678 332 76 30 38
247 814 336 168 122 95
251 888 329 103 88 77
248 683 327 102 14 36
251 683 329 102 22 38
361 748 169 76 58 45
480 544 259 114 23 37
251 688 329 96 18 35
255 683 331 108 30 44
255 688 331 57 24 30
242 699 327 41 24 25
393 566 306 151 5 44
248 718 332 34 27 29
347 826 181 73 60 53
246 698 329 38 26 28
246 703 330 53 22 27
251 693 330 86 23 35
254 692 331 51 26 29
257 689 332 50 27 31
256 693 333 60 27 32
250 697 331 53 26 29
252 698 333 56 28 32
248 704 332 85 33 41
256 698 335 44 27 30
223 713 279 124 21 43
223 709 289 78 25 36
223 710 281 98 22 40
223 715 276 150 8 44
223 718 275 151 12 47
297 878 351 144 103 81
222 718 279 154 7 45
287 832 324 114 93 71
220 718 289 114 16 39
223 734 271 157 10 47
193 727 324 173 119 95
218 733 284 96 24 41
223 723 274 139 16 44
221 723 279 151 7 44
406 748 139 89 71 56
222 728 274 155 9 44
391 748 209 128 91 55
326 578 394 198 129 115
406 878 324 78 64 53
306 543 374 54 22 28
276 898 357 168 134 112
220 723 284 139 13 44
219 723 289 69 26 37
263 806 246 79 62 55
219 728 283 67 27 37
286 839 332 160 128 98
311 891 350 44 39 36
218 728 289 46 33 40
281 648 334 176 10 55
219 726 287 42 29 32
220 733 279 125 18 42
222 733 274 156 9 45
219 731 282 37 30 36
217 733 289 77 28 37
218 734 281 153 21 45
457 592 267 121 77 46
201 713 298 123 91 59
202 710 299 123 90 58
200 716 296 124 92 61
317 559 402 155 113 100
399 791 194 77 59 51
201 718 299 125 93 62
296 898 231 85 75 74
461 568 312 182 16 58
206 718 300 120 88 59
257 947 299 74 69 69
201 713 310 134 98 68
193 708 320 163 114 86
194 708 317 155 111 82
197 708 314 143 104 73
193 713 320 168 117 90
197 713 314 148 107 76
200 707 312 134 101 68
199 711 312 138 102 71
473 543 321 58 29 31
281 538 345 91 8 30
381 548 208 53 37 40
198 714 311 140 102 72
198 718 311 142 102 72
261 603 367 183 131 108
201 718 309 135 99 69
193 718 320 169 118 91
194 718 318 164 115 86
436 829 269 57 46 36
202 705 311 130 97 65
206 708 309 125 93 60
375 758 153 62 48 42
466 535 315 90 14 33
339 741 197 92 73 49
320 580 379 172 110 96
206 718 307 124 92 61
266 828 254 186 129 104
202 721 300 125 93 64
202 724 303 131 98 67
404 835 254 90 75 64
406 518 264 71 20 33
206 728 304 114 85 59
196 723 314 154 108 81
194 723 318 166 115 87
196 728 314 157 109 81
367 549 379 63 18 25
194 728 319 167 115 88
199 733 307 139 101 71
196 733 314 160 111 83
376 545 384 69 16 29
301 538 313 77 46 38
194 733 319 168 116 89
211 720 300 110 77 54
211 719 305 115 81 57
222 713 293 99 10 33
217 708 305 94 53 41
222 718 294 106 10 34
216 720 301 77 50 41
245 788 253 74 59 51
221 718 302 73 40 37
343 723 200 86 48 41
417 723 154 78 60 45
223 719 299 100 13 33
215 708 308 107 71 51
282 564 369 119 94 74
395 798 209 107 77 64
214 713 307 111 76 54
389 634 200 141 100 64
210 722 302 117 85 58
211 723 300 110 78 55
306 520 302 120 11 48
209 728 302 113 84 58
211 728 301 103 76 54
216 733 294 47 32 36
208 733 301 116 86 59
211 733 301 104 78 56
422 859 249 87 72 59
216 733 299 55 43 39
339 530 325 69 39 36
382 875 312 69 60 53
218 728 294 49 33 35
331 783 293 80 66 57
221 723 299 78 27 37
220 721 302 67 31 32
380 857 254 87 73 65
369 831 260 41 35 31
220 728 299 41 33 34
222 748 269 115 17 37
221 753 269 63 37 40
296 863 255 97 72 59
486 529 238 107 21 37
213 738 284 135 29 45
217 738 280 145 14 45
330 947 319 61 55 53
215 738 289 135 53 54
306 923 249 95 85 85
193 718 329 176 121 96
316 643 319 100 27 41
215 743 284 143 70 60
321 557 401 153 113 100
213 744 290 137 99 68
426 597 289 101 22 35
214 748 289 146 104 72
217 748 279 108 44 46
339 701 207 84 29 33
214 753 288 146 103 72
217 743 279 110 19 37
221 743 274 126 13 39
219 753 272 83 29 42
222 758 269 62 52 50
372 723 174 81 65 51
222 763 270 62 52 48
222 768 270 62 51 48
214 758 287 148 104 73
215 763 284 151 105 74
214 762 287 151 105 74
216 768 279 161 110 79
215 768 284 158 108 76
213 764 286 154 105 77
437 548 228 108 23 30
212 768 289 159 108 78
213 768 286 158 107 76
358 666 265 68 31 38
323 704 326 47 26 32
219 763 273 38 39 43
326 828 279 127 102 82
221 708 349 173 120 93
218 763 275 120 89 69
220 768 273 50 45 45
316 538 315 72 49 41
218 768 275 141 101 76
206 743 294 111 83 55
396 878 324 76 61 49
203 740 301 124 93 62
363 759 276 94 73 68
207 739 300 117 88 59
382 693 214 154 105 74
205 738 303 124 93 62
208 742 300 114 85 56
456 569 269 126 21 40
286 868 353 175 129 112
205 743 303 127 96 64
207 748 294 102 74 48
199 738 307 141 102 73
198 740 306 142 103 73
345 553 317 54 22 28
195 738 314 161 111 84
194 738 319 168 115 91
414 892 319 80 63 52
346 908 344 60 53 51
196 743 314 163 113 86
195 743 319 170 115 93
197 748 309 157 110 81
389 759 232 152 111 79
200 749 307 149 106 76
371 835 272 38 33 32
198 752 311 167 114 87
200 753 309 157 110 80
298 802 221 82 64 58
376 668 214 155 101 76
309 850 327 132 105 77
195 748 319 176 121 96
196 753 314 173 117 91
203 753 306 143 102 70
497 573 300 140 24 48
203 754 295 109 80 51
205 757 295 104 75 49
207 758 300 114 83 55
361 803 164 63 52 48
207 763 299 114 82 53
353 625 208 87 58 42
205 763 303 148 103 70
455 584 304 147 20 48
306 638 226 114 15 26
404 760 149 86 68 49
207 768 299 140 97 65
428 596 281 119 32 42
265 623 336 95 21 34
205 768 304 160 109 79
198 757 311 174 118 89
200 758 309 168 115 85
305 753 202 71 51 47
197 758 314 180 123 96
319 818 292 152 116 90
198 762 315 187 127 101
199 764 313 185 125 98
198 763 319 191 130 105
259 888 288 129 101 76
199 765 318 192 132 105
376 549 324 48 25 27
199 768 319 193 132 105
203 758 306 151 105 75
323 890 206 100 81 67
220 818 309 208 138 107
203 762 306 159 110 80
212 743 295 99 73 47
215 738 294 96 67 47
214 743 294 112 82 53
211 738 300 104 79 54
215 738 298 78 60 45
214 741 297 79 59 39
386 582 249 60 29 32
212 748 294 123 88 58
214 746 292 136 98 67
213 753 290 151 107 75
212 753 294 137 96 66
454 588 266 130 88 56
399 843 239 111 102 101
210 748 299 98 72 48
208 753 301 112 85 55
362 682 295 127 7 39
209 758 298 98 67 41
275 600 227 85 36 42
210 763 294 153 107 77
230 708 264 82 36 44
282 550 361 115 22 42
387 798 179 73 56 48
232 713 259 145 11 42
228 708 270 104 25 41
410 738 153 61 47 39
391 559 389 197 17 62
272 904 357 165 125 105
227 713 269 139 10 41
229 707 268 82 32 40
250 798 338 156 118 87
296 788 215 81 63 56
229 718 263 153 8 44
406 715 177 66 52 38
366 522 279 59 43 32
411 558 303 157 16 50
232 718 259 150 3 44
213 802 304 187 127 97
226 718 269 150 9 44
228 718 266 152 12 44
431 542 319 74 28 37
233 708 256 105 17 35
233 713 256 152 6 44
233 716 256 150 5 43
291 523 354 67 23 31
225 708 279 89 25 38
224 718 273 142 9 43
231 723 259 145 3 42
229 723 263 136 10 39
231 728 259 148 4 44
227 723 265 113 19 39
371 688 224 136 83 68
225 723 269 90 26 38
225 728 269 140 19 47
316 538 199 73 34 37
227 733 264 108 17 38
230 733 259 127 9 38
225 733 269 148 11 45
224 723 272 104 26 43
224 707 294 110 17 35
363 620 218 77 43 33
224 713 296 98 10 36
286 912 239 83 73 72
225 712 303 80 22 32
224 716 296 106 8 37
224 716 302 85 24 36
307 559 334 68 19 30
226 738 264 39 36 41
228 738 261 40 38 42
262 618 349 164 104 83
225 748 264 134 7 39
228 748 261 142 3 40
230 753 259 133 22 43
390 545 385 96 10 33
224 747 267 129 8 37
401 708 173 66 52 37
226 758 264 69 55 51
306 552 200 58 34 38
231 758 260 66 54 51
228 756 261 73 48 37
409 546 347 64 25 32
224 759 267 70 57 53
232 763 260 69 56 51
225 763 268 71 58 53
507 593 295 140 25 50
395 551 397 186 20 60
227 763 265 71 57 53
226 768 268 71 58 53
228 768 266 71 58 53
271 533 343 124 9 38
355 762 282 89 69 60
234 759 257 65 53 51
261 688 233 91 22 33
235 763 258 67 54 49
236 768 259 70 56 50
333 550 321 63 23 28
192 713 324 172 120 95
194 713 336 174 120 97
321 612 324 87 28 38
238 708 334 127 81 65
193 717 333 176 121 97
272 628 236 83 32 38
407 763 179 63 47 36
193 706 337 177 123 97
376 553 308 148 15 48
194 709 336 176 121 97
198 708 342 168 117 92
275 614 232 48 35 37
201 713 344 169 117 93
198 718 342 167 113 90
201 718 344 170 118 94
386 728 154 60 46 40
204 708 346 170 118 94
446 603 310 147 21 47
381 515 268 66 39 29
206 708 348 170 117 92
204 713 346 170 117 93
207 718 347 172 119 93
193 726 321 171 118 93
193 726 327 175 120 95
194 723 334 177 122 97
311 920 247 92 84 84
265 809 247 81 63 56
514 575 262 160 135 111
194 733 324 175 120 95
319 794 207 78 61 54
194 733 329 179 123 98
201 723 343 173 119 96
199 724 341 172 117 94
370 793 157 69 56 49
200 728 341 174 118 95
332 574 373 157 97 81
200 733 340 175 120 95
205 723 346 175 120 96
207 723 347 173 119 94
208 728 347 175 119 94
202 733 342 176 121 97
271 628 340 47 28 29
385 718 199 120 83 54
320 947 274 87 80 81
206 733 345 177 121 96
216 708 350 174 122 96
216 713 350 174 122 96
211 718 349 171 117 91
216 718 349 176 124 98
221 713 349 175 122 95
460 526 236 75 26 34
221 718 349 177 124 98
211 728 348 174 118 93
338 541 290 59 44 34
216 728 348 178 124 100
211 733 347 174 118 94
216 733 347 178 125 100
331 738 197 76 32 34
195 738 329 181 125 99
195 743 324 177 121 97
276 954 324 57 52 51
196 743 329 181 123 100
288 658 226 108 18 29
197 743 334 183 123 99
196 748 324 181 122 99
377 688 220 154 101 76
461 842 241 85 71 62
196 748 329 183 123 101
198 748 334 186 125 98
255 804 253 77 60 54
447 554 232 153 13 37
199 748 336 183 121 93
200 753 335 184 124 97
380 861 220 86 73 61
396 533 208 71 33 34
198 742 337 179 121 97
201 743 339 177 120 96
