ply
format ascii 1.0
comment Created by Open3D
element vertex 2224
property double x
property double y
property double z
property uchar red
property uchar green
property uchar blue
end_header
230 469 247 109 20 40
281 119 246 109 81 54
248 879 296 179 129 112
241 484 262 146 13 47
331 379 267 121 82 67
337 974 266 75 71 72
230 467 209 123 14 40
277 774 206 68 54 46
286 568 158 216 14 44
228 469 216 49 31 34
257 434 279 92 31 41
342 44 257 136 111 88
254 876 273 143 112 87
325 324 251 86 64 46
347 899 221 56 51 53
272 229 217 121 95 64
307 370 217 82 69 56
352 129 246 115 92 66
442 484 265 120 14 36
229 471 208 135 15 37
379 234 221 120 95 66
472 436 286 84 23 32
227 479 216 77 27 34
335 449 298 76 24 32
228 474 216 84 31 36
287 422 189 97 83 70
277 754 312 94 48 51
300 285 246 103 82 58
280 200 223 114 91 63
389 418 273 77 64 52
264 972 257 81 75 74
405 734 218 73 55 44
375 324 223 121 96 69
227 479 221 88 25 36
227 514 211 56 32 35
387 934 336 76 65 57
436 659 290 160 110 80
264 87 208 155 22 50
353 99 236 118 79 64
229 508 249 114 29 45
282 714 213 68 35 39
244 456 193 122 18 29
354 54 226 114 37 42
291 422 180 97 83 68
285 199 259 119 94 66
286 214 260 121 95 66
274 120 229 122 89 56
233 694 245 124 89 65
248 474 270 70 28 34
274 129 229 116 86 47
419 926 334 99 79 65
347 314 215 91 79 68
297 949 222 83 79 82
272 709 317 139 8 43
241 459 195 124 12 32
228 489 241 143 1 40
290 52 279 126 10 45
240 626 249 105 78 53
204 684 251 154 106 79
229 450 231 45 31 33
229 454 226 78 31 36
294 465 106 54 30 33
290 834 283 174 127 104
229 454 236 46 29 33
437 480 328 60 27 32
333 405 192 86 73 59
360 166 213 120 95 66
442 489 266 136 6 35
347 149 211 127 97 61
339 854 283 157 118 94
410 815 217 64 51 43
292 644 306 158 15 51
248 689 261 32 28 28
257 479 272 97 25 41
205 709 244 151 107 76
482 455 333 178 12 59
407 914 291 99 78 68
264 904 314 167 125 104
227 464 226 104 22 37
259 753 304 51 26 33
316 528 143 145 17 39
294 262 244 108 84 55
229 464 241 109 22 39
329 194 222 120 95 67
274 479 157 41 33 34
231 454 251 93 24 36
236 424 261 66 25 33
262 669 286 91 21 37
357 204 257 127 102 75
230 459 242 52 28 32
286 179 255 115 92 66
286 58 279 119 20 44
342 519 319 153 115 91
342 505 144 167 5 36
437 903 341 104 85 69
332 649 315 33 30 32
230 459 246 83 30 37
349 84 242 99 19 35
349 105 199 131 28 38
263 46 232 99 83 69
229 464 244 69 27 33
228 524 221 146 3 40
230 464 246 60 29 32
344 209 254 118 94 70
415 438 222 44 31 34
352 39 236 93 41 38
282 324 225 98 80 62
231 459 251 87 26 35
357 674 315 144 1 45
241 699 248 92 64 39
323 914 308 132 86 71
245 450 273 35 28 31
371 909 256 66 59 60
232 464 256 115 14 38
222 734 278 160 111 83
377 934 332 68 58 51
445 699 280 168 114 85
328 84 206 141 5 44
305 482 93 209 14 52
232 459 256 112 14 35
352 229 260 125 100 74
241 533 256 79 25 36
422 907 306 84 70 61
228 469 236 124 12 37
302 439 146 88 69 50
370 185 222 118 97 74
229 469 241 102 20 38
332 949 226 72 69 72
397 689 241 52 42 37
311 384 231 92 72 53
247 629 287 173 115 92
396 684 241 54 43 37
227 474 226 122 15 38
395 426 188 97 68 57
292 569 161 208 14 45
367 214 211 121 96 67
340 187 214 122 96 63
345 755 193 83 62 41
227 474 231 88 23 35
472 435 277 138 11 28
227 479 226 135 3 37
436 453 314 86 17 32
234 601 267 117 96 72
356 69 201 126 42 47
372 194 221 117 96 72
476 494 286 81 29 36
255 769 293 69 56 50
228 474 236 97 24 36
268 623 207 63 31 37
227 479 236 78 23 33
408 689 285 98 69 51
252 644 270 92 44 39
228 479 241 72 24 33
229 469 245 63 25 32
229 474 245 86 18 33
277 873 306 125 101 75
335 110 206 149 31 49
368 353 214 93 83 72
230 474 247 131 11 41
306 316 228 87 73 58
363 702 328 127 0 41
230 474 251 136 5 40
290 50 248 96 35 31
387 935 306 95 75 65
298 374 214 87 76 65
329 215 234 111 89 64
383 906 300 34 32 32
378 299 226 118 93 63
233 474 256 138 12 42
250 633 284 161 105 85
231 479 251 138 4 40
267 819 224 81 63 55
233 479 256 155 9 47
362 944 311 86 71 69
340 612 198 183 14 52
378 219 226 122 99 73
230 484 205 139 3 36
422 759 236 82 62 49
267 364 215 108 91 72
369 640 229 142 44 63
282 39 285 131 28 52
307 449 116 92 61 47
415 489 201 69 32 40
333 339 270 118 81 62
383 394 215 93 80 67
347 589 321 190 130 110
458 474 274 87 22 28
231 489 201 135 6 36
267 849 256 49 41 47
423 559 256 80 28 36
275 50 217 116 99 80
217 784 282 167 124 94
298 885 242 86 72 58
259 107 229 135 48 52
343 274 213 132 101 66
253 598 198 177 7 44
367 689 207 60 49 41
308 692 209 51 42 39
265 408 204 88 78 68
265 359 278 138 101 76
449 451 279 104 0 30
229 489 207 139 4 37
272 504 275 123 11 40
416 639 304 162 111 78
231 494 201 130 13 37
229 494 206 120 18 37
420 621 282 114 91 65
234 484 197 75 23 35
289 470 116 53 35 33
352 209 207 120 96 66
233 494 196 45 33 35
231 539 201 150 1 40
367 869 276 39 35 32
347 498 302 83 63 53
330 100 248 123 97 74
327 749 325 85 59 58
334 264 249 113 89 66
397 864 252 71 61 58
378 668 241 86 35 31
242 839 276 195 143 118
322 429 285 85 22 33
351 714 202 55 41 36
235 492 194 78 25 36
228 484 211 133 7 36
354 435 288 52 22 25
291 676 204 81 60 32
227 489 221 115 17 37
278 96 268 127 97 72
333 139 222 120 93 62
362 534 155 172 10 38
330 304 256 94 69 48
409 466 322 40 27 24
273 692 167 90 66 47
226 494 221 86 25 36
221 624 266 126 99 67
404 658 295 154 102 82
416 734 226 67 52 41
499 470 311 123 21 38
232 559 226 151 0 42
348 254 208 132 102 66
231 504 201 55 36 36
482 449 279 93 18 35
386 694 295 131 11 42
301 744 188 73 56 49
277 17 259 92 80 67
283 69 216 119 21 31
272 64 207 110 31 29
421 424 231 94 14 29
277 164 261 116 92 65
292 209 246 111 87 59
229 496 203 91 16 31
231 559 206 151 0 38
342 469 130 176 2 34
382 564 181 166 19 46
244 394 261 132 102 72
387 804 221 56 46 41
348 532 153 66 30 37
394 414 256 82 69 55
336 99 200 135 14 41
298 920 212 60 57 58
228 504 206 40 35 36
336 417 283 57 46 33
448 898 330 122 104 91
262 844 246 84 64 58
335 144 219 119 93 62
302 874 245 107 82 59
283 149 246 108 86 59
231 509 201 53 35 37
302 934 312 62 56 53
268 51 208 129 23 20
342 374 211 88 77 67
351 807 205 61 54 50
220 627 268 132 102 68
228 509 206 52 33 35
233 499 196 46 33 38
227 484 231 142 0 39
233 504 196 82 33 39
428 884 285 96 76 67
417 659 300 189 125 97
210 695 239 146 105 72
238 729 244 82 60 44
227 504 211 85 25 35
442 864 306 96 74 56
372 804 306 55 47 47
317 449 111 76 62 47
302 869 245 122 90 64
341 209 209 126 98 63
251 435 278 45 28 32
262 884 256 128 102 74
226 504 221 53 32 35
348 964 261 63 59 61
226 489 226 132 6 38
363 640 224 134 20 40
306 19 266 139 47 35
417 469 206 63 30 35
347 754 194 81 61 43
255 329 263 136 102 75
227 489 231 143 1 39
297 429 281 128 16 42
231 484 251 142 5 42
342 944 327 45 41 39
285 976 264 88 86 88
382 534 317 185 16 59
352 460 124 146 14 37
437 465 301 63 17 23
344 609 313 87 28 36
330 259 238 110 86 63
292 54 276 120 34 50
213 724 275 159 110 84
228 489 236 147 1 41
322 579 301 135 11 41
357 599 196 200 12 48
228 484 241 110 13 38
347 359 211 85 75 66
406 746 224 58 46 41
272 599 186 77 32 39
332 139 226 115 90 62
226 494 226 129 13 40
320 32 239 66 41 29
295 42 279 121 19 41
293 34 259 82 41 31
402 429 231 67 56 47
277 24 300 143 106 84
325 96 248 117 60 58
333 139 241 112 86 64
337 447 118 157 8 38
492 446 310 78 21 29
362 274 210 135 102 63
290 287 228 102 80 54
228 494 241 150 0 42
213 719 275 158 109 83
230 816 239 169 115 79
287 904 315 183 139 116
229 484 246 135 5 39
342 204 210 122 97 66
354 69 227 113 51 50
229 489 246 138 2 40
257 809 225 75 60 54
278 114 236 109 79 51
230 484 248 139 3 40
253 369 270 130 100 72
277 868 281 80 66 51
229 494 246 143 2 41
280 114 241 99 73 47
365 395 198 91 79 66
278 124 236 111 84 50
372 425 166 92 77 61
418 639 302 156 109 75
276 459 165 99 23 25
267 69 204 121 31 32
294 262 241 105 83 57
342 93 193 138 53 58
467 459 277 142 6 34
273 439 173 79 32 33
446 875 314 83 65 50
233 494 255 154 7 48
499 456 294 113 33 37
347 954 291 67 60 62
335 318 219 94 80 65
227 499 236 152 0 41
228 504 236 145 5 42
227 509 226 91 19 36
228 509 241 56 29 32
277 54 280 117 23 42
468 509 286 103 29 42
314 15 294 142 93 83
382 469 132 59 36 36
229 499 246 110 11 37
327 775 313 76 62 57
322 417 273 56 44 32
271 444 175 104 23 32
344 614 313 117 28 46
285 64 221 112 31 32
479 472 329 165 10 51
267 539 136 137 21 41
297 494 101 191 4 41
250 558 262 122 0 36
229 504 246 46 29 30
327 689 215 86 24 28
229 500 249 58 20 30
271 809 288 68 57 51
290 879 249 113 91 67
351 729 203 72 55 48
305 592 178 210 13 47
427 464 333 114 23 41
317 694 212 76 34 31
229 504 249 45 27 30
231 509 251 81 24 37
347 184 255 119 96 71
390 866 242 70 58 55
317 459 91 92 30 29
332 539 155 178 3 37
294 314 283 113 85 57
363 576 179 145 37 50
369 228 253 123 97 68
327 14 256 107 69 55
408 609 266 78 30 39
234 499 254 154 5 48
438 895 349 91 77 64
244 489 264 162 11 52
237 499 257 158 6 50
294 278 263 118 92 62
234 509 254 120 14 43
293 49 256 101 30 36
287 724 191 67 45 35
297 484 91 160 15 35
457 449 332 166 3 51
347 164 211 127 98 63
248 259 260 129 98 72
282 770 212 79 48 45
348 244 260 124 98 71
341 114 249 124 98 67
292 714 319 175 11 55
250 259 263 129 99 74
262 469 275 52 29 32
249 264 260 132 99 74
287 299 228 103 82 57
250 264 262 131 100 73
422 429 236 81 18 31
253 259 265 129 100 74
336 972 247 80 74 77
415 731 227 73 57 46
372 494 291 59 23 25
249 269 259 134 100 74
314 57 251 105 72 64
254 729 227 91 22 33
342 69 250 120 18 44
357 659 312 156 11 49
302 603 187 207 11 47
251 269 262 134 101 75
249 274 259 133 98 74
347 144 250 120 95 67
259 476 173 120 15 28
287 548 142 137 23 41
251 274 261 134 100 75
357 149 216 111 91 68
377 249 216 125 98 63
363 324 267 125 90 58
253 274 265 134 102 76
325 399 221 75 65 54
256 274 267 132 101 76
204 729 247 159 110 80
482 494 306 106 18 38
256 279 267 131 100 76
399 481 321 54 24 28
332 94 206 126 8 38
303 899 226 62 56 54
250 284 257 131 96 72
281 599 293 124 18 41
263 28 285 133 51 62
445 442 258 42 30 39
242 419 266 107 84 63
295 259 232 110 86 57
336 214 247 115 91 67
252 289 261 128 97 71
337 520 149 170 2 35
287 89 261 109 53 49
347 794 206 68 54 56
254 284 264 130 98 73
256 550 155 131 24 43
262 149 227 123 98 68
337 69 253 116 28 46
390 700 290 140 6 44
384 667 254 98 28 34
260 367 219 111 91 69
365 175 244 117 96 72
254 289 264 128 98 72
285 89 265 126 98 74
395 941 332 98 82 66
359 163 248 117 95 70
256 294 267 134 102 76
387 459 287 73 21 25
316 819 293 194 140 116
297 747 314 68 57 52
333 254 246 114 91 67
338 134 217 122 94 61
357 359 211 90 79 69
351 959 271 68 63 65
252 299 261 132 101 74
261 509 151 114 8 31
283 460 152 100 17 28
269 294 279 114 88 64
329 867 188 78 65 60
441 669 286 174 121 92
361 436 118 93 70 50
289 80 256 133 8 43
362 880 212 58 55 58
254 302 264 134 100 73
361 793 192 72 58 51
302 584 172 118 28 42
361 179 250 119 96 70
322 431 152 79 60 45
250 909 260 174 126 104
266 439 179 67 36 36
255 306 263 137 101 76
420 654 259 122 94 66
274 11 304 114 63 52
255 309 263 137 102 76
270 329 224 121 95 64
297 420 177 96 81 66
396 494 151 173 17 41
341 597 188 91 25 39
257 309 266 138 102 76
317 639 210 89 30 37
288 363 214 89 79 68
380 284 231 126 96 60
253 314 261 135 101 76
358 139 221 110 92 72
239 603 222 127 35 46
292 374 212 91 80 68
253 319 261 133 100 74
378 439 288 89 13 29
357 838 286 45 38 39
355 109 231 117 96 72
255 314 263 134 102 75
214 645 269 141 103 72
375 679 222 67 44 36
342 431 136 87 71 54
262 867 281 111 85 53
346 348 214 85 76 67
352 495 296 50 40 38
337 139 246 115 88 65
362 449 117 156 5 34
257 314 266 132 99 72
257 319 266 128 97 68
456 875 343 88 81 74
401 749 223 54 44 38
327 539 154 176 3 36
255 324 263 134 101 75
233 744 239 111 85 59
292 564 156 123 24 42
248 714 241 101 15 27
272 214 218 120 96 68
378 899 259 66 58 55
282 79 271 112 60 54
257 334 266 130 99 70
429 476 293 60 22 25
284 476 128 64 32 32
319 41 233 67 37 28
447 709 271 145 100 69
371 380 208 91 80 68
241 559 181 50 32 37
253 344 261 125 97 67
231 734 278 134 92 69
256 339 266 123 95 67
281 611 194 207 11 45
313 34 246 104 30 25
418 454 225 34 31 31
437 449 246 59 33 36
304 344 267 119 79 58
350 762 198 46 40 40
329 244 235 114 90 66
268 606 288 137 90 73
254 344 264 122 95 65
381 664 251 81 32 34
337 15 256 97 75 60
358 894 225 58 53 55
330 717 213 60 37 35
256 344 267 121 95 65
302 364 220 82 71 60
254 349 265 119 93 63
248 369 261 125 98 68
252 354 261 119 94 63
330 972 290 65 59 59
333 69 188 123 31 34
259 587 183 68 37 42
258 134 260 114 94 73
395 778 228 50 41 41
253 359 266 123 95 66
256 440 278 126 34 51
309 890 213 50 47 49
261 602 294 179 122 100
332 314 220 95 80 63
322 484 284 89 53 49
250 683 261 39 26 29
325 603 308 97 18 33
340 149 214 127 98 61
213 684 238 145 106 72
255 353 268 122 95 66
272 139 264 127 99 70
209 783 247 176 118 87
267 134 227 126 97 61
372 793 309 55 48 47
257 354 271 125 96 68
256 427 278 93 48 39
352 464 126 139 11 37
472 484 324 172 12 56
451 844 305 91 74 62
322 779 310 75 62 56
315 864 211 53 49 49
249 361 259 120 95 65
262 354 275 131 99 72
482 436 290 75 17 28
249 364 260 122 95 66
345 259 258 124 97 70
250 363 262 123 96 67
279 486 112 83 34 41
381 888 253 62 54 52
394 679 256 74 40 38
332 129 241 115 87 66
350 904 228 67 59 62
251 364 266 125 96 68
237 804 230 166 116 79
392 933 306 92 73 66
306 394 261 122 84 66
251 369 267 128 99 70
262 509 146 98 19 33
342 30 267 130 48 55
367 399 283 133 101 71
250 616 219 56 28 27
255 666 268 56 13 26
360 883 228 59 55 57
342 15 256 97 69 57
263 958 246 91 83 80
261 504 161 98 16 29
425 845 256 97 79 75
420 705 242 74 53 39
256 364 272 132 102 73
247 374 261 127 98 69
354 80 199 142 28 48
328 289 231 92 77 62
245 382 258 127 99 69
362 544 160 93 25 38
325 374 226 69 59 48
203 704 251 156 108 80
267 24 250 105 74 56
325 437 130 71 52 43
386 369 246 121 96 66
396 629 261 52 31 34
319 534 310 148 103 89
375 254 250 125 96 61
246 384 261 129 99 71
329 184 226 111 89 63
248 379 265 132 103 73
412 454 161 160 9 47
298 698 190 84 58 44
309 494 129 77 33 37
373 699 211 52 43 39
253 374 270 133 103 74
250 379 268 133 103 74
332 869 189 71 61 59
285 164 251 110 87 61
250 384 268 134 103 76
353 34 241 100 39 37
255 384 273 134 102 77
353 105 216 112 76 60
318 417 256 61 48 35
367 624 307 154 22 50
239 415 260 117 93 67
340 476 134 154 0 32
296 975 256 88 84 86
374 218 242 115 93 67
380 339 228 112 92 70
388 739 306 76 30 38
245 389 262 132 101 72
434 476 274 66 24 30
272 74 205 136 14 30
229 529 236 75 30 36
252 484 270 71 29 37
245 397 263 134 104 75
317 983 271 71 68 70
307 599 302 78 23 34
328 294 231 91 77 62
284 838 275 154 114 94
246 399 266 135 103 75
368 824 216 52 47 51
283 464 151 95 21 29
204 679 255 150 102 77
291 776 303 70 59 54
342 40 226 121 104 85
356 79 206 129 24 45
249 394 269 136 103 77
431 635 281 117 93 64
352 629 312 69 27 34
364 184 214 122 96 64
252 394 271 136 104 77
379 282 243 127 98 63
255 394 273 138 105 79
307 21 282 115 42 47
408 793 228 61 48 45
267 159 265 121 97 71
258 760 218 103 14 30
353 124 216 108 89 68
434 699 293 168 114 80
290 74 261 122 85 71
417 449 226 39 34 32
269 953 304 174 134 116
257 394 275 139 104 79
423 654 258 123 94 67
422 734 236 62 47 39
302 469 81 81 33 40
341 493 291 97 69 61
316 745 322 72 57 52
255 397 273 140 106 79
338 99 197 138 31 47
321 524 306 122 82 72
311 379 251 116 77 61
242 404 261 131 101 72
388 505 150 63 30 38
261 100 215 132 23 41
330 104 215 120 26 42
300 417 278 86 31 30
279 119 239 107 83 54
367 804 220 62 53 52
293 264 230 107 84 57
244 405 264 133 103 74
285 652 303 149 10 46
246 404 267 134 103 76
353 129 216 111 90 68
414 617 280 96 77 53
246 409 267 133 103 75
324 495 304 119 90 70
356 184 254 123 99 73
243 414 265 128 100 72
319 94 236 95 68 51
246 414 267 127 99 71
332 504 141 160 5 37
248 414 269 126 98 72
276 581 169 68 41 47
249 404 269 136 104 77
267 189 221 119 94 66
425 509 233 62 30 33
304 307 258 120 92 64
252 409 272 137 105 79
202 734 256 161 110 83
222 794 287 171 129 99
335 124 220 118 91 59
412 424 191 118 21 38
439 669 288 173 120 90
257 404 275 143 108 82
301 489 106 173 0 42
316 948 322 42 40 39
284 101 258 140 99 81
248 734 286 159 6 50
271 108 218 133 22 34
298 500 124 104 28 41
249 508 264 136 14 44
486 449 338 62 27 34
382 870 234 70 58 53
277 394 281 152 109 83
258 349 227 112 91 67
254 405 274 141 107 80
418 584 261 186 16 50
370 195 240 115 93 67
421 499 226 119 3 31
247 499 265 86 28 38
345 581 323 193 138 116
354 64 227 113 55 55
297 778 304 71 59 55
308 479 121 158 38 53
322 969 237 94 89 93
251 494 268 143 22 49
292 749 312 74 62 57
258 104 221 128 13 40
248 603 207 93 35 43
382 433 126 90 73 56
254 409 274 141 108 81
278 519 281 103 16 36
254 414 274 137 105 79
238 419 261 78 55 43
312 933 212 78 72 73
342 644 215 96 28 38
237 424 266 91 30 38
333 274 218 107 85 60
322 624 317 107 32 45
402 589 226 130 21 46
316 64 241 103 36 43
384 760 219 72 54 49
284 105 236 121 54 53
228 569 246 76 27 34
322 923 196 76 67 66
328 344 223 72 61 50
238 425 270 91 29 38
237 429 266 105 20 39
332 978 256 85 80 83
238 429 270 69 28 36
288 298 229 101 81 59
236 434 261 56 28 32
234 444 259 134 7 37
337 909 203 72 64 65
373 595 200 48 33 37
272 380 208 104 88 71
235 449 262 120 15 41
378 832 299 166 127 105
292 844 287 160 126 102
311 374 231 77 63 49
311 24 251 112 24 22
332 569 311 184 129 112
347 134 249 120 96 68
410 611 286 112 87 59
302 329 225 82 71 59
251 422 273 117 91 70
239 444 269 86 27 37
258 129 260 115 95 75
429 471 298 61 19 24
433 464 241 132 9 33
279 89 220 135 18 38
372 449 290 72 21 30
332 159 236 107 84 61
337 609 196 161 20 44
239 447 269 80 28 36
240 417 263 114 92 68
259 847 257 58 48 54
435 719 294 171 115 85
273 494 131 51 33 34
414 775 233 82 60 48
343 99 248 127 102 74
350 860 194 60 46 44
266 349 220 113 92 69
278 69 210 136 18 35
342 421 167 88 74 59
437 554 296 98 23 40
300 29 268 109 64 56
243 421 269 96 77 58
269 86 209 144 14 42
280 124 255 116 86 61
342 814 301 109 86 77
242 423 271 62 47 37
244 443 274 109 25 43
374 744 214 52 42 37
325 375 252 103 69 52
247 422 272 96 77 59
364 822 299 66 57 53
251 419 272 125 96 72
247 425 275 74 53 40
253 613 212 98 31 37
443 765 270 126 86 63
370 184 231 117 95 70
217 809 247 167 113 79
375 279 249 130 99 63
345 389 278 132 95 75
251 729 231 103 21 32
255 950 259 149 116 100
262 44 236 103 88 75
294 399 273 143 101 80
399 490 156 174 17 48
332 724 215 91 31 37
328 50 212 111 94 73
362 934 251 65 57 57
376 759 212 69 54 49
341 115 210 135 90 64
261 659 281 45 24 30
243 425 274 42 33 30
251 714 236 107 15 28
240 430 273 81 27 36
292 553 147 198 11 42
408 465 330 36 29 27
392 754 220 63 49 42
242 429 275 106 25 43
321 28 240 72 38 26
292 239 256 120 93 65
244 579 264 102 22 38
336 309 220 97 83 67
267 44 210 122 41 30
287 944 311 104 87 77
322 14 251 110 65 50
247 429 278 112 25 42
351 139 249 119 95 68
401 874 272 63 54 47
270 196 269 121 97 71
223 808 242 166 113 76
377 254 216 128 99 63
274 52 214 117 98 76
348 280 264 106 81 59
252 430 279 105 23 40
295 468 90 99 27 31
493 479 311 56 35 38
291 214 256 118 94 66
292 279 230 104 82 56
257 429 279 97 29 37
427 469 271 69 23 30
308 309 246 99 79 59
328 99 217 89 64 42
229 708 239 124 91 66
444 837 295 69 54 48
324 369 259 113 76 61
347 474 282 122 7 38
396 529 177 56 35 38
286 59 231 90 31 31
347 84 191 149 23 44
427 489 328 75 28 36
239 563 187 121 28 41
407 579 231 187 18 52
242 444 272 88 29 39
369 314 258 126 96 61
372 289 217 116 92 64
427 779 230 85 66 52
407 534 310 147 16 48
287 21 303 146 100 78
262 54 210 94 39 27
352 492 287 41 26 28
243 439 274 37 28 30
247 439 277 51 29 33
337 495 295 90 66 51
483 443 326 67 23 31
388 434 283 84 25 31
282 249 220 119 92 60
241 594 256 117 19 40
347 59 196 92 49 21
351 60 197 89 50 26
332 489 298 107 81 68
247 449 275 34 29 31
426 799 251 65 52 48
399 610 240 63 34 38
252 434 279 70 32 37
246 584 281 122 98 72
252 439 278 90 26 38
204 659 255 153 102 79
306 484 122 142 5 35
357 414 285 123 93 67
282 35 251 65 43 31
341 134 248 119 93 66
333 394 201 79 69 59
254 437 279 57 29 32
410 436 133 96 47 51
446 699 276 165 111 80
372 549 166 164 15 42
328 84 211 130 13 41
412 564 298 60 28 31
263 229 218 123 96 61
408 524 196 80 33 39
328 45 263 136 103 79
252 444 277 75 26 35
281 154 256 114 89 62
268 314 280 125 92 66
445 817 298 103 79 61
317 909 311 179 129 107
362 739 330 74 32 40
257 444 278 82 31 39
236 459 262 119 22 43
333 840 288 171 134 112
287 354 214 91 80 69
249 691 264 33 28 26
307 834 226 53 48 48
280 200 264 119 94 66
278 110 231 115 78 57
417 420 230 90 24 33
363 464 289 50 27 30
237 729 278 113 71 54
373 909 260 66 58 57
234 464 259 133 13 43
260 498 164 100 22 25
239 464 264 57 31 34
342 99 196 118 81 68
272 189 222 117 94 66
282 309 286 119 89 67
375 316 254 130 101 66
237 469 261 39 30 32
396 426 192 98 69 58
336 329 272 119 83 63
376 638 232 73 34 38
278 219 220 119 94 64
262 559 156 177 13 46
262 314 226 135 100 68
267 119 226 133 99 63
307 394 212 89 74 57
266 434 180 47 38 40
310 349 260 114 76 59
239 468 264 47 29 32
266 95 268 116 54 57
238 479 260 54 25 33
304 907 308 157 118 87
329 108 245 119 89 70
332 79 252 110 77 60
352 44 246 120 85 72
243 459 270 107 29 44
304 19 291 134 41 56
281 84 221 145 22 43
247 459 272 122 22 44
253 909 256 156 114 91
247 464 271 92 27 40
287 289 276 107 85 59
387 926 290 80 64 56
248 454 274 65 25 32
344 204 254 117 93 68
252 454 275 130 23 47
362 894 286 39 36 35
330 182 226 110 88 63
366 844 213 63 58 59
274 81 209 147 14 41
249 457 274 147 27 59
440 689 258 156 113 82
252 459 274 131 22 46
441 538 309 180 13 57
251 460 273 136 17 45
268 839 237 92 70 63
380 309 241 124 97 65
252 464 273 83 27 37
322 11 276 135 63 67
257 459 275 47 26 31
254 463 274 130 26 45
334 119 222 118 89 57
395 414 246 81 69 57
318 59 231 94 34 32
357 549 161 130 26 43
329 234 218 115 90 62
311 394 216 90 72 51
242 469 266 59 30 33
386 374 251 115 92 66
245 523 174 116 15 34
302 880 300 150 119 89
260 54 266 115 51 56
326 399 256 111 74 61
320 23 244 93 35 33
219 664 279 173 123 96
259 313 228 139 102 71
247 469 270 77 31 37
274 124 230 120 89 53
245 470 268 50 28 30
370 376 208 92 80 69
359 528 317 135 100 86
277 479 279 71 29 35
288 839 281 167 125 101
314 48 247 115 24 43
314 19 248 140 31 25
265 514 130 92 24 35
350 115 244 116 94 70
212 749 237 148 105 71
227 779 231 141 102 65
240 474 263 40 30 33
240 479 263 36 27 30
307 467 78 127 30 38
302 464 276 124 14 41
415 778 229 91 65 49
322 678 213 77 26 27
338 234 250 118 94 68
242 474 265 70 31 35
315 49 241 94 33 32
335 244 214 127 98 62
316 416 280 54 43 34
337 654 315 95 25 41
349 42 229 99 65 53
243 479 265 122 24 45
436 645 285 138 105 67
327 593 183 207 14 48
264 344 223 115 93 67
412 429 216 70 32 33
407 804 310 171 127 94
246 479 267 120 23 44
343 229 255 117 93 67
322 761 193 63 51 41
324 369 251 95 66 49
242 814 231 171 119 84
308 24 256 119 34 23
314 53 255 106 20 40
328 204 221 117 94 67
297 874 247 106 78 52
248 479 269 88 28 38
320 54 221 81 34 28
263 545 275 122 4 38
252 469 272 52 28 31
355 114 236 116 94 68
252 479 271 98 24 41
217 704 237 139 105 70
342 49 206 122 96 73
373 334 257 127 99 66
255 466 273 56 30 25
436 497 324 114 13 45
223 688 239 133 98 66
258 529 141 113 25 38
238 489 259 161 9 51
348 114 211 121 91 59
362 389 282 136 102 70
308 931 209 77 70 70
338 124 216 122 92 59
368 284 214 126 97 63
274 90 214 149 16 41
316 69 246 108 42 49
390 414 270 80 67 54
335 129 219 118 92 61
357 459 287 72 25 32
353 679 201 59 44 40
420 504 223 121 0 34
272 47 226 110 93 76
383 504 321 47 25 28
236 489 257 159 9 51
340 139 248 118 91 65
282 244 221 117 91 59
290 333 284 132 87 69
367 479 290 105 12 34
434 430 334 86 24 35
286 169 246 109 86 59
307 11 285 143 101 106
238 484 260 138 15 47
372 505 144 50 36 41
316 55 257 117 55 56
266 878 260 107 85 60
241 489 262 161 10 51
315 54 246 96 27 34
243 484 264 159 17 53
333 65 188 104 46 28
277 414 195 89 78 68
242 494 262 159 11 51
420 549 241 133 20 41
253 919 257 148 116 94
215 820 278 197 141 113
367 784 312 75 63 57
342 44 221 122 103 83
277 830 282 57 43 43
302 654 212 112 21 29
465 447 273 144 0 43
252 489 269 93 22 38
297 704 171 93 62 51
257 489 271 73 30 36
258 164 227 119 96 68
268 924 242 88 76 67
250 491 268 155 14 48
264 167 223 122 97 66
325 334 226 70 60 50
224 630 280 145 107 76
331 765 318 78 63 57
231 669 242 139 98 76
257 494 270 57 26 30
279 475 153 51 30 39
302 349 271 126 85 64
242 504 261 146 11 48
329 914 209 82 73 74
245 500 263 122 33 45
300 319 269 105 73 50
265 524 129 154 5 36
268 349 218 111 91 68
246 504 263 119 24 46
315 59 246 100 28 35
244 498 264 109 15 36
274 906 243 104 85 64
443 545 301 201 6 62
291 194 246 111 87 60
292 499 272 58 26 30
346 24 276 133 35 54
407 484 330 109 28 45
330 194 230 111 89 66
325 607 313 61 24 29
432 500 323 79 25 34
312 739 191 65 52 43
248 504 264 85 25 38
282 389 206 94 82 71
278 259 273 126 99 67
250 738 229 40 31 35
382 868 232 70 58 53
326 47 220 89 39 34
396 499 156 87 26 37
267 47 226 97 81 65
351 79 192 140 24 43
242 509 260 142 11 46
252 504 267 68 27 33
251 509 266 78 25 34
479 501 311 190 17 55
380 294 244 125 97 63
352 239 261 127 101 73
332 935 324 47 43 43
280 89 222 137 23 44
322 413 246 69 51 39
356 94 226 113 78 61
422 533 309 161 15 54
256 509 272 39 29 31
337 19 246 100 83 68
467 434 326 65 30 28
375 924 277 64 55 56
367 824 211 56 51 54
266 11 214 109 71 54
429 892 320 105 87 77
350 962 258 56 53 57
357 764 202 54 43 38
331 409 267 84 61 45
347 543 158 144 19 39
267 14 212 109 71 54
319 830 198 58 50 48
267 19 212 109 71 54
225 815 244 168 113 78
446 669 280 161 109 77
368 669 307 138 13 45
276 194 223 112 90 64
272 494 277 53 28 31
267 19 215 109 71 54
302 627 203 185 9 41
267 29 215 104 75 57
317 902 302 159 125 102
307 344 223 77 66 54
257 584 182 110 29 40
261 23 255 98 83 68
263 20 256 105 78 61
259 79 208 140 14 41
347 859 196 54 43 45
258 410 207 92 81 71
417 784 227 99 72 56
264 209 218 119 95 66
319 778 309 77 62 56
301 319 266 110 76 53
372 769 206 65 53 46
267 40 237 112 88 68
259 30 253 82 67 49
262 29 251 96 84 74
412 859 277 50 41 37
260 27 254 93 79 65
322 418 281 51 40 33
415 587 284 57 24 29
267 18 255 103 76 61
283 37 249 74 45 31
271 20 253 101 89 76
380 421 284 98 79 58
379 224 231 118 95 70
259 36 248 92 80 66
272 24 251 104 89 74
447 474 267 143 4 33
219 630 257 120 97 71
242 717 249 66 50 42
380 345 254 124 99 69
432 769 251 63 49 42
279 42 239 103 86 66
329 254 222 108 85 58
239 665 266 90 62 48
239 592 208 155 0 51
267 30 247 107 73 57
267 207 219 118 95 68
399 460 134 163 12 35
290 668 308 157 12 49
322 623 203 42 35 40
272 28 250 103 88 73
226 669 238 146 105 77
312 654 212 129 7 31
337 119 216 118 89 56
357 836 288 49 43 42
331 58 259 118 32 46
407 664 291 144 97 78
277 20 256 97 83 69
444 719 277 164 109 80
259 56 212 79 39 31
369 929 266 64 57 58
280 129 251 111 82 55
501 451 331 53 17 28
415 489 198 67 34 32
276 25 253 101 87 73
274 22 254 103 89 75
353 414 284 120 90 67
493 464 291 43 35 38
277 23 254 100 86 71
327 354 221 73 62 52
282 24 256 80 54 41
301 726 318 170 21 57
280 28 253 82 65 44
232 569 252 87 24 37
264 55 208 107 28 20
282 39 246 80 42 24
351 144 250 118 94 67
400 482 292 33 25 27
262 829 231 83 66 57
282 29 255 59 38 33
263 49 211 103 43 33
280 139 255 117 89 62
333 429 295 145 14 46
244 913 282 178 129 111
264 44 212 102 57 42
440 841 309 72 58 47
355 65 202 116 41 41
326 394 216 74 64 55
267 34 211 104 73 55
335 167 243 110 88 65
226 724 238 133 101 71
355 84 202 143 32 49
268 34 214 104 72 54
425 514 233 99 23 33
346 289 214 100 81 61
306 825 219 57 49 46
270 39 212 110 69 48
434 494 251 43 30 33
267 44 216 93 72 55
298 850 294 155 125 102
272 244 217 124 96 61
292 324 225 90 78 65
267 49 209 128 21 18
377 649 296 155 13 48
383 354 251 124 98 69
285 839 277 169 126 104
447 434 333 137 9 45
241 514 258 112 21 43
281 572 304 187 133 112
282 31 288 119 70 61
337 50 193 124 29 16
325 919 309 144 94 79
257 839 276 50 42 42
264 45 214 89 68 48
362 430 131 92 72 53
348 616 204 151 22 48
270 44 212 118 56 28
424 860 290 47 39 35
267 954 236 70 65 66
319 62 254 129 93 78
347 673 207 76 56 43
297 729 185 63 48 40
271 49 211 107 50 26
357 224 259 126 100 70
235 821 239 178 121 88
261 85 209 148 16 46
262 59 207 100 32 24
387 589 206 62 33 40
262 64 206 109 36 29
302 594 180 209 12 46
350 56 202 98 52 26
292 839 285 167 129 104
298 494 111 145 14 42
267 59 207 106 25 20
382 429 146 90 74 57
402 930 331 89 73 61
270 59 208 100 31 21
367 594 196 173 15 45
312 394 241 95 68 53
407 749 300 171 121 92
264 180 223 122 96 64
262 11 286 91 32 38
332 84 196 146 8 44
274 304 224 115 91 64
260 52 219 66 57 46
300 452 120 87 28 27
444 535 269 56 32 38
259 61 208 90 42 21
260 58 209 87 38 25
221 638 249 103 87 70
357 149 246 117 94 68
308 344 225 73 63 52
295 44 262 118 22 41
347 579 177 139 26 42
272 54 211 93 41 27
247 549 262 132 10 44
287 894 236 148 114 84
294 19 265 119 27 25
260 47 235 102 85 72
314 49 251 103 31 41
275 55 213 92 64 42
383 500 306 54 21 24
424 471 303 56 21 26
282 772 206 70 54 47
322 411 191 84 72 59
322 79 250 109 23 43
362 849 275 38 33 34
312 564 161 70 36 38
381 509 321 85 17 31
232 604 276 125 98 67
212 754 275 164 117 88
360 704 209 57 41 35
277 72 274 126 96 75
371 410 284 128 99 68
262 866 299 97 79 60
277 64 211 105 34 25
381 674 296 61 26 30
257 804 287 53 47 45
338 20 283 130 87 70
332 194 217 119 94 65
278 59 215 88 35 25
353 94 201 134 26 44
361 509 305 46 22 24
279 62 214 88 41 24
260 329 229 124 97 68
447 439 332 156 0 48
242 729 241 72 30 34
249 730 233 62 26 25
287 776 303 74 61 56
263 644 281 150 11 46
281 65 212 110 34 29
267 209 270 123 99 74
281 55 222 98 71 47
252 804 225 84 68 59
267 266 219 126 95 59
340 234 253 117 93 67
485 492 315 188 19 58
283 844 271 165 123 102
444 714 281 170 113 84
313 639 314 94 31 41
509 456 316 77 31 41
333 259 216 117 92 61
283 64 216 101 33 24
390 602 218 101 25 40
483 494 316 98 27 41
431 649 295 153 107 73
384 703 302 146 4 45
283 59 221 97 43 27
285 61 222 100 31 28
292 515 290 107 85 63
350 129 213 122 96 64
272 40 237 114 97 79
321 409 221 92 75 61
398 485 306 46 22 26
262 49 226 87 74 61
245 571 184 54 30 30
318 674 214 120 13 28
264 451 178 82 30 39
258 49 236 97 60 48
502 464 326 92 28 38
258 45 242 88 58 41
335 235 214 126 97 61
319 534 306 132 89 77
352 432 125 88 72 55
272 38 241 112 95 77
317 421 284 92 26 39
294 239 237 106 83 55
357 709 211 59 41 36
267 45 231 106 87 70
367 209 251 123 99 71
261 489 273 48 24 29
265 47 229 96 80 66
294 263 257 115 89 60
353 119 242 114 93 70
427 484 276 83 22 33
356 496 295 34 23 26
347 890 201 55 50 51
272 44 231 114 96 77
266 43 235 109 89 72
227 809 236 169 118 80
263 40 242 100 89 79
279 486 121 71 32 34
339 189 249 109 86 62
423 453 268 95 16 31
442 754 276 121 85 63
411 449 166 159 9 47
272 619 286 47 27 30
317 20 286 190 138 128
338 214 250 116 92 68
351 724 202 66 49 43
272 42 234 115 97 79
293 369 277 141 97 77
376 664 300 80 24 34
292 64 256 113 26 45
335 278 253 111 86 64
302 869 296 178 140 113
262 34 246 100 85 74
367 922 317 36 35 37
437 459 251 136 7 37
437 489 326 45 30 31
222 724 278 151 104 78
306 695 201 59 47 42
261 38 245 99 89 80
342 599 190 162 23 47
335 229 248 118 94 69
272 429 280 106 81 61
341 943 228 66 62 63
290 189 237 113 90 62
329 189 231 110 88 63
429 921 341 110 85 68
267 35 242 115 78 60
228 524 211 145 10 43
419 811 239 70 58 51
310 31 262 107 23 41
264 36 243 98 81 71
355 592 188 202 12 50
320 465 87 165 7 46
294 461 121 75 29 31
267 724 220 112 15 31
295 255 251 115 89 60
359 951 271 67 64 65
327 489 286 98 71 56
271 35 242 110 92 73
273 33 245 107 91 73
422 899 306 92 80 70
272 208 219 118 95 68
316 504 133 114 24 37
258 50 231 91 70 53
401 754 223 56 46 39
277 39 241 108 92 73
324 940 219 77 72 74
298 34 266 114 60 51
276 45 232 114 96 78
278 48 231 110 89 71
205 764 251 175 118 90
243 569 261 136 20 46
332 294 256 98 75 52
302 384 266 130 90 72
241 629 249 112 78 58
287 345 218 89 78 67
347 94 195 143 23 45
394 707 283 92 21 33
434 561 287 148 29 49
277 43 236 111 94 75
296 699 171 90 65 48
324 77 209 138 1 45
413 426 168 134 31 51
276 41 237 111 94 76
502 447 312 81 11 27
287 49 241 91 35 24
276 35 247 105 89 72
287 274 225 114 87 57
274 32 249 106 90 73
282 355 283 151 105 82
267 64 272 110 70 58
286 40 247 91 37 21
387 835 297 166 117 92
388 846 273 28 26 25
352 923 311 36 34 34
259 82 208 144 9 39
437 888 320 111 92 76
285 982 291 60 56 55
393 490 301 39 23 27
351 24 246 94 45 42
368 481 134 63 38 35
287 39 251 88 35 24
298 959 319 58 53 52
387 664 256 63 35 35
281 41 242 81 48 30
274 982 284 52 49 48
260 230 219 124 96 61
286 45 242 72 46 30
346 19 280 114 36 47
400 600 300 130 98 65
272 564 155 190 15 46
360 170 249 117 94 68
290 468 121 47 36 34
347 113 206 133 88 66
451 488 324 172 11 53
284 42 244 89 34 18
270 319 283 133 95 72
463 450 274 139 3 30
393 740 220 63 52 45
332 289 251 95 73 51
287 489 97 105 24 37
225 617 272 131 102 68
268 84 270 109 90 69
279 52 224 115 96 76
280 51 227 98 76 52
263 329 227 126 99 68
281 50 231 89 53 45
284 53 230 74 47 36
312 438 141 86 68 52
430 789 256 86 61 48
285 54 232 65 41 25
326 99 220 96 64 44
332 435 126 82 64 48
291 896 233 109 77 44
288 54 241 84 38 30
434 816 304 77 61 45
316 12 287 129 62 61
293 309 282 110 83 55
285 59 226 93 43 30
381 424 285 82 68 53
342 758 324 81 66 60
347 364 278 138 100 76
431 854 297 70 57 46
269 480 163 85 30 32
292 64 251 110 15 39
320 550 307 157 108 90
387 424 191 96 79 63
284 57 230 71 37 26
259 957 294 200 151 128
308 446 122 87 63 49
337 174 246 111 89 65
237 759 280 135 95 71
283 857 252 181 122 90
286 64 226 109 42 40
402 479 146 149 17 39
280 97 223 130 26 36
284 214 224 113 89 59
412 484 330 63 28 34
282 16 308 162 116 100
287 64 236 93 34 34
443 805 309 84 65 48
312 15 256 121 37 24
395 410 231 82 70 58
261 754 219 113 12 30
352 454 122 69 32 36
426 544 256 62 29 36
271 504 121 60 34 34
262 109 226 135 73 63
305 821 214 62 54 51
317 34 241 76 55 40
322 919 205 80 71 70
317 15 247 122 56 43
313 15 251 121 40 30
308 19 257 132 31 21
311 374 241 95 69 54
332 879 192 81 68 66
312 19 251 130 27 22
334 976 263 72 67 68
332 799 306 56 47 49
311 29 251 102 52 39
438 426 334 99 15 35
317 19 247 119 34 30
314 29 248 94 35 27
350 31 238 96 50 39
319 59 223 102 43 44
280 392 209 96 84 72
290 40 253 121 38 22
447 439 317 70 29 31
314 874 211 51 49 51
290 44 252 138 32 42
282 799 215 74 58 49
360 140 227 115 95 73
317 469 91 174 0 45
362 154 221 111 92 72
227 669 277 175 123 97
279 866 284 91 73 54
222 674 238 148 106 76
283 479 121 69 29 33
382 594 206 74 38 44
292 44 256 100 47 40
368 608 315 178 113 94
342 714 210 52 37 36
311 364 231 74 61 47
291 49 251 106 25 31
289 54 245 74 41 35
307 523 298 121 91 65
289 59 244 95 29 35
296 654 308 131 17 45
290 59 247 93 26 36
210 704 239 144 105 70
283 864 257 159 113 86
275 424 279 152 109 83
424 530 235 55 28 34
351 124 245 116 94 68
375 390 279 125 99 68
352 828 295 55 45 46
264 920 248 138 109 80
381 329 246 128 100 66
290 64 247 116 48 51
291 59 251 113 27 43
337 964 236 76 72 74
319 35 238 76 38 26
339 858 178 106 88 80
300 15 310 117 81 60
393 424 271 70 58 46
284 464 148 97 20 29
205 784 261 166 114 83
308 314 246 98 76 56
318 39 237 78 33 26
290 369 279 141 96 74
272 344 218 109 89 67
318 44 231 69 38 26
412 439 246 62 43 38
409 584 241 179 18 48
435 469 247 110 23 39
319 46 228 57 42 24
347 873 283 45 39 37
445 674 262 161 114 86
422 639 266 105 85 62
277 430 172 88 49 43
350 32 259 139 24 51
315 44 241 77 59 45
407 819 307 178 125 95
317 44 236 77 38 25
403 433 211 74 48 41
232 584 247 93 22 37
237 719 276 103 67 49
319 59 226 92 44 39
262 104 215 116 47 48
285 176 233 109 86 59
316 49 236 99 36 34
338 369 274 128 92 72
417 499 285 53 28 31
405 892 288 41 36 35
318 684 214 97 23 27
267 112 221 142 82 68
362 489 290 39 25 25
313 39 256 91 27 37
328 64 192 100 41 24
312 34 251 107 32 33
391 410 217 96 81 66
366 558 168 147 26 41
311 34 256 102 34 39
417 849 261 118 99 93
368 254 257 128 100 65
314 39 242 100 28 31
340 963 285 67 60 61
327 430 152 79 66 50
313 39 251 92 40 37
443 470 280 83 4 31
314 44 246 93 38 38
332 679 215 57 30 33
315 45 245 93 35 38
278 962 233 78 72 72
329 60 193 106 37 28
422 839 260 90 67 58
386 626 308 177 115 93
235 777 229 124 95 57
313 44 256 100 68 58
233 605 281 132 103 72
332 413 181 85 72 60
212 734 237 145 105 69
377 479 135 109 29 40
391 710 295 137 2 42
314 49 256 102 44 49
362 624 215 60 35 38
319 54 226 74 39 34
362 249 207 133 100 60
316 54 241 94 58 45
367 394 282 133 101 70
318 64 231 107 46 44
333 134 241 114 87 66
347 249 208 130 101 65
293 709 206 46 39 35
338 41 223 118 97 72
277 409 197 88 78 68
316 59 241 93 48 38
428 785 242 60 51 45
310 369 221 84 69 54
352 949 326 74 63 57
287 969 310 60 54 53
317 64 236 93 26 26
444 451 313 86 21 32
258 514 156 106 13 29
377 459 126 173 7 36
327 32 269 128 53 58
337 249 250 116 92 68
239 607 227 171 16 49
314 54 248 101 13 30
374 372 273 121 95 65
316 64 246 114 16 40
281 108 231 115 69 56
317 59 256 128 88 76
403 437 273 61 42 34
366 685 314 138 2 41
342 69 187 112 36 29
259 73 208 130 12 32
389 561 303 34 26 26
260 285 224 132 96 61
262 74 206 127 28 37
297 794 192 69 56 47
285 484 100 60 35 34
346 112 202 155 69 73
253 684 241 42 35 37
406 659 281 129 92 77
277 10 286 96 56 47
299 882 303 139 107 77
340 439 303 156 13 51
272 79 207 147 17 39
357 588 324 193 137 110
262 84 208 148 21 47
300 299 233 91 77 62
286 851 239 169 115 87
258 20 262 104 57 54
344 185 254 118 95 70
252 624 226 62 34 40
252 769 291 56 48 46
267 84 207 146 20 44
312 12 269 136 38 31
352 224 206 127 98 61
258 89 212 142 9 41
322 99 226 107 47 43
312 958 227 88 83 86
262 94 212 123 57 52
310 359 222 73 63 53
336 184 247 109 86 63
268 803 289 73 61 55
357 436 117 92 70 51
266 13 297 99 57 50
267 89 210 151 20 47
407 840 286 77 57 43
325 389 236 85 65 48
337 809 302 167 130 110
273 84 210 144 12 38
267 94 211 134 56 55
321 84 226 121 23 36
236 619 288 150 110 82
276 74 208 143 14 35
372 424 171 92 77 62
270 928 235 62 59 61
303 555 154 116 25 37
275 78 208 143 12 38
275 66 208 110 23 25
266 630 215 45 32 37
300 437 149 86 67 47
277 79 211 145 13 39
324 921 198 80 69 69
341 609 315 76 30 36
325 303 236 94 81 69
376 224 241 117 93 66
334 223 213 124 96 62
287 474 121 82 28 36
405 617 263 152 19 28
287 9 291 151 96 104
244 622 238 110 15 27
377 425 171 92 77 61
279 80 214 146 14 43
332 154 231 108 86 62
263 394 208 93 81 70
280 73 212 139 19 38
373 813 304 56 45 42
283 74 216 137 15 36
424 540 250 47 28 35
285 73 221 137 26 47
277 807 218 82 64 54
325 325 248 87 68 49
356 79 221 112 33 44
241 653 280 159 105 84
204 694 251 155 107 78
276 84 212 144 13 39
288 239 225 113 87 55
352 204 258 124 100 74
278 84 216 144 13 38
387 454 127 177 11 37
325 58 205 87 57 42
426 859 273 85 70 67
357 639 220 72 31 37
277 89 216 142 14 39
387 634 301 152 86 72
325 339 256 94 66 49
369 565 308 119 13 42
296 379 212 90 78 66
379 688 230 56 44 40
279 86 220 145 18 37
218 635 252 109 90 70
282 264 221 120 92 58
357 199 256 125 101 74
273 95 214 141 16 33
254 754 299 152 15 45
332 108 216 127 64 55
276 94 217 131 15 34
290 290 275 109 85 58
437 849 306 76 64 53
278 94 220 122 15 28
423 454 230 70 31 32
390 528 168 159 11 30
264 233 218 121 93 59
329 230 235 113 89 64
327 473 290 96 21 37
414 515 211 154 11 42
280 83 217 143 16 38
398 863 268 64 59 55
407 689 281 86 69 61
280 94 222 119 22 31
317 559 292 81 16 30
261 234 220 123 94 58
257 69 256 101 67 57
257 74 256 106 81 68
292 644 212 153 8 35
342 164 250 113 90 65
371 319 218 110 90 66
288 69 236 115 29 39
328 467 294 108 15 34
324 344 251 86 63 44
286 74 231 120 57 58
344 501 304 96 73 62
381 244 236 123 97 67
303 294 246 106 85 62
337 109 201 146 18 42
445 709 280 169 114 83
287 79 241 125 23 41
243 604 216 183 17 52
352 349 213 87 78 68
300 976 249 83 79 81
258 14 281 88 37 35
336 384 272 127 89 73
417 854 281 63 53 44
329 117 233 116 85 62
374 309 219 115 93 68
411 509 196 156 14 40
411 432 155 93 37 36
316 884 200 70 63 63
262 704 311 37 29 31
288 79 246 96 60 47
407 899 276 72 58 54
266 954 302 181 140 123
414 437 203 64 22 30
412 514 201 142 12 40
283 84 226 127 28 43
248 529 269 63 27 31
281 89 226 99 42 38
287 84 241 114 29 38
287 89 241 113 23 37
378 545 313 35 29 32
238 628 249 110 81 57
312 701 203 55 42 40
342 159 250 112 89 65
281 94 226 114 30 36
307 309 236 92 75 58
381 578 192 192 19 49
283 285 224 116 88 57
361 234 259 127 100 69
296 503 123 110 23 38
283 94 231 114 45 45
267 99 213 128 62 61
284 94 234 107 56 47
331 54 196 102 24 21
352 839 181 105 90 82
424 501 323 186 20 65
251 555 165 179 12 43
272 10 296 102 66 50
263 99 213 100 88 79
342 854 281 150 112 89
332 419 171 86 73 59
308 349 262 116 77 59
442 426 331 99 19 36
302 960 231 79 75 79
288 209 257 119 94 67
218 629 266 131 101 67
259 99 217 138 10 43
322 974 296 73 67 66
259 104 218 131 14 42
262 109 217 120 63 60
351 134 213 124 98 65
422 699 296 164 114 83
347 436 118 88 71 57
278 469 156 83 25 33
257 124 236 111 91 69
332 924 216 75 68 71
226 819 245 177 120 85
259 108 221 136 20 44
287 719 206 55 40 34
262 110 221 144 41 54
264 102 213 106 99 90
229 534 226 45 26 33
297 279 236 98 78 55
322 54 216 76 44 33
266 102 213 114 91 76
272 112 222 135 78 60
267 104 214 121 55 53
255 640 272 99 11 29
268 499 141 62 30 33
385 774 218 65 51 43
270 97 213 147 19 40
306 699 198 61 49 44
234 514 192 49 30 36
343 734 200 50 42 41
277 489 131 59 30 33
386 602 213 64 31 41
272 99 216 141 15 38
282 304 226 100 80 56
222 814 246 170 114 79
291 699 196 58 47 39
272 104 217 136 17 35
317 34 267 117 70 64
337 34 232 109 89 65
437 879 306 84 70 57
357 819 196 62 55 53
277 94 270 118 72 62
302 14 301 136 80 75
353 109 236 117 94 68
273 110 220 143 25 42
347 439 116 90 63 49
326 59 201 78 40 28
455 823 309 94 81 69
264 112 223 128 85 67
352 719 338 180 2 57
332 99 249 127 101 74
388 809 309 169 132 104
274 105 219 134 20 38
313 399 236 94 69 54
284 511 114 77 38 37
375 264 249 129 98 63
433 489 246 85 19 34
362 479 289 84 16 30
277 104 221 133 20 38
345 282 263 102 81 59
276 109 222 134 22 36
322 39 266 123 22 47
336 194 214 116 92 63
262 789 217 85 64 53
278 585 297 166 106 89
290 696 202 57 47 38
275 112 223 130 77 48
390 655 258 54 43 42
432 464 311 70 16 26
260 109 234 109 78 54
365 899 242 65 58 59
262 114 231 116 89 60
332 794 307 69 57 53
338 870 189 80 70 68
364 261 209 134 101 62
263 565 287 98 76 52
285 738 209 74 37 33
264 114 227 131 96 67
316 464 116 163 12 40
258 114 237 109 86 60
296 11 310 126 43 55
394 432 278 63 50 41
367 763 215 66 52 47
311 478 96 186 1 46
380 676 233 70 51 37
258 119 236 110 89 65
435 650 290 148 107 71
262 124 231 118 95 69
316 451 106 76 57 42
261 129 231 118 96 71
364 168 219 110 91 70
299 491 116 157 18 44
359 163 214 118 94 65
259 130 233 112 93 72
334 326 218 88 75 61
260 123 234 112 91 69
289 75 249 107 83 66
419 719 235 75 57 44
272 284 221 127 95 61
229 542 212 161 0 43
266 114 225 136 96 66
247 799 225 169 120 83
267 124 227 132 100 63
349 111 206 123 77 65
361 164 246 118 95 70
362 504 292 41 22 23
314 861 213 53 47 47
264 124 228 126 100 67
332 659 215 70 28 32
380 369 218 104 88 71
427 889 305 92 76 63
365 553 314 123 30 43
264 129 228 124 99 68
271 124 227 127 93 53
436 482 289 84 20 27
285 194 232 111 88 59
248 640 256 114 65 56
367 910 291 33 31 32
388 719 301 146 0 45
271 129 227 122 91 52
291 249 227 111 86 58
490 453 283 54 28 25
351 879 284 42 37 35
312 844 295 179 142 117
279 100 225 125 35 43
297 809 294 197 146 124
436 684 290 165 111 82
279 104 225 125 23 38
431 489 241 151 12 42
322 69 211 109 41 45
434 643 287 137 102 65
283 495 273 63 25 32
280 483 135 78 30 35
347 28 239 105 87 72
355 56 221 113 25 40
279 111 235 118 81 58
280 99 226 99 53 40
322 820 199 64 49 44
333 169 221 111 87 58
254 706 233 78 28 27
245 734 278 93 25 37
211 704 273 155 109 83
335 159 243 108 84 62
282 99 231 85 50 32
280 104 227 113 31 35
259 308 269 140 100 76
258 79 260 113 22 41
284 99 234 92 48 34
346 54 250 109 26 41
322 693 323 50 30 32
324 77 218 99 80 58
270 488 159 97 22 28
380 319 236 120 94 64
282 425 181 96 81 66
304 12 288 200 151 163
387 429 146 89 73 58
297 897 235 76 64 51
307 309 251 111 85 60
379 229 236 121 97 68
285 99 236 98 50 37
377 229 241 118 94 66
270 554 278 114 6 36
375 627 223 47 26 31
287 629 206 181 5 40
287 99 241 101 37 36
401 716 223 68 53 46
312 679 213 102 19 27
333 404 269 115 81 66
286 103 241 123 47 51
294 254 251 116 89 60
439 896 336 82 68 59
385 757 218 69 53 45
329 384 264 118 80 65
287 909 231 86 69 56
333 83 191 149 9 43
341 109 249 125 98 67
228 699 240 126 93 64
257 744 222 118 13 34
381 339 231 117 94 69
282 109 241 106 73 51
282 189 261 113 89 61
284 106 241 108 73 50
307 434 281 146 11 45
287 454 281 43 28 29
352 839 206 54 48 51
285 229 223 115 91 60
458 883 344 90 81 71
241 549 176 133 16 37
277 319 223 112 89 62
390 391 228 110 89 67
328 104 217 123 29 41
286 103 246 128 74 64
287 99 251 130 31 50
357 284 266 116 92 66
284 104 251 131 89 68
330 394 205 78 68 59
362 859 182 81 69 61
254 749 223 98 12 28
283 244 267 120 95 67
356 893 222 55 50 53
255 523 155 120 10 30
420 818 247 73 59 55
285 102 251 134 88 74
283 498 103 144 19 40
291 209 231 110 86 55
255 626 224 49 33 34
272 404 201 89 79 69
285 102 254 138 94 77
268 962 247 94 86 83
284 105 246 123 84 65
294 274 262 117 91 61
379 295 229 121 94 63
331 274 221 99 79 58
282 109 256 127 91 69
252 894 261 126 101 75
347 199 210 114 93 69
286 184 255 115 92 65
337 14 286 156 85 95
296 479 274 50 24 28
275 112 226 125 85 61
347 875 207 64 61 65
322 38 235 77 37 27
372 534 318 114 23 43
276 114 231 118 83 55
397 429 176 103 58 50
212 669 237 146 105 72
302 819 216 58 50 49
311 369 256 118 77 63
414 628 303 148 106 71
274 115 229 124 85 60
272 234 272 123 98 69
276 119 232 117 86 53
267 204 270 121 98 74
393 519 170 71 24 34
278 119 236 110 83 51
292 973 309 73 66 63
375 512 312 44 27 21
279 116 239 100 77 49
422 729 299 172 115 84
323 14 292 144 48 63
337 488 287 113 89 77
276 129 232 111 84 48
279 122 239 110 85 58
272 199 221 115 93 66
392 414 216 97 81 67
338 309 217 97 83 69
285 220 223 114 90 60
357 768 319 86 69 60
292 479 91 113 14 34
355 59 216 108 51 45
337 12 276 157 112 115
350 474 283 120 5 36
292 639 210 158 2 37
279 129 235 109 83 49
333 467 128 174 0 34
280 113 238 102 72 48
288 469 131 89 23 32
272 174 225 121 96 64
371 264 255 129 99 64
280 119 242 105 82 53
280 124 241 109 85 56
374 249 214 127 98 62
352 889 206 55 50 51
280 129 237 109 84 53
502 450 326 48 26 24
281 129 241 110 86 57
447 449 333 158 0 47
281 114 246 109 79 55
281 114 251 118 85 62
280 114 256 124 91 68
280 119 251 117 85 61
267 404 280 152 112 87
357 134 221 110 91 71
247 834 241 137 100 83
380 686 218 57 41 38
450 452 286 94 1 33
280 124 251 113 85 58
280 129 255 116 86 62
380 299 232 116 92 63
354 62 204 107 42 39
332 469 286 80 20 32
267 603 192 200 12 47
288 69 241 106 44 45
291 69 251 119 23 45
341 229 209 132 101 64
407 923 322 86 72 67
325 303 231 88 75 62
292 69 256 105 65 56
312 505 289 98 76 58
335 335 219 81 70 59
290 72 248 111 80 67
439 740 259 91 65 44
290 74 251 119 36 51
291 74 256 121 48 56
262 274 221 130 97 59
289 79 251 114 58 54
349 55 242 141 117 98
224 774 233 148 106 71
364 188 214 123 97 65
362 194 211 125 99 66
290 78 256 138 15 48
288 84 246 118 19 41
359 148 220 109 91 71
466 439 273 146 6 27
372 863 273 42 37 35
312 534 146 196 12 43
281 179 260 116 92 64
288 94 246 113 27 37
317 799 196 82 61 48
258 124 260 114 94 75
358 635 219 37 34 41
342 529 152 107 26 37
319 69 227 102 74 53
325 506 293 102 78 62
267 714 318 148 10 47
266 625 210 111 33 45
397 431 161 105 51 44
329 82 197 147 8 45
230 534 241 91 27 38
294 229 237 107 84 57
282 563 152 200 17 47
327 24 281 135 90 73
357 259 208 133 101 62
276 190 223 113 91 64
317 69 236 102 32 33
262 284 223 130 96 61
284 218 224 114 89 59
316 69 241 108 69 56
250 924 277 119 92 91
318 74 231 115 91 69
240 679 252 88 61 42
412 421 189 125 43 53
317 415 261 61 48 35
415 822 238 78 62 55
319 79 228 103 70 56
258 510 162 104 16 27
317 74 236 112 27 38
390 817 228 64 50 45
362 289 265 121 94 62
318 79 246 107 18 42
308 585 299 140 15 44
247 834 280 184 142 118
319 74 250 112 7 39
319 88 228 114 20 29
337 74 252 111 43 48
319 89 231 107 44 44
