ply
format ascii 1.0
comment Created by Open3D
element vertex 2202
property double x
property double y
property double z
property uchar red
property uchar green
property uchar blue
end_header
427 489 252 108 19 37
395 880 252 62 54 56
383 469 182 96 24 28
301 832 264 92 71 64
379 479 176 123 9 27
384 474 182 92 24 30
270 339 297 135 102 74
414 684 232 81 60 47
396 538 351 144 7 38
266 628 276 123 28 47
383 479 178 118 12 28
352 489 173 75 35 40
319 845 287 168 122 94
359 484 178 80 34 38
387 480 184 53 28 29
359 489 178 80 32 36
364 489 179 76 34 39
373 374 310 131 98 66
255 679 283 126 91 57
369 484 178 69 34 38
444 734 242 55 45 39
369 494 178 62 33 38
429 484 397 145 105 88
359 749 331 73 60 55
360 504 180 130 10 27
364 500 180 115 16 34
361 500 180 115 18 33
420 489 402 83 43 47
374 489 177 83 29 35
339 721 225 146 0 36
304 274 306 111 89 63
369 976 318 73 71 72
379 484 177 124 10 29
383 489 178 122 9 29
250 694 311 177 121 96
374 499 179 133 8 28
354 452 389 55 38 27
404 899 369 53 46 42
374 504 179 133 6 28
354 784 325 56 47 46
373 500 180 132 10 29
371 508 179 135 13 28
329 594 202 128 21 40
374 509 179 132 10 28
240 519 282 35 30 34
391 901 260 59 52 52
276 553 387 96 21 36
379 499 178 134 3 28
384 509 176 98 20 33
397 887 259 57 51 53
385 354 257 113 93 72
386 364 251 107 90 72
334 549 182 110 16 35
292 714 240 108 24 36
387 359 258 116 95 72
410 694 323 80 24 35
418 449 277 67 25 32
390 369 257 116 94 71
330 414 277 99 65 54
434 840 296 41 37 34
386 383 245 101 86 73
309 713 339 157 14 50
464 894 362 72 58 48
391 378 251 107 89 70
392 380 253 109 90 69
342 424 310 93 67 54
392 376 254 113 92 70
266 356 279 126 99 70
315 289 302 102 80 53
356 889 245 74 64 62
392 385 248 101 86 70
389 414 206 95 25 26
394 409 208 143 13 24
409 544 212 98 33 40
393 683 196 89 60 47
426 519 277 39 31 35
254 659 327 192 134 108
394 414 206 122 15 28
285 633 233 131 15 41
363 924 379 57 51 49
446 836 310 39 33 30
314 309 321 116 89 60
349 879 358 161 126 99
423 580 328 110 89 65
271 319 274 133 99 73
399 414 208 132 14 31
319 649 320 171 17 54
284 324 312 126 95 68
404 459 202 57 38 39
388 407 210 112 34 16
369 764 212 70 56 49
403 584 332 150 96 88
264 544 187 171 12 44
398 406 209 156 9 27
415 546 304 172 16 55
385 528 397 195 140 127
398 409 209 133 12 24
399 401 222 103 68 57
403 405 213 126 27 33
268 454 410 165 19 56
266 374 263 116 94 68
430 623 296 93 77 58
242 532 455 123 6 36
404 404 217 121 32 35
406 408 215 98 30 30
402 401 219 105 54 46
289 434 327 84 58 44
420 823 217 90 71 59
262 652 330 178 124 99
407 405 218 118 30 30
408 409 217 96 33 33
417 409 252 107 17 34
246 563 262 161 0 45
409 794 223 66 52 47
404 414 212 115 24 30
394 399 237 101 86 71
338 859 281 175 120 88
396 392 274 122 98 70
388 386 244 101 85 71
416 444 277 96 19 33
389 389 242 99 85 72
424 688 231 80 59 45
447 712 320 170 112 81
327 329 277 66 57 49
389 394 241 100 87 75
377 466 436 73 23 25
328 841 260 151 123 103
397 395 248 85 72 62
482 761 272 102 77 61
396 392 251 86 71 60
378 525 353 76 27 35
378 259 300 125 95 60
397 394 257 91 76 61
290 451 386 48 31 23
434 779 323 182 136 105
425 881 346 35 32 33
388 402 227 96 82 69
344 744 228 104 28 37
389 401 232 96 83 71
399 400 227 97 69 58
246 663 320 187 131 107
404 399 242 79 58 48
341 778 325 73 60 55
404 401 227 87 53 48
384 434 314 64 35 32
404 400 232 86 57 49
271 475 399 166 12 51
405 402 226 82 43 43
409 404 227 75 39 37
408 401 232 81 40 39
411 562 312 45 29 35
246 773 273 180 122 93
409 400 237 72 39 37
375 468 427 77 19 27
329 679 226 129 7 31
412 409 227 61 37 37
275 638 248 147 15 45
412 406 229 74 37 42
412 401 238 68 34 35
319 444 387 76 28 29
412 411 224 47 40 32
450 881 316 81 64 59
414 414 227 48 38 39
413 401 247 101 29 40
312 432 319 63 49 35
415 404 247 118 19 40
268 463 382 120 17 38
269 749 262 94 69 44
416 408 242 57 33 34
415 403 252 107 21 38
254 639 338 188 130 106
413 401 257 89 32 38
344 309 312 118 90 62
349 734 227 132 11 33
275 524 182 94 18 34
415 404 257 81 28 33
464 820 281 76 60 55
241 547 394 169 110 90
394 419 206 89 31 29
252 527 362 90 15 28
439 754 323 177 127 94
420 567 341 127 100 68
429 754 322 148 103 76
394 424 205 57 36 35
399 419 207 98 27 31
294 744 237 149 3 37
394 429 205 71 33 32
380 931 374 61 57 56
383 474 432 71 18 29
388 435 203 81 28 30
249 553 342 64 30 33
352 917 369 40 36 36
389 439 203 72 31 32
388 449 198 57 36 32
389 444 202 62 35 34
267 364 293 126 99 69
394 439 204 83 29 27
399 439 204 56 36 36
394 444 203 66 34 34
369 924 380 58 53 52
397 544 355 118 69 64
330 849 307 124 86 69
394 449 202 54 37 35
418 469 297 115 21 38
385 274 292 130 97 67
399 444 203 56 38 33
457 709 310 160 107 77
399 449 202 73 36 34
403 424 208 62 38 36
403 419 209 87 29 33
407 419 213 76 30 32
436 677 280 92 74 53
228 534 427 138 104 85
407 431 209 49 42 44
396 434 342 98 24 37
387 952 341 66 59 56
410 424 217 84 33 36
393 550 378 192 133 114
412 425 219 76 31 33
412 429 218 64 35 34
328 384 262 69 61 57
254 564 382 170 114 94
404 434 207 41 39 40
379 834 313 150 120 96
272 324 276 114 91 64
405 439 206 41 39 39
391 836 304 152 114 92
408 439 208 65 39 38
404 449 203 78 36 36
272 577 375 183 126 109
314 965 337 59 54 52
408 444 207 67 38 37
411 439 216 46 40 38
344 976 322 70 67 68
412 434 218 43 38 38
263 464 416 157 17 50
412 444 217 88 29 34
413 449 217 128 19 35
414 444 222 109 18 36
414 449 222 117 19 35
415 419 227 63 29 39
257 256 272 138 102 71
416 449 226 114 19 32
374 880 331 133 110 86
492 802 310 80 68 57
251 584 362 164 115 89
314 374 312 132 93 72
303 280 310 98 79 58
417 415 238 80 31 35
307 929 297 56 53 54
416 408 245 105 23 37
299 824 307 49 40 40
417 406 252 108 20 36
390 791 220 61 51 49
374 309 256 106 87 67
444 819 273 70 55 52
417 409 256 97 24 35
424 609 346 191 130 102
407 534 198 68 36 41
418 414 247 107 21 35
263 504 397 147 9 46
418 414 252 121 15 38
375 431 357 72 21 26
416 577 317 111 32 41
452 892 349 82 66 56
417 414 256 123 14 38
339 438 313 65 49 36
417 424 229 109 28 37
418 649 318 166 115 99
417 424 232 69 34 38
417 416 234 66 38 41
417 419 237 51 36 37
289 319 260 108 85 61
346 870 268 49 43 43
418 424 237 54 36 37
417 429 229 59 38 38
331 858 289 186 133 99
334 444 377 42 31 25
419 429 237 47 36 36
406 538 352 119 29 41
418 419 242 61 33 34
241 514 387 73 25 35
418 419 247 68 32 32
314 624 321 130 27 48
417 434 228 108 29 39
398 465 199 61 36 37
418 434 232 71 31 34
249 659 326 191 134 109
419 434 237 56 33 36
418 449 228 104 27 36
420 449 232 86 27 35
395 625 236 46 32 36
421 444 237 116 14 33
421 449 236 98 26 32
421 434 247 78 30 36
421 438 241 68 28 33
422 439 247 79 31 36
421 434 252 122 18 38
439 719 323 177 122 92
325 334 308 98 66 52
504 859 332 102 85 71
422 436 251 75 22 29
419 434 257 137 8 41
422 439 251 52 28 30
422 449 242 125 13 38
364 533 340 39 24 26
422 446 256 138 11 40
287 617 315 102 38 48
289 298 259 107 83 57
385 464 187 65 32 33
388 469 192 50 33 34
334 949 367 75 70 69
408 469 203 76 34 38
385 479 182 87 25 31
410 864 256 61 56 58
385 484 181 94 24 31
389 489 187 56 32 29
391 489 190 64 30 30
294 729 332 119 22 45
284 598 208 173 16 48
356 578 319 136 6 42
386 494 180 115 15 30
312 546 365 129 9 43
383 443 317 61 37 32
274 539 182 95 25 35
388 494 182 84 28 29
319 304 312 103 79 52
265 374 287 129 101 70
392 495 188 78 26 28
281 369 315 133 100 75
392 505 183 88 15 31
393 499 188 85 22 27
395 499 191 104 17 27
399 504 192 129 11 36
257 463 309 121 14 40
394 509 182 87 20 30
380 364 302 127 99 67
395 509 187 82 22 31
413 604 242 103 27 42
386 454 195 45 36 37
388 454 198 51 34 35
324 958 356 68 63 62
340 423 302 94 67 54
387 461 194 62 32 31
393 460 199 72 33 32
479 868 354 74 63 53
359 279 306 125 96 63
308 309 263 99 83 66
399 459 200 73 35 39
396 462 200 70 33 36
390 469 196 49 35 35
394 469 197 54 36 36
349 674 328 59 26 32
302 437 321 69 52 37
394 474 196 58 35 34
392 475 194 51 35 29
392 479 194 49 36 33
379 444 387 46 31 23
338 893 272 65 53 47
250 609 351 179 124 100
399 474 198 67 35 34
425 514 272 85 29 37
407 450 204 57 38 40
398 690 193 90 62 47
407 454 204 65 35 38
419 444 262 140 11 43
370 446 386 63 29 25
484 813 303 78 64 56
404 464 201 68 36 37
410 459 207 82 32 33
339 598 204 81 36 39
486 841 317 98 88 80
411 454 211 124 19 35
256 544 424 129 67 64
415 454 222 84 29 32
412 459 212 117 25 34
383 968 302 85 79 81
319 849 346 169 132 112
278 324 266 120 94 65
413 818 226 83 64 54
414 459 217 114 21 33
436 832 270 65 53 52
402 469 199 86 33 35
402 928 289 77 65 63
382 480 440 46 31 25
444 699 321 171 113 84
405 469 200 82 35 39
264 429 317 76 36 34
403 474 199 52 36 40
403 625 303 92 30 39
405 473 200 52 36 42
422 560 263 142 11 42
411 469 206 109 28 37
408 474 202 47 35 38
377 952 362 65 58 55
406 478 200 51 38 42
419 584 317 84 54 41
439 869 332 39 35 34
248 535 431 96 10 35
419 696 200 69 58 47
411 474 206 74 30 35
407 723 335 121 31 48
415 479 217 97 24 36
395 449 382 86 22 33
344 609 211 105 24 40
445 693 261 103 80 56
399 484 195 77 32 37
407 484 199 128 17 35
374 675 330 54 27 33
407 494 199 126 7 32
234 536 453 152 24 56
411 484 206 139 12 37
398 599 223 107 31 42
448 740 320 166 117 84
403 445 317 85 22 34
548 818 350 109 92 76
435 779 241 77 58 50
416 484 216 116 21 37
412 494 208 140 12 34
402 499 194 126 9 30
409 499 202 135 8 35
394 726 200 60 46 39
405 509 196 120 17 35
263 499 447 141 21 45
346 852 334 126 100 74
252 525 362 126 3 38
411 509 206 143 13 37
412 509 208 145 13 38
289 442 358 72 51 39
414 499 212 140 11 36
416 499 215 144 12 38
243 518 442 56 30 28
381 487 435 178 18 59
416 469 220 121 16 34
262 539 420 112 23 42
329 434 322 51 41 30
416 474 220 117 16 36
426 866 315 30 28 28
321 320 314 122 79 63
329 869 351 153 110 94
251 529 213 61 26 33
418 474 222 132 14 35
418 454 227 83 30 35
420 454 232 123 21 37
421 454 236 109 28 39
339 399 297 125 83 73
423 459 237 116 16 34
404 818 310 54 44 40
422 464 233 118 17 34
423 454 242 122 14 35
424 454 247 131 10 35
424 459 242 122 11 34
444 848 318 38 34 31
423 454 257 130 10 38
420 479 226 46 34 37
329 314 277 63 53 45
319 591 200 186 7 41
257 546 362 113 13 40
451 766 245 64 51 45
421 474 230 70 27 31
453 754 243 60 48 42
422 479 229 43 36 35
318 315 269 83 72 60
423 479 232 49 36 36
308 269 297 111 86 57
424 474 237 52 32 37
323 441 419 129 18 43
425 469 252 143 13 40
425 474 252 136 14 38
261 504 427 165 18 50
425 474 257 71 26 33
434 694 324 174 121 92
417 489 218 73 31 36
354 438 357 56 36 27
417 499 218 138 14 36
419 499 222 98 25 36
379 474 417 79 8 24
334 524 348 85 25 37
419 504 222 62 32 38
412 543 218 107 25 38
314 438 342 62 44 32
417 509 218 75 28 37
294 836 298 75 52 50
340 305 264 88 75 63
419 509 222 52 35 37
424 489 237 105 21 37
423 489 232 45 33 34
431 847 248 78 64 59
312 878 300 142 108 78
420 489 282 107 17 36
401 606 230 35 28 36
424 484 237 129 17 39
317 290 274 85 73 59
418 849 217 82 66 56
275 704 268 70 30 35
424 484 242 149 13 40
349 509 358 56 24 28
425 484 247 145 13 39
379 435 371 48 35 27
424 489 242 149 14 40
426 494 247 132 16 38
247 556 334 65 35 35
360 467 422 98 13 38
427 494 253 66 30 35
319 744 337 132 29 51
395 930 357 61 53 51
404 609 317 134 84 76
422 499 228 49 36 37
248 739 271 138 100 71
399 469 367 99 5 29
423 499 232 54 35 36
422 509 232 105 25 41
421 510 230 92 26 34
415 505 358 178 18 56
424 509 237 147 16 41
426 499 250 84 26 36
424 639 288 89 71 49
426 504 252 154 19 46
357 476 399 141 10 46
364 589 203 183 8 43
272 334 299 134 102 76
426 504 257 93 28 40
425 509 242 142 12 38
255 544 302 43 30 33
426 509 247 148 13 42
241 539 257 169 0 46
259 259 262 147 103 70
261 258 259 147 102 70
344 780 324 74 61 56
262 265 260 148 102 71
258 259 267 143 103 71
247 556 235 114 11 33
259 264 267 147 103 73
273 800 255 171 116 82
423 795 319 115 90 73
261 268 264 150 103 74
372 739 216 53 44 39
252 542 331 52 21 25
269 450 410 146 19 50
259 269 272 146 103 74
262 270 265 152 104 76
266 268 259 147 101 70
353 475 398 97 16 37
263 633 341 187 129 105
257 259 277 136 102 71
279 454 402 89 23 36
338 384 262 84 73 61
409 575 364 199 133 107
256 257 278 133 100 70
418 574 282 123 19 42
329 389 296 121 78 66
258 264 277 139 102 72
424 794 320 148 117 93
258 264 282 133 100 71
245 534 442 144 14 47
281 636 304 50 27 32
259 269 277 142 102 74
259 269 282 135 100 73
419 500 372 88 29 40
284 442 358 79 50 40
260 269 287 132 100 73
264 664 282 111 75 46
261 273 268 151 105 75
262 275 266 152 104 75
400 529 187 44 36 39
369 535 339 48 22 28
263 279 272 151 105 76
270 274 258 140 99 68
444 839 277 58 50 49
266 278 263 147 102 71
294 334 258 94 80 65
323 754 230 107 29 40
267 285 266 145 101 70
245 554 332 106 25 44
266 288 268 150 103 74
260 274 277 146 105 76
262 280 276 149 104 77
374 464 437 75 19 26
261 274 286 133 99 75
261 277 285 137 99 76
262 275 288 131 98 73
262 279 287 137 100 76
441 637 306 130 95 61
359 579 318 137 5 42
478 719 263 108 83 56
262 280 283 144 102 78
369 374 312 134 100 68
479 844 297 95 75 59
263 284 277 149 104 78
250 804 297 187 132 103
265 289 277 149 104 78
257 449 308 127 11 40
404 644 298 54 24 27
263 284 282 147 104 80
264 284 287 139 101 78
265 289 287 142 103 79
275 283 259 127 93 63
354 678 329 71 29 35
324 604 207 126 26 40
273 284 261 130 95 64
410 509 376 103 51 45
339 689 225 120 13 29
274 289 262 129 94 66
276 288 259 124 92 63
461 754 260 87 64 51
279 289 258 119 90 62
289 289 257 113 85 59
249 529 297 118 24 43
261 259 290 122 96 68
256 515 447 140 13 45
261 264 290 126 97 69
343 419 302 109 76 64
304 444 377 51 29 26
264 264 292 123 95 68
249 569 312 185 0 53
261 268 290 129 98 72
301 929 313 164 131 107
264 269 292 126 97 70
261 808 269 178 119 86
449 813 311 139 88 63
266 264 295 122 95 69
269 264 297 122 95 68
324 769 230 81 59 52
266 275 295 124 94 70
364 849 241 54 47 46
269 279 297 124 95 69
294 601 324 154 16 50
267 280 294 125 95 69
293 649 236 153 5 38
267 284 294 127 97 71
266 289 291 134 101 76
267 290 293 128 97 72
391 367 278 130 101 68
322 481 379 41 26 26
274 259 301 118 94 68
417 812 230 85 66 56
273 414 313 133 99 76
272 264 299 121 94 68
359 829 317 159 124 97
278 264 304 119 94 69
319 384 307 131 90 75
274 269 301 122 95 69
419 904 317 63 54 57
280 269 305 120 95 69
481 793 280 88 69 56
282 257 304 119 96 71
284 264 306 119 95 68
407 544 208 78 35 40
384 894 346 42 35 33
289 259 305 117 93 65
430 824 213 88 74 66
289 264 306 120 95 67
284 269 307 119 94 68
319 729 229 147 5 37
425 509 327 152 13 44
289 269 308 118 94 69
272 274 299 124 96 69
274 274 301 122 95 69
272 279 299 123 95 68
329 534 341 105 17 37
277 274 304 121 95 69
327 324 302 77 56 46
274 284 302 121 94 69
469 784 297 101 70 53
354 654 226 94 28 36
280 279 306 119 94 68
279 289 306 121 94 68
264 469 392 118 21 35
284 274 308 118 93 67
289 274 309 114 91 66
250 789 272 179 119 91
422 554 277 67 24 34
288 278 309 116 92 66
259 479 337 39 30 32
487 799 268 78 59 50
283 289 309 119 93 66
370 498 381 153 10 47
290 280 310 116 92 67
286 284 310 118 93 66
271 298 268 140 99 72
270 299 272 143 100 77
271 304 272 137 100 75
327 380 262 73 66 63
266 292 274 148 103 75
266 293 278 147 104 79
267 295 288 141 103 78
268 299 277 144 100 78
414 799 227 70 56 49
319 669 227 118 12 32
269 304 277 137 99 77
268 304 287 132 97 73
360 488 386 157 14 50
271 309 273 140 101 77
268 309 287 127 95 69
452 750 320 163 115 81
270 314 277 133 99 74
389 699 207 72 61 54
271 312 274 142 102 79
269 314 282 121 93 66
319 819 312 51 41 42
268 314 287 125 96 67
268 319 287 126 99 69
264 754 262 120 90 56
424 494 387 56 32 33
298 453 400 59 18 28
277 290 260 122 91 63
280 293 259 117 89 63
449 819 276 71 57 52
430 891 306 67 57 57
278 294 261 120 90 63
381 426 338 65 16 27
273 295 265 136 98 70
347 855 265 85 68 61
276 298 264 122 92 63
271 637 258 61 31 38
279 299 262 117 89 61
279 304 262 115 89 61
274 299 266 130 96 67
274 304 267 126 95 67
284 294 259 113 87 62
314 554 183 66 33 35
284 299 260 110 86 61
284 304 260 110 86 61
388 948 282 80 72 72
289 300 260 106 83 56
311 915 298 104 88 73
289 304 260 104 83 59
426 514 262 72 29 36
403 624 243 93 25 37
396 449 377 66 27 31
279 309 263 117 90 61
364 440 372 60 31 26
319 601 205 55 30 38
311 542 349 92 9 27
275 309 267 126 96 67
291 734 239 128 12 35
272 309 271 136 101 74
273 314 272 139 101 77
273 319 272 136 101 75
278 559 372 75 26 39
280 314 263 118 91 63
278 319 266 121 94 66
359 960 353 69 62 59
247 679 307 182 125 98
280 319 264 118 91 62
323 924 267 68 62 63
289 309 260 105 85 62
412 486 382 80 23 28
284 314 261 113 89 61
337 284 272 86 73 59
289 314 260 107 86 61
256 556 419 198 142 121
270 294 297 125 97 71
238 523 396 62 28 28
270 539 412 108 26 42
271 290 300 121 96 69
271 294 300 122 96 70
387 356 259 118 96 73
269 299 297 130 99 74
268 304 292 134 99 73
271 299 300 125 97 71
271 304 300 130 99 74
344 957 279 87 83 87
268 309 292 133 99 74
424 604 307 96 74 50
270 309 297 134 100 76
314 649 226 80 28 35
269 314 292 133 101 74
253 578 352 140 104 73
408 476 421 87 49 43
269 319 292 134 102 73
270 319 297 133 100 75
386 640 235 45 30 35
339 749 331 75 62 54
377 481 426 162 18 49
271 319 300 133 101 76
274 299 302 124 97 70
277 288 304 121 95 69
246 644 330 180 127 102
426 880 292 61 54 56
279 294 307 124 96 69
279 299 307 125 95 69
339 509 358 70 22 33
277 304 304 127 96 71
279 304 307 127 96 70
285 294 311 120 92 64
289 294 313 115 90 62
284 299 311 125 92 67
269 549 182 169 5 36
374 465 432 74 20 28
282 304 309 127 94 69
284 304 311 127 94 67
284 339 313 123 96 68
254 589 292 120 25 48
288 299 314 122 92 65
284 799 317 182 141 108
288 304 314 124 92 65
309 442 363 74 39 32
392 953 327 63 57 56
274 309 302 129 100 73
274 319 303 130 99 74
424 900 317 63 53 55
259 754 311 177 128 101
242 512 456 41 33 21
410 836 294 35 31 31
276 310 305 128 99 72
428 604 346 177 120 92
280 612 224 186 10 44
276 319 305 128 99 73
288 309 314 120 91 62
469 803 263 80 63 56
282 314 309 122 94 66
349 849 328 128 103 77
284 314 311 121 93 64
281 320 310 124 96 67
247 627 315 134 101 64
319 440 422 128 27 45
284 319 312 123 94 66
385 304 287 128 97 66
288 314 314 121 93 64
303 259 258 119 93 62
333 555 336 72 20 33
414 644 277 52 36 39
303 264 258 118 92 61
302 274 259 119 92 61
319 444 417 153 18 50
304 274 262 115 90 60
395 930 347 56 48 50
247 684 307 181 123 97
302 279 259 119 92 61
314 364 313 130 90 70
298 289 259 123 93 62
301 284 260 121 92 60
239 548 431 141 69 73
301 289 260 122 92 61
410 819 236 63 51 50
392 441 380 50 35 21
304 289 262 119 92 60
300 538 372 105 0 26
401 429 309 70 26 32
308 259 263 107 84 58
308 264 263 107 85 58
339 494 371 61 25 31
407 639 262 53 30 34
251 589 252 177 1 48
309 259 267 111 88 60
440 819 271 74 56 52
428 864 263 64 54 51
266 455 408 167 17 53
416 624 277 65 31 36
310 259 272 117 94 66
364 539 336 105 19 40
310 264 267 103 83 58
306 270 265 109 86 59
328 549 336 44 25 28
455 753 245 57 46 43
311 269 270 101 81 59
312 266 273 116 92 66
312 269 273 108 87 64
385 710 202 67 53 44
227 550 421 144 97 78
426 501 392 196 137 119
423 564 282 68 30 36
309 259 277 112 89 63
310 264 277 109 87 62
250 572 310 181 0 54
388 542 184 173 12 33
308 259 287 110 86 57
402 937 335 56 47 44
253 549 217 63 26 35
309 259 282 111 88 60
256 511 409 156 8 50
309 264 287 108 85 57
304 314 261 101 83 64
311 268 278 106 85 61
311 269 287 108 85 58
312 266 275 118 95 69
410 474 327 161 17 50
312 269 277 113 91 67
312 270 282 103 82 59
424 464 267 89 22 36
414 824 222 88 69 55
312 271 286 107 85 60
306 274 266 111 87 59
324 529 346 63 22 33
256 496 402 91 4 30
309 274 268 103 82 58
299 899 327 169 115 100
311 274 270 95 77 57
311 950 355 48 44 46
308 284 267 111 87 59
306 289 265 116 90 60
308 289 267 113 89 61
311 285 271 103 83 60
478 870 355 79 66 56
288 535 391 132 11 42
310 289 271 104 84 60
313 279 272 92 77 60
313 284 272 93 76 58
314 274 277 109 89 67
315 279 277 98 82 64
313 274 287 106 84 60
315 279 282 110 90 68
315 279 287 102 82 59
249 559 302 73 25 30
397 554 351 145 89 81
243 549 242 166 0 42
316 284 277 89 75 60
432 626 294 90 75 58
314 289 273 93 77 59
316 287 275 84 71 58
364 662 324 147 11 43
318 289 277 84 73 61
316 283 281 102 85 66
366 601 210 169 8 50
319 289 282 92 79 66
294 259 303 115 91 65
299 389 318 140 102 82
300 258 299 113 90 64
299 264 303 113 91 65
304 259 297 112 88 62
290 448 405 100 12 37
352 835 250 63 52 49
305 264 298 111 88 61
294 599 327 149 13 47
461 699 266 66 51 40
276 404 315 137 101 78
303 265 301 113 89 63
402 927 354 74 66 63
304 269 302 114 90 62
422 553 291 134 26 50
292 259 305 116 92 64
359 684 228 105 24 32
293 264 305 118 94 67
375 586 314 147 11 48
433 881 296 65 56 52
302 271 305 112 89 62
294 273 309 111 89 65
294 284 312 109 88 66
252 605 354 180 122 100
394 548 336 132 3 43
314 811 245 88 67 59
294 289 314 108 86 63
299 274 308 110 89 65
409 899 367 53 46 43
298 276 310 107 86 64
247 522 455 167 14 52
379 584 203 69 34 42
304 279 308 102 82 60
343 461 408 87 18 30
439 689 257 63 49 40
299 284 313 103 84 64
394 883 328 32 30 30
305 288 314 103 84 63
306 257 289 111 87 58
306 259 292 109 86 58
307 260 291 109 86 57
264 704 273 114 83 51
306 262 294 109 86 59
307 265 296 109 86 59
284 453 382 76 36 36
306 267 299 111 88 60
311 272 289 109 85 58
310 274 297 108 83 54
329 624 323 95 33 42
305 273 303 116 91 61
398 394 272 116 93 68
308 274 301 114 89 60
442 639 325 174 119 90
399 888 332 30 28 30
311 278 298 105 80 53
319 441 426 156 16 51
312 275 291 109 85 58
304 885 352 126 97 79
313 279 292 108 84 57
227 538 438 108 85 66
312 276 295 109 84 57
338 697 334 137 16 47
411 626 266 102 35 45
304 290 315 105 85 64
312 279 297 107 82 55
294 354 319 136 99 75
314 534 347 59 26 32
315 284 292 107 83 58
279 445 362 75 47 38
357 514 179 133 4 27
314 284 297 106 82 55
426 597 315 103 83 61
249 594 347 152 111 80
317 286 291 103 80 55
279 823 311 199 144 118
246 523 296 71 23 32
409 693 202 83 57 42
316 287 294 106 81 58
488 734 282 91 73 56
289 535 185 141 0 33
262 535 186 50 32 37
312 281 301 105 81 54
416 464 302 69 27 32
313 284 302 104 82 55
482 839 295 97 78 60
307 276 305 112 89 62
258 554 211 167 13 42
459 807 264 85 62 54
376 304 299 133 98 68
308 285 311 103 84 63
349 314 312 128 91 63
404 635 299 72 13 24
328 309 292 76 62 49
258 558 361 104 43 36
310 287 309 103 83 60
312 285 306 103 82 57
256 674 283 127 92 59
249 559 402 195 130 109
359 439 332 55 35 30
295 294 260 119 89 62
274 524 382 75 20 33
292 297 259 114 86 59
350 442 325 57 43 31
298 292 259 123 93 64
299 294 260 122 92 63
304 294 262 119 92 61
269 764 258 112 81 50
299 299 261 120 91 61
335 834 311 164 120 95
239 544 437 192 149 142
414 678 247 73 54 40
299 304 262 112 87 59
304 299 262 117 91 63
271 590 364 181 122 103
304 304 262 110 88 64
348 549 178 69 36 38
295 316 259 101 82 60
292 319 260 103 83 60
254 539 212 165 7 42
429 850 306 33 29 28
299 309 262 105 83 59
298 316 259 103 83 62
316 318 266 85 73 62
299 314 260 103 83 61
298 614 318 79 23 34
256 534 317 34 30 31
304 320 259 96 80 64
343 564 326 135 9 43
419 845 221 77 65 60
304 472 385 50 19 23
301 318 260 100 83 64
450 886 326 76 59 53
307 295 264 115 90 61
299 620 220 193 11 46
309 294 267 109 87 62
311 293 270 103 84 62
265 608 233 146 21 45
308 299 263 111 89 63
293 329 318 129 93 69
310 299 266 105 86 64
310 304 266 100 83 65
246 714 297 159 108 79
314 294 271 95 79 61
319 299 272 86 73 60
454 709 257 89 70 54
486 808 299 79 63 54
319 304 272 84 72 59
375 689 217 67 52 43
474 909 356 94 77 66
320 294 282 87 75 64
321 299 277 81 71 62
310 308 266 96 81 67
309 319 260 93 79 66
379 604 309 58 19 28
446 876 350 37 35 34
407 937 304 67 59 60
311 312 265 94 80 66
313 309 268 92 78 65
316 308 271 89 76 63
324 314 302 82 60 44
319 309 272 84 72 60
452 882 319 87 70 61
312 315 264 91 78 66
497 786 283 80 62 51
368 465 417 62 26 25
314 319 262 87 76 64
485 720 291 87 69 50
315 314 267 88 76 64
391 704 203 75 60 50
316 312 270 86 74 62
322 900 359 150 101 89
319 313 270 82 71 59
374 859 232 87 71 58
378 670 229 74 37 36
396 397 279 111 91 68
291 296 315 117 91 62
296 290 315 109 86 63
294 294 316 113 90 63
290 299 315 120 91 64
378 937 370 62 55 50
438 833 293 44 38 34
290 304 316 122 91 65
294 299 317 117 90 63
267 800 260 176 120 85
294 304 318 117 91 64
300 889 347 168 125 106
304 294 318 106 86 66
333 899 272 104 74 58
486 789 311 79 60 46
304 297 319 108 88 65
290 309 316 119 90 62
429 719 322 172 120 96
293 309 318 119 90 63
359 634 225 62 36 40
364 709 226 110 18 30
429 793 218 86 69 57
248 519 372 80 27 36
290 314 316 124 92 66
383 928 375 62 57 56
339 442 368 49 35 26
290 319 316 123 93 66
407 524 372 139 103 73
317 290 297 105 81 55
265 369 282 130 101 71
319 294 297 102 79 54
319 539 179 150 2 34
374 474 417 95 17 31
316 292 304 101 80 55
319 299 302 101 76 51
304 585 338 179 16 59
302 687 324 54 22 30
308 291 315 104 85 65
284 449 403 140 16 48
311 292 314 105 85 62
313 295 315 109 88 63
272 424 314 114 85 66
261 395 263 120 96 69
310 379 314 134 95 75
318 299 307 100 77 51
316 298 313 110 86 57
350 292 309 124 98 67
364 894 248 68 60 59
318 300 312 105 81 54
317 301 315 110 84 56
318 304 316 111 84 57
319 309 317 118 88 61
319 319 317 130 88 68
296 305 320 113 90 63
334 444 407 121 21 40
246 543 276 144 10 47
389 470 416 53 23 25
299 304 321 114 90 64
290 699 243 131 12 40
300 300 320 111 88 62
416 564 363 159 112 79
304 304 322 117 92 67
251 690 284 133 94 63
296 314 320 127 93 70
387 957 330 69 65 65
296 319 320 126 91 68
304 309 324 120 92 65
252 549 288 100 23 37
257 408 262 101 84 65
359 439 367 56 34 27
308 300 320 113 89 62
441 629 317 127 94 56
313 305 320 112 87 59
309 309 323 118 92 64
554 814 342 106 92 77
309 314 324 126 93 65
470 821 286 77 60 50
309 319 324 136 93 72
396 388 261 112 91 67
508 825 312 88 77 68
314 314 322 124 90 63
345 894 247 75 67 66
405 929 297 75 64 63
351 467 410 99 13 34
314 319 322 132 89 69
249 709 307 173 118 94
415 488 342 107 18 32
317 318 320 131 90 71
349 394 311 132 95 76
301 924 313 164 127 103
269 329 282 117 93 65
270 464 402 169 16 54
270 334 277 106 86 63
334 624 324 38 27 31
271 335 274 105 85 63
268 334 282 119 94 65
454 764 246 61 48 43
268 334 287 130 99 70
271 339 273 104 85 64
340 404 302 121 83 72
414 789 227 63 50 47
270 344 272 107 87 65
271 349 269 108 88 67
316 930 274 73 66 69
270 349 272 111 90 67
268 344 277 115 92 67
267 344 282 126 98 68
267 344 287 130 100 72
268 339 282 123 97 67
392 264 282 132 96 65
272 469 400 165 11 50
261 439 317 90 21 35
268 349 277 119 95 68
469 819 306 55 45 37
436 807 252 70 56 49
319 446 407 125 12 40
334 764 327 74 61 55
276 324 268 126 98 70
274 329 272 118 93 67
280 334 263 112 90 65
247 774 271 182 123 95
280 329 263 114 91 64
281 324 264 116 91 62
284 324 261 114 89 61
294 454 398 60 26 32
284 329 261 113 90 63
288 328 260 110 88 62
404 469 357 126 18 41
283 334 261 111 89 64
339 447 383 52 39 28
272 329 275 108 87 62
275 339 267 114 93 69
379 479 440 96 21 40
272 339 271 107 87 65
401 652 255 56 30 36
405 904 277 71 62 62
388 344 277 125 99 68
369 289 256 106 84 59
272 343 270 107 88 67
276 345 264 111 91 70
311 934 355 179 138 120
275 349 263 109 90 70
278 348 261 107 88 68
284 339 258 105 87 66
282 338 260 108 88 66
281 345 259 104 87 68
387 288 281 131 94 64
314 439 352 61 44 31
289 339 257 98 82 66
410 714 333 106 26 43
271 583 208 74 33 37
269 324 292 134 101 74
403 559 332 92 26 40
394 709 345 166 13 53
519 846 338 97 83 71
270 324 297 135 101 76
416 614 272 144 19 44
269 329 292 133 101 73
270 334 297 135 102 75
268 344 292 133 100 73
264 474 347 93 24 37
270 344 297 132 100 72
364 478 402 146 10 48
268 349 292 132 101 72
345 451 435 70 22 25
272 329 299 134 103 77
309 959 347 57 52 52
274 329 302 134 102 76
472 723 273 77 66 55
334 444 412 122 24 40
263 444 332 59 26 30
401 522 366 101 24 34
274 334 302 130 100 73
407 843 239 85 69 59
389 805 319 137 109 93
276 324 305 132 100 74
371 314 304 132 99 67
276 329 305 130 100 74
261 523 399 33 24 28
257 413 288 121 96 68
276 334 305 127 99 70
461 718 304 157 103 70
287 324 314 126 97 68
287 329 314 128 97 70
336 281 290 72 57 37
440 629 307 141 104 71
281 330 310 129 101 71
281 334 310 124 96 69
284 334 312 125 96 69
289 329 316 128 95 69
287 334 314 127 97 69
373 689 222 55 43 40
449 714 257 74 54 42
272 339 299 132 101 73
314 534 179 145 0 33
408 904 282 80 68 67
272 342 299 129 99 71
273 344 302 128 99 69
429 649 287 88 71 52
459 844 296 65 52 45
277 344 309 123 96 68
280 339 310 122 95 68
280 344 311 124 97 68
349 441 371 51 22 25
339 453 427 90 14 32
386 294 272 122 96 65
299 799 315 61 50 46
279 349 311 124 97 68
355 807 234 61 52 51
394 820 219 76 60 52
250 524 367 110 12 35
283 344 313 125 97 69
344 839 256 120 85 69
244 749 277 159 109 82
286 345 315 127 97 69
250 524 312 61 28 34
459 699 287 94 75 54
394 518 415 173 116 99
285 349 315 128 97 71
289 349 317 131 97 72
534 844 348 87 72 58
271 360 263 107 88 68
270 359 267 109 89 68
238 524 242 121 10 36
268 359 272 117 94 68
271 366 259 108 90 70
404 609 307 97 58 56
268 369 262 110 90 68
268 364 267 113 92 68
267 363 271 118 95 68
247 714 299 162 109 81
388 480 427 79 15 28
266 369 267 119 95 68
328 394 277 101 66 57
265 369 272 124 98 68
266 366 269 119 95 68
336 309 310 109 80 58
267 354 277 122 97 68
377 972 320 62 57 58
267 358 276 123 97 68
266 359 277 126 99 69
266 354 282 130 101 72
350 462 422 53 23 30
267 353 288 132 102 72
266 359 282 130 102 71
459 795 256 81 61 55
424 649 322 156 112 94
266 359 287 131 102 72
405 549 207 97 33 40
378 374 306 128 99 67
265 364 277 127 100 69
427 584 342 142 104 68
252 529 343 156 0 44
266 361 274 122 97 69
377 722 219 48 40 36
359 294 256 99 84 68
405 514 372 113 39 41
265 364 282 130 101 72
266 364 287 131 101 72
440 829 296 39 33 30
390 505 407 46 24 23
265 369 287 130 101 70
364 978 317 54 51 52
309 329 260 85 75 64
389 534 182 67 28 37
253 589 242 163 6 46
364 473 412 71 20 28
264 374 272 125 99 69
341 457 415 74 13 25
409 849 243 61 52 53
373 480 407 164 12 50
265 374 267 121 97 69
464 868 313 104 80 64
262 384 267 123 98 69
262 383 272 125 99 70
267 373 261 111 91 68
265 379 262 115 93 68
359 344 310 126 95 62
375 799 219 60 50 46
266 381 259 111 90 67
266 384 258 111 90 68
354 769 230 69 52 47
426 504 342 169 16 50
265 539 418 94 22 38
436 851 260 58 50 49
264 374 277 128 101 71
295 709 238 127 8 33
282 670 305 106 71 61
263 379 277 128 101 71
520 850 342 91 78 66
264 374 282 130 101 71
304 539 179 151 1 31
407 844 230 96 78 70
277 447 314 80 54 38
305 534 353 30 25 28
427 828 212 96 74 59
262 384 282 128 100 70
276 356 259 104 87 70
385 673 231 60 41 40
304 324 259 93 79 64
273 359 261 106 89 70
272 354 266 107 88 68
389 819 311 155 115 95
272 357 265 106 88 68
429 874 338 38 34 33
425 504 327 137 13 41
272 363 260 107 89 69
267 357 289 132 101 71
232 541 400 186 121 108
267 359 292 129 99 70
266 360 291 129 100 71
294 404 317 142 105 85
415 810 236 62 48 48
268 359 297 125 97 67
274 424 315 116 86 68
304 649 313 148 14 47
411 750 210 57 47 43
269 354 297 126 97 68
302 529 360 149 5 46
270 359 302 124 97 67
394 754 332 81 65 56
266 364 291 128 99 70
266 370 296 126 98 68
329 537 340 116 14 43
364 604 211 53 35 40
271 359 305 124 97 67
244 519 387 102 18 35
383 525 363 82 22 33
270 369 306 127 99 70
264 384 292 126 98 68
246 573 296 174 6 51
265 374 292 126 99 68
245 539 352 131 11 40
266 374 297 126 99 68
369 749 333 75 62 57
267 372 299 126 98 67
271 455 371 74 34 32
266 375 300 128 100 70
265 379 297 127 99 69
404 401 272 87 44 40
410 934 312 61 53 51
266 379 301 128 100 70
267 383 304 129 100 72
270 374 307 128 99 71
361 952 365 61 54 51
395 453 387 103 21 38
374 424 313 69 55 39
327 872 295 130 97 67
366 888 339 118 88 67
439 878 292 67 56 55
305 607 209 210 13 44
294 734 237 109 21 37
269 379 307 129 100 72
261 459 320 94 26 39
271 380 310 130 100 73
413 485 352 115 6 35
272 353 304 125 97 67
349 929 376 54 49 47
273 359 307 124 97 68
276 360 310 124 97 68
279 354 312 124 96 68
480 734 286 71 57 44
276 356 310 123 96 67
256 607 262 177 4 52
414 524 332 108 19 42
324 436 332 57 44 31
279 359 312 126 97 69
255 592 291 114 21 40
389 599 308 69 21 32
275 364 311 126 97 70
275 369 311 129 99 72
399 489 431 96 60 52
278 369 313 131 100 73
349 639 225 96 26 37
282 354 314 128 98 70
416 876 335 35 31 31
282 358 314 130 99 71
426 861 310 32 29 28
412 928 308 73 64 64
303 508 365 159 11 51
289 354 318 133 98 73
289 359 318 135 100 75
284 404 318 140 105 83
274 599 218 175 11 43
359 265 305 124 97 66
281 361 315 132 100 73
430 860 262 59 52 50
352 456 408 66 23 25
281 364 315 133 101 74
462 872 354 42 38 36
284 364 316 135 101 75
252 580 236 81 20 34
289 369 319 137 102 78
379 884 328 96 78 65
272 373 309 129 100 72
274 374 311 131 101 73
278 374 313 133 102 74
414 609 297 85 38 41
272 377 309 130 101 73
432 870 335 39 35 34
289 719 242 114 22 35
305 664 316 104 15 36
274 379 311 132 101 74
274 384 312 132 101 75
297 802 315 45 41 41
278 379 314 134 101 76
280 379 315 135 101 76
277 384 314 134 100 76
354 294 309 123 94 60
280 384 315 135 100 78
284 379 317 137 101 78
452 894 365 53 46 42
289 379 318 139 103 79
422 503 406 188 129 110
454 848 318 46 39 35
289 384 318 140 105 81
306 944 297 64 60 62
294 324 259 101 83 62
286 580 343 165 20 56
294 329 258 99 82 63
299 329 258 92 78 64
304 329 259 89 77 64
431 599 343 160 112 80
441 806 260 72 59 55
382 937 366 61 55 54
326 392 258 56 45 38
299 334 257 90 78 65
349 817 315 179 133 110
246 536 353 79 14 26
368 824 315 163 124 96
434 838 294 38 34 31
308 321 259 93 79 65
307 327 259 89 77 65
395 805 230 83 61 50
363 977 320 57 53 54
308 335 259 86 76 65
314 324 262 84 73 63
392 554 367 173 117 102
314 329 261 82 72 62
318 326 264 79 68 57
372 634 320 56 31 34
384 309 267 129 102 71
319 967 327 67 62 61
316 323 265 83 72 61
305 959 342 53 49 50
319 323 266 78 67 56
251 537 295 32 27 35
309 339 258 86 75 65
327 414 296 78 53 41
421 836 250 53 45 48
312 339 259 83 73 63
319 339 263 73 64 55
354 441 371 56 21 23
318 341 266 75 66 57
246 654 302 154 107 77
317 342 266 79 68 58
316 348 260 79 69 60
293 339 319 131 96 70
239 514 412 67 33 31
260 631 294 73 55 36
492 793 305 84 64 51
305 345 319 140 96 73
304 349 319 140 98 73
258 479 436 97 8 40
316 329 319 129 87 68
316 321 319 131 89 71
319 324 317 129 86 67
319 329 316 127 86 66
339 438 347 54 41 28
315 334 318 129 85 67
332 971 310 92 88 89
421 499 412 160 103 88
309 344 318 135 88 66
314 339 317 128 84 65
247 538 435 142 12 46
325 884 294 135 105 74
314 344 316 131 88 67
363 429 313 83 64 47
261 465 322 77 25 33
466 779 308 154 103 73
317 338 315 123 84 67
320 339 313 124 85 66
316 344 314 130 90 70
310 869 332 130 61 74
319 344 312 127 87 68
284 804 252 177 123 89
397 932 279 75 68 69
413 480 403 62 42 30
313 349 316 131 89 66
437 887 308 69 57 57
362 447 384 63 31 26
294 359 319 137 100 76
299 460 393 51 26 27
449 898 354 85 66 53
294 364 319 138 102 77
299 359 319 138 100 74
414 878 332 34 31 31
344 454 388 54 39 27
304 359 319 136 94 71
304 369 318 137 97 71
294 374 319 140 103 78
459 801 260 83 64 57
294 379 319 141 104 80
294 384 318 141 105 81
424 754 323 131 97 74
385 389 303 125 97 65
304 374 317 136 97 71
376 431 360 63 27 26
299 379 318 140 102 77
299 384 318 140 102 79
469 819 198 92 81 72
257 508 411 162 13 49
379 679 333 48 28 31
428 599 346 170 118 89
304 384 316 138 99 78
252 588 345 139 104 71
309 359 317 132 92 68
379 814 228 64 55 53
267 469 363 71 30 33
309 364 316 133 93 69
374 349 302 126 99 67
309 369 316 133 93 68
274 494 388 145 7 43
318 359 311 128 89 69
315 359 313 129 90 70
290 581 339 166 20 56
313 354 315 131 90 68
230 530 437 126 95 78
312 359 315 131 91 68
407 429 290 129 10 38
318 364 310 129 89 69
359 764 327 75 61 55
320 364 308 129 88 69
314 369 312 130 91 71
320 369 308 130 89 70
308 374 316 134 94 70
279 599 347 94 54 54
310 375 314 133 94 71
307 384 315 137 99 78
320 374 308 132 90 72
300 612 214 210 12 48
323 304 297 92 69 47
372 418 315 88 68 48
314 379 311 133 94 74
269 649 281 93 47 37
313 384 311 134 94 76
319 379 307 131 90 73
389 925 374 69 63 62
296 334 320 132 96 71
309 843 282 61 50 52
299 324 322 133 94 73
299 329 321 133 93 72
376 467 439 107 19 39
384 414 310 74 52 41
304 324 323 137 95 77
299 334 321 133 96 72
378 867 218 95 79 69
484 879 336 96 78 67
251 584 242 171 1 44
296 339 320 133 97 71
329 444 427 114 37 47
349 744 229 107 24 34
327 328 297 80 66 62
304 344 320 141 98 75
416 623 336 184 129 107
283 473 390 102 12 35
285 719 321 158 16 50
259 490 441 141 18 47
299 349 320 140 101 76
260 460 408 157 14 49
309 334 321 134 91 68
314 324 321 132 88 68
394 564 317 47 26 29
319 440 357 57 39 30
313 329 320 131 88 67
313 334 320 130 86 65
294 824 308 127 98 83
460 870 311 93 71 60
394 929 277 60 54 56
312 337 320 132 88 66
298 352 320 139 102 75
444 888 327 69 55 51
335 289 277 82 70 59
336 284 277 84 72 60
389 500 403 60 22 29
369 879 332 133 105 78
335 284 282 87 76 64
284 459 392 108 20 39
344 259 267 100 81 60
344 264 267 98 79 58
319 570 190 102 29 38
364 514 180 135 7 28
341 265 272 101 82 61
280 559 367 96 28 42
459 751 248 60 48 43
342 263 272 100 81 60
342 267 270 96 79 60
423 598 350 186 124 98
264 419 307 121 94 70
263 570 322 182 0 56
348 259 262 108 86 59
351 259 258 117 91 61
351 264 259 112 89 61
408 773 325 77 63 56
350 269 258 107 86 61
376 379 309 130 99 65
342 259 277 105 85 61
342 262 277 102 82 60
341 264 277 101 82 61
341 265 281 103 83 60
343 264 287 106 84 60
339 269 277 102 83 64
359 443 377 62 31 26
340 269 282 98 79 59
341 269 287 102 81 57
341 266 285 104 83 58
389 529 180 60 31 37
396 467 385 130 9 44
342 268 288 105 82 57
344 279 263 97 80 60
268 525 391 51 27 30
339 274 272 91 75 59
340 279 267 89 74 59
338 279 272 87 73 59
244 654 317 155 111 79
259 569 387 186 123 105
344 276 264 99 80 59
341 276 264 96 79 61
339 289 262 93 78 63
344 284 262 95 79 62
314 814 313 62 56 54
246 679 302 167 114 85
344 289 261 94 80 65
319 843 291 154 109 83
337 288 266 86 74 61
361 458 401 53 37 27
279 794 318 180 140 107
336 285 273 85 72 58
269 794 317 179 135 105
327 894 287 124 94 72
348 279 261 98 81 62
349 274 262 101 82 61
499 794 302 90 70 55
414 664 312 138 89 79
319 442 367 55 36 28
351 279 259 101 83 64
348 274 266 102 82 59
351 284 259 98 82 65
334 610 210 157 20 44
351 289 258 96 82 68
424 814 241 62 51 49
337 279 277 90 76 61
338 274 282 97 80 63
309 659 317 154 15 48
378 434 315 57 42 31
245 669 312 184 128 103
255 553 351 169 17 52
337 278 281 99 83 67
336 280 282 96 82 67
336 280 286 94 77 59
337 282 276 87 74 60
294 504 372 152 6 48
493 860 323 102 77 61
281 664 304 125 82 73
336 285 292 76 62 46
309 754 232 71 32 38
345 269 297 107 85 60
324 794 237 77 62 54
320 600 329 69 28 36
346 259 296 110 87 62
373 578 199 183 8 39
319 549 181 103 27 40
422 548 296 40 29 31
275 590 358 153 96 87
346 264 297 107 85 60
415 885 271 72 61 59
401 559 344 136 82 77
348 259 298 110 87 62
350 259 301 109 86 61
439 724 323 178 124 92
349 264 301 107 85 60
316 547 349 82 24 31
341 276 295 105 82 57
343 274 297 107 85 60
295 440 411 146 17 50
265 614 238 105 29 42
346 978 304 58 53 53
340 279 297 102 80 57
344 279 302 101 80 58
272 457 378 49 36 26
337 283 293 82 65 45
354 453 427 74 22 26
338 284 297 92 73 51
413 469 317 113 20 41
369 389 313 134 99 67
336 286 296 80 65 46
398 589 218 105 27 40
335 289 297 79 63 45
340 284 301 99 79 58
246 526 378 39 23 32
268 569 202 55 34 37
338 289 302 101 79 57
348 273 304 108 86 61
470 764 292 121 81 51
280 465 394 36 25 28
291 691 315 63 24 31
344 284 306 104 82 61
422 574 267 168 17 49
340 290 306 102 79 58
488 872 346 84 67 60
261 481 351 54 30 36
434 864 332 38 35 33
344 289 308 108 85 61
384 890 332 40 36 34
314 819 247 85 66 58
347 277 304 100 79 56
382 404 310 121 95 69
349 279 306 112 90 66
327 903 281 94 65 55
349 284 308 114 91 67
349 289 309 118 93 68
401 594 310 89 21 33
333 299 272 81 70 60
458 868 308 79 61 53
394 503 421 165 111 99
399 659 308 129 12 40
334 304 268 80 68 56
353 319 310 129 91 62
323 304 277 77 68 59
252 527 365 70 26 26
374 468 408 52 31 24
321 297 282 85 74 62
322 299 282 84 72 62
242 523 390 53 21 29
449 784 323 175 128 96
329 664 323 163 12 52
322 299 287 86 70 55
468 797 259 83 62 51
394 934 347 55 48 48
334 449 427 145 12 49
324 304 282 81 71 61
324 629 221 50 35 39
251 743 305 171 118 91
404 678 237 82 38 39
334 294 277 79 68 56
328 919 262 67 62 63
332 294 287 84 72 59
332 299 277 75 65 55
405 702 208 67 51 44
388 902 357 33 31 32
251 534 342 103 9 34
328 924 261 76 67 66
331 300 282 74 63 51
252 526 415 82 12 36
332 298 282 76 64 53
329 859 297 147 102 76
348 297 260 94 81 69
301 892 350 197 146 129
323 309 273 73 63 54
322 316 269 72 62 53
332 308 270 72 63 53
362 880 346 146 113 88
438 758 234 69 52 44
331 313 268 67 56 47
468 784 258 71 56 49
331 314 272 64 55 47
267 458 411 174 16 54
330 319 268 62 52 43
339 439 352 53 40 28
370 329 303 134 100 68
329 319 272 63 53 43
334 314 267 71 61 51
334 319 268 71 60 49
335 316 270 71 62 53
435 794 242 54 44 43
325 309 287 83 69 57
339 614 213 115 30 43
329 309 282 68 58 49
339 850 342 124 98 70
328 309 287 73 61 50
405 634 301 74 22 28
332 302 304 76 60 42
326 313 280 75 66 59
413 614 252 67 37 41
328 313 281 68 58 49
259 474 414 144 12 46
395 874 243 62 54 54
328 319 280 70 58 48
331 309 277 67 58 51
406 477 388 88 8 30
339 294 263 93 78 63
304 444 407 85 23 36
344 294 261 93 80 66
349 542 335 103 21 40
337 295 266 88 75 62
340 299 264 90 77 64
401 462 347 41 30 32
343 299 261 91 79 66
343 304 262 89 77 66
359 304 308 131 93 64
474 854 307 94 76 63
338 299 266 89 76 62
251 635 299 99 78 53
423 495 342 126 15 41
417 484 292 102 21 40
350 294 258 96 83 69
345 304 258 90 78 67
339 309 262 85 73 61
392 745 205 61 49 41
343 308 260 86 74 63
341 311 259 85 74 62
337 307 265 85 73 60
373 520 354 61 22 29
267 620 241 82 31 38
346 502 365 60 25 33
423 909 356 62 51 44
336 310 264 82 70 58
406 520 343 53 26 33
338 314 261 80 70 60
411 463 318 99 24 37
369 495 383 163 11 50
336 313 264 76 66 55
340 319 263 78 68 59
342 316 260 83 73 62
281 575 369 45 23 28
337 316 266 72 63 53
321 298 292 88 68 47
354 495 373 37 25 27
284 504 378 56 19 28
398 934 282 80 72 72
323 304 292 88 67 48
322 301 300 101 77 53
282 573 370 132 27 49
322 305 302 95 72 49
333 294 297 75 59 42
331 299 292 79 65 50
423 503 352 190 16 58
331 299 297 79 63 44
412 464 317 76 26 32
314 435 332 62 46 32
447 882 314 78 63 60
329 304 297 78 62 44
257 600 241 49 29 35
330 304 302 76 59 41
333 299 303 83 64 43
331 305 306 76 58 37
267 473 412 158 12 53
414 849 222 84 68 60
335 300 306 99 76 52
349 600 206 139 34 47
334 304 307 96 71 49
312 903 300 167 123 99
325 309 292 83 65 49
324 309 297 81 61 42
364 779 217 70 55 49
388 259 291 124 95 62
244 559 407 214 144 124
324 309 302 90 67 47
326 313 293 76 59 45
325 314 297 74 56 41
439 894 332 68 56 53
327 313 293 72 57 44
326 319 294 70 54 42
326 319 297 70 51 38
327 314 302 79 60 47
458 833 288 71 55 49
326 319 302 83 60 46
322 309 307 93 71 48
321 308 313 110 83 56
322 309 312 106 78 53
334 724 225 148 1 38
322 311 315 121 85 64
324 319 307 96 65 47
274 619 342 174 120 102
283 499 380 117 14 39
330 309 307 76 57 37
334 309 309 98 72 50
259 721 269 119 89 56
333 314 309 105 75 55
334 319 310 118 82 64
374 958 278 73 68 71
247 556 269 165 0 45
336 291 300 97 76 54
337 293 303 105 82 59
408 685 223 91 65 48
386 337 277 125 99 68
354 564 187 131 17 37
339 294 307 104 81 58
257 504 451 166 16 53
345 294 310 117 92 66
384 933 268 76 69 69
336 296 305 102 79 56
340 447 407 108 22 37
337 303 309 105 77 56
415 454 292 68 27 32
344 299 311 118 92 65
250 669 292 149 103 74
344 304 311 122 91 64
349 294 310 124 97 68
349 304 311 127 94 65
339 319 312 128 89 71
349 319 312 132 90 64
304 569 346 63 23 33
298 457 395 62 22 29
354 279 257 103 85 65
262 609 282 57 29 34
364 289 256 103 83 61
374 284 256 126 98 67
315 549 362 99 19 37
383 264 295 127 95 62
374 289 257 120 94 66
259 484 432 137 13 44
289 631 304 75 25 32
383 274 258 142 106 70
379 719 202 69 53 46
331 472 390 120 14 41
468 714 281 67 54 42
509 868 342 99 77 59
384 279 262 145 106 73
301 827 259 93 70 62
389 439 377 54 43 30
378 289 259 129 101 71
354 259 303 116 92 66
353 269 304 117 91 65
344 924 372 42 39 39
369 259 303 125 96 61
412 851 244 64 54 55
259 464 317 78 26 35
369 264 303 126 97 61
304 944 302 61 57 59
246 559 266 163 0 45
359 259 304 121 96 67
491 839 309 99 86 77
359 269 305 124 96 65
364 259 304 125 97 64
364 264 304 124 96 62
364 269 304 126 95 61
404 609 303 93 26 37
304 441 361 82 40 35
369 269 304 127 96 62
354 274 305 118 91 66
354 279 306 120 96 69
509 839 327 85 73 61
490 882 318 78 61 58
359 274 305 124 94 63
354 284 307 120 95 66
384 314 267 130 101 71
354 289 308 122 95 63
359 785 221 69 54 48
420 454 272 92 24 35
307 519 360 150 5 47
472 836 310 75 63 54
365 274 304 127 95 61
412 564 302 47 30 33
364 279 305 128 97 61
261 527 404 51 33 26
369 274 304 128 96 63
366 278 304 127 95 62
247 574 252 168 0 45
282 622 320 41 24 30
261 486 392 134 14 41
252 559 292 83 24 37
269 574 382 189 129 109
369 279 304 127 97 62
364 284 305 126 97 61
367 280 305 126 96 61
402 434 307 73 22 31
369 284 304 127 97 62
367 284 305 126 97 60
280 634 307 110 53 54
368 289 305 130 98 63
256 597 285 36 30 32
374 269 302 127 95 62
383 259 295 124 95 61
379 259 298 123 94 58
382 269 295 128 96 63
409 554 312 108 26 41
377 269 300 125 94 60
409 644 267 105 24 39
381 502 391 120 12 45
262 413 304 131 101 74
374 274 301 127 95 60
370 289 304 130 98 64
403 739 335 69 29 34
374 284 301 126 97 62
373 289 301 129 98 65
354 539 337 74 21 34
382 274 295 128 94 63
353 598 330 54 30 35
384 279 292 134 98 69
425 499 342 143 12 43
377 274 300 126 94 62
334 414 297 105 71 61
384 284 292 134 99 71
379 289 297 128 97 64
376 284 299 126 97 61
285 684 252 80 34 40
376 289 299 128 95 63
259 784 312 172 127 98
420 909 358 68 56 47
440 850 317 35 31 29
354 294 257 95 82 69
346 540 175 105 34 42
369 294 257 96 79 62
374 294 257 110 89 66
424 684 243 72 56 44
332 385 299 127 84 72
417 607 258 58 37 38
410 810 208 88 61 49
306 876 321 129 92 72
374 304 256 108 89 68
378 294 259 121 96 69
418 549 232 162 20 46
382 294 264 121 96 68
324 484 377 76 20 34
384 294 267 124 99 69
307 954 349 52 48 49
342 894 257 54 49 50
378 299 259 116 94 68
382 304 263 119 95 68
389 909 261 64 57 57
384 299 267 121 96 68
334 919 253 81 71 70
479 895 337 95 78 65
384 304 267 127 100 71
381 309 261 117 94 67
310 864 317 160 122 93
317 918 359 156 132 112
423 884 292 61 54 57
378 314 258 116 94 69
268 509 391 31 26 27
380 314 261 117 94 68
395 449 367 128 10 38
399 804 318 68 55 49
382 319 263 120 96 71
396 658 245 79 28 30
359 294 308 126 94 60
356 299 309 128 91 60
354 437 352 57 36 27
466 768 304 152 101 67
354 304 310 130 91 64
359 299 308 132 94 62
364 294 306 129 95 63
472 802 264 76 60 53
368 294 305 132 98 64
364 304 306 132 93 64
368 304 305 134 97 69
356 309 309 126 90 61
345 443 317 63 49 35
354 314 310 128 90 62
436 882 294 66 57 54
356 319 309 128 90 62
364 309 306 129 94 61
421 506 404 188 125 109
364 314 306 131 96 63
347 850 261 82 64 57
274 804 316 188 142 115
369 433 315 65 51 36
364 319 306 133 96 66
368 314 305 132 99 65
368 319 305 134 98 67
370 294 304 134 100 65
354 459 402 61 28 24
374 294 301 131 98 64
374 299 301 131 97 65
479 839 296 94 74 58
383 294 292 134 100 69
254 779 308 167 121 91
381 294 294 134 101 69
410 676 249 81 44 48
415 488 317 129 14 41
376 294 299 130 99 65
394 767 209 78 59 47
450 840 286 58 49 48
379 299 297 132 99 70
411 644 271 89 22 35
339 334 312 131 92 70
381 299 294 134 101 70
383 304 292 133 99 70
379 304 297 134 101 70
385 867 223 104 88 79
381 304 294 134 101 70
396 398 282 104 85 64
376 299 299 130 97 67
392 263 268 139 100 65
369 559 326 145 12 47
471 744 283 70 51 36
414 864 307 34 31 30
370 309 304 134 100 67
383 309 292 133 102 72
466 784 307 150 100 72
319 519 179 117 11 31
381 309 294 136 103 74
245 629 332 163 115 87
379 309 297 135 102 73
419 841 214 61 47 50
251 529 337 163 0 47
376 310 299 136 102 71
275 654 267 134 16 41
383 314 292 135 103 73
379 314 297 136 104 74
379 319 297 135 102 74
381 319 294 135 103 74
244 539 437 151 27 54
376 319 299 136 101 72
324 324 267 66 58 50
235 520 427 116 95 73
322 326 264 68 59 51
388 701 345 158 5 48
324 329 266 65 57 49
408 667 303 41 22 26
358 455 427 74 20 25
